ply
format ascii 1.0
element vertex 2126
property float x
property float y
property float z
end_header
-234.70 -891.87 2586.5
-221.73 -867.36 2515.4
-214.93 -866.23 2512.2
-212.91 -884.93 2566.4
-208.12 -892.89 2589.5
-199.17 -882.98 2560.7
-188.59 -864.92 2508.4
-181.44 -861.82 2499.4
-177.49 -874.32 2535.6
-170.50 -872.18 2529.4
-163.36 -869.06 2520.4
-157.73 -874.07 2534.9
-149.43 -864.10 2506.0
-143.22 -865.85 2511.1
-139.25 -881.91 2557.6
-133.27 -886.25 2570.2
-126.44 -885.05 2566.8
-120.72 -891.99 2586.9
-113.82 -890.46 2582.4
-105.13 -873.93 2534.5
-98.06 -869.45 2521.5
-91.77 -871.81 2528.3
-86.24 -882.31 2558.8
-67.38 -896.18 2599.0
-58.11 -858.75 2490.5
-50.93 -846.73 2455.6
-45.56 -865.68 2510.6
-38.83 -860.82 2496.5
-32.03 -852.05 2471.0
-26.35 -876.19 2541.1
-19.85 -879.80 2551.5
-12.76 -848.52 2460.8
-6.30 -838.42 2431.5
0.00 -840.05 2436.2
6.31 -839.40 2434.3
12.70 -844.28 2448.5
19.24 -853.07 2474.0
25.90 -861.20 2497.6
32.30 -859.22 2491.8
38.54 -854.30 2477.6
44.41 -843.84 2447.2
49.99 -831.09 2410.2
57.25 -846.04 2453.6
64.91 -863.26 2503.6
70.83 -856.36 2483.5
76.82 -851.42 2469.2
85.16 -871.23 2526.7
99.27 -880.20 2552.7
101.69 -845.27 2451.4
112.24 -878.08 2546.5
135.03 -897.97 2604.2
-336.64 -959.79 2762.7
-314.66 -958.28 2758.4
-305.18 -951.02 2737.5
-295.91 -944.08 2717.5
-280.94 -918.19 2643.0
-272.20 -911.88 2624.8
-266.89 -916.99 2639.5
-253.06 -892.37 2568.7
-237.30 -883.28 2542.5
-235.62 -902.11 2596.7
-226.62 -893.14 2570.9
-215.81 -876.30 2522.4
-210.17 -880.07 2533.3
-205.68 -889.07 2559.2
-196.81 -879.09 2530.4
-191.06 -882.84 2541.2
-188.34 -901.33 2594.4
-183.36 -909.99 2619.4
-175.32 -903.59 2600.9
-164.45 -881.45 2537.2
-155.55 -868.47 2499.9
-149.99 -873.84 2515.3
-146.18 -890.34 2562.8
-141.76 -904.55 2603.7
-135.46 -907.61 2612.5
-127.22 -897.22 2582.6
-120.10 -894.05 2573.5
-114.81 -904.96 2604.9
-107.67 -901.77 2595.7
-99.63 -890.05 2562.0
-92.52 -885.53 2549.0
-86.20 -888.56 2557.7
-81.28 -907.65 2612.6
-66.15 -886.44 2551.6
-58.81 -875.67 2520.6
-53.24 -891.79 2567.0
-46.66 -893.14 2570.9
-39.08 -872.83 2512.4
-31.79 -851.86 2452.0
-25.78 -863.70 2486.1
-19.72 -880.78 2535.3
-12.87 -862.41 2482.4
-6.49 -869.64 2503.2
6.50 -871.61 2508.9
12.87 -862.41 2482.4
19.31 -862.40 2482.4
25.69 -860.74 2477.6
32.04 -858.75 2471.9
38.19 -852.82 2454.8
44.07 -843.60 2428.3
49.62 -831.09 2392.3
67.57 -823.07 2369.2
75.35 -841.39 2421.9
81.49 -840.01 2417.9
88.78 -849.78 2446.1
98.24 -877.59 2526.1
107.67 -901.77 2595.7
-344.72 -969.52 2770.1
-295.87 -951.02 2717.2
-276.82 -911.49 2604.2
-264.48 -892.64 2550.4
-256.03 -886.27 2532.2
-251.65 -894.04 2554.4
-246.98 -901.14 2574.7
-240.97 -903.64 2581.8
-236.29 -911.40 2604.0
-228.09 -905.66 2587.6
-217.81 -891.03 2545.8
-210.23 -886.92 2534.1
-203.78 -887.41 2535.5
-197.75 -889.88 2542.5
-194.87 -907.17 2591.9
-189.69 -914.58 2613.1
-182.22 -911.10 2603.1
-176.26 -915.20 2614.9
-167.43 -904.13 2583.2
-155.48 -874.58 2498.8
-145.41 -892.31 2549.4
-135.80 -916.62 2618.9
-126.37 -897.91 2565.5
-120.09 -900.65 2573.3
-115.71 -918.90 2625.4
-107.51 -907.11 2591.7
-98.63 -887.71 2536.3
-92.62 -893.07 2551.6
-87.31 -906.68 2590.5
-80.98 -911.04 2603.0
-73.62 -903.51 2581.5
-65.12 -879.13 2511.8
-58.11 -871.58 2490.2
-52.75 -890.12 2543.2
-46.40 -894.79 2556.5
-39.40 -886.56 2533.0
-32.49 -877.35 2506.7
-25.55 -862.17 2463.4
-18.94 -852.28 2435.1
-12.84 -866.50 2475.7
6.52 -879.72 2513.5
12.94 -873.44 2495.5
19.46 -875.74 2502.1
25.70 -867.46 2478.5
31.78 -858.19 2452.0
38.05 -856.18 2446.2
44.14 -851.19 2432.0
49.36 -832.98 2380.0
67.65 -830.20 2372.0
76.46 -860.19 2457.7
83.78 -870.03 2485.8
87.58 -844.54 2413.0
92.69 -834.23 2383.5
104.18 -879.05 2511.6
120.44 -903.29 2580.8
-342.16 -990.07 2808.0
-324.24 -958.62 2718.8
-320.34 -968.13 2745.8
-310.95 -961.11 2725.8
-294.03 -929.94 2637.4
-264.95 -900.84 2554.9
-258.96 -903.04 2561.1
-256.91 -919.47 2607.7
-249.57 -917.36 2601.7
-241.04 -910.60 2582.6
-236.70 -919.74 2608.5
-228.66 -914.62 2594.0
-220.12 -907.18 2572.9
-214.28 -910.67 2582.8
-206.18 -904.54 2565.4
-198.84 -901.39 2556.5
-196.20 -920.12 2609.6
-180.69 -910.14 2581.3
-171.61 -897.68 2545.9
-165.34 -899.47 2551.0
-155.77 -882.67 2503.4
-143.42 -886.57 2514.4
-141.07 -913.58 2591.0
-133.44 -907.38 2573.5
-126.87 -908.15 2575.6
-106.37 -904.12 2564.2
-98.52 -893.23 2533.3
-93.43 -907.60 2574.1
-86.89 -909.00 2578.1
-79.48 -900.76 2554.7
-74.29 -918.44 2604.8
-58.70 -886.97 2515.6
-51.73 -879.37 2494.0
-45.42 -882.40 2502.6
-38.49 -872.46 2474.4
-31.92 -868.17 2462.2
-25.27 -859.21 2436.8
-19.00 -861.22 2442.5
-13.03 -886.18 2513.3
0.00 -875.55 2483.2
6.35 -864.24 2451.1
12.85 -873.54 2477.5
19.42 -880.18 2496.3
25.79 -876.83 2486.8
32.02 -870.83 2469.8
38.48 -872.13 2473.5
44.97 -873.75 2478.1
50.77 -863.08 2447.8
56.36 -851.73 2415.6
62.75 -853.34 2420.2
70.49 -871.57 2471.9
84.63 -885.41 2511.1
105.12 -893.48 2534.0
117.26 -885.99 2512.8
-367.51 -1006.99 2835.1
-358.13 -1001.30 2819.1
-348.24 -993.94 2798.4
-275.08 -919.17 2587.9
-272.52 -933.38 2627.9
-267.67 -940.26 2647.3
-261.97 -944.48 2659.1
-251.35 -930.69 2620.3
-240.23 -914.22 2573.9
-233.52 -914.08 2573.5
-227.97 -918.60 2586.3
-221.88 -921.12 2593.3
-217.22 -929.97 2618.3
-210.77 -931.48 2622.5
-200.87 -917.29 2582.6
-196.04 -926.14 2607.5
-173.50 -914.23 2574.0
-164.78 -903.01 2542.4
-158.80 -906.48 2552.1
-152.60 -908.95 2559.1
-144.53 -900.05 2534.0
-137.16 -894.81 2519.3
-132.16 -905.29 2548.8
-128.07 -923.45 2599.9
-114.16 -919.97 2590.1
-106.32 -910.36 2563.1
-100.60 -918.80 2586.8
-94.55 -925.24 2604.9
-86.95 -916.28 2579.7
-79.50 -907.65 2555.4
-74.28 -925.11 2604.6
-59.99 -913.18 2571.0
-52.78 -903.85 2544.7
-46.20 -904.23 2545.8
-38.58 -880.84 2479.9
-31.50 -863.13 2430.1
-25.20 -863.15 2430.1
-19.11 -872.87 2457.5
-12.77 -874.56 2462.3
-6.31 -863.86 2432.1
0.00 -864.86 2435.0
6.39 -875.24 2464.2
12.84 -879.25 2475.5
19.29 -880.91 2480.1
25.71 -880.55 2479.1
32.06 -878.52 2473.4
38.65 -882.51 2484.6
45.33 -887.16 2497.7
51.63 -884.11 2489.1
57.86 -880.72 2479.6
63.33 -867.62 2442.7
69.79 -869.24 2447.3
78.77 -899.29 2531.9
84.38 -889.18 2503.4
88.06 -861.68 2426.0
97.08 -886.69 2496.4
118.93 -905.16 2548.4
122.78 -885.33 2492.6
132.45 -907.29 2554.4
-377.02 -1000.55 2796.6
-367.41 -994.17 2778.7
-357.53 -986.77 2758.1
-319.92 -959.76 2682.6
-307.70 -943.61 2637.4
-289.48 -929.03 2596.7
-293.94 -965.79 2699.4
-278.91 -962.23 2689.5
-271.15 -959.44 2681.7
-262.87 -954.62 2668.2
-254.93 -950.81 2657.5
-246.34 -944.30 2639.4
-235.80 -929.73 2598.6
-226.80 -920.52 2572.9
-218.48 -913.65 2553.7
-211.75 -913.16 2552.3
-208.04 -926.09 2588.5
-201.21 -925.59 2587.0
-194.47 -925.41 2586.6
-189.84 -935.65 2615.2
-184.01 -940.51 2628.8
-174.76 -927.55 2592.5
-167.69 -925.67 2587.3
-163.41 -939.59 2626.2
-153.93 -923.58 2581.4
-142.97 -896.79 2506.6
-136.69 -898.25 2510.6
-132.59 -914.85 2557.0
-127.50 -926.06 2588.4
-121.24 -929.53 2598.1
-112.49 -913.13 2552.2
-104.24 -899.08 2513.0
-98.83 -909.27 2541.4
-92.97 -916.42 2561.4
-84.75 -899.65 2514.6
-76.95 -884.91 2473.3
-71.10 -892.04 2493.3
-64.64 -892.09 2493.4
-57.96 -888.78 2484.2
-52.23 -900.95 2518.2
-46.35 -913.79 2554.1
-39.26 -903.04 2524.0
-31.78 -877.14 2451.6
-25.17 -868.40 2427.2
-19.13 -879.87 2459.3
-12.80 -883.25 2468.7
-6.32 -871.81 2436.7
0.00 -872.15 2437.7
6.42 -885.28 2474.4
12.93 -892.01 2493.2
19.26 -885.94 2476.2
25.49 -879.52 2458.3
32.09 -885.56 2475.2
39.04 -897.99 2509.9
44.97 -886.50 2477.8
50.26 -866.93 2423.1
57.19 -876.99 2451.2
63.62 -877.95 2453.9
69.04 -866.11 2420.8
76.57 -880.53 2461.1
83.77 -889.22 2485.4
89.32 -880.39 2460.7
95.58 -879.31 2457.7
103.27 -890.67 2489.4
113.32 -919.86 2571.1
118.92 -911.69 2548.2
136.64 -897.92 2509.7
-390.12 -1023.15 2839.2
-375.83 -1004.63 2787.8
-371.93 -1013.68 2812.9
-362.80 -1008.59 2798.8
-346.16 -981.96 2724.9
-321.11 -970.31 2692.5
-312.03 -963.83 2674.6
-304.54 -962.06 2669.6
-287.07 -973.24 2700.7
-277.13 -963.01 2672.3
-268.94 -958.51 2659.8
-258.59 -945.90 2624.8
-248.88 -934.97 2594.5
-246.49 -951.72 2640.9
-228.35 -933.53 2590.5
-215.66 -908.37 2520.7
-207.76 -902.46 2504.3
-202.81 -909.39 2523.5
-195.72 -906.85 2516.4
-188.60 -903.96 2508.4
-183.28 -909.87 2524.8
-176.70 -909.68 2524.3
-170.81 -913.20 2534.1
-166.83 -927.55 2573.9
-160.53 -929.72 2579.9
-149.32 -902.43 2504.2
-142.96 -903.23 2506.4
-140.77 -931.78 2585.6
-132.92 -923.77 2563.4
-124.43 -910.33 2526.1
-117.59 -908.06 2519.8
-108.46 -886.81 2460.8
-101.19 -879.11 2439.5
-96.56 -894.77 2482.9
-90.61 -899.59 2496.3
-82.43 -881.37 2445.7
-69.89 -883.19 2450.8
-64.01 -889.68 2468.8
-57.85 -893.46 2479.3
-50.96 -885.37 2456.8
-44.20 -877.62 2435.3
-38.72 -896.97 2489.0
-32.41 -901.07 2500.4
-25.79 -896.35 2487.3
-19.69 -912.30 2531.6
-13.10 -910.62 2526.9
-6.42 -893.00 2478.0
0.00 -868.93 2411.2
12.59 -874.68 2427.2
18.97 -879.08 2439.4
25.00 -868.89 2411.1
31.33 -870.90 2416.7
38.88 -900.70 2499.4
45.70 -907.45 2518.1
50.08 -870.12 2414.5
55.81 -861.94 2391.8
62.62 -870.36 2415.2
68.52 -865.90 2402.8
75.07 -869.57 2413.0
81.07 -866.80 2405.3
88.12 -874.86 2427.7
96.19 -891.39 2473.5
102.09 -886.90 2461.1
110.03 -899.68 2496.6
118.25 -913.14 2533.9
123.18 -901.19 2500.7
130.09 -904.13 2508.9
-347.28 -1012.89 2790.6
-329.55 -981.65 2704.5
-323.08 -983.27 2709.0
-310.47 -965.90 2661.2
-299.81 -953.94 2628.2
-303.49 -988.12 2722.4
-281.57 -961.45 2648.9
-270.88 -948.09 2612.1
-266.16 -955.44 2632.3
-259.12 -954.64 2630.1
-245.35 -928.35 2557.7
-239.12 -929.91 2562.0
-238.90 -955.60 2632.8
-229.73 -945.93 2606.1
-220.21 -934.22 2573.9
-215.21 -941.54 2594.0
-207.69 -937.97 2584.2
-198.04 -924.19 2546.2
-188.86 -911.76 2512.0
-181.57 -907.83 2501.2
-176.09 -913.08 2515.6
-171.37 -922.76 2542.3
-163.47 -915.40 2522.0
-144.71 -920.90 2537.2
-141.58 -943.84 2600.4
-132.76 -929.31 2560.3
-122.48 -902.49 2486.4
-114.25 -888.61 2448.2
-96.92 -904.56 2492.1
-92.30 -923.05 2543.1
-85.28 -918.35 2530.1
-78.98 -921.49 2538.8
-72.81 -926.66 2553.1
-66.27 -927.74 2556.0
-60.04 -933.94 2573.1
-53.00 -927.50 2555.4
-44.36 -887.29 2444.6
-37.44 -873.68 2407.1
-31.90 -893.15 2460.7
-25.81 -903.41 2489.0
-19.38 -904.45 2491.9
-12.71 -889.80 2451.5
-6.35 -888.44 2447.7
0.00 -879.23 2422.4
12.36 -864.89 2382.9
18.90 -881.94 2429.8
25.30 -885.33 2439.2
31.29 -876.10 2413.7
38.32 -894.15 2463.5
51.77 -906.01 2496.2
56.40 -877.31 2417.1
61.76 -864.64 2382.2
68.12 -866.98 2388.6
75.16 -876.81 2415.7
83.50 -899.25 2477.5
106.02 -927.66 2555.8
119.29 -927.81 2556.2
-393.06 -1026.32 2807.6
-383.85 -1021.19 2793.5
-370.07 -1003.45 2745.0
-364.66 -1008.18 2757.9
-362.33 -1021.77 2795.1
-351.99 -1012.86 2770.8
-346.88 -1018.95 2787.4
-340.20 -1020.60 2791.9
-309.78 -970.63 2655.2
-299.03 -958.26 2621.4
-302.72 -992.65 2715.4
-286.20 -984.25 2692.5
-273.08 -962.62 2633.3
-266.13 -962.16 2632.0
-259.46 -962.72 2633.6
-245.95 -937.28 2564.0
-236.39 -925.86 2532.7
-233.10 -939.05 2568.8
-228.13 -946.08 2588.1
-222.35 -950.03 2598.9
-218.91 -964.59 2638.7
-201.74 -948.17 2593.8
-191.03 -928.81 2540.8
-183.73 -925.20 2530.9
-178.24 -930.83 2546.3
-172.43 -935.09 2558.0
-163.63 -922.89 2524.6
-156.64 -920.28 2517.5
-152.93 -937.55 2564.7
-145.39 -931.85 2549.1
-137.32 -922.02 2522.2
-131.24 -925.22 2531.0
-123.53 -916.75 2507.8
-114.86 -899.70 2461.2
-97.75 -918.84 2513.5
-93.35 -940.19 2572.0
-86.56 -938.89 2568.4
-79.30 -931.76 2548.9
-72.37 -927.70 2537.8
-65.53 -923.98 2527.6
-59.07 -925.41 2531.5
-53.09 -935.75 2559.8
-45.25 -911.42 2493.2
-37.49 -880.90 2409.8
-31.35 -884.02 2418.3
-25.27 -890.91 2437.1
-18.90 -888.53 2430.6
-12.57 -886.14 2424.1
-6.36 -897.13 2454.2
0.00 -907.78 2483.3
6.42 -905.03 2475.8
12.72 -896.44 2452.3
19.15 -899.86 2461.6
25.67 -904.99 2475.6
31.80 -896.72 2453.0
38.19 -897.38 2454.8
44.98 -905.93 2478.2
51.53 -908.29 2484.7
57.43 -899.66 2461.1
63.63 -897.21 2454.4
71.01 -910.20 2489.9
76.76 -901.90 2467.2
83.53 -905.95 2478.3
92.81 -934.70 2556.9
99.28 -933.25 2553.0
104.61 -921.84 2521.8
111.96 -928.61 2540.3
117.92 -923.71 2526.9
123.72 -918.12 2511.6
-403.59 -1042.01 2830.4
-393.78 -1035.49 2812.7
-388.40 -1040.61 2826.6
-378.42 -1033.38 2807.0
-364.98 -1016.21 2760.3
-355.15 -1008.62 2739.7
-342.82 -993.47 2698.6
-335.34 -992.04 2694.7
-328.10 -991.29 2692.6
-315.87 -975.08 2648.6
-313.22 -988.38 2684.7
-284.02 -960.27 2608.4
-277.53 -961.19 2610.9
-270.34 -959.70 2606.8
-262.98 -957.52 2600.9
-255.56 -954.98 2594.0
-245.75 -943.15 2561.9
-239.86 -946.10 2569.9
-236.47 -959.38 2606.0
-231.41 -966.46 2625.2
-221.92 -954.94 2593.9
-215.08 -954.44 2592.5
-211.56 -969.08 2632.3
-202.37 -957.89 2601.9
-190.31 -931.86 2531.2
-181.81 -922.02 2504.5
-174.88 -919.76 2498.3
-167.74 -916.11 2488.4
-163.07 -926.25 2516.0
-160.24 -948.11 2575.3
-138.18 -934.34 2537.9
-129.33 -918.24 2494.2
-122.46 -915.24 2486.1
-114.63 -904.29 2456.3
-101.41 -899.98 2444.6
-97.08 -919.06 2496.4
-91.44 -927.42 2519.2
-84.44 -922.32 2505.3
-77.10 -912.37 2478.3
-69.99 -903.45 2454.0
-63.04 -895.22 2431.7
-56.72 -894.92 2430.9
-50.87 -902.91 2452.6
-44.70 -906.75 2463.0
-38.18 -903.68 2454.7
-31.37 -890.93 2420.0
-24.88 -883.35 2399.4
-18.85 -892.35 2423.9
-12.69 -901.00 2447.4
-6.41 -910.34 2472.7
0.00 -920.01 2499.0
6.44 -913.79 2482.1
12.71 -902.38 2451.1
19.08 -903.06 2453.0
25.49 -904.77 2457.6
31.65 -898.87 2441.6
38.10 -901.61 2449.0
44.27 -898.12 2439.6
50.01 -887.72 2411.3
56.37 -889.40 2415.9
63.29 -898.67 2441.1
69.69 -899.65 2443.7
74.27 -878.87 2387.3
93.69 -886.95 2409.2
100.32 -890.32 2418.4
108.93 -909.91 2471.6
116.60 -919.82 2498.5
129.28 -917.89 2493.3
-412.08 -1052.27 2838.3
-399.95 -1039.86 2804.8
-386.68 -1023.99 2762.0
-379.64 -1024.31 2762.9
-346.53 -1032.38 2784.6
-334.41 -1017.47 2744.4
-319.50 -993.22 2679.0
-314.59 -999.70 2696.5
-291.62 -969.79 2615.8
-280.23 -954.12 2573.6
-280.17 -977.18 2635.8
-269.63 -963.92 2600.0
-259.08 -949.96 2562.3
-259.12 -975.09 2630.1
-244.45 -971.01 2619.1
-235.93 -963.94 2600.0
-229.98 -967.26 2609.0
-219.66 -951.85 2567.4
-212.58 -949.96 2562.3
-208.68 -962.61 2596.5
-203.00 -967.64 2610.0
-194.09 -957.06 2581.5
-184.03 -939.87 2535.1
-175.72 -930.66 2510.3
-167.53 -921.44 2485.4
-162.02 -926.78 2499.8
-158.54 -944.61 2547.9
-154.69 -961.75 2594.1
-132.67 -948.58 2558.6
-125.77 -946.60 2553.3
-117.72 -935.24 2522.6
-109.96 -924.92 2494.8
-102.14 -912.85 2462.2
-95.73 -912.59 2461.5
-89.56 -914.75 2467.4
-82.22 -904.40 2439.4
-76.19 -907.94 2449.0
-70.19 -912.52 2461.4
-64.42 -921.27 2484.9
-59.04 -938.00 2530.1
-51.60 -922.41 2488.0
-44.20 -902.99 2435.6
-38.18 -909.97 2454.5
-31.72 -907.22 2447.0
-25.19 -900.64 2429.3
-19.11 -910.74 2456.5
-12.68 -906.58 2445.3
-6.32 -903.81 2437.8
0.00 -919.80 2481.0
6.44 -920.49 2482.9
12.51 -894.41 2412.5
18.46 -880.15 2374.0
25.22 -901.68 2432.1
32.05 -916.61 2472.4
37.80 -900.93 2430.1
43.05 -879.35 2371.9
62.14 -888.60 2396.8
68.99 -896.89 2419.2
74.79 -891.27 2404.0
81.05 -891.55 2404.8
86.67 -885.22 2387.7
99.53 -889.58 2399.5
108.63 -913.81 2464.8
117.68 -934.90 2521.7
123.19 -927.16 2500.8
129.27 -924.27 2493.0
-387.01 -1032.03 2764.4
-374.60 -1017.78 2726.2
-372.28 -1030.93 2761.4
-369.90 -1044.43 2797.6
-361.07 -1039.87 2785.4
-353.59 -1039.13 2783.4
-344.39 -1033.17 2767.4
-333.00 -1020.25 2732.8
-318.45 -996.89 2670.2
-305.09 -976.30 2615.1
-294.88 -965.07 2585.0
-285.76 -956.97 2563.3
-282.43 -968.34 2593.8
-282.51 -992.24 2657.8
-272.79 -982.03 2630.4
-259.33 -957.54 2564.8
-256.51 -972.03 2603.7
-245.99 -983.95 2635.6
-231.07 -950.70 2546.5
-219.08 -927.89 2485.4
-212.76 -928.42 2486.8
-209.07 -940.80 2520.0
-204.30 -948.99 2542.0
-197.82 -949.51 2543.3
-191.96 -953.17 2553.1
-184.83 -950.53 2546.1
-177.14 -944.76 2530.6
-169.66 -939.67 2517.0
-162.68 -937.01 2509.9
-157.65 -945.88 2533.6
-150.65 -943.22 2526.5
-143.48 -939.15 2515.6
-138.15 -947.30 2537.4
-131.93 -949.86 2544.3
-126.77 -960.80 2573.6
-120.46 -963.70 2581.3
-110.89 -939.34 2516.1
-101.74 -915.66 2452.7
-95.90 -920.64 2466.0
-90.26 -928.41 2486.8
-83.03 -919.74 2463.6
-77.15 -925.76 2479.7
-70.75 -926.17 2480.8
-64.71 -931.82 2495.9
-58.90 -942.36 2524.2
-51.13 -920.38 2465.3
-43.94 -903.98 2421.4
-38.09 -914.16 2448.6
-31.84 -916.99 2456.2
-25.42 -915.26 2451.6
-19.17 -920.18 2464.8
-12.65 -910.75 2439.5
-6.28 -903.76 2420.8
0.00 -914.61 2449.8
6.35 -914.95 2450.8
12.33 -887.67 2377.7
25.29 -910.37 2438.5
31.84 -916.99 2456.2
37.16 -891.78 2388.7
43.37 -892.09 2389.5
50.32 -905.69 2426.0
56.47 -903.55 2420.2
63.57 -915.39 2451.9
71.42 -934.91 2504.2
78.52 -942.19 2523.7
84.67 -937.92 2512.3
89.92 -924.91 2477.5
95.90 -920.64 2466.0
103.49 -931.39 2494.8
110.94 -939.69 2517.0
117.75 -942.04 2523.3
123.59 -936.69 2509.0
130.08 -936.59 2508.7
137.33 -941.71 2522.4
-390.98 -1049.84 2792.7
-370.34 -1032.68 2747.0
-355.47 -1010.64 2688.4
-344.98 -1000.46 2661.3
-336.17 -994.80 2646.3
-327.44 -989.14 2631.2
-316.51 -976.48 2597.5
-309.64 -976.04 2596.4
-303.32 -977.35 2599.9
-291.45 -960.46 2554.9
-267.13 -944.72 2513.0
-268.21 -972.26 2586.3
-264.39 -982.99 2614.9
-252.71 -964.29 2565.1
-243.88 -955.74 2542.4
-238.99 -962.60 2560.6
-228.34 -945.97 2516.4
-218.16 -930.38 2474.9
-213.46 -937.93 2495.0
-208.12 -943.02 2508.5
-201.72 -943.55 2509.9
-193.80 -936.70 2491.7
-186.74 -933.70 2483.7
-181.89 -941.93 2505.6
-176.60 -948.40 2522.8
-169.71 -946.44 2517.6
-162.90 -944.83 2513.3
-158.27 -956.21 2543.6
-151.47 -954.93 2540.2
-140.96 -929.06 2471.4
-132.53 -915.12 2434.3
-129.78 -940.88 2502.8
-119.36 -961.48 2557.6
-108.16 -922.56 2454.1
-101.54 -920.18 2447.8
-97.93 -946.64 2518.2
-79.61 -961.99 2559.0
-71.25 -939.19 2498.3
-64.02 -928.35 2469.5
-57.28 -922.77 2454.7
-50.18 -909.45 2419.2
-43.50 -901.04 2396.9
-37.26 -900.37 2395.1
-24.73 -896.56 2384.9
-18.74 -905.72 2409.3
-12.60 -913.48 2429.9
-6.37 -922.99 2455.2
0.00 -915.25 2434.7
6.19 -896.95 2386.0
12.25 -888.14 2362.5
18.60 -899.04 2391.5
24.94 -903.95 2404.6
36.67 -886.30 2357.6
44.14 -914.41 2432.4
51.75 -937.94 2495.0
58.76 -946.69 2518.3
65.12 -944.18 2511.6
72.02 -949.39 2525.5
78.68 -950.74 2529.1
84.32 -940.47 2501.7
90.19 -934.06 2484.7
96.95 -937.15 2492.9
102.59 -929.68 2473.0
107.58 -917.63 2441.0
115.43 -929.84 2473.5
122.61 -935.72 2489.1
128.42 -931.04 2476.7
134.88 -931.28 2477.3
142.35 -938.19 2495.7
-387.44 -1028.49 2717.1
-376.90 -1038.26 2743.0
-369.28 -1036.82 2739.2
-351.24 -1005.51 2656.4
-337.83 -986.47 2606.1
-329.99 -983.24 2597.6
-322.08 -979.65 2588.1
-311.26 -966.91 2554.4
-304.61 -966.82 2554.2
-307.51 -997.69 2635.8
-304.04 -1008.86 2665.3
-290.46 -986.23 2605.5
-279.12 -970.27 2563.3
-268.68 -956.77 2527.7
-264.60 -965.80 2551.5
-261.15 -977.65 2582.8
-249.74 -959.54 2535.0
-229.07 -955.57 2524.5
-229.23 -984.34 2600.5
-220.22 -974.30 2574.0
-210.72 -961.42 2540.0
-206.12 -970.78 2564.7
-199.58 -971.31 2566.1
-187.21 -942.52 2490.0
-175.66 -949.89 2509.5
-172.33 -967.70 2556.6
-162.70 -950.18 2510.3
-155.34 -945.02 2496.6
-151.51 -961.76 2540.8
-143.72 -953.75 2519.7
-132.78 -923.12 2438.8
-127.78 -932.77 2464.3
-125.41 -963.65 2545.8
-116.77 -947.13 2502.2
-110.38 -947.93 2504.3
-100.35 -976.77 2580.5
-92.75 -967.30 2555.5
-78.32 -952.94 2517.5
-71.53 -949.46 2508.4
-65.69 -959.08 2533.8
-58.19 -943.91 2493.7
-50.40 -919.89 2430.2
-43.22 -901.53 2381.7
-24.83 -906.21 2394.1
-18.68 -909.07 2401.6
-12.47 -910.49 2405.4
-6.32 -922.89 2438.2
0.00 -918.65 2427.0
6.25 -912.98 2412.0
12.57 -917.57 2424.1
18.56 -903.05 2385.7
37.08 -902.27 2383.7
43.48 -906.83 2395.7
49.55 -904.32 2389.1
57.42 -931.52 2461.0
64.99 -948.81 2506.6
70.63 -937.43 2476.6
75.65 -920.38 2431.5
81.63 -916.78 2422.0
88.07 -918.47 2426.5
96.10 -935.38 2471.1
103.16 -941.30 2486.8
107.99 -927.42 2450.1
115.72 -938.64 2479.8
121.82 -936.06 2473.0
-354.50 -1021.79 2681.1
-334.07 -1002.22 2629.7
-323.88 -991.89 2602.6
-312.02 -975.89 2560.6
-302.91 -968.01 2540.0
-303.34 -990.92 2600.1
-302.30 -1009.95 2650.0
-290.84 -994.26 2608.9
-285.66 -999.82 2623.4
-280.02 -1003.96 2634.3
-269.78 -991.44 2601.4
-260.74 -982.80 2578.8
-249.90 -966.71 2536.6
-238.11 -945.99 2482.2
-232.94 -951.16 2495.8
-236.65 -993.94 2608.0
-213.48 -980.67 2573.2
-206.10 -977.30 2564.4
-201.80 -988.84 2594.6
-191.26 -969.48 2543.8
-178.26 -935.88 2455.7
-173.69 -945.63 2481.2
-171.43 -969.23 2543.2
-162.99 -958.36 2514.6
-154.28 -944.98 2479.5
-149.10 -952.94 2500.4
-142.16 -949.86 2492.3
-132.15 -925.08 2427.3
-125.78 -924.48 2425.8
-122.08 -944.51 2478.3
-115.67 -944.61 2478.6
-111.19 -961.43 2522.7
-99.43 -974.43 2556.8
-90.00 -944.97 2479.5
-82.41 -931.87 2445.1
-77.47 -949.03 2490.2
-52.32 -961.36 2522.5
-45.15 -948.22 2488.1
-38.43 -941.49 2470.4
-32.24 -947.93 2487.3
-25.54 -938.70 2463.1
-18.77 -919.85 2413.6
-12.33 -905.97 2377.2
-6.15 -903.49 2370.7
0.00 -922.72 2421.1
6.40 -940.17 2466.9
12.98 -954.05 2503.3
19.40 -950.83 2494.9
25.25 -928.02 2435.0
31.43 -924.08 2424.7
37.63 -921.91 2419.0
42.95 -901.93 2366.6
48.83 -897.27 2354.3
56.50 -922.86 2421.5
63.60 -934.91 2453.1
68.62 -917.05 2406.3
74.51 -912.72 2394.9
81.62 -922.97 2421.8
89.59 -940.70 2468.3
106.71 -980.39 2572.4
111.19 -961.43 2522.7
120.28 -982.33 2577.5
127.83 -988.98 2595.0
129.89 -954.72 2505.1
-402.64 -1045.46 2724.7
-341.95 -1012.16 2637.9
-331.20 -1000.35 2607.1
-318.64 -982.48 2560.5
-315.26 -992.72 2587.2
-313.39 -1008.30 2627.8
-301.68 -992.18 2585.8
-289.65 -974.27 2539.1
-283.55 -975.94 2543.5
-282.69 -996.14 2596.1
-279.58 -1009.21 2630.2
-271.48 -1004.46 2617.8
-260.90 -990.07 2580.3
-248.68 -968.53 2524.2
-239.33 -957.32 2494.9
-236.47 -972.16 2533.6
-235.86 -997.34 2599.3
-220.40 -988.45 2576.1
-207.97 -961.85 2506.8
-202.48 -966.67 2519.3
-199.75 -985.42 2568.2
-192.91 -984.52 2565.8
-183.38 -969.32 2526.2
-174.45 -956.25 2492.1
-167.95 -956.04 2491.6
-158.74 -939.73 2449.1
-146.19 -940.71 2451.7
-140.92 -947.99 2470.6
-133.87 -943.45 2458.8
-130.12 -962.89 2509.5
-125.14 -974.81 2540.5
-117.53 -966.32 2518.4
-109.82 -956.04 2491.6
-103.60 -958.28 2497.5
-97.60 -963.02 2509.8
-90.22 -953.80 2485.8
-83.57 -951.37 2479.4
-52.00 -962.05 2507.3
-45.27 -957.07 2494.3
-38.87 -958.90 2499.1
-25.86 -956.81 2493.6
-19.16 -945.01 2462.9
-12.66 -937.14 2442.3
-6.18 -915.29 2385.4
0.00 -916.01 2387.3
6.28 -929.62 2422.8
12.70 -940.00 2449.8
19.27 -950.74 2477.8
25.47 -942.48 2456.3
31.37 -928.48 2419.8
37.15 -916.27 2388.0
43.54 -920.54 2399.1
51.02 -943.78 2459.7
57.45 -944.81 2462.3
62.79 -929.35 2422.1
69.39 -933.59 2433.1
77.35 -953.94 2486.1
84.64 -963.54 2511.2
93.00 -983.16 2562.3
102.13 -944.68 2462.0
108.91 -948.17 2471.1
120.92 -994.24 2591.2
133.07 -984.72 2566.3
-343.37 -1003.17 2596.9
-329.41 -981.64 2541.1
-320.68 -975.12 2524.3
-319.18 -990.78 2564.8
-303.47 -1004.83 2601.2
-297.02 -1005.81 2603.7
-281.43 -998.42 2584.6
-265.82 -966.03 2500.8
-259.78 -967.69 2505.1
-251.28 -960.02 2485.2
-248.55 -974.59 2522.9
-247.68 -997.41 2582.0
-238.69 -987.93 2557.4
-232.11 -988.13 2558.0
-226.59 -993.00 2570.6
-215.43 -972.72 2518.1
-205.32 -956.02 2474.8
-201.71 -969.49 2509.7
-199.00 -988.35 2558.5
-192.33 -988.16 2558.0
-185.05 -984.73 2549.2
-178.14 -983.09 2544.9
-169.69 -972.45 2517.4
-158.66 -945.62 2447.9
-146.68 -950.20 2459.8
-142.49 -965.08 2498.3
-136.34 -967.36 2504.2
-131.26 -977.91 2531.5
-124.85 -979.10 2534.6
-118.95 -984.61 2548.8
-112.84 -989.03 2560.3
-105.60 -983.37 2545.6
-98.61 -979.49 2535.6
-90.79 -966.25 2501.3
-83.81 -960.56 2486.6
-76.90 -954.87 2471.9
-70.10 -949.53 2458.0
-64.72 -964.36 2496.4
-57.49 -951.81 2463.9
-50.18 -934.56 2419.3
-44.13 -939.28 2431.5
-37.74 -937.16 2426.0
-31.47 -937.91 2428.0
-25.44 -947.66 2453.2
-19.22 -954.53 2471.0
-12.89 -960.67 2486.9
-6.38 -951.31 2462.6
0.00 -940.14 2433.7
6.33 -943.02 2441.2
12.74 -948.78 2456.1
19.23 -955.25 2472.8
25.41 -946.58 2450.4
31.33 -933.58 2416.8
38.12 -946.53 2450.3
45.84 -975.67 2525.7
58.04 -960.81 2487.2
63.05 -939.50 2432.1
69.12 -936.20 2423.5
77.25 -959.19 2483.1
84.88 -972.81 2518.3
89.60 -953.65 2468.7
108.04 -946.91 2451.2
118.08 -977.41 2530.2
124.58 -976.94 2529.0
131.70 -981.15 2539.9
140.95 -1000.11 2589.0
-337.35 -973.13 2502.3
-328.15 -965.14 2481.8
-326.73 -980.18 2520.5
-319.93 -979.38 2518.4
-320.05 -1000.17 2571.9
-302.13 -1007.10 2589.7
-295.18 -1006.28 2587.6
-293.09 -1022.39 2629.0
-277.86 -992.35 2551.8
-261.94 -958.33 2464.3
-255.33 -957.47 2462.1
-252.47 -971.04 2497.0
-255.38 -1008.07 2592.2
-241.69 -1007.06 2589.6
-233.60 -1001.13 2574.3
-226.72 -1000.24 2572.1
-219.46 -997.55 2565.1
-212.85 -997.74 2565.6
-203.32 -983.82 2529.8
-194.99 -974.96 2507.0
-192.02 -993.20 2554.0
-178.97 -994.25 2556.6
-168.35 -971.25 2497.5
-162.92 -977.55 2513.7
-159.27 -995.42 2559.6
-152.49 -994.47 2557.2
-144.81 -987.36 2538.9
-137.94 -985.31 2533.7
-132.07 -990.50 2547.0
-124.51 -983.01 2527.7
-117.63 -980.22 2520.6
-113.44 -1000.96 2573.9
-99.46 -994.62 2557.6
-90.27 -967.18 2487.0
-82.92 -956.75 2460.2
-75.73 -946.67 2434.3
-68.39 -932.61 2398.1
-62.66 -939.91 2416.9
-56.18 -936.34 2407.7
-49.48 -927.69 2385.5
-44.34 -950.20 2443.4
-38.66 -966.54 2485.4
-31.45 -943.38 2425.8
-24.77 -928.91 2388.6
-18.82 -940.89 2419.4
-12.70 -952.14 2448.3
-6.35 -953.23 2451.2
0.00 -951.06 2445.6
6.38 -957.22 2461.4
12.88 -965.91 2483.8
19.45 -972.42 2500.5
25.71 -964.06 2479.0
31.66 -949.90 2442.6
38.42 -960.38 2469.6
45.75 -980.28 2520.7
51.82 -971.54 2498.2
58.16 -969.31 2492.5
64.47 -967.09 2486.8
67.75 -923.91 2375.8
81.19 -936.82 2409.0
88.00 -942.91 2424.6
93.38 -933.77 2401.1
102.45 -960.49 2469.8
109.95 -970.18 2494.7
116.06 -967.18 2487.0
124.51 -983.01 2527.7
134.62 -1009.68 2596.3
-328.09 -952.73 2433.6
-327.25 -968.93 2475.0
-325.24 -982.24 2509.0
-318.13 -980.35 2504.2
-310.57 -977.00 2495.6
-307.90 -989.22 2526.9
-310.37 -1018.83 2602.5
-303.92 -1019.82 2605.0
-286.79 -984.20 2514.0
-275.18 -966.31 2468.3
-270.86 -973.80 2487.5
-264.67 -974.76 2489.9
-259.72 -980.43 2504.4
-258.63 -1001.34 2557.8
-246.11 -977.97 2498.1
-229.36 -962.05 2457.5
-232.30 -1002.20 2560.0
-221.13 -982.06 2508.6
-210.06 -961.17 2455.2
-206.27 -973.34 2486.3
-199.49 -971.70 2482.1
-192.29 -967.88 2472.3
-190.25 -990.59 2530.4
-183.31 -988.57 2525.2
-171.26 -957.81 2446.6
-163.88 -951.77 2431.2
-161.46 -975.20 2491.0
-157.91 -993.53 2537.9
-151.35 -993.67 2538.2
-143.25 -983.24 2511.6
-136.05 -978.27 2498.9
-131.13 -990.04 2529.0
-124.50 -989.42 2527.4
-116.00 -973.14 2485.8
-110.39 -980.52 2504.6
-105.37 -994.46 2540.2
-97.46 -981.07 2506.0
-89.52 -965.49 2466.2
-83.25 -967.02 2470.2
-77.00 -968.91 2475.0
-70.51 -967.88 2472.4
-63.52 -959.20 2450.2
-55.98 -939.20 2399.1
-49.74 -938.89 2398.3
-44.96 -969.91 2477.5
-39.08 -983.43 2512.1
-31.71 -957.58 2446.0
-25.26 -953.60 2435.9
-19.40 -976.58 2494.6
-12.93 -976.23 2493.7
-6.39 -965.31 2465.8
0.00 -937.97 2395.9
6.08 -918.64 2346.6
12.70 -959.10 2449.9
32.43 -979.45 2501.9
38.21 -961.56 2456.2
44.08 -950.96 2429.1
50.59 -954.92 2439.3
57.59 -966.17 2468.0
63.74 -962.48 2458.5
82.12 -953.90 2436.6
90.19 -972.77 2484.8
97.06 -977.06 2495.8
106.07 -1001.02 2557.0
113.10 -1004.56 2566.1
116.09 -973.87 2487.6
121.15 -962.84 2459.5
133.45 -1007.52 2573.6
-450.45 -1006.89 2555.1
-424.40 -992.45 2518.4
-422.30 -1002.96 2545.1
-413.30 -997.16 2530.4
-407.32 -998.60 2534.0
-402.50 -1002.94 2545.1
-335.79 -963.01 2443.7
-328.43 -960.02 2436.1
-327.46 -975.95 2476.6
-325.32 -988.98 2509.6
-319.96 -992.53 2518.6
-313.98 -994.27 2523.0
-310.34 -1003.64 2546.8
-311.09 -1027.96 2608.6
-305.38 -1031.51 2617.6
-288.86 -997.87 2532.2
-276.69 -978.06 2481.9
-271.73 -983.41 2495.5
-263.95 -978.54 2483.1
-257.57 -978.76 2483.7
-255.21 -994.68 2524.1
-241.79 -967.16 2454.3
-228.04 -962.82 2443.3
-229.91 -998.46 2533.7
-218.07 -974.90 2473.9
-197.75 -969.60 2460.5
-195.01 -988.06 2507.3
-187.85 -984.57 2498.4
-176.34 -957.30 2429.2
-161.98 -946.99 2403.1
-159.87 -972.01 2466.6
-156.62 -991.91 2517.1
-149.45 -987.66 2506.3
-141.06 -974.61 2473.2
-133.00 -962.64 2442.8
-127.26 -967.15 2454.2
-122.60 -980.81 2488.9
-115.81 -977.99 2481.7
-108.78 -972.59 2468.0
-102.54 -974.15 2472.0
-96.36 -976.44 2477.8
-89.94 -976.52 2478.0
-83.27 -973.67 2470.8
-76.73 -971.90 2466.3
-70.71 -977.10 2479.5
-64.12 -974.59 2473.1
-57.17 -965.48 2450.0
-51.36 -975.80 2476.2
-45.46 -987.20 2505.1
-38.72 -981.01 2489.4
-32.20 -978.84 2483.9
-12.79 -971.93 2466.4
-6.31 -958.38 2432.0
0.00 -928.68 2356.6
12.55 -953.60 2419.9
38.71 -980.64 2488.5
44.52 -966.67 2453.0
50.99 -968.83 2458.5
57.75 -975.38 2475.1
63.56 -966.16 2451.7
83.71 -978.80 2483.8
91.80 -996.67 2529.2
98.60 -999.15 2535.4
107.44 -1020.68 2590.1
113.04 -1010.69 2564.7
131.45 -999.01 2535.1
-465.52 -989.24 2493.9
-450.10 -998.06 2516.1
-418.46 -970.07 2445.6
-422.49 -994.47 2507.1
-420.10 -1004.31 2531.9
-411.14 -998.48 2517.2
-363.35 -975.32 2458.8
-337.85 -957.23 2413.2
-344.99 -995.93 2510.7
-331.00 -973.91 2455.2
-324.24 -972.73 2452.3
-322.64 -987.29 2489.0
-317.81 -992.33 2501.7
-315.66 -1006.16 2536.5
-315.24 -1026.22 2587.1
-297.78 -1012.46 2552.4
-288.60 -1003.56 2530.0
-282.94 -1006.74 2538.0
-275.82 -1004.78 2533.1
-265.98 -992.55 2502.2
-255.04 -975.53 2459.3
-248.53 -975.02 2458.0
-247.78 -997.63 2515.0
-244.42 -1010.70 2548.0
-234.49 -996.59 2512.4
-225.25 -984.67 2482.4
-218.21 -981.92 2475.4
-210.08 -974.03 2455.5
-203.60 -973.47 2454.1
-200.26 -988.36 2491.7
-196.35 -1001.41 2524.6
-188.10 -992.38 2501.8
-178.01 -972.68 2452.1
-170.05 -963.63 2429.3
-163.47 -961.94 2425.1
-159.85 -978.28 2466.2
-158.56 -1010.81 2548.3
-142.31 -989.72 2495.1
-132.27 -963.70 2429.5
-126.81 -970.08 2445.6
-122.40 -985.66 2484.8
-116.62 -991.29 2499.0
-110.32 -992.86 2503.0
-103.34 -988.17 2491.2
-96.45 -983.83 2480.3
-90.74 -991.66 2500.0
-84.67 -996.52 2512.2
-77.41 -987.01 2488.3
-70.86 -985.61 2484.7
-63.43 -970.55 2446.8
-55.79 -948.49 2391.1
-50.12 -958.49 2416.4
-44.44 -971.43 2449.0
-38.28 -976.26 2461.2
-32.17 -984.41 2481.7
-25.90 -990.70 2497.6
-19.11 -974.50 2456.7
-12.47 -954.23 2405.6
-6.18 -945.76 2384.3
0.00 -934.70 2356.4
6.12 -936.17 2360.1
12.24 -936.16 2360.1
18.37 -936.89 2361.9
25.12 -960.83 2422.3
31.84 -974.45 2456.6
37.81 -964.10 2430.5
43.62 -953.37 2403.5
50.58 -967.34 2438.7
58.09 -987.56 2489.7
75.10 -957.53 2413.9
80.44 -946.77 2386.8
89.59 -979.13 2468.4
97.68 -996.36 2511.8
107.69 -1029.80 2596.1
114.82 -1033.39 2605.2
119.01 -1011.55 2550.1
127.71 -1028.38 2592.6
133.55 -1021.64 2575.6
140.56 -1024.09 2581.8
-465.25 -1009.13 2527.5
-440.76 -969.68 2428.7
-424.14 -960.55 2405.8
-421.41 -968.61 2426.0
-430.50 -1004.49 2515.9
-423.05 -1002.30 2510.4
-409.08 -984.34 2465.4
-403.28 -985.80 2469.1
-409.27 -1016.59 2546.2
-379.04 -989.37 2478.0
-355.42 -960.26 2405.1
-349.83 -962.04 2409.6
-338.84 -966.32 2420.3
-340.03 -1007.01 2522.2
-325.67 -983.38 2463.0
-317.10 -976.67 2446.2
-311.90 -980.26 2455.2
-309.53 -993.06 2487.3
-307.32 -1006.96 2522.1
-300.20 -1005.02 2517.2
-289.23 -989.80 2479.1
-280.76 -982.68 2461.2
-280.32 -1003.94 2514.5
-278.30 -1020.42 2555.8
-269.57 -1012.55 2536.1
-259.32 -998.39 2500.6
-249.62 -985.69 2468.8
-246.28 -998.10 2499.9
-242.96 -1011.24 2532.8
-232.82 -995.94 2494.5
-224.04 -985.79 2469.1
-217.44 -984.88 2466.8
-208.79 -974.35 2440.4
-202.04 -972.32 2435.3
-201.05 -998.75 2501.5
-199.35 -1023.33 2563.1
-191.00 -1014.26 2540.3
-180.74 -994.08 2489.8
-172.43 -983.50 2463.3
-165.63 -981.06 2457.2
-158.63 -977.14 2447.4
-154.09 -988.75 2476.5
-149.40 -1000.36 2505.5
-139.22 -974.57 2441.0
-131.35 -963.21 2412.5
-127.90 -984.81 2466.6
-121.65 -986.03 2469.7
-114.18 -976.88 2446.7
-109.73 -994.02 2489.7
-104.36 -1004.49 2515.9
-95.29 -978.27 2450.2
-87.76 -965.38 2417.9
-83.19 -985.47 2468.2
-77.34 -992.58 2486.1
-70.59 -988.20 2475.1
-62.99 -970.10 2429.7
-43.23 -950.96 2381.8
-37.56 -963.97 2414.4
-31.47 -969.19 2427.5
-25.22 -971.07 2432.2
-18.90 -970.35 2430.4
-12.54 -965.92 2419.3
-6.18 -951.83 2384.0
0.00 -936.26 2345.0
6.08 -936.26 2345.0
18.25 -936.98 2346.8
25.01 -962.92 2411.8
31.76 -978.09 2449.8
37.76 -969.16 2427.4
43.80 -963.57 2413.4
51.09 -983.54 2463.4
57.17 -978.31 2450.3
63.35 -975.66 2443.7
71.30 -998.21 2500.1
75.55 -969.60 2428.5
81.34 -963.60 2413.5
91.13 -1002.44 2510.7
97.56 -1001.61 2508.7
105.32 -1013.75 2539.1
134.68 -1037.03 2597.4
142.36 -1043.94 2614.7
-471.15 -1000.39 2489.5
-458.28 -1000.47 2489.6
-433.41 -959.68 2388.2
-425.42 -955.64 2378.1
-428.61 -976.99 2431.2
-439.34 -1016.38 2529.2
-434.67 -1020.81 2540.3
-415.11 -989.88 2463.3
-407.81 -987.66 2457.8
-407.12 -1001.65 2492.6
-399.62 -999.06 2486.1
-391.14 -993.87 2473.2
-390.43 -1008.61 2509.9
-379.98 -998.24 2484.1
-362.33 -968.29 2409.6
-362.72 -986.34 2454.5
-338.12 -1007.85 2508.0
-322.09 -978.91 2436.0
-315.27 -977.34 2432.1
-311.98 -986.87 2455.8
-307.30 -992.33 2469.4
-303.23 -1000.01 2488.5
-296.42 -998.79 2485.5
-285.63 -983.85 2448.3
-277.99 -979.28 2436.9
-278.22 -1002.89 2495.7
-264.74 -1025.88 2552.9
-253.51 -1007.55 2507.3
-242.97 -991.06 2466.2
-232.99 -976.05 2428.9
-231.49 -996.68 2480.2
-230.72 -1021.78 2542.7
-223.04 -1016.78 2530.2
-213.35 -1002.11 2493.7
-204.39 -990.03 2463.7
-201.46 -1007.31 2506.7
-191.52 -1023.65 2547.3
-180.98 -1001.87 2493.1
-172.34 -989.38 2462.1
-162.74 -970.18 2414.3
-148.94 -961.90 2393.7
-144.47 -973.57 2422.7
-137.20 -966.62 2405.4
-131.99 -974.19 2424.3
-125.81 -975.05 2426.4
-116.98 -954.30 2374.8
-111.40 -959.25 2387.1
-108.69 -991.01 2466.1
-102.81 -995.95 2478.4
-93.33 -964.36 2399.8
-85.83 -950.28 2364.8
-81.30 -969.36 2412.2
-76.06 -982.48 2444.9
-69.91 -985.15 2451.5
-63.06 -977.39 2432.2
-55.35 -953.21 2372.0
-48.68 -943.19 2347.1
-43.15 -955.53 2377.8
-37.42 -966.76 2405.8
-31.33 -971.26 2417.0
-24.94 -966.44 2405.0
-18.55 -958.63 2385.5
-12.37 -958.64 2385.6
-6.13 -950.45 2365.2
18.32 -946.70 2355.8
24.81 -961.22 2392.0
31.15 -965.67 2403.0
37.65 -972.72 2420.6
44.48 -984.99 2451.1
51.82 -1003.96 2498.3
57.90 -997.20 2481.5
63.42 -982.98 2446.1
70.55 -994.10 2473.8
76.01 -981.73 2443.0
83.49 -995.45 2477.2
92.06 -1019.23 2536.3
96.72 -999.39 2487.0
103.23 -1000.05 2488.6
112.29 -1023.80 2547.7
120.31 -1035.98 2578.0
126.34 -1030.66 2564.8
133.79 -1036.87 2580.2
147.02 -1085.16 2700.4
-480.93 -1000.34 2473.4
-463.16 -976.39 2414.2
-445.51 -952.05 2354.0
-439.59 -952.44 2354.9
-453.67 -996.80 2464.6
-454.76 -1013.47 2505.8
-433.71 -980.57 2424.5
-425.66 -976.51 2414.4
-431.96 -1005.75 2486.8
-424.42 -1003.17 2480.4
-410.42 -985.02 2435.5
-407.30 -992.79 2454.7
-404.97 -1002.78 2479.4
-396.18 -996.83 2464.7
-381.36 -975.29 2411.4
-374.38 -973.40 2406.8
-375.57 -993.03 2455.3
-369.46 -993.73 2457.0
-361.18 -988.48 2444.0
-361.09 -1005.89 2487.1
-358.42 -1016.62 2513.6
-347.90 -1005.03 2485.0
-342.06 -1006.83 2489.4
-331.62 -994.85 2459.8
-321.81 -984.35 2433.8
-320.60 -1000.27 2473.2
-314.27 -1000.55 2473.9
-307.26 -998.59 2469.0
-298.13 -989.55 2446.7
-286.48 -971.55 2402.2
-280.97 -974.04 2408.3
-278.48 -987.34 2441.2
-276.23 -1002.13 2477.8
-275.89 -1024.75 2533.7
-261.06 -1018.14 2517.4
-253.10 -1012.40 2503.2
-245.66 -1008.52 2493.6
-232.25 -979.23 2421.2
-227.23 -984.66 2434.6
-229.26 -1021.85 2526.6
-224.55 -1030.27 2547.4
-205.52 -1034.22 2557.1
-198.35 -1031.41 2550.2
-191.28 -1028.96 2544.1
-181.83 -1013.05 2504.8
-171.54 -991.13 2450.6
-160.22 -961.35 2377.0
-154.32 -962.98 2381.0
-153.30 -996.43 2463.7
-146.32 -992.45 2453.9
-136.60 -968.62 2394.9
-131.16 -974.35 2409.1
-124.64 -972.22 2403.8
-107.00 -981.90 2427.8
-101.52 -989.86 2447.5
-93.13 -968.59 2394.9
-86.60 -964.92 2385.8
-82.01 -984.11 2433.2
-76.74 -997.68 2466.8
-70.43 -998.87 2469.7
-63.46 -989.93 2447.6
-55.84 -967.87 2393.1
-49.25 -960.42 2374.7
-43.08 -960.09 2373.8
-36.86 -958.25 2369.3
-31.05 -968.77 2395.3
-24.89 -970.67 2400.0
-18.54 -964.32 2384.3
-12.37 -965.08 2386.2
-6.15 -959.47 2372.3
0.00 -942.22 2329.7
6.09 -950.47 2350.1
12.42 -968.83 2395.5
18.35 -954.20 2359.3
30.34 -946.65 2340.6
36.75 -955.62 2362.8
43.03 -958.96 2371.1
49.64 -967.92 2393.2
57.44 -995.61 2461.7
65.21 -1017.29 2515.3
79.22 -1029.91 2546.5
84.73 -1016.72 2513.9
90.60 -1009.52 2496.1
95.84 -996.69 2464.3
103.25 -1006.72 2489.1
112.31 -1030.60 2548.2
120.29 -1042.48 2577.6
126.36 -1037.50 2565.3
134.10 -1046.00 2586.3
144.77 -1075.46 2659.1
155.71 -1104.16 2730.1
169.19 -1099.75 2719.2
-505.21 -991.48 2435.9
-490.12 -1012.49 2487.5
-474.31 -992.89 2439.3
-457.51 -970.66 2384.7
-440.46 -947.29 2327.3
-436.31 -951.39 2337.4
-450.42 -996.00 2446.9
-451.71 -1013.12 2489.0
-432.35 -983.76 2416.9
-412.23 -951.77 2338.3
-406.96 -953.62 2342.8
-417.47 -993.07 2439.8
-421.17 -1017.28 2499.2
-416.05 -1020.63 2507.5
-411.64 -1025.84 2520.3
-403.93 -1022.84 2512.9
-390.16 -1004.18 2467.0
-376.33 -984.74 2419.3
-370.89 -986.94 2424.7
-373.14 -1010.04 2481.5
-372.79 -1026.81 2522.6
-354.64 -994.25 2442.7
-335.45 -957.57 2352.5
-331.13 -962.72 2365.2
-331.03 -980.59 2409.1
-321.53 -970.78 2385.0
-312.77 -962.83 2365.5
-310.54 -975.09 2395.6
-303.71 -973.12 2390.7
-300.80 -983.87 2417.2
-295.85 -988.26 2427.9
-282.82 -965.29 2371.5
-276.10 -963.29 2366.6
-276.13 -985.28 2420.6
-276.70 -1010.27 2482.0
-267.72 -1000.77 2458.7
-255.63 -978.87 2404.9
-252.22 -989.98 2432.2
-251.47 -1012.35 2487.1
-247.44 -1022.33 2511.6
-237.09 -1006.03 2471.6
-226.51 -987.83 2426.9
-223.36 -1001.93 2461.5
-218.57 -1009.27 2479.6
-213.05 -1013.60 2490.2
-208.78 -1024.31 2516.5
-200.73 -1016.60 2497.6
-194.29 -1016.78 2498.0
-188.12 -1018.46 2502.1
-181.60 -1018.25 2501.6
-173.78 -1010.51 2482.6
-165.13 -997.12 2449.7
-161.50 -1014.20 2491.7
-155.86 -1019.61 2505.0
-144.59 -987.00 2424.8
-136.69 -975.45 2396.5
-132.76 -992.52 2438.4
-126.26 -991.13 2435.0
-117.09 -967.51 2377.0
-100.51 -986.27 2423.0
-94.92 -993.51 2440.8
-88.16 -988.70 2429.0
-83.40 -1007.24 2474.6
-76.82 -1005.05 2469.2
-69.37 -990.04 2432.3
-63.88 -1002.91 2463.9
-57.37 -1000.71 2458.5
-49.61 -973.62 2392.0
-42.55 -954.44 2344.8
-36.53 -955.98 2348.6
-30.96 -972.22 2388.5
-25.05 -983.18 2415.5
-18.82 -984.71 2419.2
-12.60 -988.87 2429.4
-6.28 -985.48 2421.1
0.00 -983.60 2416.5
6.42 -1008.48 2477.6
12.88 -1011.11 2484.1
18.71 -979.05 2405.3
24.68 -968.85 2380.3
31.20 -979.76 2407.1
37.15 -972.19 2388.5
42.69 -957.45 2352.2
49.11 -963.82 2367.9
56.50 -985.63 2421.5
63.50 -996.88 2449.1
70.42 -1005.12 2469.3
77.02 -1007.69 2475.7
83.00 -1002.34 2462.5
89.37 -1002.26 2462.3
95.43 -998.79 2453.8
104.16 -1022.05 2511.0
114.90 -1061.13 2607.0
137.05 -1075.86 2643.1
145.80 -1090.04 2678.0
155.05 -1106.47 2718.3
162.46 -1108.96 2724.5
168.87 -1104.67 2713.9
-510.05 -1007.35 2459.2
-499.94 -1012.71 2472.2
-490.48 -1006.43 2456.9
-480.73 -999.40 2439.8
-477.61 -1006.17 2456.3
-472.66 -1009.20 2463.7
-449.39 -972.65 2374.5
-438.82 -962.96 2350.8
-450.69 -1002.95 2448.4
-450.32 -1016.43 2481.3
-436.05 -998.50 2437.6
-420.56 -977.19 2385.5
-406.92 -959.59 2342.6
-408.50 -977.92 2387.3
-416.79 -1013.11 2473.2
-416.75 -1028.84 2511.6
-396.18 -1026.18 2505.1
-385.69 -1015.65 2479.4
-375.60 -1005.85 2455.5
-373.36 -1017.07 2482.9
-371.24 -1029.05 2512.1
-351.39 -991.43 2420.3
-335.15 -962.81 2350.4
-333.66 -976.26 2383.3
-328.46 -979.19 2390.4
-314.68 -956.16 2334.2
-295.62 -953.22 2327.0
-299.96 -987.37 2410.4
-294.91 -991.40 2420.2
-281.91 -968.31 2363.9
-277.04 -972.70 2374.6
-279.14 -1002.35 2447.0
-277.89 -1021.08 2492.7
-267.28 -1005.48 2454.6
-253.73 -977.80 2387.0
-249.13 -984.07 2402.3
-244.45 -990.33 2417.6
-236.51 -983.37 2400.6
-235.64 -1006.24 2456.5
-233.79 -1026.09 2504.9
-225.50 -1017.98 2485.1
-215.77 -1002.69 2447.8
-206.70 -989.66 2416.0
-199.25 -983.80 2401.7
-192.24 -979.82 2392.0
-186.72 -983.39 2400.7
-185.04 -1008.14 2461.1
-182.71 -1030.99 2516.9
-175.37 -1026.24 2505.3
-167.09 -1015.42 2478.9
-158.06 -998.92 2438.6
-147.56 -971.44 2371.5
-142.75 -980.65 2394.0
-140.73 -1010.68 2467.3
-136.76 -1028.98 2512.0
-120.03 -998.17 2436.8
-110.41 -969.11 2365.8
-103.75 -964.28 2354.0
-100.00 -987.48 2410.7
-95.73 -1008.40 2461.7
-90.06 -1016.44 2481.4
-77.64 -1022.28 2495.6
-69.62 -999.99 2441.2
-63.58 -1004.60 2452.5
-57.31 -1006.17 2456.3
-49.76 -982.72 2399.0
-42.85 -967.22 2361.2
-36.96 -973.32 2376.1
-31.37 -991.17 2419.7
-25.40 -1003.33 2449.3
-18.81 -990.46 2417.9
-12.40 -979.86 2392.1
-6.22 -982.90 2399.5
0.00 -986.69 2408.7
6.35 -1003.75 2450.4
12.63 -997.67 2435.6
18.73 -986.29 2407.8
25.29 -998.78 2438.2
31.94 -1009.36 2464.1
38.04 -1001.75 2445.5
43.54 -982.76 2399.2
49.83 -984.24 2402.7
56.80 -997.07 2434.1
63.25 -999.29 2439.5
68.99 -990.90 2419.0
81.80 -994.17 2427.0
90.50 -1021.37 2493.4
97.25 -1024.31 2500.6
106.71 -1053.77 2572.5
122.49 -1075.15 2624.7
128.91 -1072.01 2617.0
135.39 -1069.61 2611.2
151.59 -1088.66 2657.7
-505.65 -1004.97 2437.9
-489.69 -985.57 2390.9
-489.95 -998.74 2422.8
-492.22 -1016.41 2465.7
-480.30 -1004.84 2437.6
-474.89 -1006.76 2442.3
-470.50 -1010.93 2452.4
-449.51 -979.06 2375.1
-430.60 -950.92 2306.8
-433.35 -970.46 2354.2
-435.85 -990.01 2401.6
-424.74 -978.74 2374.3
-413.75 -967.45 2346.9
-404.65 -960.29 2329.5
-402.35 -969.31 2351.4
-405.33 -991.50 2405.3
-406.22 -1009.19 2448.2
-404.49 -1020.86 2476.5
-396.59 -1017.07 2467.3
-384.54 -1002.34 2431.5
-377.94 -1001.55 2429.6
-372.05 -1002.64 2432.3
-370.13 -1014.67 2461.5
-367.93 -1026.33 2489.7
-354.67 -1007.01 2442.9
-343.61 -993.35 2409.7
-342.09 -1007.26 2443.5
-336.99 -1010.97 2452.5
-322.57 -986.31 2392.7
-308.93 -963.14 2336.5
-307.72 -978.55 2373.8
-313.90 -1018.57 2470.9
-307.92 -1019.99 2474.4
-292.97 -991.10 2404.3
-283.74 -980.75 2379.2
-282.15 -996.92 2418.4
-277.42 -1002.48 2431.9
-269.33 -995.90 2415.9
-267.64 -1013.21 2457.9
-262.50 -1018.00 2469.5
-253.01 -1005.71 2439.7
-243.85 -994.18 2411.8
-236.93 -991.36 2404.9
-236.84 -1017.77 2469.0
-218.50 -1021.80 2478.8
-207.46 -999.58 2424.9
-200.14 -994.45 2412.4
-193.25 -991.21 2404.5
-186.62 -989.10 2399.4
-183.62 -1006.75 2442.3
-182.07 -1033.92 2508.2
-175.34 -1032.56 2504.9
-163.96 -1002.66 2432.3
-152.11 -967.43 2346.9
-145.88 -966.43 2344.4
-144.94 -1001.95 2430.6
-142.18 -1027.57 2492.8
-119.97 -1003.95 2435.5
-112.29 -991.87 2406.2
-107.53 -1005.68 2439.7
-101.78 -1011.49 2453.7
-95.86 -1016.15 2465.1
-88.78 -1008.23 2445.9
-82.25 -1006.03 2440.5
-76.94 -1019.43 2473.0
-70.43 -1017.98 2469.5
-63.14 -1003.94 2435.4
-55.88 -987.23 2394.9
-49.58 -985.37 2390.4
-43.60 -990.37 2402.5
-36.90 -977.83 2372.1
-30.71 -976.72 2369.4
-25.13 -998.85 2423.1
-18.80 -996.58 2417.6
-12.33 -980.21 2377.9
-6.15 -978.31 2373.3
0.00 -965.74 2342.8
6.07 -965.35 2341.8
12.46 -990.88 2403.7
19.11 -1012.97 2457.3
25.48 -1012.95 2457.3
31.75 -1009.49 2448.9
38.21 -1012.51 2456.2
44.31 -1006.37 2441.3
48.98 -973.56 2361.7
62.23 -989.46 2400.3
70.80 -1023.31 2482.4
76.59 -1014.86 2461.9
85.40 -1044.50 2533.8
100.89 -1069.47 2594.4
109.10 -1084.23 2630.2
127.88 -1070.20 2596.2
159.41 -1102.03 2673.4
-498.72 -985.13 2374.9
-470.67 -953.25 2298.0
-468.21 -960.44 2315.3
-481.81 -1001.17 2413.5
-481.85 -1014.41 2445.5
-473.23 -1009.56 2433.8
-465.89 -1007.34 2428.4
-449.28 -984.72 2373.9
-434.13 -964.73 2325.7
-431.12 -971.54 2342.1
-428.69 -979.86 2362.2
-421.42 -977.21 2355.8
-413.71 -973.43 2346.7
-402.23 -960.55 2315.6
-397.16 -962.80 2321.0
-398.51 -980.95 2364.8
-397.97 -994.94 2398.5
-393.98 -1000.60 2412.1
-384.34 -991.85 2391.1
-379.43 -995.23 2399.2
-379.59 -1012.25 2440.2
-374.51 -1015.63 2448.4
-373.10 -1029.24 2481.2
-353.29 -1009.40 2433.4
-338.21 -983.88 2371.9
-332.42 -984.94 2374.4
-332.53 -1003.87 2420.0
-323.51 -995.42 2399.7
-313.02 -982.02 2367.4
-314.34 -1005.88 2424.9
-307.76 -1025.85 2473.0
-296.06 -1007.85 2429.6
-289.72 -1007.74 2429.4
-285.75 -1016.00 2449.3
-278.63 -1013.21 2442.6
-265.30 -987.16 2379.8
-258.59 -985.11 2374.8
-257.57 -1005.17 2423.2
-252.02 -1008.07 2430.2
-241.87 -992.27 2392.1
-234.18 -986.00 2377.0
-233.18 -1008.35 2430.8
-232.25 -1032.23 2488.4
-226.51 -1035.49 2496.3
-214.97 -1011.64 2438.8
-208.61 -1011.45 2438.3
-205.69 -1028.44 2479.3
-196.11 -1012.20 2440.1
-186.88 -996.71 2402.8
-181.58 -1001.84 2415.2
-177.96 -1016.92 2451.5
-172.73 -1023.58 2467.5
-162.69 -1001.17 2413.5
-153.23 -980.66 2364.1
-149.19 -994.57 2397.6
-145.57 -1012.68 2441.3
-140.37 -1020.85 2461.0
-134.76 -1026.71 2475.1
-126.68 -1013.44 2443.1
-118.13 -994.80 2398.2
-112.36 -998.73 2407.7
-107.51 -1011.85 2439.3
-101.73 -1017.30 2452.4
-94.48 -1007.82 2429.6
-86.25 -985.69 2376.2
-79.60 -979.64 2361.6
-74.25 -990.05 2386.7
-68.18 -991.65 2390.6
-61.29 -980.60 2364.0
-54.34 -966.10 2329.0
-48.25 -965.00 2326.3
-42.81 -978.45 2358.8
-36.52 -973.89 2347.8
-30.71 -982.73 2369.1
-25.41 -1016.47 2450.4
-19.22 -1025.30 2471.7
-12.76 -1020.72 2460.7
-6.36 -1018.05 2454.2
0.00 -1003.49 2419.1
6.18 -988.54 2383.1
12.51 -1001.18 2413.6
18.84 -1005.00 2422.8
24.61 -984.29 2372.8
31.24 -999.59 2409.7
38.36 -1022.92 2466.0
43.81 -1001.43 2414.2
65.48 -1047.64 2525.5
79.08 -1054.40 2541.9
85.66 -1054.32 2541.7
91.64 -1047.35 2524.9
95.70 -1020.84 2461.0
101.27 -1012.71 2441.4
112.80 -1061.62 2559.3
123.51 -1097.88 2646.7
131.68 -1108.86 2673.1
146.01 -1112.43 2681.8
-514.99 -998.96 2393.2
-494.09 -982.09 2352.8
-482.57 -971.17 2326.7
-463.38 -944.35 2262.4
-464.24 -983.46 2356.1
-452.84 -998.72 2392.7
-444.78 -994.57 2382.7
-448.65 -1017.37 2437.4
-438.21 -1007.89 2414.6
-423.16 -987.38 2365.5
-415.74 -984.34 2358.2
-404.56 -972.15 2329.0
-396.96 -968.33 2319.9
-395.39 -979.34 2346.2
-384.75 -967.89 2318.8
-371.96 -965.91 2314.1
-375.77 -991.78 2376.0
-371.86 -997.83 2390.6
-362.85 -990.16 2372.2
-361.36 -1003.07 2403.1
-356.86 -1007.98 2414.9
-346.33 -995.70 2385.4
-335.69 -982.64 2354.2
-321.61 -958.88 2297.2
-314.37 -954.96 2287.8
-318.40 -985.82 2361.8
-320.00 -1010.20 2420.2
-312.63 -1006.66 2411.7
-306.69 -1007.71 2414.2
-302.23 -1013.73 2428.6
-294.56 -1009.02 2417.4
-285.63 -999.72 2395.1
-279.39 -999.59 2394.8
-276.28 -1010.95 2422.0
-266.49 -997.79 2390.4
-254.36 -975.03 2335.9
-248.36 -975.26 2336.5
-243.98 -982.00 2352.6
-234.86 -969.57 2322.8
-221.66 -991.30 2374.9
-218.80 -1006.47 2411.2
-210.88 -998.60 2392.4
-208.11 -1015.30 2432.4
-203.36 -1023.17 2451.3
-192.31 -998.77 2392.8
-184.21 -988.57 2368.4
-179.83 -998.34 2391.8
-176.93 -1017.34 2437.3
-172.63 -1029.41 2466.2
-163.41 -1011.88 2424.2
-154.58 -995.50 2385.0
-149.51 -1002.94 2402.8
-145.11 -1015.77 2433.5
-137.56 -1006.67 2411.7
-129.77 -994.87 2383.4
-123.41 -993.44 2380.0
-116.43 -986.63 2363.7
-110.88 -991.74 2375.9
-106.35 -1007.23 2413.1
-100.07 -1006.94 2412.4
-92.32 -990.86 2373.8
-86.37 -993.25 2379.6
-81.70 -1011.81 2424.0
-74.85 -1004.18 2405.8
-67.53 -988.46 2368.1
-61.35 -987.75 2366.4
-54.96 -983.18 2355.4
-48.84 -982.84 2354.6
-43.37 -997.52 2389.8
-36.60 -982.15 2353.0
-30.43 -979.87 2347.5
-25.01 -1006.48 2411.3
-18.77 -1007.27 2413.1
-12.29 -989.56 2370.7
-6.05 -974.55 2334.8
0.00 -992.65 2378.1
6.28 -1011.53 2423.4
12.50 -1006.13 2410.4
18.45 -989.93 2371.6
24.24 -975.66 2337.4
31.05 -999.90 2395.5
38.50 -1032.99 2474.8
44.36 -1020.25 2444.2
49.56 -997.48 2389.7
58.36 -1044.03 2501.2
71.09 -1040.44 2492.6
76.34 -1024.20 2453.7
83.22 -1030.68 2469.2
88.91 -1022.51 2449.7
123.44 -1104.11 2645.2
132.92 -1126.31 2698.3
-522.66 -1007.98 2400.0
-511.42 -998.19 2376.6
-506.45 -1000.54 2382.2
-503.54 -1007.08 2397.8
-490.78 -993.83 2366.3
-465.19 -953.93 2271.3
-447.74 -954.40 2272.4
-459.15 -991.77 2361.4
-446.25 -976.92 2326.0
-435.41 -966.26 2300.6
-434.03 -976.57 2325.2
-432.69 -987.27 2350.6
-417.85 -967.03 2302.5
-404.88 -950.59 2263.3
-399.17 -950.95 2264.2
-390.28 -943.66 2246.8
-384.29 -943.25 2245.8
-385.20 -960.05 2285.8
-377.60 -955.80 2275.7
-363.49 -934.70 2225.5
-361.95 -945.75 2251.8
-367.64 -976.34 2324.6
-364.71 -984.72 2344.6
-346.46 -951.31 2265.0
-335.62 -937.43 2232.0
-348.84 -991.45 2360.6
-355.70 -1028.99 2450.0
-346.33 -1020.10 2428.8
-333.99 -1001.98 2385.7
-318.10 -972.31 2315.0
-314.41 -979.52 2332.2
-310.76 -987.11 2350.3
-298.70 -967.78 2304.2
-296.64 -980.74 2335.1
-295.46 -997.16 2374.2
-290.38 -1000.90 2383.1
-283.73 -999.23 2379.1
-273.79 -985.63 2346.7
-266.93 -982.80 2340.0
-263.28 -991.90 2361.7
-256.82 -990.60 2358.6
-248.91 -983.51 2341.7
-242.80 -983.35 2341.3
-237.90 -988.19 2352.8
-230.40 -982.24 2338.7
-221.65 -970.49 2310.7
-220.00 -989.98 2357.1
-215.60 -997.90 2375.9
