ply
format ascii 1.0
element vertex 2153
property float x
property float y
property float z
end_header
54.45 -843.94 2100.1
59.15 -833.45 2074.0
66.08 -853.52 2124.0
72.39 -863.15 2147.9
76.95 -851.90 2119.9
81.06 -837.67 2084.5
86.35 -836.48 2081.6
93.33 -850.93 2117.5
99.37 -855.68 2129.4
105.11 -857.46 2133.8
111.78 -866.30 2155.8
114.68 -846.46 2106.4
116.80 -822.89 2047.8
128.53 -830.12 2065.7
137.65 -853.45 2123.8
144.95 -864.12 2150.3
152.06 -872.92 2172.2
158.40 -876.87 2182.1
162.08 -866.31 2155.8
166.21 -858.73 2136.9
170.90 -854.49 2126.4
177.76 -861.02 2142.6
183.28 -860.86 2142.2
186.76 -851.41 2118.7
194.82 -862.75 2146.9
205.43 -884.50 2201.1
212.42 -889.88 2214.5
210.83 -859.98 2140.1
212.51 -844.57 2101.7
221.16 -857.00 2132.6
225.07 -850.87 2117.4
227.59 -839.90 2090.1
230.07 -829.32 2063.7
234.62 -826.51 2056.8
249.47 -859.30 2138.3
267.05 -899.84 2239.2
274.95 -887.87 2209.5
277.21 -876.89 2182.1
284.10 -880.71 2191.6
295.54 -898.22 2235.2
-428.58 -1044.67 2583.0
-414.25 -1025.77 2536.2
-401.92 -1011.29 2500.5
-391.81 -1002.00 2477.5
-386.94 -1006.05 2487.5
-379.22 -1002.68 2479.2
-365.60 -983.33 2431.3
-354.93 -971.39 2401.8
-355.62 -990.66 2449.4
-350.30 -993.57 2456.6
-331.55 -957.81 2368.2
-315.78 -929.46 2298.1
-314.38 -943.14 2331.9
-319.13 -976.16 2413.6
-290.98 -945.70 2338.3
-273.89 -909.07 2247.7
-265.71 -901.11 2228.0
-257.32 -892.03 2205.6
-247.77 -878.46 2172.0
-235.62 -875.16 2163.9
-234.58 -892.53 2206.8
-234.36 -914.01 2259.9
-228.18 -912.73 2256.7
-219.65 -901.73 2229.5
-214.63 -904.91 2237.4
-213.35 -924.52 2285.9
-204.67 -939.09 2321.9
-194.03 -917.22 2267.9
-189.49 -923.75 2284.0
-183.82 -925.04 2287.2
-176.63 -918.47 2270.9
-172.79 -929.47 2298.1
-165.24 -920.64 2276.3
-154.12 -890.48 2201.7
-146.13 -876.77 2167.8
-142.63 -890.00 2200.6
-140.74 -914.83 2261.9
-130.95 -928.55 2295.9
-122.39 -909.20 2248.0
-114.94 -896.57 2216.8
-105.20 -863.71 2135.6
-98.81 -856.31 2117.3
-97.41 -893.86 2210.1
-92.26 -899.57 2224.2
-84.67 -880.54 2177.2
-77.99 -868.99 2148.6
-71.80 -861.57 2130.2
-66.37 -862.75 2133.2
-60.39 -856.44 2117.6
-54.04 -843.00 2084.3
-48.49 -840.42 2078.0
-43.10 -840.46 2078.1
-37.82 -842.75 2083.7
-32.85 -854.02 2111.6
-27.61 -861.55 2130.2
-21.88 -853.32 2109.9
-16.22 -843.59 2085.8
-10.83 -844.35 2087.7
-5.49 -857.11 2119.2
0.00 -866.11 2141.5
5.58 -870.61 2152.6
11.22 -875.47 2164.6
16.74 -870.59 2152.6
22.42 -874.32 2161.8
27.90 -870.55 2152.5
33.34 -866.77 2143.1
39.21 -873.86 2160.6
45.16 -880.57 2177.2
50.76 -879.78 2175.3
54.74 -853.87 2111.2
59.91 -849.69 2100.9
67.37 -875.87 2165.6
72.48 -869.81 2150.6
75.53 -841.64 2081.0
81.14 -843.82 2086.4
87.96 -857.60 2120.4
93.82 -860.89 2128.6
98.50 -853.69 2110.8
103.42 -849.10 2099.4
109.23 -852.00 2106.6
114.12 -847.78 2096.2
118.33 -839.07 2074.6
124.96 -847.57 2095.6
134.58 -874.78 2162.9
141.19 -881.02 2178.3
145.63 -873.78 2160.4
151.01 -872.52 2157.3
155.44 -866.03 2141.3
160.83 -865.14 2139.1
166.70 -866.86 2143.3
170.15 -856.24 2117.1
175.84 -857.21 2119.5
183.59 -867.88 2145.9
189.44 -869.21 2149.2
199.92 -891.08 2203.2
214.92 -882.31 2181.5
216.80 -867.18 2144.1
225.56 -879.68 2175.0
228.30 -868.65 2147.8
229.29 -851.66 2105.8
230.99 -838.03 2072.0
235.05 -833.34 2060.5
248.50 -861.46 2130.0
264.72 -897.76 2219.7
272.20 -903.48 2233.9
271.16 -881.26 2178.9
276.03 -878.78 2172.8
286.00 -892.31 2206.3
294.19 -899.87 2225.0
298.26 -894.77 2212.3
299.98 -882.97 2183.2
-404.36 -1040.73 2556.8
-394.16 -1031.39 2533.9
-381.27 -1014.56 2492.6
-365.96 -990.63 2433.8
-353.26 -973.02 2390.5
-344.78 -966.61 2374.7
-331.66 -946.73 2325.9
-323.41 -940.29 2310.1
-317.01 -939.08 2307.1
-294.66 -907.08 2228.5
-297.90 -935.41 2298.1
-296.23 -949.15 2331.9
-292.44 -956.53 2350.0
-288.00 -962.04 2363.5
-274.92 -938.31 2305.2
-261.71 -913.06 2243.2
-257.32 -918.17 2255.7
-253.90 -927.02 2277.5
-238.52 -891.61 2190.5
-229.95 -902.54 2217.3
-227.14 -914.38 2246.4
-217.55 -898.81 2208.2
-211.51 -897.50 2205.0
-206.53 -900.69 2212.8
-202.67 -909.14 2233.6
-200.10 -923.98 2270.0
-194.96 -927.53 2278.7
-187.55 -920.19 2260.7
-179.35 -908.33 2231.6
-173.31 -906.98 2228.2
-170.48 -922.93 2267.4
-166.57 -933.99 2294.6
-158.84 -923.60 2269.1
-150.42 -908.32 2231.5
-146.34 -918.99 2257.7
-139.24 -910.84 2237.7
-131.63 -898.54 2207.5
-128.04 -913.71 2244.8
-122.79 -917.97 2255.2
-117.43 -921.84 2264.8
-109.39 -903.87 2220.6
-98.15 -856.13 2103.3
-92.47 -853.95 2098.0
-89.65 -879.65 2161.1
-84.23 -881.61 2165.9
-77.51 -869.25 2135.6
-71.26 -860.65 2114.4
-66.08 -864.49 2123.8
-60.26 -860.02 2112.9
-54.95 -862.71 2119.5
-50.15 -874.82 2149.2
-43.89 -861.29 2116.0
-37.97 -851.53 2092.0
-32.75 -856.84 2105.1
-27.31 -857.62 2107.0
-21.83 -856.89 2105.2
-16.34 -855.02 2100.6
-10.72 -841.84 2068.2
-5.36 -841.47 2067.3
0.00 -859.94 2112.7
5.56 -873.51 2146.0
11.27 -884.82 2173.8
16.94 -886.69 2178.4
22.46 -881.39 2165.4
27.60 -866.67 2129.2
32.60 -853.07 2095.8
37.92 -850.40 2089.2
43.83 -860.16 2113.2
49.39 -861.63 2116.8
53.61 -841.60 2067.6
59.02 -842.31 2069.4
66.56 -870.89 2139.6
71.73 -866.31 2128.3
87.15 -855.17 2101.0
93.89 -867.14 2130.4
100.27 -874.58 2148.7
107.02 -884.28 2172.5
112.39 -882.30 2167.6
116.79 -873.16 2145.2
121.76 -868.91 2134.7
129.43 -883.48 2170.5
135.61 -887.12 2179.5
138.43 -869.31 2135.7
143.51 -866.55 2128.9
149.65 -870.18 2137.8
152.28 -853.87 2097.8
155.61 -842.45 2069.7
165.33 -865.24 2125.7
172.97 -875.99 2152.1
177.21 -869.44 2136.0
183.51 -873.04 2144.9
190.25 -878.51 2158.3
201.59 -904.26 2221.6
205.93 -898.06 2206.3
201.78 -856.19 2103.5
207.19 -856.01 2103.0
218.09 -877.97 2157.0
225.26 -884.15 2172.2
226.43 -867.06 2130.2
230.99 -863.48 2121.4
236.13 -862.15 2118.1
241.88 -863.06 2120.3
257.30 -897.70 2205.4
261.41 -892.22 2192.0
254.91 -851.52 2092.0
261.18 -854.29 2098.8
274.26 -878.76 2158.9
282.17 -886.00 2176.7
287.36 -884.63 2173.3
297.74 -898.96 2208.5
306.79 -908.79 2232.7
310.81 -903.65 2220.1
-386.26 -1034.38 2525.2
-370.60 -1009.57 2464.6
-359.45 -996.37 2432.4
-352.06 -993.31 2424.9
-336.46 -966.56 2359.6
-325.95 -953.70 2328.2
-322.79 -962.27 2349.1
-310.85 -944.50 2305.7
-301.07 -932.73 2277.0
-302.40 -955.58 2332.8
-297.02 -957.73 2338.0
-289.78 -953.85 2328.6
-287.40 -966.17 2358.6
-275.99 -947.96 2314.2
-266.95 -937.28 2288.1
-260.85 -958.48 2339.9
-243.12 -914.59 2232.7
-227.60 -877.08 2141.2
-227.64 -899.17 2195.1
-224.98 -911.45 2225.1
-216.08 -898.44 2193.3
-213.98 -913.73 2230.6
-212.45 -932.43 2276.3
-205.59 -928.08 2265.7
-200.00 -929.40 2268.9
-190.92 -914.09 2231.5
-180.34 -890.44 2173.8
-180.08 -917.82 2240.6
-173.38 -944.61 2306.0
-164.81 -930.01 2270.4
-158.95 -930.16 2270.7
-152.65 -927.65 2264.6
-145.72 -920.98 2248.3
-136.01 -895.37 2185.8
-128.81 -884.90 2160.2
-125.55 -901.67 2201.2
-119.00 -895.34 2185.7
-112.44 -888.25 2168.4
-109.65 -911.83 2226.0
-102.98 -903.97 2206.8
-95.76 -890.05 2172.8
-91.79 -906.42 2212.8
-85.59 -901.58 2201.0
-78.21 -882.71 2154.9
-72.32 -878.99 2145.8
-67.34 -886.63 2164.5
-61.23 -879.49 2147.0
-55.62 -878.79 2145.3
-51.03 -895.89 2187.1
-44.90 -886.84 2165.0
-38.18 -861.86 2104.0
-32.41 -853.55 2083.7
-27.42 -866.47 2115.2
-22.21 -877.48 2142.1
-16.86 -887.74 2167.2
-11.26 -889.26 2170.9
-5.43 -857.43 2093.2
0.00 -843.41 2059.0
5.50 -869.56 2122.8
11.28 -891.16 2175.5
16.86 -887.74 2167.2
22.19 -876.35 2139.4
27.77 -877.46 2142.1
33.39 -879.33 2146.6
37.80 -853.14 2082.7
49.43 -867.84 2118.6
55.28 -873.48 2132.4
59.73 -857.89 2094.3
66.27 -872.61 2130.2
72.35 -879.37 2146.7
75.93 -856.95 2092.0
79.80 -840.59 2052.1
85.81 -847.33 2068.5
92.38 -858.61 2096.1
98.58 -865.35 2112.5
105.01 -873.21 2131.7
110.04 -869.32 2122.2
116.18 -874.14 2134.0
123.07 -883.87 2157.7
126.94 -872.03 2128.8
129.17 -850.34 2075.9
135.25 -854.76 2086.7
143.62 -872.79 2130.7
148.61 -869.64 2123.0
150.07 -846.81 2067.2
152.83 -832.68 2032.8
161.81 -852.20 2080.4
168.95 -861.12 2102.2
172.92 -853.78 2084.3
179.31 -858.54 2095.9
186.34 -865.93 2113.9
193.96 -875.58 2137.5
194.47 -853.50 2083.6
196.38 -838.59 2047.2
207.73 -863.71 2108.5
215.10 -871.44 2127.4
218.75 -864.08 2109.4
222.51 -857.46 2093.3
229.88 -864.81 2111.2
239.30 -879.30 2146.6
249.64 -896.42 2188.4
257.18 -902.98 2204.4
252.73 -868.08 2119.2
251.55 -845.63 2064.4
263.12 -866.11 2114.4
273.55 -882.06 2153.3
278.82 -881.06 2150.9
290.63 -900.38 2198.0
-362.92 -1030.43 2499.7
-344.00 -994.48 2412.5
-334.26 -984.20 2387.6
-331.57 -994.71 2413.0
-318.61 -974.21 2363.3
-308.45 -961.63 2332.8
-308.08 -979.69 2376.6
-301.65 -978.83 2374.5
-280.60 -929.50 2254.8
-266.21 -900.59 2184.7
-264.12 -912.95 2214.7
-263.60 -931.37 2259.4
-260.63 -941.84 2284.8
-252.62 -934.11 2266.0
-245.50 -929.41 2254.6
-239.62 -929.25 2254.2
-233.35 -927.56 2250.2
-225.33 -918.67 2228.6
-219.60 -918.87 2229.1
-220.50 -947.54 2298.6
-207.41 -942.23 2285.7
-199.41 -932.54 2262.2
-187.83 -904.98 2195.4
-175.90 -873.99 2120.2
-174.36 -894.29 2169.4
-177.94 -943.10 2287.8
-171.83 -942.12 2285.5
-163.52 -928.59 2252.6
-158.16 -931.39 2259.4
-150.09 -917.84 2226.6
-141.76 -901.62 2187.2
-136.63 -905.17 2195.8
-133.38 -922.03 2236.7
-127.96 -924.82 2243.5
-119.40 -904.00 2193.0
-112.48 -894.20 2169.2
-109.14 -913.34 2215.6
-103.45 -913.82 2216.8
-97.18 -908.96 2205.0
-92.59 -920.09 2232.0
-85.98 -911.41 2211.0
-78.18 -887.87 2153.9
-71.94 -879.94 2134.6
-67.31 -891.81 2163.4
-61.46 -888.44 2155.3
-54.78 -870.97 2112.9
-49.37 -872.16 2115.8
-43.37 -861.92 2090.9
-31.91 -845.60 2051.3
-27.55 -876.11 2125.3
-22.20 -882.61 2141.1
-16.78 -889.11 2156.9
-11.31 -899.41 2181.9
-5.52 -878.46 2131.0
0.00 -853.69 2070.9
5.47 -869.31 2108.8
11.25 -894.08 2168.9
16.87 -894.06 2168.9
22.31 -886.81 2151.3
28.02 -890.97 2161.4
33.71 -893.23 2166.9
38.17 -866.91 2103.0
48.46 -856.16 2076.9
55.86 -888.12 2154.5
62.18 -898.73 2180.2
67.54 -894.86 2170.8
72.04 -881.08 2137.4
76.63 -870.35 2111.4
81.71 -866.09 2101.0
85.57 -850.40 2063.0
95.95 -847.57 2056.1
102.59 -858.52 2082.7
109.03 -866.80 2102.7
116.68 -883.44 2143.1
122.12 -882.57 2141.0
124.35 -859.63 2085.3
140.70 -860.40 2087.2
146.99 -865.60 2099.8
151.14 -858.24 2082.0
156.58 -858.48 2082.6
163.17 -864.80 2097.9
167.76 -860.46 2087.4
169.47 -842.07 2042.8
173.32 -835.07 2025.8
178.94 -836.81 2030.0
184.84 -839.69 2037.0
194.29 -858.12 2081.7
205.39 -882.62 2141.1
212.17 -887.74 2153.6
214.63 -875.03 2122.7
218.65 -869.14 2108.4
222.89 -864.39 2096.9
230.18 -871.39 2113.9
239.81 -886.72 2151.1
242.59 -876.65 2126.6
241.72 -854.07 2071.9
243.52 -841.73 2041.9
249.31 -843.40 2046.0
264.72 -876.87 2127.2
279.95 -908.42 2203.7
279.28 -888.11 2154.5
285.03 -888.62 2155.7
-368.54 -1034.51 2493.9
-354.09 -1011.67 2438.9
-346.83 -1008.95 2432.3
-348.06 -1031.30 2486.2
-338.45 -1021.73 2463.1
-319.06 -981.73 2366.7
-303.32 -951.59 2294.0
-298.17 -954.14 2300.2
-296.95 -969.63 2337.5
-281.03 -936.78 2258.3
-267.76 -911.52 2197.4
-266.73 -927.76 2236.6
-260.25 -925.33 2230.7
-251.28 -913.75 2202.8
-242.76 -903.31 2177.6
-234.97 -895.14 2157.9
-230.90 -901.07 2172.2
-226.84 -907.38 2187.4
-220.01 -902.62 2176.0
-215.33 -906.64 2185.6
-217.12 -938.89 2263.4
-213.70 -949.77 2289.6
-202.63 -926.29 2233.0
-192.57 -906.23 2184.7
-184.35 -893.80 2154.7
-175.89 -879.45 2120.1
-171.83 -886.87 2138.0
-172.91 -922.18 2223.1
-170.36 -939.92 2265.9
-165.72 -946.95 2282.8
-158.15 -937.16 2259.2
-148.21 -912.06 2198.7
-139.48 -892.69 2152.0
-133.98 -893.20 2153.2
-131.99 -918.19 2213.5
-127.79 -929.40 2240.5
-118.78 -905.02 2181.8
-111.28 -890.20 2146.0
-107.59 -906.00 2184.1
-101.59 -903.03 2176.9
-94.82 -892.40 2151.3
-89.94 -899.38 2168.1
-84.07 -896.78 2161.9
-76.87 -878.47 2117.7
-71.10 -875.09 2109.6
-66.84 -891.24 2148.5
-61.78 -898.58 2166.2
-55.83 -893.27 2153.4
-49.04 -871.86 2101.8
-31.97 -852.44 2055.0
-27.62 -883.88 2130.8
-22.32 -892.72 2152.1
-16.47 -878.17 2117.0
-10.85 -868.22 2093.0
-5.50 -879.34 2119.8
0.00 -887.78 2140.2
5.58 -893.14 2153.1
11.34 -907.31 2187.3
17.03 -908.44 2190.0
22.56 -902.29 2175.2
28.08 -898.44 2165.9
33.45 -891.90 2150.1
38.57 -881.52 2125.1
43.56 -871.14 2100.1
48.96 -870.33 2098.1
55.28 -884.46 2132.2
61.80 -898.96 2167.1
67.30 -897.37 2163.3
72.53 -892.71 2152.1
77.87 -889.96 2145.4
83.03 -885.67 2135.1
87.14 -871.43 2100.8
90.14 -848.37 2045.2
103.31 -870.02 2097.4
111.85 -894.80 2157.1
118.18 -900.43 2170.7
122.27 -889.22 2143.7
124.78 -868.07 2092.7
126.58 -843.85 2034.3
136.71 -841.32 2028.2
144.66 -857.25 2066.6
150.73 -861.32 2076.4
154.63 -853.15 2056.7
159.65 -851.48 2052.7
167.24 -863.18 2080.9
171.84 -859.20 2071.3
175.44 -850.64 2050.6
180.73 -850.48 2050.3
186.84 -854.13 2059.1
196.01 -871.13 2100.1
202.20 -874.39 2107.9
204.00 -858.94 2070.7
209.23 -858.37 2069.3
216.07 -864.28 2083.5
216.44 -844.63 2036.2
219.36 -835.66 2014.5
232.62 -865.57 2086.7
240.07 -872.98 2104.5
237.96 -846.09 2039.7
238.04 -827.98 1996.0
244.38 -831.95 2005.6
260.48 -868.26 2093.1
274.57 -896.57 2161.4
272.25 -871.21 2100.2
274.59 -861.45 2076.7
289.28 -890.10 2145.8
306.09 -924.04 2227.6
316.00 -936.30 2257.2
320.32 -931.84 2246.4
327.77 -936.48 2257.6
330.81 -928.59 2238.6
-376.89 -1046.19 2506.4
-363.89 -1027.82 2462.4
-354.83 -1020.13 2444.0
-352.25 -1031.14 2470.4
-349.42 -1041.78 2495.8
-335.88 -1020.31 2444.4
-321.86 -996.53 2387.4
-310.80 -981.14 2350.6
-292.91 -943.17 2259.6
-280.15 -920.48 2205.2
-275.76 -924.94 2215.9
-273.10 -935.53 2241.3
-273.60 -957.60 2294.2
-267.93 -958.61 2296.6
-254.40 -930.89 2230.2
-241.52 -904.29 2166.5
-231.26 -886.50 2123.8
-224.93 -883.26 2116.1
-218.06 -877.71 2102.8
-209.13 -863.33 2068.3
-204.63 -866.97 2077.0
-206.25 -897.47 2150.1
-208.01 -930.28 2228.7
-201.61 -927.39 2221.8
-194.26 -919.90 2203.8
-188.59 -920.07 2204.3
-181.23 -911.79 2184.4
-178.33 -926.17 2218.9
-172.54 -925.94 2218.3
-163.77 -909.19 2178.2
-158.95 -913.95 2189.6
-151.62 -904.10 2166.0
-143.54 -888.86 2129.5
-136.37 -878.22 2104.0
-131.51 -882.19 2113.5
-130.33 -912.31 2185.7
-127.25 -931.27 2231.1
-118.98 -912.15 2185.3
-108.78 -875.71 2098.0
-98.57 -881.67 2112.3
-93.43 -884.84 2119.8
-90.96 -915.33 2192.9
-87.37 -937.74 2246.6
-78.67 -904.71 2167.4
-71.60 -886.68 2124.3
-66.55 -892.91 2139.2
-60.83 -890.27 2132.9
-55.92 -900.33 2157.0
-49.90 -892.68 2138.6
-44.00 -885.41 2121.2
-39.12 -899.70 2155.4
-32.55 -873.54 2092.8
-26.57 -855.46 2049.5
-21.76 -875.90 2098.4
-16.29 -874.38 2094.8
-10.66 -857.83 2055.1
-5.36 -862.46 2066.2
0.00 -910.61 2181.6
11.74 -945.26 2264.6
17.14 -919.83 2203.7
22.63 -910.95 2182.4
28.07 -903.99 2165.7
33.33 -894.34 2142.6
38.31 -881.21 2111.1
44.00 -885.41 2121.2
50.33 -900.38 2157.1
55.80 -898.41 2152.4
61.17 -895.27 2144.8
66.95 -898.30 2152.1
72.40 -896.69 2148.2
77.57 -892.00 2137.0
82.42 -884.61 2119.3
88.55 -891.08 2134.8
93.80 -888.30 2128.1
97.20 -869.36 2082.8
103.90 -880.42 2109.3
109.55 -881.86 2112.7
112.75 -864.45 2071.0
118.27 -865.50 2073.5
122.25 -855.77 2050.2
129.33 -867.58 2078.5
138.04 -888.99 2129.8
143.23 -886.94 2124.9
149.23 -889.88 2131.9
153.87 -884.74 2119.6
156.43 -868.46 2080.6
157.29 -844.11 2022.3
160.95 -835.89 2002.6
169.93 -854.95 2048.2
178.12 -869.00 2081.9
182.67 -864.99 2072.3
188.01 -864.82 2071.9
195.74 -875.39 2097.2
200.61 -872.91 2091.3
200.55 -849.71 2035.7
204.30 -843.39 2020.5
213.59 -859.69 2059.6
216.63 -850.67 2038.0
219.26 -840.51 2013.6
231.80 -867.89 2079.2
240.48 -879.94 2108.1
240.32 -859.80 2059.9
242.09 -847.33 2030.0
249.75 -855.52 2049.6
258.08 -865.63 2073.8
263.26 -865.01 2072.3
266.54 -858.26 2056.2
273.98 -864.90 2072.1
286.43 -886.82 2124.6
300.15 -911.78 2184.4
314.18 -936.72 2244.1
327.07 -940.34 2252.8
324.97 -917.90 2199.1
331.67 -920.66 2205.7
-376.27 -1050.96 2502.3
-348.59 -1045.76 2489.9
-320.92 -1019.39 2427.1
-294.90 -955.47 2274.9
-275.94 -912.28 2172.1
-265.71 -915.85 2180.6
-269.63 -949.58 2260.9
-265.34 -955.21 2274.3
-252.81 -930.81 2216.2
-246.72 -929.50 2213.1
-242.84 -936.65 2230.1
-230.48 -910.67 2168.3
-217.96 -882.74 2101.8
-210.24 -873.30 2079.3
-206.97 -882.36 2100.8
-199.63 -874.06 2081.1
-193.16 -869.22 2069.6
-196.92 -911.46 2170.1
-198.95 -947.92 2256.9
-189.28 -929.18 2212.3
-177.86 -900.40 2143.8
-174.10 -909.83 2166.3
-167.37 -903.80 2151.9
-157.95 -882.32 2100.8
-152.39 -881.69 2099.3
-147.36 -884.15 2105.1
-141.30 -880.42 2096.2
-138.03 -894.46 2129.7
-137.00 -924.74 2201.8
-132.79 -935.30 2226.9
-126.67 -932.72 2220.8
-120.32 -928.19 2210.0
-111.69 -904.70 2154.1
-104.80 -893.59 2127.6
-100.03 -900.26 2143.5
-95.21 -907.31 2160.3
-93.14 -943.00 2245.2
-78.13 -904.07 2152.5
-60.40 -889.55 2118.0
-57.23 -927.16 2207.5
-50.65 -911.72 2170.8
-44.36 -898.22 2138.6
-39.92 -923.81 2199.5
-33.59 -906.81 2159.1
-26.90 -871.60 2075.2
-21.66 -877.04 2088.2
-16.21 -875.51 2084.5
-10.62 -860.42 2048.6
-5.37 -869.33 2069.8
0.00 -922.00 2195.2
11.53 -933.61 2222.9
17.16 -926.62 2206.2
23.14 -937.06 2231.1
28.32 -917.68 2184.9
33.21 -896.74 2135.1
38.73 -896.32 2134.1
45.12 -913.70 2175.5
50.69 -912.50 2172.6
55.13 -893.09 2126.4
61.79 -910.07 2166.8
69.13 -933.23 2222.0
72.68 -905.69 2156.4
75.52 -873.88 2080.7
81.05 -875.36 2084.2
88.17 -892.69 2125.5
96.10 -915.82 2180.5
102.44 -921.92 2195.1
105.80 -902.10 2147.8
107.68 -872.21 2076.7
111.95 -863.60 2056.2
118.47 -872.39 2077.1
122.47 -862.61 2053.8
129.84 -876.42 2086.7
140.12 -907.99 2161.9
146.95 -915.59 2180.0
151.03 -906.17 2157.6
153.79 -889.81 2118.6
158.43 -885.03 2107.2
161.36 -871.36 2074.7
162.28 -848.04 2019.1
168.70 -854.06 2033.5
175.36 -860.85 2049.7
178.21 -849.11 2021.7
181.75 -841.23 2002.9
187.67 -844.53 2010.8
195.93 -857.86 2042.5
199.92 -852.28 2029.2
201.14 -835.51 1989.3
207.87 -841.88 2004.5
215.65 -852.09 2028.8
223.36 -861.52 2051.2
229.03 -862.85 2054.4
230.32 -848.01 2019.1
234.11 -842.79 2006.6
240.34 -846.42 2015.3
245.06 -844.66 2011.1
249.98 -843.67 2008.7
261.63 -864.97 2059.5
272.35 -882.42 2101.0
275.18 -874.10 2081.2
282.10 -878.84 2092.5
293.47 -897.02 2135.8
304.55 -913.65 2175.3
316.09 -931.03 2216.7
321.34 -929.59 2213.3
328.73 -934.28 2224.5
-375.52 -1055.33 2497.3
-356.30 -1055.95 2498.7
-343.92 -1038.13 2456.6
-341.04 -1048.87 2482.0
-313.25 -1001.18 2369.1
-290.84 -948.12 2243.6
-267.25 -926.85 2193.2
-268.40 -951.08 2250.6
-261.78 -948.23 2243.8
-253.42 -938.79 2221.5
-251.29 -952.57 2254.1
-241.47 -960.00 2271.7
-228.50 -931.16 2203.4
-219.97 -919.35 2175.5
-211.03 -905.21 2142.0
-198.48 -874.38 2069.1
-191.01 -864.86 2046.6
-193.74 -902.28 2135.1
-196.09 -940.09 2224.6
-186.43 -920.86 2179.1
-175.79 -895.42 2118.9
-172.32 -906.06 2144.0
-170.72 -927.57 2194.9
-166.02 -933.16 2208.2
-157.92 -919.33 2175.5
-150.25 -907.04 2146.4
-143.09 -897.08 2122.8
-139.04 -906.53 2145.2
-140.42 -953.68 2256.7
-129.54 -959.76 2271.1
-120.71 -936.94 2217.1
-113.26 -923.05 2184.3
-107.56 -922.77 2183.6
-102.81 -931.03 2203.1
-97.92 -938.90 2221.8
-92.06 -937.83 2219.2
-83.55 -907.95 2148.5
-78.16 -909.97 2153.3
-73.85 -926.00 2191.2
-65.86 -894.55 2116.8
-60.77 -900.44 2130.8
-57.85 -942.91 2231.3
-51.51 -932.84 2207.4
-44.41 -904.87 2141.2
-39.38 -916.97 2169.9
-33.87 -920.12 2177.3
-27.76 -904.97 2141.5
-21.97 -895.26 2118.5
-16.17 -878.54 2078.9
-10.70 -872.33 2064.2
-5.47 -892.18 2111.2
0.00 -920.21 2177.5
5.69 -927.22 2194.1
11.39 -928.38 2196.9
17.47 -949.00 2245.7
23.16 -943.92 2233.6
27.82 -906.91 2146.1
33.78 -917.78 2171.8
40.88 -952.00 2252.8
45.58 -928.61 2197.4
48.76 -883.03 2089.6
54.67 -891.15 2108.8
63.47 -940.52 2225.6
70.70 -960.30 2272.4
74.04 -928.33 2196.8
77.82 -906.08 2144.1
84.48 -918.07 2172.5
89.61 -912.93 2160.3
95.25 -913.23 2161.0
101.65 -920.53 2178.3
105.07 -901.38 2133.0
109.92 -895.84 2119.9
117.55 -912.45 2159.2
126.18 -934.88 2212.3
133.55 -907.05 2146.4
137.55 -896.82 2122.2
143.46 -899.41 2128.3
146.71 -885.68 2095.8
149.85 -872.33 2064.2
154.83 -870.25 2059.3
164.14 -891.85 2110.4
171.28 -900.62 2131.2
170.45 -868.25 2054.6
169.70 -838.21 1983.5
175.62 -841.93 1992.3
182.25 -848.74 2008.4
187.93 -850.90 2013.5
196.10 -863.91 2044.3
204.43 -876.91 2075.1
210.23 -878.65 2079.2
210.06 -855.98 2025.5
210.78 -837.97 1982.9
219.16 -850.55 2012.7
225.75 -855.77 2025.0
228.44 -846.27 2002.6
233.47 -845.67 2001.1
242.20 -858.22 2030.8
249.85 -866.50 2050.4
251.00 -852.35 2017.0
258.37 -859.46 2033.8
274.47 -894.78 2117.4
283.87 -907.28 2146.9
282.95 -886.93 2098.8
286.04 -879.72 2081.7
300.69 -907.64 2147.8
316.19 -937.08 2217.5
-367.34 -1056.91 2485.8
-339.69 -994.81 2339.7
-334.38 -997.05 2345.0
-334.66 -1016.37 2390.4
-326.93 -1011.63 2379.3
-316.79 -999.12 2349.8
-307.53 -988.92 2325.9
-295.19 -968.22 2277.2
-279.38 -935.06 2199.2
-270.79 -925.21 2176.0
-266.78 -930.90 2189.4
-262.92 -937.37 2204.6
-262.71 -957.45 2251.8
-260.28 -970.14 2281.7
-251.67 -959.87 2257.5
-245.38 -958.15 2253.5
-236.48 -945.92 2224.7
-223.45 -916.14 2154.7
-215.78 -907.38 2134.1
-207.95 -897.45 2110.7
-200.76 -889.84 2092.8
-198.20 -902.89 2123.5
-194.48 -911.26 2143.2
-190.65 -919.63 2162.9
-186.10 -924.87 2175.2
-179.96 -922.31 2169.2
-175.62 -929.11 2185.2
-172.99 -945.66 2224.1
-166.56 -941.92 2215.3
-156.98 -919.43 2162.4
-151.33 -919.18 2161.8
-146.12 -921.66 2167.7
-140.40 -921.01 2166.1
-139.95 -956.30 2249.1
-128.68 -959.28 2256.2
-110.95 -957.66 2252.3
-103.49 -942.91 2217.6
-96.49 -930.88 2189.4
-88.65 -908.68 2137.1
-82.73 -904.46 2127.2
-79.52 -931.52 2190.9
-69.00 -943.00 2217.9
-60.89 -907.86 2135.2
-55.79 -914.96 2151.9
-51.20 -933.00 2194.3
-45.44 -931.48 2190.8
-39.78 -931.91 2191.8
-33.78 -923.34 2171.6
-27.38 -897.94 2111.9
-21.43 -878.79 2066.8
-16.34 -893.28 2100.9
-11.23 -921.07 2166.3
-5.59 -916.39 2155.3
0.00 -918.35 2159.9
5.72 -937.52 2205.0
11.60 -950.81 2236.2
17.61 -962.93 2264.7
23.11 -947.65 2228.8
28.27 -927.28 2180.9
34.97 -955.81 2248.0
41.36 -969.08 2279.2
44.94 -921.31 2166.8
49.70 -905.62 2129.9
57.77 -947.42 2228.3
64.51 -961.84 2262.2
69.31 -947.30 2228.0
72.73 -917.51 2157.9
76.62 -897.50 2110.8
85.19 -931.44 2190.7
92.35 -946.61 2226.4
95.97 -925.80 2177.4
100.06 -911.64 2144.1
106.33 -917.79 2158.6
114.39 -938.02 2206.1
118.75 -927.36 2181.1
123.76 -922.55 2169.8
133.31 -950.57 2235.7
138.12 -943.80 2219.7
138.73 -910.08 2140.4
141.29 -891.20 2096.0
146.96 -892.63 2099.4
152.64 -894.05 2102.7
156.27 -883.76 2078.5
164.35 -898.44 2113.1
171.27 -906.09 2131.0
169.91 -870.81 2048.1
170.64 -848.03 1994.5
178.28 -859.96 2022.6
184.07 -862.52 2028.6
188.95 -860.79 2024.5
193.99 -859.83 2022.3
198.83 -858.09 2018.2
205.87 -865.70 2036.0
207.20 -849.53 1998.0
210.87 -843.50 1983.8
222.35 -868.22 2042.0
227.79 -868.79 2043.3
229.17 -854.18 2009.0
233.79 -852.02 2003.9
241.97 -862.69 2029.0
249.51 -870.63 2047.6
249.97 -854.07 2008.7
254.53 -851.89 2003.6
267.35 -876.91 2062.4
279.51 -898.80 2113.9
282.44 -890.78 2095.0
283.27 -876.54 2061.6
294.92 -895.68 2106.6
306.27 -913.26 2147.9
316.91 -928.10 2182.8
333.78 -943.79 2219.7
347.75 -950.52 2235.6
-367.81 -1064.72 2489.0
-330.04 -990.12 2314.6
-311.11 -1006.52 2352.9
-302.96 -999.78 2337.1
-290.61 -978.57 2287.6
-278.05 -955.78 2234.3
-270.54 -949.78 2220.3
-267.91 -960.98 2246.4
-269.19 -987.03 2307.4
-254.83 -955.60 2233.9
-235.33 -903.01 2110.9
-233.40 -916.92 2143.5
-228.87 -921.05 2153.1
-217.64 -897.77 2098.7
-212.25 -897.97 2099.2
-207.12 -899.34 2102.4
-202.24 -901.88 2108.3
-195.45 -895.80 2094.1
-187.89 -885.79 2070.7
-184.58 -895.76 2094.0
-180.36 -901.81 2108.1
-173.79 -896.09 2094.8
-168.98 -899.39 2102.5
-167.69 -922.30 2156.0
-162.40 -924.02 2160.1
-155.23 -914.75 2138.4
-151.64 -926.67 2166.2
-147.34 -935.05 2185.8
-142.41 -939.90 2197.2
-137.30 -943.96 2206.7
-130.94 -939.37 2195.9
-126.52 -948.92 2218.2
-103.35 -947.38 2214.7
-95.35 -925.47 2163.4
-88.68 -914.55 2137.9
-84.01 -924.06 2160.2
-79.28 -934.36 2184.2
-74.74 -948.58 2217.5
-68.74 -945.11 2209.4
-61.52 -922.76 2157.1
-54.24 -894.90 2092.0
-43.15 -889.88 2080.2
-38.45 -906.44 2118.9
-33.26 -914.73 2138.3
-27.42 -904.93 2115.4
-21.81 -899.84 2103.5
-16.93 -931.32 2177.1
-11.59 -956.11 2235.1
-5.73 -945.89 2211.2
0.00 -945.89 2211.2
5.84 -963.20 2251.6
11.66 -961.61 2247.9
17.42 -958.06 2239.6
23.31 -961.58 2247.9
29.08 -959.59 2243.2
35.18 -967.43 2261.5
40.66 -958.35 2240.3
45.53 -939.04 2195.1
52.03 -953.93 2230.0
58.50 -965.28 2256.5
63.04 -945.57 2210.4
68.19 -937.64 2191.9
71.86 -912.02 2132.0
74.74 -880.90 2059.2
82.47 -907.16 2120.6
91.20 -940.49 2198.5
96.44 -936.08 2188.2
100.52 -921.45 2154.0
106.91 -928.42 2170.3
115.19 -950.32 2221.5
119.39 -938.03 2192.8
121.81 -913.57 2135.6
128.64 -922.88 2157.4
135.59 -932.18 2179.1
138.48 -913.99 2136.6
142.39 -903.65 2112.4
149.52 -913.72 2136.0
155.23 -914.75 2138.4
158.96 -904.40 2114.2
162.20 -892.09 2085.4
164.26 -874.29 2043.8
165.35 -852.56 1993.0
168.52 -842.60 1969.7
179.73 -872.24 2039.0
189.47 -893.23 2088.1
189.03 -866.41 2025.4
188.62 -841.16 1966.3
192.33 -835.10 1952.2
197.99 -837.66 1958.2
205.30 -846.87 1979.7
215.25 -866.25 2025.0
223.24 -877.01 2050.1
224.93 -863.10 2017.6
226.04 -847.64 1981.5
230.37 -844.69 1974.6
235.21 -843.69 1972.3
238.81 -838.39 1959.9
246.10 -845.98 1977.6
258.01 -868.80 2031.0
266.75 -880.27 2057.8
274.30 -887.44 2074.5
279.48 -886.80 2073.0
282.76 -880.29 2057.8
295.54 -903.05 2111.0
308.20 -924.61 2161.4
310.00 -913.41 2135.2
316.92 -917.41 2144.6
327.86 -932.70 2180.3
338.41 -946.41 2212.4
-360.35 -1068.17 2482.0
-340.60 -1066.79 2478.8
-311.06 -1012.47 2352.6
-301.86 -1002.16 2328.6
-296.25 -1003.61 2332.0
-290.05 -1003.10 2330.8
-278.19 -982.55 2283.0
-271.80 -980.84 2279.1
-265.00 -977.55 2271.4
-242.60 -915.28 2126.7
-226.86 -875.79 2035.0
-228.11 -901.56 2094.9
-225.45 -912.79 2120.9
-216.49 -898.44 2087.6
-209.55 -891.94 2072.5
-202.78 -885.84 2058.3
-199.68 -895.87 2081.6
-194.50 -896.84 2083.9
-185.73 -880.87 2046.8
-181.26 -884.98 2056.3
-176.35 -887.12 2061.3
-168.99 -876.64 2036.9
-163.15 -873.64 2030.0
-160.98 -890.75 2069.7
-160.81 -920.47 2138.8
-158.28 -938.37 2180.4
-150.79 -927.08 2154.1
-142.82 -911.83 2118.7
-138.59 -920.24 2138.3
-134.15 -927.87 2156.0
-128.36 -926.42 2152.6
-124.36 -938.38 2180.4
-120.92 -955.86 2221.0
-114.56 -950.84 2209.4
-108.07 -944.23 2194.0
-101.97 -940.38 2185.1
-94.90 -926.65 2153.1
-88.94 -922.79 2144.2
-84.53 -935.51 2173.7
-80.17 -950.60 2208.8
-74.39 -949.88 2207.1
-67.27 -930.59 2162.3
-61.64 -930.25 2161.5
-55.42 -920.03 2137.8
-48.83 -900.72 2092.9
-44.00 -913.01 2121.5
-38.60 -915.42 2127.1
-32.95 -911.50 2118.0
-27.73 -920.62 2139.1
-22.57 -936.46 2175.9
-16.90 -934.90 2172.3
-11.14 -924.24 2147.5
-5.64 -935.71 2174.2
0.00 -958.24 2226.6
5.87 -973.66 2262.4
11.67 -968.91 2251.3
17.28 -956.24 2221.9
22.97 -953.46 2215.4
28.71 -953.04 2214.5
34.77 -962.10 2235.5
40.69 -964.83 2241.9
46.15 -957.67 2225.2
51.32 -946.56 2199.4
56.09 -931.10 2163.5
61.46 -927.49 2155.1
67.56 -934.54 2171.5
73.61 -940.00 2184.2
79.14 -938.35 2180.3
83.64 -925.63 2150.8
88.83 -921.60 2141.4
98.01 -957.06 2223.8
106.55 -982.64 2283.2
108.39 -947.00 2200.4
111.47 -925.17 2149.7
118.33 -935.33 2173.3
123.47 -931.67 2164.8
125.62 -906.68 2106.7
127.87 -884.46 2055.1
137.76 -914.72 2125.4
149.06 -951.68 2211.3
152.01 -934.57 2171.6
153.22 -908.39 2110.7
158.67 -908.25 2110.4
163.47 -904.55 2101.8
170.14 -911.09 2117.0
176.06 -913.30 2122.1
171.65 -863.47 2006.3
175.45 -856.61 1990.4
187.80 -890.72 2069.7
190.14 -876.75 2037.2
190.38 -854.13 1984.6
194.76 -850.80 1976.9
196.42 -836.05 1942.6
207.47 -840.00 1951.8
213.78 -844.92 1963.2
224.11 -865.17 2010.3
234.79 -885.79 2058.2
234.84 -866.31 2012.9
234.88 -847.62 1969.5
242.15 -855.26 1987.3
253.71 -877.42 2038.8
261.48 -885.82 2058.3
265.91 -882.83 2051.3
273.20 -889.25 2066.2
277.74 -886.64 2060.2
283.00 -886.38 2059.6
297.44 -914.34 2124.6
313.89 -947.38 2201.3
320.03 -948.66 2204.3
320.13 -932.30 2166.3
323.45 -925.74 2151.0
333.37 -937.96 2179.4
347.82 -962.31 2236.0
-336.18 -1020.76 2357.6
-324.05 -1002.15 2314.6
-321.65 -1013.49 2340.8
-296.44 -1010.30 2333.5
-290.12 -1009.39 2331.4
-278.49 -989.52 2285.5
-266.98 -969.24 2238.6
-255.60 -948.55 2190.8
-248.00 -941.28 2174.0
-244.56 -949.81 2193.7
-236.84 -941.73 2175.1
-226.01 -920.59 2126.3
-214.68 -896.28 2070.1
-205.11 -878.28 2028.5
-201.24 -884.41 2042.7
-201.16 -907.94 2097.0
-198.32 -920.01 2124.9
-191.69 -914.65 2112.5
-184.64 -906.90 2094.6
-177.36 -897.57 2073.1
-171.87 -896.94 2071.6
-167.48 -902.25 2083.9
-161.97 -901.61 2082.4
-158.80 -914.45 2112.1
-154.47 -921.33 2128.0
-145.78 -901.65 2082.5
-138.48 -889.49 2054.4
-134.72 -899.93 2078.5
-132.14 -919.49 2123.7
-127.91 -928.74 2145.1
-121.42 -921.72 2128.9
-115.82 -921.03 2127.3
-111.69 -932.65 2154.1
-107.43 -944.26 2180.9
-102.47 -950.71 2195.8
-96.18 -944.85 2182.3
-90.46 -944.15 2180.7
-86.27 -960.51 2218.5
-80.76 -963.37 2225.1
-73.92 -949.54 2193.1
-66.84 -930.15 2148.3
-61.19 -929.02 2145.7
-56.25 -939.40 2169.7
-50.71 -941.04 2173.5
-46.57 -972.07 2245.2
-41.65 -993.56 2294.8
-34.01 -946.72 2186.6
-27.39 -914.97 2113.3
-22.83 -953.13 2201.4
-17.49 -973.41 2248.3
-11.36 -948.79 2191.4
-5.68 -949.20 2192.3
0.00 -951.58 2197.8
5.66 -944.83 2182.2
11.43 -954.75 2205.2
17.23 -959.11 2215.2
23.14 -966.24 2231.7
29.24 -976.55 2255.5
35.78 -995.98 2300.4
42.31 -1009.45 2331.5
47.44 -990.34 2287.4
52.06 -966.06 2231.3
57.89 -966.81 2233.0
64.59 -980.65 2265.0
69.66 -969.47 2239.1
74.47 -956.69 2209.6
81.06 -966.94 2233.3
86.63 -964.48 2227.6
90.91 -948.91 2191.7
99.58 -978.20 2259.3
113.71 -999.43 2308.4
112.26 -937.41 2165.1
114.62 -911.51 2105.3
122.16 -927.27 2141.7
126.82 -920.81 2126.8
130.72 -909.58 2100.8
143.15 -956.25 2208.6
150.52 -966.82 2233.0
149.30 -923.46 2132.9
149.76 -893.19 2063.0
154.46 -889.47 2054.4
165.60 -921.82 2129.1
178.15 -901.53 2082.2
174.72 -858.19 1982.1
180.16 -859.61 1985.4
186.12 -863.40 1994.2
190.02 -857.68 1981.0
195.03 -857.10 1979.6
197.35 -845.05 1951.8
200.75 -838.14 1935.8
209.22 -852.18 1968.3
213.18 -847.64 1957.8
221.25 -859.29 1984.7
236.65 -898.20 2074.5
242.18 -898.77 2075.9
238.80 -866.94 2002.4
242.15 -860.40 1987.2
253.14 -880.70 2034.1
260.65 -888.35 2051.8
265.66 -887.32 2049.4
273.31 -894.96 2067.1
274.66 -882.08 2037.3
276.11 -870.00 2009.4
290.28 -897.72 2073.4
306.59 -930.93 2150.1
314.85 -938.92 2168.6
317.41 -929.96 2147.9
323.56 -931.63 2151.8
335.57 -949.82 2193.8
337.89 -940.46 2172.2
-326.35 -1034.45 2375.0
-294.42 -1009.45 2317.6
-283.39 -991.87 2277.3
-273.23 -976.66 2242.3
-263.47 -962.22 2209.2
-253.97 -948.17 2176.9
-247.87 -946.42 2172.9
-245.55 -959.36 2202.6
-238.61 -954.43 2191.3
-227.45 -931.99 2139.8
-215.42 -904.78 2077.3
-208.33 -897.42 2060.4
-206.81 -914.32 2099.2
-201.59 -915.31 2101.5
-194.39 -907.14 2082.7
-192.34 -923.24 2119.7
-189.38 -935.76 2148.4
-183.37 -933.54 2143.3
-178.91 -939.29 2156.5
-169.97 -921.13 2114.9
-160.32 -897.79 2061.3
-154.73 -896.35 2057.9
-148.35 -890.12 2043.6
-143.52 -893.04 2050.4
-139.83 -903.54 2074.5
-134.36 -902.87 2072.9
-130.02 -910.17 2089.7
-126.81 -926.24 2126.6
-121.41 -927.16 2128.7
-115.71 -925.67 2125.3
-111.35 -935.35 2147.5
-106.97 -945.83 2171.5
-101.82 -950.32 2181.8
-95.69 -945.62 2171.1
-90.18 -946.91 2174.0
-87.62 -981.31 2253.0
-76.13 -983.86 2258.9
-68.63 -960.78 2205.9
-62.21 -950.06 2181.3
-56.67 -952.11 2186.0
-50.32 -939.39 2156.8
-45.65 -958.60 2200.9
-34.89 -977.04 2243.2
-27.71 -931.15 2137.9
-22.82 -958.33 2200.2
-17.83 -998.68 2292.9
-11.80 -991.11 2275.5
-5.79 -972.35 2232.4
0.00 -954.38 2191.2
5.61 -942.40 2163.7
11.29 -948.38 2177.4
16.81 -941.18 2160.9
22.32 -937.57 2152.6
28.60 -961.10 2206.6
35.48 -993.41 2280.8
42.62 -1022.92 2348.5
48.37 -1015.69 2331.9
53.00 -989.29 2271.3
58.93 -990.04 2273.0
66.07 -1009.14 2316.9
71.68 -1003.49 2303.9
75.98 -981.86 2254.3
81.85 -982.19 2255.0
89.01 -996.87 2288.7
94.93 -996.79 2288.5
99.85 -986.72 2265.4
106.48 -993.80 2281.7
113.28 -1001.68 2299.8
115.25 -968.06 2222.6
118.10 -944.82 2169.2
126.84 -968.63 2223.9
134.39 -981.66 2253.8
141.07 -987.52 2267.3
150.57 -972.89 2233.7
149.29 -928.91 2132.7
149.75 -898.48 2062.8
155.00 -897.94 2061.6
167.08 -935.63 2148.1
173.94 -942.64 2164.2
171.71 -901.46 2069.7
176.02 -896.12 2057.4
182.21 -900.33 2067.1
183.47 -880.66 2021.9
185.26 -864.57 1985.0
190.63 -865.58 1987.3
197.45 -872.96 2004.2
204.91 -882.71 2026.6
213.53 -896.83 2059.0
218.62 -895.83 2056.7
219.43 -877.74 2015.2
221.15 -864.02 1983.7
229.15 -874.93 2008.8
242.49 -905.29 2078.5
247.60 -904.27 2076.1
246.47 -881.01 2022.7
253.01 -885.54 2033.1
261.92 -897.99 2061.7
268.72 -902.90 2073.0
272.81 -898.68 2063.3
270.36 -873.46 2005.4
274.60 -870.43 1998.4
292.17 -908.99 2087.0
306.83 -937.22 2151.8
314.16 -942.47 2163.8
315.91 -931.10 2137.7
320.67 -928.82 2132.5
340.53 -969.65 2226.2
349.55 -962.68 2210.2
-307.79 -1019.92 2327.8
-300.30 -1015.02 2316.6
-290.45 -1001.75 2286.3
-277.46 -976.90 2229.6
-265.32 -954.03 2177.4
-262.57 -964.65 2201.6
-259.69 -975.27 2225.9
-251.28 -965.13 2202.8
-247.15 -971.35 2217.0
-234.61 -944.03 2154.6
-218.61 -901.11 2056.6
-214.46 -906.11 2068.0
-214.50 -929.49 2121.4
-205.54 -914.10 2086.3
-194.04 -886.31 2022.8
-188.41 -884.49 2018.7
-187.36 -904.66 2064.7
-180.99 -899.63 2053.3
-171.87 -880.20 2008.9
-171.54 -905.97 2067.7
-166.80 -909.33 2075.4
-155.55 -876.26 1999.9
-148.26 -864.00 1971.9
-145.82 -880.15 2008.8
-144.80 -906.32 2068.5
-140.81 -915.27 2088.9
-135.12 -913.39 2084.7
-127.06 -894.69 2042.0
-120.20 -883.19 2015.7
-116.81 -897.33 2048.0
-113.06 -909.86 2076.6
-109.02 -921.19 2102.5
-104.79 -932.11 2127.4
-101.04 -948.65 2165.1
-96.04 -954.76 2179.1
-89.68 -947.23 2161.9
-86.29 -972.18 2218.8
-74.92 -973.93 2222.8
-68.08 -958.76 2188.2
-62.30 -957.22 2184.7
-57.19 -966.50 2205.9
-51.20 -961.34 2194.1
-44.79 -946.13 2159.4
-39.74 -959.42 2189.7
-35.07 -987.94 2254.8
-29.47 -996.00 2273.2
-23.14 -977.56 2231.1
-17.27 -972.77 2220.2
-11.60 -980.41 2237.6
-5.78 -976.00 2227.6
0.00 -966.37 2205.6
5.70 -963.96 2200.1
11.48 -969.97 2213.8
17.10 -963.14 2198.2
22.38 -945.46 2157.9
28.27 -955.47 2180.7
34.26 -965.07 2202.6
40.19 -970.25 2214.4
46.10 -973.82 2222.6
51.05 -958.53 2187.7
57.36 -969.31 2212.3
65.15 -1000.94 2284.5
72.01 -1014.12 2314.6
77.66 -1009.63 2304.3
81.67 -985.89 2250.1
86.57 -975.38 2226.2
93.48 -987.33 2253.4
99.47 -988.84 2256.9
104.37 -979.92 2236.5
109.35 -972.61 2219.8
116.08 -980.92 2238.8
124.37 -1000.85 2284.3
128.45 -986.70 2252.0
130.61 -959.72 2190.4
140.54 -989.65 2258.7
154.33 -965.99 2204.7
153.12 -924.20 2109.3
157.12 -915.64 2089.8
163.58 -921.50 2103.2
164.08 -894.52 2041.6
168.44 -889.56 2030.3
178.83 -915.81 2090.2
187.11 -930.04 2122.7
190.50 -919.86 2099.4
189.69 -890.49 2032.4
192.64 -879.91 2008.2
198.98 -884.92 2019.7
205.92 -892.32 2036.6
210.49 -889.33 2029.7
211.64 -872.35 1991.0
217.34 -874.55 1996.0
224.39 -881.92 2012.8
226.13 -868.54 1982.3
232.38 -872.71 1991.8
244.43 -898.02 2049.6
251.12 -902.98 2060.9
251.87 -886.79 2023.9
254.62 -878.18 2004.3
260.92 -881.92 2012.8
265.23 -878.88 2005.9
265.08 -861.51 1966.2
271.72 -866.43 1977.5
287.20 -898.81 2051.4
299.68 -920.83 2101.6
301.61 -910.20 2077.4
296.70 -879.69 2007.7
306.31 -892.53 2037.1
331.33 -949.08 2166.1
-307.86 -1026.19 2328.3
-297.08 -1010.06 2291.7
-290.87 -1009.13 2289.6
-280.71 -994.18 2255.7
-275.49 -996.44 2260.8
-265.92 -1004.57 2279.3
-248.34 -959.50 2177.0
-240.73 -951.70 2159.3
-225.47 -912.60 2070.6
-213.18 -883.91 2005.5
-212.18 -901.78 2046.0
-214.75 -936.11 2123.9
-207.86 -929.88 2109.8
-196.48 -902.76 2048.3
-190.87 -901.34 2045.0
-183.21 -889.86 2019.0
-170.85 -854.25 1938.2
-160.33 -851.75 1932.5
-162.46 -890.92 2021.4
-157.53 -892.68 2025.4
-146.33 -857.82 1946.3
-140.52 -853.13 1935.7
-140.89 -887.07 2012.7
-138.71 -906.93 2057.7
-134.28 -913.09 2071.7
-127.39 -902.35 2047.3
-119.43 -882.73 2002.8
-114.77 -886.87 2012.2
-110.81 -897.05 2035.3
-106.69 -906.82 2057.5
-102.67 -918.61 2084.2
-99.19 -936.83 2125.6
-96.39 -963.93 2187.1
-91.98 -977.31 2217.4
-85.35 -967.32 2194.8
-78.21 -949.67 2154.7
-73.03 -954.98 2166.8
-68.21 -966.33 2192.5
-61.98 -957.93 2173.5
-56.64 -962.82 2184.6
-52.24 -986.67 2238.7
-47.12 -1001.23 2271.7
-40.93 -994.01 2255.3
-35.40 -1002.92 2275.5
-29.74 -1011.02 2293.9
-23.27 -988.86 2243.6
-17.32 -981.62 2227.2
-11.61 -986.48 2238.2
-5.90 -1003.42 2276.7
0.00 -1017.14 2307.8
5.75 -977.21 2217.2
17.32 -981.22 2226.3
23.72 -1008.22 2287.6
29.44 -1000.94 2271.0
35.03 -992.44 2251.7
40.42 -981.51 2227.0
45.64 -969.78 2200.3
51.47 -972.15 2205.7
59.06 -1003.95 2277.9
66.34 -1025.26 2326.2
72.57 -1028.01 2332.5
79.01 -1033.18 2344.2
83.65 -1015.77 2304.7
87.95 -996.75 2261.5
94.33 -1002.30 2274.1
97.36 -973.60 2209.0
99.15 -936.43 2124.7
107.35 -960.51 2179.3
118.11 -1003.91 2277.8
124.45 -1007.42 2285.7
126.13 -974.67 2211.4
126.68 -936.29 2124.4
135.01 -956.30 2169.8
147.72 -1004.48 2279.1
152.97 -963.14 2185.3
152.38 -925.16 2099.1
157.66 -924.21 2096.9
165.70 -938.94 2130.4
167.82 -920.28 2088.0
173.73 -922.93 2094.0
180.92 -932.01 2114.7
186.13 -930.63 2111.5
192.23 -933.67 2118.4
194.02 -916.20 2078.8
195.00 -895.93 2032.8
199.60 -892.93 2026.0
205.36 -895.15 2031.0
208.69 -886.92 2012.3
208.63 -865.04 1962.7
213.17 -862.84 1957.7
222.36 -879.08 1994.6
226.43 -874.86 1985.0
227.17 -858.20 1947.2
233.35 -862.39 1956.7
243.24 -879.81 1996.2
247.56 -876.77 1989.3
253.34 -878.94 1994.2
262.56 -892.71 2025.5
266.78 -889.26 2017.6
266.42 -870.99 1976.2
267.60 -858.33 1947.5
276.89 -871.68 1977.8
291.63 -901.41 2045.2
295.66 -897.54 2036.4
296.56 -884.47 2006.8
312.57 -916.15 2078.7
325.48 -937.82 2127.8
333.85 -945.90 2146.2
-302.77 -1015.16 2289.8
-272.90 -992.90 2239.6
-256.33 -974.06 2197.1
-241.67 -939.23 2118.6
-236.44 -940.27 2120.9
-225.25 -917.10 2068.6
-216.17 -901.58 2033.6
-208.49 -891.29 2010.4
-204.79 -897.94 2025.4
-204.97 -922.35 2080.5
-199.96 -924.16 2084.6
-191.45 -909.41 2051.3
-181.46 -886.57 1999.8
-172.29 -866.54 1954.6
-165.78 -859.02 1937.6
-160.71 -858.78 1937.1
-159.01 -877.12 1978.5
-157.03 -895.05 2018.9
-148.46 -875.39 1974.6
-141.31 -862.99 1946.6
-140.43 -889.41 2006.2
-135.19 -889.14 2005.6
-128.06 -875.92 1975.8
-125.91 -897.08 2023.5
-122.53 -910.96 2054.8
-117.21 -911.07 2055.0
-112.64 -917.25 2069.0
-107.06 -915.33 2064.7
-101.89 -917.05 2068.5
-97.82 -929.30 2096.2
-94.45 -950.04 2142.9
-90.19 -963.90 2174.2
-83.92 -956.69 2157.9
-77.83 -950.69 2144.4
-73.60 -968.18 2183.9
-70.19 -1000.26 2256.2
-65.18 -1013.29 2285.6
-58.10 -993.49 2241.0
-52.23 -992.33 2238.3
-46.92 -1002.91 2262.2
-40.51 -989.58 2232.1
-34.78 -991.24 2235.9
-28.97 -990.86 2235.0
-23.10 -987.65 2227.8
-17.51 -997.80 2250.7
-11.85 -1012.81 2284.5
-6.07 -1038.76 2343.1
6.03 -1031.87 2327.5
11.45 -979.17 2208.7
17.49 -996.99 2248.8
24.16 -1032.63 2329.2
30.18 -1032.20 2328.3
36.26 -1033.39 2330.9
42.37 -1034.97 2334.5
48.51 -1036.95 2339.0
61.42 -1050.22 2368.9
66.77 -1038.00 2341.4
72.18 -1028.62 2320.2
77.79 -1023.28 2308.1
84.60 -1033.33 2330.8
91.38 -1041.75 2349.8
96.78 -1034.37 2333.2
98.47 -990.54 2234.3
101.32 -962.50 2171.1
111.52 -1003.70 2264.0
120.31 -1028.69 2320.3
124.13 -1010.76 2279.9
128.25 -996.88 2248.6
131.24 -975.71 2200.8
133.23 -949.28 2141.2
139.47 -954.00 2151.9
146.32 -962.36 2170.7
148.48 -940.38 2121.1
150.25 -917.58 2069.7
158.19 -932.80 2104.1
166.53 -949.22 2141.1
169.27 -933.70 2106.1
171.75 -917.78 2070.2
175.37 -908.72 2049.7
182.09 -915.82 2065.8
189.56 -926.15 2089.1
194.77 -925.16 2086.8
199.79 -923.35 2082.8
202.28 -910.24 2053.2
206.08 -903.59 2038.2
210.94 -901.78 2034.1
212.01 -884.23 1994.5
215.45 -877.17 1978.6
223.67 -889.46 2006.3
230.47 -895.70 2020.4
233.85 -888.62 2004.4
231.61 -861.00 1942.1
243.82 -868.61 1959.3
257.25 -897.76 2025.0
266.43 -911.20 2055.3
270.13 -905.72 2043.0
272.65 -896.61 2022.4
276.82 -893.13 2014.6
283.74 -898.49 2026.7
296.01 -920.33 2075.9
303.14 -925.67 2088.0
307.79 -923.37 2082.8
310.50 -915.45 2064.9
309.25 -896.29 2021.7
321.14 -915.26 2064.5
340.84 -955.47 2155.2
-307.59 -1017.41 2281.6
-287.25 -968.78 2172.5
-294.75 -1013.94 2273.8
-276.11 -989.40 2218.8
-258.60 -946.35 2122.2
-261.28 -976.96 2190.9
-253.23 -967.89 2170.5
-246.21 -962.46 2158.3
-240.77 -963.10 2159.8
-229.19 -938.60 2104.8
-223.98 -939.63 2107.1
-219.70 -944.71 2118.5
-206.44 -910.44 2041.7
-198.77 -899.69 2017.6
-193.58 -899.87 2018.0
-184.90 -883.42 1981.1
-180.79 -888.46 1992.4
-176.86 -894.72 2006.4
-168.19 -876.62 1965.8
-161.08 -865.81 1941.6
-156.22 -866.78 1943.8
-151.42 -868.14 1946.8
-148.45 -880.48 1974.5
-146.27 -898.50 2014.9
-142.72 -909.20 2038.9
-134.82 -891.86 2000.0
-126.64 -871.25 1953.8
-123.40 -884.38 1983.2
-121.27 -906.86 2033.7
-117.15 -915.93 2054.0
-112.93 -924.98 2074.3
-107.71 -926.31 2077.3
-102.83 -930.89 2087.5
-99.09 -946.85 2123.3
-94.76 -958.75 2150.0
-89.65 -963.72 2161.2
-83.80 -960.95 2155.0
-78.12 -959.81 2152.4
-73.66 -974.54 2185.4
-69.98 -1003.10 2249.5
-64.86 -1014.16 2274.3
-57.64 -991.42 2223.3
-50.05 -956.46 2144.9
-38.81 -953.69 2138.7
-34.73 -995.67 2232.8
-29.47 -1013.62 2273.1
-23.91 -1028.31 2306.0
-17.76 -1018.14 2283.2
-11.78 -1012.86 2271.4
11.97 -1029.56 2308.8
17.92 -1027.51 2304.2
24.26 -1043.37 2339.8
30.20 -1038.87 2329.7
36.11 -1035.17 2321.4
42.57 -1046.13 2346.0
60.69 -1043.94 2341.1
65.90 -1030.45 2310.8
71.09 -1018.98 2285.1
76.83 -1016.47 2279.5
83.66 -1027.79 2304.8
90.76 -1040.73 2333.9
96.31 -1035.35 2321.8
103.33 -1045.42 2344.4
121.85 -1047.95 2350.0
124.41 -1018.95 2285.0
127.09 -993.61 2228.2
134.26 -1004.06 2251.6
140.76 -1008.80 2262.3
142.71 -981.83 2201.8
145.26 -960.96 2155.0
149.17 -950.25 2131.0
152.75 -938.32 2104.2
159.48 -945.89 2121.2
166.87 -956.71 2145.4
170.06 -943.55 2115.9
172.94 -929.57 2084.6
176.76 -921.28 2066.0
184.01 -930.85 2087.5
193.10 -948.94 2128.0
199.60 -953.62 2138.5
202.83 -942.88 2114.4
203.61 -921.59 2066.7
207.17 -913.69 2049.0
211.40 -909.03 2038.5
214.03 -897.88 2013.5
219.30 -898.08 2014.0
226.90 -907.59 2035.3
233.26 -911.83 2044.8
239.14 -914.03 2049.7
239.41 -895.18 2007.5
237.14 -867.83 1946.1
245.17 -878.52 1970.1
255.17 -895.68 2008.6
260.89 -897.46 2012.6
263.99 -890.34 1996.6
265.80 -879.17 1971.6
277.93 -901.95 2022.6
293.99 -936.42 2100.0
301.03 -941.39 2111.1
302.07 -927.78 2080.6
307.63 -928.30 2081.7
311.71 -924.37 2072.9
313.66 -914.40 2050.6
328.86 -942.73 2114.1
343.95 -969.82 2174.9
353.68 -981.18 2200.3
-304.59 -1033.21 2303.6
-274.61 -969.55 2161.7
-264.00 -951.51 2121.4
-261.00 -960.71 2142.0
-262.87 -988.62 2204.2
-253.94 -976.25 2176.6
-237.69 -934.57 2083.7
-224.05 -901.41 2009.7
-221.07 -910.58 2030.2
-223.48 -942.97 2102.4
-219.58 -949.70 2117.4
-206.88 -917.71 2046.1
-201.98 -919.54 2050.2
-199.06 -930.74 2075.1
-185.74 -892.60 1990.1
-177.32 -876.46 1954.1
-175.89 -894.98 1995.4
-169.12 -886.58 1976.7
-160.32 -866.75 1932.5
-153.66 -857.51 1911.9
-151.56 -873.99 1948.6
-151.05 -901.08 2009.0
-144.47 -892.64 1990.2
-136.79 -876.44 1954.1
-132.78 -883.52 1969.9
-128.05 -886.09 1975.6
-123.85 -892.75 1990.4
-120.55 -906.76 2021.7
-114.86 -903.20 2013.7
-108.91 -897.18 2000.3
-107.80 -932.43 2078.9
-106.77 -972.19 2167.6
-101.38 -974.34 2172.3
-95.47 -971.57 2166.2
-89.30 -965.52 2152.7
-82.66 -953.34 2125.5
-76.56 -946.05 2109.3
-71.68 -953.90 2126.8
-68.10 -981.78 2188.9
-63.05 -991.66 2211.0
-56.45 -976.58 2177.4
-49.45 -950.45 2119.1
-39.26 -970.18 2163.1
-34.94 -1007.45 2246.2
-29.52 -1021.39 2277.3
-23.85 -1031.65 2300.1
-17.63 -1016.53 2266.4
-11.89 -1028.82 2293.8
11.89 -1028.82 2293.8
17.73 -1022.26 2279.2
24.27 -1049.65 2340.3
30.57 -1057.81 2358.5
35.91 -1035.27 2308.2
41.61 -1028.28 2292.6
49.10 -1061.79 2367.3
60.75 -1051.04 2343.4
64.93 -1021.12 2276.6
70.77 -1020.23 2274.7
77.18 -1027.12 2290.0
83.91 -1036.86 2311.7
90.78 -1047.00 2334.3
96.67 -1045.27 2330.5
103.91 -1057.44 2357.6
130.09 -1022.94 2280.7
137.94 -1037.53 2313.2
146.47 -1013.55 2259.8
148.68 -989.31 2205.7
152.21 -975.28 2174.4
153.93 -951.04 2120.4
158.85 -947.62 2112.8
168.19 -969.92 2162.5
173.11 -966.08 2153.9
177.16 -957.75 2135.4
182.66 -957.57 2135.0
187.76 -955.36 2130.0
194.40 -960.88 2142.3
200.00 -961.10 2142.8
201.68 -942.97 2102.4
205.47 -935.43 2085.6
211.75 -939.31 2094.3
215.53 -932.18 2078.3
217.88 -919.34 2049.7
219.19 -902.84 2012.9
222.73 -896.11 1997.9
229.83 -903.63 2014.7
236.90 -910.73 2030.5
242.32 -911.32 2031.8
244.76 -900.92 2008.6
245.73 -885.63 1974.6
248.24 -876.45 1954.1
256.30 -886.78 1977.1
261.35 -886.53 1976.6
263.83 -877.75 1957.0
276.67 -903.08 2013.5
291.43 -933.67 2081.7
297.39 -935.41 2085.6
302.96 -935.94 2086.7
313.76 -952.28 2123.2
326.23 -973.06 2169.5
336.72 -987.34 2201.3
-292.41 -1038.35 2301.8
-274.12 -993.68 2202.7
-260.20 -963.29 2135.4
-252.78 -956.18 2119.6
-245.45 -949.06 2103.8
-229.92 -909.21 2015.5
-217.46 -879.97 1950.7
-215.62 -893.27 1980.2
-213.72 -906.99 2010.6
-206.29 -897.36 1989.2
-200.08 -892.65 1978.8
-200.44 -917.82 2034.6
-201.39 -947.10 2099.5
-191.41 -925.16 2050.9
-176.90 -879.45 1949.5
-169.88 -869.37 1927.2
-167.32 -882.24 1955.7
-162.28 -882.40 1956.1
-156.07 -875.99 1941.8
-154.03 -893.37 1980.4
-150.70 -904.18 2004.3
-141.23 -877.65 1945.5
-132.90 -856.45 1898.5
-128.36 -859.04 1904.3
-126.98 -883.79 1959.1
-126.00 -913.47 2024.9
-122.93 -930.01 2061.6
-117.50 -929.31 2060.0
-110.93 -919.15 2037.5
-109.34 -951.29 2108.8
-106.62 -976.45 2164.6
-99.45 -961.35 2131.1
-91.97 -941.32 2086.7
-84.56 -919.62 2038.6
-80.45 -933.26 2068.8
-76.55 -951.42 2109.1
-70.66 -945.74 2096.5
-66.22 -960.19 2128.5
-62.45 -987.80 2189.7
-56.94 -990.73 2196.2
-52.46 -1014.22 2248.3
-41.38 -1028.70 2280.4
-34.54 -1001.60 2220.3
-29.13 -1013.55 2246.8
-23.51 -1022.63 2266.9
-17.80 -1032.51 2288.8
17.95 -1041.15 2308.0
23.54 -1023.86 2269.6
30.25 -1052.62 2333.4
36.24 -1050.94 2329.7
42.62 -1059.53 2348.7
79.32 -1061.65 2353.4
84.52 -1050.47 2328.6
103.25 -1056.77 2342.6
106.72 -1031.61 2286.8
115.64 -1059.02 2347.6
145.85 -1015.14 2250.3
148.54 -994.07 2203.6
153.08 -986.53 2186.9
155.36 -965.46 2140.2
158.76 -952.59 2111.6
166.83 -967.61 2144.9
170.17 -955.14 2117.3
172.69 -938.98 2081.5
181.71 -958.08 2123.8
190.14 -973.07 2157.0
198.33 -986.00 2185.7
206.71 -972.08 2154.9
210.19 -962.46 2133.5
216.23 -964.71 2138.5
219.37 -954.27 2115.4
217.19 -921.72 2043.2
214.04 -886.73 1965.7
221.41 -895.93 1986.0
232.40 -919.03 2037.3
239.10 -924.53 2049.4
243.60 -921.43 2042.6
243.42 -901.17 1997.7
241.09 -873.97 1937.4
246.97 -877.00 1944.1
258.28 -898.81 1992.4
265.88 -907.14 2010.9
271.39 -908.10 2013.0
277.15 -909.88 2017.0
283.94 -914.92 2028.1
287.44 -909.34 2015.8
290.74 -903.36 2002.5
303.45 -926.31 2053.4
318.31 -954.94 2116.9
328.67 -969.30 2148.7
337.64 -979.16 2170.5
-273.86 -998.43 2200.6
-267.67 -996.64 2196.7
-258.48 -983.34 2167.4
-249.22 -969.21 2136.2
-235.58 -936.98 2065.2
-224.53 -913.77 2014.0
-216.10 -900.42 1984.6
-208.69 -890.76 1963.3
-204.68 -895.48 1973.7
-201.90 -905.96 1996.8
-193.82 -892.58 1967.3
-187.36 -886.17 1953.2
-182.51 -887.18 1955.4
-172.94 -864.70 1905.9
-168.99 -869.81 1917.1
-169.02 -896.34 1975.6
-163.18 -892.38 1966.9
-155.99 -880.58 1940.9
-151.48 -883.62 1947.6
-145.77 -879.64 1938.8
-140.11 -875.66 1930.0
-135.19 -876.20 1931.2
-131.18 -882.93 1946.0
-130.51 -913.58 2013.6
-126.04 -919.06 2025.7
-119.56 -909.69 2005.0
-114.74 -912.70 2011.7
-108.79 -906.62 1998.3
-107.16 -937.67 2066.7
-104.77 -965.02 2127.0
-97.36 -946.54 2086.2
-89.63 -922.69 2033.7
-82.71 -904.60 1993.8
-78.82 -919.55 2026.8
-76.64 -958.03 2111.6
-72.28 -972.96 2144.5
-66.98 -976.75 2152.8
-62.46 -993.75 2190.3
-57.24 -1001.65 2207.7
-53.07 -1031.86 2274.3
-35.38 -1031.99 2274.6
-29.65 -1037.80 2287.4
23.95 -1047.75 2309.3
30.21 -1057.22 2330.2
109.12 -1060.88 2338.3
118.84 -1094.62 2412.6
132.91 -1107.58 2441.2
149.25 -1004.59 2214.2
152.55 -988.77 2179.3
156.46 -977.90 2155.4
161.34 -973.62 2145.9
172.53 -1006.43 2218.3
179.06 -1010.80 2227.9
176.44 -964.89 2126.7
180.52 -957.30 2110.0
188.84 -971.95 2142.3
196.91 -984.53 2170.0
200.46 -974.45 2147.8
198.41 -938.45 2068.4
202.13 -930.85 2051.7
208.59 -936.00 2063.0
217.00 -949.37 2092.5
219.48 -936.82 2064.8
216.20 -900.83 1985.5
223.42 -909.25 2004.1
229.49 -912.73 2011.7
231.26 -899.36 1982.3
240.45 -914.75 2016.2
244.84 -911.64 2009.3
244.24 -890.46 1962.6
251.79 -899.25 1982.0
261.55 -915.42 2017.7
