ply
format ascii 1.0
element vertex 1999
property float x
property float y
property float z
end_header
2072.67 -1080.80 2638.5
2071.24 -1076.50 2628.0
2059.02 -1059.69 2586.9
2084.16 -1069.15 2610.0
2064.71 -1055.74 2577.3
2049.41 -1034.53 2525.5
2045.77 -1029.40 2513.0
2092.12 -1049.38 2561.8
2100.57 -1050.29 2564.0
2081.18 -1037.31 2532.3
1895.09 -1116.00 2707.3
1933.80 -1134.59 2752.4
1937.78 -1120.39 2717.9
1937.17 -1115.98 2707.2
1988.35 -1117.13 2710.0
2023.03 -1097.82 2663.2
2004.03 -1083.81 2629.2
2056.15 -1078.97 2617.5
2088.27 -1092.22 2649.6
2083.90 -1068.84 2592.9
2078.06 -1062.42 2577.3
2065.58 -1052.65 2553.6
2050.59 -1038.36 2518.9
1963.26 -1113.91 2685.3
1997.53 -1125.37 2712.9
2017.20 -1101.54 2655.5
2016.62 -1097.48 2645.7
2003.31 -1086.54 2619.3
2088.63 -1078.00 2598.8
2067.28 -1063.55 2563.9
2068.02 -1053.77 2540.3
1949.41 -1128.98 2704.7
1967.91 -1119.56 2682.2
1969.30 -1116.40 2674.6
2052.24 -1112.49 2665.2
2067.18 -1098.40 2631.5
1966.67 -1125.80 2680.5
1972.79 -1121.38 2669.9
1978.08 -1120.45 2667.7
2020.16 -1128.51 2686.9
2043.38 -1110.83 2644.8
2015.36 -1091.93 2599.8
2021.11 -1063.05 2531.1
2059.91 -1049.39 2498.5
1977.96 -1127.30 2667.6
2066.48 -1097.19 2596.3
2043.59 -1081.51 2559.2
2036.80 -1064.10 2518.0
2049.37 -1067.24 2525.5
1975.76 -1129.00 2655.3
2009.78 -1132.66 2663.9
1984.13 -1114.38 2620.9
1981.67 -1101.68 2591.0
2011.54 -1114.50 2621.2
2027.15 -1072.43 2522.3
2030.18 -1070.58 2517.9
2022.44 -1063.08 2500.3
2063.11 -1080.99 2542.4
2087.12 -1090.09 2563.8
2076.35 -1081.02 2542.5
2072.72 -1075.72 2530.0
2055.79 -1063.56 2501.4
1657.80 -1052.06 2459.4
1998.25 -1133.03 2648.6
2011.50 -1132.76 2648.0
2010.61 -1102.16 2576.5
2002.85 -1083.51 2532.9
2047.21 -1103.89 2580.5
2066.56 -1107.09 2588.0
2032.37 -1085.25 2536.9
2041.38 -1086.54 2540.0
2050.43 -1070.64 2502.8
1595.25 -1108.00 2574.5
1608.78 -1108.13 2574.8
1638.32 -1110.05 2579.3
1637.11 -1100.25 2556.5
1639.30 -1046.63 2431.9
1686.61 -1072.71 2492.5
1969.64 -1119.73 2601.8
2033.94 -1107.00 2572.2
2040.61 -1096.25 2547.2
2052.02 -1098.82 2553.2
2033.73 -1078.59 2506.2
2023.53 -1069.76 2485.7
2054.06 -1082.45 2515.2
1662.52 -1076.13 2485.5
1648.31 -1062.81 2454.7
1684.47 -1081.95 2498.9
1671.07 -1065.15 2460.1
2042.56 -1111.10 2566.3
2038.89 -1098.37 2536.9
2058.81 -1091.50 2521.0
1643.42 -1117.79 2566.4
1645.74 -1075.81 2470.0
1640.36 -1064.02 2442.9
1660.19 -1052.50 2416.5
2022.66 -1121.47 2574.8
2018.31 -1104.48 2535.8
2041.79 -1106.52 2540.5
2032.44 -1087.42 2496.6
2057.56 -1097.37 2519.5
2056.34 -1093.24 2510.0
1580.74 -1127.19 2572.6
1574.97 -1118.36 2552.5
1602.39 -1119.02 2554.0
1634.17 -1118.11 2551.9
1637.76 -1072.80 2448.5
1628.75 -1062.77 2425.6
1643.81 -1068.48 2438.6
1999.44 -1111.53 2536.9
1980.88 -1097.60 2505.1
2023.24 -1106.56 2525.5
2047.77 -1112.77 2539.7
2054.47 -1109.28 2531.8
2065.89 -1108.37 2529.7
2050.89 -1096.83 2503.3
1530.19 -1126.11 2555.0
1606.71 -1128.68 2560.9
1616.99 -1117.43 2535.3
1617.50 -1074.12 2437.1
1631.93 -1075.30 2439.8
1628.14 -1068.67 2424.7
1652.13 -1080.24 2451.0
1658.30 -1080.12 2450.7
1633.32 -1059.79 2404.6
1686.88 -1086.25 2464.6
1680.28 -1077.92 2445.7
1968.94 -1101.05 2498.2
1970.26 -1098.18 2491.7
1998.98 -1096.22 2487.2
2015.63 -1101.79 2499.9
2009.71 -1095.03 2484.5
2037.11 -1106.42 2510.4
2049.66 -1109.69 2517.8
2018.53 -1089.37 2471.7
1490.66 -1127.89 2544.1
1560.32 -1125.80 2539.4
1590.10 -1132.95 2555.5
1625.90 -1130.20 2549.3
1627.29 -1126.59 2541.2
1661.02 -1096.66 2473.7
1622.65 -1067.20 2407.2
1640.11 -1070.45 2414.6
1684.98 -1087.29 2452.5
1702.86 -1094.70 2469.2
1978.65 -1102.11 2486.0
1978.14 -1098.25 2477.3
1994.14 -1103.55 2489.2
2001.33 -1096.88 2474.2
2027.51 -1107.68 2498.5
2059.15 -1121.38 2529.4
2043.02 -1109.07 2501.7
2036.19 -1094.93 2469.8
1520.57 -1142.09 2561.2
1553.03 -1136.69 2549.1
1540.51 -1122.74 2517.8
1546.95 -1122.68 2517.6
1613.36 -1141.97 2560.9
1614.84 -1138.33 2552.7
1623.02 -1094.74 2455.0
1598.65 -1074.09 2408.7
1657.76 -1100.91 2468.8
1645.29 -1080.12 2422.2
1634.49 -1068.94 2397.1
1708.62 -1104.82 2477.6
1964.11 -1111.27 2492.1
1956.17 -1099.55 2465.8
1998.57 -1119.72 2511.0
2044.07 -1141.49 2559.8
2064.12 -1141.57 2560.0
2030.39 -1119.31 2510.1
2065.55 -1135.06 2545.4
2063.88 -1126.94 2527.2
1512.61 -1137.75 2536.7
1538.78 -1152.42 2569.4
1532.84 -1143.02 2548.4
1549.97 -1150.84 2565.9
1556.75 -1146.03 2555.1
1538.89 -1128.08 2515.1
1619.63 -1143.66 2549.9
1605.28 -1124.35 2506.8
1630.86 -1137.66 2536.5
1648.44 -1145.30 2553.5
1643.16 -1137.07 2535.2
1647.52 -1135.54 2531.8
1642.76 -1088.88 2427.7
1679.97 -1109.29 2473.2
1677.61 -1091.08 2432.6
1666.64 -1079.88 2407.7
1984.67 -1125.73 2509.9
1991.28 -1125.79 2510.0
2016.60 -1121.78 2501.1
2016.05 -1117.87 2492.4
1325.54 -1201.27 2662.9
1503.11 -1172.83 2599.9
1503.84 -1137.69 2522.0
1529.48 -1152.08 2553.9
1519.67 -1139.76 2526.6
1537.73 -1148.35 2545.6
1528.40 -1131.67 2508.6
1581.00 -1155.85 2562.2
1638.90 -1154.53 2559.3
1618.56 -1135.60 2517.4
1640.15 -1146.13 2540.7
1616.05 -1098.41 2434.9
1624.82 -1100.07 2438.6
1638.61 -1096.61 2430.9
1646.85 -1097.90 2433.8
1667.21 -1107.23 2454.5
1673.25 -1094.53 2426.3
1742.21 -1098.35 2434.8
1767.49 -1094.46 2426.1
1965.59 -1136.25 2518.8
2020.70 -1145.29 2538.8
2035.60 -1149.98 2549.2
2034.02 -1145.37 2539.0
2003.51 -1117.34 2476.9
2040.37 -1134.26 2514.4
2005.25 -1111.19 2463.2
1429.55 -1185.64 2613.3
1455.13 -1178.93 2598.4
1487.76 -1194.30 2632.3
1485.19 -1165.51 2568.9
1484.32 -1159.63 2555.9
1490.41 -1154.08 2543.7
1491.29 -1149.67 2534.0
1505.57 -1145.55 2524.9
1600.62 -1138.65 2509.7
1598.41 -1105.62 2436.9
1595.76 -1090.85 2404.3
1622.80 -1092.27 2407.5
1617.36 -1084.44 2390.2
1670.25 -1115.62 2458.9
1698.98 -1113.57 2454.4
1694.12 -1102.12 2429.2
1708.82 -1107.57 2441.2
1989.70 -1126.85 2483.7
2005.18 -1117.54 2463.1
2061.23 -1141.50 2516.0
2050.43 -1131.94 2494.9
1478.84 -1172.41 2569.4
1523.67 -1181.34 2589.0
1566.56 -1125.36 2466.3
1595.72 -1110.07 2432.8
1643.75 -1121.32 2457.4
1627.93 -1101.98 2415.1
2019.06 -1150.02 2520.3
2041.41 -1136.99 2491.8
1281.13 -1225.73 2671.1
1312.90 -1223.07 2665.3
1339.62 -1209.76 2636.3
1461.24 -1186.42 2585.4
1483.04 -1198.63 2612.0
1485.86 -1190.03 2593.3
1523.93 -1183.05 2578.1
1509.64 -1166.84 2542.7
1548.65 -1146.91 2499.3
1582.17 -1157.21 2521.8
1583.03 -1148.35 2502.5
1568.90 -1133.45 2470.0
1584.73 -1140.23 2484.8
1583.51 -1134.74 2472.8
1589.30 -1134.30 2471.8
1560.81 -1096.28 2389.0
1661.95 -1118.50 2437.4
1772.17 -1116.28 2432.6
1758.29 -1103.61 2405.0
1772.04 -1108.31 2415.2
1993.05 -1141.65 2487.9
1992.58 -1134.04 2471.3
2001.30 -1120.98 2442.8
1301.93 -1245.93 2699.8
1322.85 -1239.30 2685.5
1344.81 -1221.31 2646.5
1447.75 -1209.85 2621.7
1436.07 -1194.49 2588.4
1469.52 -1194.40 2588.2
1484.47 -1201.07 2602.6
1478.71 -1191.00 2580.8
1480.72 -1187.25 2572.7
1505.16 -1169.95 2535.2
1527.06 -1161.61 2517.1
1561.72 -1163.12 2520.4
1603.79 -1174.79 2545.7
1577.38 -1150.71 2493.5
1584.23 -1150.99 2494.1
1631.84 -1166.54 2527.8
1624.78 -1152.23 2496.8
1594.37 -1126.18 2440.4
1597.92 -1106.73 2398.2
1617.51 -1115.96 2418.2
1613.67 -1096.31 2375.6
1946.65 -1139.81 2469.9
1960.35 -1140.33 2471.0
1940.00 -1117.54 2421.6
1988.31 -1141.67 2473.9
1967.68 -1126.19 2440.4
1967.65 -1122.57 2432.5
1994.28 -1134.12 2457.6
2004.81 -1129.29 2447.1
1264.84 -1210.73 2608.9
1295.98 -1233.94 2658.9
1308.64 -1220.03 2629.0
1355.02 -1237.49 2666.6
1443.03 -1207.02 2600.9
1480.56 -1204.64 2595.8
1469.95 -1129.28 2433.4
1528.80 -1169.46 2520.0
1540.58 -1173.46 2528.6
1526.18 -1157.57 2494.4
1560.09 -1139.82 2456.1
1607.93 -1170.00 2521.1
1604.09 -1148.53 2474.9
1589.02 -1133.21 2441.9
1553.94 -1103.79 2378.5
1620.92 -1120.25 2413.9
1637.76 -1110.45 2392.8
1676.66 -1124.05 2422.1
1700.79 -1111.10 2394.2
1760.30 -1117.36 2407.7
1779.57 -1109.90 2391.7
1928.70 -1128.23 2431.1
1980.48 -1147.27 2472.2
1964.64 -1130.77 2436.6
1951.59 -1119.66 2412.7
1970.47 -1126.88 2428.2
1973.95 -1125.28 2424.8
1280.77 -1219.78 2613.8
1310.88 -1241.89 2661.2
1302.71 -1227.68 2630.8
1321.54 -1238.94 2654.9
1335.93 -1226.87 2629.0
1440.98 -1217.73 2609.4
1460.76 -1228.68 2632.9
1463.74 -1208.59 2589.8
1480.03 -1216.47 2606.7
1480.78 -1211.54 2596.2
1421.46 -1147.37 2458.6
1459.27 -1147.02 2457.9
1473.20 -1133.23 2428.3
1466.42 -1123.22 2406.9
1478.12 -1085.96 2327.1
1535.68 -1123.67 2407.9
1574.99 -1147.76 2459.5
1621.86 -1172.43 2512.4
1613.03 -1161.38 2488.7
1591.92 -1141.61 2446.3
1546.18 -1104.42 2366.6
1569.76 -1099.44 2355.9
1614.14 -1126.14 2413.2
1609.35 -1118.47 2396.7
1628.66 -1118.92 2397.7
1638.95 -1113.25 2385.5
1690.35 -1114.52 2388.2
1749.15 -1116.48 2392.5
1757.39 -1098.37 2353.6
1783.19 -1106.81 2371.7
1928.66 -1130.81 2423.2
1958.65 -1133.62 2429.2
1321.61 -1239.44 2641.3
1422.33 -1220.10 2600.1
1372.05 -1171.42 2496.3
1386.62 -1178.31 2511.0
1449.28 -1225.79 2612.2
1467.70 -1224.21 2608.8
1421.35 -1169.38 2492.0
1408.76 -1143.43 2436.7
1420.27 -1122.57 2392.2
1467.99 -1150.24 2451.2
1462.91 -1136.42 2421.7
1485.11 -1143.85 2437.6
1538.10 -1169.73 2492.7
1459.76 -1096.34 2336.3
1526.67 -1118.73 2384.0
1543.86 -1126.77 2401.2
1586.03 -1148.29 2447.0
1604.09 -1152.15 2455.2
1575.62 -1127.22 2402.1
1566.90 -1116.57 2379.4
1573.08 -1103.59 2351.8
1572.86 -1099.18 2342.4
1624.63 -1118.09 2382.7
1645.16 -1123.68 2394.6
1649.63 -1122.50 2392.1
1669.49 -1131.75 2411.8
1676.30 -1127.92 2403.6
1706.96 -1131.72 2411.7
1745.33 -1128.23 2404.3
1745.83 -1124.54 2396.4
1780.27 -1118.85 2384.3
1786.48 -1115.01 2376.1
1773.39 -1099.26 2342.5
1794.12 -1104.54 2353.8
1943.77 -1146.00 2442.1
1287.55 -1239.87 2627.7
1311.99 -1250.17 2649.5
1282.40 -1215.61 2576.3
1294.13 -1220.38 2586.4
1325.36 -1243.38 2635.1
1322.70 -1234.52 2616.3
1438.17 -1234.65 2616.6
1435.11 -1226.25 2598.8
1464.27 -1228.10 2602.7
1444.13 -1205.65 2555.2
1470.85 -1222.35 2590.5
1461.49 -1209.05 2562.3
1384.83 -1140.45 2417.0
1401.86 -1128.93 2392.6
1487.35 -1151.90 2441.2
1499.47 -1104.87 2341.6
1542.88 -1123.22 2380.4
1581.96 -1147.08 2431.0
1550.00 -1119.45 2372.5
1576.45 -1125.15 2384.5
1644.97 -1138.35 2412.5
1660.09 -1135.85 2407.2
1664.26 -1130.21 2395.3
1752.79 -1131.24 2397.4
1746.61 -1123.26 2380.5
1743.12 -1117.07 2367.4
1776.25 -1122.49 2378.9
1775.37 -1110.37 2353.2
1785.74 -1113.03 2358.9
1788.77 -1111.11 2354.8
1947.88 -1143.59 2423.6
1928.41 -1128.52 2391.7
1275.18 -1215.41 2561.8
1329.50 -1247.68 2629.8
1356.37 -1181.98 2491.3
1419.22 -1225.08 2582.1
1394.99 -1181.86 2491.0
1374.75 -1159.35 2443.6
1369.77 -1149.85 2423.6
1399.41 -1164.05 2453.5
1417.54 -1158.08 2440.9
1443.87 -1158.89 2442.6
1418.59 -1128.71 2379.0
1426.22 -1129.87 2381.4
1448.11 -1127.68 2376.8
1572.84 -1174.82 2476.2
1571.68 -1169.17 2464.3
1524.88 -1129.77 2381.3
1506.40 -1111.57 2342.9
1531.08 -1125.25 2371.7
1546.78 -1132.24 2386.5
1534.15 -1118.52 2357.5
1525.98 -1108.15 2335.7
1600.91 -1144.40 2412.1
1731.18 -1123.42 2367.9
1747.05 -1129.72 2381.1
1760.49 -1118.64 2357.8
1759.26 -1098.78 2315.9
1772.41 -1103.23 2325.3
1772.51 -1099.56 2317.6
1934.80 -1138.49 2399.6
1943.58 -1139.99 2402.8
1965.30 -1145.38 2414.2
1286.95 -1259.57 2640.4
1288.05 -1234.38 2587.6
1311.37 -1237.40 2593.9
1330.85 -1243.02 2605.7
1358.97 -1179.49 2472.5
1455.47 -1228.47 2575.2
1423.38 -1169.21 2451.0
1420.26 -1141.17 2392.2
1449.84 -1154.85 2420.9
1449.92 -1149.94 2410.6
1503.39 -1143.08 2396.2
1575.48 -1178.41 2470.3
1545.92 -1146.97 2404.4
1530.94 -1131.30 2371.5
1510.78 -1111.94 2330.9
1563.90 -1146.44 2403.3
1585.87 -1153.36 2417.8
1552.70 -1124.79 2357.9
1581.29 -1141.01 2391.9
1594.59 -1146.11 2402.6
1584.75 -1121.51 2351.0
1717.67 -1116.79 2341.1
1762.87 -1130.20 2369.2
1775.02 -1114.69 2336.7
1801.98 -1123.95 2356.1
1840.42 -1121.31 2350.6
1907.64 -1128.64 2365.9
1945.36 -1132.74 2374.5
1318.43 -1195.63 2492.8
1346.16 -1214.83 2532.8
1333.89 -1164.01 2426.9
1343.40 -1166.80 2432.7
1346.65 -1164.16 2427.2
1399.92 -1177.21 2454.4
1422.35 -1179.98 2460.2
1426.89 -1178.46 2457.0
1395.58 -1147.47 2392.4
1410.56 -1144.53 2386.3
1448.71 -1160.22 2419.0
1463.65 -1162.13 2423.0
1441.14 -1139.36 2375.5
1473.22 -1149.99 2397.7
1481.38 -1151.49 2400.8
1442.23 -1116.37 2327.6
1441.93 -1111.48 2317.4
1471.03 -1129.21 2354.3
1488.46 -1137.87 2372.4
1489.16 -1133.72 2363.7
1453.16 -1101.78 2297.1
1468.10 -1104.06 2301.9
1506.58 -1128.41 2352.7
1478.98 -1098.84 2291.0
1490.98 -1103.32 2300.4
1678.35 -1141.52 2380.0
1762.14 -1105.07 2304.0
1846.60 -1116.41 2327.7
1815.02 -1093.74 2280.4
1822.42 -1094.64 2282.3
1878.43 -1124.63 2344.8
1964.51 -1157.43 2413.2
1287.23 -1253.53 2599.5
1285.48 -1245.30 2582.4
1280.17 -1221.08 2532.2
1321.99 -1229.45 2549.5
1305.74 -1208.29 2505.7
1312.33 -1208.38 2505.9
1297.38 -1165.76 2417.5
1309.03 -1159.43 2404.3
1351.18 -1191.09 2470.0
1358.10 -1191.54 2470.9
1344.53 -1174.10 2434.8
1326.79 -1153.19 2391.4
1380.55 -1177.90 2442.6
1418.45 -1183.10 2453.4
1381.73 -1147.33 2379.3
1395.87 -1153.92 2392.9
1413.32 -1163.18 2412.1
1400.88 -1147.86 2380.3
1460.39 -1175.90 2438.5
1461.95 -1172.08 2430.6
1447.22 -1155.29 2395.8
1429.46 -1136.24 2356.3
1451.48 -1148.83 2382.4
1486.55 -1161.76 2409.2
1443.91 -1114.38 2310.9
1474.03 -1132.93 2349.4
1500.94 -1130.26 2343.9
1501.48 -1126.11 2335.3
1499.48 -1120.09 2322.8
1531.20 -1139.21 2362.4
1541.82 -1142.55 2369.3
1545.88 -1141.01 2366.1
1539.75 -1131.99 2347.4
1557.33 -1131.49 2346.4
1554.08 -1124.74 2332.4
1714.52 -1115.04 2312.3
1798.64 -1126.42 2335.9
1859.90 -1141.72 2367.6
1832.72 -1121.34 2325.4
1830.93 -1116.56 2315.5
1861.06 -1131.23 2345.9
1812.06 -1097.86 2276.7
1915.48 -1138.27 2360.5
1951.98 -1156.27 2397.8
1221.65 -1234.86 2547.1
1237.15 -1237.15 2551.8
1272.05 -1219.87 2516.1
1310.72 -1250.53 2579.4
1302.04 -1235.95 2549.3
1307.91 -1235.25 2547.9
1311.24 -1232.17 2541.5
1320.04 -1234.24 2545.8
1333.83 -1234.79 2546.9
1297.71 -1195.43 2465.7
1303.56 -1171.95 2417.3
1321.63 -1160.31 2393.3
1331.07 -1163.13 2399.1
1349.04 -1173.35 2420.2
1355.85 -1173.81 2421.2
1342.78 -1157.14 2386.8
1363.57 -1169.66 2412.6
1394.37 -1174.54 2422.6
1362.85 -1142.84 2357.3
1368.58 -1142.52 2356.6
1431.47 -1189.71 2454.0
1430.86 -1183.94 2442.0
1398.83 -1152.34 2376.9
1424.30 -1168.18 2409.5
1408.90 -1150.50 2373.1
1420.34 -1149.80 2371.6
1459.85 -1176.69 2427.1
1460.93 -1167.49 2408.1
1436.58 -1133.51 2338.0
1452.38 -1141.16 2353.8
1455.09 -1138.50 2348.3
1441.43 -1113.84 2297.4
1520.62 -1155.92 2384.2
1490.33 -1123.75 2317.9
1482.17 -1095.52 2259.7
1591.57 -1127.36 2325.3
1762.52 -1148.40 2368.7
1731.62 -1124.35 2319.1
1715.07 -1109.75 2289.0
1709.06 -1102.05 2273.1
1733.31 -1113.85 2297.5
1725.08 -1086.16 2240.4
1787.22 -1121.51 2313.3
1822.27 -1132.11 2335.1
1789.46 -1108.04 2285.5
1789.37 -1104.33 2277.8
1813.55 -1115.57 2301.0
1859.84 -1140.29 2352.0
1869.07 -1138.49 2348.3
1846.83 -1121.29 2312.8
1883.53 -1139.87 2351.1
1892.11 -1137.70 2346.7
1924.92 -1153.72 2379.7
1190.18 -1229.42 2522.4
1300.89 -1228.98 2521.5
1347.10 -1247.56 2559.6
1313.01 -1210.03 2482.6
1312.37 -1180.50 2422.0
1361.20 -1207.10 2476.6
1343.67 -1185.96 2433.2
1333.11 -1171.14 2402.8
1361.83 -1190.81 2443.2
1387.12 -1207.31 2477.0
1319.44 -1127.53 2313.3
1411.45 -1184.61 2430.4
1419.65 -1186.19 2433.7
1361.21 -1132.33 2323.2
1409.56 -1162.27 2384.6
1429.91 -1173.90 2408.5
1442.80 -1179.33 2419.6
1426.33 -1160.82 2381.6
1413.99 -1145.82 2350.8
1446.38 -1167.03 2394.4
1449.25 -1164.35 2388.9
1465.32 -1157.48 2374.8
1466.13 -1153.27 2366.1
1496.57 -1143.72 2346.5
1485.19 -1125.87 2309.9
1480.54 -1100.17 2257.2
1495.84 -1102.82 2262.6
1611.01 -1125.91 2310.0
1744.59 -1134.89 2328.4
1725.37 -1114.67 2286.9
1776.68 -1143.89 2346.9
1767.09 -1122.34 2302.7
1779.66 -1126.52 2311.3
1774.01 -1119.17 2296.2
1811.18 -1138.80 2336.4
1820.41 -1140.79 2340.5
1826.77 -1140.97 2340.9
1829.11 -1138.65 2336.1
1808.35 -1122.01 2302.0
1800.18 -1113.27 2284.1
1805.86 -1113.12 2283.8
1816.17 -1115.82 2289.3
1860.83 -1139.53 2337.9
1849.96 -1121.91 2301.8
1858.57 -1123.51 2305.1
1936.51 -1163.14 2386.4
1935.81 -1159.02 2377.9
1228.79 -1228.79 2507.7
1233.42 -1226.93 2503.9
1279.42 -1227.46 2505.0
1287.01 -1216.23 2482.1
1330.02 -1250.61 2552.3
1314.92 -1218.23 2486.2
1348.18 -1185.15 2418.7
1362.18 -1191.91 2432.5
1403.60 -1194.96 2438.7
1383.70 -1172.74 2393.3
1385.35 -1168.89 2385.5
1440.06 -1188.52 2425.6
1437.87 -1181.56 2411.3
1401.99 -1147.08 2341.0
1475.05 -1124.13 2294.1
1493.54 -1133.65 2313.6
1514.40 -1118.05 2281.7
1558.11 -1141.41 2329.4
1583.72 -1155.69 2358.5
1615.13 -1134.80 2315.9
1614.65 -1130.25 2306.6
1739.48 -1145.51 2337.8
1706.66 -1112.27 2269.9
1720.34 -1113.51 2272.5
1751.06 -1121.86 2289.5
1760.75 -1109.27 2263.8
1837.06 -1149.68 2346.3
1784.56 -1098.64 2242.1
1824.53 -1119.60 2284.9
1799.82 -1100.86 2246.7
1193.26 -1232.17 2501.4
1203.08 -1235.60 2508.4
1207.77 -1233.74 2504.6
1222.80 -1242.42 2522.2
1240.85 -1240.85 2519.0
1255.65 -1249.07 2535.7
1259.91 -1246.78 2531.1
1293.60 -1260.43 2558.8
1308.64 -1268.58 2575.3
1282.50 -1236.93 2511.1
1291.90 -1191.55 2418.9
1311.30 -1203.61 2443.4
1300.76 -1188.20 2412.1
1336.76 -1209.45 2455.3
1314.88 -1167.42 2369.9
1328.29 -1173.84 2383.0
1370.62 -1167.79 2370.7
1352.35 -1147.08 2328.7
1374.85 -1155.85 2346.5
1414.34 -1178.61 2392.7
1413.50 -1147.71 2329.9
1468.94 -1134.55 2303.2
1449.52 -1115.02 2263.6
1483.90 -1136.86 2307.9
1509.67 -1120.46 2274.6
1542.75 -1140.55 2315.4
1569.29 -1155.68 2346.1
1582.27 -1138.76 2311.8
1598.96 -1137.84 2309.9
1743.25 -1146.08 2326.6
1746.84 -1144.48 2323.4
1761.23 -1130.52 2295.0
1791.58 -1134.67 2303.5
1780.99 -1113.12 2259.7
1186.64 -1225.12 2474.1
1227.86 -1221.47 2466.7
1293.50 -1229.15 2482.2
1303.45 -1232.47 2488.9
1286.98 -1210.90 2445.3
1291.68 -1197.62 2418.5
1325.38 -1222.93 2469.6
1324.48 -1216.23 2456.1
1307.59 -1189.28 2401.7
1347.39 -1219.67 2463.1
1358.71 -1224.12 2472.1
1326.61 -1189.59 2402.3
1337.39 -1193.65 2410.5
1342.39 -1192.55 2408.3
1346.94 -1191.04 2405.2
1365.42 -1201.82 2427.0
1352.35 -1184.86 2392.8
1352.29 -1179.40 2381.7
1311.68 -1138.78 2299.7
1357.03 -1136.81 2295.7
1445.32 -1184.79 2392.6
1441.38 -1166.54 2355.8
1478.88 -1120.90 2263.6
1513.63 -1129.31 2280.6
1528.25 -1135.78 2293.6
1538.80 -1139.19 2300.5
1576.91 -1140.87 2303.9
1739.09 -1141.47 2305.1
1721.85 -1126.28 2274.5
1778.14 -1147.38 2317.1
1775.96 -1142.12 2306.4
1731.05 -1109.50 2240.6
1774.91 -1133.80 2289.7
1746.78 -1108.42 2238.4
1801.76 -1135.76 2293.6
1836.30 -1153.73 2329.9
1781.35 -1115.53 2252.8
1806.67 -1127.69 2277.3
1826.27 -1136.21 2294.5
1834.67 -1123.15 2268.1
1165.31 -1243.00 2497.1
1163.41 -1220.63 2452.2
1264.17 -1238.37 2487.8
1269.92 -1237.69 2486.4
1294.10 -1236.15 2483.3
1332.15 -1253.79 2518.8
1322.87 -1238.98 2489.0
1332.19 -1212.23 2435.3
1335.39 -1198.11 2406.9
1341.29 -1197.80 2406.3
1350.31 -1200.27 2411.3
1331.91 -1178.46 2367.4
1322.64 -1159.57 2329.5
1324.25 -1155.71 2321.7
1364.35 -1148.93 2308.1
1440.23 -1171.72 2353.9
1483.94 -1135.12 2280.4
1526.71 -1163.21 2336.8
1523.53 -1151.64 2313.6
1519.51 -1122.10 2254.2
1601.71 -1156.12 2322.6
1607.64 -1156.06 2322.4
1628.45 -1132.83 2275.8
1754.24 -1137.88 2285.9
1802.81 -1153.80 2317.9
1746.14 -1113.82 2237.6
1791.31 -1135.09 2280.3
1817.16 -1147.68 2305.6
1805.87 -1129.40 2268.9
1776.03 -1107.14 2224.2
1159.67 -1243.42 2485.0
1167.08 -1244.46 2487.1
1155.84 -1225.70 2449.6
1202.12 -1240.69 2479.5
1218.93 -1244.73 2487.6
1235.22 -1254.72 2507.6
1243.76 -1237.35 2472.9
1263.31 -1231.41 2461.0
1295.80 -1256.73 2511.6
1299.06 -1253.59 2505.3
1323.98 -1258.76 2515.7
1313.92 -1243.07 2484.3
1306.72 -1230.23 2458.6
1307.18 -1224.68 2447.6
1296.76 -1209.06 2416.3
1298.80 -1205.14 2408.5
1334.82 -1232.64 2463.4
1341.74 -1233.12 2464.4
1326.17 -1201.65 2401.5
1350.29 -1217.78 2433.8
1327.68 -1191.83 2381.9
1367.55 -1221.93 2442.1
1316.75 -1165.74 2329.8
1351.43 -1190.99 2380.2
1354.83 -1183.18 2364.6
1299.73 -1129.94 2258.2
1341.80 -1140.83 2280.0
1382.41 -1170.20 2338.7
1351.97 -1139.43 2277.2
1428.64 -1158.52 2315.3
1392.59 -1119.88 2238.1
1439.75 -1138.82 2276.0
1477.37 -1140.53 2279.4
1470.21 -1130.48 2259.3
1487.20 -1139.00 2276.3
1481.97 -1130.52 2259.4
1487.34 -1130.14 2258.6
1525.41 -1145.54 2289.4
1550.83 -1160.12 2318.5
1550.61 -1155.48 2309.2
1509.06 -1120.19 2238.7
1590.20 -1145.18 2288.7
1673.74 -1133.45 2265.2
1713.25 -1132.39 2263.1
1719.51 -1132.65 2263.6
1709.45 -1118.39 2235.1
1709.43 -1114.60 2227.5
1696.91 -1102.70 2203.8
1780.76 -1130.55 2259.4
1788.14 -1131.51 2261.3
1751.53 -1104.72 2207.8
1803.46 -1133.77 2265.9
1841.77 -1142.96 2284.2
1124.14 -1239.11 2463.6
1234.95 -1260.95 2507.0
1215.31 -1234.39 2454.2
1235.72 -1235.72 2456.9
1289.67 -1257.27 2499.7
1271.63 -1227.35 2440.2
1306.82 -1242.76 2470.9
1271.73 -1203.49 2392.8
1280.53 -1200.11 2386.1
1333.73 -1243.96 2473.3
1328.47 -1233.13 2451.7
1301.10 -1190.63 2367.2
1329.49 -1210.90 2407.5
1287.43 -1167.11 2320.5
1364.73 -1220.08 2425.8
1377.91 -1220.61 2426.8
1370.58 -1203.13 2392.1
1348.50 -1178.42 2343.0
1367.53 -1189.69 2365.4
1323.11 -1140.82 2268.2
1436.82 -1119.45 2225.7
1433.62 -1112.49 2211.9
1443.44 -1115.65 2218.2
1475.46 -1135.87 2258.4
1513.19 -1160.31 2306.9
1534.27 -1167.25 2320.7
1541.78 -1168.38 2323.0
1536.82 -1155.59 2297.6
1604.39 -1157.07 2300.5
1612.31 -1141.56 2269.7
1600.38 -1128.99 2244.7
1685.11 -1139.06 2264.7
1737.80 -1154.56 2295.5
1812.50 -1141.64 2269.8
1146.14 -1269.87 2511.8
1210.53 -1242.39 2457.5
1232.58 -1201.77 2377.1
1292.05 -1235.05 2442.9
1278.36 -1216.01 2405.3
1272.26 -1204.33 2382.2
1329.12 -1252.07 2476.6
1328.27 -1245.25 2463.1
1272.50 -1187.26 2348.4
1292.28 -1199.98 2373.6
1319.19 -1219.16 2411.5
1296.05 -1192.12 2358.0
1267.82 -1160.68 2295.8
1263.28 -1151.12 2276.9
1290.25 -1154.12 2282.9
1321.95 -1135.59 2246.2
1422.90 -1118.81 2213.0
1450.17 -1135.68 2246.4
1478.57 -1153.28 2281.2
1538.16 -1176.24 2326.6
1580.56 -1176.37 2326.9
1600.93 -1139.35 2253.7
1616.08 -1137.67 2250.3
1654.08 -1143.78 2262.4
1767.09 -1152.45 2279.6
1731.17 -1125.26 2225.8
1718.69 -1106.08 2187.9
1081.75 -1247.20 2454.4
1087.63 -1246.64 2453.3
1129.82 -1272.67 2504.5
1146.98 -1248.93 2457.8
1187.67 -1279.03 2517.0
1169.06 -1252.10 2464.1
1213.99 -1245.77 2451.6
1241.21 -1267.07 2493.5
1253.21 -1266.13 2491.7
1242.89 -1242.89 2445.9
1276.74 -1270.26 2499.8
1227.17 -1214.78 2390.6
1246.28 -1215.28 2391.6
1273.37 -1235.55 2431.5
1287.03 -1242.65 2445.5
1310.56 -1259.17 2478.0
1314.10 -1256.41 2472.5
1323.67 -1247.31 2454.6
1268.49 -1183.92 2329.9
1335.61 -1240.66 2441.5
1338.74 -1231.90 2424.3
1344.68 -1231.58 2423.7
1342.60 -1223.96 2408.7
1300.26 -1179.86 2321.9
1267.86 -1145.16 2253.6
1295.47 -1164.73 2292.1
1314.20 -1176.18 2314.6
1314.89 -1171.45 2305.3
1327.37 -1177.21 2316.7
1305.65 -1152.73 2268.5
1313.10 -1143.85 2251.0
1344.54 -1166.06 2294.7
1372.90 -1185.41 2332.8
1352.93 -1163.04 2288.8
1328.65 -1127.34 2218.5
1334.06 -1127.05 2218.0
1392.27 -1161.21 2285.2
1425.04 -1140.03 2243.5
1453.16 -1157.80 2278.5
1509.90 -1174.37 2311.1
1497.71 -1160.28 2283.4
1518.18 -1166.92 2296.4
1483.39 -1135.72 2235.0
1578.83 -1181.11 2324.3
1767.96 -1143.63 2250.6
1794.87 -1157.22 2277.3
1734.86 -1114.86 2194.0
1763.60 -1122.29 2208.6
1805.17 -1145.03 2253.3
1068.71 -1245.78 2439.2
1086.25 -1258.77 2464.6
1087.74 -1253.13 2453.6
1143.60 -1272.82 2492.1
1154.39 -1263.42 2473.7
1174.89 -1278.75 2503.7
1166.85 -1263.02 2472.9
1154.78 -1243.13 2434.0
1174.60 -1257.59 2462.3
1204.63 -1269.05 2484.7
1198.67 -1249.41 2446.3
1230.28 -1268.93 2484.5
1195.04 -1219.81 2388.3
1237.40 -1256.54 2460.2
1264.88 -1277.85 2502.0
1254.18 -1260.58 2468.1
1243.34 -1243.34 2434.4
1251.47 -1245.15 2437.9
1274.48 -1255.36 2457.9
1269.62 -1244.35 2436.4
1296.79 -1264.69 2476.2
1311.39 -1272.63 2491.7
1293.25 -1248.87 2445.2
1291.07 -1228.70 2405.7
1279.26 -1211.60 2372.2
1258.27 -1174.79 2300.2
1319.36 -1226.01 2400.5
1334.97 -1234.69 2417.4
1327.60 -1222.14 2392.9
1313.46 -1203.50 2356.4
1270.16 -1158.43 2268.1
1289.44 -1165.23 2281.4
1341.98 -1207.17 2363.6
1295.23 -1159.82 2270.9
1309.13 -1161.70 2274.5
1339.42 -1183.26 2316.7
1327.17 -1167.20 2285.3
1335.52 -1169.32 2289.5
1338.34 -1166.61 2284.1
1340.67 -1163.49 2278.0
1363.46 -1178.08 2306.6
1372.27 -1170.29 2291.4
1341.40 -1129.30 2211.1
1391.14 -1156.35 2264.1
1407.22 -1136.16 2224.5
1425.38 -1146.12 2244.0
1421.39 -1138.26 2228.7
1491.62 -1166.07 2283.1
1462.21 -1129.63 2211.7
1498.52 -1153.16 2257.8
1506.42 -1154.73 2260.9
1545.86 -1175.81 2302.2
1548.12 -1164.04 2279.1
1569.84 -1132.82 2218.0
1649.91 -1160.83 2272.8
1151.90 -1281.32 2496.1
1152.27 -1260.49 2455.5
1140.65 -1240.93 2417.4
1159.10 -1247.29 2429.8
1186.41 -1269.78 2473.6
1199.71 -1277.11 2487.9
1198.42 -1268.91 2471.9
1185.22 -1241.66 2418.8
1190.48 -1240.61 2416.8
1233.05 -1258.47 2451.6
1242.85 -1261.97 2458.4
1218.49 -1230.92 2397.9
1248.05 -1254.38 2443.6
1264.58 -1251.93 2438.8
1253.80 -1235.09 2406.0
1275.40 -1250.14 2435.3
1304.75 -1272.61 2479.1
1303.20 -1264.87 2464.0
1249.44 -1206.77 2350.9
1273.44 -1189.34 2316.9
1290.62 -1199.74 2337.1
1281.78 -1185.94 2310.3
1286.59 -1184.86 2308.2
1265.97 -1160.47 2260.7
1316.66 -1195.87 2329.6
1296.23 -1171.93 2283.0
1298.07 -1147.40 2235.2
1324.28 -1165.37 2270.2
1349.77 -1177.33 2293.5
1373.97 -1193.19 2324.4
1353.00 -1169.84 2278.9
1319.19 -1135.65 2212.3
1370.68 -1174.87 2288.7
1385.70 -1157.67 2255.2
1503.79 -1145.20 2230.9
1525.57 -1157.33 2254.5
1511.24 -1142.08 2224.8
1569.07 -1176.80 2292.5
1545.76 -1154.95 2249.9
1534.78 -1133.91 2208.9
1576.84 -1152.08 2244.3
1580.48 -1150.50 2241.2
1578.25 -1144.67 2229.9
1605.89 -1160.46 2260.6
1618.31 -1144.37 2229.3
1678.74 -1154.14 2248.3
1126.61 -1273.84 2469.0
1120.02 -1259.23 2440.7
1147.06 -1282.39 2485.6
1159.98 -1282.43 2485.7
1151.62 -1266.15 2454.1
1139.63 -1246.08 2415.2
1134.07 -1233.22 2390.3
1154.94 -1249.09 2421.1
1182.60 -1272.10 2465.7
1154.25 -1221.79 2368.2
1152.38 -1200.65 2327.2
1225.03 -1256.60 2435.6
1187.25 -1211.61 2348.4
1201.49 -1213.69 2352.5
1241.82 -1248.09 2419.1
1241.17 -1241.17 2405.7
1257.20 -1250.91 2424.6
1297.47 -1259.50 2441.2
1251.62 -1209.09 2343.5
1272.79 -1194.74 2315.7
1291.29 -1206.42 2338.4
1282.02 -1192.16 2310.7
1282.84 -1187.37 2301.4
1296.09 -1194.08 2314.4
1312.07 -1203.23 2332.2
1316.76 -1196.51 2319.1
1322.26 -1169.47 2266.7
1349.52 -1188.29 2303.2
1364.41 -1196.11 2318.4
1366.33 -1192.54 2311.5
1325.29 -1151.67 2232.2
1385.01 -1188.00 2302.7
1467.50 -1154.28 2237.3
1487.98 -1165.78 2259.6
1492.01 -1128.93 2188.2
1538.24 -1159.51 2247.4
1530.98 -1136.81 2203.4
1562.40 -1147.30 2223.8
1721.86 -1130.86 2191.9
1707.05 -1113.78 2158.8
1731.54 -1126.06 2182.6
1711.06 -1109.12 2149.8
1112.59 -1257.16 2424.5
1142.86 -1269.85 2449.0
1177.89 -1301.53 2510.1
1172.65 -1281.58 2471.6
1158.19 -1258.91 2427.9
1151.77 -1245.16 2401.4
1147.20 -1233.54 2379.0
1203.80 -1287.48 2483.0
1167.52 -1242.05 2395.4
1159.41 -1214.04 2341.4
1187.53 -1237.01 2385.7
1182.96 -1225.86 2364.2
1224.26 -1230.42 2372.9
1262.37 -1262.37 2434.6
1278.91 -1272.55 2454.2
1251.26 -1238.87 2389.3
1252.96 -1234.45 2380.7
1254.20 -1229.61 2371.4
1288.67 -1257.24 2424.7
1309.66 -1271.51 2452.2
1261.94 -1219.26 2351.4
1252.33 -1175.90 2267.8
1301.69 -1216.54 2346.2
1281.75 -1192.32 2299.5
1270.50 -1176.39 2268.8
1294.43 -1193.02 2300.8
1309.59 -1190.54 2296.0
1303.90 -1180.00 2275.7
1361.42 -1199.49 2313.3
1324.77 -1162.08 2241.2
1347.50 -1176.86 2269.7
1368.94 -1190.39 2295.7
1349.02 -1133.63 2186.3
1467.85 -1160.36 2237.8
1488.64 -1167.56 2251.7
1525.78 -1169.18 2254.9
1521.48 -1152.63 2222.9
1550.19 -1148.29 2214.6
1623.22 -1155.32 2228.1
1696.26 -1123.35 2166.5
1714.19 -1120.39 2160.7
1010.18 -1269.04 2435.3
1074.63 -1270.60 2438.2
1089.99 -1281.22 2458.6
1116.90 -1290.21 2475.9
1121.18 -1258.98 2416.0
1170.04 -1285.12 2466.1
1171.51 -1259.22 2416.4
1200.00 -1276.19 2449.0
1158.90 -1225.99 2352.6
1157.98 -1218.61 2338.5
1202.23 -1258.58 2415.2
1211.11 -1261.31 2420.4
1184.17 -1226.90 2354.4
1162.66 -1198.44 2299.8
1168.85 -1198.67 2300.2
1210.52 -1235.10 2370.1
1262.85 -1281.98 2460.1
1260.43 -1266.74 2430.8
1261.18 -1248.75 2396.3
1243.77 -1225.48 2351.7
1258.14 -1233.59 2367.2
1298.25 -1266.74 2430.8
1265.57 -1228.89 2358.2
1223.30 -1159.82 2225.7
1305.45 -1214.79 2331.2
1283.06 -1188.45 2280.6
1311.98 -1209.67 2321.3
1286.04 -1169.65 2244.5
1298.38 -1175.56 2255.9
1319.90 -1189.68 2283.0
1323.66 -1187.75 2279.3
1328.79 -1187.05 2277.9
1343.58 -1194.96 2293.1
1312.63 -1162.28 2230.4
1357.57 -1191.58 2286.6
1369.42 -1181.34 2267.0
1316.24 -1111.62 2133.2
1476.45 -1150.26 2207.3
1485.55 -1135.35 2178.7
1506.81 -1147.23 2201.5
1522.42 -1154.74 2215.9
1535.82 -1143.33 2194.0
1717.59 -1110.08 2130.2
1029.25 -1267.74 2420.7
1060.37 -1282.60 2449.1
1052.24 -1257.70 2401.6
1066.37 -1267.10 2419.5
1079.48 -1275.18 2434.9
1097.07 -1288.42 2460.2
1084.12 -1265.85 2417.1
1105.36 -1275.90 2436.3
1117.45 -1268.12 2421.4
1137.65 -1283.83 2451.4
1168.10 -1261.79 2409.4
1182.48 -1270.54 2426.1
1207.29 -1290.33 2463.8
1200.66 -1276.49 2437.4
1141.28 -1207.01 2304.8
1197.47 -1253.31 2393.2
1238.47 -1289.54 2462.3
1165.72 -1207.56 2305.8
1198.32 -1228.74 2346.2
1263.68 -1282.73 2449.3
1253.71 -1253.71 2393.9
1260.93 -1248.56 2384.1
1204.22 -1186.60 2265.8
1201.60 -1155.83 2207.0
1230.66 -1178.17 2249.7
1269.96 -1210.06 2310.6
1304.68 -1237.30 2362.6
1306.97 -1233.68 2355.7
1307.45 -1228.40 2345.6
1263.45 -1181.56 2256.2
1270.28 -1171.68 2237.3
1313.69 -1206.21 2303.2
1279.07 -1169.10 2232.4
1367.56 -1195.88 2283.5
1365.45 -1183.78 2260.4
1325.50 -1144.24 2184.9
1325.72 -1125.19 2148.5
1477.57 -1147.96 2192.0
1499.75 -1160.73 2216.4
1506.68 -1148.49 2193.0
1542.13 -1162.35 2219.5
1550.78 -1151.68 2199.1
1580.64 -1161.05 2217.0
1710.31 -1125.35 2148.8
1693.81 -1110.88 2121.2
1751.83 -1137.85 2172.7
1746.00 -1123.23 2144.8
1051.26 -1262.76 2399.3
1076.24 -1270.21 2413.5
1124.08 -1274.79 2422.2
1137.87 -1276.17 2424.8
1123.66 -1232.99 2342.8
1129.58 -1232.82 2342.5
1119.34 -1215.11 2308.8
1133.49 -1223.93 2325.6
1145.73 -1230.60 2338.2
1193.59 -1275.25 2423.1
1193.64 -1268.63 2410.5
1191.42 -1246.69 2368.8
1163.87 -1211.61 2302.2
1208.92 -1239.45 2355.0
1215.18 -1221.20 2320.4
1226.88 -1226.88 2331.2
1236.93 -1230.87 2338.7
1204.18 -1180.91 2243.8
1260.89 -1196.08 2272.6
1305.45 -1232.58 2342.0
1246.38 -1171.37 2225.7
1250.70 -1164.65 2212.9
1314.83 -1213.23 2305.2
1312.74 -1173.95 2230.6
1322.36 -1152.10 2189.1
1339.07 -1161.67 2207.3
1351.57 -1167.53 2218.4
1519.02 -1159.26 2202.7
1542.51 -1172.77 2228.3
1676.40 -1115.77 2120.0
1689.51 -1117.17 2122.7
1712.23 -1128.51 2144.3
1737.18 -1123.08 2133.9
1724.42 -1111.29 2111.5
1738.57 -1116.87 2122.1
972.41 -1279.81 2419.8
1008.38 -1277.70 2415.8
1016.33 -1279.82 2419.8
1043.61 -1282.51 2424.9
1129.17 -1272.65 2406.3
1162.58 -1303.12 2463.9
1142.11 -1273.17 2407.2
1166.83 -1293.66 2446.0
1162.84 -1282.27 2424.5
1125.81 -1228.16 2322.1
1175.60 -1275.65 2412.0
1183.26 -1277.16 2414.8
1211.82 -1294.30 2447.2
1147.29 -1206.43 2281.1
1180.78 -1235.28 2335.6
1181.31 -1229.53 2324.7
1189.08 -1206.82 2281.8
1247.72 -1260.08 2382.5
1228.34 -1234.39 2333.9
1205.35 -1205.35 2279.0
1248.89 -1242.80 2349.8
1268.27 -1249.89 2363.2
1264.66 -1240.34 2345.2
1276.52 -1245.98 2355.9
1255.46 -1219.59 2306.0
1284.02 -1224.02 2314.3
1261.73 -1191.63 2253.1
1237.47 -1163.33 2199.6
1306.70 -1217.20 2301.4
1307.54 -1180.26 2231.6
1321.27 -1182.19 2235.2
1380.02 -1203.09 2274.8
1346.52 -1154.16 2182.2
1365.80 -1151.34 2176.9
1501.22 -1155.65 2185.1
1530.85 -1174.04 2219.8
1518.81 -1156.11 2185.9
1525.02 -1156.52 2186.7
997.79 -1278.42 2405.4
999.13 -1272.19 2393.7
1008.98 -1268.97 2387.6
1029.88 -1287.35 2422.2
1035.38 -1286.38 2420.4
1051.16 -1298.12 2442.5
1058.48 -1299.33 2444.7
1047.49 -1278.18 2404.9
1036.31 -1257.07 2365.2
1067.65 -1272.49 2394.2
1100.08 -1288.66 2424.7
1083.44 -1261.96 2374.4
1128.90 -1278.59 2405.7
1159.95 -1292.33 2431.6
1175.73 -1282.04 2412.2
1199.41 -1294.11 2434.9
1139.01 -1222.50 2300.2
1135.16 -1212.02 2280.5
1201.54 -1276.25 2401.3
1189.69 -1257.15 2365.4
1158.12 -1217.51 2290.8
1197.45 -1252.44 2356.5
1173.81 -1197.17 2252.5
1239.49 -1257.89 2366.8
1231.47 -1243.60 2339.9
1194.34 -1188.54 2236.3
1206.35 -1194.70 2247.9
1264.42 -1246.18 2344.7
1275.31 -1239.04 2331.3
1220.82 -1180.51 2221.2
1286.43 -1232.33 2318.7
1273.05 -1208.22 2273.3
1259.54 -1189.89 2238.8
1280.26 -1203.92 2265.2
1211.01 -1133.59 2132.9
1281.67 -1188.88 2236.9
1232.82 -1138.41 2142.0
1315.07 -1182.41 2224.7
1310.13 -1167.73 2197.1
1325.04 -1160.82 2184.1
1300.50 -1124.91 2116.6
1334.88 -1144.98 2154.3
1360.36 -1161.97 2186.3
1325.43 -1122.78 2112.5
1363.15 -1149.99 2163.7
1345.49 -1130.43 2126.9
1529.38 -1156.91 2176.8
1550.37 -1168.48 2198.5
1662.19 -1099.19 2068.2
1685.47 -1111.00 2090.4
997.49 -1276.30 2389.7
1006.07 -1279.32 2395.4
1019.66 -1257.79 2355.1
1035.03 -1269.14 2376.3
1108.57 -1297.53 2429.5
1114.36 -1296.94 2428.4
1116.01 -1270.15 2378.2
1113.19 -1259.99 2359.2
1108.70 -1214.85 2274.7
1144.22 -1247.14 2335.1
1140.55 -1236.59 2315.4
1123.57 -1211.81 2269.0
1162.68 -1247.46 2335.7
1178.49 -1251.38 2343.1
1140.79 -1205.14 2256.5
1172.25 -1232.06 2306.9
1200.64 -1255.49 2350.8
1183.33 -1218.83 2282.1
1180.29 -1209.65 2264.9
1222.87 -1247.09 2335.0
1232.06 -1250.27 2341.0
1210.04 -1198.41 2243.9
1276.88 -1258.55 2356.5
1253.27 -1229.40 2301.9
1232.91 -1203.70 2253.8
1229.93 -1183.95 2216.8
1283.98 -1230.23 2303.5
1243.61 -1186.03 2220.7
1208.22 -1146.98 2147.6
1205.10 -1138.76 2132.2
1236.85 -1158.14 2168.5
1307.64 -1218.88 2282.2
1301.47 -1175.89 2201.7
1337.04 -1202.75 2252.0
1268.53 -1136.16 2127.3
1274.85 -1127.12 2110.4
1348.92 -1143.53 2141.1
1322.46 -1116.50 2090.5
1345.65 -1131.44 2118.5
1357.15 -1127.31 2110.8
1380.10 -1128.18 2112.4
1525.79 -1168.45 2187.8
1708.56 -1150.21 2153.7
1710.58 -1147.82 2149.2
1669.55 -1113.03 2084.0
1720.57 -1143.35 2140.8
1696.44 -1123.69 2104.0
1683.79 -1111.73 2081.6
977.53 -1297.10 2417.0
1018.29 -1309.23 2439.6
1065.66 -1282.50 2389.8
1065.50 -1274.91 2375.6
1098.59 -1292.09 2407.6
1088.59 -1273.09 2372.2
1111.19 -1292.23 2407.9
1128.95 -1277.00 2379.5
1146.98 -1290.35 2404.4
1140.84 -1256.13 2340.6
1159.42 -1263.16 2353.7
1130.39 -1212.39 2259.1
1146.23 -1223.03 2278.9
1154.41 -1225.45 2283.5
1153.22 -1217.94 2269.4
1184.77 -1226.24 2284.9
1230.14 -1266.86 2360.6
1241.48 -1272.21 2370.6
1207.41 -1231.20 2294.2
1172.59 -1189.84 2217.1
1214.55 -1197.20 2230.8
1232.27 -1208.91 2252.6
1216.06 -1160.02 2161.5
1252.65 -1189.44 2216.3
1278.27 -1208.23 2251.4
1237.58 -1164.45 2169.8
1212.32 -1135.52 2115.9
1314.75 -1198.91 2234.0
1260.35 -1139.27 2122.9
1292.54 -1124.18 2094.8
1332.57 -1130.50 2106.5
1455.58 -1172.39 2184.6
1468.27 -1160.04 2161.6
1484.67 -1155.36 2152.9
1493.54 -1128.33 2102.5
1636.57 -1129.23 2104.2
1689.25 -1139.01 2122.4
1681.32 -1119.08 2085.2
981.23 -1291.75 2395.4
1011.12 -1306.29 2422.4
1044.45 -1300.87 2412.3
1065.48 -1303.65 2417.5
1046.56 -1273.01 2360.7
1058.02 -1264.75 2345.4
1105.02 -1305.93 2421.7
1074.47 -1262.65 2341.5
1087.15 -1263.28 2342.6
1076.39 -1243.83 2306.5
1100.21 -1264.32 2344.6
1122.65 -1283.03 2379.2
1129.92 -1263.57 2343.1
1125.64 -1252.05 2321.8
1142.95 -1264.54 2345.0
1188.60 -1301.20 2412.9
1135.12 -1236.15 2292.3
1135.69 -1230.34 2281.5
1179.43 -1220.51 2263.3
1179.25 -1214.28 2251.8
1206.62 -1200.85 2226.8
1232.06 -1220.33 2263.0
1252.47 -1228.83 2278.7
1205.23 -1176.93 2182.5
1176.01 -1143.04 2119.6
1212.71 -1167.80 2165.6
1200.80 -1151.00 2134.4
1203.01 -1147.83 2128.5
1270.02 -1206.23 2236.8
1273.30 -1203.85 2232.4
1216.23 -1144.69 2122.7
1238.03 -1119.61 2076.2
1278.81 -1141.60 2117.0
1334.89 -1186.57 2200.4
1291.60 -1143.20 2119.9
1299.63 -1140.61 2115.1
1286.21 -1124.08 2084.5
1319.03 -1143.16 2119.9
1339.64 -1156.20 2144.1
1356.95 -1166.31 2162.8
1372.88 -1175.14 2179.2
1444.29 -1168.92 2167.6
1416.00 -1141.58 2116.9
1463.50 -1161.87 2154.6
1485.11 -1174.54 2178.1
1507.80 -1170.23 2170.1
1509.02 -1129.05 2093.7
1516.26 -1122.35 2081.3
1541.18 -1136.76 2108.0
1531.48 -1125.61 2087.3
1551.08 -1132.02 2099.2
1551.52 -1120.54 2077.9
1543.17 -1110.65 2059.6
1689.17 -1144.46 2122.3
1733.70 -1137.57 2109.5
956.10 -1289.19 2379.2
1007.42 -1283.85 2369.4
1041.89 -1311.78 2420.9
1040.33 -1294.22 2388.5
1046.41 -1286.47 2374.2
1091.17 -1303.17 2405.0
1073.08 -1274.29 2351.7
1056.29 -1233.33 2276.1
1149.96 -1292.16 2384.7
1126.96 -1259.54 2324.5
1158.10 -1273.91 2351.0
1179.59 -1290.76 2382.1
1186.78 -1291.86 2384.2
1171.02 -1268.10 2340.3
1140.53 -1216.18 2244.5
1192.89 -1265.56 2335.6
1206.16 -1273.16 2349.7
1197.58 -1257.76 2321.2
1191.01 -1202.51 2219.3
1198.28 -1204.04 2222.1
1217.60 -1217.60 2247.1
1205.07 -1199.33 2213.4
1197.59 -1186.24 2189.2
1232.66 -1215.21 2242.7
1236.93 -1213.70 2239.9
1203.04 -1174.93 2168.4
1204.93 -1171.31 2161.7
1215.09 -1133.73 2092.3
1197.03 -1111.91 2052.1
1228.15 -1111.18 2050.7
1318.54 -1182.72 2182.7
1321.83 -1165.67 2151.3
1302.78 -1144.04 2111.3
1344.33 -1170.69 2160.5
1349.06 -1165.10 2150.2
1323.29 -1138.14 2100.5
1407.76 -1140.39 2104.6
1445.92 -1162.30 2145.1
1472.02 -1178.74 2175.4
1484.19 -1157.45 2136.1
1519.63 -1142.45 2108.4
1508.50 -1130.02 2085.5
1526.48 -1119.42 2065.9
1555.91 -1137.01 2098.4
1675.11 -1151.64 2125.4
1642.32 -1110.83 2050.1
1671.26 -1126.75 2079.5
1701.40 -1125.29 2076.8
812.64 -1302.71 2392.7
950.35 -1295.93 2380.3
954.51 -1293.21 2375.3
1019.76 -1305.79 2398.4
995.75 -1244.69 2286.2
1071.08 -1315.36 2416.0
1046.61 -1277.84 2347.0
1044.98 -1261.18 2316.5
1081.63 -1297.96 2384.0
1052.13 -1241.27 2279.9
1098.34 -1288.55 2366.7
1108.52 -1293.28 2375.4
1082.92 -1256.43 2307.7
1063.15 -1226.71 2253.1
1085.81 -1232.54 2263.9
1093.52 -1234.62 2267.7
1098.89 -1234.05 2266.6
1093.24 -1221.17 2243.0
1155.85 -1277.52 2346.5
1170.99 -1267.57 2328.2
1129.77 -1216.68 2234.7
1157.84 -1240.54 2278.5
1167.67 -1244.72 2286.2
1139.45 -1190.47 2186.6
1158.45 -1198.39 2201.1
1192.21 -1227.28 2254.2
1173.32 -1190.32 2186.3
1215.19 -1226.88 2253.4
1215.23 -1221.04 2242.7
1191.92 -1191.92 2189.2
1185.28 -1179.66 2166.7
1213.75 -1202.29 2208.3
1234.09 -1216.71 2234.8
1219.94 -1197.14 2198.8
1218.83 -1190.48 2186.6
1203.09 -1169.67 2148.4
1242.67 -1165.00 2139.8
1227.46 -1145.63 2104.2
1206.61 -1121.19 2059.3
1230.57 -1138.41 2091.0
1261.10 -1161.54 2133.4
1266.08 -1155.99 2123.2
1247.12 -1133.75 2082.4
1251.76 -1123.37 2063.3
1338.77 -1186.25 2178.8
1312.17 -1157.79 2126.6
1317.68 -1148.19 2108.9
1321.88 -1147.08 2106.9
1324.12 -1144.30 2101.8
1395.32 -1167.40 2144.2
1399.18 -1161.38 2133.1
1544.22 -1149.95 2112.2
1530.75 -1127.92 2071.7
1532.34 -1125.15 2066.6
1550.61 -1122.85 2062.4
1575.87 -1137.22 2088.8
1616.29 -1135.18 2085.0
1643.31 -1120.44 2058.0
1668.75 -1134.10 2083.0
1662.16 -1118.76 2054.9
1011.93 -1309.92 2394.6
1024.72 -1318.39 2410.1
1033.01 -1321.00 2414.8
1016.59 -1292.18 2362.1
1039.98 -1283.25 2345.8
1063.47 -1304.61 2384.9
1079.08 -1316.11 2405.9
1073.07 -1301.25 2378.7
1079.87 -1302.02 2380.1
1073.30 -1286.74 2352.2
1049.80 -1251.45 2287.7
1049.64 -1244.24 2274.5
1067.52 -1258.36 2300.3
1104.08 -1294.22 2365.9
1105.14 -1288.31 2355.1
1087.79 -1261.11 2305.4
1076.36 -1241.05 2268.7
1126.92 -1292.28 2362.3
1119.41 -1263.07 2308.9
1098.52 -1232.91 2253.8
1096.34 -1223.96 2237.4
1156.38 -1284.19 2347.5
1129.79 -1241.59 2269.7
1115.02 -1212.73 2216.9
1153.88 -1248.56 2282.4
1185.67 -1226.36 2241.8
1183.97 -1189.61 2174.6
1192.02 -1192.02 2179.0
1167.94 -1162.43 2125.0
1193.15 -1170.95 2140.5
1238.63 -1209.96 2211.8
1249.00 -1214.47 2220.1
1190.54 -1152.31 2106.5
1181.54 -1138.38 2081.0
1197.94 -1148.94 2100.3
1186.57 -1132.88 2070.9
1204.37 -1144.70 2092.5
1247.14 -1180.03 2157.1
1286.54 -1211.87 2215.3
1281.07 -1201.36 2196.1
1214.02 -1118.59 2044.8
1234.41 -1132.43 2070.1
1300.38 -1177.59 2152.7
1235.66 -1114.21 2036.8
1300.51 -1148.15 2098.8
1335.11 -1159.29 2119.2
1338.34 -1157.34 2115.6
1307.48 -1126.04 2058.4
1343.11 -1129.07 2064.0
1415.49 -1180.51 2158.0
1415.09 -1148.40 2099.3
1472.21 -1190.17 2175.7
1449.25 -1145.29 2093.6
1522.45 -1143.19 2089.8
1673.86 -1142.99 2089.4
1690.16 -1150.40 2103.0
1663.76 -1128.79 2063.5
1652.85 -1117.80 2043.4
1666.81 -1123.63 2054.0
784.90 -1331.19 2422.0
784.93 -1320.67 2402.8
797.26 -1320.46 2402.5
823.95 -1303.57 2371.7
918.08 -1297.55 2360.8
938.16 -1317.15 2396.4
1016.86 -1322.55 2406.3
981.48 -1261.05 2294.4
999.48 -1246.41 2267.7
1044.06 -1294.39 2355.0
1062.47 -1309.55 2382.6
1057.94 -1296.44 2358.7
1025.00 -1248.85 2272.2
1040.43 -1260.41 2293.2
1093.84 -1281.18 2331.0
1099.16 -1273.34 2316.7
1119.70 -1290.09 2347.2
1139.38 -1298.65 2362.8
1108.54 -1236.90 2250.4
1149.28 -1275.64 2320.9
1222.08 -1227.87 2234.0
1176.74 -1160.32 2111.1
1226.53 -1203.82 2190.2
1250.56 -1221.74 2222.8
1198.37 -1165.39 2120.3
1180.06 -1142.34 2078.4
1187.95 -1144.75 2082.8
1235.81 -1164.41 2118.5
1201.33 -1126.91 2050.3
1210.67 -1120.79 2039.2
1318.64 -1194.66 2173.6
1330.91 -1180.55 2147.9
1301.19 -1121.35 2040.2
1317.08 -1125.89 2048.5
1338.08 -1125.69 2048.1
1643.86 -1150.16 2092.6
1674.74 -1152.74 2097.3
1687.57 -1157.82 2106.5
1675.10 -1145.55 2084.2
1657.93 -1130.17 2056.2
1679.51 -1137.56 2069.7
1665.65 -1124.58 2046.1
781.82 -1342.96 2431.9
803.99 -1337.88 2422.7
833.96 -1277.94 2314.2
839.71 -1277.56 2313.5
858.26 -1296.52 2347.8
865.31 -1297.96 2350.4
964.86 -1317.41 2385.7
983.34 -1317.30 2385.5
1006.52 -1315.26 2381.8
1014.72 -1271.39 2302.3
1027.87 -1280.33 2318.5
1031.64 -1277.55 2313.5
1011.98 -1245.97 2256.3
1082.55 -1273.94 2306.9
1077.43 -1247.24 2258.6
1075.32 -1231.41 2229.9
1090.77 -1229.28 2226.1
1151.47 -1290.86 2337.6
1113.73 -1235.54 2237.4
1183.77 -1242.09 2249.3
1235.23 -1241.06 2247.4
1212.97 -1212.97 2196.5
1176.95 -1171.45 2121.3
1169.12 -1158.24 2097.4
1216.64 -1199.74 2172.6
1240.62 -1217.75 2205.2
1212.84 -1185.02 2145.9
1217.30 -1183.95 2144.0
1204.33 -1166.01 2111.5
1213.65 -1138.80 2062.2
1270.72 -1187.12 2149.7
1310.78 -1208.64 2188.7
1310.10 -1202.81 2178.1
1315.45 -1202.54 2177.6
1255.07 -1137.58 2060.0
1308.24 -1146.73 2076.6
1336.58 -1147.95 2078.8
1351.50 -1156.10 2093.5
1358.56 -1157.50 2096.1
1333.96 -1132.01 2049.9
1366.76 -1155.24 2092.0
1390.26 -1170.46 2119.5
1512.59 -1193.26 2160.8
1497.10 -1163.80 2107.5
1597.24 -1153.26 2088.4
1628.17 -1167.68 2114.5
1649.13 -1163.13 2106.3
1650.02 -1141.08 2066.3
1662.79 -1146.20 2075.6
1650.51 -1119.61 2027.5
776.15 -1339.48 2414.3
808.35 -1290.94 2326.8
812.40 -1287.81 2321.1
828.80 -1304.14 2350.6
850.36 -1318.67 2376.8
873.29 -1297.80 2339.2
868.14 -1281.26 2309.3
955.44 -1319.13 2377.6
966.45 -1308.99 2359.3
981.64 -1304.78 2351.7
968.38 -1255.96 2263.7
973.17 -1254.57 2261.2
985.66 -1248.11 2249.6
1029.22 -1295.60 2335.2
1026.53 -1284.67 2315.5
1012.85 -1260.18 2271.3
1004.08 -1242.05 2238.7
1070.43 -1231.57 2219.8
1099.90 -1258.71 2268.7
1137.81 -1295.17 2334.4
1111.82 -1258.88 2269.0
1108.08 -1248.04 2249.5
1132.26 -1262.00 2274.6
1151.58 -1257.34 2266.2
1153.91 -1240.89 2236.6
1152.12 -1232.77 2221.9
1158.14 -1203.12 2168.5
1194.56 -1217.31 2194.1
1208.62 -1191.91 2148.3
1227.72 -1205.19 2172.2
1221.12 -1193.24 2150.7
1195.69 -1163.08 2096.3
1260.58 -1209.70 2180.4
1271.37 -1209.22 2179.5
1247.83 -1176.37 2120.3
1254.92 -1177.87 2123.0
1245.90 -1164.29 2098.5
1205.27 -1116.57 2012.5
1213.08 -1118.96 2016.8
1235.39 -1134.65 2045.1
1274.21 -1165.30 2100.3
1277.44 -1153.46 2079.0
1299.35 -1153.78 2079.6
1338.85 -1174.24 2116.5
1351.79 -1180.75 2128.2
1316.55 -1145.29 2064.3
1347.77 -1144.54 2062.9
1380.84 -1158.82 2088.7
1370.84 -1145.93 2065.4
1420.77 -1173.92 2115.9
1428.69 -1158.11 2087.4
1477.48 -1193.13 2150.5
1456.26 -1171.58 2111.7
1463.05 -1163.91 2097.8
1538.44 -1163.34 2096.8
726.13 -1300.99 2334.0
761.10 -1352.36 2426.2
760.02 -1339.38 2402.9
841.80 -1330.79 2387.5
859.85 -1292.78 2319.3
850.10 -1269.24 2277.0
942.10 -1315.27 2359.6
939.27 -1302.86 2337.4
968.36 -1254.20 2250.1
985.84 -1269.20 2277.0
999.18 -1278.72 2294.0
1041.54 -1325.04 2377.2
1043.24 -1311.68 2353.2
1020.23 -1275.29 2287.9
1007.14 -1251.65 2245.5
1025.19 -1252.36 2246.8
1061.83 -1289.80 2313.9
1047.93 -1265.76 2270.8
1055.10 -1253.30 2248.4
1103.15 -1303.17 2337.9
1071.88 -1245.70 2234.8
1080.69 -1249.18 2241.1
1093.80 -1257.58 2256.1
1085.44 -1241.33 2227.0
1106.09 -1238.59 2222.1
1120.57 -1235.50 2216.5
1135.92 -1246.04 2235.4
1145.24 -1249.88 2242.3
1134.15 -1219.21 2187.3
1188.73 -1259.00 2258.7
1191.88 -1256.15 2253.6
1158.27 -1185.85 2127.4
1203.29 -1226.10 2199.6
1220.04 -1237.31 2219.8
1192.43 -1192.43 2139.2
1223.98 -1207.13 2165.6
1221.28 -1182.77 2121.9
1207.18 -1163.87 2088.0
1268.94 -1217.96 2185.0
1274.28 -1212.26 2174.8
1238.06 -1172.61 2103.7
1220.80 -1151.19 2065.3
1219.06 -1134.62 2035.5
1225.06 -1135.29 2036.7
1243.66 -1147.58 2058.8
1321.74 -1199.05 2151.1
1318.86 -1162.11 2084.9
1315.72 -1154.61 2071.4
1343.18 -1173.92 2106.0
1312.81 -1138.12 2041.8
1342.23 -1136.14 2038.3
1401.30 -1176.88 2111.3
1415.06 -1174.66 2107.4
1464.99 -1193.08 2140.4
1474.74 -1196.48 2146.5
1473.66 -1191.12 2136.9
1434.78 -1155.34 2072.7
1479.19 -1173.53 2105.3
1485.25 -1174.00 2106.2
1483.32 -1159.69 2080.5
1520.52 -1147.06 2057.8
1551.37 -1154.13 2070.5
1557.08 -1146.48 2056.8
1631.68 -1135.31 2036.8
631.53 -1337.35 2388.1
653.52 -1319.25 2355.8
747.56 -1302.20 2325.4
757.93 -1289.08 2301.9
770.39 -1300.03 2321.5
795.55 -1332.08 2378.7
813.68 -1311.60 2342.1
830.37 -1318.82 2355.0
849.92 -1302.00 2325.0
837.03 -1273.24 2273.6
856.68 -1285.02 2294.7
962.05 -1267.10 2262.7
976.65 -1278.52 2283.1
990.90 -1281.64 2288.7
986.85 -1268.81 2265.7
1003.28 -1267.30 2263.0
1001.49 -1257.68 2245.9
1081.91 -1327.80 2371.1
1048.06 -1271.80 2271.1
1057.41 -1268.89 2265.9
1068.63 -1254.48 2240.1
1076.28 -1256.63 2244.0
1076.78 -1211.38 2163.2
1108.30 -1240.38 2215.0
1097.18 -1209.14 2159.2
1119.36 -1227.31 2191.6
1176.38 -1251.71 2235.2
1171.10 -1239.99 2214.3
1184.40 -1235.89 2206.9
1163.54 -1208.29 2157.7
1183.26 -1211.29 2163.0
1236.25 -1259.57 2249.2
1195.40 -1212.24 2164.7
1142.44 -1153.12 2059.1
1204.49 -1210.09 2160.9
1241.94 -1241.94 2217.7
1201.19 -1195.65 2135.1
1232.32 -1199.01 2141.1
1179.24 -1137.12 2030.6
1214.72 -1166.13 2082.4
1224.01 -1169.85 2089.0
1243.40 -1167.71 2085.2
1230.05 -1150.17 2053.9
1270.12 -1162.49 2075.9
1323.06 -1171.24 2091.5
1304.43 -1150.03 2053.6
1313.82 -1135.14 2027.0
1416.68 -1195.33 2134.5
1427.56 -1176.92 2101.6
1441.30 -1183.73 2113.8
1459.19 -1193.88 2131.9
1438.58 -1172.58 2093.9
1449.26 -1155.13 2062.7
1475.40 -1167.35 2084.6
1478.25 -1165.34 2081.0
1519.27 -1163.70 2078.0
1590.79 -1153.05 2059.0
1614.06 -1166.01 2082.2
1618.07 -1161.14 2073.5
1628.89 -1149.80 2053.2
1611.38 -1133.74 2024.5
658.13 -1310.21 2328.9
741.74 -1308.59 2326.0
742.20 -1298.86 2308.7
751.09 -1293.55 2299.3
812.88 -1346.53 2393.4
821.73 -1350.87 2401.2
814.20 -1328.43 2361.3
794.89 -1287.24 2288.1
821.79 -1301.67 2313.7
838.27 -1318.15 2343.0
837.21 -1307.01 2323.2
836.05 -1295.88 2303.4
855.82 -1289.68 2292.4
920.30 -1322.56 2350.8
926.73 -1323.03 2351.7
953.13 -1284.65 2283.5
979.70 -1273.03 2262.8
1088.36 -1283.55 2281.5
1082.59 -1269.85 2257.1
1084.36 -1258.32 2236.6
1088.10 -1255.95 2232.4
1067.86 -1226.06 2179.3
1113.27 -1271.47 2260.0
1115.58 -1260.83 2241.1
1084.88 -1219.79 2168.2
1091.61 -1221.03 2170.4
1095.92 -1219.56 2167.8
1105.88 -1224.37 2176.3
1105.72 -1217.97 2164.9
1136.35 -1226.81 2180.6
1130.24 -1214.16 2158.2
1129.02 -1206.89 2145.2
1149.52 -1222.77 2173.5
1140.22 -1201.11 2135.0
1186.71 -1244.04 2211.3
1205.45 -1257.60 2235.4
1178.59 -1223.70 2175.1
1166.90 -1205.80 2143.3
1226.09 -1260.95 2241.3
1147.93 -1169.49 2078.7
1179.82 -1190.79 2116.6
1227.85 -1227.85 2182.5
1181.15 -1175.73 2089.8
1175.36 -1143.73 2033.0
1203.04 -1165.44 2071.6
1258.06 -1213.33 2156.7
1244.76 -1195.19 2124.4
1203.77 -1121.11 1992.8
1228.56 -1129.65 2007.9
1275.10 -1167.50 2075.2
1309.39 -1164.50 2069.9
1312.56 -1148.49 2041.4
1345.51 -1172.59 2084.3
1354.03 -1175.30 2089.1
1341.36 -1159.66 2061.3
1387.90 -1181.07 2099.3
1399.49 -1186.28 2108.6
1406.09 -1187.24 2110.3
1387.01 -1166.59 2073.6
1428.94 -1183.51 2103.7
1439.04 -1182.85 2102.5
1440.49 -1179.57 2096.7
1460.35 -1173.69 2086.2
1462.72 -1171.25 2081.9
