ply
format ascii 1.0
element vertex 2097
property float x
property float y
property float z
end_header
-1944.53 274.15 2459.1
-1910.98 270.30 2424.6
-1931.69 274.13 2459.0
-1956.83 279.55 2507.6
-1930.14 276.65 2481.6
-1891.32 272.00 2439.8
-1890.38 272.77 2446.8
-1892.90 248.44 2281.6
-1844.29 242.82 2230.0
-1842.10 243.30 2234.4
-1831.67 242.68 2228.7
-1810.21 241.36 2216.6
-1837.57 245.79 2257.2
-1825.86 245.00 2250.0
-1830.47 246.41 2262.9
-1848.16 249.59 2292.2
-1854.53 251.26 2307.5
-1849.62 251.40 2308.8
-1857.77 253.33 2326.5
-1873.91 256.37 2354.4
-1898.02 260.51 2392.5
-1923.85 264.92 2433.0
-1915.63 264.66 2430.5
-1935.72 268.32 2464.1
-1943.08 271.13 2489.9
-1900.51 266.07 2443.5
-1892.87 265.89 2441.8
-1928.49 271.80 2496.1
-1955.41 276.52 2539.5
-1956.10 277.55 2549.0
-1858.85 238.17 2240.6
-1852.21 238.06 2239.6
-1853.18 238.93 2247.8
-1843.99 238.50 2243.7
-1803.58 234.75 2208.5
-1866.82 243.76 2293.2
-1893.36 248.01 2333.2
-1863.37 244.87 2303.6
-1848.47 243.69 2292.5
-1871.70 247.55 2328.8
-1886.07 250.26 2354.3
-1872.38 249.25 2344.8
-1863.68 248.90 2341.5
-1889.05 253.11 2381.2
-1916.15 257.58 2423.2
-1917.81 258.65 2433.3
-1952.68 264.22 2485.7
-1891.30 257.62 2423.6
-1880.65 257.02 2418.0
-1904.19 261.11 2456.4
-1958.26 271.25 2551.8
-1944.39 270.24 2542.3
-1849.60 231.20 2229.4
-1867.71 235.67 2272.6
-1903.97 241.01 2324.0
-1856.83 235.79 2273.7
-1868.38 238.01 2295.1
-1877.97 240.00 2314.2
-1833.58 235.07 2266.8
-1817.49 233.76 2254.1
-1838.28 237.20 2287.3
-1867.69 241.77 2331.4
-1870.20 242.88 2342.1
-1876.40 244.48 2357.5
-1912.29 249.97 2410.4
-1932.54 253.45 2444.0
-1927.38 253.60 2445.5
-1899.44 250.75 2418.0
-1835.94 243.17 2344.9
-1844.41 245.10 2363.5
-1899.32 253.24 2442.0
-1894.13 253.40 2443.5
-1900.51 255.10 2459.9
-1919.60 258.53 2493.0
-1896.10 256.23 2470.8
-1876.91 254.50 2454.1
-1880.72 255.88 2467.4
-1857.88 227.14 2246.4
-1834.45 225.69 2232.1
-1915.64 236.42 2338.3
-1911.36 236.64 2340.4
-1835.95 228.03 2255.3
-1805.27 226.38 2239.0
-1812.35 228.01 2255.0
-1826.23 230.49 2279.6
-1833.80 232.20 2296.5
-1843.18 234.15 2315.8
-1862.41 237.37 2347.6
-1865.46 238.53 2359.1
-1871.54 240.10 2374.6
-1854.79 238.74 2361.1
-1824.56 235.62 2330.3
-1861.27 241.16 2385.1
-1904.53 247.59 2448.7
-1889.56 246.46 2437.6
-1878.27 245.81 2431.1
-1879.17 246.76 2440.5
-1906.12 251.14 2483.8
-1938.99 256.34 2535.2
-1863.22 223.35 2267.1
-1854.64 223.03 2263.8
-1863.72 224.83 2282.1
-1801.61 218.03 2213.1
-1805.94 219.95 2232.6
-1858.12 227.04 2304.5
-1883.84 230.92 2343.9
-1842.10 226.54 2299.4
-1794.90 221.45 2247.8
-1800.63 222.88 2262.3
-1815.61 225.47 2288.6
-1868.22 232.76 2362.6
-1922.45 240.31 2439.2
-1933.31 242.46 2461.1
-1931.80 243.07 2467.3
-1894.07 239.12 2427.1
-1858.93 235.46 2390.0
-1861.76 236.61 2401.7
-1866.99 238.07 2416.5
-1842.37 235.72 2392.7
-1846.34 237.03 2405.9
-1923.55 247.78 2515.1
-1875.53 218.91 2282.1
-1859.97 217.78 2270.3
-1861.48 218.65 2279.4
-1864.21 219.67 2290.0
-1887.01 223.07 2325.4
-1883.36 223.35 2328.3
-1889.08 224.75 2342.9
-1842.46 221.33 2307.4
-1827.61 220.27 2296.2
-1811.55 219.04 2283.5
-1832.64 222.32 2317.6
-1872.13 227.86 2375.4
-1867.08 227.99 2376.8
-1901.98 233.02 2429.2
-1905.41 234.22 2441.7
-1886.76 232.70 2425.8
-1904.21 235.64 2456.5
-1891.67 234.87 2448.5
-1851.18 230.62 2404.1
-1888.29 237.64 2477.3
-1876.83 211.14 2262.2
-1891.40 214.12 2294.1
-1815.01 206.12 2208.4
-1823.27 208.37 2232.6
-1868.26 214.20 2295.0
-1882.89 216.56 2320.3
-1869.83 215.75 2311.6
-1831.76 212.04 2271.8
-1832.55 212.81 2280.1
-1845.15 214.97 2303.2
-1811.62 211.75 2268.7
-1811.74 212.45 2276.3
-1811.20 213.08 2283.0
-1784.66 210.65 2257.0
-1777.96 210.55 2255.9
-1788.50 212.50 2276.7
-1834.02 218.62 2342.4
-1871.96 223.89 2398.8
-1888.28 226.59 2427.8
-1917.94 230.92 2474.2
-1917.57 231.65 2482.0
-1876.40 227.44 2436.9
-1813.53 220.56 2363.2
-1874.68 229.55 2459.5
-1863.71 203.84 2246.4
-1883.77 206.68 2277.7
-1897.38 208.83 2301.4
-1860.87 205.46 2264.2
-1820.67 202.94 2236.5
-1864.93 208.54 2298.2
-1856.30 208.24 2294.9
-1822.63 205.12 2260.5
-1819.06 205.38 2263.3
-1825.46 206.77 2278.7
-1797.57 204.27 2251.1
-1802.06 205.45 2264.1
-1814.57 207.55 2287.3
-1801.01 206.67 2277.6
-1801.06 207.36 2285.2
-1820.19 210.25 2317.1
-1847.20 214.08 2359.2
-1863.03 216.63 2387.4
-1842.63 214.97 2369.1
-1832.06 214.46 2363.4
-1863.58 218.88 2412.1
-1855.99 218.72 2410.4
-1841.73 217.77 2399.9
-1881.42 223.22 2460.0
-1893.70 225.44 2484.4
-1895.04 226.37 2494.7
-1918.61 229.97 2534.4
-1916.82 230.54 2540.7
-1915.57 203.53 2308.9
-1894.84 201.96 2291.1
-1890.66 202.15 2293.2
-1896.60 203.42 2307.7
-1842.43 198.24 2248.9
-1807.37 195.08 2213.1
-1865.64 202.01 2291.7
-1888.45 205.14 2327.2
-1855.31 202.18 2293.6
-1832.28 200.31 2272.5
-1838.69 201.66 2287.8
-1850.66 203.63 2310.1
-1826.46 201.62 2287.3
-1791.13 198.37 2250.4
-1765.84 196.20 2225.9
-1780.23 198.45 2251.3
-1808.11 202.22 2294.1
-1835.24 205.93 2336.2
-1869.61 210.49 2387.9
-1853.47 209.36 2375.1
-1801.86 204.21 2316.7
-1806.65 205.44 2330.6
-1852.26 211.33 2397.5
-1861.13 213.06 2417.1
-1863.86 214.09 2428.8
-1885.94 217.36 2465.9
-1880.68 217.49 2467.4
-1867.56 216.71 2458.5
-1872.53 218.03 2473.5
-1882.25 219.92 2494.9
-1892.89 195.20 2281.6
-1864.56 192.89 2254.5
-1850.92 192.08 2245.1
-1841.74 191.73 2241.0
-1849.00 193.09 2256.9
-1875.15 196.44 2296.1
-1896.76 199.34 2330.0
-1880.53 198.27 2317.4
-1859.95 196.73 2299.4
-1848.19 196.11 2292.2
-1829.57 194.76 2276.4
-1815.36 193.87 2266.1
-1784.99 191.25 2235.4
-1794.09 194.11 2268.9
-1825.04 198.11 2315.6
-1855.22 202.05 2361.7
-1864.94 203.79 2381.9
-1823.66 199.94 2336.9
-1810.68 199.18 2328.0
-1851.53 204.35 2388.5
-1868.99 206.97 2419.1
-1849.83 205.54 2402.4
-1854.40 206.74 2416.5
-1879.54 210.25 2457.5
-1882.15 211.26 2469.3
-1877.48 211.46 2471.6
-1887.25 213.28 2492.9
-1904.15 215.93 2523.9
-1916.15 218.04 2548.6
-1852.08 185.79 2239.4
-1863.86 187.56 2260.7
-1844.51 186.20 2244.3
-1841.65 186.50 2247.9
-1843.83 187.31 2257.8
-1837.15 187.23 2256.7
-1855.00 189.65 2285.9
-1868.35 191.63 2309.8
-1863.46 191.74 2311.1
-1850.44 191.01 2302.4
-1821.21 188.60 2273.4
-1778.38 184.77 2227.1
-1777.94 185.32 2233.8
-1820.90 190.42 2295.2
-1850.65 194.17 2340.4
-1866.67 196.49 2368.4
-1854.23 195.83 2360.4
-1820.90 192.94 2325.7
-1796.28 190.97 2301.8
-1799.90 191.99 2314.2
-1834.05 196.29 2366.0
-1845.45 198.17 2388.7
-1843.99 198.68 2394.8
-1866.81 201.82 2432.6
-1877.98 203.71 2455.5
-1867.89 203.31 2450.6
-1888.00 206.20 2485.4
-1925.45 211.01 2543.4
-1913.43 210.41 2536.2
-1896.03 209.22 2521.8
-1896.02 209.94 2530.5
-1883.45 209.27 2522.5
-1829.64 177.25 2205.4
-1858.04 180.56 2246.6
-1860.28 181.35 2256.4
-1831.43 179.10 2228.4
-1824.81 179.02 2227.4
-1820.07 179.12 2228.7
-1821.00 179.78 2236.9
-1846.43 182.87 2275.4
-1834.07 182.23 2267.4
-1807.32 180.15 2241.5
-1813.16 181.32 2256.0
-1801.48 180.73 2248.7
-1777.36 178.89 2225.8
-1795.58 181.31 2256.0
-1821.13 184.49 2295.5
-1829.23 185.92 2313.3
-1839.11 187.54 2333.5
-1821.18 186.33 2318.3
-1806.38 185.42 2307.1
-1797.13 185.09 2302.9
-1791.56 185.13 2303.4
-1816.56 188.34 2343.4
-1844.48 191.88 2387.4
-1860.68 194.21 2416.5
-1837.29 192.42 2394.1
-1798.20 188.96 2351.2
-1811.28 190.98 2376.3
-1858.07 196.59 2446.0
-1902.82 202.01 2513.5
-1899.26 202.33 2517.4
-1859.10 198.73 2472.7
-1839.43 197.31 2455.0
-1844.30 198.52 2470.0
-1903.16 178.42 2294.0
-1870.35 175.90 2261.5
-1847.81 174.32 2241.3
-1820.25 172.26 2214.8
-1814.28 172.24 2214.5
-1821.56 173.48 2230.5
-1836.35 175.45 2255.8
-1860.49 178.32 2292.7
-1848.11 177.70 2284.7
-1833.86 176.90 2274.4
-1854.03 179.42 2306.9
-1853.50 179.95 2313.7
-1838.62 179.09 2302.5
-1808.23 176.70 2271.9
-1786.00 175.10 2251.3
-1771.88 174.28 2240.8
-1759.64 173.65 2232.6
-1780.10 176.25 2266.0
-1802.30 179.04 2301.9
-1794.28 178.83 2299.3
-1790.56 179.06 2302.2
-1797.22 180.32 2318.4
-1803.83 181.59 2334.8
-1831.08 184.96 2378.0
-1818.08 184.26 2369.1
-1793.58 182.40 2345.1
-1824.22 186.14 2393.3
-1864.95 190.95 2455.1
-1903.67 195.58 2514.6
-1903.72 196.26 2523.3
-1866.54 193.09 2482.6
-1862.41 193.33 2485.7
-1884.54 196.31 2523.9
-1869.60 195.43 2512.7
-1909.75 173.07 2301.9
-1890.30 171.85 2285.6
-1874.06 170.91 2273.1
-1856.59 169.85 2259.0
-1856.25 170.35 2265.8
-1870.40 172.20 2290.3
-1856.74 171.48 2280.8
-1848.76 171.29 2278.3
-1841.42 171.16 2276.5
-1833.45 170.96 2273.9
-1881.77 176.04 2341.4
-1866.89 176.35 2345.6
-1815.38 172.05 2288.3
-1775.81 168.85 2245.8
-1750.59 167.00 2221.1
-1758.74 168.33 2238.8
-1795.13 172.38 2292.7
-1803.10 173.72 2310.6
-1787.72 172.81 2298.5
-1781.55 172.79 2298.2
-1760.72 171.35 2279.0
-1756.40 171.50 2281.0
-1815.87 177.91 2366.2
-1866.57 183.49 2440.6
-1877.69 185.21 2463.4
-1899.60 188.02 2500.7
-1920.78 190.76 2537.2
-1899.75 189.32 2518.1
-1899.77 189.98 2526.8
-1888.22 191.46 2546.6
-1885.42 165.49 2279.7
-1862.84 164.02 2259.5
-1856.17 163.95 2258.5
-1871.01 165.79 2283.8
-1894.61 168.41 2319.9
-1887.21 168.29 2318.2
-1855.27 165.97 2286.3
-1824.05 163.70 2255.0
-1804.21 162.44 2237.7
-1840.71 166.26 2290.3
-1860.81 168.62 2322.8
-1838.44 167.13 2302.3
-1852.81 168.99 2327.9
-1843.51 168.69 2323.8
-1824.32 167.48 2307.1
-1820.63 167.69 2310.0
-1768.19 163.40 2250.9
-1744.26 161.72 2227.8
-1791.65 166.66 2295.9
-1817.35 169.62 2336.6
-1833.75 171.72 2365.6
-1834.79 172.40 2374.8
-1796.81 169.40 2333.5
-1820.95 172.25 2372.9
-1861.95 176.73 2434.5
-1861.58 177.29 2442.3
-1865.41 178.26 2455.7
-1867.99 179.12 2467.5
-1866.31 179.58 2473.8
-1884.40 181.94 2506.4
-1875.75 158.27 2260.9
-1884.99 159.54 2279.2
-1837.00 155.97 2228.2
-1805.02 153.74 2196.3
-1837.68 157.02 2243.1
-1879.66 161.11 2301.6
-1879.22 161.59 2308.4
-1851.70 159.73 2281.9
-1805.42 156.24 2232.0
-1774.95 154.10 2201.4
-1789.00 155.82 2225.9
-1787.97 156.23 2231.9
-1786.31 156.59 2237.0
-1820.68 160.13 2287.5
-1817.66 160.38 2291.2
-1804.09 159.71 2281.5
-1833.19 162.82 2326.0
-1812.19 161.48 2306.9
-1756.77 157.06 2243.7
-1775.27 159.24 2274.9
-1815.11 163.36 2333.7
-1848.64 166.93 2384.8
-1866.13 169.08 2415.4
-1849.40 168.13 2401.8
-1850.95 168.84 2412.0
-1867.02 170.88 2441.1
-1852.11 170.09 2429.9
-1842.68 169.80 2425.8
-1875.44 173.41 2477.3
-1904.41 176.70 2524.3
-1878.03 174.85 2497.9
-1894.23 176.97 2528.1
-1893.46 154.33 2289.5
-1835.29 150.06 2226.1
-1796.34 147.33 2185.7
-1823.32 150.02 2225.6
-1845.75 152.35 2260.1
-1828.98 151.44 2246.7
-1815.40 150.80 2237.1
-1783.63 148.64 2205.0
-1764.79 148.01 2195.8
-1783.80 150.09 2226.7
-1802.70 152.18 2257.6
-1809.69 153.26 2273.7
-1780.00 151.24 2243.7
-1745.44 148.79 2207.4
-1751.18 149.77 2221.9
-1812.39 155.52 2307.1
-1840.69 158.47 2350.9
-1793.89 154.95 2298.8
-1770.56 153.45 2276.4
-1804.80 156.94 2328.2
-1825.43 159.27 2362.7
-1811.23 158.56 2352.2
-1817.11 159.61 2367.9
-1866.62 164.52 2440.6
-1885.61 166.76 2473.8
-1846.51 163.85 2430.8
-1848.53 164.59 2441.8
-1901.62 169.90 2520.6
-1901.04 170.44 2528.5
-1873.49 168.55 2500.5
-1893.22 170.92 2535.6
-1865.93 145.78 2249.1
-1813.88 142.60 2200.1
-1847.25 145.68 2247.7
-1833.00 145.02 2237.4
-1817.51 144.25 2225.5
-1835.48 146.14 2254.7
-1857.75 148.38 2289.3
-1853.53 148.52 2291.5
-1846.79 148.46 2290.5
-1818.16 146.63 2262.2
-1793.97 145.14 2239.4
-1781.70 144.62 2231.3
-1757.01 143.08 2207.5
-1780.18 145.44 2243.9
-1797.66 147.35 2273.4
-1769.29 145.50 2244.9
-1791.60 147.82 2280.7
-1851.35 153.26 2364.5
-1837.71 152.63 2354.9
-1770.13 147.51 2275.9
-1757.26 146.93 2266.9
-1784.11 149.67 2309.3
-1777.91 149.66 2309.0
-1772.32 149.69 2309.5
-1804.94 152.96 2360.0
-1856.76 157.89 2436.0
-1850.33 157.88 2435.8
-1819.79 155.80 2403.8
-1838.07 157.91 2436.3
-1874.84 161.62 2493.6
-1886.87 163.22 2518.3
-1873.11 162.60 2508.6
-1885.02 164.20 2533.4
-1820.83 136.56 2194.8
-1836.29 138.59 2227.3
-1865.19 141.21 2269.5
-1843.31 140.00 2250.0
-1841.07 140.27 2254.4
-1871.60 143.05 2299.1
-1865.79 143.98 2314.0
-1815.21 140.53 2258.6
-1781.66 138.38 2224.0
-1758.20 137.00 2201.8
-1769.63 138.34 2223.4
-1829.40 143.48 2306.0
-1834.40 144.35 2319.8
-1792.97 141.55 2274.9
-1784.38 141.34 2271.5
-1810.90 143.91 2312.9
-1827.45 145.71 2341.8
-1789.94 143.19 2301.3
-1759.28 141.21 2269.5
-1765.36 142.18 2285.0
-1787.23 144.42 2321.1
-1810.81 146.82 2359.6
-1782.07 144.98 2330.1
-1767.34 144.27 2318.7
-1814.88 148.66 2389.2
-1842.29 151.42 2433.6
-1835.86 151.41 2433.4
-1845.63 152.74 2454.8
-1891.86 157.11 2525.0
-1847.79 132.81 2227.2
-1877.47 135.37 2270.1
-1875.86 135.68 2275.3
-1860.92 135.02 2264.3
-1842.22 134.09 2248.6
-1841.24 134.44 2254.6
-1815.02 132.95 2229.6
-1786.36 131.27 2201.4
-1791.70 132.08 2215.0
-1771.91 131.04 2197.6
-1780.34 132.09 2215.2
-1804.94 134.35 2253.0
-1781.43 133.03 2230.9
-1792.81 134.32 2252.5
-1816.54 136.54 2289.8
-1787.49 134.79 2260.5
-1756.66 132.91 2228.8
-1756.79 133.35 2236.4
-1768.59 134.69 2258.8
-1771.70 135.38 2270.3
-1761.29 135.03 2264.5
-1755.17 135.01 2264.2
-1751.49 135.18 2267.0
-1763.64 136.58 2290.4
-1799.43 139.82 2344.8
-1784.06 139.10 2332.7
-1756.01 137.38 2303.8
-1789.69 140.49 2356.0
-1831.62 144.27 2419.5
-1842.06 145.59 2441.6
-1831.41 145.25 2435.9
-1856.11 147.72 2477.3
-1853.70 127.44 2234.4
-1855.99 128.00 2244.1
-1834.09 126.89 2224.6
-1828.11 126.87 2224.4
-1816.42 126.46 2217.2
-1782.01 124.46 2182.1
-1757.97 124.76 2187.3
-1816.35 129.32 2267.3
-1827.72 130.55 2288.9
-1813.51 129.96 2278.5
-1812.99 130.35 2285.3
-1802.52 130.02 2279.5
-1788.36 129.42 2269.1
-1766.21 128.24 2248.4
-1755.82 127.91 2242.5
-1763.27 128.88 2259.5
-1757.16 128.86 2259.2
-1759.62 129.47 2269.9
-1764.48 130.26 2283.8
-1767.47 130.92 2295.4
-1794.74 133.39 2338.7
-1816.40 135.46 2375.0
-1825.22 136.58 2394.6
-1811.61 136.03 2384.9
-1803.46 135.88 2382.3
-1826.59 138.09 2421.1
-1830.99 138.90 2435.3
-1866.47 142.08 2491.1
-1862.85 123.02 2259.5
-1832.07 121.37 2229.2
-1798.85 119.54 2195.7
-1762.51 119.40 2193.0
-1810.26 123.03 2259.7
-1832.25 124.93 2294.6
-1826.74 124.96 2295.1
-1833.02 125.80 2310.5
-1831.19 126.08 2315.8
-1810.79 125.09 2297.5
-1781.80 123.49 2268.2
-1775.68 123.47 2267.9
-1788.01 124.74 2291.2
-1757.32 123.01 2259.4
-1735.29 121.88 2238.6
-1769.53 124.70 2290.4
-1804.20 127.57 2343.1
-1838.08 130.40 2395.2
-1865.12 132.77 2438.7
-1835.08 131.08 2407.5
-1784.58 127.91 2349.3
-1806.04 129.89 2385.7
-1860.46 134.26 2466.0
-1867.18 135.21 2483.4
-1883.98 137.85 2532.0
-1883.98 118.49 2285.1
-1854.43 117.00 2256.4
-1821.80 115.30 2223.7
-1794.32 113.93 2197.1
-1787.11 113.83 2195.3
-1774.23 113.37 2186.4
-1775.83 113.84 2195.4
-1784.92 114.79 2213.7
-1805.22 116.47 2246.1
-1799.17 116.45 2245.8
-1768.81 114.86 2215.1
-1774.00 115.57 2228.8
-1790.94 117.06 2257.5
-1810.89 118.75 2290.1
-1812.79 119.26 2300.1
-1786.89 117.95 2274.7
-1782.00 118.01 2276.0
-1783.86 118.53 2285.9
-1745.20 116.35 2243.8
-1746.46 116.82 2253.0
-1806.33 121.23 2338.0
-1779.36 119.82 2310.9
-1749.43 118.20 2279.7
-1819.76 123.37 2379.3
-1835.84 124.89 2408.5
-1809.52 123.52 2382.1
-1857.45 127.22 2453.6
-1894.32 130.19 2510.9
-1880.55 129.69 2501.2
-1863.22 128.94 2486.7
-1824.40 126.69 2443.4
-1800.64 125.48 2420.0
-1858.35 110.69 2247.0
-1856.15 110.90 2251.4
-1878.68 112.60 2285.9
-1876.40 112.82 2290.4
-1879.16 113.35 2301.0
-1865.48 112.88 2291.5
-1842.37 111.84 2270.4
-1858.92 113.20 2298.1
-1864.29 114.63 2327.1
-1783.91 110.05 2234.0
-1741.78 107.80 2188.4
-1768.73 109.82 2229.5
-1796.78 111.93 2272.3
-1817.89 113.62 2306.5
-1812.96 113.68 2307.9
-1790.15 112.63 2286.4
-1775.40 112.07 2275.1
-1753.93 111.08 2255.1
-1773.54 112.70 2287.9
-1816.87 115.84 2351.6
-1774.02 113.49 2303.9
-1776.81 114.44 2323.2
-1846.29 119.32 2422.2
-1862.09 122.00 2476.7
-1816.64 119.43 2424.6
-1825.16 120.41 2444.4
-1850.90 122.53 2487.5
-1826.64 103.07 2208.7
-1875.36 106.15 2274.7
-1878.82 106.68 2286.1
-1855.64 105.70 2265.0
-1885.62 107.75 2308.9
-1849.44 106.36 2279.1
-1838.32 106.06 2272.7
-1777.19 103.86 2225.6
-1751.87 102.72 2201.0
-1794.95 105.59 2262.5
-1814.90 107.11 2295.2
-1826.69 108.16 2317.7
-1836.55 109.10 2337.9
-1828.48 108.98 2335.3
-1787.83 106.91 2291.0
-1741.80 104.51 2239.5
-1743.68 104.97 2249.4
-1767.52 106.76 2287.8
-1770.50 107.30 2299.4
-1771.01 107.70 2307.8
-1781.20 108.68 2328.9
-1808.27 110.71 2372.4
-1838.22 112.93 2419.9
-1861.98 114.78 2459.6
-1840.02 114.21 2447.3
-1802.40 112.26 2405.6
-1815.74 113.48 2431.8
-1858.21 116.54 2497.3
-1790.46 95.42 2164.9
-1841.16 98.43 2233.2
-1844.05 98.89 2243.8
-1805.10 97.11 2203.3
-1819.37 98.19 2227.8
-1861.96 100.81 2287.2
-1842.64 100.08 2270.7
-1807.03 98.46 2234.0
-1827.98 99.92 2267.1
-1818.78 99.74 2263.0
-1747.72 96.15 2181.6
-1753.62 96.79 2196.1
-1826.06 101.12 2294.3
-1819.30 101.07 2293.2
-1788.37 99.68 2261.6
-1815.69 101.54 2303.7
-1839.77 103.22 2342.0
-1837.86 103.46 2347.3
-1803.33 101.85 2310.9
-1762.17 99.86 2265.6
-1769.52 100.61 2282.7
-1778.04 101.43 2301.4
-1768.19 101.21 2296.4
-1778.44 102.14 2317.5
-1800.76 103.77 2354.5
-1803.56 104.29 2366.2
-1808.13 104.91 2380.3
-1822.30 106.09 2407.2
-1826.15 106.68 2420.5
-1861.18 109.10 2475.5
-1882.84 111.14 2521.7
-1823.07 91.44 2204.3
-1873.71 94.27 2272.7
-1843.54 93.05 2243.2
-1777.98 90.02 2170.2
-1782.83 90.56 2183.1
-1814.13 92.44 2228.5
-1816.31 92.85 2238.3
-1803.38 92.48 2229.4
-1809.91 93.11 2244.7
-1789.47 92.36 2226.5
-1758.46 91.05 2195.0
-1805.50 93.79 2261.1
-1806.89 94.17 2270.2
-1765.56 92.62 2232.8
-1847.93 97.58 2352.4
-1811.49 95.97 2313.6
-1818.21 96.65 2329.9
-1817.52 96.93 2336.8
-1798.43 96.24 2320.0
-1781.83 95.67 2306.3
-1778.68 95.82 2310.0
-1795.60 97.06 2339.8
-1805.13 97.91 2360.2
-1793.99 97.63 2353.6
-1804.03 98.51 2374.9
-1824.24 99.96 2409.7
-1831.10 100.68 2427.1
-1867.92 103.06 2484.4
-1836.67 86.91 2234.8
-1777.46 84.37 2169.6
-1789.26 85.20 2190.9
-1810.46 86.49 2223.9
-1802.57 86.39 2221.3
-1783.37 85.74 2204.7
-1785.56 86.12 2214.5
-1822.77 88.20 2268.0
-1849.19 89.77 2308.3
-1854.26 90.31 2322.1
-1812.61 88.56 2277.4
-1745.62 85.57 2200.4
-1793.57 88.21 2268.2
-1844.34 91.30 2347.8
-1808.52 89.83 2309.8
-1815.87 90.49 2326.9
-1817.02 90.85 2336.2
-1799.15 90.26 2320.9
-1785.00 89.85 2310.4
-1784.29 90.12 2317.3
-1786.59 90.54 2328.1
-1779.75 90.50 2327.0
-1792.90 91.47 2352.2
-1828.33 93.60 2406.9
-1837.03 94.37 2426.6
-1833.02 94.49 2429.6
-1819.99 94.14 2420.7
-1826.76 94.81 2438.1
-1851.40 96.43 2479.6
-1869.34 97.70 2512.3
-1844.68 81.21 2237.5
-1820.91 80.42 2215.6
-1809.24 80.16 2208.4
-1802.01 80.09 2206.5
-1804.25 80.44 2216.3
-1805.20 80.74 2224.6
-1794.79 80.54 2218.8
-1776.25 79.96 2203.0
-1794.70 81.05 2233.0
-1819.30 82.43 2271.0
-1824.43 82.93 2284.8
-1835.13 83.69 2305.6
-1816.55 83.11 2289.8
-1804.21 82.82 2281.7
-1825.32 84.06 2316.0
-1825.31 84.34 2323.6
-1816.65 84.22 2320.2
-1805.53 83.98 2313.7
-1788.29 83.45 2299.2
-1783.34 83.50 2300.5
-1782.05 83.72 2306.6
-1775.25 83.68 2305.5
-1774.53 83.93 2312.4
-1774.39 84.21 2320.0
-1793.61 85.41 2353.1
-1841.75 88.00 2424.5
-1864.90 89.41 2463.4
-1840.36 88.54 2439.4
-1810.49 87.40 2408.0
-1813.69 87.86 2420.6
-1835.97 89.25 2458.9
-1831.27 89.33 2461.1
-1863.52 75.94 2253.3
-1844.15 75.39 2236.8
-1845.76 75.69 2245.9
-1830.24 75.29 2234.0
-1818.55 75.05 2226.8
-1822.02 75.43 2238.2
-1824.82 75.79 2248.8
-1809.98 75.42 2237.6
-1787.02 74.70 2216.3
-1767.87 74.14 2199.7
-1756.90 73.91 2193.1
-1774.01 74.88 2221.6
-1799.12 76.18 2260.4
-1792.42 76.15 2259.4
-1790.67 76.32 2264.6
-1774.06 75.86 2250.9
-1736.49 74.50 2210.5
-1742.80 75.02 2225.9
-1747.82 75.49 2239.7
-1750.95 75.87 2251.2
-1768.74 76.90 2281.7
-1777.87 77.56 2301.2
-1781.45 77.98 2313.6
-1795.93 78.88 2340.3
-1811.54 79.83 2368.6
-1796.14 79.42 2356.5
-1806.17 80.14 2377.7
-1810.10 80.59 2391.0
-1770.63 79.10 2346.9
-1793.18 80.38 2385.0
-1850.96 83.26 2470.4
-1869.63 70.11 2253.6
-1866.80 70.22 2257.2
-1877.94 70.87 2277.8
-1881.40 71.22 2289.2
-1863.28 70.76 2274.3
-1824.96 69.52 2234.7
-1804.44 68.96 2216.6
-1824.28 69.94 2248.1
-1826.42 70.25 2257.9
-1791.50 69.13 2221.9
-1760.44 68.15 2190.4
-1765.74 68.57 2204.1
-1802.17 70.21 2256.9
-1827.23 71.42 2295.7
-1818.61 71.32 2292.4
-1795.11 70.63 2270.2
-1756.82 69.35 2229.1
-1738.43 68.85 2213.0
-1761.38 69.99 2249.6
-1775.59 70.79 2275.3
-1792.17 71.69 2304.2
-1798.85 72.19 2320.5
-1796.30 72.33 2325.0
-1775.44 71.74 2305.8
-1765.60 71.58 2300.7
-1807.38 73.52 2363.2
-1818.05 74.21 2385.2
-1790.55 73.33 2357.1
-1753.48 72.06 2316.2
-1750.86 72.20 2320.7
-1810.69 74.93 2408.3
-1910.25 79.87 2567.3
-1809.35 62.59 2194.6
-1843.40 63.97 2243.0
-1842.46 64.14 2248.9
-1818.09 63.49 2226.2
-1791.27 62.75 2200.4
-1806.73 63.50 2226.5
-1823.99 64.31 2254.9
-1804.76 63.83 2238.3
-1778.69 63.11 2213.1
-1789.57 63.71 2233.9
-1802.26 64.37 2257.0
-1803.66 64.63 2266.1
-1807.51 64.98 2278.4
-1797.67 64.83 2273.4
-1784.14 64.56 2263.7
-1792.24 65.06 2281.5
-1830.49 66.67 2337.9
-1845.65 67.67 2373.0
-1817.31 66.86 2344.4
-1825.73 67.39 2363.1
-1815.79 67.25 2358.2
-1769.33 65.75 2305.6
-1774.07 66.15 2319.6
-1804.81 67.53 2367.8
-1797.29 67.47 2366.0
-1760.81 66.33 2325.9
-1760.58 66.55 2333.6
-1798.77 68.23 2392.4
-1844.55 70.21 2461.8
-1896.08 72.42 2539.4
-1929.44 73.95 2593.1
-1941.78 74.68 2618.8
-1856.49 58.38 2251.8
-1842.21 58.11 2241.5
-1795.02 56.80 2191.0
-1787.18 56.74 2188.4
-1779.35 56.67 2185.7
-1801.77 57.56 2220.3
-1824.70 58.48 2255.8
-1825.55 58.70 2264.1
-1820.10 58.71 2264.6
-1804.65 58.40 2252.7
-1791.73 58.17 2243.8
-1770.11 57.66 2224.0
-1752.28 57.26 2208.8
-1756.20 57.58 2221.0
-1757.60 57.82 2230.0
-1753.41 57.87 2232.1
-1778.79 58.90 2271.9
-1803.43 59.91 2311.0
-1784.35 59.48 2294.2
-1759.81 58.86 2270.2
-1767.74 59.32 2288.1
-1815.87 61.14 2358.3
-1830.28 61.83 2385.0
-1823.34 61.81 2384.0
-1841.86 62.65 2416.4
-1836.68 62.69 2417.9
-1805.54 61.83 2385.0
-1758.85 60.44 2331.3
-1749.58 60.33 2327.0
-1807.47 62.54 2412.3
-1874.04 65.07 2509.9
-1905.06 66.38 2560.3
-1919.06 67.34 2597.2
-1827.73 51.40 2203.1
-1865.12 52.62 2255.2
-1884.54 53.34 2285.8
-1825.78 51.84 2221.5
-1801.42 51.31 2198.8
-1815.71 51.88 2223.3
-1802.78 51.67 2214.5
-1818.85 52.30 2241.4
-1850.55 53.38 2287.8
-1862.02 53.88 2309.3
-1861.51 54.04 2316.2
-1854.11 54.00 2314.4
-1831.10 53.51 2293.1
-1798.20 52.72 2259.3
-1784.66 52.49 2249.6
-1795.96 53.00 2271.2
-1783.05 52.79 2262.3
-1765.83 52.45 2247.9
-1754.21 52.28 2240.5
-1740.76 52.05 2230.7
-1761.71 52.85 2265.1
-1777.03 53.49 2292.4
-1787.98 54.00 2314.3
-1841.56 55.80 2391.6
-1853.48 56.36 2415.3
-1843.46 56.24 2410.3
-1841.33 56.37 2415.7
-1815.59 55.77 2390.1
-1822.51 56.17 2407.4
-1813.72 56.09 2404.0
-1807.93 56.11 2404.6
-1932.42 60.81 2606.2
-1929.24 60.92 2611.0
-1777.59 44.86 2162.9
-1825.56 46.22 2228.3
-1855.62 47.13 2272.2
-1855.86 47.28 2279.7
-1850.41 47.29 2280.3
-1862.56 47.76 2302.6
-1842.00 47.38 2284.5
-1809.59 46.70 2251.6
-1841.67 47.68 2298.9
-1861.11 48.34 2330.7
-1838.11 47.90 2309.4
-1835.06 47.98 2313.1
-1833.22 48.40 2333.7
-1769.68 46.88 2260.2
-1756.81 46.69 2251.3
-1778.96 47.44 2287.2
-1809.56 48.42 2334.4
-1836.34 49.30 2376.9
-1859.92 50.10 2415.5
-1839.55 49.72 2397.1
-1803.44 48.91 2358.0
-1776.54 48.34 2330.7
-1763.64 48.15 2321.7
-1783.95 48.88 2356.5
-1836.06 50.48 2433.7
-1909.27 53.41 2574.9
-1924.56 54.02 2604.7
-1778.91 39.28 2164.5
-1795.20 39.77 2191.2
-1794.32 39.87 2197.1
-1822.46 40.63 2238.7
-1847.32 41.31 2276.5
-1827.40 41.00 2259.2
-1775.53 39.96 2202.1
-1767.96 40.05 2206.9
-1820.62 41.38 2280.0
-1832.57 41.78 2302.4
-1804.05 41.27 2274.0
-1827.71 41.95 2311.4
-1800.56 41.73 2299.7
-1790.70 41.64 2294.7
-1783.31 41.61 2292.8
-1783.89 41.76 2301.2
-1770.99 41.60 2292.3
-1753.84 41.34 2277.7
-1810.39 42.81 2359.1
-1857.56 44.08 2428.8
-1812.96 43.17 2378.5
-1783.05 42.60 2347.3
-1765.30 42.32 2331.9
-1777.11 42.75 2355.5
-1853.73 44.75 2465.5
-1871.25 45.64 2514.9
-1896.23 46.41 2557.3
-1936.25 47.72 2629.7
-1840.44 34.62 2225.3
-1828.10 34.49 2217.4
-1822.13 34.49 2217.1
-1806.65 34.30 2205.2
-1776.66 33.84 2175.5
-1773.90 33.90 2179.0
-1806.41 34.63 2226.1
-1796.01 34.54 2220.3
-1783.73 34.41 2212.3
-1785.26 34.55 2221.3
-1771.13 34.39 2210.8
-1781.36 34.70 2230.8
-1805.22 35.28 2268.1
-1788.56 35.07 2254.5
-1752.71 34.48 2216.5
-1759.69 34.73 2232.7
-1796.27 35.57 2286.6
-1804.92 35.86 2305.2
-1798.13 35.84 2304.2
-1790.73 35.81 2302.4
-1809.06 36.30 2333.7
-1812.61 36.50 2346.1
-1766.09 35.68 2293.6
-1795.22 36.39 2339.3
-1849.71 37.62 2418.5
-1814.23 37.03 2380.2
-1798.82 36.84 2368.0
-1794.92 36.88 2371.0
-1786.19 36.83 2367.6
-1834.55 37.96 2440.0
-1864.68 38.71 2488.7
-1843.19 38.40 2468.6
-1836.08 38.39 2467.6
-1871.27 39.26 2523.7
-1929.43 40.62 2611.3
-1909.03 40.33 2592.8
-1859.31 29.23 2255.2
-1831.69 28.89 2228.7
-1821.27 28.82 2223.1
-1793.15 28.46 2195.7
-1770.78 28.20 2175.2
-1783.77 28.49 2198.2
-1813.03 29.05 2241.4
-1840.89 29.60 2283.1
-1841.68 29.70 2291.5
-1824.31 29.52 2277.2
-1826.32 29.65 2287.1
-1841.38 29.99 2313.5
-1812.22 29.61 2284.3
-1766.40 28.96 2233.9
-1759.11 28.93 2232.0
-1782.10 29.41 2268.6
-1800.65 29.81 2299.8
-1804.33 29.97 2312.1
-1792.61 29.88 2304.8
-1804.81 30.18 2328.2
-1846.27 30.98 2389.7
-1834.45 30.88 2382.4
-1790.39 30.24 2333.0
-1769.57 29.99 2313.7
-1794.27 30.51 2354.0
-1840.00 31.40 2422.2
-1840.84 31.52 2431.6
-1835.01 31.53 2432.3
-1867.04 32.19 2483.3
-1879.71 32.52 2508.8
-1876.13 32.57 2512.7
-1888.06 32.89 2537.5
-1907.05 33.34 2571.9
-1810.56 22.70 2189.2
-1802.73 22.68 2186.6
-1806.97 22.80 2198.7
-1826.37 23.12 2229.3
-1810.89 23.00 2217.4
-1799.86 22.93 2210.9
-1805.22 23.07 2224.6
-1831.30 23.48 2264.0
-1862.89 23.96 2310.4
-1866.14 24.08 2321.9
-1829.97 23.69 2284.3
-1813.25 23.55 2270.8
-1819.61 23.71 2286.2
-1783.66 23.32 2248.3
-1770.77 23.22 2239.4
-1798.76 23.67 2282.3
-1799.43 23.75 2290.6
-1796.37 23.79 2294.3
-1815.43 24.13 2326.4
-1818.43 24.25 2338.0
-1796.88 24.04 2318.0
-1804.12 24.22 2335.2
-1813.14 24.42 2354.7
-1789.21 24.18 2331.5
-1795.12 24.34 2347.1
-1848.25 25.15 2424.8
-1864.23 25.45 2454.1
-1833.02 25.11 2421.3
-1822.40 25.05 2415.6
-1851.45 25.54 2462.5
-1885.14 26.09 2516.0
-1903.69 26.44 2549.6
-1907.20 26.58 2563.2
-1921.97 26.88 2592.1
-1798.47 16.91 2174.6
-1786.85 16.86 2167.3
-1789.21 16.93 2177.1
-1801.05 17.10 2198.4
-1776.12 16.92 2174.8
-1795.46 17.15 2205.5
-1830.45 17.54 2255.7
-1837.61 17.67 2271.8
-1851.62 17.86 2296.5
-1822.95 17.64 2268.2
-1755.60 17.04 2191.5
-1757.74 17.12 2201.3
-1783.52 17.43 2240.8
-1772.50 17.38 2234.2
-1786.31 17.57 2259.0
-1806.84 17.83 2292.5
-1798.84 17.81 2289.9
-1790.23 17.78 2286.5
-1803.16 17.97 2310.6
-1830.74 18.31 2353.8
-1833.05 18.39 2364.7
-1788.87 18.01 2315.4
-1746.66 17.64 2268.4
-1759.40 17.83 2292.7
-1804.25 18.35 2359.1
-1848.28 18.86 2424.9
-1855.18 19.00 2442.2
-1825.21 18.75 2411.0
-1816.41 18.73 2407.6
-1855.09 19.19 2467.4
-1901.36 19.74 2537.7
-1889.36 19.68 2530.4
-1860.67 19.45 2500.6
-1887.46 19.80 2545.5
-1815.88 11.35 2188.8
-1830.36 11.48 2213.2
-1816.13 11.42 2202.9
-1794.95 11.32 2184.0
-1784.59 11.29 2178.3
-1776.78 11.28 2175.6
-1813.16 11.55 2227.3
-1866.39 11.93 2300.0
-1844.73 11.86 2287.9
-1759.07 11.35 2188.7
-1745.61 11.30 2179.0
-1802.07 11.70 2256.8
-1829.00 11.92 2298.0
-1820.37 11.90 2294.6
-1797.49 11.79 2273.2
-1782.09 11.72 2261.1
-1788.35 11.80 2276.5
-1791.48 11.86 2288.1
-1789.64 11.89 2293.3
-1800.67 12.00 2315.2
-1831.85 12.25 2363.1
-1813.95 12.17 2347.9
-1766.82 11.90 2294.6
-1775.86 12.00 2314.1
-1786.05 12.11 2335.3
-1793.74 12.20 2353.3
-1849.76 12.63 2435.1
-1871.10 12.82 2471.6
-1844.73 12.68 2445.2
-1865.32 12.86 2481.0
-1879.79 13.01 2508.9
-1834.94 12.74 2457.5
-1820.09 12.68 2446.1
-1861.87 13.02 2511.0
-1824.19 5.70 2198.8
-1848.85 5.80 2235.5
-1868.30 5.88 2266.1
-1880.04 5.93 2287.6
-1850.51 5.86 2258.8
-1826.76 5.80 2236.8
-1836.53 5.85 2256.0
-1861.36 5.95 2293.8
-1879.15 6.02 2323.1
-1827.80 5.88 2266.9
-1786.64 5.76 2223.0
-1816.90 5.88 2268.0
-1834.52 5.96 2297.4
-1822.78 5.94 2290.1
-1812.93 5.92 2285.2
-1788.82 5.86 2262.2
-1787.06 5.88 2267.4
-1806.90 5.96 2300.2
-1776.70 5.88 2269.2
-1741.05 5.78 2231.1
-1749.11 5.83 2248.9
-1775.49 5.94 2290.4
-1828.64 6.14 2366.9
-1854.68 6.24 2408.7
-1817.88 6.14 2368.9
-1784.84 6.05 2333.7
-1777.38 6.05 2331.8
-1815.29 6.20 2389.7
-1861.45 6.37 2458.9
-1861.61 6.40 2467.5
-1847.31 6.37 2457.0
-1821.04 6.30 2430.5
-1817.00 6.31 2433.5
-1842.79 6.42 2476.6
-1827.33 6.39 2464.4
-1817.85 6.38 2460.3
-1870.05 6.58 2539.8
-1852.29 -0.00 2232.7
-1872.44 -0.00 2264.0
-1895.02 -0.00 2298.5
-1879.03 -0.00 2293.6
-1819.17 -0.00 2227.6
-1794.23 -0.00 2204.0
-1787.01 -0.00 2202.2
-1771.61 -0.00 2190.2
-1784.39 -0.00 2227.4
-1805.82 -0.00 2261.5
-1807.84 -0.00 2271.4
-1813.55 -0.00 2286.0
-1789.44 -0.00 2263.0
-1787.06 -0.00 2267.4
-1808.76 -0.00 2302.5
-1780.40 -0.00 2273.9
-1745.98 -0.00 2237.4
-1755.26 -0.00 2256.8
-1789.59 -0.00 2308.6
-1850.65 -0.00 2395.4
-1843.70 -0.00 2394.4
-1776.48 -0.00 2314.9
-1770.88 -0.00 2315.4
-1790.12 -0.00 2348.6
-1777.19 -0.00 2339.5
-1769.71 -0.00 2337.7
-1767.06 -0.00 2342.2
-1748.15 -0.00 2325.1
-1797.66 -0.00 2399.3
-1874.44 -0.00 2510.4
-1867.87 -0.00 2510.3
-1815.42 -0.00 2448.4
-1839.81 -0.00 2498.7
-1897.62 -5.93 2287.3
-1897.29 -5.95 2294.1
-1886.12 -5.93 2287.7
-1867.97 -5.89 2272.9
-1870.15 -5.92 2282.7
-1840.67 -5.84 2253.9
-1834.63 -5.84 2253.6
-1846.24 -5.90 2275.1
-1809.34 -5.80 2236.8
-1773.82 -5.70 2200.0
-1764.09 -5.69 2195.0
-1796.26 -5.81 2242.2
-1821.42 -5.91 2281.0
-1826.52 -5.95 2294.8
-1839.65 -6.01 2318.9
-1825.41 -5.98 2308.5
-1777.15 -5.85 2254.8
-1755.01 -5.79 2234.1
-1773.00 -5.87 2264.5
-1784.11 -5.93 2286.2
-1773.06 -5.91 2279.6
-1786.52 -5.97 2304.6
-1835.36 -6.16 2375.6
-1814.41 -6.11 2356.4
-1752.13 -5.92 2283.2
-1749.00 -5.93 2286.8
-1790.72 -6.09 2349.3
-1797.75 -6.14 2366.6
-1784.80 -6.11 2357.6
-1773.68 -6.10 2351.0
-1760.17 -6.07 2341.1
-1812.65 -6.27 2419.3
-1879.22 -6.53 2516.8
-1859.50 -6.48 2499.1
-1845.80 -6.45 2489.3
-1868.96 -6.56 2529.4
-1865.30 -6.57 2533.4
-1897.55 -11.93 2301.6
-1864.15 -11.76 2268.2
-1853.03 -11.73 2261.8
-1857.74 -11.80 2274.8
-1886.39 -12.02 2317.2
-1856.94 -11.87 2288.3
-1779.77 -11.41 2200.3
-1787.62 -11.50 2217.1
-1821.09 -11.75 2265.9
-1851.90 -11.99 2311.7
-1850.83 -12.14 2340.6
-1804.38 -11.87 2289.4
-1766.73 -11.66 2249.0
-1769.29 -11.72 2259.7
-1796.41 -11.94 2302.0
-1802.51 -12.02 2317.5
-1771.19 -11.85 2284.9
-1774.82 -11.91 2297.2
-1804.64 -12.15 2343.7
-1789.86 -12.09 2332.3
-1779.97 -12.07 2327.3
-1814.35 -12.34 2380.3
-1842.50 -12.58 2425.5
-1851.18 -12.68 2445.3
-1855.57 -12.75 2459.5
-1855.11 -12.79 2467.4
-1850.41 -12.81 2469.7
-1853.48 -12.87 2482.3
-1876.80 -13.08 2522.3
-1885.45 -17.79 2286.9
-1846.99 -17.48 2247.4
-1817.52 -17.25 2218.5
-1803.96 -17.18 2208.9
-1826.40 -17.45 2243.5
-1795.17 -17.21 2212.2
-1765.00 -17.03 2189.0
-1811.04 -17.53 2253.4
-1850.00 -17.96 2309.3
-1832.82 -18.03 2317.9
-1802.50 -17.79 2287.0
-1778.45 -17.61 2263.9
-1781.60 -17.70 2275.5
-1808.08 -18.02 2316.9
-1822.14 -18.22 2342.8
-1799.97 -18.06 2322.0
-1771.75 -17.84 2293.3
-1769.24 -17.87 2297.7
-1797.76 -18.22 2342.6
-1829.77 -18.61 2392.4
-1852.52 -18.90 2430.4
-1870.30 -19.15 2462.1
-1851.76 -19.02 2446.1
-1829.05 -18.86 2424.4
-1840.66 -19.04 2448.2
-1848.59 -19.19 2467.2
-1846.88 -19.24 2473.5
-1866.64 -19.51 2508.7
-1878.41 -23.48 2264.2
-1904.24 -23.88 2302.5
-1894.33 -23.83 2297.7
-1849.51 -23.34 2250.4
-1813.70 -22.96 2213.8
-1799.50 -22.85 2203.5
-1823.22 -23.23 2239.6
-1807.74 -23.10 2227.7
-1767.15 -22.66 2184.7
-1795.73 -23.10 2227.1
-1845.47 -23.81 2296.2
-1849.98 -23.95 2309.3
-1841.33 -23.91 2305.9
-1815.25 -23.65 2280.7
-1779.31 -23.26 2242.8
-1786.28 -23.43 2259.0
-1790.10 -23.55 2271.3
-1766.07 -23.31 2248.2
-1768.63 -23.43 2258.9
-1796.36 -23.87 2301.9
-1809.22 -24.12 2326.1
-1825.06 -24.42 2354.4
-1835.91 -24.64 2376.3
-1784.46 -24.03 2317.5
-1763.64 -23.83 2298.2
-1788.43 -24.25 2338.4
-1800.36 -24.49 2362.0
-1840.64 -25.13 2423.1
-1849.92 -25.34 2443.6
-1816.38 -24.97 2407.6
-1817.80 -25.07 2417.8
-1849.77 -25.60 2468.8
-1872.58 -26.01 2507.9
-1866.88 -29.17 2250.3
-1900.38 -29.79 2297.8
-1897.47 -29.83 2301.5
-1861.54 -29.36 2265.0
-1853.59 -29.33 2262.5
-1865.88 -29.62 2284.8
-1856.64 -29.56 2280.7
-1806.45 -28.86 2226.1
-1780.95 -28.54 2201.7
-1824.57 -29.33 2262.9
-1856.09 -29.94 2309.4
-1845.57 -29.86 2303.8
-1834.43 -29.78 2297.3
-1805.88 -29.41 2268.9
-1769.33 -28.91 2230.3
-1775.70 -29.11 2245.6
-1792.54 -29.48 2274.4
-1780.86 -29.39 2267.0
-1735.92 -28.74 2217.1
-1781.56 -29.69 2290.6
-1847.69 -30.90 2383.6
-1859.11 -31.19 2406.3
-1806.39 -30.41 2346.0
-1757.52 -29.69 2290.2
-1752.56 -29.70 2291.5
-1756.68 -29.88 2304.7
-1784.95 -30.46 2349.8
-1819.11 -31.15 2402.9
-1815.74 -31.20 2406.7
-1829.78 -31.55 2433.7
-1874.31 -32.43 2501.6
-1843.86 -34.57 2222.5
-1861.47 -35.01 2250.8
-1844.64 -34.80 2237.4
-1840.54 -34.84 2239.5
-1862.42 -35.36 2273.3
-1877.86 -35.77 2299.4
-1871.12 -35.75 2298.5
-1848.63 -35.44 2278.1
-1850.09 -35.58 2287.2
-1853.40 -35.76 2298.7
-1845.40 -35.72 2296.1
-1826.14 -35.46 2279.5
-1804.44 -35.15 2259.7
-1807.08 -35.32 2270.4
-1802.23 -35.34 2271.7
-1796.13 -35.33 2271.5
-1803.64 -35.60 2288.5
-1780.82 -35.26 2267.0
-1756.35 -35.13 2258.2
-1799.26 -36.11 2321.1
-1786.93 -35.98 2312.9
-1795.37 -36.27 2331.6
-1808.00 -36.65 2356.0
-1814.48 -36.90 2372.4
-1827.56 -37.30 2397.7
-1831.49 -37.50 2411.0
-1839.58 -37.80 2430.0
-1809.07 -37.30 2397.9
-1796.09 -37.16 2388.9
-1837.69 -38.15 2452.7
-1876.08 -41.17 2268.4
-1839.50 -40.49 2231.2
-1817.64 -40.14 2211.6
-1831.32 -40.57 2235.3
-1839.23 -40.87 2252.1
-1840.77 -41.04 2261.2
-1828.42 -40.89 2253.2
-1810.42 -40.62 2238.2
-1792.47 -40.35 2223.1
-1809.02 -40.85 2250.9
-1816.09 -41.14 2267.0
-1781.31 -40.48 2230.8
-1770.30 -40.37 2224.2
-1763.65 -40.35 2223.1
-1757.63 -40.34 2222.8
-1802.97 -41.52 2287.6
-1819.69 -42.04 2316.4
-1797.48 -41.66 2295.7
-1809.77 -42.09 2319.1
-1790.07 -41.77 2301.5
-1755.10 -41.09 2264.1
-1777.10 -41.74 2300.2
-1819.72 -42.89 2363.3
-1858.48 -43.95 2421.8
-1857.21 -44.22 2436.6
-1816.92 -43.41 2391.8
-1828.67 -43.84 2415.6
-1803.60 -43.39 2390.6
-1770.20 -42.73 2354.5
-1791.48 -43.39 2391.0
-1785.11 -43.39 2390.8
-1832.50 -44.85 2471.4
-1899.07 -46.64 2570.2
-1854.61 -46.37 2235.5
-1900.24 -47.65 2297.6
-1847.71 -46.48 2241.2
-1806.16 -45.58 2197.7
-1802.75 -45.64 2200.5
-1810.71 -45.99 2217.2
-1809.78 -46.11 2223.1
-1809.46 -46.25 2229.8
-1802.19 -46.21 2228.0
-1773.59 -45.62 2199.7
-1780.15 -45.94 2214.9
-1824.16 -47.23 2277.0
-1828.67 -47.50 2290.1
-1818.19 -47.38 2284.4
-1813.31 -47.41 2285.7
-1787.96 -46.90 2261.1
-1812.82 -47.71 2300.1
-1838.16 -48.53 2340.0
-1825.77 -48.36 2331.9
-1811.56 -48.15 2321.4
-1764.23 -47.05 2268.3
-1744.02 -46.66 2249.8
-1782.55 -47.85 2307.2
-1811.73 -48.80 2352.9
-1830.42 -49.47 2385.2
-1851.42 -50.21 2420.7
-1810.48 -49.26 2375.3
-1793.88 -48.98 2361.5
-1828.01 -50.08 2414.7
-1813.78 -49.86 2404.1
-1789.97 -49.38 2380.8
-1826.19 -50.55 2437.3
-1834.70 -50.96 2457.2
-1806.13 -50.35 2427.4
-1846.74 -51.66 2490.6
-1906.14 -53.51 2579.7
-1878.17 -52.82 2263.9
-1847.92 -52.14 2234.4
-1866.73 -52.83 2264.2
-1889.89 -53.66 2299.6
-1855.91 -52.86 2265.4
-1834.05 -52.40 2245.8
-1846.96 -52.94 2268.8
-1859.17 -53.46 2291.1
-1863.12 -53.74 2303.3
-1844.44 -53.38 2287.6
-1822.05 -52.90 2267.1
-1837.23 -53.51 2293.3
-1823.62 -53.29 2283.7
-1798.82 -52.73 2260.0
-1836.24 -54.01 2314.6
-1852.40 -54.66 2342.6
-1832.56 -54.25 2325.1
-1812.77 -53.84 2307.6
-1781.33 -53.09 2275.1
-1746.91 -52.23 2238.6
-1760.48 -53.17 2278.7
-1775.68 -53.81 2306.1
-1800.53 -54.75 2346.2
-1826.45 -55.72 2388.1
-1822.54 -55.79 2391.1
-1843.41 -56.62 2426.7
-1856.91 -57.23 2452.9
-1818.53 -56.24 2410.4
-1811.54 -56.22 2409.4
-1864.49 -58.06 2488.5
-1894.45 -59.20 2537.2
-1885.44 -59.13 2533.9
-1898.48 -59.74 2560.4
-1924.49 -60.77 2604.6
-1894.69 -59.21 2283.8
-1851.04 -58.03 2238.2
-1862.21 -58.56 2258.7
-1897.44 -59.86 2308.7
-1877.38 -59.41 2291.6
-1862.44 -59.13 2280.5
-1882.87 -59.96 2312.9
-1891.86 -60.44 2331.4
-1890.72 -60.60 2337.4
-1880.91 -60.87 2347.9
-1794.22 -58.25 2246.9
-1769.49 -57.64 2223.2
-1803.86 -58.95 2273.8
-1827.52 -59.92 2311.1
-1817.63 -59.79 2306.2
-1791.70 -59.13 2280.8
-1753.52 -58.06 2239.6
-1755.45 -58.32 2249.5
-1773.92 -59.13 2280.8
-1748.79 -58.49 2256.0
-1739.01 -58.36 2250.9
-1770.73 -59.62 2299.6
-1813.85 -61.28 2363.6
-1839.13 -62.34 2404.7
-1833.37 -62.36 2405.3
-1843.94 -62.93 2427.4
-1848.99 -63.32 2442.4
-1825.69 -62.74 2419.9
-1833.70 -63.23 2438.9
-1913.42 -66.67 2571.5
-1881.13 -65.77 2537.0
-1900.64 -66.69 2572.3
-1917.66 -67.52 2604.5
-1897.89 -67.06 2586.7
-1885.04 -64.80 2272.1
-1861.15 -64.18 2250.4
-1840.51 -63.67 2232.4
-1845.31 -64.03 2245.3
-1848.79 -64.36 2256.7
-1856.04 -64.81 2272.7
-1838.61 -64.41 2258.5
-1811.14 -63.65 2231.9
-1819.59 -64.15 2249.5
-1852.45 -65.52 2297.5
-1846.45 -65.73 2304.9
-1811.61 -64.70 2268.7
-1836.65 -65.81 2307.6
-1840.44 -66.16 2319.9
-1831.78 -66.06 2316.5
-1828.69 -66.17 2320.2
-1810.77 -65.74 2305.1
-1779.33 -64.81 2272.6
-1789.20 -65.39 2292.8
-1824.78 -66.91 2346.1
-1814.25 -66.74 2340.4
-1765.83 -65.18 2285.6
-1759.06 -65.15 2284.5
-1808.29 -67.20 2356.4
-1842.09 -68.69 2408.5
-1815.72 -67.93 2382.1
-1802.73 -67.68 2373.2
-1838.04 -69.24 2427.9
-1844.27 -69.71 2444.5
-1837.22 -69.69 2443.6
-1901.50 -72.38 2537.8
-1942.57 -74.45 2610.7
-1898.31 -73.01 2560.2
-1905.90 -73.56 2579.4
-1884.64 -70.90 2278.8
-1848.06 -69.74 2241.6
-1882.04 -71.24 2290.0
-1848.36 -70.41 2263.3
-1778.01 -68.38 2198.1
-1795.89 -69.29 2227.3
-1814.30 -70.23 2257.4
-1835.74 -71.29 2291.5
-1865.18 -72.67 2335.8
-1854.62 -72.49 2330.1
-1821.71 -71.44 2296.3
-1840.37 -72.41 2327.4
-1865.74 -73.65 2367.2
-1845.89 -73.10 2349.8
-1814.38 -72.09 2317.3
-1816.18 -72.41 2327.3
-1841.27 -73.65 2367.3
-1831.92 -73.52 2363.2
-1786.52 -71.94 2312.4
-1763.85 -71.27 2290.7
-1794.81 -72.76 2338.8
-1854.75 -75.45 2425.1
-1858.05 -75.84 2437.7
-1790.55 -73.33 2357.1
-1769.17 -72.71 2337.0
-1823.11 -75.18 2416.5
-1867.77 -77.29 2484.2
-1867.24 -77.53 2492.1
-1875.64 -78.42 2520.8
-1913.53 -80.57 2589.7
-1910.96 -80.74 2595.4
-1908.68 -81.22 2610.7
-1846.32 -75.24 2232.5
-1815.53 -74.22 2202.1
-1849.57 -75.85 2250.5
-1877.76 -77.25 2292.0
-1809.70 -74.69 2216.0
-1826.08 -75.84 2250.3
-1858.39 -77.43 2297.5
-1881.76 -78.66 2333.8
-1883.10 -78.97 2343.0
-1890.65 -79.54 2360.0
-1873.81 -79.09 2346.6
-1815.31 -76.87 2280.7
-1794.28 -76.23 2261.7
-1824.16 -77.75 2306.9
-1846.46 -78.96 2342.8
-1821.71 -78.16 2319.0
-1829.69 -78.76 2336.9
-1847.31 -80.05 2375.1
-1790.79 -77.86 2310.1
-1781.54 -77.72 2305.9
-1791.82 -78.43 2327.0
-1818.45 -79.86 2369.6
-1877.12 -82.72 2454.4
-1812.22 -80.41 2385.7
-1785.97 -79.51 2359.2
-1837.46 -82.09 2435.5
-1896.50 -85.02 2522.4
-1910.90 -85.96 2550.4
-1895.89 -85.58 2539.1
-1874.94 -84.93 2519.8
-1897.39 -86.55 2567.9
-1931.00 -88.39 2622.6
-1911.21 -87.79 2604.9
-1895.60 -87.39 2592.8
-1795.06 -79.78 2198.0
-1850.32 -82.50 2272.9
-1883.30 -84.24 2320.8
-1899.15 -85.22 2347.9
-1859.07 -83.69 2305.7
-1800.33 -81.31 2240.0
-1823.67 -82.63 2276.4
-1821.94 -82.82 2281.6
-1784.70 -81.39 2242.3
-1785.48 -81.69 2250.6
-1805.45 -82.87 2283.2
-1817.27 -83.69 2305.8
-1811.11 -83.68 2305.5
-1836.98 -85.16 2346.2
-1851.50 -86.40 2380.5
-1774.16 -83.07 2288.7
-1744.77 -81.97 2258.3
-1795.37 -84.63 2331.7
-1867.03 -88.31 2432.9
-1867.30 -88.62 2441.5
-1809.37 -86.16 2373.8
-1809.09 -86.44 2381.5
-1851.63 -88.78 2445.9
-1852.40 -89.12 2455.3
-1859.15 -89.75 2472.8
-1913.18 -92.68 2553.4
-1933.31 -94.31 2598.3
-1933.72 -94.66 2607.9
-1926.38 -94.63 2607.1
-1916.67 -94.48 2603.1
-1909.32 -94.45 2602.3
-1828.68 -86.26 2218.1
-1891.25 -89.49 2301.2
-1843.97 -87.53 2250.8
-1812.02 -86.29 2218.8
-1835.70 -87.69 2255.0
-1836.58 -88.02 2263.2
-1871.38 -89.97 2313.5
-1852.06 -89.33 2297.0
-1773.93 -85.84 2207.2
-1776.07 -86.22 2217.0
-1798.75 -87.60 2252.6
-1787.71 -87.35 2246.1
-1787.86 -87.64 2253.6
-1805.35 -88.79 2283.1
-1848.72 -91.22 2345.6
-1817.77 -90.29 2321.7
-1773.44 -88.38 2272.6
-1802.29 -90.11 2317.2
-1778.33 -89.21 2294.1
-1772.70 -89.53 2302.2
-1809.71 -91.71 2358.2
-1774.89 -90.25 2320.7
-1752.91 -89.43 2299.7
-1789.64 -91.62 2355.9
-1830.40 -94.03 2417.8
-1831.82 -94.42 2428.0
-1834.41 -94.88 2439.9
-1885.49 -97.86 2516.5
-1912.40 -99.60 2561.3
-1898.58 -99.23 2551.6
-1913.36 -100.35 2580.5
-1922.10 -101.16 2601.3
-1933.14 -102.10 2625.5
-1845.36 -92.56 2231.3
-1861.59 -94.26 2272.3
-1832.77 -93.09 2244.2
-1860.19 -94.79 2285.0
-1842.76 -94.20 2270.9
-1861.83 -95.48 2301.7
-1885.82 -97.02 2338.9
-1847.70 -95.37 2299.0
-1817.82 -94.13 2269.1
-1811.11 -94.08 2268.1
-1816.23 -94.66 2281.9
-1834.34 -95.91 2312.2
-1821.35 -95.55 2303.3
-1834.37 -96.55 2327.4
-1864.60 -98.46 2373.6
-1807.79 -95.78 2308.9
-1752.48 -93.47 2253.2
-1775.16 -94.99 2290.0
-1779.38 -95.54 2303.1
-1765.27 -95.10 2292.6
-1748.14 -94.49 2278.0
-1758.99 -95.40 2299.9
-1784.90 -97.14 2341.7
-1795.56 -98.05 2363.7
-1811.57 -99.26 2393.0
-1825.08 -100.35 2419.1
-1837.89 -101.40 2444.5
-1846.41 -102.22 2464.3
-1826.17 -101.45 2445.8
-1834.61 -102.28 2465.6
-1870.37 -104.64 2522.5
-1837.04 -103.13 2486.2
-1876.72 -106.86 2576.1
-1837.82 -97.63 2215.2
-1880.27 -100.20 2273.5
-1904.34 -102.13 2317.1
-1845.00 -99.26 2252.0
-1844.66 -99.55 2258.8
-1879.63 -101.76 2308.9
-1868.46 -101.48 2302.5
-1852.28 -100.93 2289.9
-1839.27 -100.54 2281.1
-1839.44 -100.87 2288.7
-1849.57 -101.76 2308.8
-1816.60 -100.27 2275.0
-1799.30 -99.64 2260.6
-1836.08 -102.00 2314.4
-1841.68 -102.65 2329.1
-1841.67 -102.99 2336.7
-1858.29 -104.26 2365.6
-1840.94 -103.63 2351.2
-1813.78 -102.44 2324.3
-1807.58 -102.43 2324.0
-1819.73 -103.46 2347.5
-1812.86 -103.42 2346.5
-1787.70 -102.33 2321.7
-1788.78 -102.73 2330.9
-1821.40 -104.96 2381.5
-1819.92 -105.23 2387.6
-1801.48 -104.52 2371.5
-1810.84 -105.43 2392.0
-1817.12 -106.15 2408.6
-1843.76 -108.08 2452.3
-1867.86 -109.87 2492.9
-1896.59 -111.95 2540.1
-1851.76 -110.46 2506.1
-1889.38 -106.28 2277.4
-1858.49 -104.87 2247.2
-1862.01 -105.40 2258.5
-1843.27 -105.33 2257.1
-1810.09 -103.76 2223.5
-1827.40 -105.09 2251.9
-1839.58 -106.13 2274.2
-1817.82 -105.21 2254.5
-1813.01 -105.27 2255.8
-1848.81 -107.70 2307.8
-1842.66 -107.69 2307.6
-1794.19 -105.20 2254.2
-1799.30 -105.84 2268.0
-1824.81 -107.69 2307.7
-1845.25 -109.26 2341.2
-1871.74 -111.19 2382.7
-1866.06 -111.22 2383.3
-1832.71 -109.60 2348.5
-1821.55 -109.29 2342.0
-1828.17 -110.06 2358.4
-1815.79 -109.68 2350.3
-1808.91 -109.63 2349.2
-1827.59 -111.14 2381.5
-1851.62 -112.98 2421.0
-1838.56 -112.56 2412.1
-1830.97 -112.48 2410.3
-1852.93 -114.22 2447.6
-1845.27 -114.14 2445.9
-1856.24 -115.21 2468.9
-1894.68 -118.01 2528.7
-1938.30 -121.14 2595.9
-1896.15 -119.76 2566.2
-1847.99 -117.13 2509.9
-1806.13 -107.58 2183.9
-1805.30 -107.86 2189.7
-1838.71 -110.21 2237.3
-1899.83 -114.23 2319.0
-1891.17 -114.07 2315.7
-1858.54 -112.46 2283.0
-1875.74 -113.86 2311.5
-1873.38 -114.08 2316.0
-1839.00 -112.35 2280.8
-1804.74 -110.61 2245.5
-1810.56 -111.33 2260.1
-1837.53 -113.35 2301.2
-1820.81 -112.69 2287.7
-1840.15 -114.26 2319.5
-1860.57 -116.29 2360.7
-1847.52 -115.85 2351.9
-1820.95 -114.56 2325.7
-1768.02 -111.60 2265.6
-1787.67 -113.22 2298.4
-1824.97 -115.97 2354.2
-1809.54 -115.37 2342.2
-1796.58 -114.93 2333.2
-1817.71 -116.68 2368.6
-1841.15 -118.58 2407.3
-1825.09 -117.95 2394.4
-1814.50 -117.66 2388.7
-1867.26 -121.50 2466.5
-1891.47 -123.50 2507.1
-1879.51 -123.14 2499.8
-1894.53 -124.55 2528.5
-1914.83 -126.33 2564.5
-1933.22 -127.98 2598.1
-1921.13 -127.63 2590.9
-1888.28 -125.89 2555.6
-1871.54 -125.21 2541.8
-1865.49 -125.24 2542.6
-1890.09 -127.35 2585.2
-1825.09 -114.43 2206.8
-1821.05 -114.53 2208.8
-1827.78 -115.32 2224.0
-1865.49 -118.07 2277.0
-1884.70 -119.66 2307.8
-1877.31 -119.57 2306.1
-1868.96 -120.19 2318.0
-1822.12 -117.56 2267.2
-1814.16 -117.42 2264.6
-1824.29 -118.46 2284.6
-1818.18 -118.45 2284.4
-1847.45 -120.75 2328.7
-1869.77 -122.61 2364.6
-1827.64 -120.24 2318.9
-1822.68 -120.31 2320.2
-1801.71 -119.32 2301.1
-1770.34 -117.63 2268.6
-1813.90 -120.93 2332.2
-1836.45 -122.84 2369.0
-1805.11 -121.15 2336.4
-1783.63 -120.11 2316.4
-1794.45 -121.25 2338.3
-1799.73 -122.02 2353.2
-1766.19 -120.15 2317.2
-1766.00 -120.55 2324.8
-1832.13 -125.49 2420.1
-1893.11 -130.11 2509.3
-1917.78 -132.26 2550.7
-1903.36 -131.72 2540.3
-1892.55 -131.43 2534.7
-1914.56 -133.42 2573.1
-1905.50 -133.25 2569.9
-1900.59 -133.37 2572.2
-1910.48 -134.54 2594.7
-1879.37 -123.33 2265.3
-1877.79 -123.62 2270.5
-1863.48 -123.06 2260.3
-1869.50 -123.85 2274.7
-1866.60 -124.05 2278.4
-1842.83 -122.86 2256.5
-1824.17 -122.00 2240.8
-1843.33 -123.67 2271.6
-1847.94 -124.38 2284.5
-1797.31 -121.36 2229.1
-1788.79 -121.18 2225.7
-1818.39 -123.58 2269.8
-1806.06 -123.14 2261.8
-1777.58 -121.59 2233.4
-1775.27 -121.83 2237.7
-1763.64 -121.43 2230.4
-1771.82 -122.40 2248.1
-1818.21 -126.01 2314.6
-1813.87 -126.13 2316.7
-1800.30 -125.60 2307.0
-1806.39 -126.45 2322.5
-1793.44 -125.96 2313.6
-1770.14 -124.74 2291.2
-1754.22 -124.04 2278.2
-1777.26 -126.09 2315.9
-1792.29 -127.59 2343.4
-1781.17 -127.23 2336.8
-1805.13 -129.38 2376.3
-1835.58 -132.01 2424.7
-1855.64 -133.91 2459.6
-1884.59 -136.47 2506.6
-1874.43 -136.20 2501.7
-1841.58 -134.28 2466.4
-1839.25 -134.58 2471.9
-1864.86 -136.93 2515.1
-1895.67 -139.68 2565.6
-1893.88 -130.20 2282.8
-1868.08 -128.83 2258.8
-1839.81 -127.28 2231.6
-1840.79 -127.75 2239.8
-1834.78 -127.74 2239.6
-1840.78 -128.56 2254.0
-1851.14 -129.70 2273.9
-1811.07 -127.30 2231.8
-1798.24 -128.03 2244.7
-1787.83 -127.70 2238.9
-1798.58 -128.89 2259.7
-1834.10 -131.86 2311.9
-1813.68 -130.82 2293.6
-1816.19 -131.43 2304.4
-1850.14 -134.33 2355.2
-1831.57 -133.43 2339.3
-1820.42 -133.05 2332.8
-1830.14 -134.21 2353.0
-1794.51 -132.04 2314.9
-1746.77 -128.96 2260.9
-1761.98 -130.52 2288.3
-1813.59 -134.79 2363.3
-1807.30 -134.78 2363.0
-1774.96 -132.82 2328.7
-1819.47 -136.62 2395.2
-1870.39 -140.92 2470.7
-1854.87 -140.23 2458.6
-1843.59 -139.86 2452.1
-1853.30 -141.08 2473.5
-1842.00 -140.71 2467.0
-1809.86 -138.73 2432.4
-1806.38 -138.95 2436.2
-1841.47 -142.15 2492.2
-1894.14 -146.73 2572.5
-1887.97 -135.70 2275.7
-1823.99 -131.51 2205.4
-1796.00 -130.72 2192.2
-1824.81 -133.24 2234.5
-1855.38 -135.90 2279.1
-1838.60 -135.10 2265.7
-1795.47 -132.36 2219.7
-1784.45 -131.97 2213.1
-1788.47 -132.69 2225.3
-1803.69 -134.26 2251.5
-1834.41 -136.99 2297.3
-1830.24 -138.02 2314.6
-1837.66 -139.03 2331.6
-1843.10 -140.37 2354.0
-1817.18 -138.85 2328.6
-1818.93 -139.45 2338.6
-1775.37 -136.57 2290.2
-1774.00 -137.38 2303.9
-1798.22 -139.73 2343.2
-1763.43 -137.49 2305.7
-1780.02 -139.73 2343.3
-1850.91 -145.79 2444.9
-1858.30 -146.88 2463.1
-1856.62 -147.25 2469.4
-1874.68 -149.20 2502.0
-1846.01 -147.42 2472.3
-1842.48 -148.69 2493.6
-1864.35 -150.99 2532.1
-1875.44 -152.42 2556.1
-1852.72 -138.95 2233.2
-1832.09 -137.84 2215.2
-1819.14 -137.29 2206.5
-1794.79 -135.88 2183.8
-1797.10 -136.49 2193.6
-1816.43 -138.39 2224.2
-1837.55 -140.45 2257.2
-1857.31 -142.41 2288.8
-1849.95 -142.30 2287.0
-1845.72 -142.44 2289.1
-1857.76 -143.83 2311.5
-1834.12 -142.46 2289.5
-1824.88 -142.20 2285.3
-1854.22 -144.96 2329.6
-1834.99 -143.92 2313.0
-1807.14 -142.20 2285.4
-1840.57 -145.31 2335.3
-1865.83 -147.79 2375.2
-1826.91 -145.18 2333.3
-1786.89 -142.48 2289.8
-1772.77 -141.82 2279.3
-1772.74 -142.29 2286.9
-1784.90 -143.75 2310.3
-1771.39 -143.14 2300.5
-1749.39 -141.84 2279.6
-1770.54 -144.04 2315.0
-1799.43 -146.89 2360.8
-1763.53 -144.45 2321.6
-1750.66 -143.89 2312.5
-1794.96 -148.04 2379.2
-1834.23 -151.80 2439.6
-1861.91 -154.62 2485.0
-1844.03 -153.67 2469.7
-1836.92 -153.61 2468.7
-1886.33 -158.29 2544.0
-1886.98 -147.42 2274.5
-1904.48 -149.25 2302.8
-1874.87 -147.40 2274.1
-1841.54 -145.23 2240.7
-1833.63 -145.07 2238.2
-1842.15 -146.20 2255.7
-1862.59 -148.30 2288.0
-1879.78 -150.14 2316.5
-1851.65 -148.37 2289.1
-1826.11 -146.79 2264.8
-1842.56 -148.59 2292.6
-1822.70 -147.47 2275.2
-1791.05 -145.38 2243.0
-1796.81 -146.32 2257.5
-1803.77 -147.37 2273.7
-1802.62 -147.76 2279.7
-1819.99 -149.67 2309.2
-1828.62 -150.88 2327.8
