ply
format ascii 1.0
element vertex 2102
property float x
property float y
property float z
end_header
354.75 -1064.24 2243.1
363.46 -1072.80 2261.2
359.42 -1044.02 2200.5
364.85 -1043.24 2198.9
363.20 -1022.54 2155.2
358.42 -993.80 2094.7
377.67 -1031.56 2174.2
394.97 -1062.93 2240.4
407.65 -1081.16 2278.8
408.82 -1053.72 2220.9
396.96 -1008.93 2126.6
417.82 -1047.41 2207.7
434.14 -1073.61 2262.9
438.62 -1070.23 2255.8
438.16 -1055.03 2223.7
431.85 -1026.34 2163.2
436.02 -1022.97 2156.1
445.24 -1031.39 2173.9
449.03 -1027.16 2165.0
455.38 -1028.83 2168.5
470.62 -1050.28 2213.7
483.21 -1065.39 2245.5
478.00 -1041.36 2194.9
470.20 -1012.31 2133.7
472.16 -1004.71 2117.7
477.03 -1003.42 2114.9
484.11 -1006.73 2121.9
484.69 -996.61 2100.6
494.86 -1006.21 2120.8
520.76 -1047.23 2207.3
530.44 -1055.11 2223.9
530.20 -1043.29 2199.0
527.04 -1026.04 2162.6
526.51 -1014.23 2137.7
535.52 -1020.84 2151.6
537.73 -1014.47 2138.2
543.66 -1015.21 2139.8
559.32 -1033.90 2179.2
562.63 -1029.61 2170.1
550.46 -997.37 2102.2
555.15 -996.01 2099.3
576.48 -1024.23 2158.8
593.12 -1043.67 2199.8
604.71 -1053.93 2221.4
606.77 -1047.53 2207.9
604.62 -1034.06 2179.5
601.59 -1019.36 2148.5
618.20 -1037.90 2187.6
642.23 -1068.44 2252.0
619.27 -1020.96 2151.9
604.95 -988.45 2083.4
628.68 -1018.13 2145.9
638.78 -1025.40 2161.3
626.57 -997.07 2101.6
615.13 -970.42 2045.4
638.04 -997.96 2103.4
671.61 -1041.57 2195.3
667.23 -1026.07 2162.7
635.35 -968.92 2042.2
635.35 -960.90 2025.3
673.18 -1009.77 2128.3
693.50 -1031.79 2174.7
698.98 -1031.56 2174.2
713.45 -1044.49 2201.5
717.57 -1042.18 2196.6
692.01 -997.14 2101.7
696.43 -995.68 2098.6
770.65 -1060.36 2235.0
827.62 -1121.88 2364.6
842.90 -1134.20 2390.6
826.52 -1104.04 2327.0
859.11 -1131.06 2384.0
80.33 -1137.00 2383.5
84.15 -1105.94 2318.3
86.99 -1067.12 2237.0
94.62 -1088.11 2281.0
105.57 -1142.65 2395.3
115.21 -1115.76 2338.9
118.46 -1089.84 2284.6
119.85 -1050.15 2201.4
121.18 -1013.48 2124.5
126.13 -1009.06 2115.3
131.60 -1008.93 2115.0
137.12 -1009.22 2115.6
144.83 -1024.98 2148.6
150.07 -1022.68 2143.8
155.86 -1024.25 2147.1
168.58 -1069.63 2242.2
176.75 -1084.06 2272.5
177.47 -1053.39 2208.2
180.25 -1036.46 2172.7
185.32 -1033.27 2166.0
190.66 -1031.80 2162.9
197.78 -1039.76 2179.6
206.08 -1053.29 2208.0
210.98 -1049.22 2199.4
214.69 -1039.57 2179.2
219.66 -1036.35 2172.5
226.27 -1040.84 2181.9
228.82 -1026.90 2152.7
227.79 -997.96 2092.0
235.97 -1009.72 2116.7
247.34 -1034.33 2168.2
253.53 -1036.65 2173.1
258.56 -1034.25 2168.1
263.57 -1031.85 2163.0
268.10 -1027.73 2154.4
268.72 -1009.07 2115.3
286.15 -1012.52 2122.5
298.09 -1034.88 2169.4
307.14 -1046.54 2193.8
320.90 -1073.56 2250.5
325.86 -1070.68 2244.4
316.90 -1022.98 2144.5
320.75 -1017.55 2133.1
327.82 -1022.35 2143.1
325.48 -998.14 2092.4
335.04 -1010.61 2118.5
343.43 -1019.22 2136.6
347.83 -1015.90 2129.6
361.68 -1039.82 2179.8
373.52 -1057.34 2216.5
382.49 -1066.33 2235.3
388.46 -1066.80 2236.3
391.60 -1059.62 2221.2
393.39 -1049.03 2199.0
396.51 -1042.27 2184.9
406.78 -1054.19 2209.9
419.50 -1072.05 2247.3
424.82 -1070.78 2244.7
425.52 -1058.06 2218.0
433.35 -1063.16 2228.7
437.03 -1058.07 2218.0
429.30 -1025.86 2150.5
433.08 -1021.62 2141.6
442.27 -1030.09 2159.4
445.29 -1024.16 2146.9
444.14 -1008.91 2115.0
451.69 -1013.55 2124.7
475.50 -1054.11 2209.7
482.36 -1056.60 2214.9
470.72 -1018.97 2136.0
469.93 -1005.43 2107.7
479.17 -1013.41 2124.4
489.90 -1024.33 2147.3
495.44 -1024.28 2147.2
510.25 -1043.18 2186.8
534.63 -1081.00 2266.1
529.48 -1047.57 2196.0
514.72 -1007.53 2112.1
522.10 -1011.23 2119.8
539.17 -1033.42 2166.3
540.53 -1025.34 2149.4
545.16 -1023.56 2145.7
565.11 -1050.30 2201.7
572.57 -1053.53 2208.5
563.73 -1027.00 2152.9
571.34 -1030.65 2160.5
591.16 -1056.05 2213.8
604.86 -1070.13 2243.3
612.01 -1072.48 2248.2
609.80 -1058.52 2219.0
604.53 -1039.57 2179.2
598.33 -1019.37 2136.9
597.84 -1009.21 2115.6
603.99 -1010.31 2117.9
619.44 -1026.82 2152.5
644.44 -1058.72 2219.4
649.31 -1057.28 2216.3
637.92 -1029.62 2158.4
659.77 -1055.63 2212.9
670.98 -1055.21 2212.0
663.53 -1034.66 2168.9
673.04 -1040.67 2181.5
656.66 -1006.88 2110.7
639.12 -971.88 2037.3
658.55 -993.22 2082.1
695.90 -1041.02 2182.3
704.08 -1036.41 2172.6
673.92 -984.13 2063.0
697.51 -1002.67 2101.9
736.03 -1049.84 2200.8
747.66 -1058.22 2218.3
753.50 -1058.35 2218.6
752.56 -1049.02 2199.0
765.34 -1050.91 2203.0
836.15 -1123.00 2354.1
78.73 -1120.42 2336.0
85.73 -1132.87 2362.0
91.67 -1130.62 2357.3
94.22 -1089.47 2271.5
100.06 -1088.94 2270.4
108.29 -1113.03 2320.6
113.41 -1104.28 2302.4
117.59 -1087.75 2267.9
119.64 -1053.93 2197.4
122.24 -1027.90 2143.1
128.69 -1035.11 2158.1
136.34 -1050.95 2191.2
143.81 -1064.20 2218.8
148.57 -1057.14 2204.1
150.80 -1033.25 2154.3
155.05 -1024.47 2136.0
166.11 -1059.69 2209.4
176.50 -1088.42 2269.3
179.61 -1071.85 2234.7
182.24 -1053.56 2196.6
187.28 -1049.92 2189.0
191.73 -1043.26 2175.1
197.66 -1044.79 2178.3
205.28 -1054.93 2199.5
209.57 -1047.83 2184.7
218.81 -1065.28 2221.0
229.02 -1059.23 2208.4
224.01 -1010.78 2107.4
221.12 -973.97 2030.7
227.43 -978.48 2040.1
247.91 -1042.35 2173.2
263.42 -1082.96 2257.9
262.15 -1054.31 2198.2
260.69 -1026.11 2139.4
265.27 -1022.41 2131.7
265.38 -1001.94 2089.0
268.17 -992.23 2068.7
281.03 -1019.44 2125.5
285.74 -1016.58 2119.5
285.25 -995.69 2076.0
294.06 -1007.42 2100.4
308.47 -1037.58 2163.3
325.93 -1076.72 2244.9
330.32 -1072.11 2235.3
327.95 -1046.06 2181.0
328.59 -1030.31 2148.1
326.83 -1007.71 2101.0
337.39 -1023.23 2133.4
343.38 -1024.60 2136.2
345.31 -1013.99 2114.1
363.84 -1051.71 2192.8
380.06 -1081.71 2255.3
384.55 -1077.91 2247.4
386.22 -1066.42 2223.4
389.17 -1058.77 2207.5
390.29 -1046.43 2181.8
392.73 -1037.94 2164.0
402.29 -1048.21 2185.5
413.77 -1063.17 2216.6
417.68 -1058.50 2206.9
423.40 -1058.51 2206.9
437.59 -1079.39 2250.5
447.45 -1089.18 2270.9
446.06 -1071.71 2234.5
446.29 -1058.51 2206.9
453.46 -1061.90 2214.0
454.04 -1049.97 2189.1
450.22 -1028.28 2143.9
454.08 -1024.44 2135.9
473.51 -1055.41 2200.5
483.05 -1063.86 2218.1
474.75 -1033.27 2154.3
472.23 -1015.85 2118.0
479.90 -1020.47 2127.6
491.03 -1032.29 2152.3
495.98 -1030.96 2149.5
504.81 -1037.67 2163.5
522.25 -1061.72 2213.6
528.79 -1063.32 2217.0
514.95 -1024.35 2135.7
518.73 -1020.90 2128.5
545.02 -1061.35 2212.8
557.05 -1073.48 2238.1
553.94 -1056.49 2202.7
554.46 -1046.68 2182.3
569.53 -1064.27 2218.9
580.90 -1074.67 2240.6
577.21 -1057.27 2204.3
568.24 -1030.63 2148.8
569.53 -1022.94 2132.8
582.78 -1036.68 2161.4
589.02 -1037.80 2163.8
599.60 -1046.47 2181.8
606.63 -1048.84 2186.8
588.70 -1008.42 2102.5
577.28 -979.79 2042.8
591.71 -995.15 2074.8
614.08 -1023.47 2133.9
638.51 -1054.68 2199.0
644.10 -1054.49 2198.6
624.44 -1013.35 2112.8
637.08 -1024.87 2136.8
635.18 -1013.00 2112.0
646.42 -1004.93 2095.2
657.67 -1013.90 2113.9
670.36 -1024.94 2136.9
664.24 -1007.26 2100.1
672.87 -1012.04 2110.0
696.57 -1039.24 2166.7
677.63 -1002.89 2091.0
674.70 -990.64 2065.4
701.54 -1021.93 2130.7
700.59 -1012.58 2111.2
707.63 -1014.82 2115.8
720.90 -1010.36 2106.5
756.76 -1052.64 2194.7
771.21 -1064.73 2219.9
65.17 -1102.03 2285.3
70.70 -1095.89 2272.6
75.53 -1080.62 2240.9
84.34 -1120.48 2323.6
90.81 -1126.03 2335.1
93.72 -1089.48 2259.3
98.06 -1072.89 2224.9
104.62 -1081.03 2241.8
108.51 -1062.26 2202.8
111.27 -1034.81 2145.9
119.66 -1059.86 2197.9
128.73 -1088.37 2257.0
132.74 -1073.49 2226.1
137.83 -1068.15 2215.0
146.11 -1087.08 2254.3
151.51 -1083.90 2247.7
153.98 -1060.77 2199.7
158.10 -1050.20 2177.8
164.39 -1054.38 2186.5
169.82 -1052.91 2183.4
176.11 -1056.63 2191.2
182.35 -1059.92 2198.0
186.48 -1051.07 2179.6
189.88 -1038.75 2154.1
194.45 -1033.36 2142.9
200.47 -1035.76 2147.9
203.33 -1022.14 2119.7
210.73 -1031.45 2139.0
226.30 -1079.25 2238.1
231.49 -1076.43 2232.2
227.22 -1030.79 2137.6
224.70 -995.12 2063.6
228.60 -988.84 2050.6
246.03 -1040.02 2156.7
259.19 -1071.31 2221.6
256.23 -1036.06 2148.5
255.19 -1009.90 2094.3
259.66 -1006.19 2086.6
267.73 -1016.28 2107.5
279.04 -1038.01 2152.6
284.30 -1036.87 2150.2
280.76 -1004.24 2082.5
282.88 -992.75 2058.7
294.64 -1014.87 2104.6
298.99 -1011.13 2096.8
306.41 -1017.72 2110.5
316.54 -1032.91 2142.0
320.38 -1027.43 2130.6
332.35 -1047.76 2172.8
342.32 -1061.19 2200.6
352.28 -1074.18 2227.6
357.66 -1072.97 2225.0
349.18 -1030.93 2137.9
356.82 -1037.02 2150.5
372.03 -1064.58 2207.6
375.03 -1056.91 2191.7
376.71 -1045.81 2168.7
379.69 -1038.57 2153.7
381.63 -1028.75 2133.4
384.76 -1022.37 2120.1
396.49 -1038.70 2154.0
410.55 -1060.58 2199.4
411.72 -1049.04 2175.4
414.13 -1040.93 2158.6
425.95 -1056.35 2190.6
434.25 -1062.77 2203.9
441.56 -1066.61 2211.9
450.51 -1074.30 2227.8
470.78 -1081.06 2241.8
476.95 -1081.87 2243.5
475.33 -1065.20 2208.9
463.91 -1027.22 2130.2
464.55 -1016.54 2108.0
471.18 -1019.07 2113.3
475.85 -1017.33 2109.7
483.92 -1022.82 2121.1
490.82 -1025.75 2127.1
502.47 -1038.45 2153.5
511.77 -1046.03 2169.2
510.21 -1031.52 2139.1
506.60 -1013.19 2101.1
520.37 -1029.67 2135.3
540.38 -1058.00 2194.0
545.79 -1057.47 2192.9
550.76 -1056.10 2190.1
560.40 -1063.61 2205.6
567.63 -1066.45 2211.5
571.02 -1062.10 2202.5
567.02 -1044.21 2165.4
557.27 -1016.20 2107.3
554.95 -1002.15 2078.2
563.35 -1007.52 2089.3
585.60 -1037.35 2151.2
610.80 -1071.79 2222.6
617.93 -1074.15 2227.5
600.61 -1034.39 2145.0
595.97 -1016.98 2108.9
617.02 -1043.33 2163.6
613.50 -1028.03 2131.9
611.34 -1015.26 2105.4
642.72 -1057.93 2193.9
653.95 -1066.97 2212.6
647.11 -1046.64 2170.4
625.16 -1002.42 2078.8
620.58 -978.20 2028.5
653.58 -1021.55 2118.4
662.99 -1027.63 2131.0
686.05 -1054.59 2186.9
691.02 -1053.53 2184.7
688.53 -1041.19 2159.1
697.59 -1046.38 2169.9
693.53 -1031.97 2140.0
705.97 -1042.15 2161.1
729.04 -1067.72 2214.2
721.42 -1048.31 2173.9
697.46 -1005.64 2085.4
761.48 -1072.99 2225.1
791.07 -1089.91 2260.2
836.95 -1144.66 2373.7
69.88 -1088.89 2246.0
79.57 -1144.63 2361.0
83.86 -1120.13 2310.4
85.93 -1071.21 2209.5
91.35 -1067.63 2202.1
98.04 -1078.43 2224.4
104.09 -1081.38 2230.5
107.51 -1058.17 2182.6
109.85 -1027.12 2118.6
117.68 -1047.92 2161.5
127.32 -1082.22 2232.2
131.91 -1072.50 2212.2
136.01 -1059.73 2185.9
143.35 -1072.22 2211.6
148.76 -1069.90 2206.8
151.00 -1045.80 2157.1
153.44 -1024.75 2113.7
157.75 -1017.19 2098.1
165.95 -1034.43 2133.7
175.42 -1058.19 2182.7
179.49 -1048.88 2163.5
181.00 -1025.64 2115.5
185.34 -1019.37 2102.6
191.08 -1020.92 2105.8
197.42 -1025.50 2115.2
200.54 -1013.56 2090.6
203.98 -1003.80 2070.5
215.28 -1032.26 2129.2
230.05 -1075.48 2218.3
235.94 -1076.11 2219.6
233.16 -1038.10 2141.2
236.06 -1026.58 2117.5
241.08 -1024.60 2113.4
241.91 -1005.26 2073.5
245.94 -999.81 2062.3
252.43 -1004.33 2071.6
261.74 -1019.68 2103.2
274.28 -1046.72 2159.0
284.20 -1062.91 2192.4
288.15 -1056.56 2179.3
287.70 -1034.61 2134.0
293.15 -1034.32 2133.4
306.60 -1061.73 2190.0
311.80 -1060.12 2186.6
309.21 -1032.55 2129.8
308.71 -1012.78 2089.0
312.28 -1006.85 2076.8
323.84 -1026.41 2117.1
331.58 -1033.43 2131.6
339.40 -1040.44 2146.1
359.73 -1085.00 2238.0
367.60 -1091.12 2250.6
356.62 -1041.99 2149.3
353.07 -1015.75 2095.1
364.31 -1032.22 2129.1
374.33 -1044.78 2155.0
379.94 -1044.84 2155.1
384.75 -1042.74 2150.8
388.73 -1038.48 2142.0
401.49 -1057.46 2181.2
404.68 -1051.03 2167.9
394.69 -1011.06 2085.5
399.09 -1008.52 2080.2
412.43 -1028.32 2121.1
423.35 -1041.66 2148.6
434.05 -1054.12 2174.3
440.04 -1054.98 2176.0
450.03 -1065.27 2197.3
463.43 -1083.26 2234.4
468.46 -1081.52 2230.8
475.36 -1084.05 2236.0
473.73 -1067.31 2201.5
463.07 -1030.88 2126.3
464.10 -1021.01 2106.0
477.21 -1037.66 2140.3
487.52 -1047.88 2161.4
495.31 -1052.53 2171.0
502.54 -1055.89 2177.9
515.34 -1070.77 2208.6
526.64 -1082.21 2232.2
529.23 -1075.72 2218.8
530.28 -1066.25 2199.3
523.08 -1040.59 2146.4
522.54 -1028.58 2121.6
525.38 -1023.39 2110.9
528.60 -1019.05 2101.9
544.03 -1038.10 2141.2
555.38 -1049.05 2163.8
556.84 -1041.29 2147.8
550.19 -1018.67 2101.1
553.96 -1015.59 2094.8
565.40 -1026.50 2117.3
555.97 -999.67 2062.0
558.40 -994.48 2051.2
589.81 -1040.52 2146.2
603.77 -1055.19 2176.5
602.24 -1042.77 2150.9
613.39 -1052.33 2170.6
624.64 -1061.89 2190.3
611.66 -1030.46 2125.5
592.81 -989.78 2041.6
604.39 -1000.18 2063.0
634.06 -1040.07 2145.3
649.87 -1056.74 2179.7
658.27 -1061.18 2188.8
661.45 -1057.18 2180.6
650.51 -1030.90 2126.4
643.60 -1011.37 2086.1
655.89 -1022.10 2108.2
681.87 -1053.81 2173.6
697.49 -1069.10 2205.2
707.46 -1075.57 2218.5
723.95 -1083.03 2233.9
702.77 -1043.01 2151.4
687.73 -1012.65 2088.7
722.18 -1055.06 2176.2
743.49 -1077.78 2223.1
702.05 -1009.87 2083.0
730.66 -1043.00 2151.3
776.37 -1099.86 2268.6
753.88 -1059.97 2186.3
777.25 -1084.67 2237.3
71.93 -1126.88 2312.0
84.52 -1135.04 2328.7
86.71 -1086.79 2229.7
92.41 -1085.82 2227.7
96.83 -1070.84 2197.0
100.80 -1052.79 2160.0
108.42 -1072.82 2201.1
115.10 -1081.90 2219.7
117.76 -1054.21 2162.9
122.22 -1044.46 2142.9
128.94 -1053.95 2162.4
134.92 -1056.88 2168.4
140.58 -1057.18 2169.0
144.92 -1047.85 2149.8
149.34 -1039.83 2133.4
153.93 -1033.55 2120.5
156.84 -1016.78 2086.1
163.55 -1024.92 2102.8
173.16 -1050.10 2154.5
177.22 -1041.18 2136.2
176.29 -1004.31 2060.5
178.04 -984.47 2019.8
185.11 -994.33 2040.0
192.96 -1007.68 2067.4
200.00 -1016.21 2084.9
207.57 -1026.91 2106.9
209.64 -1010.56 2073.3
214.32 -1007.29 2066.6
228.47 -1047.63 2149.4
234.87 -1051.32 2157.0
235.72 -1030.59 2114.4
238.49 -1019.02 2090.7
241.87 -1010.49 2073.2
249.11 -1018.09 2088.8
252.06 -1008.25 2068.6
257.47 -1008.43 2069.0
270.03 -1036.03 2125.6
279.98 -1052.73 2159.8
286.56 -1056.36 2167.3
288.73 -1043.89 2141.7
292.73 -1038.38 2130.4
304.29 -1059.38 2173.5
309.83 -1059.07 2172.9
307.35 -1031.82 2117.0
313.27 -1033.25 2119.9
324.16 -1050.73 2155.8
325.83 -1038.25 2130.1
323.08 -1012.32 2076.9
327.66 -1009.83 2071.8
344.50 -1044.62 2143.2
360.40 -1075.48 2206.5
358.47 -1053.02 2160.5
347.48 -1005.01 2061.9
351.33 -1000.76 2053.2
363.63 -1020.32 2093.4
372.05 -1028.61 2110.4
390.72 -1064.57 2184.2
406.16 -1075.46 2206.5
393.35 -1027.09 2107.2
394.64 -1016.33 2085.2
409.75 -1040.98 2135.7
410.13 -1028.05 2109.2
407.23 -1007.37 2066.8
425.32 -1038.44 2130.5
440.50 -1061.73 2178.3
448.32 -1066.89 2188.9
459.67 -1080.23 2216.3
460.77 -1069.44 2194.1
463.63 -1062.96 2180.8
472.12 -1069.38 2194.0
471.45 -1055.16 2164.8
465.20 -1028.90 2111.0
470.85 -1029.30 2111.8
481.48 -1040.43 2134.6
489.20 -1045.11 2144.2
491.89 -1039.05 2131.8
499.85 -1044.14 2142.2
519.90 -1074.08 2203.7
530.60 -1084.28 2224.6
535.69 -1082.90 2221.8
533.06 -1066.11 2187.3
528.95 -1046.77 2147.6
528.14 -1034.28 2122.0
526.10 -1019.66 2092.0
535.93 -1028.12 2109.4
551.69 -1047.66 2149.5
557.66 -1048.40 2151.0
553.55 -1030.38 2114.0
559.44 -1031.12 2115.5
574.89 -1049.32 2152.9
568.86 -1028.32 2109.8
559.76 -1002.24 2056.3
579.42 -1027.64 2108.4
588.43 -1033.88 2121.2
582.62 -1014.20 2080.8
586.71 -1011.94 2076.2
591.26 -1010.52 2073.3
605.32 -1025.22 2103.4
613.96 -1030.58 2114.4
612.98 -1019.82 2092.3
627.03 -1034.05 2121.5
644.59 -1053.77 2162.0
657.65 -1065.84 2186.8
660.56 -1061.41 2177.7
649.37 -1034.59 2122.6
642.99 -1015.81 2084.1
656.62 -1028.70 2110.6
674.99 -1048.74 2151.7
680.70 -1048.94 2152.1
685.86 -1048.30 2150.8
696.83 -1056.49 2167.6
701.46 -1054.99 2164.5
682.39 -1018.17 2089.0
702.98 -1040.64 2135.0
760.05 -1090.76 2237.9
79.38 -1154.07 2355.2
84.70 -1143.43 2333.5
88.47 -1114.76 2275.0
94.77 -1119.50 2284.7
99.86 -1110.17 2265.7
101.99 -1070.94 2185.6
107.83 -1072.59 2189.0
115.63 -1092.69 2230.0
119.44 -1074.99 2193.9
122.92 -1055.97 2155.0
128.65 -1057.16 2157.5
133.50 -1051.32 2145.5
138.29 -1045.47 2133.6
144.22 -1048.40 2139.6
150.50 -1053.52 2150.0
155.01 -1046.34 2135.4
157.90 -1029.05 2100.1
161.16 -1015.28 2072.0
167.08 -1018.63 2078.8
174.37 -1029.86 2101.8
177.03 -1013.89 2069.2
176.05 -978.61 1997.2
179.97 -971.85 1983.4
185.58 -974.30 1988.4
190.53 -973.23 1986.2
204.10 -1015.11 2071.7
212.77 -1031.11 2104.3
211.60 -999.79 2040.4
219.02 -1009.65 2060.5
228.50 -1028.25 2098.5
232.79 -1023.20 2088.2
239.88 -1030.40 2102.9
247.98 -1041.54 2125.6
252.05 -1035.59 2113.5
252.35 -1014.78 2071.0
250.99 -988.28 2016.9
256.04 -987.59 2015.5
271.26 -1025.35 2092.6
282.86 -1048.23 2139.3
285.80 -1038.77 2119.9
290.60 -1036.30 2114.9
295.38 -1033.82 2109.8
294.28 -1011.26 2063.8
297.60 -1004.41 2049.8
309.67 -1026.79 2095.5
320.22 -1043.49 2129.6
321.83 -1030.96 2104.0
324.28 -1021.48 2084.6
334.08 -1035.09 2112.4
340.73 -1038.67 2119.7
345.67 -1037.02 2116.4
353.40 -1043.64 2129.9
352.37 -1024.57 2091.0
350.52 -1003.77 2048.5
357.10 -1007.33 2055.8
356.36 -990.46 2021.3
365.11 -1000.09 2041.0
392.47 -1059.66 2162.6
398.09 -1059.70 2162.6
399.41 -1048.45 2139.7
414.69 -1073.64 2191.1
421.22 -1075.83 2195.6
412.64 -1039.86 2122.2
405.09 -1007.39 2055.9
418.55 -1027.34 2096.6
435.24 -1054.63 2152.3
444.98 -1064.58 2172.6
452.63 -1069.33 2182.3
450.86 -1052.01 2147.0
451.36 -1040.33 2123.1
457.81 -1042.47 2127.5
461.01 -1037.27 2116.9
458.72 -1019.98 2081.6
460.77 -1012.62 2066.6
468.30 -1017.34 2076.2
470.45 -1010.41 2062.1
467.47 -992.71 2025.9
475.78 -999.14 2039.1
495.56 -1029.23 2100.5
508.93 -1045.52 2133.7
515.91 -1048.46 2139.7
518.21 -1041.94 2126.4
518.50 -1031.55 2105.2
531.34 -1046.07 2134.8
543.43 -1058.85 2160.9
540.53 -1042.45 2127.4
544.64 -1039.78 2122.0
551.91 -1043.10 2128.8
549.58 -1028.43 2098.8
558.66 -1035.17 2112.6
575.97 -1056.88 2156.9
591.37 -1074.70 2193.3
594.67 -1060.31 2163.9
572.40 -1011.06 2063.4
573.53 -1003.68 2048.3
585.65 -1015.49 2072.4
595.91 -1023.87 2089.5
616.75 -1050.14 2143.1
616.15 -1039.75 2121.9
604.50 -1011.07 2063.4
599.76 -994.33 2029.2
595.87 -979.30 1998.6
612.17 -997.42 2035.6
620.77 -1002.78 2046.5
633.92 -1015.34 2072.1
655.46 -1041.02 2124.5
652.50 -1027.68 2097.3
652.39 -1019.02 2079.6
672.68 -1042.10 2126.7
694.29 -1066.84 2177.2
690.91 -1053.07 2149.1
685.15 -1035.94 2114.2
714.12 -1071.18 2186.1
759.35 -1087.26 2218.9
778.80 -1106.72 2258.6
782.35 -1103.47 2252.0
78.12 -1141.76 2317.9
81.88 -1111.21 2255.8
86.33 -1093.45 2219.8
93.11 -1105.73 2244.7
99.24 -1109.16 2251.7
102.22 -1079.03 2190.5
105.99 -1059.94 2151.8
111.51 -1059.39 2150.6
116.35 -1052.65 2137.0
120.65 -1041.94 2115.2
127.56 -1053.73 2139.1
133.70 -1058.45 2148.7
139.54 -1060.51 2152.9
146.61 -1071.39 2175.0
149.47 -1051.84 2135.3
150.63 -1022.14 2075.0
152.69 -1000.38 2030.8
155.35 -983.91 1997.4
164.53 -1008.43 2047.2
175.23 -1040.42 2112.1
180.14 -1037.16 2105.5
181.23 -1012.74 2055.9
188.88 -1025.33 2081.5
198.24 -1046.27 2124.0
193.76 -994.99 2019.9
197.55 -987.75 2005.2
213.37 -1039.48 2110.2
219.99 -1044.98 2121.4
221.46 -1026.27 2083.4
224.48 -1015.49 2061.5
229.17 -1012.62 2055.7
236.58 -1021.62 2074.0
249.09 -1051.70 2135.0
258.39 -1067.26 2166.6
253.40 -1024.39 2079.6
246.97 -977.57 1984.5
252.95 -980.83 1991.2
267.98 -1018.32 2067.3
278.09 -1036.04 2103.2
280.23 -1023.91 2078.6
286.76 -1028.01 2086.9
293.46 -1032.54 2096.1
293.48 -1013.83 2058.2
297.43 -1009.15 2048.6
309.62 -1032.06 2095.2
319.90 -1047.95 2127.4
324.23 -1044.12 2119.6
329.62 -1043.79 2119.0
335.43 -1044.77 2121.0
337.82 -1035.25 2101.6
339.96 -1025.28 2081.4
344.51 -1022.75 2076.3
353.81 -1034.20 2099.5
362.31 -1043.02 2117.4
368.44 -1044.83 2121.1
367.40 -1026.57 2084.0
363.32 -1000.45 2031.0
375.84 -1020.15 2071.0
386.77 -1035.03 2101.2
393.23 -1037.69 2106.6
402.22 -1046.88 2125.2
402.66 -1033.85 2098.8
409.48 -1037.36 2105.9
417.91 -1044.78 2121.0
426.77 -1053.06 2137.8
437.67 -1066.11 2164.3
433.52 -1042.64 2116.6
428.03 -1016.58 2063.7
433.57 -1017.02 2064.6
440.80 -1021.36 2073.4
447.50 -1024.39 2079.6
450.58 -1019.17 2069.0
450.70 -1007.45 2045.2
454.23 -1003.54 2037.3
468.83 -1023.88 2078.6
478.41 -1032.94 2096.9
473.09 -1009.96 2050.3
479.41 -1012.09 2054.6
488.86 -1020.69 2072.1
491.49 -1015.02 2060.6
500.40 -1022.31 2075.4
505.53 -1021.82 2074.4
511.74 -1023.48 2077.7
529.73 -1048.42 2128.4
540.04 -1057.81 2147.4
535.78 -1038.76 2108.8
536.49 -1029.62 2090.2
540.50 -1026.94 2084.8
539.90 -1015.66 2061.9
550.27 -1025.02 2080.9
564.00 -1040.38 2112.1
575.28 -1051.00 2133.6
586.91 -1062.03 2156.0
575.19 -1030.99 2093.0
563.15 -999.99 2030.1
572.73 -1007.58 2045.5
591.72 -1031.44 2093.9
610.45 -1054.42 2140.5
611.66 -1046.98 2125.4
590.60 -1001.91 2034.0
585.88 -985.10 1999.8
589.44 -982.40 1994.4
610.29 -999.61 2029.3
614.66 -998.17 2026.4
624.31 -1005.25 2040.7
654.57 -1045.11 2121.7
661.02 -1046.61 2124.7
651.22 -1022.58 2075.9
660.85 -1029.19 2089.3
738.49 -1104.82 2242.9
762.01 -1113.71 2260.9
770.29 -1117.21 2268.0
741.03 -1066.64 2165.4
66.86 -1160.94 2344.4
73.02 -1162.20 2347.0
77.50 -1138.61 2299.4
83.09 -1133.65 2289.3
89.62 -1141.10 2304.4
94.28 -1125.48 2272.8
97.88 -1099.66 2220.7
101.12 -1072.96 2166.8
104.87 -1054.23 2129.0
110.47 -1055.01 2130.5
115.35 -1049.13 2118.7
117.10 -1016.65 2053.1
121.45 -1008.56 2036.7
131.11 -1043.43 2107.2
140.44 -1072.97 2166.8
145.56 -1069.28 2159.4
146.56 -1036.80 2093.8
150.48 -1026.46 2072.9
155.02 -1020.99 2061.8
157.42 -1002.24 2024.0
166.73 -1027.30 2074.6
173.94 -1038.19 2096.6
174.91 -1012.35 2044.4
179.15 -1006.42 2032.4
189.90 -1036.31 2092.8
200.07 -1005.64 2030.8
202.59 -992.17 2003.6
211.44 -1009.64 2038.9
215.64 -1004.56 2028.7
219.88 -999.92 2019.3
225.76 -1002.78 2025.1
232.58 -1009.61 2038.9
244.15 -1036.30 2092.7
255.47 -1060.75 2142.1
252.71 -1026.97 2073.9
249.93 -994.51 2008.4
258.92 -1009.24 2038.1
272.09 -1039.39 2099.0
280.28 -1049.69 2119.8
284.02 -1043.23 2106.8
292.70 -1054.83 2130.2
298.51 -1055.86 2132.2
297.62 -1033.54 2087.2
299.45 -1021.35 2062.6
308.78 -1034.69 2089.5
319.84 -1053.28 2127.0
325.12 -1052.52 2125.5
333.15 -1060.53 2141.7
341.40 -1068.98 2158.8
346.89 -1068.63 2158.1
352.37 -1068.28 2157.3
350.63 -1046.42 2113.2
353.30 -1038.16 2096.5
354.67 -1026.40 2072.8
353.00 -1006.31 2032.2
366.25 -1028.74 2077.5
377.20 -1044.14 2108.6
383.17 -1045.51 2111.4
387.69 -1042.94 2106.2
389.37 -1032.92 2085.9
392.79 -1027.71 2075.4
396.15 -1022.51 2064.9
406.16 -1034.35 2088.8
415.76 -1044.86 2110.0
426.34 -1057.55 2135.7
437.41 -1071.09 2163.0
433.63 -1048.39 2117.2
426.88 -1019.16 2058.1
430.37 -1014.81 2049.4
447.10 -1041.41 2103.1
462.96 -1065.36 2151.4
460.29 -1046.61 2113.6
455.29 -1023.07 2066.0
459.07 -1019.57 2059.0
474.11 -1040.86 2102.0
489.76 -1063.00 2146.7
490.64 -1052.95 2126.4
486.92 -1033.35 2086.8
486.31 -1020.71 2061.3
486.61 -1010.25 2040.1
493.36 -1013.24 2046.2
504.40 -1024.89 2069.7
516.63 -1038.69 2097.6
519.63 -1033.85 2087.8
514.23 -1012.56 2044.8
526.82 -1026.76 2073.5
544.93 -1051.32 2123.1
539.51 -1030.47 2081.0
529.10 -1000.57 2020.6
531.52 -995.30 2009.9
535.98 -993.91 2007.2
548.42 -1007.19 2034.0
561.69 -1021.74 2063.4
565.54 -1019.04 2057.9
568.88 -1015.47 2050.7
569.99 -1008.03 2035.7
578.88 -1014.36 2048.4
597.73 -1037.87 2095.9
599.83 -1032.14 2084.3
593.06 -1011.37 2042.4
605.12 -1022.81 2065.5
626.51 -1049.68 2119.8
644.81 -1070.94 2162.7
635.98 -1047.18 2114.7
607.78 -992.18 2003.7
621.34 -1005.72 2031.0
656.61 -1053.88 2128.3
674.08 -1072.92 2166.7
674.96 -1065.43 2151.6
666.22 -1043.01 2106.3
691.05 -1073.09 2167.1
697.60 -1049.15 2118.7
765.78 -1116.52 2254.7
734.18 -1062.34 2145.3
767.94 -1086.49 2194.1
66.74 -1164.92 2340.2
71.91 -1150.59 2311.5
76.15 -1124.68 2259.4
81.74 -1121.04 2252.1
89.80 -1149.45 2309.2
95.97 -1151.58 2313.4
100.50 -1135.01 2280.1
104.85 -1118.43 2246.8
108.07 -1092.05 2193.8
112.77 -1082.59 2174.8
119.61 -1093.59 2197.0
123.36 -1076.56 2162.7
123.78 -1033.26 2075.7
129.92 -1039.36 2088.0
135.14 -1037.89 2085.0
136.07 -1004.83 2018.6
142.16 -1010.91 2030.9
150.97 -1035.22 2079.7
156.07 -1033.29 2075.8
159.20 -1018.90 2046.9
163.55 -1012.95 2034.9
165.69 -994.12 1997.1
166.94 -971.28 1951.2
171.26 -967.11 1942.9
179.91 -986.92 1982.7
193.84 -1033.80 2076.8
204.15 -1059.35 2128.2
203.12 -1026.29 2061.7
203.19 -1000.34 2009.6
209.28 -1004.57 2018.1
214.09 -1002.58 2014.1
219.17 -1001.91 2012.8
223.04 -995.92 2000.7
227.16 -991.25 1991.4
235.59 -1005.20 2019.4
243.11 -1014.71 2038.5
247.90 -1012.68 2034.4
252.89 -1011.54 2032.1
261.25 -1023.68 2056.5
273.43 -1049.97 2109.3
282.00 -1061.63 2132.7
286.37 -1057.36 2124.2
289.48 -1048.66 2106.7
289.88 -1030.68 2070.6
294.53 -1028.17 2065.5
302.12 -1035.82 2080.9
308.73 -1039.93 2089.1
316.72 -1048.45 2106.3
318.01 -1034.88 2079.0
321.92 -1030.14 2069.5
330.40 -1039.96 2089.2
336.57 -1042.27 2093.8
344.05 -1048.54 2106.4
344.55 -1033.64 2076.5
351.30 -1037.70 2084.7
356.59 -1037.34 2083.9
346.96 -994.26 1997.4
351.07 -991.27 1991.4
362.75 -1009.39 2027.8
370.44 -1016.06 2041.2
383.07 -1035.91 2081.1
393.27 -1048.71 2106.8
398.74 -1048.75 2106.9
404.22 -1048.79 2106.9
405.24 -1037.40 2084.1
406.31 -1026.46 2062.1
404.80 -1009.38 2027.8
404.02 -994.50 1997.9
424.72 -1032.23 2073.7
441.78 -1060.28 2130.0
440.65 -1044.51 2098.3
452.26 -1058.95 2127.4
461.74 -1068.12 2145.8
453.13 -1035.73 2080.7
452.52 -1022.16 2053.4
460.97 -1029.14 2067.5
473.64 -1045.28 2099.9
486.27 -1060.96 2131.4
492.18 -1061.78 2133.0
493.59 -1053.00 2115.4
486.65 -1026.79 2062.7
480.28 -1002.33 2013.6
494.56 -1021.02 2051.2
513.06 -1047.96 2105.3
504.06 -1018.73 2046.6
486.50 -973.00 1954.7
490.66 -971.21 1951.1
512.33 -1003.75 2016.5
534.54 -1036.68 2082.6
533.56 -1024.44 2058.0
525.84 -999.61 2008.2
531.46 -1000.40 2009.7
543.37 -1012.88 2034.8
563.84 -1040.93 2091.2
573.69 -1049.04 2107.4
573.35 -1038.52 2086.3
575.31 -1032.34 2073.9
575.51 -1023.13 2055.4
573.65 -1010.47 2030.0
580.58 -1013.37 2035.8
592.01 -1024.02 2057.2
596.26 -1022.15 2053.4
605.04 -1028.04 2065.3
623.61 -1050.28 2109.9
637.22 -1063.89 2137.3
623.67 -1032.29 2073.8
623.64 -1014.74 2038.5
651.19 -1050.65 2110.7
661.63 -1058.61 2126.7
681.07 -1080.71 2171.1
691.46 -1088.20 2186.1
678.31 -1058.83 2127.1
676.22 -1047.04 2103.4
681.81 -1047.25 2103.9
687.11 -1047.03 2103.4
716.16 -1082.70 2175.1
741.57 -1112.35 2234.6
722.22 -1074.93 2159.5
714.35 -1055.04 2119.5
765.05 -1121.30 2252.6
72.45 -1165.23 2328.7
76.43 -1134.74 2267.8
79.94 -1102.01 2202.4
85.92 -1105.50 2209.4
92.01 -1109.88 2218.1
96.85 -1099.50 2197.4
102.20 -1095.82 2190.0
106.46 -1081.40 2161.2
109.87 -1060.28 2119.0
115.21 -1058.82 2116.1
123.13 -1080.15 2158.7
127.59 -1070.64 2139.7
128.73 -1035.21 2068.9
128.98 -995.76 1990.0
131.18 -973.74 1946.0
138.45 -989.68 1977.9
147.32 -1015.43 2029.4
152.55 -1015.27 2029.0
155.64 -1001.28 2001.1
160.08 -996.65 1991.8
162.41 -979.52 1957.6
163.94 -958.83 1916.2
168.18 -954.64 1907.9
176.73 -974.54 1947.6
189.06 -1013.59 2025.7
197.61 -1030.78 2060.0
199.66 -1014.09 2026.7
202.72 -1003.18 2004.9
207.87 -1002.97 2004.5
211.70 -996.52 1991.6
217.59 -999.86 1998.2
222.12 -996.96 1992.4
224.29 -983.82 1966.2
230.58 -988.93 1976.4
237.87 -998.03 1994.6
242.33 -995.12 1988.8
245.55 -987.31 1973.2
252.18 -993.28 1985.1
260.25 -1004.57 2007.7
264.21 -999.86 1998.2
268.96 -998.26 1995.0
273.08 -994.42 1987.4
277.28 -991.03 1980.6
285.25 -1000.96 2000.4
293.95 -1013.09 2024.7
302.26 -1023.43 2045.4
312.93 -1041.31 2081.1
317.14 -1037.44 2073.3
314.29 -1010.96 2020.4
315.92 -999.56 1997.6
319.29 -993.93 1986.4
323.32 -990.50 1979.5
329.23 -992.82 1984.2
341.71 -1014.61 2027.7
354.86 -1037.71 2073.9
353.21 -1017.45 2033.4
350.72 -995.43 1989.4
355.91 -995.51 1989.5
361.74 -997.36 1993.2
372.29 -1012.00 2022.5
386.94 -1037.22 2072.9
397.51 -1050.95 2100.3
398.74 -1039.96 2078.4
395.92 -1018.83 2036.2
402.26 -1021.52 2041.5
406.68 -1019.35 2037.2
402.19 -995.16 1988.8
418.53 -1022.48 2043.5
438.61 -1058.14 2114.7
440.58 -1049.78 2098.0
436.87 -1028.23 2054.9
431.42 -1003.19 2004.9
438.15 -1006.71 2011.9
453.04 -1028.66 2055.8
455.82 -1022.94 2044.4
461.50 -1023.79 2046.1
480.19 -1053.15 2104.7
492.10 -1067.13 2132.7
492.49 -1056.12 2110.7
484.93 -1028.48 2055.4
481.69 -1010.50 2019.5
498.28 -1034.07 2066.6
515.11 -1057.62 2113.7
505.28 -1026.52 2051.5
493.19 -991.51 1981.6
502.69 -1000.19 1998.9
510.50 -1005.36 2009.2
517.46 -1008.78 2016.1
531.46 -1025.71 2049.9
539.46 -1030.85 2060.2
552.11 -1044.68 2087.8
571.64 -1071.13 2140.7
580.63 -1077.52 2153.4
578.57 -1063.47 2125.4
584.49 -1064.21 2126.8
592.57 -1068.84 2136.1
595.11 -1063.49 2125.4
595.39 -1054.23 2106.9
588.41 -1032.40 2063.3
585.96 -1018.82 2036.1
596.68 -1028.21 2054.9
613.33 -1047.54 2093.5
607.67 -1028.77 2056.0
596.67 -1001.38 2001.3
616.58 -1025.86 2050.2
632.79 -1043.83 2086.1
642.04 -1050.12 2098.7
659.07 -1068.91 2136.2
669.31 -1076.47 2151.3
686.36 -1094.78 2187.9
678.82 -1073.88 2146.2
673.91 -1048.91 2096.3
710.38 -1096.83 2192.0
703.56 -1077.68 2153.8
720.57 -1095.03 2188.4
732.04 -1103.78 2205.9
695.74 -1040.92 2080.3
757.37 -1107.37 2213.1
72.37 -1170.05 2326.3
76.14 -1136.29 2259.2
79.56 -1102.53 2192.1
84.82 -1097.05 2181.2
90.17 -1093.37 2173.9
95.61 -1091.03 2169.2
101.55 -1094.52 2176.1
105.29 -1075.10 2137.5
108.33 -1050.75 2089.1
111.79 -1032.69 2053.2
117.81 -1038.85 2065.5
122.72 -1035.14 2058.1
124.16 -1003.60 1995.4
129.02 -1001.23 1990.7
135.79 -1013.20 2014.5
141.05 -1013.51 2015.1
147.94 -1025.02 2038.0
151.26 -1011.86 2011.8
152.64 -987.04 1962.5
156.34 -978.37 1945.2
163.78 -962.80 1914.3
172.32 -983.24 1954.9
179.46 -994.70 1977.7
190.03 -1024.06 2036.1
195.96 -1027.45 2042.8
195.34 -997.25 1982.8
197.47 -982.28 1953.0
201.47 -977.15 1942.8
204.58 -968.00 1924.6
209.62 -968.23 1925.1
217.23 -980.08 1948.6
222.54 -981.20 1950.8
226.82 -977.84 1944.2
232.12 -978.94 1946.3
238.95 -986.29 1961.0
243.97 -986.05 1960.5
244.37 -967.49 1923.6
245.95 -954.29 1897.3
254.44 -967.87 1924.3
263.54 -983.22 1954.9
269.88 -987.85 1964.1
276.50 -993.37 1975.0
279.77 -986.84 1962.1
283.11 -980.76 1950.0
294.10 -1000.96 1990.1
307.55 -1028.71 2045.3
312.22 -1026.61 2041.1
309.98 -1002.26 1992.7
314.62 -1000.61 1989.4
320.96 -1004.29 1996.7
323.86 -997.29 1982.8
328.16 -994.73 1977.7
339.13 -1012.17 2012.4
350.57 -1030.48 2048.8
355.15 -1028.34 2044.6
359.23 -1024.87 2037.7
358.39 -1007.64 2003.4
358.65 -993.97 1976.2
372.24 -1017.10 2022.2
389.68 -1049.96 2087.6
394.44 -1048.24 2084.1
389.89 -1022.15 2032.3
391.93 -1013.78 2015.6
403.41 -1029.76 2047.4
413.47 -1041.73 2071.2
414.58 -1031.15 2050.1
423.69 -1040.45 2068.6
436.53 -1058.58 2104.7
433.50 -1038.26 2064.3
424.86 -1005.16 1998.5
426.65 -997.23 1982.7
440.58 -1017.53 2023.1
453.93 -1036.04 2059.9
455.36 -1027.21 2042.3
454.72 -1013.98 2016.0
466.33 -1028.05 2044.0
479.09 -1044.30 2076.3
480.37 -1035.47 2058.7
481.98 -1027.51 2042.9
488.09 -1029.22 2046.3
491.05 -1024.34 2036.6
493.75 -1019.02 2026.0
507.58 -1036.52 2060.8
520.70 -1052.25 2092.1
516.88 -1033.75 2055.3
510.43 -1010.45 2009.0
510.47 -1000.31 1988.8
517.84 -1004.62 1997.4
533.01 -1023.79 2035.5
553.18 -1052.13 2091.9
566.67 -1067.31 2122.1
568.12 -1059.76 2107.0
569.26 -1051.78 2091.2
578.91 -1059.51 2106.5
585.98 -1062.43 2112.3
586.52 -1053.57 2094.7
594.08 -1057.35 2102.2
595.74 -1050.67 2089.0
589.62 -1030.50 2048.9
596.35 -1032.97 2053.8
603.11 -1035.43 2058.7
586.91 -998.78 1985.8
607.68 -1016.29 2020.6
629.56 -1043.89 2075.5
645.91 -1061.91 2111.3
658.17 -1072.98 2133.3
662.23 -1070.61 2128.6
678.15 -1087.28 2161.7
668.38 -1062.84 2113.2
679.61 -1063.27 2114.0
726.11 -1126.92 2240.6
728.10 -1121.05 2228.9
721.29 -1101.81 2190.6
704.06 -1067.08 2121.6
695.37 -1045.74 2079.2
779.56 -1137.10 2260.8
77.57 -1163.51 2301.4
79.68 -1109.76 2195.1
83.69 -1088.03 2152.2
89.56 -1091.55 2159.1
95.51 -1095.51 2166.9
102.95 -1115.24 2206.0
108.08 -1109.27 2194.2
111.17 -1083.92 2144.0
114.82 -1066.22 2109.0
118.91 -1053.94 2084.7
121.64 -1031.28 2039.9
125.47 -1019.44 2016.5
132.99 -1037.32 2051.8
141.11 -1058.35 2093.4
147.83 -1067.66 2111.8
151.15 -1052.64 2082.1
151.03 -1015.57 2008.8
151.51 -984.80 1948.0
154.24 -970.24 1919.2
165.20 -976.21 1931.0
175.59 -1007.07 1992.0
184.52 -1028.02 2033.5
191.08 -1035.02 2047.3
192.77 -1015.94 2009.6
194.35 -997.31 1972.7
198.61 -993.06 1964.3
202.37 -986.57 1951.4
205.22 -976.02 1930.6
207.76 -964.58 1908.0
212.75 -964.81 1908.4
222.51 -986.14 1950.6
231.45 -1002.96 1983.9
235.37 -997.78 1973.6
240.86 -999.33 1976.7
246.59 -1001.77 1981.5
247.72 -985.82 1950.0
249.95 -974.81 1928.2
259.22 -991.12 1960.5
267.21 -1002.05 1982.1
272.52 -1002.67 1983.3
279.44 -1009.10 1996.0
282.64 -1002.10 1982.2
284.61 -991.07 1960.4
293.93 -1005.54 1989.0
302.85 -1018.20 2014.0
302.70 -1000.45 1978.9
305.26 -992.10 1962.4
314.58 -1005.63 1989.2
320.20 -1007.09 1992.0
322.23 -997.39 1972.9
323.72 -986.34 1951.0
331.35 -994.04 1966.2
340.56 -1006.19 1990.3
343.76 -1000.49 1979.0
350.47 -1005.04 1988.0
352.35 -995.77 1969.7
357.81 -996.74 1971.6
375.26 -1030.66 2038.7
379.26 -1027.16 2031.7
370.56 -989.85 1957.9
376.00 -990.80 1959.8
388.45 -1009.98 1997.8
392.09 -1006.03 1989.9
393.94 -997.63 1973.3
405.29 -1013.21 2004.2
424.52 -1047.86 2072.7
438.82 -1069.62 2115.7
437.49 -1053.21 2083.3
428.72 -1019.52 2016.6
429.80 -1009.78 1997.4
439.56 -1020.42 2018.4
448.85 -1029.71 2036.8
457.05 -1036.34 2049.9
463.34 -1038.53 2054.2
470.85 -1043.37 2063.8
479.01 -1049.52 2076.0
476.63 -1032.70 2042.7
475.11 -1018.09 2013.8
483.02 -1023.79 2025.1
488.25 -1023.75 2025.0
491.77 -1020.17 2017.9
505.57 -1037.75 2052.7
519.96 -1056.18 2089.1
517.46 -1040.25 2057.6
510.59 -1015.97 2009.6
510.41 -1005.35 1988.6
518.01 -1010.12 1998.0
533.84 -1030.69 2038.7
545.74 -1043.33 2063.7
551.27 -1043.67 2064.4
547.91 -1027.33 2032.1
543.91 -1010.13 1998.1
559.52 -1029.31 2036.0
573.87 -1045.83 2068.7
576.25 -1040.45 2058.0
585.67 -1047.76 2072.5
585.29 -1037.56 2052.3
577.35 -1014.26 2006.2
584.23 -1017.19 2012.0
591.39 -1020.54 2018.7
591.44 -1011.68 2001.1
603.49 -1023.30 2024.1
627.05 -1054.09 2085.0
646.98 -1078.30 2132.9
644.23 -1064.61 2105.8
633.38 -1037.88 2053.0
651.16 -1058.13 2093.0
684.23 -1102.69 2181.1
709.57 -1115.86 2207.2
688.46 -1074.00 2124.4
699.14 -1082.00 2140.2
701.43 -1076.99 2130.3
707.07 -1077.18 2130.7
722.16 -1091.63 2159.3
734.20 -1101.31 2178.4
743.73 -1107.08 2189.8
755.35 -1115.86 2207.2
751.76 -1102.20 2180.2
71.67 -1170.59 2303.6
77.25 -1164.63 2291.9
80.27 -1123.80 2211.6
84.72 -1106.96 2178.4
91.06 -1115.47 2195.2
96.82 -1116.27 2196.8
104.09 -1133.37 2230.4
109.81 -1132.81 2229.3
113.46 -1111.87 2188.1
117.18 -1093.65 2152.2
120.86 -1076.79 2119.0
124.48 -1060.82 2087.6
129.27 -1055.71 2077.6
133.54 -1046.98 2060.4
138.45 -1043.68 2053.9
145.43 -1055.74 2077.6
149.38 -1045.64 2057.7
151.14 -1021.52 2010.3
153.36 -1001.93 1971.7
156.37 -988.66 1945.6
159.99 -979.91 1928.4
164.80 -978.84 1926.3
172.28 -993.12 1954.4
181.42 -1015.97 1999.3
188.15 -1024.35 2015.9
188.90 -1000.68 1969.3
189.68 -978.37 1925.4
197.60 -993.06 1954.3
205.11 -1005.03 1977.8
205.00 -980.01 1928.6
205.03 -956.80 1882.9
212.04 -966.50 1902.0
224.10 -998.28 1964.5
234.11 -1019.67 2006.6
238.94 -1018.08 2003.5
241.15 -1005.67 1979.1
243.80 -995.51 1959.1
249.04 -996.15 1960.4
256.01 -1003.55 1974.9
262.46 -1008.68 1985.0
267.06 -1006.60 1980.9
276.25 -1021.61 2010.5
287.70 -1044.25 2055.0
286.01 -1019.24 2005.8
283.17 -991.08 1950.4
286.44 -984.95 1938.3
289.52 -978.37 1925.4
296.18 -983.90 1936.3
305.08 -996.61 1961.3
311.75 -1001.68 1971.2
314.91 -995.52 1959.1
320.03 -995.65 1959.4
324.56 -993.97 1956.1
326.11 -983.33 1935.1
329.05 -977.18 1923.0
333.15 -974.60 1917.9
340.49 -981.42 1931.4
344.43 -978.38 1925.4
351.85 -985.18 1938.8
365.49 -1008.96 1985.6
365.41 -994.73 1957.6
360.20 -967.11 1903.2
368.87 -977.01 1922.7
373.88 -977.08 1922.8
370.41 -955.28 1879.9
380.92 -969.62 1908.1
400.44 -1006.23 1980.2
404.33 -1003.15 1974.1
402.92 -987.15 1942.6
414.23 -1002.32 1972.5
419.16 -1001.90 1971.7
425.60 -1005.04 1977.8
440.84 -1028.62 2024.2
442.03 -1019.28 2005.9
442.36 -1008.17 1984.0
451.25 -1016.60 2000.6
461.61 -1028.13 2023.3
464.83 -1023.67 2014.5
458.43 -998.37 1964.7
458.37 -987.26 1942.9
466.73 -994.34 1956.8
491.75 -1036.38 2039.5
515.91 -1075.73 2117.0
517.50 -1067.69 2101.1
518.58 -1058.77 2083.6
513.44 -1037.47 2041.7
504.34 -1008.68 1985.0
512.36 -1014.36 1996.2
528.30 -1035.48 2037.7
535.13 -1038.48 2043.7
537.86 -1033.53 2033.9
555.13 -1056.36 2078.8
563.73 -1062.41 2090.8
552.81 -1031.91 2030.7
562.54 -1040.17 2047.0
581.95 -1065.99 2097.8
589.97 -1070.69 2107.0
601.46 -1081.53 2128.4
603.20 -1074.79 2115.1
586.23 -1035.14 2037.1
586.17 -1025.79 2018.7
598.65 -1038.36 2043.4
604.11 -1038.65 2044.0
617.03 -1051.63 2069.5
640.94 -1082.96 2131.2
659.92 -1105.51 2175.6
658.07 -1093.07 2151.1
647.88 -1067.09 2100.0
665.76 -1087.41 2139.9
694.61 -1125.15 2214.2
699.52 -1105.69 2175.9
697.23 -1093.26 2151.5
729.50 -1134.78 2233.2
730.61 -1127.55 2218.9
737.32 -1129.01 2221.8
77.13 -1168.89 2288.6
80.45 -1131.98 2216.4
85.39 -1121.44 2195.7
91.04 -1120.89 2194.6
95.97 -1112.16 2177.5
102.36 -1120.24 2193.4
107.16 -1111.04 2175.3
109.37 -1077.30 2109.3
111.44 -1045.38 2046.8
118.91 -1064.79 2084.8
126.32 -1081.93 2118.3
128.25 -1052.73 2061.2
129.95 -1023.98 2004.9
135.25 -1024.75 2006.4
142.61 -1040.50 2037.2
146.70 -1032.17 2020.9
148.51 -1008.87 1975.3
154.37 -1013.70 1984.8
161.20 -1024.43 2005.8
163.21 -1004.75 1967.2
166.46 -993.70 1945.6
171.55 -993.97 1946.1
178.25 -1003.31 1964.4
183.81 -1005.84 1969.4
183.52 -977.10 1913.1
185.99 -964.22 1887.9
195.69 -988.48 1935.4
203.70 -1003.22 1964.2
204.22 -981.27 1921.3
204.53 -959.33 1878.3
212.12 -971.78 1902.7
222.46 -996.00 1950.1
230.04 -1007.07 1971.8
230.87 -988.74 1935.9
229.04 -960.01 1879.6
235.28 -965.65 1890.7
244.73 -983.93 1926.5
251.04 -989.10 1936.6
256.93 -992.45 1943.2
262.85 -995.79 1949.7
273.54 -1016.74 1990.7
285.43 -1041.28 2038.8
284.46 -1018.87 1994.9
279.28 -982.48 1923.6
280.01 -967.76 1894.8
284.04 -964.77 1889.0
291.82 -974.39 1907.8
301.07 -988.50 1935.4
307.80 -994.04 1946.3
309.77 -984.27 1927.1
313.51 -980.35 1919.5
322.91 -993.97 1946.1
329.48 -998.58 1955.2
330.82 -987.45 1933.4
333.27 -979.92 1918.6
339.06 -982.27 1923.2
341.40 -974.73 1908.5
342.24 -963.15 1885.8
349.10 -968.64 1896.5
362.58 -992.06 1942.4
371.96 -1003.79 1965.4
373.72 -994.89 1947.9
371.45 -975.69 1910.3
372.63 -965.90 1891.2
387.89 -992.39 1943.0
399.86 -1009.89 1977.3
396.21 -988.01 1934.5
386.53 -951.82 1863.6
410.18 -985.44 1929.4
434.58 -1031.48 2019.6
443.44 -1039.97 2036.2
439.09 -1017.64 1992.5
434.12 -994.44 1947.1
436.02 -987.31 1933.1
446.61 -999.80 1957.5
451.28 -998.90 1955.8
450.24 -985.53 1929.6
454.62 -984.18 1927.0
460.86 -986.84 1932.2
483.07 -1023.28 2003.5
500.76 -1049.47 2054.8
496.20 -1028.97 2014.7
495.12 -1016.04 1989.3
488.24 -991.57 1941.4
489.71 -984.43 1927.4
507.61 -1010.10 1977.7
529.35 -1042.83 2041.8
541.42 -1056.03 2067.6
532.05 -1027.59 2012.0
537.22 -1027.50 2011.8
563.64 -1067.66 2090.4
571.35 -1071.96 2098.8
549.62 -1021.46 2000.0
536.52 -987.80 1934.1
553.10 -1008.89 1975.4
573.29 -1036.13 2028.7
588.33 -1053.64 2063.0
588.88 -1045.13 2046.3
593.85 -1044.54 2045.2
611.44 -1065.96 2087.1
614.21 -1061.40 2078.2
623.10 -1067.39 2089.9
639.02 -1085.23 2124.8
649.89 -1094.26 2142.5
696.09 -1133.30 2218.9
671.05 -1083.58 2121.6
690.74 -1088.60 2131.4
736.06 -1150.82 2253.2
72.46 -1195.58 2329.1
78.25 -1191.85 2321.8
83.33 -1178.53 2295.8
83.99 -1108.61 2159.6
85.41 -1056.95 2059.0
90.54 -1054.57 2054.4
97.19 -1069.08 2082.6
102.84 -1071.71 2087.7
105.48 -1044.23 2034.2
106.92 -1008.08 1963.8
113.92 -1025.29 1997.3
123.85 -1066.21 2077.0
128.28 -1058.33 2061.7
130.04 -1029.92 2006.3
135.70 -1033.43 2013.2
143.39 -1051.52 2048.4
147.78 -1044.99 2035.7
149.83 -1022.96 1992.8
156.35 -1031.91 2010.2
166.03 -1060.44 2065.8
170.40 -1054.34 2053.9
170.68 -1024.11 1995.0
173.01 -1007.53 1962.7
177.18 -1002.34 1952.6
180.31 -991.69 1931.9
185.19 -991.04 1930.6
193.13 -1006.31 1960.4
196.47 -997.47 1943.1
197.79 -979.07 1907.3
204.11 -985.68 1920.2
210.29 -991.37 1931.2
212.88 -980.24 1909.6
217.48 -978.66 1906.5
228.05 -1003.41 1954.7
232.00 -998.63 1945.4
227.83 -959.79 1869.7
232.07 -957.28 1864.8
243.24 -982.91 1914.8
251.92 -997.62 1943.4
254.68 -988.74 1926.1
257.46 -980.31 1909.7
256.75 -959.19 1868.6
269.06 -968.61 1886.9
277.33 -980.56 1910.2
283.76 -985.71 1920.2
293.69 -1002.61 1953.1
294.35 -987.82 1924.3
296.51 -978.47 1906.1
307.62 -998.51 1945.2
313.27 -1000.45 1948.9
316.35 -994.25 1936.9
324.92 -1005.22 1958.2
328.55 -1000.81 1949.6
326.57 -979.70 1908.5
321.02 -948.68 1848.1
332.72 -954.77 1859.9
345.55 -977.42 1904.1
352.46 -982.92 1914.8
366.30 -1007.34 1962.3
376.07 -1020.02 1987.0
378.55 -1012.88 1973.1
385.90 -1018.79 1984.7
397.63 -1035.93 2018.1
393.44 -1011.69 1970.8
385.64 -978.93 1907.0
395.80 -992.01 1932.5
400.10 -990.26 1929.1
394.47 -964.26 1878.4
407.91 -984.95 1918.7
425.87 -1015.93 1979.1
428.91 -1011.01 1969.5
430.18 -1002.06 1952.1
430.18 -990.42 1929.4
436.37 -993.11 1934.6
450.93 -1014.60 1976.5
456.05 -1014.59 1976.5
455.28 -1001.61 1951.2
465.05 -1011.87 1971.2
476.59 -1025.69 1998.1
476.09 -1013.60 1974.6
470.38 -990.81 1930.1
474.30 -988.55 1925.7
480.79 -991.63 1931.8
480.54 -980.90 1910.8
488.12 -986.21 1921.2
499.76 -999.52 1947.1
515.56 -1020.82 1988.6
532.93 -1044.76 2035.3
530.15 -1029.11 2004.8
518.89 -997.48 1943.1
527.85 -1004.95 1957.7
542.30 -1022.62 1992.1
529.36 -988.81 1926.3
534.42 -979.77 1908.7
553.46 -1005.37 1958.5
567.33 -1021.20 1989.4
584.33 -1042.32 2030.5
609.52 -1077.55 2099.1
622.44 -1090.65 2124.6
618.69 -1074.57 2093.3
626.07 -1077.93 2099.9
639.94 -1092.31 2127.9
640.92 -1084.63 2112.9
643.92 -1080.47 2104.8
684.21 -1110.44 2163.2
687.03 -1071.11 2086.6
745.52 -1153.23 2246.5
751.16 -1152.94 2246.0
738.41 -1124.65 2190.9
728.00 -1100.33 2143.5
738.33 -1107.49 2157.4
57.56 -1145.49 2220.3
72.57 -1110.91 2153.2
82.28 -1169.48 2266.8
87.70 -1163.44 2255.0
88.38 -1099.20 2130.5
92.95 -1088.10 2109.0
99.86 -1104.04 2139.9
106.01 -1110.34 2152.1
111.58 -1110.23 2151.9
115.46 -1094.08 2120.6
118.81 -1074.72 2083.1
125.26 -1083.75 2100.6
130.47 -1081.78 2096.8
132.72 -1056.47 2047.7
134.84 -1032.07 2000.4
139.45 -1027.81 1992.2
145.88 -1036.81 2009.6
149.94 -1028.87 1994.2
152.81 -1013.62 1964.7
158.94 -1020.32 1977.6
166.62 -1036.15 2008.3
170.05 -1025.46 1987.6
175.56 -1027.56 1991.7
183.19 -1041.54 2018.8
186.98 -1033.58 2003.3
192.73 -1036.58 2009.2
197.03 -1031.81 1999.9
196.35 -1001.91 1942.0
197.49 -982.53 1904.4
203.80 -989.17 1917.3
210.46 -997.17 1932.8
213.25 -986.90 1912.9
213.02 -963.41 1867.4
218.73 -967.29 1874.9
234.08 -1012.66 1962.8
241.59 -1022.89 1982.6
238.86 -990.28 1919.4
243.10 -987.30 1913.6
253.15 -1007.54 1952.9
257.21 -1003.63 1945.3
258.26 -988.34 1915.7
255.64 -959.85 1860.4
273.43 -989.33 1917.6
279.86 -994.50 1927.6
283.99 -991.48 1921.7
292.73 -1004.36 1946.7
291.76 -984.06 1907.4
298.25 -989.21 1917.3
314.40 -1025.67 1988.0
316.34 -1015.36 1968.0
315.16 -995.52 1929.6
322.98 -1004.26 1946.5
325.69 -997.12 1932.7
332.70 -1003.13 1944.3
335.64 -996.89 1932.2
327.06 -957.14 1855.2
335.99 -969.02 1878.2
356.98 -1014.84 1967.0
372.44 -1043.89 2023.3
376.89 -1041.69 2019.1
376.51 -1026.38 1989.4
379.00 -1019.21 1975.5
386.19 -1024.69 1986.1
393.77 -1031.07 1998.5
385.87 -997.26 1932.9
385.24 -982.87 1905.1
402.92 -1014.95 1967.2
417.10 -1037.53 2011.0
421.04 -1034.40 2004.9
411.39 -998.37 1935.1
405.71 -972.73 1885.4
408.34 -967.37 1875.0
410.33 -960.65 1862.0
419.83 -971.47 1883.0
434.94 -994.87 1928.3
446.50 -1009.71 1957.1
448.96 -1003.86 1945.7
461.31 -1020.01 1977.1
484.49 -1059.48 2053.6
484.19 -1047.33 2030.0
472.25 -1010.52 1958.7
473.51 -1002.42 1943.0
483.87 -1013.59 1964.6
490.46 -1016.68 1970.6
489.87 -1005.00 1948.0
497.98 -1011.21 1960.0
510.60 -1026.36 1989.3
506.97 -1008.86 1955.4
504.75 -994.51 1927.6
515.89 -1006.50 1950.9
518.37 -1001.52 1941.2
515.91 -987.18 1913.4
519.19 -983.98 1907.2
530.97 -996.83 1932.1
545.27 -1014.10 1965.6
552.24 -1017.56 1972.3
559.49 -1021.46 1979.9
575.37 -1040.90 2017.5
595.64 -1067.87 2069.8
604.67 -1074.38 2082.4
600.91 -1058.25 2051.2
603.60 -1053.66 2042.3
617.52 -1068.57 2071.2
631.57 -1083.46 2100.0
632.48 -1075.75 2085.1
629.38 -1061.41 2057.3
647.83 -1083.34 2099.8
657.95 -1091.10 2114.8
657.94 -1082.06 2097.3
693.02 -1130.41 2191.0
708.64 -1146.49 2222.2
691.99 -1110.53 2152.5
668.64 -1064.47 2063.2
730.37 -1135.50 2200.9
737.04 -1136.98 2203.8
742.28 -1136.27 2202.4
749.83 -1139.06 2207.8
79.39 -1134.09 2187.2
86.78 -1157.01 2231.4
89.46 -1118.27 2156.7
93.64 -1101.62 2124.5
100.25 -1113.93 2148.3
106.69 -1123.02 2165.8
112.47 -1124.74 2169.2
116.93 -1113.59 2147.6
120.66 -1096.91 2115.5
126.50 -1100.00 2121.4
131.05 -1092.05 2106.1
131.72 -1053.76 2032.3
132.31 -1017.78 1962.9
136.64 -1012.13 1952.0
142.96 -1021.17 1969.4
150.44 -1037.55 2001.0
156.78 -1045.19 2015.7
155.50 -1003.24 1934.8
167.22 -1013.46 1954.5
181.15 -1065.60 2055.1
186.21 -1064.03 2052.1
187.20 -1039.98 2005.7
191.76 -1036.57 1999.1
195.08 -1026.73 1980.1
196.60 -1008.18 1944.4
199.94 -999.72 1928.0
205.75 -1003.64 1935.6
211.78 -1008.46 1944.9
215.00 -999.99 1928.5
214.71 -975.94 1882.2
232.30 -988.52 1906.4
236.64 -985.98 1901.5
239.94 -979.33 1888.7
248.77 -995.08 1919.1
250.07 -980.65 1891.2
257.07 -970.06 1870.8
272.20 -1008.16 1944.3
283.70 -1031.62 1989.6
284.68 -1016.72 1960.8
280.70 -984.92 1899.5
281.57 -970.94 1872.5
290.92 -986.15 1901.9
308.20 -1027.34 1981.3
315.61 -1034.77 1995.6
308.39 -994.79 1918.5
303.36 -963.04 1857.3
307.34 -960.45 1852.3
317.81 -977.88 1885.9
332.50 -1007.58 1943.2
345.35 -1030.89 1988.2
346.98 -1020.53 1968.2
345.53 -1001.53 1931.5
355.98 -1017.07 1961.5
368.51 -1038.06 2002.0
370.46 -1029.05 1984.6
378.94 -1038.19 2002.2
391.21 -1057.31 2039.1
384.43 -1025.16 1977.1
378.21 -995.28 1919.5
382.51 -993.53 1916.1
394.39 -1011.26 1950.3
401.08 -1015.38 1958.2
403.63 -1009.08 1946.1
424.63 -1023.20 1973.3
407.35 -969.88 1870.5
407.99 -959.98 1851.4
416.30 -968.14 1867.1
429.20 -986.67 1902.9
438.11 -995.70 1920.3
445.10 -1000.21 1929.0
461.66 -1025.90 1978.5
468.83 -1030.39 1987.2
453.46 -985.78 1901.1
462.15 -993.87 1916.7
484.24 -1030.29 1987.0
486.38 -1023.95 1974.8
484.57 -1009.52 1946.9
490.03 -1010.38 1948.6
504.52 -1029.64 1985.7
518.31 -1047.08 2019.4
516.10 -1032.20 1990.7
494.96 -980.12 1890.2
506.32 -983.15 1896.1
521.45 -1002.78 1933.9
515.15 -981.23 1892.4
516.70 -974.90 1880.2
544.01 -1016.84 1961.0
564.72 -1045.78 2016.9
561.61 -1030.48 1987.4
566.45 -1029.92 1986.3
593.57 -1069.49 2062.6
611.31 -1091.63 2105.3
598.05 -1058.50 2041.4
590.57 -1036.09 1998.2
607.69 -1056.86 2038.2
626.04 -1079.38 2081.7
615.47 -1052.09 2029.0
634.51 -1066.41 2056.6
663.16 -1105.27 2131.6
649.78 -1074.02 2071.3
668.01 -1095.09 2112.0
709.30 -1153.34 2224.3
68.29 -1143.79 2194.9
72.90 -1127.09 2162.9
79.01 -1134.40 2176.9
83.31 -1116.30 2142.2
90.73 -1139.76 2187.2
104.37 -1165.41 2236.4
108.93 -1152.37 2211.4
109.69 -1102.40 2115.5
109.28 -1045.96 2007.2
112.65 -1029.23 1975.1
118.08 -1031.88 1980.1
124.19 -1040.05 1995.8
126.59 -1017.77 1953.1
132.23 -1022.25 1961.7
141.88 -1056.24 2026.9
145.77 -1046.40 2008.0
150.82 -1045.32 2006.0
157.23 -1053.46 2021.6
155.84 -1010.42 1939.0
166.06 -1011.46 1941.0
176.52 -1043.54 2002.5
177.91 -1021.70 1960.6
180.07 -1005.39 1929.3
185.97 -1010.26 1938.7
192.52 -1018.35 1954.2
197.28 -1016.76 1951.1
201.38 -1011.95 1941.9
208.25 -1020.94 1959.2
210.02 -1005.07 1928.7
208.67 -975.42 1871.8
217.40 -993.13 1905.8
223.32 -997.49 1914.2
235.51 -986.20 1892.5
248.75 -1020.39 1958.1
256.39 -1030.69 1977.9
255.98 -1008.85 1936.0
250.83 -969.57 1860.6
256.92 -974.35 1869.8
267.73 -996.55 1912.4
274.24 -1002.23 1923.3
281.45 -1010.19 1938.5
283.40 -999.36 1917.7
284.19 -984.86 1889.9
293.97 -1001.50 1921.9
304.33 -1019.50 1956.4
305.28 -1005.91 1930.3
304.54 -987.29 1894.6
305.77 -975.54 1872.0
310.37 -974.76 1870.5
321.47 -994.09 1907.6
325.71 -991.93 1903.5
327.94 -983.82 1887.9
343.07 -1014.07 1946.0
355.98 -1036.99 1990.0
353.07 -1013.80 1945.5
352.34 -997.47 1914.1
359.95 -1004.86 1928.3
374.25 -1030.46 1977.4
386.11 -1048.75 2012.5
379.11 -1016.01 1949.7
380.75 -1006.97 1932.4
393.27 -1026.60 1970.0
395.22 -1018.46 1954.4
391.91 -997.13 1913.5
390.56 -981.27 1883.0
414.87 -1029.48 1975.6
438.81 -1062.67 2039.2
419.45 -1003.68 1926.0
418.70 -990.10 1900.0
424.02 -991.03 1901.8
433.86 -1002.37 1923.5
439.65 -1004.19 1927.0
443.44 -1001.48 1921.8
