ply
format ascii 1.0
element vertex 1995
property float x
property float y
property float z
end_header
-484.03 -857.67 1637.7
-484.32 -865.78 1653.2
-492.76 -888.73 1697.0
-500.98 -911.70 1740.9
-486.21 -892.86 1704.9
-475.01 -880.29 1680.9
-475.24 -888.87 1697.3
-476.58 -899.71 1718.0
-483.02 -920.47 1757.6
-484.34 -931.78 1779.2
-474.17 -920.98 1758.6
-462.72 -907.46 1732.8
-459.83 -910.64 1738.8
-458.71 -917.43 1751.8
-445.00 -898.90 1716.4
-433.23 -883.96 1687.9
-435.43 -897.53 1713.8
-437.29 -910.65 1738.9
-436.22 -917.88 1752.7
-436.58 -928.30 1772.6
-433.87 -932.37 1780.3
-428.62 -930.99 1777.7
-420.29 -922.80 1762.1
-409.36 -908.70 1735.1
-407.48 -914.56 1746.3
-422.36 -969.50 1851.2
-425.97 -989.04 1888.6
-431.35 -1131.60 2160.8
-438.81 -1166.32 2227.1
-429.98 -1158.09 2211.3
-431.45 -1177.74 2248.9
-427.27 -1182.30 2257.6
-415.54 -1165.81 2226.1
-402.99 -1146.55 2189.3
-387.94 -1119.48 2137.6
-380.03 -1112.55 2124.4
-386.69 -1148.69 2193.4
-1207.71 -1219.73 2317.6
-1195.89 -1251.37 2377.7
-1164.42 -1224.75 2327.1
-1162.19 -1228.78 2334.8
-1149.89 -1222.14 2322.1
-1165.57 -1258.57 2391.4
-1138.50 -1249.28 2373.7
-1116.17 -1231.43 2339.8
-943.28 -1075.76 2044.0
-845.17 -991.73 1884.4
-804.24 -949.19 1803.5
-788.87 -936.49 1779.4
-806.30 -962.82 1829.4
-812.30 -975.73 1853.9
-789.06 -953.45 1811.6
-758.85 -922.43 1752.7
-718.58 -878.74 1669.7
-691.78 -851.10 1617.2
-691.63 -856.11 1626.7
-676.02 -841.92 1599.7
-674.12 -844.74 1605.1
-705.46 -889.49 1690.1
-690.92 -876.60 1665.6
-654.55 -835.68 1587.9
-676.81 -869.58 1652.3
-684.88 -885.55 1682.6
-649.01 -844.54 1604.7
-639.62 -837.69 1591.7
-653.27 -861.13 1636.2
-658.77 -874.06 1660.8
-649.67 -867.65 1648.6
-627.85 -844.06 1603.8
-624.46 -845.10 1605.7
-653.08 -889.76 1690.6
-652.56 -901.16 1712.3
-642.05 -898.87 1707.9
-619.24 -872.95 1658.7
-611.93 -868.68 1650.5
-620.14 -886.54 1684.5
-619.88 -892.45 1695.7
-621.71 -901.48 1712.9
-628.92 -918.49 1745.2
-623.90 -917.77 1743.8
-614.69 -910.82 1730.6
-603.46 -900.75 1711.5
-594.08 -893.32 1697.4
-591.83 -896.57 1703.6
-589.83 -900.27 1710.6
-593.02 -911.99 1732.8
-591.49 -916.58 1741.6
-578.20 -902.88 1715.5
-565.88 -890.49 1692.0
-561.00 -889.70 1690.5
-559.75 -894.73 1700.0
-552.63 -890.35 1691.7
-543.34 -882.39 1676.6
-542.88 -888.75 1688.7
-538.01 -887.94 1687.1
-527.22 -877.26 1666.9
-535.24 -897.97 1706.2
-527.86 -908.09 1725.4
-517.20 -897.37 1705.1
-512.82 -897.43 1705.2
-511.75 -903.35 1716.4
-507.33 -903.41 1716.5
-503.41 -904.36 1718.4
-496.50 -899.90 1709.9
-489.87 -895.89 1702.2
-485.23 -895.47 1701.5
-483.99 -901.38 1712.7
-489.43 -919.95 1748.0
-496.12 -941.24 1788.4
-496.47 -950.79 1806.6
-491.11 -949.48 1804.1
-484.60 -945.90 1797.3
-477.66 -941.40 1788.7
-472.58 -940.52 1787.1
-469.76 -944.17 1794.0
-459.31 -932.39 1771.6
-451.17 -925.13 1757.8
-456.93 -946.49 1798.4
-452.56 -956.97 1818.3
-444.01 -948.78 1802.7
-430.80 -1150.70 2186.4
-422.60 -1191.50 2263.9
-406.59 -1162.52 2208.9
-398.48 -1155.58 2195.7
-397.77 -1170.25 2223.6
-402.16 -1200.57 2281.2
-1204.54 -1241.04 2346.5
-1184.27 -1226.35 2318.7
-1182.13 -1230.38 2326.4
-1176.73 -1243.80 2351.7
-1165.70 -1245.04 2354.1
-1176.14 -1262.81 2387.7
-1172.83 -1272.65 2406.3
-1163.23 -1268.98 2399.3
-1143.85 -1254.55 2372.0
-946.19 -1078.33 2038.9
-840.17 -996.48 1884.1
-802.00 -956.77 1809.0
-803.01 -963.62 1822.0
-815.52 -984.42 1861.3
-795.15 -965.54 1825.6
-767.08 -937.03 1771.7
-727.15 -893.61 1689.6
-706.70 -873.73 1652.0
-713.85 -887.96 1678.9
-705.48 -882.94 1669.4
-713.86 -898.94 1699.7
-709.99 -899.61 1700.9
-653.43 -833.12 1575.2
-647.09 -830.22 1569.7
-676.00 -884.00 1671.4
-645.37 -849.39 1606.0
-642.00 -850.45 1608.0
-659.80 -879.73 1663.4
-659.25 -884.78 1672.9
-645.24 -871.71 1648.2
-650.19 -884.26 1671.9
-659.88 -903.47 1708.2
-651.74 -898.34 1698.5
-682.54 -953.68 1803.2
-635.56 -900.38 1702.4
-623.17 -889.00 1680.9
-628.51 -902.94 1707.2
-604.73 -913.82 1727.8
-593.60 -903.69 1708.6
-598.29 -917.68 1735.1
-608.94 -941.09 1779.4
-605.28 -942.58 1782.2
-587.91 -922.56 1744.3
-582.05 -920.45 1740.3
-584.37 -931.34 1760.9
-572.62 -919.79 1739.1
-554.31 -897.45 1696.9
-551.34 -899.79 1701.3
-559.02 -919.68 1738.9
-547.97 -916.28 1732.5
-557.43 -939.79 1776.9
-525.53 -940.42 1778.1
-523.97 -945.93 1788.5
-520.37 -947.81 1792.1
-498.99 -917.07 1733.9
-480.10 -890.37 1683.5
-483.99 -905.82 1712.7
-496.14 -937.16 1771.9
-497.53 -948.56 1793.5
-491.49 -945.88 1788.4
-485.00 -942.28 1781.6
-477.85 -937.32 1772.2
-476.02 -942.80 1782.6
-477.11 -954.21 1804.2
-468.64 -965.68 1825.9
-432.30 -979.88 1852.7
-429.69 -984.90 1862.2
-421.52 -1088.47 2058.0
-408.56 -1096.67 2073.5
-423.33 -1151.46 2177.1
-424.03 -1168.96 2210.2
-427.37 -1194.30 2258.1
-424.28 -1202.12 2272.9
-409.86 -1177.64 2226.6
-402.97 -1174.37 2220.5
-391.73 -1158.17 2189.8
-385.42 -1156.26 2186.2
-1199.80 -1235.98 2325.5
-1184.21 -1244.94 2342.4
-1165.51 -1257.52 2366.1
-1149.62 -1246.95 2346.2
-1147.66 -1251.43 2354.6
-1153.91 -1264.98 2380.1
-951.36 -1095.66 2061.5
-841.40 -997.03 1876.0
-832.24 -997.72 1877.2
-801.90 -967.00 1819.4
-788.42 -956.37 1799.4
-774.31 -944.84 1777.7
-751.72 -922.77 1736.2
-753.82 -930.93 1751.6
-779.89 -968.95 1823.1
-759.23 -949.03 1785.6
-720.90 -906.66 1705.9
-680.67 -872.11 1640.9
-701.20 -904.06 1701.0
-758.53 -984.17 1851.7
-747.85 -976.49 1837.3
-669.99 -891.86 1678.1
-657.52 -880.99 1657.6
-658.29 -887.82 1670.5
-642.98 -872.92 1642.4
-654.12 -893.96 1682.0
-641.67 -953.20 1793.5
-646.71 -967.71 1820.8
-626.29 -951.03 1789.4
-600.93 -919.34 1729.8
-594.50 -916.34 1724.1
-605.74 -940.73 1770.0
-600.09 -939.08 1766.9
-591.32 -932.47 1754.5
-598.98 -959.30 1805.0
-585.45 -945.02 1778.1
-564.57 -918.54 1728.3
-561.53 -920.91 1732.7
-571.30 -944.49 1777.1
-568.93 -948.22 1784.1
-560.34 -941.55 1771.6
-516.47 -953.84 1794.7
-495.00 -922.50 1735.7
-499.24 -938.93 1766.6
-505.48 -959.48 1805.3
-499.64 -957.26 1801.1
-499.95 -966.88 1819.2
-482.46 -951.00 1789.3
-472.79 -940.98 1770.5
-467.30 -939.18 1767.1
-464.08 -941.94 1772.3
-468.86 -961.16 1808.5
-439.67 -1099.18 2068.1
-434.85 -1100.55 2070.7
-434.34 -1113.00 2094.2
-438.52 -1137.93 2141.1
-425.58 -1118.52 2104.5
-415.95 -1107.40 2083.6
-408.65 -1102.29 2074.0
-399.88 -1093.00 2056.5
-397.70 -1101.74 2073.0
-398.74 -1119.74 2106.8
-409.85 -1166.93 2195.6
-408.79 -1180.32 2220.8
-398.91 -1168.24 2198.1
-384.93 -1143.62 2151.8
-373.02 -1124.54 2115.9
-390.55 -1194.98 2248.4
-349.88 -1258.36 2367.6
-1231.95 -1220.11 2284.5
-1145.03 -1254.67 2349.2
-1134.38 -1249.64 2339.8
-1124.94 -1245.90 2332.8
-947.39 -1102.62 2064.5
-935.32 -1094.75 2049.8
-951.55 -1120.11 2097.3
-921.72 -1091.23 2043.2
-823.98 -998.47 1869.5
-821.93 -1001.88 1875.9
-818.77 -1003.97 1879.8
-790.97 -975.69 1826.9
-793.22 -984.36 1843.1
-795.04 -992.60 1858.5
-707.30 -893.89 1673.7
-755.98 -967.28 1811.1
-749.09 -964.46 1805.8
-700.53 -907.61 1699.4
-696.64 -908.28 1700.7
-729.14 -962.84 1802.8
-725.48 -970.45 1817.1
-659.95 -894.41 1674.7
-663.91 -905.73 1695.9
-699.56 -960.73 1798.9
-625.34 -968.58 1813.6
-619.59 -966.94 1810.5
-609.54 -958.52 1794.7
-595.58 -943.77 1767.1
-604.67 -965.59 1808.0
-589.48 -963.75 1804.5
-429.85 -1093.19 2046.9
-438.75 -1129.78 2115.4
-443.04 -1155.27 2163.1
-428.30 -1131.15 2118.0
-423.15 -1132.06 2119.7
-419.70 -1137.60 2130.0
-408.76 -1122.72 2102.2
-406.63 -1131.97 2119.5
-391.08 -1103.58 2066.3
-384.56 -1100.27 2060.1
-384.97 -1116.95 2091.4
-376.52 -1108.05 2074.7
-387.95 -1158.23 2168.7
-359.16 -1254.00 2348.0
-336.46 -1215.98 2276.8
-1226.58 -1220.68 2274.6
-1208.69 -1220.49 2274.2
-1241.45 -1259.70 2347.3
-1143.99 -1259.61 2347.1
-1120.39 -1240.21 2311.0
-1132.91 -1260.82 2349.4
-950.64 -1111.76 2071.6
-917.67 -1079.30 2011.1
-912.43 -1079.27 2011.1
-923.44 -1098.58 2047.0
-930.62 -1113.51 2074.9
-916.45 -1102.94 2055.2
-875.81 -1060.19 1975.5
-829.73 -1010.31 1882.6
-824.76 -1010.21 1882.4
-820.51 -1010.98 1883.8
-790.23 -979.50 1825.2
-799.92 -997.49 1858.7
-807.34 -1012.85 1887.3
-770.07 -971.98 1811.1
-750.25 -952.77 1775.3
-758.35 -969.00 1805.6
-786.67 -1011.44 1884.7
-745.61 -970.71 1808.8
-728.11 -966.15 1800.3
-608.37 -968.72 1805.1
-451.91 -1113.63 2075.1
-452.86 -1129.43 2104.5
-439.31 -1108.99 2066.4
-435.77 -1113.63 2075.1
-438.65 -1135.01 2114.9
-435.65 -1141.52 2127.1
-417.50 -1107.99 2064.6
-410.23 -1102.83 2055.0
-419.43 -1142.40 2128.7
-420.82 -1161.48 2164.2
-415.70 -1162.85 2166.8
-398.07 -1128.77 2103.3
-386.59 -1111.45 2071.0
-382.00 -1113.72 2075.3
-383.70 -1134.67 2114.3
-1216.07 -1204.49 2233.6
-1242.35 -1236.41 2292.8
-1195.30 -1255.67 2328.5
-1148.01 -1276.93 2367.9
-1140.47 -1275.36 2365.0
-1114.95 -1260.38 2337.2
-1086.84 -1248.97 2316.1
-1069.17 -1235.49 2291.1
-976.73 -1134.97 2104.7
-928.03 -1090.57 2022.3
-943.65 -1115.22 2068.1
-939.76 -1116.98 2071.3
-957.64 -1144.76 2122.8
-949.57 -1141.68 2117.1
-918.88 -1111.20 2060.6
-906.97 -1103.22 2045.8
-889.35 -1088.14 2017.8
-820.81 -1016.24 1884.5
-776.30 -966.89 1793.0
-774.72 -970.73 1800.1
-807.63 -1018.11 1888.0
-793.18 -1005.98 1865.5
-763.83 -974.70 1807.5
-766.64 -984.33 1825.3
-791.10 -1022.04 1895.3
-789.16 -1025.91 1902.5
-493.25 -1179.26 2186.8
-486.63 -1176.98 2182.6
-466.33 -1141.14 2116.1
-466.87 -1156.07 2143.8
-470.07 -1178.01 2184.5
-459.27 -1164.97 2160.3
-453.85 -1165.44 2161.2
-453.82 -1179.93 2188.0
-448.86 -1181.80 2191.5
-430.03 -1146.75 2126.5
-417.24 -1127.10 2090.1
-420.36 -1150.45 2133.4
-419.71 -1163.99 2158.5
-411.77 -1157.41 2146.3
-405.21 -1154.56 2141.0
-405.32 -1170.91 2171.3
-406.87 -1191.95 2210.3
-354.14 -1188.07 2203.1
-355.56 -1212.42 2248.3
-343.63 -1232.35 2285.3
-1244.35 -1256.37 2318.7
-1240.70 -1258.77 2323.1
-1224.62 -1267.06 2338.4
-1178.59 -1244.07 2296.0
-1143.75 -1232.18 2274.0
-1163.37 -1259.82 2325.0
-1121.08 -1252.97 2312.4
-1076.15 -1249.53 2306.0
-926.78 -1088.19 2008.3
-934.65 -1103.63 2036.8
-952.82 -1131.47 2088.2
-947.41 -1131.48 2088.2
-975.18 -1171.33 2161.7
-934.08 -1135.01 2094.7
-905.76 -1107.04 2043.1
-917.05 -1127.44 2080.7
-910.56 -1126.08 2078.2
-861.16 -1071.32 1977.2
-796.56 -996.89 1839.8
-795.22 -1013.43 1870.3
-798.13 -1029.68 1900.3
-799.99 -1038.50 1916.6
-541.80 -1204.65 2223.2
-543.34 -1221.06 2253.5
-541.03 -1229.08 2268.3
-525.24 -1206.31 2226.3
-494.27 -1160.71 2142.1
-497.00 -1180.37 2178.4
-509.07 -1222.95 2257.0
-488.77 -1216.09 2244.3
-467.35 -1176.82 2171.8
-457.50 -1166.06 2152.0
-453.38 -1169.82 2158.9
-459.98 -1201.70 2217.8
-431.86 -1157.15 2135.6
-407.64 -1106.46 2042.0
-411.38 -1131.30 2087.8
-411.85 -1147.69 2118.1
-416.66 -1176.78 2171.8
-423.00 -1211.05 2235.0
-417.84 -1212.91 2238.5
-413.47 -1217.11 2246.2
-405.90 -1211.90 2236.6
-393.41 -1191.62 2199.2
-384.16 -1180.73 2179.1
-377.74 -1178.31 2174.6
-379.81 -1202.74 2219.7
-369.16 -1224.67 2260.2
-359.78 -1212.80 2238.2
-335.54 -1209.09 2231.4
-331.01 -1213.69 2239.9
-342.89 -1279.73 2361.8
-313.28 -1235.40 2280.0
-1228.73 -1258.70 2311.9
-1228.02 -1264.14 2321.9
-1216.42 -1264.59 2322.7
-1187.72 -1240.90 2279.2
-1187.39 -1246.76 2290.0
-1169.96 -1273.01 2338.2
-950.33 -1121.18 2059.3
-942.00 -1117.63 2052.8
-945.23 -1127.83 2071.5
-925.42 -1110.50 2039.7
-934.48 -1127.82 2071.5
-936.06 -1136.26 2087.0
-894.18 -1091.73 2005.2
-870.43 -1068.95 1963.4
-884.06 -1092.07 2005.8
-884.92 -1099.60 2019.7
-841.76 -1052.21 1932.6
-817.48 -1027.97 1888.1
-819.92 -1037.25 1905.2
-806.10 -1025.94 1884.4
-832.60 -1066.13 1958.2
-874.07 -1126.10 2068.3
-885.43 -1169.43 2147.9
-879.65 -1184.14 2175.0
-852.73 -1170.42 2149.8
-573.99 -1193.44 2192.0
-584.35 -1227.13 2253.9
-580.33 -1231.00 2261.0
-560.37 -1200.79 2205.5
-530.21 -1210.27 2223.0
-521.65 -1203.80 2211.1
-510.04 -1203.47 2210.5
-494.46 -1207.40 2217.7
-488.44 -1221.10 2242.8
-463.70 -1173.22 2154.9
-450.41 -1153.49 2118.7
-452.72 -1173.71 2155.8
-465.95 -1223.11 2246.5
-452.34 -1202.42 2208.5
-399.01 -1102.53 2025.0
-397.11 -1111.90 2042.3
-399.60 -1134.01 2082.9
-410.75 -1181.60 2170.3
-410.28 -1196.66 2197.9
-391.80 -1158.86 2128.5
-368.79 -1106.38 2032.1
-366.14 -1114.33 2046.7
-369.22 -1140.23 2094.3
-370.85 -1162.37 2135.0
-382.68 -1217.61 2236.4
-377.88 -1220.85 2242.4
-362.39 -1189.08 2184.0
-372.32 -1241.05 2279.5
-358.71 -1255.48 2306.0
-355.37 -1264.87 2323.2
-341.72 -1237.28 2272.5
-336.57 -1240.01 2277.6
-296.03 -1243.33 2283.7
-1232.61 -1244.41 2274.8
-1229.50 -1247.24 2280.0
-1217.83 -1272.09 2325.4
-1188.39 -1253.75 2291.9
-1153.48 -1248.12 2281.6
-1157.80 -1272.38 2325.9
-1130.02 -1248.35 2282.0
-1160.74 -1289.03 2356.4
-1134.98 -1287.53 2353.6
-1093.65 -1260.98 2305.1
-1067.51 -1237.61 2262.4
-1023.29 -1192.90 2180.6
-1004.05 -1176.97 2151.5
-982.68 -1158.35 2117.5
-937.43 -1111.23 2031.4
-941.87 -1122.79 2052.5
-959.58 -1150.40 2103.0
-953.77 -1149.97 2102.2
-937.28 -1136.59 2077.7
-912.48 -1112.91 2034.4
-900.25 -1104.38 2018.8
-906.95 -1119.10 2045.7
-908.83 -1128.01 2062.0
-897.35 -1120.36 2048.1
-864.88 -1086.25 1985.7
-849.37 -1073.16 1961.8
-849.87 -1080.26 1974.7
-835.19 -1068.04 1952.4
-824.11 -1060.29 1938.2
-823.17 -1065.58 1947.9
-815.96 -1062.76 1942.8
-801.89 -1050.93 1921.1
-839.34 -1188.59 2172.8
-843.80 -1211.17 2214.0
-640.00 -1195.04 2184.6
-646.04 -1217.08 2224.9
-636.70 -1210.30 2212.5
-630.33 -1209.09 2210.2
-628.06 -1215.79 2222.5
-620.24 -1211.77 2215.2
-610.09 -1203.08 2199.3
-599.08 -1192.51 2179.9
-597.92 -1201.53 2196.4
-593.68 -1204.48 2201.8
-584.36 -1220.80 2231.7
-592.84 -1250.88 2286.7
-586.10 -1249.15 2283.5
-575.03 -1250.83 2286.6
-558.06 -1226.58 2242.2
-548.92 -1219.18 2228.7
-533.36 -1197.22 2188.6
-526.27 -1194.02 2182.7
-535.60 -1228.39 2245.5
-536.30 -1243.52 2273.2
-507.81 -1231.59 2251.4
-487.60 -1196.33 2186.9
-492.20 -1221.81 2233.5
-479.29 -1203.94 2200.8
-454.12 -1154.46 2110.4
-449.75 -1157.29 2115.6
-461.30 -1201.66 2196.7
-461.88 -1218.20 2226.9
-436.65 -1166.25 2131.9
-412.73 -1145.86 2094.7
-413.50 -1163.32 2126.6
-397.02 -1132.05 2069.4
-387.87 -1121.11 2049.4
-390.29 -1143.78 2090.9
-374.81 -1113.87 2036.2
-370.05 -1148.24 2099.0
-379.19 -1194.18 2183.0
-378.41 -1209.77 2211.5
-359.78 -1167.91 2135.0
-353.64 -1165.92 2131.3
-372.06 -1246.11 2277.9
-346.29 -1217.79 2226.2
-342.62 -1225.29 2239.9
-343.45 -1249.45 2284.0
-331.93 -1273.39 2327.8
-316.11 -1235.16 2257.9
-313.33 -1247.40 2280.3
-302.59 -1251.88 2288.5
-295.49 -1246.96 2279.5
-1247.08 -1258.96 2290.6
-1219.07 -1236.57 2249.8
-1203.20 -1226.34 2231.2
-1217.61 -1247.03 2268.8
-1223.39 -1259.02 2290.7
-1187.74 -1265.33 2302.2
-1160.99 -1275.29 2320.3
-1145.94 -1265.31 2302.1
-1108.68 -1230.57 2238.9
-1129.15 -1259.90 2292.3
-1091.00 -1236.85 2250.3
-1089.94 -1242.30 2260.2
-1110.54 -1272.62 2315.4
-1085.37 -1250.54 2275.2
-1061.15 -1229.31 2236.6
-1014.35 -1188.07 2161.6
-1003.11 -1181.44 2149.5
-999.84 -1184.17 2154.5
-975.17 -1161.44 2113.1
-973.44 -1165.93 2121.3
-981.70 -1182.50 2151.4
-979.47 -1186.55 2158.8
-972.06 -1184.34 2154.8
-955.88 -1171.37 2131.2
-953.27 -1174.96 2137.7
-957.15 -1186.64 2159.0
-939.51 -1178.56 2144.3
-897.93 -1133.11 2061.6
-861.69 -1093.88 1990.2
-839.88 -1072.62 1951.5
-802.10 -1030.58 1875.0
-768.15 -992.98 1806.6
-784.53 -1020.37 1856.5
-801.01 -1048.24 1907.2
-799.75 -1053.08 1916.0
-882.70 -1176.93 2141.3
-872.86 -1178.64 2144.4
-859.67 -1183.44 2153.2
-879.64 -1218.85 2217.6
-858.98 -1205.98 2194.2
-812.55 -1257.38 2287.7
-802.42 -1250.83 2275.8
-785.80 -1243.20 2261.9
-654.97 -1197.02 2177.9
-657.25 -1233.06 2243.4
-639.70 -1210.86 2203.1
-641.67 -1225.53 2229.7
-646.41 -1245.81 2266.6
-639.43 -1243.67 2262.7
-625.32 -1227.49 2233.3
-621.75 -1231.87 2241.3
-617.90 -1235.79 2248.4
-609.60 -1230.81 2239.3
-596.51 -1215.97 2212.3
-572.99 -1190.92 2166.8
-582.86 -1223.43 2225.9
-576.71 -1222.63 2224.5
-563.23 -1243.81 2263.0
-562.06 -1254.28 2282.1
-555.15 -1252.04 2278.0
-546.60 -1246.02 2267.0
-509.99 -1242.75 2261.1
-498.02 -1227.68 2233.6
-490.92 -1224.42 2227.7
-466.04 -1176.20 2140.0
-459.76 -1174.32 2136.6
-473.82 -1225.00 2228.8
-467.33 -1223.13 2225.4
-450.84 -1194.71 2173.7
-437.25 -1173.38 2134.9
-418.80 -1138.27 2071.0
-412.38 -1135.39 2065.7
-421.99 -1177.12 2141.7
-413.90 -1169.97 2128.7
-388.31 -1112.46 2024.0
-381.81 -1124.21 2045.4
-383.01 -1143.63 2080.7
-382.62 -1158.78 2108.3
-379.61 -1166.33 2122.0
-382.48 -1192.43 2169.5
-379.39 -1200.46 2184.1
-365.25 -1173.23 2134.6
-353.55 -1153.13 2098.0
-355.57 -1177.82 2142.9
-359.76 -1210.62 2202.6
-360.02 -1231.04 2239.8
-362.70 -1260.52 2293.4
-354.43 -1252.32 2278.5
-334.95 -1245.79 2266.6
-326.73 -1259.40 2291.4
-312.72 -1227.72 2233.7
-316.46 -1265.83 2303.1
-292.22 -1264.28 2300.2
-283.83 -1253.58 2280.8
-1246.83 -1264.64 2290.1
-1224.41 -1247.84 2259.7
-1208.10 -1237.14 2240.3
-1211.28 -1252.44 2268.0
-1197.82 -1250.67 2264.8
-1218.96 -1285.34 2327.6
-1156.22 -1262.95 2287.0
-1151.01 -1283.58 2324.4
-1117.81 -1253.13 2269.2
-1125.86 -1268.82 2297.7
-1104.08 -1271.19 2302.0
-1094.38 -1266.86 2294.1
-1082.41 -1259.85 2281.4
-1068.19 -1250.14 2263.8
-984.36 -1177.92 2133.1
-962.09 -1157.76 2096.6
-968.90 -1172.59 2123.4
-967.10 -1177.10 2131.6
-946.53 -1158.68 2098.2
-919.89 -1132.58 2050.9
-932.73 -1155.06 2091.7
-951.90 -1185.69 2147.1
-930.02 -1172.16 2122.6
-891.73 -1130.59 2047.3
-861.57 -1098.89 1989.9
-848.60 -1088.86 1971.8
-816.41 -1053.91 1908.5
-796.37 -1034.31 1873.0
-832.00 -1087.21 1968.8
-863.05 -1134.75 2054.9
-882.03 -1166.91 2113.1
-909.00 -1217.72 2205.1
-865.78 -1189.75 2154.5
-866.42 -1198.35 2170.1
-839.09 -1168.15 2115.4
-867.13 -1215.12 2200.4
-850.23 -1257.64 2277.4
-804.62 -1250.97 2265.3
-662.25 -1195.41 2164.7
-674.41 -1238.36 2242.5
-653.33 -1242.50 2250.0
-644.78 -1248.52 2260.9
-624.13 -1219.62 2208.6
-614.92 -1212.75 2196.1
-617.09 -1228.42 2224.5
-620.53 -1246.92 2258.0
-619.63 -1256.96 2276.2
-615.42 -1260.43 2282.5
-601.16 -1243.18 2251.2
-591.11 -1234.38 2235.3
-592.31 -1249.13 2262.0
-581.20 -1237.96 2241.8
-562.86 -1235.98 2238.2
-553.49 -1228.06 2223.9
-499.60 -1237.39 2240.7
-474.49 -1189.02 2153.2
-464.99 -1179.08 2135.1
-473.90 -1216.14 2202.3
-454.47 -1210.02 2191.2
-436.08 -1175.76 2129.1
-420.27 -1147.66 2078.3
-414.87 -1147.63 2078.2
-420.35 -1178.08 2133.3
-408.43 -1159.94 2100.5
-393.03 -1131.29 2048.6
-395.22 -1153.17 2088.2
-395.91 -1171.24 2121.0
-394.21 -1182.64 2141.6
-391.31 -1190.70 2156.2
-386.63 -1193.50 2161.3
-389.09 -1218.75 2207.0
-385.15 -1224.43 2217.3
-380.42 -1227.70 2223.2
-378.86 -1241.50 2248.2
-363.95 -1211.29 2193.5
-352.01 -1190.14 2155.2
-341.66 -1173.76 2125.5
-334.20 -1166.94 2113.2
-346.90 -1231.49 2230.1
-346.79 -1251.98 2267.2
-322.09 -1182.86 2142.0
-318.59 -1256.65 2275.6
-318.62 -1280.51 2318.8
-291.79 -1268.39 2296.9
-283.31 -1257.17 2276.6
-1236.73 -1254.32 2260.8
-1209.61 -1238.55 2232.4
-1071.43 -1252.93 2258.3
-996.53 -1198.08 2159.4
-967.88 -1170.20 2109.2
-966.13 -1174.72 2117.3
-951.80 -1163.91 2097.8
-917.74 -1128.71 2034.4
-905.87 -1120.55 2019.7
-927.48 -1153.96 2079.9
-926.77 -1159.82 2090.5
-904.79 -1138.97 2052.9
-877.97 -1111.75 2003.8
-832.50 -1060.45 1911.4
-845.17 -1083.03 1952.1
-879.13 -1133.33 2042.7
-858.72 -1113.73 2007.4
-851.36 -1110.92 2002.3
-853.03 -1119.93 2018.6
-840.84 -1110.74 2002.0
-877.87 -1196.58 2156.7
-853.56 -1170.91 2110.5
-886.49 -1223.92 2206.0
-888.31 -1234.41 2224.9
-859.57 -1202.27 2167.0
-882.24 -1242.10 2238.8
-882.55 -1250.77 2254.4
-855.75 -1220.86 2200.5
-839.73 -1222.46 2203.4
-824.42 -1216.74 2193.1
-780.94 -1266.07 2282.0
-755.29 -1233.84 2223.9
-666.84 -1219.69 2198.4
-662.28 -1221.78 2202.1
-631.88 -1240.56 2236.0
-614.76 -1218.13 2195.6
-619.05 -1238.09 2231.5
-623.63 -1259.02 2269.3
-608.56 -1240.31 2235.5
-590.91 -1215.92 2191.6
-592.35 -1230.70 2218.2
-598.83 -1256.37 2264.5
-599.28 -1269.76 2288.6
-588.55 -1259.50 2270.1
-573.53 -1239.76 2234.5
-559.56 -1221.89 2202.3
-557.98 -1231.00 2218.8
-519.97 -1250.26 2253.5
-505.35 -1228.92 2215.0
-493.67 -1242.89 2240.2
-486.94 -1240.55 2236.0
-473.76 -1221.51 2201.7
-464.78 -1212.95 2186.2
-463.45 -1224.42 2206.9
-449.70 -1202.95 2168.2
-434.91 -1178.11 2123.4
-420.87 -1154.69 2081.2
-410.65 -1141.28 2057.0
-409.54 -1153.19 2078.5
-394.75 -1126.36 2030.2
-387.61 -1136.29 2048.0
-396.94 -1179.79 2126.5
-385.53 -1162.01 2094.4
-372.08 -1137.51 2050.2
-368.59 -1143.18 2060.5
-372.21 -1171.38 2111.3
-371.07 -1185.21 2136.2
-370.83 -1202.40 2167.2
-379.77 -1250.31 2253.6
-376.06 -1257.44 2266.4
-359.84 -1222.30 2203.1
-346.86 -1197.22 2157.9
-346.15 -1255.54 2263.0
-343.65 -1267.94 2285.3
-327.05 -1227.89 2213.1
-329.22 -1258.08 2267.6
-328.01 -1276.24 2300.3
-317.03 -1256.37 2264.5
-313.99 -1267.79 2285.1
-1234.76 -1258.17 2257.2
-1200.79 -1229.38 2205.5
-1186.16 -1244.02 2231.8
-1065.45 -1251.75 2245.7
-986.08 -1171.31 2101.4
-999.90 -1194.33 2142.7
-988.75 -1187.60 2130.6
-960.82 -1160.54 2082.0
-951.71 -1156.03 2073.9
-946.70 -1156.48 2074.7
-927.68 -1139.72 2044.7
-904.77 -1117.96 2005.6
-900.26 -1118.82 2007.2
-912.80 -1141.00 2047.0
-901.69 -1133.70 2033.9
-884.16 -1118.21 2006.1
-863.19 -1098.14 1970.1
-825.30 -1056.19 1894.8
-846.48 -1089.77 1955.1
-907.48 -1175.36 2108.6
-913.89 -1190.83 2136.4
-901.36 -1181.67 2119.9
-901.72 -1189.39 2133.8
-898.92 -1193.01 2140.3
-882.70 -1208.80 2168.6
-845.40 -1165.13 2090.3
-861.77 -1195.36 2144.5
-892.71 -1246.31 2235.9
-895.72 -1258.69 2258.1
-882.35 -1248.06 2239.0
-850.95 -1211.61 2173.7
-828.53 -1187.56 2130.5
-864.81 -1247.88 2238.7
-851.84 -1245.89 2235.2
-810.52 -1193.58 2141.3
-851.06 -1261.92 2263.9
-833.97 -1253.87 2249.5
-821.78 -1271.10 2280.4
-801.78 -1249.15 2241.0
-792.63 -1243.91 2231.6
-782.11 -1264.31 2268.2
-672.81 -1236.37 2218.1
-648.89 -1202.68 2157.6
-647.94 -1211.36 2173.2
-637.66 -1202.60 2157.5
-643.81 -1224.95 2197.6
-637.24 -1234.30 2214.4
-634.34 -1251.21 2244.7
-611.27 -1216.87 2183.1
-609.22 -1224.13 2196.1
-619.94 -1257.43 2255.9
-579.06 -1197.10 2147.6
-577.05 -1216.33 2182.1
-579.26 -1233.07 2212.2
-581.09 -1249.34 2241.3
-577.96 -1255.18 2251.8
-562.65 -1234.39 2214.5
-560.61 -1242.59 2229.2
-567.41 -1270.77 2279.8
-564.29 -1277.08 2291.1
-554.65 -1268.62 2275.9
-550.24 -1272.06 2282.1
-503.41 -1216.11 2181.7
-490.16 -1197.54 2148.4
-508.77 -1257.30 2255.6
-488.23 -1234.94 2215.5
-488.29 -1249.80 2242.2
-483.79 -1253.19 2248.2
-469.39 -1230.73 2207.9
-461.69 -1225.48 2198.5
-443.70 -1192.43 2139.2
-425.11 -1156.96 2075.6
-421.81 -1162.68 2085.9
-421.89 -1178.00 2113.4
-418.94 -1185.17 2126.2
-402.37 -1153.45 2069.3
-381.61 -1108.74 1989.1
-388.83 -1145.18 2054.5
-397.16 -1185.96 2127.6
-384.80 -1165.23 2090.4
-373.25 -1146.40 2056.7
-371.44 -1157.39 2076.4
-371.66 -1175.11 2108.2
-367.52 -1179.35 2115.8
-366.29 -1193.23 2140.7
-374.55 -1238.90 2222.6
-370.49 -1244.60 2232.8
-352.10 -1201.62 2155.7
-344.68 -1195.25 2144.3
-330.60 -1165.23 2090.5
-339.95 -1238.81 2222.4
-322.48 -1216.36 2182.2
-309.40 -1231.88 2210.0
-1227.17 -1250.32 2232.7
-1238.39 -1267.74 2263.8
-1194.90 -1252.91 2237.3
-1204.86 -1269.51 2267.0
-1204.20 -1275.04 2276.9
-1113.03 -1252.16 2236.0
-1083.25 -1244.59 2222.5
-1095.51 -1265.40 2259.6
-1102.55 -1280.39 2286.4
-1096.35 -1280.07 2285.8
-1074.01 -1260.80 2251.4
-1073.94 -1274.56 2276.0
-971.05 -1165.26 2080.8
-993.07 -1198.34 2139.9
-996.51 -1209.25 2159.4
-969.39 -1182.98 2112.5
-945.43 -1160.30 2072.0
-887.05 -1094.87 1955.1
-866.24 -1081.54 1931.3
-914.10 -1147.94 2049.9
-893.61 -1128.77 2015.7
-868.96 -1104.09 1971.6
-880.57 -1125.46 2009.8
-879.57 -1130.87 2019.4
-849.90 -1099.27 1963.0
-858.10 -1116.56 1993.9
-864.75 -1132.04 2021.5
-854.58 -1125.54 2009.9
-881.13 -1167.63 2085.1
-907.68 -1210.23 2161.1
-910.07 -1236.32 2207.7
-879.08 -1201.78 2146.0
-897.90 -1235.33 2205.9
-895.00 -1247.23 2227.2
-864.65 -1236.85 2208.7
-833.81 -1200.69 2144.1
-818.60 -1186.70 2119.1
-807.31 -1178.24 2104.0
-852.26 -1252.30 2236.2
-817.14 -1234.27 2204.1
-806.70 -1244.63 2222.5
-793.36 -1232.85 2201.5
-814.98 -1275.62 2277.9
-786.80 -1240.50 2215.2
-792.14 -1258.11 2246.6
-771.81 -1253.47 2238.3
-764.48 -1250.97 2233.9
-748.70 -1263.43 2256.1
-689.22 -1200.58 2143.9
-671.55 -1229.28 2195.2
-663.17 -1224.31 2186.3
-665.48 -1239.17 2212.8
-663.72 -1257.57 2245.7
-649.09 -1240.74 2215.6
-631.90 -1218.67 2176.2
-620.51 -1207.48 2156.2
-625.63 -1228.51 2193.8
-606.83 -1248.34 2229.2
-580.06 -1204.74 2151.3
-582.03 -1220.58 2179.6
-595.13 -1272.75 2272.8
-589.31 -1272.90 2273.0
-576.05 -1256.83 2244.3
-549.94 -1212.12 2164.5
-544.59 -1212.69 2165.5
-549.84 -1237.14 2209.2
-555.29 -1262.56 2254.6
-552.40 -1269.35 2266.7
-539.78 -1253.68 2238.7
-538.90 -1265.25 2259.4
-516.38 -1267.49 2263.4
-472.80 -1201.46 2145.5
-464.07 -1193.32 2130.9
-464.27 -1208.22 2157.5
-452.30 -1191.41 2127.5
-459.94 -1226.50 2190.2
-456.40 -1232.28 2200.5
-420.09 -1148.59 2051.1
-410.80 -1152.37 2057.8
-415.71 -1213.42 2166.8
-407.31 -1205.19 2152.1
-399.78 -1199.35 2141.7
-393.74 -1197.85 2139.0
-388.80 -1199.72 2142.4
-373.04 -1167.79 2085.3
-359.25 -1141.15 2037.8
-371.17 -1196.61 2136.8
-386.13 -1263.69 2256.6
-377.35 -1253.96 2239.2
-355.76 -1200.68 2144.1
-340.29 -1166.72 2083.4
-334.86 -1166.61 2083.2
-341.86 -1210.53 2161.7
-354.92 -1277.71 2281.6
-330.80 -1231.96 2199.9
-325.32 -1232.80 2201.4
-321.47 -1239.94 2214.2
-314.28 -1257.12 2244.9
-1223.39 -1246.36 2215.4
-1224.33 -1253.21 2227.6
-1199.98 -1270.22 2257.8
-1219.85 -1297.58 2306.4
-1195.48 -1290.65 2294.1
-1114.45 -1272.82 2262.4
-1075.59 -1241.50 2206.8
-1077.11 -1256.63 2233.6
-1036.70 -1216.02 2161.5
-1032.31 -1217.45 2164.0
-1000.11 -1199.03 2131.3
-970.88 -1170.46 2080.5
-997.37 -1209.10 2149.2
-976.67 -1204.19 2140.4
-893.19 -1107.55 1968.7
-859.86 -1072.35 1906.1
-913.10 -1145.33 2035.8
-914.31 -1153.52 2050.4
-849.50 -1078.02 1916.2
-832.62 -1062.82 1889.1
-851.18 -1092.93 1942.7
-855.65 -1105.22 1964.5
-831.42 -1080.35 1920.3
-821.79 -1074.27 1909.5
-815.00 -1071.85 1905.2
-837.42 -1108.05 1969.5
-898.93 -1196.74 2127.2
-900.60 -1206.36 2144.3
-908.00 -1223.83 2175.3
-905.80 -1236.21 2197.4
-901.39 -1261.95 2243.1
-867.29 -1222.09 2172.2
-869.77 -1233.60 2192.7
-877.68 -1253.01 2227.2
-838.93 -1205.62 2143.0
-817.58 -1182.76 2102.3
-812.05 -1182.64 2102.1
-853.72 -1277.64 2271.0
-818.08 -1232.80 2191.3
-806.48 -1223.82 2175.3
-814.81 -1245.17 2213.3
-800.80 -1232.43 2190.6
-779.05 -1207.53 2146.4
-800.65 -1249.94 2221.8
-802.27 -1270.75 2258.7
-774.60 -1235.94 2196.9
-786.90 -1264.86 2248.3
-774.02 -1253.46 2228.0
-728.43 -1188.50 2112.5
-739.13 -1215.08 2159.8
-741.57 -1247.44 2217.3
-716.54 -1214.76 2159.2
-715.95 -1242.89 2209.2
-684.74 -1198.29 2129.9
-678.59 -1247.91 2218.1
-667.08 -1237.24 2199.2
-662.03 -1260.18 2240.0
-655.10 -1258.01 2236.1
-614.97 -1270.94 2259.1
-592.26 -1235.78 2196.6
-599.33 -1262.67 2244.4
-597.17 -1283.04 2280.6
-584.72 -1268.84 2255.3
-566.49 -1241.70 2207.1
-542.23 -1200.65 2134.1
-537.81 -1203.13 2138.5
-463.57 -1197.56 2128.6
-449.03 -1173.96 2086.7
-441.97 -1169.62 2079.0
-453.86 -1215.91 2161.3
-459.65 -1246.79 2216.1
-430.88 -1183.56 2103.8
-402.68 -1120.28 1991.3
-405.56 -1142.93 2031.5
-413.47 -1180.58 2098.5
-411.86 -1191.65 2118.1
-414.11 -1214.34 2158.5
-412.40 -1225.91 2179.0
-408.83 -1232.16 2190.1
-390.41 -1210.27 2151.2
-364.94 -1147.71 2040.0
-355.82 -1135.50 2018.3
-372.71 -1207.15 2145.7
-387.33 -1273.50 2263.6
-379.26 -1266.16 2250.6
-369.26 -1252.01 2225.4
-365.29 -1258.23 2236.5
-355.72 -1245.03 2213.0
-357.60 -1272.13 2261.2
-351.37 -1292.33 2297.1
-343.05 -1283.48 2281.4
-322.62 -1272.89 2262.5
-312.60 -1256.21 2232.9
-1214.42 -1291.43 2285.0
-1062.96 -1219.61 2157.9
-1053.13 -1214.72 2149.2
-1035.84 -1214.05 2148.0
-1023.39 -1205.94 2133.7
-1050.51 -1244.62 2202.2
-1038.00 -1236.52 2187.8
-996.67 -1193.81 2112.2
-969.66 -1167.88 2066.4
-974.10 -1179.74 2087.4
-958.21 -1166.99 2064.8
-948.76 -1161.96 2055.9
-954.18 -1175.21 2079.3
-911.50 -1129.02 1997.6
-899.68 -1120.74 1983.0
-931.05 -1166.48 2063.9
-937.68 -1181.59 2090.6
-894.61 -1133.87 2006.2
-847.86 -1093.69 1935.1
-909.07 -1179.62 2087.1
-864.48 -1128.48 1996.7
-836.78 -1098.91 1944.3
-847.71 -1120.01 1981.7
-888.32 -1180.82 2089.3
-927.54 -1248.17 2208.4
-904.38 -1224.57 2166.7
-900.09 -1226.38 2169.9
-888.02 -1217.53 2154.2
-890.79 -1229.07 2174.6
-893.80 -1241.07 2195.9
-874.46 -1222.00 2162.1
-888.95 -1250.26 2212.1
-904.19 -1279.95 2264.7
-878.05 -1251.08 2213.6
-861.56 -1235.66 2186.3
-861.32 -1243.50 2200.2
-873.20 -1269.06 2245.4
-872.44 -1276.45 2258.5
-868.51 -1287.99 2278.9
-833.89 -1253.72 2218.2
-805.51 -1219.45 2157.6
-819.49 -1249.29 2210.4
-820.75 -1278.02 2261.2
-808.23 -1267.58 2242.8
-801.14 -1265.58 2239.2
-804.12 -1279.55 2263.9
-802.28 -1286.00 2275.4
-780.56 -1260.46 2230.2
-736.18 -1197.67 2119.1
-738.85 -1248.60 2209.2
-737.45 -1255.98 2222.2
-676.17 -1208.25 2137.8
-650.30 -1211.68 2143.9
-670.69 -1260.43 2230.1
-649.69 -1231.59 2179.1
-635.92 -1216.07 2151.6
-643.05 -1240.56 2195.0
-585.43 -1263.61 2235.7
-568.25 -1238.78 2191.8
-567.64 -1249.95 2211.6
-561.31 -1248.62 2209.2
-559.91 -1258.35 2226.4
-496.89 -1217.09 2153.4
-493.66 -1222.93 2163.8
-503.10 -1260.63 2230.5
-494.67 -1253.92 2218.6
-476.68 -1222.56 2163.1
-461.59 -1197.93 2119.5
-445.97 -1171.33 2072.5
-438.59 -1166.00 2063.0
-441.69 -1188.74 2103.3
-438.18 -1194.05 2112.7
-424.10 -1170.30 2070.7
-409.70 -1145.07 2026.0
-410.09 -1161.02 2054.2
-415.23 -1191.04 2107.4
-404.07 -1174.51 2078.1
-397.35 -1170.58 2071.1
-403.99 -1206.44 2134.6
-398.74 -1224.31 2166.2
-375.94 -1170.79 2071.5
-373.93 -1181.41 2090.3
-390.48 -1251.84 2214.9
-373.29 -1271.51 2249.7
-347.57 -1262.85 2234.4
-344.92 -1274.44 2254.9
-343.45 -1290.91 2284.1
-317.22 -1257.34 2224.7
-1228.88 -1287.67 2267.9
-1121.65 -1286.09 2265.1
-1059.21 -1220.87 2150.3
-1054.10 -1221.41 2151.2
-1067.32 -1243.32 2189.8
-1052.02 -1232.04 2169.9
-1019.39 -1200.25 2113.9
-1025.89 -1214.43 2138.9
-1077.10 -1281.98 2257.9
-1031.78 -1241.54 2186.7
-995.19 -1204.12 2120.8
-969.79 -1179.91 2078.1
-927.36 -1134.59 1998.3
-905.05 -1132.61 1994.8
-915.18 -1151.86 2028.7
-902.98 -1143.08 2013.3
-883.26 -1124.62 1980.7
-875.88 -1135.01 1999.0
-897.81 -1177.37 2073.7
-849.29 -1120.44 1973.4
-838.87 -1113.40 1961.0
-849.31 -1134.14 1997.5
-867.17 -1165.09 2052.0
-898.50 -1214.64 2139.3
-923.97 -1256.82 2213.6
-897.97 -1244.65 2192.1
-854.21 -1191.54 2098.6
-866.29 -1216.14 2141.9
-911.82 -1288.31 2269.0
-868.38 -1242.97 2189.2
-870.75 -1254.57 2209.6
-834.29 -1242.93 2189.1
-822.61 -1251.05 2203.4
-797.80 -1221.81 2151.9
-826.15 -1283.16 2260.0
-822.93 -1287.29 2267.2
-804.19 -1276.22 2247.7
-790.02 -1262.88 2224.3
-786.22 -1266.04 2229.8
-763.46 -1238.50 2181.3
-749.89 -1225.57 2158.5
-730.11 -1202.21 2117.4
-716.51 -1188.76 2093.7
-741.26 -1239.21 2182.6
-726.37 -1233.13 2171.9
-746.96 -1277.99 2250.9
-686.23 -1221.82 2151.9
-669.11 -1201.11 2115.5
-657.28 -1230.30 2166.9
-644.97 -1239.02 2182.2
-634.97 -1230.60 2167.4
-641.00 -1276.18 2247.7
-604.25 -1214.04 2138.2
-591.90 -1211.46 2133.7
-577.11 -1263.86 2226.0
-566.60 -1253.39 2207.5
-561.79 -1255.43 2211.1
-562.94 -1270.98 2238.5
-508.75 -1251.87 2204.9
-499.75 -1243.69 2190.5
-490.52 -1249.11 2200.0
-470.53 -1212.30 2135.2
-466.86 -1217.17 2143.7
-459.65 -1212.81 2136.1
-438.12 -1170.09 2060.8
-427.02 -1154.54 2033.4
-434.34 -1189.01 2094.1
-430.83 -1194.33 2103.5
-414.63 -1164.16 2050.4
-413.24 -1175.31 2070.0
-417.99 -1204.46 2121.4
-406.81 -1187.87 2092.1
-391.33 -1158.12 2039.7
-388.29 -1164.87 2051.6
-386.79 -1176.50 2072.1
-371.92 -1147.17 2020.5
-365.09 -1142.21 2011.7
-378.60 -1201.64 2116.4
-388.09 -1249.87 2201.3
-385.65 -1260.55 2220.1
-370.88 -1269.11 2235.2
-368.86 -1282.22 2258.3
-360.64 -1294.75 2280.4
-337.27 -1231.05 2168.2
-320.94 -1191.28 2098.1
-324.41 -1224.92 2157.4
-331.65 -1274.24 2244.3
-330.06 -1290.77 2273.4
-306.12 -1289.22 2270.6
-295.05 -1266.99 2231.5
-1226.05 -1290.58 2262.7
-1136.73 -1231.92 2159.9
-1099.57 -1221.75 2142.0
-1087.23 -1214.17 2128.7
-1098.36 -1232.85 2161.5
-1085.46 -1243.76 2180.6
-1065.68 -1227.48 2152.1
-1028.70 -1191.13 2088.3
-1019.81 -1187.09 2081.3
-1029.67 -1204.93 2112.5
-1066.93 -1255.22 2200.7
-1066.06 -1267.75 2222.7
-1038.76 -1255.65 2201.5
-975.36 -1185.53 2078.5
-925.66 -1131.36 1983.6
-933.57 -1147.41 2011.7
-933.17 -1153.36 2022.1
-869.96 -1087.44 1906.6
-904.54 -1137.14 1993.7
-904.08 -1143.09 2004.1
-882.14 -1121.80 1966.8
-852.79 -1090.78 1912.4
-853.86 -1098.54 1926.0
-890.63 -1152.58 2020.8
-897.79 -1168.72 2049.1
-881.11 -1153.84 2023.0
-834.98 -1099.98 1928.5
-833.23 -1117.75 1959.7
-832.55 -1123.68 1970.1
-844.49 -1146.84 2010.7
-888.29 -1213.81 2128.1
-919.68 -1264.56 2217.1
-906.13 -1261.70 2212.1
-853.36 -1195.80 2096.5
-855.49 -1206.46 2115.2
-867.41 -1231.16 2158.5
-833.94 -1207.02 2116.2
-854.13 -1244.43 2181.8
-873.38 -1280.96 2245.8
-855.77 -1280.74 2245.5
-796.38 -1225.20 2148.1
-804.73 -1246.77 2185.9
-824.10 -1285.83 2254.4
-784.50 -1259.79 2208.7
-766.68 -1240.21 2174.4
-742.32 -1209.71 2120.9
-724.57 -1189.59 2085.6
-744.86 -1232.10 2160.2
-715.35 -1210.59 2122.5
-725.06 -1236.54 2168.0
-669.34 -1258.58 2206.6
-633.67 -1244.72 2182.3
-617.20 -1245.73 2184.1
-601.22 -1224.71 2147.2
-563.17 -1251.49 2194.2
-547.19 -1228.38 2153.6
-541.00 -1227.02 2151.3
-525.01 -1283.37 2250.1
-506.24 -1251.38 2194.0
-477.35 -1235.50 2166.1
-461.90 -1209.73 2121.0
-458.42 -1215.09 2130.4
-439.83 -1180.02 2068.9
-429.25 -1165.87 2044.1
-438.48 -1205.82 2114.1
-439.13 -1222.88 2144.0
-426.99 -1204.32 2111.5
-402.20 -1149.13 2014.7
-382.78 -1108.05 1942.7
-399.70 -1172.46 2055.6
-411.94 -1224.70 2147.2
-401.82 -1210.96 2123.1
-392.14 -1198.19 2100.7
-388.56 -1204.00 2110.9
-391.94 -1231.83 2159.7
-367.77 -1207.60 2117.2
-359.17 -1197.22 2099.0
-367.89 -1245.16 2183.1
-367.91 -1264.69 2217.3
-364.66 -1273.42 2232.6
-363.69 -1290.50 2262.6
-353.17 -1273.72 2233.1
-327.66 -1201.44 2106.4
-322.83 -1203.76 2110.5
-336.87 -1277.80 2240.3
-328.62 -1268.34 2223.7
-312.43 -1227.41 2151.9
-305.22 -1220.86 2140.5
-303.73 -1237.43 2169.5
-310.99 -1290.89 2263.2
-287.81 -1292.21 2265.6
-1172.73 -1216.78 2123.7
-1075.28 -1206.27 2105.3
-1097.74 -1237.76 2160.3
-1086.01 -1243.56 2170.4
-1078.89 -1241.85 2167.4
-1037.56 -1206.85 2106.3
-1029.41 -1203.71 2100.8
-1032.20 -1213.38 2117.7
-1067.47 -1261.56 2201.8
-1038.84 -1254.56 2189.6
-1021.86 -1240.83 2165.6
-992.53 -1211.88 2115.1
-958.55 -1176.88 2054.0
-982.35 -1212.85 2116.8
-969.93 -1211.04 2113.6
-935.74 -1175.00 2050.7
-942.86 -1190.70 2078.2
-931.27 -1182.82 2064.4
-897.25 -1146.19 2000.5
-900.31 -1156.80 2019.0
-935.25 -1208.71 2109.6
-927.26 -1205.44 2103.9
-886.61 -1159.41 2023.5
-862.93 -1135.17 1981.2
-810.96 -1073.18 1873.0
-812.34 -1094.67 1910.6
-816.24 -1106.67 1931.5
-825.51 -1126.16 1965.5
-859.83 -1180.26 2059.9
-881.86 -1218.06 2125.9
-892.46 -1240.47 2165.0
-906.57 -1268.05 2213.1
-879.14 -1245.45 2173.7
-871.16 -1242.10 2167.9
-873.67 -1253.77 2188.2
-885.52 -1279.09 2232.4
-879.37 -1278.56 2231.5
-869.68 -1272.85 2221.5
-825.19 -1215.78 2121.9
-836.45 -1249.03 2179.9
-771.16 -1253.13 2187.1
-749.41 -1226.81 2141.2
-725.27 -1196.16 2087.7
-736.93 -1224.52 2137.2
-707.71 -1261.32 2201.4
-683.64 -1248.63 2179.3
-667.43 -1229.18 2145.3
-668.45 -1241.40 2166.6
-671.41 -1257.47 2194.7
-657.48 -1252.61 2186.2
-629.63 -1209.98 2111.8
-650.33 -1260.72 2200.4
-636.67 -1256.29 2192.6
-625.75 -1245.87 2174.4
-627.65 -1261.00 2200.8
-608.69 -1234.14 2154.0
-603.66 -1235.26 2155.9
-557.67 -1232.44 2151.0
-541.27 -1208.28 2108.8
-535.84 -1208.37 2109.0
-540.85 -1232.26 2150.7
-547.33 -1273.27 2222.2
-520.03 -1249.20 2180.2
-509.79 -1238.06 2160.8
-513.74 -1261.51 2201.7
-491.30 -1233.83 2153.4
-492.07 -1249.97 2181.6
-489.85 -1258.79 2197.0
-458.81 -1192.91 2082.0
-449.89 -1183.63 2065.8
-452.24 -1204.15 2101.6
-440.80 -1188.01 2073.5
-438.11 -1195.33 2086.2
-437.30 -1208.04 2108.4
-427.98 -1197.25 2089.6
-414.95 -1175.68 2051.9
-390.15 -1119.79 1954.4
-383.96 -1131.41 1974.7
-406.90 -1215.20 2120.9
-408.84 -1237.71 2160.2
-395.87 -1215.09 2120.7
-387.04 -1204.72 2102.6
-390.90 -1234.11 2153.9
-390.20 -1249.76 2181.2
-386.30 -1274.20 2223.9
-362.59 -1214.14 2119.0
-355.62 -1209.12 2110.3
-357.39 -1234.11 2153.9
-355.98 -1248.77 2179.5
-356.94 -1272.30 2220.6
-348.97 -1264.32 2206.6
-328.51 -1210.01 2111.8
-327.73 -1227.62 2142.6
-341.29 -1300.44 2269.7
-332.07 -1287.50 2247.1
-309.84 -1222.75 2134.1
-300.70 -1253.86 2188.4
-1138.56 -1203.62 2091.2
-1131.64 -1243.69 2160.8
-1064.06 -1205.21 2094.0
-1049.97 -1207.74 2098.4
-1078.66 -1247.20 2167.0
-1079.77 -1261.62 2192.0
-1070.26 -1257.14 2184.2
-1044.22 -1259.88 2189.0
-1002.10 -1215.66 2112.2
-987.57 -1204.62 2093.0
-983.67 -1206.49 2096.2
-971.50 -1198.18 2081.8
-973.95 -1207.91 2098.7
-976.68 -1218.11 2116.4
-964.56 -1209.78 2101.9
-955.07 -1204.68 2093.1
-955.86 -1212.57 2106.8
-938.38 -1197.24 2080.1
-904.35 -1160.49 2016.3
-910.61 -1175.33 2042.1
-919.99 -1194.37 2075.2
-885.32 -1156.13 2008.7
-882.19 -1158.86 2013.5
-894.58 -1182.12 2053.9
-849.16 -1128.82 1961.3
-820.06 -1103.35 1917.0
-863.06 -1168.29 2029.8
-861.86 -1173.82 2039.5
-863.35 -1183.11 2055.6
-890.96 -1228.52 2134.5
-906.69 -1258.04 2185.8
-864.95 -1271.65 2209.4
-811.31 -1216.97 2114.4
-803.62 -1274.31 2214.1
-780.80 -1247.03 2166.7
-779.23 -1253.55 2178.0
-757.31 -1227.17 2132.1
-733.55 -1197.41 2080.4
-742.25 -1220.59 2120.7
-747.30 -1238.07 2151.1
-714.85 -1249.58 2171.1
-700.63 -1244.33 2162.0
-680.94 -1219.10 2118.1
-685.96 -1238.08 2151.1
-684.48 -1245.53 2164.0
-679.78 -1247.20 2166.9
-652.76 -1249.24 2170.5
-630.72 -1217.56 2115.5
-655.60 -1276.70 2218.2
-619.28 -1238.57 2152.0
-606.35 -1223.72 2126.2
-585.33 -1203.18 2090.5
-601.48 -1247.93 2168.2
-612.15 -1282.05 2227.5
-569.67 -1252.15 2175.6
-567.38 -1259.57 2188.4
-553.50 -1241.19 2156.5
-550.32 -1246.65 2166.0
-552.20 -1263.80 2195.8
-549.08 -1269.76 2206.1
-547.37 -1279.12 2222.4
-524.67 -1279.96 2223.9
-507.06 -1279.18 2222.5
-495.37 -1264.06 2196.2
-482.68 -1245.98 2164.8
-456.25 -1191.62 2070.4
-451.26 -1192.60 2072.1
-463.67 -1240.16 2154.7
-461.89 -1250.48 2172.6
-445.16 -1220.06 2119.8
-430.10 -1193.53 2073.7
-426.64 -1198.91 2083.0
-417.95 -1189.54 2066.8
-400.98 -1156.08 2008.6
-390.37 -1140.29 1981.2
-387.87 -1148.09 1994.7
-391.53 -1174.59 2040.8
-401.27 -1220.30 2120.2
-396.87 -1223.69 2126.1
-378.11 -1182.25 2054.1
-372.60 -1181.67 2053.1
-368.02 -1184.05 2057.2
-366.43 -1196.28 2078.5
-370.70 -1266.07 2199.7
-366.39 -1270.92 2208.2
-349.41 -1271.61 2209.4
-321.66 -1231.18 2139.1
-320.02 -1246.38 2165.5
-303.88 -1204.66 2093.0
-310.06 -1251.53 2174.5
-290.72 -1241.13 2156.4
-288.16 -1254.34 2179.3
-1185.17 -1229.27 2126.2
-1179.39 -1228.99 2125.7
-1118.75 -1188.01 2054.9
-1142.42 -1218.94 2108.4
-1167.56 -1257.81 2175.6
-1097.97 -1212.12 2096.5
-1078.36 -1226.91 2122.1
-1046.08 -1196.29 2069.2
-1034.64 -1247.16 2157.2
-996.96 -1214.87 2101.3
-982.46 -1203.78 2082.1
-977.45 -1204.26 2083.0
-955.20 -1183.39 2046.9
-946.91 -1179.67 2040.4
-940.49 -1178.26 2038.0
-922.64 -1162.42 2010.6
-918.87 -1164.25 2013.8
-926.41 -1180.51 2041.9
-899.27 -1152.51 1993.4
-857.49 -1105.33 1911.8
-835.54 -1083.28 1873.7
-840.96 -1103.15 1908.1
-891.97 -1176.98 2035.8
-914.52 -1213.91 2099.7
-880.26 -1175.44 2033.1
-848.40 -1139.72 1971.3
-879.68 -1188.90 2056.4
-917.48 -1247.54 2157.8
-911.51 -1247.04 2157.0
-894.62 -1231.48 2130.0
-905.03 -1253.54 2168.2
-904.44 -1260.57 2180.4
-920.27 -1290.69 2232.5
-899.68 -1277.88 2210.3
-877.06 -1253.74 2168.6
-854.96 -1230.04 2127.5
-860.81 -1246.50 2156.0
-880.82 -1283.82 2220.6
-880.19 -1291.33 2233.6
-820.98 -1220.52 2111.1
-815.10 -1219.92 2110.0
-819.32 -1234.52 2135.3
-813.39 -1233.92 2134.3
-822.02 -1290.92 2232.9
-792.93 -1254.06 2169.1
-750.94 -1196.14 2068.9
-765.71 -1237.35 2140.2
-739.80 -1213.06 2098.2
-721.77 -1192.26 2062.2
-720.61 -1199.23 2074.3
-722.54 -1211.48 2095.5
-732.75 -1256.94 2174.1
-706.13 -1220.68 2111.4
-716.54 -1248.35 2159.2
-682.62 -1217.79 2106.4
-667.09 -1199.69 2075.1
-678.33 -1229.82 2127.2
-675.05 -1233.90 2134.2
-669.37 -1233.64 2133.8
-659.80 -1226.12 2120.8
-643.31 -1205.53 2085.2
-655.93 -1239.59 2144.1
-655.35 -1259.85 2179.1
-617.91 -1241.38 2147.2
-610.74 -1238.14 2141.6
-597.90 -1223.23 2115.8
-574.81 -1244.50 2152.6
-563.05 -1281.23 2216.1
-551.40 -1267.65 2192.6
-544.49 -1264.81 2187.7
-538.65 -1264.41 2187.0
-540.86 -1283.11 2219.3
-534.33 -1281.24 2216.1
-520.93 -1262.70 2184.0
-525.90 -1288.75 2229.1
-508.92 -1275.15 2205.6
-495.86 -1256.55 2173.4
-496.18 -1271.82 2199.8
-486.32 -1261.05 2181.2
-461.57 -1210.94 2094.5
-449.10 -1192.25 2062.2
-453.27 -1217.83 2106.4
-456.32 -1240.96 2146.4
-446.82 -1230.13 2127.7
-420.27 -1171.50 2026.3
-405.75 -1145.34 1981.0
-403.35 -1153.17 1994.6
-392.20 -1135.85 1964.6
-386.58 -1134.31 1962.0
-386.78 -1150.03 1989.2
-390.28 -1176.12 2034.3
-399.05 -1219.02 2108.5
-395.95 -1243.61 2151.0
-374.99 -1194.60 2066.2
-356.44 -1151.97 1992.5
-349.76 -1164.13 2013.5
-373.37 -1261.55 2182.1
-369.69 -1288.12 2228.0
-335.59 -1226.84 2122.0
-322.05 -1196.94 2070.3
-328.46 -1241.46 2147.3
-326.86 -1256.71 2173.7
-317.25 -1241.18 2146.8
-312.90 -1246.00 2155.1
-294.57 -1263.24 2185.0
-1156.73 -1205.15 2075.2
-1161.88 -1216.17 2094.2
-1166.82 -1250.56 2153.4
-1158.06 -1253.17 2157.9
-1126.20 -1224.61 2108.7
-1103.31 -1205.57 2075.9
-1091.38 -1198.38 2063.5
-1086.95 -1199.39 2065.3
-1082.51 -1200.40 2067.0
-1107.22 -1233.92 2124.7
-1096.66 -1253.32 2158.1
-1075.54 -1235.49 2127.4
-1078.89 -1271.96 2190.2
-1057.69 -1253.56 2158.6
-1038.96 -1237.91 2131.6
-1029.62 -1233.35 2123.7
-1012.23 -1219.03 2099.1
-1004.14 -1215.83 2093.6
-1016.29 -1237.22 2130.4
-1017.26 -1245.16 2144.1
-1015.89 -1250.33 2153.0
-1004.71 -1243.40 2141.1
-975.99 -1214.56 2091.4
-950.83 -1189.87 2048.9
-930.32 -1170.74 2015.9
-926.91 -1173.04 2019.9
-935.59 -1190.75 2050.4
-907.98 -1162.21 2001.3
-842.06 -1084.03 1866.6
-849.75 -1119.68 1928.0
-859.20 -1138.83 1961.0
-840.30 -1120.40 1929.3
-849.59 -1139.57 1962.3
-862.56 -1163.94 2004.2
-872.57 -1184.57 2039.8
-908.21 -1248.09 2149.1
-911.98 -1276.78 2198.5
-893.16 -1258.29 2166.7
-877.15 -1243.56 2141.3
-872.55 -1244.91 2143.7
-874.53 -1255.73 2162.3
-845.57 -1221.98 2104.2
-849.83 -1236.12 2128.5
-831.62 -1241.89 2138.5
-806.68 -1212.72 2088.2
-794.24 -1202.10 2069.9
-798.79 -1217.21 2096.0
-821.57 -1260.50 2170.5
-803.19 -1240.79 2136.6
-794.18 -1235.40 2127.3
-801.39 -1255.33 2161.6
-771.13 -1216.43 2094.6
-761.67 -1210.03 2083.6
-741.78 -1186.85 2043.7
-755.47 -1226.27 2111.6
-764.12 -1258.55 2167.2
-727.69 -1207.43 2079.1
-708.36 -1184.13 2039.0
-706.37 -1189.67 2048.5
-739.79 -1255.41 2161.7
-731.71 -1260.79 2171.0
-710.96 -1234.53 2125.8
-685.15 -1237.68 2131.2
-678.95 -1236.46 2129.1
-661.68 -1214.89 2092.0
-669.20 -1238.84 2133.2
-673.13 -1256.51 2163.6
-635.93 -1197.05 2061.2
-624.80 -1186.07 2042.3
-639.64 -1224.61 2108.7
-629.49 -1215.56 2093.1
-634.39 -1235.67 2127.8
-618.34 -1236.69 2129.5
-612.18 -1235.39 2127.3
-593.25 -1265.59 2179.3
-568.36 -1224.16 2107.9
-557.77 -1213.03 2088.8
-564.41 -1264.28 2177.0
-554.48 -1254.59 2160.3
-533.91 -1220.36 2101.4
-527.22 -1217.49 2096.5
-526.23 -1227.88 2114.3
-533.49 -1257.91 2166.0
-498.43 -1240.54 2136.1
-494.69 -1273.68 2193.2
-455.13 -1185.45 2041.3
-446.47 -1176.57 2026.0
-448.24 -1195.31 2058.3
-444.00 -1198.26 2063.3
-440.09 -1202.20 2070.1
-448.66 -1240.73 2136.5
-439.23 -1229.84 2117.7
-402.86 -1142.30 1967.0
-380.22 -1135.60 1955.4
-388.06 -1174.65 2022.7
-394.42 -1210.26 2084.0
-396.64 -1234.00 2124.9
-389.07 -1227.48 2113.7
-369.46 -1182.27 2035.8
-362.78 -1177.71 2027.9
-365.48 -1203.92 2073.1
-354.28 -1184.45 2039.6
-360.23 -1222.60 2105.2
-377.09 -1299.52 2237.7
-370.13 -1295.46 2230.7
-358.03 -1272.99 2192.0
-352.04 -1271.89 2190.1
-339.69 -1247.40 2147.9
-331.52 -1280.37 2204.7
-327.93 -1288.70 2219.1
-304.44 -1262.84 2174.5
-297.11 -1255.70 2162.2
-298.29 -1284.96 2212.6
-292.75 -1285.78 2214.0
-285.30 -1278.12 2200.8
-278.02 -1270.95 2188.5
-272.20 -1270.26 2187.3
-1254.11 -1142.41 1958.4
-1201.83 -1160.57 1989.5
-1202.38 -1166.10 1999.0
-1175.31 -1218.64 2089.1
-1134.88 -1193.22 2045.5
-1159.84 -1225.18 2100.3
-1172.73 -1250.55 2143.8
-1121.90 -1231.35 2110.9
-1103.24 -1216.81 2086.0
-1089.24 -1207.29 2069.6
-1075.81 -1204.27 2064.5
-1058.51 -1221.36 2093.8
-1049.96 -1217.74 2087.6
-1058.90 -1234.46 2116.2
-1045.37 -1237.94 2122.2
-1020.43 -1214.80 2082.5
-1023.22 -1224.60 2099.3
-1035.20 -1245.57 2135.3
-1036.64 -1254.00 2149.7
-1045.66 -1271.75 2180.1
-988.34 -1228.59 2106.2
-951.86 -1189.83 2039.7
-917.54 -1153.33 1977.1
-917.93 -1160.31 1989.1
-934.11 -1187.43 2035.6
-935.41 -1195.84 2050.0
-898.70 -1155.47 1980.8
-855.76 -1106.58 1897.0
-831.97 -1082.05 1854.9
-830.03 -1092.14 1872.2
-882.01 -1167.36 2001.2
-883.84 -1176.71 2017.2
-835.25 -1118.63 1917.7
-814.77 -1097.75 1881.9
-842.89 -1142.48 1958.5
-866.50 -1181.59 2025.6
-868.08 -1190.97 2041.7
-879.19 -1213.60 2080.5
-913.30 -1268.47 2174.5
-877.61 -1249.76 2142.4
-878.31 -1258.72 2157.8
-904.65 -1304.79 2236.8
-893.58 -1297.13 2223.6
-854.97 -1273.97 2183.9
-813.59 -1220.38 2092.1
-813.57 -1236.85 2120.3
-852.70 -1305.16 2237.4
-766.55 -1189.47 2039.1
-760.23 -1187.85 2036.3
-769.47 -1210.70 2075.5
-760.04 -1204.28 2064.5
-770.83 -1230.05 2108.7
-788.29 -1266.89 2171.8
-758.79 -1246.18 2136.3
-740.90 -1225.76 2101.3
-723.76 -1206.26 2067.9
-733.79 -1232.10 2112.2
-678.77 -1241.65 2128.5
-660.46 -1218.06 2088.1
-667.45 -1241.12 2127.6
-641.70 -1213.30 2079.9
-625.17 -1192.05 2043.5
-632.63 -1216.60 2085.6
-638.38 -1238.23 2122.7
-627.42 -1260.44 2160.8
-616.11 -1248.88 2140.9
-591.23 -1231.72 2111.5
-583.25 -1226.47 2102.5
-582.25 -1235.91 2118.7
-576.36 -1235.06 2117.3
-565.94 -1224.39 2099.0
-569.54 -1244.14 2132.8
-584.33 -1288.96 2209.6
-558.87 -1270.15 2177.4
-539.34 -1238.27 2122.7
-533.87 -1238.36 2122.9
-526.09 -1233.02 2113.7
-527.09 -1248.37 2140.1
-514.98 -1273.31 2182.8
-509.94 -1274.86 2185.5
-495.68 -1281.93 2197.6
-442.91 -1158.77 1986.5
-425.22 -1125.59 1929.6
-437.59 -1172.10 2009.3
-443.33 -1201.81 2060.2
-427.33 -1172.55 2010.1
-421.75 -1171.53 2008.3
-422.00 -1186.87 2034.6
-395.98 -1127.79 1933.3
-392.53 -1147.01 1966.3
-384.06 -1137.01 1949.2
-379.31 -1137.93 1950.7
-375.70 -1142.32 1958.3
-370.11 -1140.74 1955.6
-374.08 -1169.00 2004.0
-368.38 -1167.42 2001.3
-363.94 -1169.81 2005.4
-372.76 -1215.52 2083.8
-353.44 -1262.29 2163.9
-350.69 -1272.66 2181.7
-342.43 -1263.06 2165.3
-331.06 -1241.47 2128.2
-328.26 -1251.82 2146.0
-321.88 -1248.68 2140.6
-316.04 -1247.54 2138.6
-323.03 -1297.88 2224.9
-303.38 -1264.07 2167.0
-293.71 -1246.89 2137.5
-292.64 -1266.24 2170.7
-284.25 -1254.04 2149.8
-1259.31 -1152.25 1966.5
-1225.82 -1159.15 1978.3
-1226.06 -1164.24 1987.0
-1142.23 -1184.14 2021.0
-1149.40 -1202.61 2052.5
-1150.28 -1209.13 2063.6
-1146.36 -1210.64 2066.2
-1146.30 -1216.26 2075.8
-1145.34 -1220.97 2083.8
-1159.70 -1242.14 2120.0
-1108.44 -1227.98 2095.8
-1097.36 -1227.74 2095.4
-1094.08 -1230.16 2099.5
-1045.92 -1212.19 2068.8
-1051.55 -1231.34 2101.5
-1056.45 -1263.27 2156.0
-1051.32 -1263.82 2157.0
-1018.83 -1265.14 2159.2
-967.49 -1208.02 2061.7
-921.06 -1156.44 1973.7
-902.52 -1139.50 1944.8
-917.41 -1164.80 1988.0
-925.84 -1182.15 2017.6
-918.75 -1179.76 2013.5
-876.68 -1132.17 1932.3
-829.53 -1077.43 1838.9
-864.72 -1129.64 1928.0
-900.59 -1183.33 2019.6
-869.58 -1149.27 1961.5
-865.50 -1150.60 1963.7
-891.46 -1192.12 2034.6
-866.43 -1165.56 1989.3
-833.21 -1127.58 1924.4
-846.23 -1152.10 1966.3
-875.68 -1199.42 2047.1
-888.23 -1224.02 2089.0
-888.24 -1231.55 2101.9
-882.53 -1246.57 2127.5
-875.62 -1244.60 2124.2
-875.39 -1252.15 2137.0
-852.57 -1227.27 2094.6
-854.65 -1238.15 2113.1
-875.97 -1277.22 2179.8
-867.34 -1272.84 2172.4
-863.39 -1292.22 2205.4
-829.94 -1250.44 2134.1
-815.16 -1236.41 2110.2
-848.89 -1296.27 2212.3
-801.27 -1240.33 2116.9
-768.68 -1214.84 2073.4
-775.61 -1234.41 2106.8
-774.56 -1268.48 2164.9
-757.42 -1249.46 2132.5
-736.93 -1224.61 2090.0
-738.62 -1236.50 2110.3
-691.93 -1231.30 2101.5
-666.61 -1234.87 2107.5
-646.63 -1207.75 2061.3
-632.83 -1191.83 2034.1
-632.79 -1201.78 2051.1
-646.97 -1239.10 2114.8
-610.23 -1231.35 2101.6
-608.47 -1238.87 2114.4
-610.68 -1266.19 2161.0
-588.48 -1231.45 2101.7
