ply
format ascii 1.0
element vertex 2118
property float x
property float y
property float z
end_header
-223.17 -797.05 2459.5
-217.26 -798.75 2464.7
-214.24 -811.51 2504.1
-212.82 -831.34 2565.3
-212.23 -855.78 2640.7
-191.45 -854.70 2637.4
-181.26 -839.15 2589.4
-173.48 -834.06 2573.7
-167.21 -836.03 2579.8
-161.37 -840.47 2593.4
-157.27 -854.75 2637.5
-154.36 -877.03 2706.3
-145.70 -867.29 2676.2
-136.81 -855.08 2638.5
-128.40 -844.71 2606.5
-120.45 -836.49 2581.2
-114.57 -842.43 2599.5
-105.40 -823.42 2540.8
-98.08 -817.33 2522.1
-91.34 -815.56 2516.6
-85.24 -819.63 2529.1
-80.91 -842.80 2600.6
-74.93 -851.49 2627.5
-68.64 -858.02 2647.6
-61.25 -850.67 2624.9
-53.16 -830.68 2563.2
-45.88 -819.31 2528.2
-39.83 -829.82 2560.6
-34.35 -858.83 2650.1
-27.55 -861.01 2656.8
-20.11 -837.91 2585.5
-13.60 -850.25 2623.6
-6.97 -871.84 2690.2
0.00 -861.67 2658.9
6.77 -845.63 2609.4
13.50 -843.78 2603.7
20.69 -861.95 2659.7
27.24 -851.15 2626.4
33.50 -837.56 2584.5
40.78 -849.55 2621.5
47.59 -849.83 2622.3
55.83 -872.29 2691.6
-462.34 -896.22 2743.5
-457.27 -900.24 2755.8
-452.44 -904.88 2770.0
-445.27 -904.91 2770.1
-433.79 -896.03 2742.9
-416.01 -873.62 2674.3
-402.17 -858.87 2629.2
-394.64 -857.32 2624.5
-380.18 -840.40 2572.6
-342.72 -799.68 2448.0
-339.46 -807.01 2470.5
-335.95 -814.04 2492.0
-336.45 -831.24 2544.6
-326.65 -823.17 2519.9
-311.58 -801.22 2452.7
-303.67 -797.13 2440.2
-296.85 -795.82 2436.2
-292.31 -800.67 2451.0
-283.61 -794.10 2430.9
-272.73 -799.15 2446.4
-276.64 -829.93 2540.6
-267.11 -820.87 2512.9
-254.97 -803.15 2458.6
-250.28 -808.59 2475.3
-248.11 -822.69 2518.4
-241.55 -822.57 2518.1
-231.80 -811.30 2483.6
-224.55 -808.38 2474.6
-221.44 -820.62 2512.1
-216.26 -825.74 2527.8
-212.35 -836.11 2559.5
-209.41 -851.14 2605.5
-204.90 -860.58 2634.4
-199.60 -867.24 2654.8
-188.55 -848.49 2597.4
-179.99 -839.96 2571.3
-173.93 -842.88 2580.3
-167.88 -846.11 2590.1
-161.72 -849.03 2599.1
-140.12 -840.69 2573.5
-136.81 -861.89 2638.4
-104.25 -820.99 2513.2
-97.89 -822.31 2517.3
-91.51 -823.63 2521.3
-77.12 -809.79 2478.9
-71.30 -816.67 2500.0
-65.12 -820.45 2511.6
-59.92 -838.82 2567.8
-53.46 -841.96 2577.4
-46.12 -830.20 2541.4
-40.08 -841.72 2576.7
-34.24 -862.87 2641.4
-27.19 -856.37 2621.5
-20.15 -846.45 2591.2
-13.85 -872.86 2672.0
0.00 -872.25 2670.1
6.90 -869.76 2662.5
14.04 -884.66 2708.1
20.64 -866.94 2653.9
40.11 -842.35 2578.6
53.64 -844.76 2586.0
63.06 -882.90 2702.7
-460.50 -913.81 2775.4
-445.97 -899.01 2730.4
-440.26 -901.82 2738.9
-430.49 -896.27 2722.1
-415.84 -880.20 2673.3
-405.03 -871.84 2647.9
-395.05 -865.03 2627.2
-378.64 -843.64 2562.2
-363.65 -824.72 2504.8
-354.59 -818.79 2486.8
-345.76 -813.17 2469.7
-338.04 -810.01 2460.1
-325.41 -794.76 2413.8
-318.83 -809.83 2459.6
-314.22 -814.42 2473.5
-309.31 -818.38 2485.5
-304.79 -823.58 2501.3
-296.03 -817.29 2482.2
-283.17 -799.17 2427.2
-271.15 -800.84 2432.2
-274.17 -829.04 2517.9
-263.49 -816.18 2478.8
-255.07 -809.84 2459.6
-254.20 -827.77 2514.1
-249.60 -834.19 2533.5
-240.73 -826.28 2509.5
-233.83 -824.91 2505.3
-229.70 -833.50 2531.4
-226.44 -845.82 2568.9
-221.28 -851.61 2586.4
-217.29 -862.37 2619.1
-214.04 -876.88 2663.2
-204.30 -864.88 2626.7
-193.18 -846.00 2569.4
-183.11 -830.55 2522.5
-175.48 -825.38 2506.8
-172.07 -840.50 2552.7
-168.67 -856.86 2602.4
-162.83 -861.67 2617.0
-153.08 -845.24 2567.1
-144.76 -835.67 2538.0
-141.97 -858.58 2607.6
-137.64 -874.00 2654.4
-106.06 -841.88 2556.9
-100.88 -854.14 2594.1
-95.72 -868.28 2637.1
-87.93 -858.98 2608.8
-81.17 -859.04 2609.0
-74.63 -861.60 2616.8
-65.48 -831.64 2525.8
-58.03 -818.87 2487.0
-52.85 -838.93 2547.9
-46.38 -841.47 2555.6
-39.92 -844.94 2566.2
-33.77 -857.79 2605.2
-27.14 -861.56 2616.7
-20.36 -861.90 2617.7
-13.56 -861.28 2615.8
-6.71 -852.22 2588.3
0.00 -863.17 2621.6
6.99 -888.19 2697.5
14.05 -892.24 2709.9
20.42 -864.40 2625.3
26.46 -839.99 2551.1
33.81 -858.73 2608.1
41.90 -886.84 2693.4
48.62 -882.12 2679.1
53.81 -854.25 2594.5
-489.31 -921.06 2775.5
-470.27 -898.43 2707.3
-462.63 -897.23 2703.7
-470.17 -925.87 2790.0
-444.71 -903.54 2722.7
-433.14 -894.22 2694.6
-425.72 -893.30 2691.9
-413.34 -881.78 2657.2
-399.98 -867.76 2614.9
-387.40 -854.96 2576.3
-383.77 -861.80 2597.0
-380.58 -869.89 2621.3
-370.28 -861.75 2596.8
-359.72 -852.67 2569.4
-350.45 -846.38 2550.5
-336.08 -827.27 2492.9
-318.39 -799.09 2408.0
-311.38 -797.14 2402.1
-304.77 -796.13 2399.0
-298.05 -794.79 2395.0
-298.12 -811.91 2446.6
-293.55 -816.83 2461.4
-286.26 -814.24 2453.6
-278.14 -809.13 2438.2
-272.20 -810.28 2441.7
-268.00 -816.76 2461.2
-261.78 -817.27 2462.8
-257.91 -825.31 2487.0
-257.25 -844.31 2544.2
-253.13 -852.66 2569.4
-244.99 -847.52 2553.9
-239.04 -849.90 2561.1
-229.44 -839.10 2528.5
-220.35 -829.55 2499.7
-216.99 -841.64 2536.2
-215.00 -860.02 2591.6
-188.61 -862.21 2598.2
-177.33 -840.67 2533.3
-169.83 -836.09 2519.5
-168.60 -863.25 2601.3
-165.13 -880.67 2653.8
-156.74 -872.31 2628.6
-149.79 -871.48 2626.1
-144.96 -883.55 2662.5
-102.17 -871.85 2627.2
-92.48 -845.49 2547.8
-85.53 -842.09 2537.6
-79.72 -850.34 2562.4
-58.72 -835.07 2516.4
-46.21 -844.92 2546.1
-33.76 -864.19 2604.1
-26.16 -837.13 2522.6
-19.69 -840.30 2532.1
-13.16 -842.51 2538.8
-6.55 -838.11 2525.6
0.00 -855.12 2576.8
6.84 -875.28 2637.6
13.64 -872.75 2629.9
20.68 -882.18 2658.4
27.90 -892.87 2690.6
34.79 -890.65 2683.9
42.09 -897.86 2705.6
49.00 -895.93 2699.8
54.46 -871.33 2625.7
62.39 -887.35 2673.9
-478.06 -906.90 2711.7
-461.13 -915.17 2736.4
-461.36 -929.94 2780.5
-444.53 -910.22 2721.6
-432.96 -900.84 2693.5
-425.84 -900.54 2692.6
-415.36 -893.02 2670.2
-403.55 -882.35 2638.2
-391.06 -869.78 2600.7
-387.23 -876.36 2620.3
-386.29 -889.85 2660.7
-377.64 -885.74 2648.4
-357.47 -853.96 2553.4
-339.72 -826.86 2472.4
-339.75 -842.85 2520.2
-334.94 -847.20 2533.2
-316.39 -816.29 2440.7
-294.91 -809.44 2420.2
-290.85 -815.65 2438.8
-283.73 -813.35 2431.9
-275.77 -808.52 2417.5
-269.89 -809.68 2421.0
-267.28 -820.93 2454.6
-262.48 -825.86 2469.4
-255.36 -823.54 2462.4
-251.14 -830.68 2483.8
-229.78 -846.90 2532.3
-220.26 -835.70 2498.8
-216.25 -845.35 2527.6
-211.70 -853.42 2551.8
-210.67 -876.67 2621.3
-197.15 -876.99 2622.2
-190.32 -876.82 2621.7
-184.15 -879.81 2630.7
-175.31 -869.82 2600.8
-172.58 -890.54 2662.7
-165.94 -891.93 2666.9
-154.59 -867.04 2592.5
-149.40 -876.03 2619.4
-113.51 -861.33 2575.4
-104.44 -842.09 2517.9
-83.16 -825.19 2467.3
-71.24 -835.45 2498.0
-60.17 -862.51 2578.9
-51.52 -830.84 2484.2
-47.44 -874.32 2614.3
-33.36 -860.75 2573.7
-26.04 -839.84 2511.2
-19.78 -850.33 2542.5
-13.24 -853.83 2553.0
-6.58 -849.39 2539.7
0.00 -851.30 2545.4
6.66 -858.91 2568.2
13.57 -875.40 2617.5
20.98 -902.34 2698.0
35.06 -904.52 2704.5
41.66 -895.61 2677.9
47.51 -875.59 2618.1
55.20 -890.14 2661.6
-493.51 -943.48 2799.3
-474.27 -920.22 2730.3
-463.53 -913.01 2708.9
-458.42 -916.83 2720.3
-447.65 -909.30 2697.9
-438.53 -904.90 2684.9
-434.74 -911.55 2704.6
-427.14 -910.30 2700.9
-415.77 -900.83 2672.8
-405.83 -894.19 2653.1
-395.00 -885.33 2626.8
-382.49 -872.35 2588.3
-373.45 -866.95 2572.3
-366.91 -867.23 2573.1
-348.78 -839.65 2491.3
-328.09 -820.22 2433.6
-329.46 -839.80 2491.7
-315.66 -820.72 2435.1
-303.70 -805.74 2390.7
-302.86 -820.25 2433.7
-301.68 -834.44 2475.8
-295.01 -833.72 2473.7
-288.45 -833.31 2472.5
-280.72 -829.40 2460.9
-271.79 -821.68 2437.9
-266.15 -823.79 2444.2
-261.48 -829.08 2459.9
-254.28 -826.42 2452.0
-245.41 -818.03 2427.1
-241.87 -827.44 2455.0
-242.71 -852.75 2530.2
-237.26 -856.76 2542.0
-229.86 -853.76 2533.1
-225.33 -861.57 2556.3
-217.38 -856.34 2540.8
-208.72 -847.91 2515.8
-204.21 -856.35 2540.8
-198.02 -858.09 2546.0
-191.10 -856.65 2541.7
-188.38 -874.64 2595.1
-184.07 -886.26 2629.6
-177.41 -887.04 2631.9
-172.45 -896.74 2660.7
-163.75 -886.99 2631.7
-151.53 -856.50 2541.3
-145.07 -857.26 2543.5
-142.21 -880.33 2612.0
-135.16 -878.53 2606.6
-128.46 -878.95 2607.9
-119.99 -866.60 2571.2
-109.58 -837.97 2486.3
-96.27 -834.31 2475.4
-92.61 -859.91 2551.4
-85.62 -856.15 2540.2
-57.52 -830.84 2465.1
-51.96 -844.29 2505.0
-45.86 -851.67 2526.9
-38.69 -838.29 2487.2
-32.62 -848.22 2516.7
-26.86 -872.84 2589.7
-20.11 -871.26 2585.1
-13.30 -864.56 2565.2
-6.67 -867.13 2572.8
0.00 -876.39 2600.3
6.76 -878.62 2606.9
13.72 -891.71 2645.7
20.66 -895.21 2656.1
27.06 -879.54 2609.6
33.74 -877.28 2602.9
40.11 -868.95 2578.2
53.96 -876.86 2601.7
63.38 -915.45 2716.2
-491.98 -947.79 2790.7
-470.17 -919.29 2706.7
-462.69 -918.38 2704.1
-460.43 -927.94 2732.2
-442.96 -906.69 2669.6
-424.32 -896.55 2639.8
-417.63 -896.88 2640.8
-412.24 -900.06 2650.1
-408.52 -907.06 2670.7
-394.97 -892.09 2626.7
-379.98 -873.29 2571.3
-373.71 -874.22 2574.0
-370.24 -881.83 2596.5
-356.92 -865.86 2549.4
-341.39 -843.81 2484.5
-327.45 -824.93 2428.9
-313.35 -820.96 2417.2
-310.51 -830.15 2444.3
-304.26 -830.38 2445.0
-298.12 -830.94 2446.6
-295.79 -842.35 2480.2
-293.06 -853.13 2511.9
-282.65 -841.53 2477.8
-271.26 -826.39 2433.2
-265.63 -828.52 2439.5
-260.97 -833.85 2455.2
-253.21 -829.25 2441.6
-243.98 -819.52 2413.0
-242.05 -834.44 2456.9
-243.87 -863.45 2542.3
-235.66 -857.55 2525.0
-226.00 -845.88 2490.6
-222.75 -858.23 2527.0
-216.24 -858.40 2527.5
-205.97 -843.18 2482.6
-199.34 -842.38 2480.3
-197.94 -864.34 2544.9
-195.92 -885.02 2605.8
-186.73 -873.62 2572.3
-175.86 -853.23 2512.2
-171.15 -862.35 2539.1
-168.39 -882.39 2598.1
-163.68 -893.43 2630.6
-155.70 -886.81 2611.1
-144.69 -861.57 2536.8
-137.10 -855.25 2518.2
-132.11 -865.32 2547.8
-127.85 -881.48 2595.4
-120.16 -874.51 2574.9
-110.62 -852.43 2509.9
-90.13 -843.35 2483.1
-83.89 -845.35 2489.0
-76.76 -838.02 2467.4
-71.37 -849.97 2502.6
-64.74 -848.09 2497.1
-58.64 -853.61 2513.4
-51.40 -841.76 2478.5
-26.45 -866.32 2550.8
-20.27 -885.31 2606.7
-13.53 -886.29 2609.6
-6.83 -894.98 2635.2
0.00 -908.81 2675.9
6.98 -914.27 2692.0
13.66 -894.97 2635.1
19.85 -866.98 2552.7
-482.39 -936.41 2736.3
-463.81 -913.77 2670.1
-459.46 -918.92 2685.2
-463.07 -940.38 2747.9
-450.69 -929.54 2716.2
-430.83 -902.69 2637.7
-424.30 -903.34 2639.6
-419.68 -908.15 2653.7
-416.44 -916.16 2677.1
-412.79 -923.53 2698.6
-399.31 -908.78 2655.5
-383.56 -888.25 2595.5
-376.82 -888.22 2595.5
-372.35 -893.65 2611.3
-357.17 -873.07 2551.2
-342.67 -853.44 2493.8
-329.98 -837.65 2447.7
-321.25 -831.48 2429.6
-319.80 -844.26 2467.0
-314.92 -848.37 2479.0
-306.72 -843.47 2464.7
-301.90 -847.89 2477.6
-301.05 -863.89 2524.3
-293.38 -860.58 2514.7
-278.24 -834.73 2439.2
-269.26 -826.58 2415.3
-265.94 -835.80 2442.3
-257.37 -828.60 2421.2
-242.36 -820.29 2397.0
-245.67 -853.36 2493.6
-243.95 -870.32 2543.2
-232.49 -852.45 2490.9
-220.09 -830.05 2425.5
-213.84 -830.22 2426.0
-211.79 -847.17 2475.5
-206.35 -851.21 2487.3
-198.65 -845.88 2471.7
-195.80 -861.53 2517.5
-194.70 -886.23 2589.6
-186.65 -879.92 2571.2
-176.58 -863.27 2522.5
-172.48 -875.68 2558.8
-168.51 -889.71 2599.8
-162.85 -895.66 2617.2
-155.63 -893.20 2610.0
-145.76 -874.57 2555.6
-135.60 -852.37 2490.7
-126.49 -878.77 2567.8
-122.18 -896.02 2618.2
-112.12 -870.55 2543.8
-89.41 -842.97 2463.2
-84.75 -860.51 2514.5
-79.44 -873.85 2553.4
-72.77 -873.26 2551.7
-65.18 -860.37 2514.1
-60.10 -881.46 2575.7
-53.64 -885.06 2586.2
-45.60 -859.85 2512.6
-25.85 -853.14 2492.9
-19.57 -860.93 2515.7
-6.62 -873.90 2553.6
0.00 -905.63 2646.3
6.94 -916.31 2677.5
13.62 -899.14 2627.4
20.03 -881.32 2575.3
25.96 -856.70 2503.3
40.25 -885.46 2587.4
46.82 -882.84 2579.7
61.07 -895.70 2617.3
-487.94 -954.34 2767.7
-476.41 -945.71 2742.7
-466.13 -939.32 2724.1
-464.44 -950.31 2756.0
-443.50 -951.37 2759.1
-434.87 -948.17 2749.8
-424.99 -942.06 2732.1
-415.04 -935.61 2713.4
-393.94 -903.34 2619.8
-371.36 -881.98 2557.8
-374.73 -906.18 2628.0
-363.32 -894.83 2595.1
-352.19 -883.80 2563.1
-336.05 -859.50 2492.6
-324.72 -846.83 2455.9
-322.95 -859.05 2491.3
-317.18 -860.92 2496.8
-307.29 -851.45 2469.3
-301.43 -852.99 2473.8
-293.76 -849.34 2463.2
-279.34 -825.59 2394.3
-273.95 -828.08 2401.5
-273.98 -847.42 2457.6
-270.23 -855.74 2481.7
-260.96 -846.54 2455.1
-249.49 -829.55 2405.8
-245.50 -837.21 2428.0
-242.60 -849.09 2462.4
-234.73 -843.76 2447.0
-228.17 -842.97 2444.7
-220.86 -839.25 2433.9
-214.17 -837.80 2429.7
-211.46 -852.26 2471.7
-209.40 -870.30 2524.0
-205.16 -880.22 2552.7
-199.61 -884.93 2566.4
-195.97 -898.74 2606.4
-187.67 -891.41 2585.2
-177.23 -873.02 2531.9
-174.64 -893.33 2590.7
-156.35 -904.14 2622.1
-147.15 -889.61 2580.0
-137.76 -872.47 2530.3
-130.04 -864.76 2507.9
-127.74 -894.17 2593.2
-81.49 -903.23 2619.5
-72.85 -880.80 2554.4
-51.46 -855.53 2481.1
-45.56 -865.68 2510.6
-39.23 -869.62 2522.0
-33.13 -881.38 2556.1
-26.74 -889.23 2578.9
-19.79 -877.19 2543.9
-13.15 -874.27 2535.5
-6.88 -915.02 2653.7
0.00 -920.57 2669.7
6.81 -905.90 2627.2
13.55 -901.32 2613.9
20.20 -895.44 2596.9
27.24 -905.85 2627.1
47.02 -893.38 2590.9
52.91 -879.65 2551.1
-515.30 -972.54 2799.4
-492.36 -956.18 2752.3
-475.40 -936.82 2696.6
-472.64 -945.28 2721.0
-470.87 -956.02 2751.9
-465.49 -959.62 2762.2
-460.36 -963.88 2774.5
-446.62 -949.96 2734.4
-432.04 -933.76 2687.8
-428.48 -941.24 2709.3
-423.78 -946.45 2724.3
-406.28 -922.74 2656.1
-373.51 -893.77 2572.7
-378.04 -921.05 2651.2
-367.49 -911.91 2624.9
-364.92 -922.62 2655.7
-333.76 -876.94 2524.2
-323.79 -867.76 2497.8
-315.86 -863.78 2486.3
-303.43 -847.08 2438.3
-296.96 -846.66 2437.1
-288.15 -839.39 2416.2
-274.18 -854.42 2459.4
-258.75 -866.81 2495.1
-249.11 -855.90 2463.7
-240.55 -848.26 2441.7
-233.82 -846.81 2437.5
-228.43 -850.27 2447.5
-222.81 -853.06 2455.5
-217.90 -858.80 2472.0
-212.50 -862.89 2483.8
-207.59 -869.28 2502.2
-202.58 -875.66 2520.5
-196.52 -877.78 2526.7
-191.06 -882.84 2541.2
-181.22 -867.28 2496.4
-173.26 -859.89 2475.2
-172.53 -889.17 2559.5
-170.74 -915.19 2634.3
-148.87 -906.73 2610.0
-140.32 -895.37 2577.3
-133.51 -894.50 2574.8
-127.59 -899.85 2590.2
-122.39 -911.09 2622.6
-64.73 -867.42 2496.8
-52.58 -880.63 2534.9
-47.15 -902.66 2598.3
-33.68 -902.72 2598.5
-26.44 -885.68 2549.4
-20.03 -894.56 2575.0
-13.66 -915.25 2634.5
0.00 -924.12 2660.0
6.70 -897.54 2583.5
13.16 -881.45 2537.2
20.15 -900.14 2591.0
34.25 -917.82 2641.9
39.23 -876.11 2521.9
45.34 -867.88 2498.2
52.63 -881.62 2537.7
60.93 -907.16 2611.2
-492.64 -963.86 2753.9
-480.28 -953.50 2724.3
-482.79 -972.78 2779.4
-466.04 -953.26 2723.6
-447.06 -928.51 2652.9
-446.69 -942.24 2692.1
-437.74 -938.02 2680.0
-420.75 -916.15 2617.6
-414.56 -917.46 2621.3
-407.90 -917.78 2622.2
-382.94 -906.95 2591.3
-375.66 -905.62 2587.5
-362.14 -888.89 2539.7
-356.98 -892.45 2549.8
-358.71 -913.70 2610.6
-332.16 -896.82 2562.3
-317.75 -875.43 2501.2
-308.09 -866.50 2475.7
-303.58 -871.99 2491.4
-295.86 -868.29 2480.8
-283.05 -849.15 2426.2
-273.52 -839.20 2397.7
-274.27 -861.09 2460.3
-270.32 -868.87 2482.5
-258.85 -852.32 2435.2
-252.60 -852.52 2435.8
-245.96 -851.41 2432.6
-237.30 -843.05 2408.7
-230.48 -840.94 2402.7
-226.93 -850.99 2431.4
-222.98 -860.06 2457.3
-214.33 -851.02 2431.5
-205.17 -839.33 2398.1
-203.05 -856.62 2447.5
-200.60 -873.58 2495.9
-192.41 -865.83 2473.8
-184.68 -859.72 2456.3
-177.18 -854.27 2440.8
-171.67 -858.36 2452.5
-170.29 -884.21 2526.3
-167.92 -906.77 2590.8
-161.05 -905.91 2588.3
-152.06 -892.52 2550.0
-146.06 -896.26 2560.8
-139.69 -898.03 2565.8
-130.71 -882.30 2520.9
-122.75 -872.17 2491.9
-119.25 -894.38 2555.4
-114.80 -911.64 2604.7
-104.89 -884.99 2528.5
-98.01 -882.10 2520.3
-67.79 -915.13 2614.6
-60.95 -914.19 2612.0
-53.84 -908.62 2596.1
-46.35 -893.80 2553.7
-25.68 -866.80 2476.6
-12.97 -875.42 2501.2
-6.79 -916.06 2617.3
0.00 -922.34 2635.3
6.78 -914.74 2613.5
12.97 -875.42 2501.2
19.30 -868.47 2481.3
26.58 -897.19 2563.4
32.46 -876.35 2503.9
38.04 -855.85 2445.3
44.94 -866.71 2476.3
51.89 -875.59 2501.7
-502.52 -962.57 2730.0
-492.27 -956.41 2712.5
-490.42 -966.63 2741.5
-486.95 -973.91 2762.1
-467.26 -962.85 2730.8
-440.00 -935.00 2651.8
-440.44 -950.79 2696.6
-432.56 -948.83 2691.0
-419.10 -934.38 2650.0
-405.11 -918.26 2604.3
-390.65 -900.47 2553.9
-386.54 -906.38 2570.6
-395.61 -943.90 2677.0
-372.65 -921.45 2613.4
-362.06 -911.86 2586.2
-357.91 -918.41 2604.7
-336.38 -914.96 2594.9
-327.25 -908.29 2576.0
-309.39 -895.26 2539.1
-294.06 -869.40 2465.7
-287.09 -867.65 2460.8
-283.24 -875.48 2483.0
-275.83 -872.40 2474.2
-264.28 -855.75 2427.0
-254.46 -844.05 2393.8
-249.87 -849.55 2409.4
-243.30 -848.42 2406.2
-234.89 -840.67 2384.2
-228.04 -838.20 2377.3
-224.21 -847.00 2402.2
-220.07 -855.13 2425.3
-211.34 -845.36 2397.6
-202.91 -836.25 2371.7
-201.17 -854.98 2424.8
-199.46 -875.03 2481.7
-192.18 -871.21 2470.9
-185.66 -870.70 2469.4
-179.43 -871.51 2471.7
-173.05 -871.65 2472.1
-170.41 -891.37 2528.0
-167.78 -912.75 2588.7
-160.75 -910.89 2583.4
-152.33 -900.72 2554.6
-146.75 -907.15 2572.8
-139.79 -905.28 2567.5
-130.46 -887.12 2516.0
-122.65 -877.92 2489.9
-118.76 -897.29 2544.8
-99.76 -904.53 2565.4
-94.56 -918.57 2605.2
-87.59 -916.32 2598.8
-80.24 -909.40 2579.2
-74.42 -920.10 2609.5
-67.05 -911.85 2586.1
-59.97 -906.25 2570.3
-52.84 -898.32 2547.8
-45.09 -876.08 2484.7
-39.21 -888.75 2520.6
-19.29 -874.52 2480.3
-13.03 -886.18 2513.3
-6.80 -925.09 2623.7
0.00 -934.07 2649.1
13.50 -918.10 2603.9
19.32 -875.85 2484.0
25.57 -869.52 2466.1
32.11 -873.49 2477.3
38.67 -876.45 2485.7
45.54 -884.73 2509.2
52.37 -890.34 2525.1
-497.52 -987.82 2781.1
-483.29 -973.68 2741.3
-472.65 -966.47 2721.0
-468.01 -971.47 2735.1
-459.05 -967.54 2724.1
-450.00 -963.28 2712.0
-445.72 -969.26 2728.9
-437.75 -967.29 2723.4
-423.48 -951.09 2677.7
-415.81 -949.44 2673.1
-407.74 -946.79 2665.6
-394.51 -931.87 2623.6
-396.12 -952.07 2680.5
-387.67 -948.41 2670.2
-363.29 -904.93 2547.8
-349.48 -886.64 2496.3
-343.37 -887.58 2498.9
-341.41 -899.47 2532.4
-336.43 -903.73 2544.4
-328.35 -899.68 2533.0
-323.90 -905.59 2549.6
-315.63 -900.86 2536.3
-299.56 -873.18 2458.4
-287.01 -854.80 2406.6
-282.92 -861.35 2425.1
-278.31 -866.57 2439.8
-270.49 -861.80 2426.3
-262.02 -854.69 2406.3
-255.05 -852.23 2399.4
-246.94 -845.77 2381.2
-237.41 -833.98 2348.0
-235.16 -847.83 2387.0
-234.07 -866.69 2440.1
-227.44 -865.54 2436.9
-220.66 -863.72 2431.7
-212.08 -854.56 2406.0
-203.95 -846.72 2383.9
-199.53 -854.23 2405.0
-195.14 -862.39 2428.0
-191.73 -875.57 2465.1
-189.12 -893.42 2515.4
-180.03 -880.88 2480.1
-171.20 -868.67 2445.7
-167.04 -880.16 2478.0
-162.83 -892.32 2512.3
-157.75 -900.47 2535.2
-151.48 -902.27 2540.3
-143.84 -895.70 2521.8
-135.27 -882.45 2484.5
-127.38 -872.53 2456.5
-120.84 -871.29 2453.1
-115.46 -878.74 2474.0
-111.25 -896.56 2524.2
-106.44 -911.36 2565.9
-100.64 -919.14 2587.8
-79.00 -901.96 2539.4
-71.19 -886.63 2496.3
-65.04 -891.04 2508.7
-59.13 -900.12 2534.2
-52.35 -896.49 2524.0
-44.95 -879.80 2477.0
-39.57 -903.59 2544.0
-19.69 -898.98 2531.0
-12.96 -887.95 2500.0
-6.60 -904.36 2546.2
0.00 -906.70 2552.8
6.62 -907.37 2554.6
13.57 -929.45 2616.8
20.45 -933.79 2629.0
26.62 -911.68 2566.8
32.83 -899.61 2532.8
39.87 -910.29 2562.8
47.31 -925.98 2607.0
-489.29 -992.97 2775.4
-474.21 -976.74 2730.0
-465.25 -972.79 2719.0
-457.75 -971.83 2716.3
-450.87 -972.19 2717.3
-445.36 -975.55 2726.7
-436.21 -970.91 2713.7
-422.99 -956.93 2674.6
-416.93 -958.93 2680.3
-402.71 -941.93 2632.7
-382.84 -910.90 2546.0
-381.88 -924.55 2584.1
-370.70 -913.51 2553.3
-348.28 -890.05 2487.7
-342.07 -890.66 2489.4
-340.12 -902.63 2522.9
-333.31 -901.90 2520.8
-323.48 -892.81 2495.4
-323.40 -910.80 2545.7
-318.75 -916.41 2561.4
-303.53 -891.23 2491.0
-292.14 -876.41 2449.6
-281.17 -862.24 2410.0
-270.61 -848.74 2372.2
-262.02 -840.92 2350.4
-251.26 -845.69 2363.7
-248.20 -856.28 2393.3
-241.39 -854.14 2387.3
-241.62 -877.48 2452.6
-239.01 -891.43 2491.6
-230.93 -885.24 2474.3
-220.65 -869.99 2431.6
-208.85 -847.67 2369.3
-205.56 -859.59 2402.6
-205.91 -887.97 2481.9
-195.89 -872.01 2437.3
-187.12 -860.75 2405.8
-184.94 -880.05 2459.8
-176.55 -870.12 2432.0
-170.79 -872.95 2439.9
-169.31 -898.64 2511.7
-161.54 -891.71 2492.4
-153.17 -880.74 2461.7
-145.02 -870.10 2432.0
-131.01 -860.91 2406.3
-126.78 -874.81 2445.1
-121.39 -881.64 2464.2
-116.98 -896.88 2506.8
-109.92 -892.27 2493.9
-102.45 -883.60 2469.7
-97.48 -896.81 2506.6
-92.87 -915.41 2558.6
-87.26 -926.25 2588.9
-79.26 -911.51 2547.7
-72.23 -906.18 2532.8
-66.74 -921.06 2574.4
-60.16 -922.45 2578.3
-52.74 -909.70 2542.6
-45.70 -900.99 2518.3
-40.32 -927.29 2591.8
-26.24 -905.12 2529.8
-19.33 -888.97 2484.7
-13.14 -906.50 2533.7
-6.56 -905.83 2531.8
0.00 -893.03 2496.1
26.95 -929.71 2598.6
32.96 -909.81 2542.9
39.57 -910.12 2543.8
71.94 -902.48 2522.5
-484.11 -975.23 2706.2
-474.66 -970.27 2692.4
-468.19 -971.31 2695.3
-463.60 -976.37 2709.4
-460.35 -984.45 2731.8
-451.90 -981.47 2723.5
-446.37 -984.84 2732.9
-436.45 -978.50 2715.3
-422.21 -962.08 2669.7
-411.52 -953.36 2645.5
-382.67 -933.18 2589.5
-379.47 -941.89 2613.7
-370.15 -935.47 2595.9
-369.94 -952.24 2642.4
-367.30 -963.30 2673.1
-332.90 -925.47 2568.1
-328.48 -931.80 2585.7
-312.85 -925.25 2567.5
-299.59 -905.29 2512.1
-286.94 -886.32 2459.5
-276.58 -873.74 2424.6
-268.28 -867.22 2406.5
-256.60 -849.23 2356.5
-253.14 -858.21 2381.5
-252.37 -876.97 2433.5
-247.53 -882.24 2448.1
-242.07 -885.48 2457.1
-234.05 -879.26 2439.9
-225.23 -869.65 2413.2
-214.26 -850.92 2361.2
-205.21 -838.93 2328.0
-204.91 -863.09 2395.0
-204.10 -886.57 2460.2
-193.46 -867.47 2407.2
-180.47 -836.18 2320.3
-173.27 -860.14 2386.8
-174.60 -898.85 2494.2
-169.61 -906.77 2516.2
-158.67 -882.21 2448.1
-151.24 -875.90 2430.6
-144.17 -871.29 2417.8
-138.24 -873.44 2423.7
-136.32 -902.33 2503.9
-131.26 -912.26 2531.4
-125.17 -915.75 2541.1
-118.20 -912.80 2533.0
-108.83 -889.86 2469.3
-102.21 -887.92 2463.9
-97.55 -903.92 2508.3
-90.33 -896.88 2488.8
-82.56 -882.72 2449.5
-77.62 -899.06 2494.8
-73.19 -924.87 2566.5
-60.11 -928.37 2576.2
-52.85 -918.25 2548.1
-45.84 -910.16 2525.6
-39.20 -908.16 2520.1
-32.25 -896.66 2488.2
-26.04 -904.82 2510.8
0.00 -907.24 2517.5
6.61 -918.42 2548.6
19.54 -905.52 2512.7
25.72 -893.64 2479.8
31.92 -887.51 2462.8
38.12 -883.07 2450.5
45.34 -900.33 2498.3
52.11 -905.37 2512.3
57.65 -890.41 2470.8
63.81 -886.97 2461.3
71.74 -906.57 2515.7
-465.07 -971.79 2677.4
-468.63 -994.06 2738.7
-438.19 -989.46 2726.1
-416.87 -956.74 2635.9
-394.94 -937.15 2581.9
-397.76 -960.10 2645.2
-395.84 -972.25 2678.6
-384.16 -960.40 2646.0
-374.10 -952.26 2623.6
-373.03 -967.11 2664.5
-321.33 -918.09 2529.4
-306.84 -894.96 2465.7
-303.15 -903.01 2487.9
-298.46 -908.34 2502.6
-290.74 -904.51 2492.0
-284.24 -904.41 2491.7
-278.48 -906.68 2498.0
-269.42 -898.08 2474.3
-259.59 -886.42 2442.2
-253.42 -886.97 2443.7
-241.84 -868.15 2391.9
-230.25 -848.31 2337.2
-227.48 -860.73 2371.4
-223.65 -869.75 2396.2
-212.47 -849.87 2341.5
-199.85 -847.83 2335.9
-196.39 -859.22 2367.2
-191.65 -865.51 2384.6
-184.33 -860.22 2370.0
-179.28 -865.47 2384.5
-179.73 -898.64 2475.8
-167.83 -903.69 2489.8
-157.81 -883.73 2434.8
-151.23 -882.16 2430.4
-146.57 -892.16 2458.0
-142.84 -908.97 2504.3
-138.61 -924.08 2545.9
-131.49 -920.45 2535.9
-123.41 -909.30 2505.2
-114.56 -891.00 2454.8
-106.47 -876.77 2415.6
-100.76 -881.63 2429.0
-96.77 -903.19 2488.4
-90.33 -903.27 2488.6
-82.55 -889.02 2449.3
-77.41 -903.07 2488.0
-71.71 -912.68 2514.5
-64.68 -905.57 2495.0
-59.12 -919.61 2533.6
-53.14 -929.89 2561.9
-45.66 -913.22 2516.0
-38.64 -901.65 2484.1
-31.84 -891.45 2456.0
-25.68 -898.64 2475.8
-19.59 -914.01 2518.2
-13.00 -910.27 2507.9
-6.49 -909.25 2505.1
0.00 -899.36 2477.8
6.35 -889.46 2450.6
12.60 -881.95 2429.9
18.83 -878.53 2420.4
25.41 -889.42 2450.5
31.84 -891.45 2456.0
38.39 -895.85 2468.2
44.33 -886.61 2442.7
56.31 -875.95 2413.3
64.34 -900.80 2481.8
71.26 -906.88 2498.6
77.41 -903.07 2488.0
83.91 -903.68 2489.7
-476.02 -987.04 2700.1
-475.32 -1000.30 2736.4
-437.98 -996.06 2724.8
-416.38 -962.45 2632.8
-396.03 -962.77 2633.7
-388.17 -977.36 2673.6
-372.47 -954.87 2612.1
-360.99 -942.58 2578.5
-347.76 -925.17 2530.9
-346.58 -939.76 2570.8
-332.72 -938.27 2566.7
-311.59 -896.61 2452.7
-287.75 -882.00 2412.8
-284.18 -890.43 2435.8
-280.17 -897.83 2456.1
-276.58 -906.94 2481.0
-270.22 -907.16 2481.6
-263.06 -904.65 2474.7
-254.08 -895.64 2450.1
-239.66 -866.45 2370.2
-230.89 -856.74 2343.7
-230.97 -880.18 2407.8
-225.74 -884.13 2418.6
-213.06 -858.32 2348.0
-203.71 -844.80 2311.0
-200.16 -855.24 2339.6
-197.40 -869.78 2379.3
-193.14 -878.50 2403.2
-187.24 -880.02 2407.4
-183.57 -892.51 2441.5
-167.31 -907.33 2482.1
-157.50 -888.28 2429.9
-152.56 -896.29 2451.9
-149.52 -916.64 2507.5
-141.81 -908.88 2486.3
-133.90 -899.05 2459.4
-128.37 -904.99 2475.6
-121.73 -903.38 2471.2
-113.54 -889.41 2433.0
-106.17 -880.59 2408.9
-100.01 -881.36 2411.0
-95.41 -896.88 2453.5
-89.47 -901.07 2464.9
-82.26 -892.22 2440.7
-77.20 -907.05 2481.3
-71.52 -916.72 2507.7
-63.88 -900.64 2463.8
-57.67 -903.44 2471.4
-52.33 -922.37 2523.2
-45.55 -917.60 2510.2
-38.99 -916.26 2506.5
-32.48 -915.95 2505.6
-25.46 -897.43 2455.0
-18.87 -886.81 2425.9
-12.64 -890.94 2437.2
-6.37 -898.50 2457.9
0.00 -899.19 2459.8
6.38 -900.22 2462.6
12.65 -891.63 2439.1
18.89 -887.84 2428.7
25.26 -890.57 2436.2
31.35 -884.02 2418.3
38.36 -901.50 2466.1
45.09 -908.33 2484.8
50.27 -885.98 2423.6
57.27 -897.26 2454.5
64.97 -916.09 2506.0
71.22 -912.94 2497.4
77.93 -915.63 2504.8
-476.86 -1010.66 2745.3
-455.18 -979.33 2660.1
-460.17 -1005.29 2730.7
-450.28 -1014.91 2756.8
-433.15 -992.05 2694.7
-422.20 -982.84 2669.7
-409.79 -969.85 2634.4
-394.59 -966.06 2624.1
-384.61 -975.26 2649.1
-368.71 -951.95 2585.8
-357.83 -940.95 2555.9
-333.74 -911.37 2475.5
-337.52 -939.75 2552.7
-328.58 -933.17 2534.8
-318.67 -923.49 2508.5
-310.17 -917.58 2492.4
-298.11 -900.67 2446.5
-292.96 -904.35 2456.5
-285.58 -901.15 2447.8
-278.35 -898.30 2440.0
-279.79 -923.95 2509.7
-263.53 -912.72 2479.2
-248.35 -881.65 2394.8
-235.30 -856.74 2327.2
-227.66 -850.74 2310.9
-225.94 -867.10 2355.3
-218.92 -863.50 2345.5
-212.88 -863.68 2346.0
-209.39 -874.53 2375.5
-202.72 -872.29 2369.4
-197.15 -874.87 2376.4
-191.48 -877.10 2382.5
-184.17 -871.75 2367.9
-178.98 -876.38 2380.5
-175.01 -887.55 2410.9
-169.25 -890.11 2417.8
-160.42 -876.11 2379.8
-152.69 -867.28 2355.8
-149.40 -883.96 2401.1
-144.98 -895.12 2431.4
-136.29 -879.71 2389.6
-131.70 -890.52 2418.9
-129.38 -918.58 2495.1
-122.74 -917.31 2491.7
-114.50 -903.26 2453.5
-106.87 -892.65 2424.7
-100.47 -891.70 2422.1
-94.13 -891.09 2420.5
-86.64 -878.74 2386.9
-81.37 -888.82 2414.3
-77.83 -921.00 2501.7
-71.03 -916.92 2490.6
-62.51 -887.62 2411.0
-55.71 -879.04 2387.7
-49.90 -885.64 2405.7
-44.38 -900.19 2445.2
-38.81 -918.53 2495.0
-32.75 -929.96 2526.1
-26.06 -925.15 2513.0
-19.28 -912.73 2479.3
-12.88 -914.47 2484.0
-6.39 -907.92 2466.2
0.00 -893.76 2427.7
6.32 -897.55 2438.0
12.56 -891.67 2422.0
18.63 -881.64 2394.8
24.71 -877.13 2382.6
30.90 -877.45 2383.4
38.14 -902.64 2451.8
45.74 -927.82 2520.2
52.15 -925.71 2514.5
57.60 -908.74 2468.4
63.17 -896.95 2436.4
70.41 -908.98 2469.1
-470.04 -1003.22 2706.0
-459.17 -1010.16 2724.7
-452.58 -1011.23 2727.6
-429.32 -974.49 2628.5
-425.34 -981.03 2646.1
-428.02 -1003.38 2706.4
-416.10 -991.69 2674.9
-393.84 -971.03 2619.2
-395.56 -992.36 2676.7
-384.29 -981.32 2646.9
-376.09 -977.84 2637.5
-364.04 -964.02 2600.3
-343.48 -926.74 2499.7
-328.01 -919.71 2480.7
-326.26 -933.10 2516.8
-323.25 -943.38 2544.6
-320.11 -953.66 2572.3
-311.71 -948.39 2558.1
-305.83 -950.72 2564.4
-297.74 -946.14 2552.0
-283.54 -921.50 2485.6
-279.24 -928.65 2504.8
-261.43 -911.81 2459.4
-249.60 -892.30 2406.8
-239.45 -877.97 2368.2
-216.47 -859.85 2319.3
-214.91 -878.04 2368.3
-209.38 -880.65 2375.4
-200.63 -869.38 2345.0
-194.90 -870.94 2349.2
-188.99 -871.79 2351.5
-181.69 -866.05 2336.0
-176.44 -870.02 2346.7
-170.93 -872.94 2354.6
-163.47 -865.80 2335.3
-159.90 -879.46 2372.2
-157.11 -898.68 2424.0
-147.88 -881.11 2376.6
-137.88 -857.28 2312.3
-132.49 -861.21 2323.0
-130.97 -891.87 2405.7
-127.47 -911.43 2458.4
-119.87 -902.15 2433.4
-112.26 -891.83 2405.5
-105.04 -883.59 2383.3
-98.87 -883.68 2383.5
-92.67 -883.41 2382.8
-85.78 -876.19 2363.3
-80.92 -890.16 2401.0
-77.27 -920.80 2483.7
-70.51 -916.69 2472.6
-62.48 -893.47 2409.9
-56.17 -892.47 2407.3
-50.07 -894.95 2414.0
-44.24 -903.68 2437.5
-38.36 -914.14 2465.7
-32.10 -918.00 2476.1
-25.82 -923.23 2490.2
-19.33 -921.17 2484.7
-12.65 -904.50 2439.7
-6.15 -879.13 2371.3
0.00 -882.26 2379.7
6.31 -902.07 2433.2
12.49 -893.02 2408.8
18.44 -879.11 2371.2
24.71 -883.26 2382.4
31.21 -892.62 2407.7
38.01 -905.80 2443.2
44.90 -917.24 2474.1
51.06 -912.68 2461.8
56.19 -892.82 2408.2
62.46 -893.12 2409.0
70.62 -918.08 2476.3
-467.89 -1005.61 2693.6
-459.97 -1003.57 2688.1
-456.60 -1011.55 2709.5
-438.84 -987.39 2644.8
-423.05 -982.57 2631.9
-426.34 -1006.45 2695.8
-414.74 -995.38 2666.2
-402.01 -981.18 2628.2
-406.63 -1009.57 2704.2
-387.61 -996.72 2669.8
-383.20 -1003.28 2687.3
-374.14 -997.70 2672.4
-355.07 -964.71 2584.0
-343.59 -951.47 2548.6
-330.07 -931.97 2496.3
-318.75 -918.01 2458.9
-319.91 -940.15 2518.3
-320.07 -960.22 2572.0
-306.69 -939.63 2516.9
-296.69 -928.76 2487.8
-291.29 -932.14 2496.8
-279.47 -914.65 2449.9
-270.28 -905.14 2424.5
-263.66 -903.97 2421.3
-257.15 -903.14 2419.1
-252.87 -910.32 2438.4
-248.21 -916.45 2454.8
-239.14 -906.21 2427.3
-226.27 -880.63 2358.8
-219.51 -878.03 2351.9
-216.93 -892.50 2390.6
-210.61 -891.98 2389.2
-200.46 -874.73 2343.0
-193.65 -871.41 2334.1
-190.41 -884.47 2369.1
-185.68 -891.26 2387.3
-178.40 -885.83 2372.8
-171.12 -880.05 2357.3
-163.86 -873.91 2340.8
-160.65 -889.75 2383.3
-158.86 -915.02 2450.9
-150.66 -903.98 2421.4
-140.05 -876.87 2348.7
-134.36 -879.43 2355.6
-130.35 -893.86 2394.3
-124.45 -896.06 2400.2
-118.11 -895.12 2397.6
-111.47 -891.72 2388.5
-105.57 -894.26 2395.3
-100.58 -905.18 2424.6
-93.86 -901.07 2413.6
-86.52 -889.96 2383.8
-80.26 -888.98 2381.2
-75.31 -903.73 2420.7
-70.43 -921.97 2469.6
-64.10 -923.08 2472.5
-56.30 -900.75 2412.7
-49.01 -882.26 2363.2
-43.47 -894.19 2395.2
-37.80 -907.17 2429.9
-31.57 -909.29 2435.6
-25.36 -912.82 2445.0
-18.95 -909.69 2436.7
-12.41 -893.26 2392.7
-6.10 -878.23 2352.4
0.00 -891.87 2388.9
6.39 -920.20 2464.8
12.80 -921.24 2467.6
18.97 -910.74 2439.5
25.49 -917.71 2458.2
31.84 -916.99 2456.2
38.26 -918.36 2459.9
44.86 -922.87 2472.0
50.53 -909.54 2436.3
55.79 -892.71 2391.2
71.04 -930.01 2491.1
-460.06 -1010.75 2688.7
-437.71 -991.68 2638.0
-435.56 -1002.48 2666.7
-426.12 -996.58 2651.0
-417.64 -992.75 2640.8
-350.43 -958.73 2550.3
-347.43 -968.79 2577.1
-341.22 -970.13 2580.6
-320.89 -930.59 2475.5
-315.75 -934.35 2485.5
-316.10 -954.89 2540.1
-302.35 -932.78 2481.3
-290.56 -915.89 2436.4
-283.67 -914.04 2431.4
-275.95 -909.37 2419.0
-270.47 -912.06 2426.2
-262.32 -905.63 2409.1
-254.75 -900.95 2396.6
-252.27 -914.47 2432.6
-249.13 -926.24 2463.9
-240.77 -918.74 2443.9
-228.32 -894.76 2380.1
-220.45 -887.94 2362.0
-217.25 -900.04 2394.2
-209.77 -894.61 2379.8
-198.61 -872.69 2321.4
-191.62 -868.30 2309.8
-188.67 -882.49 2347.5
-185.38 -895.99 2383.4
-179.37 -896.84 2385.7
-172.53 -893.48 2376.8
-165.68 -889.76 2366.9
-158.44 -883.58 2350.4
-153.09 -887.93 2362.0
-149.66 -904.21 2405.3
-143.61 -905.39 2408.4
-135.90 -895.67 2382.6
-130.04 -897.90 2388.5
-124.93 -905.74 2409.3
-119.30 -910.41 2421.8
-112.20 -903.83 2404.3
-105.98 -903.92 2404.5
-99.71 -903.66 2403.8
-92.00 -889.32 2365.7
-85.91 -889.75 2366.8
-80.69 -900.02 2394.1
-74.96 -905.72 2409.3
-69.38 -914.57 2432.8
-63.27 -917.44 2440.5
-55.77 -898.50 2390.1
-48.49 -878.84 2337.8
-42.90 -888.73 2364.1
-37.58 -908.11 2415.7
-31.62 -916.94 2439.2
-24.95 -904.30 2405.5
-18.30 -884.26 2352.2
-12.22 -886.03 2356.9
-6.13 -889.56 2366.3
0.00 -885.69 2356.0
6.18 -895.54 2382.2
12.63 -915.59 2435.6
19.16 -926.13 2463.6
25.38 -920.13 2447.6
31.19 -904.63 2406.4
37.05 -895.45 2382.0
42.92 -889.08 2365.0
49.61 -899.24 2392.1
56.27 -906.59 2411.6
62.33 -903.72 2404.0
70.88 -934.27 2485.2
-464.72 -1043.83 2757.7
-441.67 -1040.07 2747.7
-418.17 -1000.86 2644.2
-412.18 -1002.96 2649.7
-378.31 -1022.85 2702.2
-346.95 -955.75 2525.0
-342.88 -962.71 2543.4
-341.79 -978.46 2585.0
-325.08 -949.22 2507.7
-309.23 -921.37 2434.2
-301.38 -916.71 2421.8
-301.75 -937.36 2476.4
-301.51 -956.96 2528.2
-297.74 -966.02 2552.1
-273.46 -928.48 2452.9
-253.18 -880.11 2325.1
-250.08 -890.54 2352.7
-251.47 -917.88 2424.9
-245.34 -918.44 2426.4
-234.05 -899.26 2375.7
-225.98 -891.70 2355.8
-221.92 -900.00 2377.7
-215.63 -899.48 2376.3
-204.91 -879.91 2324.6
-195.57 -865.26 2285.9
-190.38 -868.60 2294.7
-184.91 -870.88 2300.8
-179.34 -872.80 2305.8
-174.31 -877.54 2318.4
-168.19 -876.98 2316.9
-162.47 -878.53 2321.0
-156.41 -878.32 2320.4
-149.81 -874.91 2311.4
-145.18 -883.17 2333.2
-140.43 -891.42 2355.0
-133.86 -888.36 2346.9
-129.88 -902.96 2385.5
-126.42 -922.87 2438.1
-119.56 -918.74 2427.2
-111.54 -904.69 2390.1
-103.95 -892.75 2358.6
-96.64 -881.88 2329.8
-83.80 -873.89 2308.7
-78.80 -884.93 2337.9
-73.20 -890.66 2353.0
-67.80 -899.92 2377.5
-61.93 -904.22 2388.8
-55.72 -903.92 2388.0
-49.47 -902.90 2385.4
-43.33 -903.65 2387.3
-37.53 -913.24 2412.7
-31.54 -921.06 2433.3
-24.85 -906.92 2396.0
-6.08 -887.14 2343.7
0.00 -895.99 2367.1
6.13 -895.28 2365.2
12.38 -903.77 2387.6
18.43 -897.03 2369.8
49.36 -900.78 2379.7
56.24 -912.41 2410.5
62.61 -914.13 2415.0
70.73 -938.85 2480.3
-434.19 -1046.33 2745.5
-406.22 -995.24 2611.4
-403.12 -1004.39 2635.4
-383.15 -1024.07 2687.1
-375.40 -1021.92 2681.4
-364.49 -1010.93 2652.6
-360.72 -1019.72 2675.6
-323.82 -971.45 2549.0
-310.95 -952.27 2498.7
-307.83 -962.79 2526.3
-304.02 -971.55 2549.3
-273.43 -934.76 2452.7
-256.71 -898.49 2357.6
-257.48 -923.16 2422.3
-250.49 -920.54 2415.4
-236.29 -890.62 2336.9
-233.03 -901.46 2365.3
-232.39 -923.29 2422.6
-223.29 -911.78 2392.4
-212.23 -891.39 2338.9
-205.64 -889.08 2332.9
-200.03 -891.03 2338.0
-192.77 -885.52 2323.5
-185.35 -878.93 2306.2
-181.22 -887.97 2330.0
-177.24 -898.43 2357.4
-166.56 -874.41 2294.4
-153.39 -867.23 2275.5
-149.14 -876.95 2301.0
-144.82 -887.03 2327.5
-140.31 -896.76 2353.0
-133.21 -890.12 2335.6
-128.65 -900.54 2362.9
-125.34 -921.28 2417.4
-118.59 -917.47 2407.4
-111.48 -910.46 2389.0
-104.77 -905.93 2377.1
-97.65 -897.12 2354.0
-90.72 -889.01 2332.7
-84.95 -891.94 2340.4
-79.73 -901.62 2365.8
-74.42 -911.65 2392.1
-69.34 -926.66 2431.5
-62.90 -924.58 2426.0
-56.13 -916.80 2405.6
-50.21 -922.55 2420.7
-44.25 -929.35 2438.5
-37.86 -927.61 2434.0
-31.46 -924.79 2426.6
-24.81 -911.64 2392.1
-18.09 -886.37 2325.8
-12.07 -887.45 2328.6
-6.21 -913.46 2396.8
0.00 -904.56 2373.5
6.03 -885.68 2323.9
12.26 -900.99 2364.1
18.39 -900.97 2364.1
30.46 -895.59 2349.9
37.72 -924.05 2424.6
44.95 -943.95 2476.8
51.25 -941.77 2471.1
56.59 -924.28 2425.2
69.93 -934.50 2452.0
-458.65 -1044.31 2721.7
-442.73 -1023.81 2668.2
-435.07 -1022.06 2663.7
-435.58 -1039.78 2709.9
-409.57 -1027.39 2677.6
-400.54 -1022.06 2663.7
-394.03 -1023.11 2666.4
-382.14 -1009.95 2632.1
-373.06 -1003.88 2616.3
-369.12 -1011.66 2636.6
-360.48 -1006.64 2623.5
-358.29 -1019.74 2657.6
-326.60 -986.48 2570.9
-311.60 -960.78 2504.0
-301.47 -949.30 2474.0
-291.37 -937.45 2443.2
-283.05 -930.93 2426.2
-277.36 -932.95 2431.4
-274.34 -944.23 2460.8
-258.94 -934.71 2436.0
-239.58 -886.43 2310.2
-231.00 -899.68 2344.7
-226.04 -904.15 2356.4
-212.68 -874.37 2278.8
-197.79 -887.04 2311.8
-194.53 -899.71 2344.8
-186.24 -889.15 2317.3
-181.57 -895.74 2334.5
-177.93 -908.05 2366.5
-166.61 -880.68 2295.2
-159.71 -875.46 2281.6
-159.03 -905.27 2359.3
-151.01 -893.96 2329.8
-143.02 -881.93 2298.5
-140.74 -905.65 2360.3
-135.49 -911.50 2375.5
-130.57 -920.20 2398.2
-118.90 -926.14 2413.7
-110.47 -908.34 2367.3
-103.77 -903.43 2354.5
-96.67 -894.21 2330.5
-90.42 -892.14 2325.1
-85.25 -901.17 2348.6
-80.52 -916.63 2388.9
-75.66 -933.17 2432.0
-68.96 -927.86 2418.2
-61.17 -905.36 2359.5
-55.43 -911.50 2375.5
-50.32 -930.88 2426.1
-44.15 -933.43 2432.7
-37.64 -928.45 2419.7
-31.13 -921.32 2401.1
-24.43 -903.79 2355.4
-18.06 -890.91 2321.9
-12.26 -907.05 2363.9
-6.21 -919.23 2395.7
0.00 -894.52 2331.3
12.22 -904.54 2357.4
18.46 -910.62 2373.2
24.36 -901.28 2348.9
30.77 -910.93 2374.0
37.97 -936.69 2441.2
-457.04 -1064.04 2754.5
-451.72 -1068.34 2765.6
-439.66 -1056.61 2735.2
-430.83 -1052.35 2724.2
-398.34 -1041.28 2695.5
-385.57 -1025.90 2655.7
-376.31 -1019.44 2639.0
-370.49 -1022.27 2646.3
-359.16 -1009.71 2613.8
-352.86 -1011.09 2617.4
-351.57 -1027.13 2658.9
-320.91 -996.15 2578.7
-309.34 -980.67 2538.6
-294.77 -954.79 2471.6
-282.48 -935.34 2421.3
-277.55 -939.88 2433.0
-275.45 -954.45 2470.8
-269.91 -957.55 2478.8
-253.59 -921.57 2385.6
-240.14 -894.52 2315.6
-236.07 -901.90 2334.7
-236.29 -926.51 2398.4
-229.77 -925.27 2395.2
-214.67 -888.49 2300.0
-195.55 -882.92 2285.6
-192.51 -896.38 2320.4
-184.06 -884.69 2290.2
-176.20 -875.14 2265.5
-169.52 -870.98 2254.7
-168.16 -894.85 2316.5
-163.04 -934.33 2418.7
-148.70 -886.27 2294.3
-140.28 -870.93 2254.6
-137.96 -893.71 2313.5
-134.05 -907.87 2350.2
-130.35 -924.89 2394.3
-126.09 -939.40 2431.8
-117.32 -920.07 2381.8
-107.86 -892.81 2311.2
-95.81 -892.27 2309.8
-91.94 -913.23 2364.1
-85.24 -907.19 2348.4
-79.22 -907.98 2350.5
-74.26 -922.09 2387.0
-67.44 -913.51 2364.8
-59.72 -889.79 2303.4
-54.12 -895.96 2319.4
-49.19 -916.18 2371.7
-43.23 -920.19 2382.1
-37.29 -925.99 2397.1
-31.17 -928.90 2404.6
-24.30 -905.14 2343.1
-12.10 -901.21 2333.0
-6.14 -914.19 2366.6
0.00 -908.79 2352.6
6.15 -915.63 2370.3
12.41 -924.27 2392.7
18.40 -913.81 2365.6
24.40 -908.75 2352.5
31.01 -924.22 2392.5
37.82 -939.32 2431.6
-462.15 -1083.16 2785.3
-427.10 -1050.26 2700.7
-417.24 -1043.09 2682.2
-408.73 -1039.14 2672.1
-384.36 -1011.46 2600.9
-388.19 -1039.81 2673.8
-369.79 -1008.52 2593.3
-350.72 -992.61 2552.4
-350.32 -1010.53 2598.5
-345.64 -1016.58 2614.1
-339.68 -1019.04 2620.4
-311.89 -995.40 2559.6
-289.43 -943.80 2426.9
-279.43 -931.43 2395.1
-276.46 -942.49 2423.5
-269.83 -941.28 2420.4
-260.19 -929.25 2389.5
-249.92 -914.33 2351.1
-241.95 -907.32 2333.1
-238.87 -918.72 2362.4
-240.29 -948.52 2439.0
-226.79 -944.95 2429.9
-211.85 -907.95 2334.7
-201.67 -889.71 2287.8
-194.50 -884.10 2273.4
-187.10 -877.04 2255.2
-184.35 -892.02 2293.8
-180.89 -904.47 2325.8
-174.12 -900.65 2315.9
-173.41 -929.00 2388.9
-156.69 -903.97 2324.5
-148.45 -890.72 2290.4
-146.24 -914.00 2350.3
-140.89 -918.83 2362.7
-133.98 -913.52 2349.1
-126.24 -901.69 2318.6
-118.41 -888.04 2283.5
-113.46 -895.75 2303.4
-107.24 -893.67 2298.0
-95.73 -897.47 2307.8
-93.12 -931.24 2394.6
-87.40 -936.39 2407.9
-80.47 -928.49 2387.6
-74.81 -935.08 2404.5
-69.00 -940.94 2419.6
-62.06 -930.85 2393.6
-55.22 -920.40 2366.7
-49.32 -924.79 2378.0
-43.41 -930.27 2392.1
-37.49 -937.19 2409.9
-31.05 -931.42 2395.1
-12.15 -911.54 2344.0
-6.25 -937.28 2410.2
0.00 -944.53 2428.8
6.27 -939.82 2416.7
12.47 -935.10 2404.5
18.48 -923.85 2375.6
24.46 -917.31 2358.8
31.20 -936.13 2407.2
38.18 -954.58 2454.6
-473.31 -1082.88 2766.1
-432.10 -1052.38 2688.2
-418.43 -1035.79 2645.8
-395.34 -1047.30 2675.2
-378.55 -1039.30 2654.8
-363.51 -1016.49 2596.5
-358.67 -1021.87 2610.3
-354.12 -1028.32 2626.7
-344.48 -1019.94 2605.3
-325.84 -984.05 2513.7
-315.07 -970.93 2480.2
-321.39 -1011.04 2582.6
-312.19 -1002.98 2562.0
-284.99 -935.50 2389.6
-273.37 -938.16 2396.4
-270.43 -949.63 2425.7
-256.94 -923.75 2359.6
-238.28 -922.59 2356.7
-233.32 -927.15 2368.3
-226.16 -922.99 2357.7
-221.83 -930.45 2376.7
-213.19 -919.74 2349.4
-199.86 -887.59 2267.3
-183.97 -896.09 2289.0
-180.37 -907.88 2319.1
-173.34 -902.58 2305.6
-171.37 -924.19 2360.8
-166.52 -931.25 2378.8
-157.12 -912.48 2330.8
-152.48 -920.98 2352.6
-149.35 -939.67 2400.3
-143.04 -939.07 2398.8
-133.87 -918.81 2347.0
-123.85 -890.53 2274.8
-118.16 -892.09 2278.8
-115.06 -914.40 2335.8
-109.88 -921.79 2354.6
-103.38 -918.24 2345.5
-96.46 -910.31 2325.3
-91.31 -919.14 2347.8
-85.63 -923.59 2359.2
-78.70 -914.19 2335.2
-73.32 -922.63 2356.8
-67.69 -929.26 2373.7
-62.07 -937.33 2394.3
-56.33 -945.04 2414.0
-50.53 -953.83 2436.5
-44.66 -963.35 2460.8
-31.70 -957.22 2445.1
-24.39 -920.79 2352.1
-18.08 -909.87 2324.2
-12.33 -930.67 2377.3
-6.29 -949.27 2424.8
0.00 -958.02 2447.2
6.32 -954.00 2436.9
25.16 -949.95 2426.6
31.49 -951.02 2429.3
-481.33 -1091.96 2771.0
-427.24 -1064.61 2701.5
-425.68 -1078.40 2736.5
-410.70 -1058.07 2685.0
-411.22 -1077.67 2734.7
-383.37 -1040.59 2640.6
-380.86 -1052.55 2670.9
-370.53 -1062.65 2696.6
-360.41 -1053.51 2673.4
-344.84 -1048.31 2660.2
-323.72 -1004.18 2548.2
-320.42 -1014.66 2574.8
-316.20 -1022.59 2594.9
-292.35 -966.02 2451.4
-280.56 -947.68 2404.8
-283.69 -980.01 2486.9
-274.52 -970.40 2462.5
-255.40 -924.32 2345.5
-249.28 -924.17 2345.2
-252.48 -959.42 2434.6
-245.38 -956.36 2426.8
-233.94 -935.76 2374.6
-226.77 -931.58 2364.0
-222.50 -939.44 2383.9
-218.30 -948.04 2405.7
-209.08 -934.71 2371.9
-198.68 -915.15 2322.3
-192.62 -914.96 2321.8
-188.80 -925.73 2349.1
-182.45 -924.43 2345.8
-171.24 -897.52 2277.6
-166.17 -902.06 2289.1
-165.72 -932.94 2367.4
-160.04 -935.64 2374.3
-150.18 -913.09 2317.1
-142.52 -902.61 2290.4
-140.31 -927.26 2353.0
-134.44 -928.84 2357.0
-126.37 -914.68 2321.1
-122.73 -932.73 2366.9
-116.01 -928.07 2355.1
-107.40 -906.93 2301.4
-102.43 -915.81 2324.0
-96.80 -919.56 2333.5
-91.73 -929.54 2358.8
-86.06 -934.38 2371.1
-78.17 -913.93 2319.2
-71.93 -911.07 2311.9
-67.08 -926.89 2352.1
-62.07 -943.44 2394.1
-56.34 -951.56 2414.7
-50.53 -960.03 2436.2
-44.37 -963.37 2444.7
-37.90 -960.11 2436.4
-18.50 -937.09 2378.0
-12.27 -932.34 2365.9
-6.22 -945.18 2398.5
0.00 -947.01 2403.1
6.27 -952.88 2418.0
-483.14 -1103.30 2781.4
-469.83 -1089.14 2745.7
-457.77 -1077.53 2716.5
-448.76 -1072.82 2704.6
-441.16 -1071.38 2701.0
-434.90 -1073.22 2705.6
-438.36 -1099.50 2771.8
-428.89 -1093.67 2757.2
-406.68 -1054.62 2658.7
-394.39 -1040.36 2622.8
-371.20 -1032.60 2603.2
-375.66 -1064.36 2683.3
-370.71 -1070.17 2697.9
-358.48 -1054.76 2659.1
-352.42 -1057.27 2665.4
-346.09 -1059.04 2669.9
-330.59 -1032.24 2602.3
-317.61 -1012.39 2552.2
-285.15 -948.43 2391.0
-277.08 -942.08 2375.0
-278.90 -969.82 2444.9
-269.02 -957.23 2413.2
-253.57 -923.71 2328.7
-251.13 -937.14 2362.5
-255.04 -975.53 2459.3
-248.72 -975.75 2459.9
-239.94 -966.05 2435.4
-235.09 -972.14 2450.8
-226.63 -963.16 2428.1
-218.36 -954.54 2406.4
-215.27 -968.69 2442.1
-199.14 -952.15 2400.4
-191.17 -943.50 2378.6
-187.27 -955.07 2407.7
-177.36 -935.74 2359.0
-169.93 -928.53 2340.8
-168.24 -953.33 2403.4
-159.65 -939.49 2368.5
-146.68 -897.68 2263.0
-140.66 -896.70 2260.6
-140.18 -932.53 2350.9
-135.38 -941.49 2373.5
-127.98 -932.40 2350.6
-121.90 -932.51 2350.9
-112.61 -906.83 2286.1
-99.84 -898.55 2265.3
-95.05 -908.95 2291.5
-90.75 -925.62 2333.5
-86.49 -945.22 2382.9
-79.79 -939.03 2367.3
-72.99 -930.62 2346.1
-67.71 -941.74 2374.1
-61.80 -945.49 2383.6
-55.23 -938.90 2367.0
-49.44 -945.59 2383.8
-43.26 -945.63 2383.9
-36.59 -933.13 2352.4
-30.89 -945.32 2383.2
-25.44 -973.00 2452.9
-18.95 -966.38 2436.3
-12.43 -950.54 2396.3
-6.22 -952.03 2400.1
0.00 -952.40 2401.0
6.26 -957.93 2414.9
12.57 -961.97 2425.1
19.03 -970.44 2446.5
-478.10 -1098.93 2752.4
-475.54 -1109.59 2779.1
-434.08 -1078.20 2700.5
-426.36 -1076.37 2695.9
-406.93 -1044.45 2616.0
-382.48 -1033.37 2588.2
-390.19 -1073.02 2687.5
-378.62 -1060.12 2655.2
-364.37 -1039.13 2602.6
-356.34 -1035.40 2593.3
-340.65 -1008.85 2526.8
-341.15 -1030.12 2580.1
-340.77 -1049.57 2628.8
-322.92 -1014.88 2541.9
-308.03 -988.27 2475.3
-300.69 -985.22 2467.6
-287.43 -962.27 2410.1
-275.12 -941.51 2358.1
-273.39 -956.86 2396.6
-264.67 -947.88 2374.1
-245.90 -923.62 2313.3
-248.39 -956.31 2395.2
-242.33 -956.90 2396.7
-234.17 -948.99 2376.9
-226.01 -940.70 2356.1
-213.47 -913.19 2287.2
-208.51 -917.44 2297.9
-208.47 -944.23 2365.0
-207.68 -969.18 2427.4
-200.43 -964.55 2415.9
-191.37 -950.68 2381.1
-186.60 -957.87 2399.1
-178.60 -948.42 2375.4
-172.94 -951.16 2382.3
-168.86 -963.15 2412.3
-157.64 -933.69 2338.6
-144.57 -890.53 2230.4
-138.92 -891.39 2232.6
-140.17 -938.53 2350.7
-136.74 -957.17 2397.4
-125.19 -918.03 2299.3
-110.50 -895.65 2243.3
-106.34 -909.82 2278.8
-102.04 -924.37 2315.2
-97.55 -938.90 2351.6
-89.51 -918.98 2301.7
-78.84 -933.95 2339.2
-75.18 -964.78 2416.4
-67.59 -946.31 2370.2
-59.74 -920.05 2304.4
-47.95 -923.11 2312.1
-43.39 -954.67 2391.1
-37.95 -973.98 2439.5
-31.00 -954.73 2391.3
-24.67 -949.94 2379.3
-18.73 -961.45 2408.1
-12.51 -962.95 2411.8
-6.30 -970.00 2429.5
0.00 -974.09 2439.7
-490.74 -1135.28 2825.1
-467.48 -1114.76 2774.1
-450.57 -1091.22 2715.5
-449.23 -1105.25 2750.4
-441.22 -1103.06 2744.9
-425.40 -1080.94 2689.9
-412.14 -1064.70 2649.5
-402.04 -1056.20 2628.3
-388.72 -1038.82 2585.1
-383.50 -1042.86 2595.1
-391.98 -1084.95 2699.9
-381.96 -1076.42 2678.7
-342.06 -1039.60 2587.0
-333.66 -1034.35 2574.0
-308.58 -976.13 2429.1
-297.90 -961.96 2393.8
-295.03 -972.96 2421.2
-294.00 -990.64 2465.2
-271.74 -979.53 2437.5
-261.97 -966.78 2405.8
-261.68 -989.28 2461.8
-253.06 -980.60 2440.2
-237.17 -942.58 2345.6
-229.59 -936.48 2330.4
-221.11 -926.28 2305.0
-204.04 -903.63 2248.7
-206.32 -940.60 2340.7
-207.65 -975.35 2427.1
-198.79 -962.89 2396.1
-188.30 -941.50 2342.9
-184.78 -954.68 2375.7
-177.81 -950.38 2365.0
-166.87 -923.75 2298.7
-158.15 -907.89 2259.3
-150.69 -898.36 2235.5
-138.72 -934.85 2326.4
-134.56 -948.00 2359.1
-121.59 -897.48 2233.4
-113.14 -923.01 2296.9
-106.72 -919.01 2286.9
-100.68 -917.99 2284.4
-99.15 -960.55 2390.3
-93.25 -963.62 2397.9
-84.59 -936.50 2330.4
-80.77 -963.03 2396.5
-76.29 -985.46 2452.3
-67.61 -952.73 2370.8
-60.32 -934.89 2326.5
-54.44 -937.55 2333.1
-38.00 -981.67 2442.9
-24.85 -963.08 2396.6
-18.21 -941.10 2341.9
-12.14 -941.12 2341.9
-6.10 -945.60 2353.1
0.00 -976.18 2429.2
-490.18 -1124.52 2780.4
-485.06 -1129.39 2792.5
-475.02 -1122.78 2776.1
-471.86 -1132.45 2800.0
-445.55 -1121.06 2771.9
-434.46 -1111.07 2747.1
-426.62 -1109.22 2742.6
-410.81 -1086.21 2685.7
-392.24 -1055.00 2608.5
-371.40 -1053.42 2604.6
-356.39 -1029.57 2545.6
-350.15 -1071.06 2648.2
-347.68 -1084.77 2682.1
-323.40 -1029.59 2545.7
-314.36 -1021.68 2526.1
-307.11 -1019.35 2520.4
-275.71 -1000.26 2473.2
-258.52 -960.22 2374.2
-261.74 -995.89 2462.4
-255.42 -996.12 2462.9
-243.30 -973.20 2406.3
-238.48 -979.02 2420.6
-232.61 -980.72 2424.9
-222.49 -964.12 2383.8
-211.49 -942.64 2330.7
-208.50 -956.66 2365.4
-204.86 -968.43 2394.5
-190.25 -927.49 2293.2
-172.82 -898.65 2221.9
-171.12 -920.49 2275.9
-164.51 -916.53 2266.1
-157.23 -908.44 2246.2
-151.56 -909.33 2248.3
-146.23 -912.46 2256.1
-145.06 -942.91 2331.4
-139.64 -947.15 2341.9
-128.05 -907.96 2245.0
-123.15 -914.81 2261.9
-123.59 -963.98 2383.5
-119.38 -980.20 2423.6
-110.52 -957.83 2368.2
-101.00 -926.83 2291.6
-96.80 -943.78 2333.5
-94.14 -979.08 2420.8
-87.81 -978.41 2419.2
-81.57 -978.87 2420.3
-75.07 -975.94 2413.0
-66.44 -942.27 2329.8
-54.50 -944.63 2335.6
-48.12 -938.30 2320.0
-37.20 -967.24 2391.5
-18.91 -983.07 2430.7
-12.67 -987.96 2442.7
-6.22 -969.59 2397.3
0.00 -978.22 2418.7
-496.59 -1129.93 2776.0
-485.72 -1121.43 2755.1
-489.08 -1146.05 2815.6
-474.76 -1129.35 2774.6
-468.05 -1130.52 2777.4
-451.49 -1143.29 2808.8
-405.28 -1097.04 2695.2
-388.79 -1070.88 2630.9
-373.70 -1047.69 2573.9
-367.79 -1049.88 2579.3
-362.76 -1054.69 2591.2
-348.45 -1032.20 2535.9
-337.08 -1037.68 2549.3
-302.26 -1031.61 2534.4
-287.92 -1004.52 2467.9
-253.57 -947.88 2328.7
-246.12 -942.47 2315.5
-250.41 -982.85 2414.6
-247.65 -996.96 2449.3
-242.99 -1003.93 2466.4
-225.39 -982.95 2414.9
-213.14 -956.10 2348.9
-206.53 -953.66 2342.9
-199.30 -948.21 2329.5
-186.79 -916.43 2251.5
-170.06 -920.67 2261.9
-164.09 -920.07 2260.4
-157.02 -913.07 2243.2
-155.34 -938.04 2304.6
-153.41 -963.39 2366.8
-146.08 -955.62 2347.8
-135.00 -921.50 2263.9
-127.19 -907.69 2230.0
-126.26 -943.95 2319.1
-124.44 -976.82 2399.8
-117.54 -971.28 2386.2
-111.41 -971.76 2387.4
-104.46 -964.70 2370.1
-97.86 -960.27 2359.2
-93.16 -975.05 2395.5
-86.52 -970.23 2383.6
-80.13 -967.67 2377.4
-74.92 -980.18 2408.1
-67.25 -959.89 2358.2
-59.75 -938.09 2304.7
-55.14 -961.89 2363.1
-49.69 -975.13 2395.7
-43.65 -978.94 2405.0
-37.85 -990.28 2432.9
-32.04 -1006.15 2471.9
-492.05 -1143.29 2791.0
-481.53 -1152.76 2814.2
-462.55 -1124.35 2744.8
-451.50 -1114.64 2721.1
-439.37 -1101.92 2690.0
