ply
format ascii 1.0
element vertex 2215
property float x
property float y
property float z
end_header
94.75 -488.34 2811.3
108.51 -484.66 2790.1
118.38 -495.72 2853.8
127.85 -503.88 2900.8
133.93 -498.52 2869.9
141.16 -497.78 2865.7
148.98 -499.08 2873.2
156.09 -497.99 2866.9
164.62 -501.34 2886.2
176.24 -513.39 2955.6
205.04 -508.79 2929.1
209.74 -501.87 2889.2
248.73 -537.58 3094.8
256.54 -537.13 3092.2
0.00 -514.95 2921.0
7.55 -513.39 2912.1
23.00 -521.36 2957.3
30.19 -513.19 2911.0
38.51 -523.77 2970.9
46.20 -523.57 2969.8
53.14 -516.26 2928.4
60.53 -514.50 2918.4
67.22 -507.87 2880.8
74.12 -504.02 2859.0
81.28 -502.43 2849.9
87.22 -494.23 2803.4
116.33 -494.40 2804.4
128.49 -513.95 2915.3
143.42 -513.31 2911.6
149.22 -507.35 2877.8
155.59 -503.81 2857.8
163.31 -504.78 2863.3
173.58 -513.20 2911.0
182.14 -516.07 2927.3
189.70 -515.99 2926.8
197.99 -517.81 2937.1
204.95 -516.16 2927.8
213.57 -518.66 2942.0
245.07 -537.58 3049.3
252.85 -537.30 3047.7
264.22 -544.45 3088.3
272.25 -544.50 3088.6
278.42 -540.92 3068.3
285.94 -540.11 3063.6
-7.59 -523.88 2928.5
0.00 -522.47 2920.6
7.69 -530.74 2966.9
22.72 -522.45 2920.6
37.13 -512.39 2864.3
45.33 -521.35 2914.4
53.14 -523.79 2928.0
60.79 -524.30 2930.9
67.83 -520.04 2907.1
74.65 -515.08 2879.3
81.63 -512.05 2862.4
88.92 -511.31 2858.3
95.73 -508.10 2840.3
115.38 -497.58 2781.5
126.18 -512.13 2862.8
143.46 -520.98 2912.3
148.59 -512.65 2865.7
153.97 -505.89 2828.0
161.78 -507.41 2836.4
171.98 -515.95 2884.2
179.80 -516.92 2889.6
186.18 -513.85 2872.5
195.18 -517.98 2895.6
203.34 -519.65 2904.9
211.62 -521.49 2915.2
289.38 -554.65 3100.5
7.70 -538.73 2968.5
15.09 -528.01 2909.4
22.71 -529.79 2919.2
30.35 -531.20 2927.0
37.60 -526.37 2900.4
45.08 -525.99 2898.3
53.61 -536.14 2954.3
67.89 -528.06 2909.7
72.86 -509.99 2810.2
79.74 -507.46 2796.2
86.89 -506.89 2793.0
95.62 -514.88 2837.1
102.68 -513.40 2829.0
123.69 -509.32 2806.5
133.71 -519.97 2865.1
141.80 -522.40 2878.5
148.32 -519.13 2860.5
168.80 -513.74 2830.8
178.62 -520.97 2870.6
201.05 -521.25 2872.2
211.03 -527.56 2907.0
255.63 -559.19 3081.3
270.71 -557.35 3071.1
280.04 -560.07 3086.1
7.65 -543.10 2950.4
15.06 -534.58 2904.2
22.76 -538.56 2925.8
30.42 -539.99 2933.6
37.71 -535.45 2908.9
44.64 -528.19 2869.5
52.41 -531.61 2888.0
60.96 -540.99 2939.0
66.58 -525.22 2853.3
72.29 -513.24 2788.2
79.99 -516.28 2804.8
85.91 -508.28 2761.3
93.09 -508.42 2762.1
102.31 -518.87 2818.8
108.92 -515.57 2800.9
114.83 -509.55 2768.2
124.29 -519.08 2819.9
133.28 -525.71 2856.0
140.47 -524.92 2851.7
148.66 -527.75 2867.0
153.77 -519.91 2824.4
179.33 -530.52 2882.1
187.03 -531.16 2885.6
193.95 -529.63 2877.2
203.16 -534.23 2902.3
209.01 -529.98 2879.2
219.31 -536.93 2916.9
245.45 -562.16 3054.0
254.38 -564.39 3066.1
273.61 -571.37 3104.0
276.26 -560.42 3044.5
7.68 -553.24 2963.8
15.27 -549.75 2945.1
22.61 -542.59 2906.7
29.59 -532.66 2853.6
37.09 -534.12 2861.3
44.43 -533.18 2856.3
51.16 -526.19 2818.9
58.26 -524.33 2808.9
65.93 -527.42 2825.4
74.19 -534.17 2861.6
94.57 -523.78 2806.0
108.15 -519.10 2780.9
116.57 -524.55 2810.1
124.14 -525.78 2816.7
131.02 -524.07 2807.5
140.02 -530.60 2842.5
150.37 -541.35 2900.1
156.54 -536.69 2875.2
161.11 -527.28 2824.7
177.23 -531.70 2848.4
188.53 -542.97 2908.8
213.39 -548.73 2939.6
216.18 -536.73 2875.4
224.51 -538.83 2886.6
261.06 -569.58 3051.3
268.57 -568.73 3046.8
274.89 -565.49 3029.4
285.97 -571.94 3064.0
294.88 -573.82 3074.0
-15.02 -548.20 2896.5
-7.50 -547.64 2893.6
0.00 -553.60 2925.1
7.59 -553.78 2926.0
15.18 -553.96 2927.0
22.62 -550.42 2908.3
29.65 -541.11 2859.1
37.19 -542.95 2868.8
45.10 -548.70 2899.2
52.51 -547.56 2893.2
60.04 -547.90 2895.0
68.30 -554.01 2927.3
74.49 -543.75 2873.0
81.01 -537.58 2840.4
89.89 -546.83 2889.3
95.16 -534.34 2823.3
100.36 -523.33 2765.1
109.20 -531.45 2808.1
117.81 -537.53 2840.2
125.60 -539.33 2849.7
131.96 -535.18 2827.8
140.39 -539.39 2850.0
150.91 -550.84 2910.5
157.05 -545.94 2884.6
162.27 -538.43 2845.0
169.85 -539.10 2848.5
177.33 -539.39 2850.0
187.23 -546.73 2888.8
196.94 -552.94 2921.6
204.75 -553.59 2925.0
211.37 -551.08 2911.8
215.64 -542.82 2868.1
223.57 -544.01 2874.4
235.86 -555.40 2934.6
249.35 -568.82 3005.5
263.03 -581.86 3074.4
269.91 -579.51 3062.0
275.65 -574.93 3037.8
284.74 -577.39 3050.8
301.57 -579.34 3061.1
-14.97 -553.93 2887.3
-7.37 -545.27 2842.2
0.00 -543.96 2835.3
7.44 -550.36 2868.7
15.06 -557.14 2904.0
22.71 -560.14 2919.7
30.14 -557.68 2906.8
36.95 -546.93 2850.8
43.72 -539.18 2810.4
51.73 -546.88 2850.6
60.20 -556.84 2902.5
67.03 -551.16 2872.8
71.50 -529.09 2757.8
86.85 -535.60 2791.8
93.22 -530.66 2766.0
109.57 -540.55 2817.5
119.47 -552.54 2880.0
127.40 -554.55 2890.5
133.78 -549.97 2866.7
141.19 -549.91 2866.3
150.54 -556.99 2903.2
158.10 -557.10 2903.8
164.88 -554.58 2890.7
172.23 -554.12 2888.3
179.26 -552.72 2881.0
186.51 -552.07 2877.6
193.67 -551.23 2873.2
202.87 -556.02 2898.2
210.85 -557.24 2904.5
216.79 -553.19 2883.4
226.74 -559.28 2915.2
237.95 -568.00 2960.6
250.53 -579.34 3019.7
270.55 -572.02 2981.6
300.57 -585.31 3050.9
-22.19 -554.84 2853.5
-14.83 -556.00 2859.4
-7.36 -552.38 2840.8
0.00 -549.70 2827.1
7.41 -555.43 2856.5
14.60 -547.60 2816.2
28.85 -540.90 2781.8
43.06 -538.19 2767.8
51.78 -554.77 2853.1
59.13 -554.36 2851.0
64.60 -538.30 2768.4
79.81 -544.15 2798.5
88.49 -553.07 2844.4
94.67 -546.16 2808.8
100.30 -537.34 2763.5
109.21 -546.06 2808.3
119.86 -561.84 2889.4
128.72 -567.88 2920.5
135.63 -565.15 2906.5
143.59 -566.79 2914.9
158.55 -566.27 2912.2
164.52 -560.85 2884.4
171.15 -558.10 2870.2
178.20 -556.87 2863.9
185.34 -556.02 2859.6
195.89 -565.07 2906.1
215.22 -576.49 2964.8
219.41 -567.44 2918.3
230.74 -576.85 2966.6
247.89 -580.99 2988.0
253.41 -575.93 2961.9
262.75 -579.61 2980.8
300.71 -593.51 3052.3
-21.95 -556.17 2822.6
-7.33 -556.76 2825.7
0.00 -565.46 2869.8
7.47 -567.97 2882.6
14.65 -556.56 2824.7
35.99 -547.05 2776.4
43.83 -555.15 2817.5
51.49 -558.99 2837.0
57.35 -544.86 2765.2
71.66 -544.60 2763.9
79.57 -549.78 2790.2
87.26 -552.64 2804.7
95.91 -560.71 2845.7
104.67 -568.19 2883.7
109.20 -553.27 2807.9
115.16 -547.03 2776.3
125.55 -561.26 2848.5
134.29 -566.99 2877.6
141.73 -566.93 2877.3
149.53 -568.21 2883.8
156.29 -565.62 2870.6
162.37 -560.91 2846.7
170.13 -562.18 2853.2
178.30 -564.60 2865.5
186.08 -565.67 2870.9
197.12 -576.19 2924.3
206.99 -582.65 2957.0
210.64 -571.75 2901.7
214.37 -561.81 2851.3
225.00 -569.99 2892.8
237.56 -582.41 2955.8
241.77 -574.19 2914.1
251.36 -578.89 2938.0
265.21 -592.83 3008.7
268.52 -583.07 2959.2
276.95 -584.67 2967.3
293.16 -586.31 2975.7
-22.55 -578.87 2899.7
-14.56 -560.47 2807.6
-7.24 -557.74 2793.9
0.00 -567.33 2841.9
7.42 -571.25 2861.5
14.97 -576.33 2887.0
22.51 -577.69 2893.8
30.04 -578.27 2896.7
45.00 -577.45 2892.6
51.66 -568.22 2846.4
58.69 -564.87 2829.6
66.57 -569.53 2852.9
72.79 -560.50 2807.7
78.81 -551.65 2763.4
87.86 -563.74 2823.9
109.71 -563.20 2821.2
122.46 -554.68 2778.5
131.62 -563.02 2820.3
139.64 -565.89 2834.7
148.90 -573.25 2871.6
157.23 -576.50 2887.8
163.46 -572.12 2865.9
171.16 -573.01 2870.4
180.22 -578.20 2896.4
189.09 -582.41 2917.4
196.62 -582.31 2917.0
202.71 -578.11 2895.9
210.18 -578.01 2895.4
218.02 -578.88 2899.8
223.97 -574.86 2879.7
231.39 -574.75 2879.1
241.81 -581.85 2914.7
258.43 -603.00 3020.6
274.77 -604.49 3028.1
277.45 -593.43 2972.7
-29.54 -575.97 2848.2
-22.38 -581.93 2877.7
-14.80 -577.18 2854.2
-7.30 -569.46 2816.0
0.00 -574.81 2842.5
7.33 -571.83 2827.8
14.61 -569.85 2817.9
22.21 -577.57 2856.1
30.00 -585.09 2893.3
44.71 -581.28 2874.5
51.22 -570.75 2822.4
58.05 -565.97 2798.8
66.40 -575.45 2845.6
73.09 -570.07 2819.0
79.38 -562.89 2783.5
88.67 -576.33 2850.0
104.17 -580.39 2870.1
110.80 -576.17 2849.2
118.34 -576.91 2852.8
124.17 -569.72 2817.3
130.09 -563.71 2787.6
139.66 -573.35 2835.2
150.60 -587.33 2904.4
159.60 -592.80 2931.4
166.78 -591.33 2924.2
191.22 -596.60 2950.2
195.80 -587.40 2904.7
200.15 -578.21 2859.3
217.54 -585.12 2893.4
228.57 -594.29 2938.8
234.34 -589.63 2915.8
242.82 -591.88 2926.9
254.87 -602.43 2979.0
263.14 -603.68 2985.2
291.23 -597.80 2956.1
298.73 -597.45 2954.4
310.76 -605.98 2996.6
325.91 -620.01 3066.0
333.45 -619.26 3062.3
340.97 -618.50 3058.5
-29.07 -574.23 2803.7
-21.85 -575.45 2809.6
-14.78 -583.68 2849.8
-7.44 -588.10 2871.4
0.00 -585.50 2858.7
7.27 -574.66 2805.7
14.50 -572.65 2795.9
22.04 -580.46 2834.1
29.21 -576.84 2816.4
35.85 -566.39 2765.4
42.94 -565.36 2760.4
64.83 -569.09 2778.6
71.93 -568.26 2774.5
78.78 -565.81 2762.6
87.16 -573.79 2801.5
95.21 -578.56 2824.8
103.37 -583.32 2848.0
112.12 -590.48 2883.0
118.12 -583.21 2847.5
122.38 -568.71 2776.7
138.39 -575.40 2809.3
148.75 -587.55 2868.7
157.07 -590.88 2884.9
164.64 -591.19 2886.5
173.61 -596.32 2911.5
183.57 -604.24 2950.2
189.54 -598.94 2924.3
192.14 -583.82 2850.5
217.07 -591.32 2887.1
230.28 -606.41 2960.8
238.15 -606.89 2963.1
244.32 -603.17 2945.0
253.74 -607.44 2965.8
263.70 -612.71 2991.5
267.32 -603.38 2946.0
287.71 -614.29 2999.2
320.10 -632.20 3086.7
328.75 -633.44 3092.7
329.57 -619.90 3026.6
369.02 -633.75 3094.3
-37.48 -599.66 2891.2
-29.85 -597.04 2878.6
-21.97 -585.88 2824.8
-14.53 -581.22 2802.3
-7.30 -583.67 2814.1
0.00 -579.61 2794.5
21.72 -579.18 2792.5
28.78 -575.51 2774.8
35.79 -572.65 2761.0
43.48 -579.74 2795.2
50.57 -577.89 2786.3
57.93 -579.28 2793.0
65.87 -585.55 2823.2
72.38 -579.01 2791.7
78.99 -574.51 2769.9
87.17 -581.16 2802.0
94.46 -581.32 2802.8
101.69 -581.07 2801.6
111.83 -596.44 2875.7
119.72 -598.61 2886.1
123.31 -580.28 2797.8
140.63 -592.12 2854.9
158.27 -602.92 2906.9
162.10 -589.45 2842.0
169.91 -590.99 2849.4
178.79 -595.97 2873.4
186.65 -597.29 2879.8
191.32 -588.68 2838.3
208.24 -594.96 2868.6
222.76 -614.50 2962.8
241.16 -622.36 3000.7
245.09 -612.72 2954.2
254.61 -617.25 2976.0
264.60 -622.58 3001.7
273.38 -624.87 3012.8
284.31 -631.81 3046.2
319.33 -638.67 3079.3
326.09 -636.28 3067.8
350.11 -636.57 3069.2
358.42 -637.20 3072.2
367.79 -639.64 3084.0
380.65 -647.92 3123.9
386.09 -643.49 3102.5
-44.55 -601.48 2864.2
-36.85 -596.98 2842.8
-29.90 -605.42 2883.0
-22.36 -603.79 2875.2
-14.69 -594.76 2832.2
-7.32 -592.71 2822.4
0.00 -591.48 2816.6
7.24 -586.13 2791.1
14.39 -582.63 2774.4
21.72 -586.53 2793.0
28.93 -585.90 2790.0
36.19 -586.29 2791.9
43.98 -593.67 2827.0
51.20 -592.41 2821.0
58.69 -594.23 2829.7
66.66 -599.95 2856.9
73.35 -594.16 2829.4
80.18 -590.43 2811.6
87.74 -592.23 2820.2
94.32 -587.67 2798.4
101.03 -584.53 2783.5
110.63 -597.42 2844.8
120.02 -607.63 2893.5
125.10 -596.06 2838.4
130.62 -587.78 2799.0
142.82 -608.86 2899.3
159.14 -613.83 2923.0
163.46 -601.85 2865.9
172.03 -605.86 2885.1
177.97 -600.64 2860.2
193.72 -603.53 2873.9
205.93 -617.78 2941.8
213.37 -617.26 2939.3
223.23 -623.50 2969.0
233.77 -631.17 3005.6
237.83 -621.41 2959.1
246.18 -623.13 2967.3
260.74 -640.00 3047.6
269.62 -642.32 3058.7
276.87 -640.75 3051.2
283.71 -638.35 3039.8
291.80 -638.82 3042.0
303.46 -646.85 3080.2
306.35 -636.26 3029.8
309.07 -625.87 2980.3
317.34 -626.94 2985.4
339.91 -640.29 3049.0
365.39 -657.70 3131.9
370.04 -651.59 3102.8
378.21 -651.80 3103.8
387.59 -654.06 3114.6
396.41 -655.28 3120.4
410.41 -664.86 3166.0
-37.00 -606.74 2854.0
-29.90 -612.99 2883.4
-22.72 -620.91 2920.6
-7.48 -613.23 2884.5
0.00 -605.95 2850.3
7.31 -599.50 2820.0
14.49 -594.09 2794.5
21.87 -597.83 2812.1
29.12 -596.98 2808.1
36.62 -600.50 2824.6
44.70 -610.87 2873.4
51.81 -606.90 2854.7
59.08 -605.62 2848.7
80.95 -603.43 2838.4
86.81 -593.20 2790.3
94.63 -596.89 2807.7
102.86 -602.45 2833.8
109.81 -600.32 2823.8
116.03 -594.65 2797.1
124.69 -601.44 2829.1
134.24 -611.55 2876.7
143.37 -618.75 2910.5
158.69 -619.63 2914.6
165.38 -616.43 2899.6
173.52 -618.63 2909.9
179.15 -612.10 2879.2
191.39 -603.60 2839.2
203.97 -619.47 2913.9
211.56 -619.57 2914.4
222.08 -627.96 2953.8
233.42 -638.00 3001.1
239.66 -633.94 2982.0
250.58 -642.10 3020.4
262.11 -651.30 3063.6
267.76 -645.77 3037.6
275.31 -645.01 3034.0
282.20 -642.79 3023.6
284.27 -630.01 2963.5
321.10 -642.21 3020.8
332.66 -649.48 3055.1
341.36 -650.96 3062.0
352.30 -656.57 3088.4
364.29 -663.82 3122.5
373.55 -665.90 3132.3
381.56 -665.70 3131.4
390.89 -667.77 3141.1
401.75 -672.32 3162.5
-14.97 -621.21 2886.9
-7.35 -610.28 2836.1
0.00 -606.29 2817.5
7.27 -603.34 2803.8
14.51 -602.28 2798.9
22.03 -609.42 2832.1
29.44 -610.88 2838.9
37.15 -616.75 2866.2
59.42 -616.47 2864.8
66.86 -616.64 2865.6
74.42 -617.66 2870.4
79.68 -601.21 2793.9
86.82 -600.54 2790.8
96.16 -613.95 2853.1
104.08 -617.05 2867.5
110.63 -612.15 2844.8
115.68 -600.11 2788.8
122.90 -600.05 2788.5
131.62 -606.92 2820.4
139.97 -611.47 2841.6
148.64 -616.85 2866.6
154.99 -612.57 2846.7
162.40 -612.70 2847.3
171.62 -619.33 2878.1
179.24 -619.87 2880.6
184.59 -612.84 2848.0
193.65 -618.20 2872.9
206.46 -634.67 2949.4
211.59 -627.22 2914.8
219.26 -627.52 2916.2
232.76 -643.98 2992.7
241.49 -646.58 3004.7
249.31 -646.66 3005.1
257.38 -647.36 3008.4
262.98 -641.98 2983.4
270.74 -642.05 2983.7
283.32 -653.22 3035.6
291.13 -653.07 3034.9
293.94 -642.02 2983.6
310.06 -643.38 2989.9
321.87 -651.58 3028.0
370.00 -667.61 3102.5
387.87 -684.96 3183.1
413.88 -687.04 3192.8
419.97 -683.48 3176.3
426.63 -680.97 3164.6
429.50 -672.61 3125.7
-30.07 -631.53 2899.9
-22.11 -619.20 2843.3
-14.57 -611.98 2810.1
-7.28 -611.77 2809.1
0.00 -619.22 2843.4
7.36 -618.58 2840.4
14.74 -619.21 2843.3
22.43 -628.14 2884.3
37.45 -629.17 2889.0
66.62 -621.82 2855.3
72.55 -609.45 2798.5
78.61 -600.26 2756.3
86.72 -607.02 2787.4
96.34 -622.50 2858.4
124.90 -617.16 2833.9
129.36 -603.70 2772.1
159.42 -608.70 2795.0
169.32 -618.38 2839.5
177.63 -621.69 2854.7
186.14 -625.41 2871.8
198.94 -642.72 2951.3
211.27 -633.80 2910.3
215.18 -623.29 2862.0
237.37 -643.20 2953.5
249.99 -656.22 3013.3
259.08 -659.48 3028.2
265.84 -656.79 3015.9
274.13 -657.92 3021.1
287.53 -670.91 3080.7
295.36 -670.54 3079.0
297.61 -657.89 3020.9
308.32 -664.08 3049.3
321.09 -674.28 3096.2
326.65 -669.24 3073.1
368.99 -673.82 3094.1
383.41 -685.24 3146.5
388.67 -680.17 3123.3
401.82 -688.84 3163.0
411.90 -692.00 3177.5
-36.66 -623.19 2827.9
-29.80 -633.32 2873.9
-14.77 -627.75 2848.6
-7.31 -621.73 2821.3
0.00 -625.82 2839.9
7.31 -621.30 2819.3
14.55 -618.28 2805.6
22.00 -623.44 2829.0
29.63 -629.66 2857.3
37.10 -630.72 2862.1
44.11 -624.89 2835.6
51.09 -620.34 2815.0
58.75 -624.19 2832.4
65.81 -621.57 2820.6
72.77 -618.52 2806.7
80.12 -619.13 2809.5
86.25 -610.91 2772.2
93.43 -610.86 2772.0
101.17 -614.24 2787.3
109.56 -620.85 2817.3
126.81 -634.06 2877.2
132.66 -626.46 2842.8
139.34 -623.38 2828.8
143.83 -611.26 2773.8
152.22 -616.13 2795.9
162.73 -628.72 2853.0
172.13 -636.15 2886.7
181.65 -643.36 2919.4
195.88 -640.36 2905.8
218.36 -640.02 2904.3
229.71 -650.85 2953.4
244.68 -670.89 3044.4
292.40 -671.73 3048.2
297.74 -666.00 3022.2
311.79 -679.55 3083.7
377.24 -697.08 3163.2
387.38 -685.98 3112.9
406.41 -704.99 3199.1
417.86 -696.44 3160.3
420.17 -686.82 3116.7
431.70 -692.36 3141.8
442.82 -697.03 3163.0
-44.40 -636.46 2854.6
-37.19 -639.75 2869.3
-7.41 -637.19 2857.8
0.00 -625.00 2803.2
7.31 -628.48 2818.8
14.73 -633.26 2840.2
21.70 -621.94 2789.4
36.46 -627.13 2812.7
44.48 -637.55 2859.4
50.78 -623.82 2797.8
57.60 -619.22 2777.2
65.96 -630.28 2826.8
74.47 -640.47 2872.5
80.66 -630.63 2828.4
85.44 -612.32 2746.3
92.52 -612.05 2745.1
100.16 -615.26 2759.5
122.01 -617.25 2768.4
130.18 -621.96 2789.5
139.60 -631.89 2834.1
147.29 -633.33 2840.5
155.53 -636.94 2856.7
165.75 -647.94 2906.0
173.44 -648.50 2908.5
180.95 -648.40 2908.1
190.04 -653.73 2932.0
193.80 -641.03 2875.0
211.60 -649.92 2914.9
223.22 -661.96 2968.9
285.04 -680.94 3054.1
293.55 -682.30 3060.1
368.72 -704.67 3160.5
374.73 -700.57 3142.1
378.98 -693.45 3110.2
395.01 -707.72 3174.2
405.57 -711.82 3192.6
407.95 -701.67 3147.0
415.59 -700.80 3143.1
425.95 -704.45 3159.5
439.45 -713.07 3198.1
-7.40 -643.80 2854.3
0.00 -627.96 2784.1
7.22 -627.96 2784.0
14.59 -634.55 2813.3
21.55 -625.08 2771.3
36.53 -635.61 2818.0
52.06 -647.00 2868.5
58.86 -640.15 2838.1
67.11 -648.69 2876.0
80.23 -634.54 2813.2
85.30 -618.43 2741.8
92.83 -621.24 2754.3
102.37 -636.14 2820.3
109.86 -637.18 2824.9
114.62 -623.27 2763.3
144.12 -626.94 2779.5
155.55 -644.43 2857.1
165.55 -654.67 2902.5
172.82 -653.70 2898.2
176.73 -640.64 2840.3
181.92 -633.08 2806.7
193.63 -647.90 2872.5
219.51 -658.54 2919.6
249.10 -677.23 3002.5
260.65 -687.18 3046.6
266.44 -681.77 3022.6
275.19 -684.03 3032.7
373.94 -707.24 3135.6
384.32 -711.40 3154.0
397.20 -719.93 3191.8
404.12 -717.52 3181.1
407.35 -708.79 3142.4
415.62 -709.00 3143.3
421.41 -705.06 3125.9
429.51 -705.05 3125.8
-14.80 -651.05 2853.6
14.31 -629.70 2760.0
36.18 -636.77 2791.1
44.51 -652.76 2861.1
51.41 -646.29 2832.8
58.06 -638.70 2799.5
66.09 -646.22 2832.5
73.63 -647.96 2840.1
80.60 -644.81 2826.3
87.62 -642.53 2816.3
94.91 -642.48 2816.1
103.97 -653.54 2864.6
110.71 -649.48 2846.8
114.76 -631.19 2766.6
122.14 -632.24 2771.2
130.17 -636.39 2789.4
136.43 -631.87 2769.6
145.91 -642.01 2814.0
153.88 -644.81 2826.3
160.07 -640.28 2806.4
171.73 -657.07 2880.0
180.51 -661.85 2901.0
184.47 -649.32 2846.0
194.63 -658.76 2887.4
378.47 -724.03 3173.5
387.77 -726.03 3182.3
406.11 -729.34 3196.8
408.38 -718.75 3150.3
416.03 -717.86 3146.4
421.05 -712.55 3123.2
432.06 -717.39 3144.4
469.79 -738.24 3235.8
476.87 -736.21 3226.9
-21.91 -649.97 2816.9
-14.67 -652.91 2829.6
-7.31 -650.22 2817.9
14.44 -642.56 2784.8
21.64 -641.88 2781.8
28.89 -642.77 2785.7
51.06 -649.22 2813.6
57.91 -644.24 2792.1
66.12 -653.87 2833.8
72.86 -648.44 2810.2
78.78 -637.38 2762.3
86.51 -641.60 2780.6
94.73 -648.52 2810.6
103.10 -655.43 2840.5
109.21 -647.95 2808.1
115.22 -640.93 2777.7
125.07 -654.79 2837.8
148.55 -661.07 2865.0
152.31 -645.49 2797.5
176.53 -654.64 2837.1
184.61 -657.23 2848.3
192.36 -658.47 2853.7
203.54 -670.92 2907.7
411.41 -732.31 3173.7
411.97 -718.92 3115.7
421.60 -721.59 3127.3
437.66 -734.94 3185.1
452.12 -745.17 3229.4
456.07 -738.01 3198.4
463.08 -735.97 3189.6
478.60 -747.28 3238.6
495.03 -746.74 3236.3
-29.80 -670.52 2873.7
-22.12 -663.72 2844.5
-14.81 -666.46 2856.2
-7.42 -667.83 2862.1
0.00 -651.47 2792.0
7.16 -644.19 2760.8
14.60 -657.14 2816.3
21.94 -658.27 2821.1
29.37 -660.75 2831.8
37.11 -668.00 2862.9
43.77 -656.62 2814.1
50.71 -652.05 2794.5
58.85 -662.01 2837.2
65.90 -659.02 2824.4
71.18 -640.58 2745.4
86.04 -645.26 2765.4
92.80 -642.49 2753.5
99.47 -639.48 2740.6
110.01 -660.08 2828.9
131.70 -658.51 2822.2
141.40 -669.78 2870.5
149.02 -670.61 2874.0
153.70 -658.72 2823.1
174.62 -654.81 2806.3
182.56 -657.20 2816.6
414.29 -731.10 3133.3
421.23 -729.06 3124.5
431.85 -733.32 3142.8
440.93 -734.88 3149.5
444.13 -726.75 3114.6
470.78 -743.34 3185.7
487.27 -756.11 3240.5
-22.37 -678.51 2876.0
-14.73 -670.03 2840.0
-7.26 -661.08 2802.1
0.00 -656.03 2780.7
7.26 -660.62 2800.1
14.80 -673.47 2854.6
22.22 -673.92 2856.5
29.19 -664.03 2814.6
36.19 -658.73 2792.1
43.26 -656.18 2781.3
50.86 -661.21 2802.6
58.65 -667.15 2827.8
65.27 -659.99 2797.5
72.04 -655.59 2778.8
80.35 -664.73 2817.5
86.86 -658.71 2792.0
109.50 -664.28 2815.6
119.04 -677.06 2869.8
123.17 -659.33 2794.6
128.95 -651.91 2763.2
139.40 -667.66 2830.0
146.17 -665.06 2818.9
159.63 -660.29 2798.7
172.31 -681.75 2889.7
181.41 -687.84 2915.5
187.55 -682.69 2893.6
196.33 -687.16 2912.6
408.57 -743.59 3151.8
411.76 -734.70 3114.1
419.43 -734.01 3111.2
430.14 -738.55 3130.4
439.87 -741.26 3141.9
481.06 -754.76 3199.2
-30.09 -692.05 2901.5
-22.22 -681.39 2856.8
-14.64 -673.28 2822.8
-7.30 -671.67 2816.0
0.00 -674.22 2826.7
7.27 -669.12 2805.3
14.62 -672.59 2819.9
22.29 -683.48 2865.5
29.69 -682.77 2862.6
36.46 -670.92 2812.9
43.22 -662.78 2778.7
50.67 -666.00 2792.2
58.27 -670.14 2809.6
65.98 -674.51 2827.9
74.12 -681.89 2858.9
89.60 -686.90 2879.9
92.79 -656.70 2753.2
106.94 -655.89 2749.8
113.81 -654.43 2743.7
123.19 -666.65 2795.0
142.67 -690.83 2896.3
146.64 -674.52 2828.0
150.62 -659.84 2766.4
160.59 -671.56 2815.6
172.33 -689.30 2889.9
180.03 -690.13 2893.4
186.25 -685.39 2873.5
194.91 -689.68 2891.5
421.34 -760.07 3186.6
423.09 -748.55 3138.3
436.52 -757.74 3176.8
449.20 -765.30 3208.5
458.05 -766.19 3212.3
470.69 -773.27 3242.0
487.44 -773.18 3241.6
-30.23 -702.91 2915.3
-22.86 -708.79 2939.7
-15.10 -702.00 2911.5
-7.53 -700.13 2903.8
0.00 -697.79 2894.1
7.40 -688.18 2854.2
14.58 -678.09 2812.4
21.75 -674.33 2796.8
28.90 -671.97 2787.0
43.00 -666.54 2764.5
51.70 -686.90 2848.9
58.98 -685.70 2843.9
66.29 -684.96 2840.8
74.45 -692.41 2871.8
95.59 -683.83 2836.2
99.62 -661.75 2744.6
106.12 -657.94 2728.8
120.76 -660.62 2739.9
132.92 -686.77 2848.4
141.87 -694.42 2880.1
148.11 -688.71 2856.4
154.91 -686.05 2845.4
161.22 -681.51 2826.5
168.58 -681.65 2827.1
177.69 -688.56 2855.8
185.38 -689.63 2860.2
196.23 -701.91 2911.2
427.53 -750.20 3111.4
441.52 -760.40 3153.7
451.60 -763.62 3167.1
464.83 -771.94 3201.6
479.08 -781.65 3241.9
-15.16 -712.68 2924.4
-7.54 -708.90 2908.9
0.00 -704.88 2892.3
22.13 -693.25 2844.7
28.74 -675.48 2771.7
43.46 -680.88 2793.9
51.44 -690.80 2834.6
57.70 -677.98 2782.0
65.30 -681.97 2798.4
73.86 -694.24 2848.7
82.07 -701.29 2877.6
89.64 -702.19 2881.3
95.93 -693.61 2846.1
101.96 -684.56 2809.0
108.78 -681.66 2797.1
115.09 -676.15 2774.5
128.72 -672.22 2758.4
137.53 -680.42 2792.0
143.80 -675.84 2773.2
153.13 -685.45 2812.6
162.39 -693.87 2847.2
168.83 -689.99 2831.3
176.68 -692.01 2839.6
187.03 -703.25 2885.7
463.02 -777.21 3189.2
468.85 -773.19 3172.7
480.37 -778.54 3194.6
-22.31 -706.43 2868.2
-14.85 -705.24 2863.4
-7.48 -710.51 2884.8
0.00 -709.32 2879.9
7.54 -716.01 2907.1
15.04 -714.57 2901.3
21.81 -690.64 2804.1
29.18 -693.02 2813.8
37.12 -705.20 2863.2
43.66 -691.30 2806.8
65.84 -695.03 2821.9
73.58 -699.05 2838.3
80.80 -697.81 2833.2
88.23 -698.48 2835.9
94.36 -689.58 2799.8
101.44 -688.32 2794.7
109.65 -694.47 2819.7
116.71 -692.97 2813.6
122.62 -685.25 2782.2
130.82 -690.43 2803.3
139.22 -696.09 2826.2
144.51 -686.45 2787.1
152.57 -690.18 2802.2
198.42 -724.98 2943.5
431.96 -789.16 3204.1
433.11 -776.34 3152.0
448.20 -774.16 3143.2
-22.70 -726.47 2918.9
-15.08 -723.83 2908.2
-7.60 -729.15 2929.6
0.00 -728.18 2925.7
7.40 -710.55 2854.9
29.16 -699.89 2812.1
37.06 -711.46 2858.6
43.54 -696.71 2799.3
50.10 -687.02 2760.3
58.21 -698.58 2806.8
67.30 -717.86 2884.2
80.67 -704.00 2828.6
86.03 -688.26 2765.3
93.65 -691.59 2778.7
102.50 -702.87 2824.0
110.42 -706.67 2839.3
117.16 -702.98 2824.5
122.98 -694.46 2790.2
131.06 -698.97 2808.4
139.94 -707.09 2841.0
145.73 -699.53 2810.6
153.11 -699.92 2812.2
165.96 -724.18 2909.6
192.21 -738.08 2965.5
198.49 -732.90 2944.7
214.95 -736.99 2961.1
451.11 -801.97 3222.2
451.77 -788.54 3168.2
460.94 -790.18 3174.8
480.24 -794.88 3193.7
-15.04 -729.21 2899.7
-7.49 -726.30 2888.1
0.00 -730.20 2903.6
7.40 -717.76 2854.1
14.38 -697.27 2772.6
21.58 -697.74 2774.5
28.74 -697.00 2771.6
43.20 -698.41 2777.2
51.79 -717.65 2853.7
58.44 -708.59 2817.7
65.56 -706.61 2809.8
74.10 -718.75 2858.1
80.51 -709.93 2823.0
85.71 -692.81 2754.9
93.11 -694.71 2762.5
102.37 -709.27 2820.4
110.73 -716.03 2847.3
119.06 -721.81 2870.2
126.75 -723.20 2875.8
133.01 -716.78 2850.2
139.96 -714.51 2841.2
146.70 -711.50 2829.2
155.33 -717.49 2853.1
165.25 -728.60 2897.2
189.08 -733.63 2917.2
197.79 -737.89 2934.2
207.46 -745.31 2963.7
430.28 -818.37 3254.2
436.69 -799.23 3178.1
451.78 -811.53 3227.0
457.46 -792.38 3150.8
463.05 -788.00 3133.4
480.53 -803.65 3195.6
-22.55 -736.51 2898.8
-14.87 -728.40 2866.9
0.00 -714.86 2813.6
7.36 -721.02 2837.8
14.68 -719.53 2832.0
21.96 -717.31 2823.2
29.13 -713.60 2808.6
43.63 -712.57 2804.6
52.58 -736.17 2897.5
59.71 -731.46 2878.9
66.20 -720.84 2837.1
73.98 -724.98 2853.4
79.63 -709.42 2792.2
109.68 -716.57 2820.3
126.45 -728.97 2869.1
129.95 -707.49 2784.6
138.39 -713.80 2809.4
146.71 -718.88 2829.4
155.19 -724.20 2850.3
164.87 -734.43 2890.6
171.82 -732.11 2881.5
176.14 -719.22 2830.8
182.07 -713.70 2809.0
442.77 -803.54 3162.6
453.41 -807.90 3179.8
473.61 -800.23 3149.6
484.09 -804.08 3164.8
-22.84 -753.76 2936.7
-15.15 -749.79 2921.3
-7.51 -743.09 2895.1
0.00 -726.19 2829.3
7.26 -719.22 2802.2
14.62 -723.69 2819.6
22.04 -727.41 2834.1
29.71 -735.35 2865.0
37.13 -735.08 2863.9
44.11 -727.84 2835.8
51.81 -732.78 2855.0
81.13 -730.13 2844.7
111.61 -736.60 2869.9
120.08 -742.99 2894.8
138.07 -719.40 2802.9
145.22 -718.82 2800.6
152.19 -717.48 2795.4
162.40 -730.79 2847.2
170.22 -732.67 2854.6
175.73 -724.87 2824.2
182.89 -724.26 2821.8
202.81 -743.62 2897.2
442.63 -826.79 3221.3
447.20 -819.86 3194.3
449.17 -808.51 3150.0
460.65 -800.07 3117.2
-22.86 -762.15 2939.7
-15.05 -752.38 2902.0
-7.49 -748.62 2887.5
0.00 -735.57 2837.2
7.35 -734.81 2834.3
14.90 -745.10 2873.9
22.37 -745.59 2875.8
29.97 -749.34 2890.3
36.96 -739.28 2851.5
43.44 -723.94 2792.4
51.75 -739.22 2851.3
83.01 -754.61 2910.6
88.29 -735.74 2837.8
94.17 -724.39 2794.1
102.28 -730.60 2818.0
109.39 -729.28 2812.9
133.26 -740.34 2855.6
141.79 -746.27 2878.5
146.33 -731.64 2822.0
153.15 -729.29 2813.0
163.40 -742.72 2864.8
172.53 -750.13 2893.4
179.40 -747.52 2883.3
189.23 -756.92 2919.5
199.44 -767.07 2958.7
221.97 -765.42 2952.3
445.91 -841.34 3245.2
450.01 -833.36 3214.4
454.64 -826.61 3188.4
458.01 -817.88 3154.7
465.46 -816.60 3149.7
-22.33 -751.81 2871.1
-14.72 -743.46 2839.2
0.00 -747.78 2855.7
7.60 -767.78 2932.1
22.74 -765.49 2923.4
37.13 -750.00 2864.2
43.26 -728.19 2780.9
51.05 -736.52 2812.7
82.90 -761.16 2906.9
89.32 -751.74 2870.9
96.65 -750.92 2867.7
103.76 -748.58 2858.8
109.59 -737.88 2817.9
115.92 -731.73 2794.5
127.07 -754.94 2883.1
148.29 -748.86 2859.9
152.79 -734.85 2806.4
161.81 -742.85 2836.9
169.48 -744.26 2842.3
176.53 -742.88 2837.0
186.73 -754.40 2881.0
200.09 -777.28 2968.4
205.79 -769.82 2939.9
223.65 -778.90 2974.6
441.29 -840.94 3211.5
455.50 -821.53 3137.4
476.21 -843.81 3222.5
473.45 -824.46 3148.6
-22.69 -771.55 2917.6
-15.09 -769.77 2910.9
-7.56 -771.57 2917.7
14.90 -759.80 2873.2
22.28 -757.49 2864.5
29.83 -760.54 2876.0
36.97 -754.13 2851.7
43.56 -740.55 2800.4
50.70 -738.73 2793.5
59.32 -756.34 2860.1
67.57 -765.75 2895.7
74.67 -761.62 2880.1
82.21 -762.33 2882.8
90.25 -767.13 2900.9
97.83 -767.58 2902.6
104.96 -764.71 2891.8
111.24 -756.46 2860.6
118.05 -752.56 2845.8
128.18 -769.08 2908.3
150.25 -766.26 2897.6
152.17 -739.10 2794.9
169.61 -752.17 2844.3
179.78 -764.05 2889.3
188.24 -768.02 2904.3
199.90 -784.22 2965.6
207.82 -785.11 2968.9
212.89 -775.54 2932.7
471.39 -843.54 3189.8
7.53 -775.54 2904.2
14.78 -761.34 2851.1
22.26 -764.16 2861.6
29.65 -763.37 2858.7
36.56 -753.03 2820.0
43.67 -749.65 2807.3
51.54 -758.39 2840.0
59.42 -765.06 2865.0
66.71 -763.48 2859.1
73.59 -758.01 2838.6
80.92 -757.71 2837.5
89.17 -765.39 2866.2
96.92 -767.91 2875.7
103.21 -759.33 2843.6
124.35 -753.44 2821.5
135.53 -775.52 2904.2
151.10 -778.17 2914.1
156.59 -768.03 2876.1
164.46 -769.98 2883.4
176.86 -792.03 2966.0
204.45 -779.95 2920.8
219.52 -779.68 2919.7
461.70 -864.64 3237.9
-7.60 -790.63 2932.3
15.06 -783.07 2904.2
22.51 -780.45 2894.5
29.80 -774.71 2873.2
36.77 -764.80 2836.5
43.94 -761.65 2824.8
50.65 -752.51 2790.9
65.50 -756.85 2807.0
74.05 -770.08 2856.1
80.65 -762.49 2827.9
87.97 -762.43 2827.7
96.79 -774.34 2871.9
104.37 -775.32 2875.5
110.31 -764.84 2836.6
117.46 -763.46 2831.5
123.98 -758.44 2812.9
131.66 -760.70 2821.3
143.19 -783.76 2906.8
158.95 -787.20 2919.6
167.93 -793.85 2944.2
192.56 -801.04 2970.9
194.32 -777.27 2882.7
202.90 -781.56 2898.6
213.81 -794.15 2945.3
218.80 -784.66 2910.1
228.32 -791.53 2935.6
443.87 -870.99 3230.3
449.42 -865.54 3210.1
462.91 -875.31 3246.3
-7.36 -773.28 2840.6
0.00 -787.73 2893.7
7.54 -791.40 2907.2
14.93 -783.78 2879.2
22.24 -778.51 2859.8
29.46 -773.24 2840.5
36.37 -763.77 2805.7
43.52 -761.64 2797.9
50.23 -753.47 2767.8
65.54 -764.68 2809.0
74.85 -785.91 2887.0
82.44 -786.91 2890.7
89.27 -781.07 2869.2
97.61 -788.36 2896.0
105.77 -793.28 2914.1
112.19 -785.34 2884.9
118.38 -776.86 2853.8
123.85 -764.97 2810.1
139.82 -772.67 2838.4
149.61 -785.43 2885.3
156.49 -782.45 2874.3
166.28 -793.62 2915.3
188.56 -791.96 2909.2
193.41 -781.09 2869.3
205.47 -799.04 2935.3
215.98 -809.91 2975.2
220.18 -797.19 2928.5
441.88 -875.42 3215.8
459.47 -877.18 3222.3
463.92 -869.85 3195.4
501.40 -877.45 3223.3
-7.25 -769.00 2798.2
0.00 -775.10 2820.4
7.32 -775.89 2823.3
14.43 -765.02 2783.8
21.74 -768.19 2795.3
29.11 -771.35 2806.8
36.38 -771.33 2806.7
44.06 -778.45 2832.7
50.88 -770.47 2803.6
57.49 -761.70 2771.7
66.33 -781.26 2842.9
89.84 -793.55 2887.6
97.57 -795.61 2895.1
105.18 -796.34 2897.7
111.59 -788.59 2869.5
117.62 -779.24 2835.5
124.03 -773.34 2814.0
131.35 -773.52 2814.7
142.14 -793.02 2885.6
191.68 -812.73 2957.4
198.80 -810.49 2949.2
206.61 -811.15 2951.6
212.41 -804.13 2926.1
221.19 -808.48 2941.9
464.73 -879.67 3201.0
464.83 -864.41 3145.4
506.07 -879.41 3200.0
-7.35 -786.97 2836.9
21.69 -773.58 2788.6
29.06 -777.31 2802.0
36.36 -778.09 2804.8
43.73 -779.93 2811.5
50.09 -765.73 2760.3
57.07 -763.29 2751.5
66.27 -787.84 2840.0
82.16 -799.23 2881.1
87.92 -783.94 2826.0
94.69 -779.34 2809.4
103.57 -791.56 2853.4
111.44 -794.96 2865.7
117.78 -787.68 2839.4
124.58 -784.12 2826.6
131.40 -781.10 2815.7
141.67 -797.83 2876.0
175.71 -817.43 2946.7
183.26 -817.04 2945.3
189.12 -809.45 2917.9
193.94 -798.12 2877.1
199.14 -789.18 2844.9
217.36 -801.97 2891.0
449.88 -891.43 3213.4
463.64 -901.99 3251.5
468.45 -895.07 3226.5
474.11 -889.99 3208.3
482.97 -891.00 3211.9
495.21 -898.09 3237.4
-7.33 -792.17 2829.2
14.37 -775.99 2771.4
22.02 -792.69 2831.0
29.39 -793.48 2833.9
36.68 -792.38 2829.9
44.02 -792.35 2829.8
50.52 -779.38 2783.5
57.63 -778.00 2778.6
66.20 -794.40 2837.1
74.40 -803.52 2869.7
80.79 -793.22 2832.9
86.03 -774.30 2765.4
93.88 -779.90 2785.4
103.88 -801.39 2862.1
111.93 -805.90 2878.2
118.62 -800.70 2859.6
124.84 -793.08 2832.4
130.95 -785.72 2806.1
140.25 -797.21 2847.2
149.86 -809.23 2890.1
156.13 -802.93 2867.6
163.26 -801.48 2862.4
171.01 -802.98 2867.8
177.82 -800.17 2857.8
185.94 -803.28 2868.9
193.16 -802.35 2865.5
198.27 -793.07 2832.4
205.78 -793.74 2834.8
217.43 -809.74 2891.9
243.05 -820.30 2929.6
447.05 -894.09 3193.2
461.16 -905.55 3234.1
466.48 -899.63 3213.0
473.52 -897.19 3204.2
484.23 -901.68 3220.3
-14.81 -807.12 2856.1
-7.32 -797.88 2823.4
0.00 -795.43 2814.8
7.31 -797.06 2820.5
14.67 -799.50 2829.2
22.11 -803.30 2842.6
29.80 -811.98 2873.3
58.77 -800.71 2833.4
66.33 -803.39 2842.9
73.90 -805.52 2850.4
79.45 -787.25 2785.8
92.32 -774.09 2739.2
102.66 -799.30 2828.4
111.41 -809.55 2864.7
118.66 -808.39 2860.6
125.51 -804.77 2847.8
131.76 -797.89 2823.5
141.20 -810.02 2866.4
150.20 -818.62 2896.8
155.97 -809.55 2864.7
161.51 -800.21 2831.7
167.45 -793.58 2808.2
177.40 -805.68 2851.0
188.75 -822.93 2912.1
196.01 -821.72 2907.8
201.23 -812.36 2874.7
207.81 -808.96 2862.6
218.00 -819.40 2899.6
233.49 -820.99 2905.2
439.93 -904.76 3201.7
456.20 -887.97 3142.2
468.98 -896.82 3173.5
478.04 -898.39 3179.1
486.69 -899.14 3181.8
0.00 -807.67 2832.1
7.23 -794.78 2786.9
14.25 -783.80 2748.4
21.70 -795.58 2789.7
29.50 -811.19 2844.4
37.05 -815.01 2857.8
44.59 -817.45 2866.4
51.90 -815.50 2859.5
58.55 -805.04 2822.9
65.48 -800.34 2806.4
72.23 -794.53 2786.0
79.37 -793.66 2783.0
86.45 -792.50 2778.9
92.97 -786.69 2758.5
101.62 -798.41 2799.6
109.80 -805.19 2823.4
116.59 -801.55 2810.6
124.50 -805.57 2824.7
132.03 -806.86 2829.2
139.40 -807.04 2829.9
146.12 -803.65 2818.0
153.46 -803.82 2818.6
160.74 -803.72 2818.2
168.03 -803.61 2817.8
179.13 -821.01 2878.9
188.68 -830.19 2911.1
194.00 -820.76 2878.0
200.22 -815.70 2860.2
207.74 -816.10 2861.7
216.05 -819.52 2873.6
224.81 -824.29 2890.4
232.41 -824.68 2891.7
451.04 -902.07 3163.1
476.40 -919.38 3223.8
475.43 -901.68 3161.7
483.46 -901.36 3160.6
486.44 -891.81 3127.1
-22.15 -819.68 2848.3
0.00 -811.13 2818.6
21.61 -799.50 2778.2
29.38 -815.24 2832.9
36.87 -818.54 2844.3
43.81 -810.49 2816.4
50.27 -797.18 2770.1
56.93 -789.96 2745.0
64.00 -789.36 2743.0
71.93 -798.44 2774.5
80.60 -813.32 2826.2
86.69 -801.92 2786.6
91.97 -785.28 2728.8
100.74 -798.76 2775.6
108.90 -805.87 2800.3
116.19 -806.07 2801.0
124.62 -813.72 2827.6
131.58 -811.42 2819.6
138.36 -808.29 2808.7
147.16 -816.76 2838.2
156.80 -828.80 2880.0
161.29 -813.78 2827.8
165.34 -797.93 2772.7
178.53 -825.70 2869.2
195.54 -834.83 2900.9
201.09 -826.69 2872.7
205.85 -816.06 2835.7
211.37 -809.02 2811.3
226.67 -838.66 2914.3
469.90 -915.06 3179.8
467.53 -894.76 3109.2
473.82 -891.43 3097.6
487.60 -902.05 3134.5
-7.33 -821.50 2829.1
0.00 -827.36 2849.3
7.28 -814.80 2806.1
14.64 -819.82 2823.3
22.26 -830.96 2861.7
36.77 -823.67 2836.6
42.66 -796.31 2742.4
50.01 -800.19 2755.7
57.95 -811.30 2794.0
64.18 -798.71 2750.7
71.04 -795.60 2739.9
80.16 -816.17 2810.8
86.93 -811.38 2794.3
91.74 -790.41 2722.1
100.01 -800.10 2755.4
108.83 -812.57 2798.4
116.75 -817.23 2814.4
124.58 -820.76 2826.6
130.95 -814.83 2806.2
137.98 -813.34 2801.0
147.06 -823.55 2836.2
154.76 -825.39 2842.5
157.13 -799.94 2754.9
173.40 -809.18 2786.7
187.18 -838.56 2887.9
193.67 -834.25 2873.1
197.33 -818.54 2818.9
200.29 -801.15 2759.1
217.94 -813.66 2802.1
454.59 -909.19 3131.1
456.51 -897.00 3089.2
474.81 -901.34 3104.1
495.10 -924.18 3182.8
504.97 -927.15 3193.0
-7.24 -817.85 2791.7
0.00 -838.38 2861.7
7.42 -838.09 2860.8
14.75 -833.59 2845.4
22.21 -836.67 2855.9
36.79 -831.57 2838.5
42.90 -807.92 2757.8
50.73 -818.85 2795.1
58.81 -830.62 2835.2
65.06 -816.81 2788.1
71.41 -806.92 2754.3
80.10 -822.89 2808.8
87.92 -827.89 2825.9
94.01 -817.15 2789.2
100.81 -813.71 2777.5
107.89 -812.79 2774.4
113.88 -804.28 2745.3
119.46 -794.09 2710.5
127.87 -802.71 2740.0
137.31 -816.66 2787.6
146.16 -825.83 2818.9
153.30 -824.88 2815.7
157.30 -807.93 2757.8
162.77 -799.68 2729.6
172.20 -810.79 2767.5
182.21 -823.57 2811.2
189.85 -825.13 2816.5
194.91 -815.73 2784.4
200.64 -809.71 2763.9
207.76 -809.56 2763.4
215.04 -809.98 2764.8
225.55 -822.16 2806.4
235.72 -832.37 2841.2
474.05 -907.93 3099.1
485.46 -914.28 3120.8
0.00 -825.65 2793.5
7.29 -831.31 2812.7
14.58 -831.31 2812.7
21.50 -817.12 2764.7
28.45 -810.87 2743.5
36.63 -835.22 2825.9
51.14 -832.89 2818.0
57.33 -816.98 2764.2
65.43 -828.84 2804.3
80.81 -837.52 2833.7
86.16 -818.48 2769.3
93.17 -817.00 2764.3
101.06 -822.88 2784.2
107.93 -820.26 2775.3
113.76 -810.55 2742.5
120.23 -806.22 2727.8
129.65 -821.14 2778.3
136.84 -821.05 2778.0
143.23 -816.42 2762.3
152.20 -826.22 2795.5
158.44 -821.02 2777.9
163.91 -812.42 2748.8
173.15 -822.48 2782.8
181.40 -827.17 2798.7
187.27 -821.10 2778.2
195.24 -824.36 2789.2
203.97 -830.44 2809.8
211.50 -831.42 2813.1
219.20 -832.97 2818.3
224.78 -826.60 2796.8
229.52 -817.68 2766.6
434.23 -900.03 3045.2
471.55 -911.13 3082.8
486.45 -924.26 3127.2
0.00 -831.16 2787.7
7.13 -819.44 2748.4
14.38 -826.86 2773.3
21.32 -817.42 2741.7
35.56 -817.95 2743.4
44.27 -848.49 2845.9
51.45 -845.32 2835.2
56.60 -813.57 2728.7
63.47 -810.95 2720.0
71.58 -823.19 2761.0
77.48 -810.00 2716.8
83.98 -804.80 2699.3
92.42 -817.59 2742.2
100.46 -825.23 2767.9
107.41 -823.44 2761.9
114.12 -820.22 2751.1
121.70 -823.28 2761.3
130.81 -835.75 2803.1
137.36 -831.37 2788.5
141.39 -813.01 2726.9
148.13 -811.20 2720.8
157.08 -821.07 2753.9
165.33 -826.67 2772.7
173.57 -831.68 2789.5
180.96 -832.41 2791.9
183.91 -813.46 2728.4
188.55 -803.07 2693.5
198.76 -816.33 2738.0
207.90 -824.45 2765.2
216.89 -831.42 2788.6
224.08 -831.27 2788.1
231.74 -832.82 2793.3
430.70 -917.23 3076.4
0.00 -842.97 2803.0
7.12 -825.69 2745.5
14.30 -829.14 2757.0
21.52 -832.29 2767.5
28.52 -827.09 2750.2
35.75 -829.37 2757.8
43.79 -846.62 2815.1
51.02 -845.44 2811.2
56.16 -814.30 2707.6
83.86 -810.64 2695.5
91.65 -817.78 2719.2
98.86 -819.15 2723.8
105.17 -813.32 2704.4
110.90 -804.03 2673.5
118.71 -809.99 2693.3
128.09 -825.44 2744.7
136.36 -832.54 2768.3
142.09 -824.10 2740.2
148.03 -817.67 2718.9
156.09 -823.03 2736.7
163.51 -824.64 2742.0
170.47 -823.94 2739.7
178.54 -828.42 2754.6
182.75 -815.36 2711.2
205.75 -822.99 2736.5
218.15 -843.52 2804.8
227.68 -851.97 2832.9
254.86 -844.68 2808.7
423.62 -910.00 3025.9
466.55 -917.28 3050.1
7.30 -853.98 2815.3
14.35 -839.46 2767.4
21.19 -826.38 2724.3
28.42 -831.30 2740.6
36.05 -843.47 2780.7
43.73 -852.73 2811.2
50.37 -841.95 2775.7
56.71 -829.44 2734.4
63.82 -829.68 2735.2
71.13 -832.25 2743.7
79.17 -842.06 2776.0
85.41 -832.71 2745.2
90.90 -818.14 2697.2
98.51 -823.30 2714.2
105.17 -820.32 2704.4
111.06 -812.12 2677.3
119.17 -820.16 2703.8
127.10 -826.16 2723.6
133.72 -823.46 2714.7
138.42 -809.74 2669.5
152.33 -810.11 2670.7
160.43 -816.08 2690.4
166.90 -813.65 2682.3
174.45 -816.42 2691.5
180.95 -814.27 2684.4
195.22 -815.73 2689.2
208.69 -841.94 2775.6
217.18 -847.00 2792.3
222.15 -838.44 2764.1
230.46 -842.62 2777.9
238.02 -843.90 2782.1
247.12 -850.38 2803.5
256.67 -858.01 2828.6
264.12 -858.40 2829.9
421.74 -931.02 3069.3
422.92 -916.33 3020.9
432.10 -919.19 3030.3
444.90 -929.52 3064.4
457.03 -938.12 3092.7
460.33 -928.60 3061.3
465.50 -923.10 3043.2
14.68 -865.91 2830.5
21.10 -829.92 2712.8
35.41 -835.73 2731.8
43.40 -853.54 2790.0
50.37 -849.12 2775.6
57.13 -842.65 2754.4
64.27 -842.61 2754.3
71.60 -844.90 2761.8
79.49 -852.74 2787.4
85.52 -840.98 2749.0
90.23 -818.99 2677.1
97.02 -817.75 2673.0
104.35 -820.89 2683.3
111.02 -818.77 2676.4
119.21 -827.45 2704.8
127.19 -833.79 2725.5
133.02 -826.10 2700.3
136.73 -806.72 2637.0
143.24 -804.86 2630.9
154.12 -826.67 2702.2
161.56 -828.89 2709.4
167.20 -822.05 2687.1
173.83 -820.47 2681.9
179.27 -813.63 2659.6
185.27 -809.70 2646.7
194.94 -821.53 2685.4
206.24 -839.19 2743.1
212.72 -836.70 2735.0
217.32 -827.21 2704.0
225.16 -830.26 2713.9
232.23 -830.39 2714.3
241.15 -836.92 2735.7
251.56 -848.11 2772.3
260.20 -852.88 2787.9
270.57 -862.89 2820.6
402.53 -931.35 3044.4
412.09 -935.13 3056.7
414.41 -922.65 3015.9
438.81 -924.63 3022.4
464.15 -928.31 3034.4
21.63 -857.86 2780.6
28.00 -833.08 2700.3
35.50 -844.85 2738.4
43.32 -859.27 2785.1
50.13 -852.16 2762.1
56.12 -834.73 2705.6
62.46 -825.84 2676.8
69.82 -830.81 2692.9
77.77 -841.36 2727.1
85.88 -851.62 2760.3
92.93 -850.67 2757.3
98.48 -837.04 2713.1
104.42 -828.43 2685.2
110.15 -819.21 2655.3
117.23 -820.60 2659.8
124.47 -822.87 2667.2
129.39 -810.41 2626.8
137.97 -820.91 2660.8
149.99 -849.96 2755.0
157.66 -852.79 2764.1
161.28 -834.42 2704.6
168.32 -834.60 2705.2
176.42 -839.77 2721.9
183.64 -840.52 2724.4
191.48 -843.92 2735.4
195.21 -829.66 2689.2
200.07 -820.99 2661.1
208.64 -827.60 2682.5
215.48 -827.15 2681.0
226.81 -843.45 2733.9
238.50 -860.03 2787.6
240.97 -843.40 2733.7
244.29 -830.60 2692.2
256.64 -848.33 2749.7
271.10 -871.92 2826.2
276.68 -866.44 2808.4
413.59 -928.63 3010.0
417.81 -920.73 2984.4
430.27 -930.95 3017.5
438.36 -931.51 3019.3
454.00 -947.83 3072.2
21.61 -864.44 2778.6
28.27 -848.08 2726.0
35.17 -844.20 2713.5
42.24 -844.76 2715.3
49.09 -841.46 2704.7
61.72 -822.97 2645.3
69.72 -836.58 2689.0
75.95 -828.51 2663.1
82.16 -821.62 2640.9
91.00 -839.97 2699.9
98.58 -844.94 2715.9
104.83 -838.64 2695.6
110.78 -830.84 2670.6
116.93 -825.41 2653.1
123.18 -821.17 2639.5
130.14 -821.97 2642.0
141.08 -846.49 2720.9
149.88 -856.47 2753.0
153.85 -839.16 2697.3
159.40 -831.63 2673.1
168.56 -842.78 2708.9
176.85 -848.88 2728.5
184.22 -850.23 2732.9
192.00 -853.35 2742.9
195.07 -836.02 2687.2
200.28 -828.76 2663.9
209.08 -836.32 2688.2
218.07 -844.16 2713.4
232.33 -871.24 2800.4
241.13 -851.06 2735.5
244.98 -839.93 2699.8
258.23 -860.76 2766.7
268.53 -870.92 2799.4
268.80 -848.83 2728.4
302.33 -884.87 2844.2
399.58 -940.18 3022.0
408.69 -943.13 3031.5
412.38 -933.70 3001.2
422.81 -939.58 3020.1
435.76 -950.75 3056.0
443.95 -951.32 3057.8
446.97 -940.99 3024.6
62.03 -834.00 2658.6
68.92 -833.95 2658.4
88.17 -820.61 2615.9
97.81 -845.37 2694.8
106.24 -856.97 2731.8
112.63 -851.80 2715.3
119.24 -848.72 2705.5
123.89 -832.78 2654.7
129.16 -822.52 2622.0
140.14 -847.84 2702.7
148.63 -856.40 2730.0
154.00 -847.02 2700.1
161.15 -847.80 2702.6
167.54 -844.69 2692.6
172.71 -835.90 2664.6
181.90 -846.53 2698.5
192.00 -860.43 2742.8
199.21 -860.88 2744.2
208.65 -870.58 2775.2
215.59 -869.53 2771.8
222.65 -869.07 2770.4
243.81 -867.66 2765.9
249.63 -863.01 2751.0
255.64 -859.24 2739.0
257.67 -842.66 2686.2
265.51 -845.45 2695.0
276.18 -856.87 2731.5
282.01 -853.09 2719.4
372.01 -937.77 2989.4
400.61 -932.19 2971.6
410.39 -936.94 2986.7
421.05 -943.46 3007.5
433.56 -953.83 3040.5
443.90 -959.14 3057.5
448.46 -952.00 3034.7
28.47 -868.48 2745.8
62.43 -846.30 2675.7
70.16 -855.90 2706.0
76.30 -846.20 2675.3
83.67 -850.66 2689.4
89.26 -837.63 2648.3
95.63 -833.34 2634.7
105.45 -857.68 2711.6
113.14 -862.72 2727.6
118.48 -850.28 2688.2
121.57 -823.98 2605.1
127.98 -821.78 2598.1
140.87 -859.33 2716.9
149.14 -866.45 2739.4
153.78 -852.79 2696.2
161.03 -854.18 2700.6
167.42 -851.04 2690.7
173.50 -846.70 2676.9
183.50 -861.02 2722.2
191.85 -866.90 2740.8
197.20 -859.23 2716.5
206.42 -868.41 2745.5
212.99 -866.15 2738.4
216.84 -853.36 2698.0
226.39 -863.11 2728.8
238.05 -880.08 2782.4
243.54 -873.89 2762.9
245.22 -854.78 2702.5
266.72 -856.31 2707.3
281.54 -880.73 2784.5
292.43 -891.92 2819.9
300.38 -893.80 2825.8
312.68 -908.27 2871.6
327.62 -908.40 2872.0
340.74 -903.71 2857.2
389.20 -949.66 3002.4
393.99 -942.49 2979.8
403.38 -946.38 2992.1
409.32 -942.20 2978.8
447.16 -957.08 3025.9
14.34 -881.66 2764.8
21.22 -870.10 2728.5
42.07 -862.44 2704.5
55.22 -849.00 2662.4
77.71 -868.89 2724.8
83.02 -850.92 2668.4
108.40 -833.32 2613.2
115.92 -838.70 2630.1
122.86 -839.52 2632.7
133.93 -867.05 2719.0
139.93 -860.57 2698.7
140.85 -824.96 2587.0
155.18 -829.90 2602.5
165.58 -848.59 2661.1
175.78 -864.83 2712.0
181.18 -857.12 2687.8
184.26 -839.40 2632.3
191.67 -841.99 2640.4
203.20 -861.84 2702.6
211.57 -867.44 2720.2
217.67 -863.65 2708.3
224.33 -862.27 2704.0
232.51 -866.65 2717.7
238.76 -863.74 2708.6
240.99 -846.92 2655.8
249.86 -853.69 2677.1
264.94 -880.74 2761.9
272.41 -881.75 2765.1
280.66 -885.17 2775.8
313.49 -918.06 2878.9
325.33 -909.43 2851.9
336.94 -920.96 2888.0
345.80 -924.64 2899.6
437.22 -960.33 3011.5
28.41 -880.78 2739.8
42.85 -885.63 2754.8
48.85 -865.39 2691.9
75.56 -851.74 2649.4
115.08 -839.38 2611.0
125.52 -864.67 2689.6
134.02 -874.66 2720.7
137.06 -849.80 2643.4
148.18 -835.22 2598.0
155.69 -839.38 2611.0
165.04 -852.70 2652.4
175.96 -872.74 2714.7
182.13 -868.63 2702.0
186.78 -857.81 2668.3
196.22 -868.96 2703.0
205.33 -877.97 2731.0
210.60 -870.49 2707.7
214.22 -856.90 2665.5
218.42 -846.36 2632.7
229.91 -863.89 2687.2
239.58 -873.78 2718.0
241.93 -857.13 2666.2
251.00 -864.57 2689.3
263.47 -882.97 2746.6
267.91 -874.23 2719.4
276.81 -880.12 2737.7
306.76 -905.66 2817.1
301.53 -869.52 2704.7
334.92 -922.90 2870.8
357.54 -923.64 2873.1
386.42 -958.33 2981.0
21.11 -879.53 2714.0
46.95 -838.42 2587.1
55.61 -868.90 2681.2
73.87 -839.47 2590.4
79.90 -832.32 2568.3
89.34 -859.07 2650.8
95.86 -855.92 2641.1
100.04 -833.66 2572.4
107.09 -836.66 2581.7
117.42 -863.38 2664.1
124.76 -866.36 2673.4
129.85 -854.26 2636.0
136.52 -853.23 2632.8
143.27 -852.82 2631.6
153.54 -872.41 2692.0
162.88 -885.22 2731.5
165.86 -863.86 2665.6
169.85 -849.27 2620.6
178.22 -856.83 2643.9
185.38 -858.23 2648.2
192.90 -861.16 2657.3
199.97 -861.93 2659.7
207.71 -865.47 2670.6
213.38 -860.39 2654.9
228.60 -865.90 2671.9
241.91 -889.38 2744.4
248.20 -886.43 2735.3
250.28 -869.04 2681.6
255.09 -861.79 2659.2
261.55 -860.36 2654.8
272.58 -873.67 2695.9
290.01 -906.29 2796.5
307.35 -914.73 2822.6
319.12 -906.60 2797.5
353.04 -938.93 2897.3
390.25 -956.48 2951.4
14.08 -886.83 2714.8
54.07 -851.59 2606.9
62.33 -872.65 2671.4
66.49 -837.84 2564.8
80.58 -846.10 2590.1
89.79 -870.25 2664.0
96.10 -864.90 2647.7
100.89 -847.45 2594.2
108.90 -857.61 2625.3
118.42 -877.69 2686.8
123.95 -867.67 2656.1
129.37 -857.95 2626.4
136.71 -861.26 2636.5
142.60 -855.58 2619.1
152.40 -872.83 2671.9
158.29 -867.13 2654.5
177.96 -862.40 2640.0
198.75 -863.52 2643.4
219.69 -892.93 2733.5
221.47 -872.02 2669.5
228.59 -872.78 2671.8
237.80 -881.27 2697.8
247.15 -889.75 2723.7
253.10 -885.85 2711.8
259.80 -884.72 2708.3
268.16 -889.16 2721.9
276.78 -894.21 2737.4
291.46 -918.10 2810.5
304.75 -914.25 2798.7
310.77 -910.62 2787.6
326.54 -935.08 2862.5
335.52 -939.46 2875.9
335.67 -919.46 2814.7
342.53 -918.27 2811.0
375.08 -945.21 2893.5
40.49 -857.13 2603.2
52.73 -837.05 2542.2
59.09 -833.88 2532.6
65.53 -832.27 2527.7
73.35 -846.91 2572.2
80.31 -849.98 2581.5
87.45 -854.29 2594.6
94.13 -853.91 2593.4
99.04 -838.52 2546.7
105.87 -840.31 2552.1
114.81 -857.73 2605.0
124.43 -877.95 2666.4
139.21 -883.99 2684.8
142.44 -861.39 2616.2
149.14 -860.97 2614.9
179.99 -879.20 2670.2
184.90 -869.69 2641.4
212.19 -898.25 2728.1
218.38 -894.66 2717.2
219.96 -872.97 2651.3
227.12 -874.05 2654.6
232.45 -868.26 2637.0
246.81 -870.70 2644.4
257.52 -883.90 2684.5
266.46 -890.55 2704.7
275.42 -896.89 2723.9
328.33 -947.69 2878.3
327.12 -923.20 2803.9
363.58 -942.34 2862.0
21.21 -904.86 2726.7
35.41 -906.39 2731.3
40.36 -861.01 2594.6
52.75 -843.93 2543.1
60.69 -863.10 2600.9
69.05 -883.83 2663.3
76.44 -889.44 2680.2
82.46 -879.62 2650.6
89.14 -877.67 2644.8
95.16 -870.04 2621.8
99.00 -844.78 2545.7
113.76 -856.58 2581.2
124.03 -881.97 2657.7
133.66 -900.44 2713.4
138.27 -884.92 2666.6
140.26 -854.93 2576.2
146.27 -851.04 2564.5
155.10 -863.19 2601.1
162.59 -867.15 2613.1
168.67 -863.57 2602.3
179.22 -882.29 2658.7
199.80 -881.86 2657.4
206.65 -881.70 2656.9
217.38 -897.55 2704.7
224.19 -896.76 2702.3
227.67 -883.08 2661.1
251.04 -892.57 2689.7
259.40 -897.39 2704.2
266.26 -896.88 2702.6
271.01 -889.46 2680.3
283.28 -906.49 2731.6
307.68 -937.69 2825.6
316.19 -941.21 2836.2
321.09 -934.07 2814.7
363.18 -948.72 2858.9
371.71 -951.57 2867.5
27.30 -880.44 2632.5
39.65 -852.48 2548.9
49.08 -904.45 2704.3
55.77 -899.34 2689.0
69.71 -899.24 2688.8
74.75 -876.67 2621.3
81.81 -879.46 2629.6
89.64 -889.54 2659.8
95.05 -875.84 2618.8
98.48 -846.92 2532.3
113.59 -861.97 2577.3
120.53 -863.78 2582.7
126.42 -858.29 2566.3
133.94 -863.89 2583.1
149.08 -874.13 2613.7
167.35 -899.53 2689.6
170.56 -880.09 2631.5
174.99 -868.24 2596.1
184.08 -879.50 2629.7
207.04 -920.96 2753.7
209.73 -901.82 2696.5
216.30 -900.07 2691.2
225.66 -909.70 2720.0
231.62 -905.42 2707.2
235.67 -894.17 2673.6
248.73 -916.74 2741.1
270.89 -919.61 2749.7
272.80 -902.35 2698.1
280.81 -905.61 2707.8
291.27 -916.43 2740.2
294.40 -904.22 2703.6
298.39 -895.16 2676.5
307.83 -902.49 2698.5
312.65 -896.26 2679.9
321.42 -901.38 2695.1
340.14 -933.58 2791.4
379.23 -959.24 2868.2
52.35 -850.68 2524.0
60.22 -869.79 2580.7
67.62 -879.00 2608.0
74.26 -877.67 2604.1
83.28 -902.19 2676.8
97.52 -905.56 2686.8
100.50 -871.01 2584.3
106.25 -863.27 2561.3
116.97 -894.46 2653.9
125.25 -904.57 2683.9
127.86 -874.80 2595.6
131.97 -857.79 2545.1
139.32 -862.47 2559.0
151.28 -893.93 2652.3
168.28 -911.54 2704.6
173.31 -901.20 2673.9
180.40 -902.02 2676.3
201.83 -904.76 2684.5
210.74 -913.20 2709.5
212.10 -889.47 2639.1
252.15 -910.52 2701.6
257.92 -906.19 2688.7
261.11 -893.27 2650.4
277.85 -903.02 2679.3
289.44 -917.74 2723.0
293.24 -907.66 2693.1
300.57 -908.70 2696.2
311.53 -899.97 2670.2
27.94 -914.87 2693.7
46.54 -871.05 2564.7
65.75 -861.28 2535.9
73.77 -878.58 2586.9
81.80 -892.99 2629.3
88.99 -896.77 2640.4
97.38 -911.16 2682.8
103.29 -902.09 2656.1
110.56 -905.22 2665.3
146.68 -914.99 2694.1
191.66 -929.92 2738.0
193.52 -905.39 2665.8
202.74 -915.82 2696.5
214.69 -937.46 2760.3
217.93 -920.94 2711.6
230.05 -913.21 2688.9
247.40 -925.98 2726.4
283.41 -905.52 2666.2
293.32 -914.89 2693.8
306.95 -935.13 2753.4
317.66 -945.76 2784.7
312.38 -909.39 2677.6
371.58 -973.54 2866.5
27.88 -920.16 2688.8
34.56 -912.36 2666.0
41.22 -906.83 2649.8
46.10 -869.24 2540.0
59.39 -871.10 2545.4
67.46 -890.47 2602.0
74.36 -892.36 2607.5
81.38 -895.21 2615.9
87.55 -888.99 2597.7
95.00 -895.71 2617.3
101.48 -893.05 2609.6
109.10 -900.08 2630.1
137.49 -907.45 2651.7
145.43 -914.13 2671.2
170.66 -938.65 2742.8
178.91 -944.65 2760.4
186.74 -948.06 2770.3
190.79 -932.73 2725.5
196.79 -927.73 2710.9
224.19 -924.80 2702.4
229.30 -917.20 2680.1
238.11 -924.44 2701.3
246.52 -929.73 2716.8
253.51 -929.54 2716.2
257.87 -919.98 2688.3
284.49 -915.91 2676.3
293.91 -923.73 2699.2
310.91 -954.41 2788.9
328.38 -963.24 2814.7
