ply
format ascii 1.0
element vertex 2082
property float x
property float y
property float z
end_header
-489.03 -489.03 2095.8
-490.44 -495.95 2125.5
-489.09 -500.21 2143.7
-487.22 -504.02 2160.1
-484.63 -507.17 2173.6
-478.41 -506.55 2170.9
-462.44 -495.47 2123.5
-448.97 -486.83 2086.4
-448.85 -492.64 2111.3
-450.01 -500.01 2142.9
-453.78 -510.50 2187.9
-456.93 -520.55 2230.9
-446.34 -515.01 2207.2
-428.42 -500.76 2146.1
-426.83 -505.45 2166.2
-823.50 -502.94 2131.8
-807.81 -496.69 2105.3
-807.53 -499.90 2118.9
-805.81 -502.25 2128.8
-785.48 -492.96 2089.5
-774.55 -489.47 2074.7
-772.17 -491.38 2082.8
-758.28 -485.94 2059.7
-751.86 -485.24 2056.8
-754.12 -490.18 2077.7
-743.04 -486.45 2061.9
-740.24 -488.13 2069.0
-751.14 -498.93 2114.8
-735.20 -491.93 2085.1
-712.94 -480.58 2037.0
-709.17 -481.60 2041.3
-703.46 -481.31 2040.1
-708.18 -488.21 2069.4
-729.08 -506.46 2146.7
-724.68 -507.28 2150.1
-699.83 -493.68 2092.5
-694.00 -493.39 2091.3
-701.29 -502.50 2129.9
-704.76 -508.99 2157.4
-690.65 -502.79 2131.2
-670.99 -492.42 2087.2
-661.61 -489.48 2074.7
-656.40 -489.61 2075.3
-657.62 -494.57 2096.3
-650.32 -493.16 2090.3
-634.71 -485.37 2057.3
-632.38 -487.68 2067.1
-638.21 -496.39 2104.0
-636.28 -499.15 2115.7
-628.99 -497.72 2109.7
-623.11 -497.40 2108.3
-612.30 -493.09 2090.0
-598.04 -485.91 2059.6
-590.93 -484.46 2053.4
-587.06 -485.66 2058.5
-578.92 -483.32 2048.6
-578.45 -487.39 2065.9
-590.92 -502.56 2130.2
-595.59 -511.30 2167.2
-579.32 -502.08 2128.1
-563.00 -492.62 2088.0
-558.93 -493.81 2093.1
-560.57 -500.12 2119.8
-562.08 -506.43 2146.6
-554.90 -504.96 2140.3
-539.98 -496.35 2103.8
-530.04 -492.18 2086.2
-531.36 -498.49 2112.9
-533.72 -505.92 2144.4
-523.10 -501.08 2123.9
-504.04 -487.96 2068.3
-492.56 -481.97 2042.9
-499.98 -494.54 2096.2
-509.36 -509.36 2159.0
-505.15 -510.76 2164.9
-500.03 -511.26 2167.1
-484.49 -501.00 2123.6
-469.16 -490.73 2080.0
-474.19 -501.76 2126.8
-475.84 -509.43 2159.3
-470.27 -509.46 2159.4
-467.17 -512.20 2171.0
-461.97 -512.68 2173.0
-458.37 -514.96 2182.7
-452.14 -514.31 2180.0
-444.95 -512.54 2172.4
-447.25 -521.79 2211.7
-443.64 -524.30 2222.3
-442.98 -530.41 2248.2
-826.97 -514.07 2155.2
-790.09 -494.48 2073.1
-758.63 -481.34 2018.0
-768.69 -491.11 2059.0
-770.75 -495.87 2079.0
-760.92 -492.99 2066.9
-746.78 -487.26 2042.9
-742.08 -487.65 2044.5
-745.96 -493.73 2070.0
-758.59 -505.73 2120.3
-762.83 -512.26 2147.7
-739.36 -500.15 2096.9
-719.98 -490.66 2057.1
-718.40 -493.23 2067.9
-710.40 -491.41 2060.2
-712.86 -496.84 2083.0
-705.48 -495.45 2077.2
-675.33 -481.63 2019.3
-696.40 -500.54 2098.5
-695.43 -503.78 2112.1
-690.76 -504.37 2114.6
-689.68 -507.61 2128.2
-681.97 -505.98 2121.3
-670.44 -501.47 2102.4
-663.11 -500.05 2096.5
-662.81 -503.95 2112.9
-654.32 -501.64 2103.2
-642.99 -497.10 2084.1
-644.02 -502.12 2105.2
-644.66 -506.91 2125.3
-637.34 -505.48 2119.2
-625.31 -500.25 2097.3
-614.21 -495.68 2078.2
-615.54 -501.14 2101.1
-613.75 -504.15 2113.7
-601.93 -498.90 2091.7
-593.96 -496.77 2082.7
-590.53 -498.43 2089.7
-594.95 -506.81 2124.8
-595.29 -511.84 2145.9
-588.03 -510.37 2139.7
-585.92 -513.38 2152.4
-583.24 -515.94 2163.1
-569.94 -509.07 2134.3
-562.76 -507.59 2128.1
-557.83 -508.12 2130.3
-544.57 -501.00 2100.5
-541.86 -503.55 2111.2
-544.62 -511.28 2143.6
-540.81 -512.93 2150.5
-538.37 -515.93 2163.1
-529.34 -512.62 2149.2
-511.84 -500.95 2100.2
-503.94 -498.52 2090.1
-514.39 -514.39 2156.6
-518.03 -523.72 2195.7
-507.75 -519.03 2176.1
-493.40 -510.03 2138.3
-469.48 -490.82 2057.8
-462.68 -489.27 2051.3
-476.47 -509.71 2137.0
-476.41 -515.65 2161.9
-469.39 -514.09 2155.4
-468.96 -519.81 2179.3
-466.17 -523.02 2192.8
-456.31 -518.28 2172.9
-443.58 -510.12 2138.7
-433.37 -504.68 2115.9
-432.53 -510.16 2138.9
-438.81 -524.29 2198.1
-823.05 -517.19 2145.0
-774.04 -489.70 2031.0
-768.54 -492.92 2044.4
-773.07 -499.27 2070.7
-770.69 -501.22 2078.8
-776.70 -508.68 2109.7
-778.21 -513.28 2128.8
-756.66 -502.64 2084.7
-743.91 -497.73 2064.3
-748.67 -504.54 2092.6
-745.13 -505.82 2097.9
-736.70 -503.77 2089.4
-731.20 -503.72 2089.1
-728.90 -505.88 2098.1
-719.56 -503.15 2086.8
-705.54 -497.08 2061.6
-681.91 -484.10 2007.8
-695.69 -501.54 2080.1
-712.61 -517.75 2147.4
-707.56 -518.13 2148.9
-688.58 -508.23 2107.9
-673.39 -501.00 2077.9
-678.03 -508.52 2109.1
-677.78 -512.47 2125.4
-669.81 -510.59 2117.7
-668.87 -514.09 2132.2
-662.36 -513.33 2129.0
-652.70 -510.09 2115.6
-648.23 -510.90 2118.9
-642.90 -511.02 2119.4
-638.96 -512.27 2124.6
-629.98 -509.47 2113.0
-608.91 -496.74 2060.2
-600.96 -494.59 2051.3
-612.33 -508.46 2108.8
-613.73 -514.21 2132.7
-601.65 -508.67 2109.7
-594.18 -506.96 2102.6
-594.36 -511.81 2122.7
-591.32 -513.95 2131.6
-586.42 -514.50 2133.9
-585.85 -518.90 2152.1
-585.71 -523.76 2172.3
-575.41 -519.54 2154.8
-559.96 -510.55 2117.5
-547.40 -504.05 2090.5
-531.31 -494.12 2049.3
-525.83 -493.96 2048.7
-534.73 -507.45 2104.6
-537.90 -515.71 2138.9
-543.95 -526.95 2185.5
-518.70 -513.18 2128.4
-504.57 -504.57 2092.7
-509.14 -514.67 2134.6
-507.01 -518.15 2149.0
-495.30 -511.81 2122.7
-479.77 -501.33 2079.3
-465.54 -491.99 2040.5
-468.42 -500.72 2076.7
-477.26 -516.11 2140.5
-471.74 -516.14 2140.7
-461.88 -511.36 2120.9
-458.25 -513.46 2129.6
-461.86 -523.82 2172.5
-458.46 -526.37 2183.1
-444.72 -516.98 2144.2
-433.51 -510.34 2116.6
-433.25 -516.56 2142.4
-440.28 -531.76 2205.5
-439.47 -537.77 2230.4
-835.58 -527.14 2163.1
-812.49 -516.04 2117.5
-778.15 -497.59 2041.8
-771.08 -496.45 2037.1
-779.80 -505.52 2074.3
-779.82 -509.05 2088.8
-770.96 -506.79 2079.5
-771.24 -510.54 2094.9
-782.82 -521.88 2141.4
-770.90 -517.60 2123.9
-747.16 -505.27 2073.3
-740.39 -504.33 2069.4
-740.49 -508.08 2084.8
-735.98 -508.69 2087.3
-718.90 -500.57 2054.0
-704.85 -494.44 2028.9
-691.54 -488.76 2005.5
-682.48 -489.72 2009.5
-704.23 -509.21 2089.5
-712.93 -519.50 2131.7
-714.68 -524.84 2153.6
-709.01 -524.78 2153.3
-690.02 -514.78 2112.3
-672.13 -505.44 2074.0
-673.79 -510.77 2095.9
-680.08 -519.73 2132.6
-678.85 -523.04 2146.2
-667.05 -518.20 2126.4
-650.14 -509.27 2089.7
-643.73 -508.49 2086.5
-641.90 -511.34 2098.2
-636.89 -511.69 2099.7
-633.56 -513.41 2106.7
-635.20 -519.21 2130.5
-624.31 -514.78 2112.3
-602.00 -500.78 2054.9
-599.24 -502.93 2063.7
-615.82 -521.50 2139.9
-617.87 -528.00 2166.6
-599.94 -517.38 2123.0
-590.10 -513.60 2107.5
-591.51 -519.64 2132.3
-590.74 -523.86 2149.6
-583.74 -522.59 2144.4
-577.27 -521.77 2141.0
-576.59 -526.21 2159.2
-569.85 -525.16 2154.9
-556.47 -517.90 2125.1
-539.81 -507.42 2082.1
-529.65 -502.90 2063.6
-535.15 -513.31 2106.3
-534.98 -518.44 2127.3
-537.30 -526.10 2158.8
-537.12 -531.47 2180.8
-513.34 -513.34 2106.4
-499.04 -504.41 2069.8
-503.66 -514.61 2111.6
-501.58 -518.12 2126.0
-490.60 -512.40 2102.6
-484.31 -511.52 2098.9
-479.13 -511.80 2100.1
-468.58 -506.28 2077.5
-464.29 -507.47 2082.3
-466.03 -515.38 2114.8
-462.86 -517.96 2125.4
-455.94 -516.37 2118.8
-455.93 -522.66 2144.6
-450.60 -522.92 2145.7
-435.38 -511.57 2099.1
-425.65 -506.47 2078.2
-427.02 -514.62 2111.6
-444.98 -543.22 2229.0
-842.52 -533.60 2166.5
-815.21 -523.28 2124.6
-777.40 -502.40 2039.8
-758.60 -493.61 2004.1
-757.78 -496.48 2015.8
-759.98 -501.38 2035.7
-753.62 -500.66 2032.7
-756.69 -506.24 2055.4
-770.36 -519.03 2107.4
-771.48 -523.51 2125.5
-760.30 -519.63 2109.8
-739.67 -509.19 2067.4
-725.75 -503.26 2043.3
-732.02 -511.34 2076.1
-725.27 -510.38 2072.2
-714.70 -506.69 2057.2
-703.87 -502.76 2041.3
-683.05 -495.35 2011.2
-693.90 -507.08 2058.8
-691.23 -509.05 2066.8
-699.88 -519.44 2109.0
-701.01 -524.38 2129.0
-681.18 -513.59 2085.2
-662.15 -503.24 2043.2
-653.75 -500.86 2033.6
-650.13 -502.13 2038.7
-649.70 -505.92 2054.1
-638.71 -501.47 2036.0
-631.56 -499.99 2030.0
-633.34 -505.60 2052.8
-631.29 -508.25 2063.6
-626.09 -508.36 2064.0
-622.84 -510.09 2071.0
-624.56 -515.94 2094.8
-628.10 -523.42 2125.1
-618.90 -520.31 2112.6
-602.43 -510.99 2074.7
-605.79 -518.47 2105.0
-612.46 -528.94 2147.6
-598.55 -521.67 2118.1
-585.57 -515.08 2091.3
-584.42 -518.88 2106.7
-587.83 -526.83 2139.0
-585.20 -529.47 2149.7
-577.20 -527.25 2140.7
-575.01 -530.35 2153.3
-564.56 -525.81 2134.9
-546.30 -513.85 2086.3
-541.95 -514.85 2090.4
-545.07 -523.04 2123.6
-546.11 -529.39 2149.4
-541.32 -530.16 2152.5
-533.00 -527.45 2141.5
-522.40 -522.40 2121.0
-508.90 -514.32 2088.2
-504.00 -514.84 2090.3
-499.31 -515.59 2093.4
-488.35 -509.81 2069.9
-484.35 -511.26 2075.8
-484.69 -517.37 2100.6
-482.10 -520.45 2113.1
-473.88 -517.45 2100.9
-465.29 -513.98 2086.8
-462.84 -517.29 2100.3
-466.73 -527.85 2143.1
-466.52 -533.97 2168.0
-455.67 -527.91 2143.4
-438.75 -514.58 2089.3
-426.45 -526.14 2136.2
-824.78 -527.86 2120.9
-832.94 -536.66 2156.2
-816.52 -529.64 2128.0
-784.27 -512.17 2057.8
-770.60 -506.70 2035.8
-775.54 -513.46 2063.0
-784.10 -522.73 2100.3
-771.83 -518.15 2081.9
-769.40 -520.16 2089.9
-769.27 -523.76 2104.4
-757.78 -519.62 2087.8
-749.99 -517.98 2081.2
-732.05 -509.25 2046.1
-729.92 -511.48 2055.0
-747.81 -527.87 2120.9
-746.10 -530.56 2131.7
-739.22 -529.59 2127.8
-732.68 -528.85 2124.8
-711.96 -517.79 2080.4
-698.96 -512.21 2058.0
-693.83 -512.37 2058.6
-681.59 -507.23 2038.0
-680.79 -510.60 2051.5
-686.93 -519.25 2086.3
-670.53 -510.88 2052.6
-656.39 -504.11 2025.4
-652.80 -505.39 2030.6
-653.91 -510.37 2050.6
-657.56 -517.42 2078.9
-647.10 -513.40 2062.8
-639.31 -511.44 2054.9
-643.31 -518.97 2085.2
-642.33 -522.57 2099.6
-629.69 -516.67 2075.9
-619.41 -512.62 2059.6
-613.93 -512.50 2059.2
-609.28 -513.08 2061.5
-612.54 -520.39 2090.8
-608.87 -521.89 2096.9
-596.30 -515.72 2072.1
-587.31 -512.56 2059.4
-592.66 -521.98 2097.2
-598.87 -532.33 2138.8
-583.05 -523.11 2101.8
-572.81 -518.77 2084.3
-582.57 -532.64 2140.1
-587.51 -542.31 2178.9
-570.68 -531.89 2137.1
-547.58 -515.37 2070.7
-538.71 -522.39 2098.9
-546.99 -535.83 2152.9
-548.36 -542.71 2180.5
-532.56 -538.17 2162.3
-516.67 -527.66 2120.1
-507.81 -524.19 2106.1
-499.25 -520.95 2093.1
-492.31 -519.36 2086.7
-491.58 -524.35 2106.8
-482.23 -520.16 2089.9
-470.15 -512.89 2060.7
-468.47 -516.93 2077.0
-465.87 -520.04 2089.4
-462.15 -521.96 2097.2
-464.39 -530.73 2132.4
-465.64 -538.57 2163.9
-455.81 -533.63 2144.1
-442.89 -524.90 2109.0
-432.50 -519.01 2085.3
-427.50 -519.49 2087.3
-427.87 -526.62 2115.9
-422.97 -527.34 2118.8
-427.25 -539.68 2168.4
-846.18 -543.57 2161.5
-811.98 -525.08 2088.0
-812.15 -528.72 2102.4
-816.78 -535.32 2128.7
-803.61 -530.27 2108.6
-779.84 -518.11 2060.2
-776.15 -519.22 2064.6
-793.21 -534.32 2124.7
-789.35 -535.43 2129.1
-765.63 -523.00 2079.7
-746.14 -513.30 2041.1
-741.76 -513.93 2043.6
-741.33 -517.33 2057.1
-727.39 -511.28 2033.1
-728.55 -515.83 2051.2
-750.97 -535.61 2129.8
-754.69 -542.26 2156.3
-736.90 -533.43 2121.2
-719.27 -524.58 2086.0
-714.72 -525.21 2088.5
-717.66 -531.40 2113.1
-708.36 -528.55 2101.7
-692.94 -521.05 2071.9
-675.52 -511.91 2035.6
-664.64 -507.64 2018.6
-670.76 -516.38 2053.4
-678.51 -526.53 2093.7
-671.78 -525.51 2089.6
-668.91 -527.51 2097.6
-682.41 -542.57 2157.5
-660.90 -534.23 2124.3
-653.55 -532.73 2118.4
-651.07 -535.20 2128.2
-636.68 -527.84 2098.9
-628.87 -525.86 2091.1
-625.81 -527.86 2099.0
-618.58 -526.33 2092.9
-619.02 -531.37 2113.0
-613.95 -531.72 2114.4
-600.26 -524.56 2085.9
-586.45 -517.14 2056.4
-587.57 -522.88 2079.2
-602.99 -541.57 2153.5
-595.19 -539.56 2145.5
-579.95 -530.71 2110.3
-585.05 -540.47 2149.2
-582.87 -543.64 2161.7
-560.07 -527.44 2097.4
-550.00 -523.04 2079.8
-546.66 -525.01 2087.7
-534.26 -518.23 2060.7
-535.75 -524.93 2087.3
-545.48 -539.92 2146.9
-548.29 -548.29 2180.2
-545.06 -550.73 2190.0
-530.86 -542.04 2155.4
-507.86 -524.07 2083.9
-492.95 -514.15 2044.5
-499.41 -526.55 2093.8
-506.97 -540.39 2148.8
-500.12 -539.02 2143.4
-485.01 -528.60 2101.9
-473.33 -521.74 2074.7
-472.05 -526.30 2092.8
-472.36 -532.78 2118.5
-471.70 -538.30 2140.5
-462.67 -534.28 2124.5
-452.49 -528.82 2102.8
-452.52 -535.29 2128.6
-449.41 -538.19 2140.1
-441.32 -535.10 2127.8
-438.74 -538.71 2142.1
-441.86 -549.50 2185.0
-439.45 -553.59 2201.3
-432.44 -551.93 2194.7
-810.14 -529.29 2083.2
-815.92 -536.64 2112.2
-826.10 -547.01 2153.0
-804.56 -536.37 2111.1
-773.22 -519.01 2042.7
-759.30 -513.18 2019.8
-766.58 -521.70 2053.3
-775.73 -531.62 2092.4
-766.55 -529.03 2082.2
-744.39 -517.38 2036.3
-736.38 -515.46 2028.8
-742.90 -523.77 2061.5
-735.18 -522.09 2054.9
-726.19 -519.47 2044.5
-738.26 -531.98 2093.8
-742.07 -538.69 2120.2
-725.33 -530.46 2087.8
-722.05 -532.03 2094.0
-732.58 -543.89 2140.7
-720.07 -538.68 2120.2
-695.86 -524.57 2064.6
-690.71 -524.72 2065.2
-683.41 -523.23 2059.4
-679.78 -524.55 2064.6
-693.63 -539.49 2123.4
-688.92 -540.11 2125.8
-670.81 -530.16 2086.6
-656.13 -522.77 2057.5
-657.12 -527.85 2077.5
-664.99 -538.58 2119.8
-655.62 -535.42 2107.4
-646.31 -532.25 2094.9
-641.60 -532.86 2097.3
-644.22 -539.60 2123.8
-633.37 -544.48 2143.0
-614.30 -532.76 2096.9
-590.57 -516.75 2033.9
-592.67 -523.26 2059.5
-593.84 -529.05 2082.3
-580.89 -522.27 2055.6
-581.95 -528.07 2078.4
-589.91 -540.29 2126.5
-590.17 -545.63 2147.5
-585.48 -546.44 2150.7
-572.93 -539.87 2124.9
-555.49 -528.52 2080.2
-549.68 -528.13 2078.6
-555.45 -538.95 2121.2
-552.47 -541.42 2130.9
-538.09 -532.66 2096.5
-532.49 -532.49 2095.8
-529.97 -535.43 2107.4
-521.06 -531.91 2093.5
-522.19 -538.68 2120.2
-514.92 -536.83 2112.9
-502.66 -541.32 2130.6
-492.80 -542.63 2135.7
-480.39 -534.98 2105.6
-475.61 -535.75 2108.6
-472.08 -537.95 2117.3
-468.08 -539.67 2124.1
-455.38 -531.28 2091.0
-444.67 -525.04 2066.5
-443.77 -530.36 2087.4
-447.95 -541.97 2133.1
-447.76 -548.51 2158.9
-437.70 -542.98 2137.1
-431.99 -542.75 2136.2
-436.34 -555.34 2185.7
-426.51 -557.30 2193.5
-417.90 -553.44 2178.3
-842.43 -552.32 2151.9
-809.69 -534.40 2082.1
-821.08 -545.55 2125.5
-832.62 -556.95 2169.9
-811.04 -546.21 2128.1
-774.51 -525.18 2046.2
-757.17 -516.97 2014.2
-762.76 -524.40 2043.1
-770.23 -533.24 2077.6
-779.90 -543.73 2118.4
-775.69 -544.63 2121.9
-749.57 -530.05 2065.1
-737.88 -525.54 2047.6
-737.07 -528.77 2060.1
-734.57 -530.82 2068.1
-732.03 -532.88 2076.1
-721.75 -529.28 2062.1
-715.99 -528.98 2061.0
-724.49 -539.28 2101.1
-733.43 -550.07 2143.1
-719.98 -544.11 2119.9
-689.88 -525.37 2046.9
-678.61 -520.79 2029.1
-683.02 -528.27 2058.2
-691.85 -539.32 2101.2
-692.63 -544.21 2120.3
-676.25 -535.59 2086.7
-669.54 -534.55 2082.7
-666.68 -536.59 2090.6
-647.37 -525.32 2046.7
-635.24 -519.75 2025.0
-637.36 -525.82 2048.7
-639.93 -532.38 2074.2
-635.27 -532.98 2076.5
-638.21 -540.02 2104.0
-632.18 -549.00 2139.0
-613.40 -537.41 2093.8
-587.53 -519.33 2023.4
-586.96 -523.50 2039.6
-593.23 -533.90 2080.1
-584.78 -531.13 2069.3
-586.85 -537.95 2095.9
-595.80 -551.25 2147.7
-582.63 -544.15 2120.1
-565.50 -533.19 2077.4
-571.08 -543.62 2118.0
-570.94 -548.77 2138.1
-554.82 -538.50 2098.1
-550.70 -539.79 2103.1
-550.20 -544.69 2122.2
-539.47 -539.47 2101.8
-528.60 -533.99 2080.5
-520.43 -531.16 2069.5
-512.08 -528.08 2057.5
-513.99 -535.64 2086.9
-522.66 -550.46 2144.6
-510.33 -543.26 2116.6
-489.59 -526.85 2052.6
-494.56 -538.04 2096.3
-500.42 -550.46 2144.6
-485.09 -539.59 2102.3
-473.85 -533.08 2076.9
-469.99 -534.82 2083.7
-462.72 -532.67 2075.3
-453.82 -528.57 2059.4
-448.50 -528.59 2059.5
-445.22 -531.05 2069.0
-439.07 -530.10 2065.3
-437.92 -535.23 2085.3
-440.80 -545.49 2125.3
-434.14 -544.04 2119.6
-431.92 -548.21 2135.9
-439.30 -564.82 2200.6
-415.83 -556.31 2167.4
-834.62 -556.41 2146.2
-824.13 -553.11 2133.4
-816.49 -551.68 2127.9
-801.94 -545.54 2104.2
-772.36 -529.02 2040.5
-762.57 -525.91 2028.5
-775.25 -538.37 2076.6
-769.47 -538.09 2075.5
-766.04 -539.46 2080.8
-775.59 -550.06 2121.7
-761.75 -544.10 2098.7
-735.82 -529.37 2041.8
-720.95 -522.43 2015.1
-727.01 -530.66 2046.8
-733.88 -539.62 2081.4
-725.84 -537.66 2073.8
-722.92 -539.49 2080.9
-726.30 -546.09 2106.3
-730.50 -553.41 2134.6
-723.95 -552.63 2131.6
-700.34 -538.73 2077.9
-682.23 -528.86 2039.9
-679.88 -531.16 2048.7
-683.26 -538.00 2075.1
-678.67 -538.63 2077.6
-675.27 -540.21 2083.7
-681.34 -549.47 2119.4
-672.78 -546.98 2109.8
-647.00 -530.33 2045.5
-634.88 -524.69 2023.8
-637.28 -531.07 2048.4
-630.98 -530.23 2045.2
-617.87 -523.62 2019.7
-612.49 -523.49 2019.2
-615.77 -530.83 2047.5
-627.78 -545.90 2105.6
-633.74 -555.91 2144.2
-623.96 -552.18 2129.8
-605.58 -540.70 2085.6
-593.32 -534.53 2061.7
-587.83 -534.39 2061.2
-579.95 -532.07 2052.3
-581.28 -538.22 2076.0
-590.26 -551.65 2127.8
-577.40 -544.72 2101.0
-563.90 -537.05 2071.5
-572.76 -550.73 2124.3
-575.86 -559.09 2156.5
-563.18 -552.13 2129.7
-557.01 -551.49 2127.2
-556.44 -556.44 2146.3
-548.55 -554.09 2137.2
-539.75 -550.76 2124.4
-533.37 -549.86 2120.9
-526.53 -548.47 2115.5
-514.15 -541.21 2087.5
-508.80 -541.27 2087.8
-509.12 -547.44 2111.6
-500.33 -543.83 2097.6
-495.83 -544.86 2101.6
-492.19 -546.87 2109.4
-484.58 -544.47 2100.1
-480.90 -546.48 2107.8
-470.78 -541.13 2087.2
-456.96 -531.35 2049.5
-453.13 -533.10 2056.2
-453.19 -539.51 2081.0
-455.15 -548.38 2115.2
-454.33 -554.06 2137.1
-445.42 -549.90 2121.1
-440.73 -550.91 2124.9
-432.90 -547.98 2113.6
-429.55 -550.70 2124.1
-822.98 -557.86 2130.4
-816.38 -557.13 2127.6
-803.57 -552.11 2108.5
-776.40 -537.10 2051.2
-768.98 -535.63 2045.6
-775.16 -543.69 2076.3
-762.62 -538.64 2057.0
-744.47 -529.52 2022.2
-739.15 -529.46 2022.0
-741.11 -534.66 2041.8
-730.79 -531.01 2027.9
-718.91 -526.16 2009.4
-727.90 -536.62 2049.3
-743.80 -552.38 2109.5
-744.99 -557.36 2128.5
-739.08 -557.06 2127.4
-739.18 -561.33 2143.7
-734.48 -561.99 2146.2
-718.85 -554.23 2116.6
-708.62 -550.55 2102.5
-701.84 -549.51 2098.5
-691.72 -545.81 2084.4
-686.51 -545.96 2085.0
-675.57 -541.53 2068.1
-665.30 -537.57 2052.9
-669.66 -545.45 2083.0
-659.42 -541.48 2067.9
-653.06 -540.65 2064.7
-659.78 -550.72 2103.2
-651.32 -548.19 2093.5
-635.76 -539.59 2060.7
-621.20 -531.70 2030.5
-614.66 -530.61 2026.4
-611.78 -532.67 2034.2
-616.89 -541.79 2069.1
-617.43 -547.02 2089.0
-603.42 -539.34 2059.7
-597.93 -539.20 2059.2
-597.00 -543.21 2074.5
-590.94 -542.59 2072.1
-582.51 -539.76 2061.3
-583.55 -545.73 2084.1
-591.47 -558.30 2132.1
-584.51 -556.94 2126.9
-576.04 -554.10 2116.1
-570.40 -553.95 2115.5
-560.01 -549.14 2097.1
-557.39 -551.92 2107.8
-561.34 -561.34 2143.7
-562.92 -568.55 2171.3
-556.18 -567.41 2166.9
-550.40 -567.25 2166.3
-546.76 -569.30 2174.1
-540.73 -568.89 2172.6
-529.14 -562.56 2148.4
-509.87 -547.84 2092.2
-497.23 -540.00 2062.3
-494.63 -543.02 2073.8
-495.53 -549.98 2100.4
-493.43 -553.74 2114.7
-487.34 -553.05 2112.1
-472.85 -542.70 2072.6
-457.24 -543.30 2074.9
-457.03 -549.53 2098.6
-458.55 -557.99 2130.9
-457.07 -562.98 2150.0
-447.34 -557.80 2130.2
-442.03 -558.07 2131.2
-433.61 -554.36 2117.1
-425.06 -550.40 2101.9
-432.89 -567.82 2168.5
-827.35 -562.60 2127.5
-813.07 -556.60 2104.8
-810.01 -558.25 2111.0
-792.75 -550.07 2080.1
-761.19 -531.79 2011.0
-743.15 -526.39 1990.6
-755.11 -538.61 2036.8
-759.48 -545.54 2063.0
-745.73 -539.46 2040.0
-739.69 -538.92 2037.9
-744.85 -546.58 2066.9
-749.88 -554.26 2095.9
-735.28 -547.43 2070.1
-726.92 -545.19 2061.6
-742.00 -560.62 2120.0
-729.27 -559.29 2114.9
-705.48 -545.14 2061.5
-695.04 -541.18 2046.5
-689.01 -540.61 2044.3
-689.75 -545.38 2062.4
-686.12 -546.76 2067.6
-675.50 -542.52 2051.6
-659.22 -533.65 2018.0
-646.71 -531.97 2011.7
-651.38 -540.17 2042.7
-660.28 -552.04 2087.5
-664.33 -560.01 2117.7
-653.24 -555.26 2099.7
-648.25 -555.64 2101.2
-645.22 -557.74 2109.1
-637.94 -556.15 2103.1
-633.75 -557.26 2107.3
-625.66 -554.93 2098.5
-612.94 -548.42 2073.9
-604.42 -545.59 2063.1
-604.06 -550.13 2080.3
-608.17 -558.86 2113.3
-606.53 -562.42 2126.8
-594.55 -556.37 2103.9
-592.09 -559.19 2114.6
-599.41 -571.40 2160.7
-591.09 -568.79 2150.9
-574.17 -557.77 2109.2
-561.49 -550.69 2082.4
-551.43 -546.07 2065.0
-548.63 -548.63 2074.7
-547.51 -552.93 2090.9
-543.38 -554.25 2095.9
-544.28 -560.78 2120.6
-545.30 -567.56 2146.2
-538.40 -566.15 2140.9
-529.64 -562.74 2128.0
-513.73 -563.45 2130.7
-495.90 -549.81 2079.1
-493.89 -553.60 2093.4
-488.73 -553.89 2094.6
-479.42 -549.45 2077.8
-462.44 -536.01 2026.9
-460.62 -546.32 2065.9
-461.75 -554.10 2095.3
-455.31 -552.88 2090.7
-452.36 -555.91 2102.2
-446.33 -555.19 2099.4
-439.71 -553.70 2093.8
-437.24 -557.48 2108.1
-436.26 -563.27 2130.0
-435.35 -569.31 2152.8
-432.63 -573.09 2167.1
-841.62 -574.08 2149.8
-800.16 -549.44 2057.5
-780.44 -539.50 2020.3
-789.74 -549.62 2058.2
-782.97 -548.61 2054.4
-766.94 -541.06 2026.2
-763.67 -542.47 2031.4
-751.21 -537.32 2012.2
-752.65 -542.12 2030.1
-759.04 -550.57 2061.8
-747.30 -545.90 2044.3
-747.87 -550.22 2060.5
-759.88 -563.08 2108.6
-760.88 -567.90 2126.7
-743.29 -558.82 2092.7
-723.92 -548.26 2053.1
-726.83 -554.55 2076.7
-732.82 -563.28 2109.4
-713.36 -552.45 2068.8
-698.16 -544.78 2040.1
-695.26 -546.66 2047.1
-687.06 -544.36 2038.5
-685.66 -547.46 2050.1
-684.81 -551.06 2063.6
-675.71 -548.01 2052.2
-665.45 -543.98 2037.1
-657.36 -541.66 2028.4
-654.05 -543.28 2034.5
-653.94 -547.61 2050.7
-658.43 -555.89 2081.7
-659.00 -560.97 2100.7
-649.40 -557.40 2087.4
-644.44 -557.79 2088.8
-643.71 -561.88 2104.1
-638.12 -561.77 2103.7
-637.56 -566.11 2120.0
-632.49 -566.49 2121.4
-619.44 -559.67 2095.9
-610.05 -556.07 2082.4
-607.48 -558.67 2092.1
-608.34 -564.50 2113.9
-601.39 -563.12 2108.8
-584.19 -552.03 2067.2
-582.07 -555.12 2078.8
-589.21 -567.18 2124.0
-584.32 -567.79 2126.2
-571.03 -560.15 2097.7
-562.66 -557.25 2086.8
-556.84 -556.84 2085.3
-553.50 -558.93 2093.1
-551.84 -562.76 2107.4
-540.38 -556.59 2084.3
-533.84 -555.41 2079.9
-529.24 -556.24 2083.0
-516.58 -548.54 2054.2
-520.67 -558.63 2092.0
-513.42 -568.62 2129.4
-494.25 -553.35 2072.2
-491.37 -556.17 2082.7
-490.41 -561.25 2101.8
-485.22 -561.55 2102.9
-478.09 -559.58 2095.5
-478.44 -566.43 2121.1
-473.18 -566.72 2122.2
-461.26 -558.93 2093.1
-456.68 -559.98 2097.0
-455.74 -565.56 2117.9
-446.25 -560.54 2099.1
-435.66 -553.98 2074.6
-434.42 -559.31 2094.5
-434.24 -566.16 2120.2
-442.56 -584.41 2188.5
-426.68 -585.98 2194.4
-811.65 -562.75 2087.1
-781.39 -545.40 2022.8
-783.04 -550.24 2040.7
-791.16 -559.73 2075.9
-789.50 -562.38 2085.8
-787.11 -564.55 2093.8
-775.53 -560.10 2077.3
-764.02 -555.65 2060.8
-757.93 -555.11 2058.8
-740.88 -546.46 2026.7
-735.87 -546.64 2027.4
-744.00 -556.66 2064.5
-740.85 -558.32 2070.7
-735.72 -558.50 2071.4
-729.62 -557.95 2069.3
-724.81 -558.37 2070.9
-722.53 -560.77 2079.8
-710.41 -555.51 2060.3
-702.46 -553.45 2052.6
-706.69 -561.04 2080.8
-705.84 -564.67 2094.3
-687.10 -553.94 2054.4
-668.84 -543.44 2015.5
-674.10 -552.02 2047.3
-676.79 -558.62 2071.8
-668.91 -556.54 2064.1
-664.63 -557.43 2067.4
-657.97 -556.33 2063.3
-657.46 -560.46 2078.6
-661.51 -568.57 2108.7
-655.35 -567.97 2106.5
-642.34 -561.37 2082.0
-633.13 -558.01 2069.5
-619.47 -550.64 2042.2
-610.69 -547.51 2030.6
-621.87 -562.39 2085.8
-625.11 -570.27 2115.0
-605.33 -557.12 2066.2
-592.00 -549.71 2038.8
-585.76 -548.82 2035.4
-572.84 -551.63 2045.9
-575.92 -559.77 2076.1
-567.56 -556.85 2065.2
-574.50 -569.02 2110.4
-561.99 -567.45 2104.6
-541.29 -551.90 2046.9
-556.65 -573.18 2125.8
-561.17 -583.62 2164.5
-543.14 -570.57 2116.1
-527.01 -559.27 2074.2
-520.28 -557.82 2068.9
-530.63 -574.85 2132.0
-535.58 -586.32 2174.5
-517.87 -572.96 2125.0
-500.86 -560.10 2077.3
-495.29 -559.90 2076.5
-487.74 -557.41 2067.3
-482.20 -557.20 2066.6
-482.75 -564.11 2092.2
-481.23 -568.73 2109.3
-477.08 -570.30 2115.1
-468.68 -566.78 2102.1
-452.02 -553.06 2051.2
-442.61 -547.99 2032.4
-445.29 -557.95 2069.3
-439.34 -557.21 2066.6
-433.20 -556.21 2062.9
-436.50 -567.45 2104.6
-436.49 -574.62 2131.1
-444.39 -592.52 2197.5
-429.29 -587.45 2178.7
-423.83 -587.72 2179.7
-836.77 -581.86 2137.4
-808.38 -565.86 2078.7
-788.63 -555.75 2041.5
-778.77 -552.50 2029.6
-777.93 -555.67 2041.2
-779.44 -560.56 2059.2
-780.86 -565.45 2077.2
-777.45 -566.89 2082.5
-773.34 -567.84 2085.9
-768.88 -568.53 2088.5
-753.08 -560.81 2060.1
-737.75 -553.31 2032.6
-734.69 -554.99 2038.7
-731.61 -556.66 2044.9
-728.16 -558.08 2050.1
-729.52 -563.23 2069.0
-732.06 -569.38 2091.6
-728.14 -570.56 2095.9
-714.10 -563.76 2071.0
-707.38 -562.69 2067.0
-713.13 -571.59 2099.7
-708.52 -572.26 2102.2
-686.38 -558.68 2052.3
-675.46 -554.09 2035.4
-688.53 -569.26 2091.2
-681.50 -567.92 2086.2
-663.44 -557.29 2047.2
-664.82 -562.96 2068.0
-664.34 -567.12 2083.3
-652.98 -561.99 2064.5
-646.63 -561.12 2061.3
-649.49 -568.30 2087.6
-645.38 -569.45 2091.9
-630.76 -561.27 2061.8
-612.92 -550.06 2020.6
-600.84 -543.87 1997.9
-608.23 -555.34 2040.0
-622.53 -573.39 2106.3
-614.21 -570.73 2096.6
-592.45 -555.42 2040.3
-577.37 -546.16 2006.3
-575.72 -549.55 2018.8
-581.90 -560.55 2059.2
-577.97 -561.92 2064.2
-569.36 -558.72 2052.4
-567.46 -562.11 2064.9
-582.02 -582.02 2138.0
-585.14 -590.77 2170.2
-551.92 -562.64 2066.8
-543.32 -564.84 2074.9
-552.09 -579.70 2129.5
-538.00 -570.60 2096.1
-525.73 -563.28 2069.2
-522.79 -565.90 2078.8
-517.93 -566.48 2081.0
-507.97 -561.44 2062.4
-508.62 -568.14 2087.1
-509.61 -575.37 2113.6
-498.58 -569.03 2090.3
-485.21 -559.86 2056.6
-481.68 -561.96 2064.3
-485.05 -572.25 2102.2
-477.06 -569.22 2091.0
-467.21 -563.87 2071.4
-457.03 -558.00 2049.8
-446.84 -565.28 2076.5
-441.07 -564.79 2074.7
-435.51 -564.55 2073.9
-439.96 -577.44 2121.2
-440.67 -585.71 2151.6
-435.11 -585.73 2151.6
-423.87 -578.00 2123.3
-418.56 -578.27 2124.3
-427.44 -598.41 2198.3
-826.40 -580.12 2111.0
-798.08 -563.98 2052.2
-778.40 -553.76 2015.0
-767.91 -549.99 2001.3
-761.96 -549.44 1999.3
-758.76 -550.88 2004.5
-767.46 -561.04 2041.5
-770.22 -566.97 2063.1
-759.42 -562.93 2048.4
-748.35 -558.63 2032.7
-742.34 -558.07 2030.7
-736.33 -557.51 2028.7
-732.62 -558.69 2033.0
-728.89 -559.87 2037.3
-730.00 -564.82 2055.3
-736.17 -573.78 2087.9
-739.94 -580.99 2114.1
-736.61 -582.69 2120.3
-720.30 -574.07 2088.9
-711.97 -571.73 2080.4
-718.62 -581.48 2115.9
-714.58 -582.66 2120.2
-698.56 -574.01 2088.7
-694.26 -574.93 2092.1
-697.50 -582.17 2118.4
-680.49 -572.48 2083.1
-663.04 -562.26 2046.0
-665.61 -568.99 2070.4
-664.23 -572.43 2083.0
-652.00 -566.49 2061.4
-641.03 -561.56 2043.4
-639.33 -564.74 2055.0
-646.98 -576.30 2097.1
-643.68 -578.22 2104.0
-628.27 -569.20 2071.2
-619.97 -566.53 2061.5
-615.59 -567.42 2064.7
-618.04 -574.67 2091.1
-617.92 -579.64 2109.2
-603.68 -571.34 2079.0
-591.46 -564.82 2055.3
-592.87 -571.31 2078.9
-599.16 -582.67 2120.2
-595.08 -584.06 2125.3
-582.45 -577.00 2099.6
-576.85 -576.85 2099.0
-578.87 -584.38 2126.5
-569.68 -580.64 2112.8
-556.32 -572.52 2083.3
-552.98 -574.66 2091.1
-551.31 -578.60 2105.4
-544.72 -577.40 2101.0
-532.14 -569.76 2073.3
-520.88 -563.40 2050.1
-517.28 -565.27 2056.9
-511.54 -564.82 2055.3
-510.65 -569.78 2073.3
-520.66 -587.13 2136.4
-516.99 -589.26 2144.2
-501.85 -578.22 2104.0
-493.12 -574.40 2090.1
-494.54 -582.46 2119.5
-477.54 -581.83 2117.2
-457.58 -564.00 2052.3
-446.26 -556.51 2025.0
-450.68 -568.72 2069.5
-455.70 -581.98 2117.7
-445.21 -575.52 2094.2
-435.23 -569.56 2072.5
-435.17 -576.60 2098.1
-430.71 -577.91 2102.9
-419.33 -569.86 2073.6
-422.09 -581.06 2114.4
-432.85 -603.71 2196.8
-809.89 -577.73 2082.6
-784.57 -563.42 2031.0
-763.30 -551.84 1989.3
-750.77 -550.22 1983.5
-763.94 -563.73 2032.2
-766.05 -569.22 2051.9
-754.94 -564.88 2036.3
-742.56 -559.54 2017.0
-734.92 -557.71 2010.4
-731.27 -558.90 2014.7
-730.22 -562.11 2026.3
-719.66 -558.00 2011.5
-714.02 -557.67 2010.3
-722.86 -568.72 2050.1
-728.64 -577.51 2081.8
-731.40 -584.03 2105.3
-720.81 -579.90 2090.4
-700.58 -567.90 2047.2
-695.17 -567.81 2046.8
-697.78 -574.33 2070.3
-688.32 -570.93 2058.1
-686.22 -573.64 2067.9
-693.15 -583.99 2105.2
-685.48 -582.12 2098.4
-677.25 -579.72 2089.8
-675.56 -582.94 2101.4
-670.29 -583.10 2102.0
-658.60 -577.63 2082.2
-647.87 -572.91 2065.2
-639.23 -569.98 2054.7
-640.60 -576.00 2076.4
-639.04 -579.47 2088.9
-625.36 -571.91 2061.6
-626.00 -577.43 2081.5
-631.23 -587.32 2117.2
-625.61 -587.19 2116.7
-618.08 -585.26 2109.8
-604.12 -577.15 2080.5
-591.63 -570.31 2055.9
-591.44 -575.31 2073.9
-595.37 -584.45 2106.8
-588.20 -582.75 2100.7
-572.27 -572.27 2062.9
-572.91 -578.31 2084.7
-581.05 -592.11 2134.5
-569.33 -585.75 2111.5
-554.72 -576.27 2077.3
-558.31 -585.68 2111.3
-563.44 -596.91 2151.8
-553.34 -592.08 2134.3
-536.13 -579.45 2088.8
-527.45 -575.89 2076.0
-526.14 -580.38 2092.2
-524.97 -585.13 2109.3
-527.88 -594.56 2143.3
-523.76 -596.19 2149.2
-507.39 -583.77 2104.4
-498.40 -579.66 2089.6
-496.13 -583.36 2102.9
-493.79 -587.06 2116.3
-496.81 -597.29 2153.1
-478.30 -588.25 2120.5
-465.48 -579.15 2087.7
-461.14 -580.49 2092.6
-449.58 -572.67 2064.4
-438.35 -565.11 2037.1
-442.52 -577.43 2081.5
-447.85 -591.60 2132.6
-441.16 -590.05 2127.0
-429.27 -581.42 2095.9
-421.74 -578.54 2085.5
-429.00 -596.14 2149.0
-825.79 -590.63 2109.4
-803.46 -578.49 2066.0
-798.40 -578.71 2066.8
-794.39 -579.69 2070.3
-778.63 -572.06 2043.1
-780.81 -577.58 2062.8
-777.78 -579.31 2069.0
-765.59 -574.19 2050.7
-754.49 -569.82 2035.1
-741.79 -564.17 2014.9
-737.47 -564.87 2017.4
-737.10 -568.62 2030.8
-733.06 -569.57 2034.2
-718.90 -562.62 2009.4
-714.24 -563.05 2010.9
-723.71 -574.71 2052.5
-720.85 -576.68 2059.6
-715.10 -576.35 2058.4
-713.76 -579.60 2070.0
-702.35 -574.65 2052.3
-695.68 -573.54 2048.3
-697.05 -579.09 2068.2
-677.17 -566.94 2024.8
-666.02 -561.95 2007.0
-680.64 -578.81 2067.2
-682.06 -584.63 2087.9
-671.17 -579.89 2071.1
-667.46 -581.34 2076.2
-666.36 -585.09 2089.6
-659.07 -583.44 2083.7
-641.69 -572.75 2045.5
-627.35 -564.62 2016.5
-624.83 -567.07 2025.3
-620.28 -567.72 2027.6
-620.49 -572.76 2045.6
-634.79 -591.01 2110.8
-632.49 -593.99 2121.4
-619.74 -587.13 2096.9
-613.08 -585.95 2092.7
-599.97 -578.54 2066.2
-592.86 -576.84 2060.1
-597.96 -587.09 2096.7
-591.59 -586.16 2093.4
-574.81 -574.81 2052.9
-561.59 -566.84 2024.4
-564.11 -574.75 2052.7
-574.60 -591.01 2110.8
-565.95 -587.72 2099.0
-545.41 -571.88 2042.4
-543.15 -575.10 2053.9
-552.33 -590.61 2109.3
-546.21 -589.91 2106.8
-536.99 -585.80 2092.2
-535.44 -590.07 2107.4
-521.80 -580.98 2074.9
-507.86 -571.34 2040.5
-512.78 -582.95 2082.0
-510.86 -586.95 2096.2
-506.84 -588.58 2102.1
-510.39 -599.16 2139.8
-495.81 -588.44 2101.6
-481.42 -577.70 2063.2
-485.65 -589.33 2104.7
-484.95 -595.17 2125.6
-475.45 -590.21 2107.9
-470.22 -590.51 2109.0
-461.67 -586.59 2095.0
-446.00 -573.43 2048.0
-434.42 -565.27 2018.8
-437.82 -576.64 2059.4
-443.99 -591.99 2114.2
-437.74 -590.95 2110.5
-431.51 -589.91 2106.8
-429.88 -595.22 2125.8
-437.21 -613.23 2190.1
-822.99 -590.17 2088.4
-807.32 -582.77 2062.2
-793.17 -576.37 2039.6
-795.14 -581.68 2058.4
-808.46 -595.42 2107.0
-790.61 -590.25 2088.7
-770.85 -579.47 2050.5
-758.03 -573.79 2030.4
-745.64 -568.35 2011.2
-741.34 -569.06 2013.7
-745.32 -576.17 2038.9
-739.30 -575.59 2036.8
-729.34 -571.93 2023.9
-728.88 -575.71 2037.3
-737.09 -586.45 2075.2
-733.56 -587.92 2080.5
-717.22 -579.09 2049.2
-712.76 -579.78 2051.7
-712.70 -584.09 2066.9
-707.86 -584.52 2068.4
-707.68 -588.83 2083.7
-700.94 -587.71 2079.7
-674.00 -569.51 2015.3
-671.16 -576.03 2038.4
-670.55 -580.08 2052.7
-658.26 -574.00 2031.2
-654.93 -575.70 2037.2
-654.80 -580.27 2053.4
-648.18 -579.11 2049.3
-631.75 -569.10 2013.9
-621.23 -564.28 1996.8
-622.45 -570.14 2017.5
-621.59 -574.18 2031.8
-625.14 -582.40 2060.9
-627.72 -589.84 2087.3
-614.17 -582.13 2060.0
-615.53 -588.53 2082.6
-622.74 -600.69 2125.7
-608.75 -592.44 2096.4
-600.23 -589.41 2085.7
-592.56 -587.17 2077.8
-574.42 -574.42 2032.7
-572.89 -578.20 2046.0
-574.91 -585.65 2072.4
-572.70 -588.91 2083.9
-578.79 -600.84 2126.2
-578.65 -606.47 2146.1
-566.22 -599.20 2120.4
-551.44 -589.28 2085.3
-548.80 -592.27 2095.8
-545.62 -594.73 2104.5
-539.52 -594.02 2102.0
-533.67 -593.57 2100.4
-515.35 -579.11 2049.3
-500.32 -568.07 2010.2
-503.45 -577.65 2044.1
-512.13 -593.86 2101.5
-519.85 -609.28 2156.0
-496.38 -594.56 2104.0
-480.45 -581.88 2059.1
-482.52 -590.95 2091.2
-481.42 -596.31 2110.1
-471.53 -590.77 2090.5
-464.05 -588.15 2081.3
-452.87 -580.74 2055.0
-449.82 -583.69 2065.5
-451.17 -592.50 2096.7
-441.75 -587.20 2077.9
-434.79 -585.09 2070.4
-437.46 -596.04 2109.2
-439.93 -606.99 2147.9
-430.94 -602.21 2131.0
-430.33 -609.16 2155.6
-817.41 -595.46 2088.0
-796.90 -584.39 2049.2
-775.86 -572.78 2008.5
-769.55 -571.96 2005.6
-774.95 -579.89 2033.4
-764.48 -575.98 2019.7
-757.81 -574.89 2015.9
-756.22 -577.67 2025.6
-755.26 -580.97 2037.2
-762.92 -590.99 2072.3
-756.48 -590.16 2069.4
-740.49 -581.82 2040.1
-732.83 -579.94 2033.5
-734.30 -585.31 2052.4
-738.58 -593.02 2079.4
-731.18 -591.40 2073.7
-720.61 -587.17 2058.9
-721.52 -592.29 2076.9
-714.78 -591.17 2072.9
-702.43 -585.36 2052.6
-701.66 -589.18 2065.9
-694.04 -587.26 2059.2
-688.59 -587.17 2058.9
-695.91 -598.04 2097.0
-689.76 -597.43 2094.9
-671.93 -586.61 2056.9
-663.50 -583.88 2047.4
-663.68 -588.75 2064.4
-654.98 -585.75 2053.9
-639.05 -576.19 2020.4
-632.80 -575.28 2017.2
-632.02 -579.35 2031.5
-630.88 -583.16 2044.9
-627.97 -585.40 2052.7
-619.99 -582.90 2043.9
-611.21 -579.60 2032.4
-598.90 -572.87 2008.7
-601.47 -580.36 2035.0
-618.82 -602.39 2112.3
-614.28 -603.31 2115.5
-603.58 -598.15 2097.4
-593.77 -593.77 2082.0
-573.53 -578.79 2029.5
-569.41 -579.95 2033.6
-578.41 -594.62 2085.0
-583.32 -605.33 2122.6
-566.12 -610.52 2140.8
-557.24 -606.89 2128.1
-547.93 -602.73 2113.5
-532.47 -591.63 2074.5
-516.71 -579.98 2033.7
-515.49 -584.58 2049.8
-516.52 -591.85 2075.3
-510.27 -590.84 2071.8
-509.75 -596.51 2091.7
-507.99 -600.85 2106.9
-496.54 -593.69 2081.8
-491.41 -594.01 2082.9
-489.99 -598.88 2100.0
-479.82 -593.04 2079.5
-466.32 -582.90 2044.0
-460.84 -582.67 2043.1
-457.87 -585.65 2053.6
-449.67 -581.93 2040.5
-449.73 -588.93 2065.1
-459.79 -609.36 2136.7
-459.28 -616.11 2160.4
-441.83 -600.01 2103.9
-433.26 -595.73 2088.9
-429.40 -597.90 2096.5
-413.86 -583.64 2046.5
-411.00 -587.14 2058.8
-425.03 -615.17 2157.1
-820.44 -603.10 2095.7
-794.67 -588.05 2043.4
-770.52 -574.01 1994.6
-771.16 -578.37 2009.8
-783.08 -591.30 2054.7
-757.18 -575.66 2000.4
-737.30 -564.42 1961.3
-751.04 -578.92 2011.7
-765.54 -594.23 2064.9
-758.12 -592.61 2059.3
-737.46 -580.55 2017.4
-739.38 -586.23 2037.1
-749.72 -598.70 2080.4
-726.04 -583.99 2029.3
-705.83 -571.87 1987.2
-715.01 -583.57 2027.9
-720.17 -592.14 2057.6
-716.95 -593.89 2063.7
-706.16 -589.35 2047.9
-700.12 -588.74 2045.8
-705.26 -597.58 2076.5
-699.46 -597.23 2075.3
-695.20 -598.19 2078.7
-702.16 -608.90 2115.9
-696.87 -609.08 2116.5
-676.00 -595.53 2069.4
-665.47 -590.93 2053.4
-667.99 -597.96 2077.8
-661.60 -597.05 2074.7
-644.17 -586.09 2036.6
-636.45 -583.85 2028.8
-637.06 -589.28 2047.7
-638.15 -595.25 2068.4
-638.58 -600.70 2087.4
-634.43 -601.90 2091.5
-629.71 -602.56 2093.9
-621.11 -599.51 2083.2
-604.64 -588.73 2045.8
-602.98 -592.31 2058.2
-603.67 -598.28 2079.0
-598.40 -598.40 2079.4
-591.27 -596.65 2073.3
-573.69 -584.22 2030.1
-569.56 -585.38 2034.2
-577.26 -598.84 2080.9
-568.65 -595.47 2069.2
-561.35 -593.43 2062.1
-568.13 -606.37 2107.1
-564.25 -608.07 2113.0
-554.92 -603.88 2098.4
-549.80 -604.24 2099.7
-543.95 -603.79 2098.1
-530.45 -594.74 2066.7
-518.99 -587.83 2042.7
-521.74 -597.04 2074.7
-518.05 -598.99 2081.4
-506.72 -592.06 2057.4
-508.73 -600.74 2087.5
-509.01 -607.53 2111.1
-491.97 -593.58 2062.6
-481.36 -587.16 2040.3
-485.30 -598.53 2079.8
-480.16 -598.85 2080.9
-466.88 -588.90 2046.4
-461.81 -589.20 2047.4
-460.93 -594.92 2067.3
-455.38 -594.68 2066.4
-444.11 -586.85 2039.3
-442.68 -592.02 2057.2
-453.38 -613.72 2132.6
-447.87 -613.74 2132.7
-430.82 -597.77 2077.2
-418.11 -587.47 2041.4
-412.25 -586.66 2038.6
-420.90 -606.76 2108.4
-427.72 -624.70 2170.8
-426.69 -631.50 2194.4
-421.01 -631.51 2194.5
-826.46 -608.97 2097.2
-807.62 -599.03 2063.0
-796.28 -594.56 2047.6
-780.84 -586.94 2021.3
-789.71 -597.62 2058.1
-775.51 -594.91 2048.8
-750.10 -579.39 1995.3
-760.03 -591.13 2035.8
-763.39 -597.90 2059.1
-745.65 -588.12 2025.4
-728.39 -578.58 1992.6
-733.33 -586.67 2020.4
-752.20 -606.09 2087.3
-737.94 -598.91 2062.6
-703.13 -574.82 1979.6
-697.56 -574.47 1978.4
-705.70 -585.47 2016.3
-705.11 -589.35 2029.6
-704.77 -593.49 2043.9
-708.74 -601.35 2071.0
-711.64 -608.42 2095.3
-703.03 -605.68 2085.9
-695.99 -604.27 2081.0
-699.59 -612.14 2108.1
-693.72 -611.78 2106.9
-673.48 -598.65 2061.7
-662.37 -593.48 2043.9
-665.79 -601.36 2071.0
-663.23 -603.92 2079.8
-650.45 -597.13 2056.5
-649.02 -600.75 2068.9
-656.41 -612.65 2109.9
-640.87 -603.17 2077.3
-625.21 -593.42 2043.6
-630.11 -603.18 2077.3
-634.58 -612.69 2110.0
-634.48 -617.93 2128.1
-626.37 -615.38 2119.3
-606.38 -601.02 2069.8
-589.86 -589.86 2031.4
-583.10 -588.35 2026.2
-574.78 -585.23 2015.5
-565.73 -581.30 2001.9
-569.20 -590.28 2032.8
-582.04 -609.24 2098.1
-578.49 -611.23 2105.0
-556.43 -593.53 2044.0
-548.71 -590.92 2035.1
-557.18 -605.86 2086.5
-559.97 -614.87 2117.5
-544.57 -603.88 2079.7
-528.86 -592.33 2039.9
-522.92 -591.59 2037.4
-518.41 -592.47 2040.4
-516.70 -596.60 2054.6
-509.11 -593.96 2045.5
-496.03 -584.79 2014.0
-495.87 -590.82 2034.7
-510.26 -614.51 2116.3
-507.06 -617.29 2125.9
-483.26 -594.78 2048.3
-473.83 -589.65 2030.7
-478.98 -602.76 2075.8
-476.20 -606.07 2087.2
-470.40 -605.57 2085.5
-468.79 -610.51 2102.5
-455.91 -600.73 2068.8
-438.08 -584.11 2011.6
-436.72 -589.31 2029.5
-446.68 -610.09 2101.1
-443.62 -613.40 2112.5
-429.56 -601.38 2071.1
-429.22 -608.51 2095.6
-437.52 -628.23 2163.5
-434.56 -632.08 2176.8
-427.62 -630.18 2170.3
-423.29 -632.11 2176.9
-413.48 -625.81 2155.2
-414.15 -635.41 2188.3
-814.70 -601.70 2053.9
-796.24 -591.94 2020.5
-800.80 -599.27 2045.6
-799.29 -602.13 2055.3
-791.83 -600.51 2049.8
-770.91 -588.60 2009.1
-756.36 -581.42 1984.6
-770.93 -596.68 2036.7
-782.21 -609.59 2080.8
-765.29 -600.54 2049.9
-744.15 -588.04 2007.2
-742.52 -590.88 2016.9
-740.19 -593.20 2024.8
-727.28 -587.02 2003.7
-728.86 -592.52 2022.5
-746.90 -611.59 2087.6
-743.02 -612.86 2091.9
-716.68 -595.48 2032.6
-704.94 -590.06 2014.1
-703.72 -593.44 2025.6
-701.82 -596.28 2035.4
-703.61 -602.33 2056.0
-703.75 -607.05 2072.1
-713.05 -619.80 2115.6
-692.08 -615.78 2101.9
-671.86 -602.54 2056.7
-661.06 -597.60 2039.8
-661.83 -603.12 2058.7
-657.25 -603.81 2061.1
-650.03 -602.08 2055.1
-654.09 -610.84 2085.0
-660.00 -621.50 2121.4
-642.73 -610.33 2083.3
-621.42 -595.09 2031.3
-620.76 -599.54 2046.5
-617.25 -601.29 2052.4
-610.14 -599.52 2046.4
-617.23 -611.82 2088.4
-612.49 -612.49 2090.7
-591.35 -596.63 2036.6
-580.33 -590.78 2016.6
-581.80 -597.67 2040.1
-582.11 -603.47 2059.9
-575.57 -602.22 2055.6
-578.83 -611.29 2086.6
-580.91 -619.28 2113.8
-564.66 -607.69 2074.3
-552.86 -600.71 2050.5
-556.81 -610.87 2085.1
-562.80 -623.50 2128.2
-550.55 -615.96 2102.5
-522.24 -590.13 2014.3
-509.07 -586.99 2003.6
-516.83 -602.08 2055.1
-516.20 -607.62 2074.0
-509.96 -606.59 2070.5
-498.04 -598.71 2043.6
-501.13 -608.90 2078.4
-510.96 -627.59 2142.2
-499.72 -620.53 2118.1
-476.57 -598.36 2042.5
-468.71 -595.11 2031.3
-468.61 -601.74 2054.0
-465.22 -604.25 2062.5
-471.61 -619.68 2115.2
-466.99 -620.82 2119.1
-447.20 -601.59 2053.5
-444.12 -604.64 2063.9
-450.37 -620.64 2118.5
-443.52 -618.73 2112.0
-432.20 -610.48 2083.8
-435.87 -623.46 2128.1
-431.32 -624.86 2132.9
-413.38 -606.65 2070.7
-413.03 -614.11 2096.2
-414.93 -625.16 2133.9
-403.06 -615.49 2100.9
-400.83 -620.46 2117.9
-831.00 -615.15 2081.3
-790.38 -588.91 1992.5
-789.04 -591.78 2002.3
-800.31 -604.21 2044.3
-804.04 -611.07 2067.5
-791.69 -605.72 2049.4
-766.29 -590.25 1997.1
-746.96 -579.28 1960.0
-757.15 -591.20 2000.3
-777.32 -611.13 2067.7
-769.53 -609.21 2061.3
-735.98 -586.73 1985.2
-728.81 -589.25 1993.7
-725.84 -591.04 1999.8
-724.48 -594.18 2010.4
-738.64 -610.18 2064.5
-741.91 -617.35 2088.8
-721.67 -604.93 2046.8
-706.09 -596.25 2017.4
-701.38 -596.70 2018.9
-708.28 -607.10 2054.1
-718.13 -620.20 2098.4
-696.18 -605.84 2049.8
-684.30 -600.08 2030.3
-699.99 -618.60 2093.0
-694.46 -618.50 2092.7
-680.19 -610.57 2065.8
-666.65 -603.16 2040.8
-649.36 -592.22 2003.7
-643.44 -591.55 2001.5
-647.47 -600.09 2030.4
-648.16 -605.66 2049.2
-642.72 -605.54 2048.8
-638.99 -607.04 2053.9
-637.50 -610.71 2066.3
-631.72 -610.31 2064.9
-623.43 -607.45 2055.3
-612.42 -601.86 2036.4
-598.47 -593.26 2007.3
-598.83 -598.83 2026.1
-602.89 -608.23 2057.9
-589.90 -600.43 2031.5
-585.00 -600.81 2032.8
-592.76 -614.32 2078.5
-593.50 -620.72 2100.2
-586.35 -618.92 2094.1
-576.91 -614.65 2079.6
-567.03 -609.82 2063.3
-558.48 -606.35 2051.6
-554.50 -607.82 2056.5
-552.48 -611.48 2068.9
-552.11 -617.06 2087.8
-545.80 -616.05 2084.4
-523.34 -596.61 2018.6
-516.97 -595.30 2014.2
-532.88 -619.88 2097.3
-533.37 -626.84 2120.9
-524.68 -623.06 2108.1
-522.04 -626.44 2119.5
-514.10 -623.48 2109.5
-507.56 -622.16 2105.1
-507.28 -628.58 2126.8
-502.89 -637.00 2155.3
-474.23 -607.45 2055.3
-456.66 -598.38 2024.6
-469.21 -621.97 2104.4
-473.08 -634.49 2146.8
-461.82 -626.76 2120.6
-448.87 -616.52 2086.0
-444.48 -617.93 2090.7
-443.02 -623.51 2109.6
-438.15 -624.36 2112.5
-434.42 -626.89 2121.0
-421.51 -616.05 2084.4
-407.27 -602.97 2040.1
-410.52 -615.78 2083.5
-416.48 -633.05 2141.9
-408.94 -629.99 2131.5
-395.91 -618.27 2091.9
-397.71 -629.70 2130.6
-810.85 -609.46 2044.2
-804.09 -608.36 2040.5
-810.70 -617.42 2070.9
-799.70 -613.10 2056.4
-775.23 -598.33 2006.8
-776.86 -603.64 2024.6
-780.46 -610.56 2047.9
-772.02 -608.10 2039.6
-775.81 -615.30 2063.7
-774.10 -618.21 2073.5
-747.24 -600.93 2015.5
-717.77 -585.41 1963.5
-721.44 -592.61 1987.6
-726.31 -600.90 2015.4
-730.71 -608.93 2042.4
-724.04 -607.77 2038.5
-712.89 -602.81 2021.9
-705.64 -601.10 2016.1
-697.15 -598.30 2006.7
-700.61 -605.79 2031.9
-712.69 -620.90 2082.5
-693.26 -608.59 2041.2
-668.10 -595.60 1997.7
-677.65 -608.82 2042.0
-678.55 -614.44 2060.8
-669.21 -610.78 2048.6
-656.06 -603.57 2024.4
-645.97 -599.08 2009.3
-646.46 -604.42 2027.2
-643.10 -606.20 2033.2
-633.66 -602.24 2019.9
-634.00 -607.58 2037.9
-636.51 -615.12 2063.1
-626.53 -610.60 2048.0
-614.10 -603.60 2024.5
-609.25 -604.00 2025.8
-601.37 -601.37 2017.0
-598.99 -604.24 2026.6
-599.52 -610.14 2046.4
-589.24 -605.02 2029.3
-586.75 -607.89 2038.9
-591.06 -617.92 2072.5
-588.14 -620.52 2081.2
-582.07 -619.80 2078.8
-573.44 -616.32 2067.2
-574.04 -622.78 2088.8
-577.05 -632.00 2119.8
-552.13 -610.53 2047.7
-541.18 -610.15 2046.5
-546.65 -622.43 2087.6
-531.67 -611.42 2050.7
-531.91 -617.88 2072.4
-543.64 -637.95 2139.7
-539.80 -639.97 2146.5
-529.67 -634.50 2128.1
-525.36 -635.97 2133.1
-521.71 -638.26 2140.8
-518.47 -641.12 2150.3
-513.62 -642.02 2153.4
-483.20 -624.36 2094.1
-461.57 -603.19 2023.1
-461.63 -610.20 2046.6
-467.63 -625.32 2097.4
-465.53 -629.83 2112.5
-457.83 -626.79 2102.3
-447.76 -620.39 2080.8
-437.99 -614.25 2060.2
-430.09 -610.63 2048.1
-424.99 -610.92 2049.0
-421.61 -613.73 2058.5
-419.13 -617.94 2072.6
-416.20 -621.60 2084.9
-416.92 -630.86 2115.9
-421.14 -645.75 2165.9
-411.35 -648.01 2173.5
-821.25 -626.74 2084.0
-809.14 -621.59 2066.9
-782.80 -605.36 2012.9
-763.64 -594.51 1976.8
-770.51 -603.91 2008.1
-780.31 -615.76 2047.5
-776.65 -617.06 2051.8
-770.24 -616.20 2048.9
-759.14 -611.53 2033.4
-752.12 -610.11 2028.7
-745.11 -608.69 2024.0
-733.50 -603.45 2006.5
-729.19 -604.19 2009.0
-724.54 -604.65 2010.5
-719.55 -604.84 2011.2
-726.80 -615.39 2046.2
-729.71 -622.40 2069.6
-722.03 -620.41 2062.9
-712.80 -617.05 2051.8
-694.52 -605.75 2014.2
-686.38 -603.18 2005.7
-702.71 -622.25 2069.1
-711.98 -635.31 2112.5
-696.65 -626.44 2083.0
-689.32 -624.70 2077.2
-690.44 -630.64 2097.0
-681.91 -627.79 2087.5
-664.52 -616.68 2050.5
-649.96 -608.03 2021.8
-653.93 -616.71 2050.6
-654.86 -622.65 2070.4
-640.73 -614.25 2042.5
-637.87 -616.61 2050.3
-639.21 -623.10 2071.9
-626.96 -616.33 2049.4
-615.37 -610.11 2028.7
-610.79 -610.79 2030.9
-607.84 -613.13 2038.7
-609.76 -620.46 2063.1
-614.53 -630.84 2097.6
-607.60 -629.30 2092.5
-598.05 -624.99 2078.2
-595.67 -628.16 2088.7
-591.93 -629.95 2094.6
-585.05 -628.39 2089.5
-566.90 -614.58 2043.6
-558.13 -610.78 2030.9
-564.81 -623.98 2074.8
-544.26 -607.06 2018.6
-533.45 -606.67 2017.3
-551.40 -633.29 2105.8
-549.15 -637.01 2118.1
-528.69 -619.48 2059.8
-519.87 -615.36 2046.1
-527.50 -630.83 2097.6
-529.08 -639.30 2125.8
-519.27 -634.06 2108.3
-509.54 -628.80 2090.8
-506.87 -632.23 2102.2
-502.14 -633.13 2105.2
-491.22 -626.17 2082.1
-477.14 -614.98 2044.9
-464.32 -605.18 2012.3
-456.25 -608.34 2022.8
-465.02 -627.23 2085.6
-465.42 -635.16 2112.0
-460.17 -635.48 2113.0
-446.44 -623.94 2074.7
-432.10 -611.27 2032.5
-422.50 -605.07 2011.9
-415.54 -602.53 2003.5
-419.58 -616.10 2048.6
-425.49 -632.78 2104.1
-421.36 -634.77 2110.7
-420.53 -641.85 2134.2
-419.39 -648.66 2156.9
-410.55 -643.56 2139.9
-404.82 -643.28 2139.0
-404.38 -651.49 2166.3
-838.01 -636.67 2098.9
-811.61 -620.64 2046.1
-787.92 -606.49 1999.4
-771.80 -598.01 1971.5
-769.40 -600.13 1978.5
-770.09 -604.70 1993.5
-759.33 -600.28 1979.0
-753.44 -599.67 1976.9
-756.40 -606.16 1998.3
-755.88 -609.91 2010.7
-747.22 -607.12 2001.5
-741.27 -606.50 1999.4
-742.98 -612.17 2018.1
-740.63 -614.56 2026.0
-732.01 -611.75 2016.8
-723.42 -608.92 2007.4
-719.74 -610.21 2011.7
-727.62 -621.39 2048.6
-734.68 -632.04 2083.6
-732.05 -634.44 2091.6
-723.38 -631.61 2082.2
-705.98 -621.05 2047.4
-687.18 -609.09 2008.0
-692.67 -618.65 2039.5
-704.46 -634.02 2090.2
-691.62 -627.29 2068.0
-674.65 -616.67 2033.0
-667.45 -614.90 2027.1
-665.65 -618.10 2037.7
-655.50 -613.55 2022.7
-643.95 -607.60 2003.1
-650.87 -619.12 2041.1
-659.93 -632.89 2086.4
-654.68 -633.04 2087.0
-648.58 -632.36 2084.7
-647.57 -636.69 2099.0
-631.32 -625.97 2063.6
-614.68 -614.68 2026.4
-618.68 -624.01 2057.2
-624.17 -635.03 2093.5
-615.89 -632.09 2083.8
-609.80 -631.38 2081.5
-611.48 -638.78 2105.9
-610.39 -643.39 2121.1
-597.90 -635.95 2096.5
-585.27 -628.23 2071.1
-578.45 -626.65 2065.9
-559.59 -611.89 2017.2
-545.27 -607.58 2003.0
-548.14 -616.66 2033.0
-549.14 -623.78 2056.4
-540.70 -620.21 2044.7
-538.63 -623.95 2057.0
-536.49 -627.70 2069.3
-516.89 -610.87 2013.8
-508.89 -607.55 2002.9
-516.61 -623.13 2054.3
-512.73 -624.89 2060.1
-498.27 -613.66 2023.1
-494.43 -615.41 2028.8
-497.76 -626.21 2064.4
-492.45 -626.27 2064.6
-480.97 -618.39 2038.7
-476.37 -619.29 2041.6
-472.62 -621.31 2048.3
-458.60 -609.72 2010.1
-458.68 -616.85 2033.6
-470.33 -639.87 2109.5
-473.97 -652.41 2150.8
-465.77 -648.75 2138.8
-448.96 -632.87 2086.4
-442.77 -631.76 2082.7
-441.72 -638.04 2103.4
-419.34 -613.29 2021.8
-415.51 -623.26 2054.7
-413.37 -628.11 2070.7
-414.12 -637.53 2101.7
-414.16 -646.09 2130.0
-410.44 -648.94 2139.4
-411.31 -659.23 2173.3
-393.90 -640.08 2110.2
-379.92 -626.06 2063.9
-826.44 -629.16 2056.6
-806.81 -618.21 2020.8
-785.21 -605.59 1979.5
-764.50 -593.49 1940.0
-771.31 -602.74 1970.2
-787.04 -619.14 2023.8
-774.11 -613.05 2003.9
-752.31 -599.81 1960.6
-750.56 -602.49 1969.4
-756.60 -611.50 1998.8
-760.13 -618.59 2022.0
-755.82 -619.35 2024.5
-744.81 -614.60 2009.0
-741.50 -616.18 2014.1
-743.45 -622.18 2033.8
-739.73 -623.49 2038.0
-733.71 -622.86 2036.0
-733.19 -626.93 2049.3
-725.54 -624.91 2042.7
-717.27 -622.34 2034.3
-717.29 -626.96 2049.4
-711.87 -626.87 2049.1
-700.51 -621.50 2031.5
-688.60 -615.57 2012.1
-681.41 -613.79 2006.3
-680.38 -617.58 2018.7
-679.59 -621.64 2032.0
-674.81 -622.09 2033.5
-665.21 -618.07 2020.3
-661.63 -619.62 2025.4
-656.55 -619.78 2025.9
-649.40 -617.98 2020.0
-647.53 -621.20 2030.6
-648.21 -626.95 2049.4
-643.33 -627.38 2050.8
-637.31 -626.69 2048.5
-649.69 -644.23 2105.8
-647.19 -647.19 2115.5
-620.12 -625.42 2044.4
-613.29 -623.87 2039.3
-616.08 -632.15 2066.4
-605.41 -626.65 2048.4
-603.45 -630.16 2059.8
-607.86 -640.43 2093.4
-606.80 -645.07 2108.6
-594.35 -637.57 2084.1
-582.53 -630.63 2061.4
-576.51 -629.89 2059.0
-565.37 -623.49 2038.0
-557.89 -621.04 2030.0
-562.53 -632.18 2066.4
-570.24 -647.01 2114.9
-563.61 -645.69 2110.6
-547.44 -633.31 2070.1
-533.89 -623.75 2038.9
-520.01 -613.61 2005.7
-512.48 -610.84 1996.7
-516.09 -621.42 2031.3
-515.09 -626.61 2048.2
-502.20 -617.28 2017.8
-500.22 -621.33 2031.0
-509.07 -639.05 2088.9
-508.20 -644.81 2107.7
-498.34 -639.17 2089.3
-495.17 -642.08 2098.8
-498.69 -653.84 2137.3
-485.87 -644.19 2105.7
-462.97 -620.80 2029.2
-457.73 -620.83 2029.4
-464.17 -636.88 2081.8
-466.84 -648.08 2118.4
