ply
format ascii 1.0
element vertex 2258
property float x
property float y
property float z
end_header
8.71 605.16 1679.3
12.83 594.64 1650.1
17.92 622.76 1728.1
23.18 644.44 1788.3
27.57 638.66 1772.2
31.96 634.57 1760.9
36.27 630.13 1748.6
40.60 627.05 1740.0
45.89 637.86 1770.0
51.98 656.80 1822.6
-293.60 653.49 1826.5
-282.93 640.06 1789.0
-277.66 638.62 1785.0
-275.84 645.18 1803.3
-272.66 648.74 1813.2
-267.49 647.62 1810.1
-259.64 639.82 1788.3
-248.43 623.34 1742.2
-239.42 611.85 1710.1
-235.57 613.37 1714.4
-234.72 622.92 1741.1
-233.12 630.80 1763.1
-226.44 624.97 1746.8
-219.24 617.45 1725.8
-211.80 608.93 1702.0
-200.95 590.03 1649.1
-195.50 586.50 1639.3
-192.50 590.34 1650.0
-186.89 586.15 1638.3
-186.55 598.69 1673.4
-183.48 602.86 1685.0
-176.57 594.30 1661.1
-171.62 592.09 1654.9
-166.99 590.89 1651.5
-165.98 602.76 1684.7
-156.52 583.77 1631.7
-142.17 544.97 1523.2
-139.69 550.79 1539.5
-146.48 594.55 1661.8
-140.41 605.53 1692.5
-130.39 580.45 1622.4
-126.43 581.56 1625.5
-121.88 579.98 1621.1
-115.65 570.00 1593.2
-109.89 561.69 1569.9
-103.56 549.67 1536.3
-98.62 544.37 1521.5
-97.96 563.29 1574.4
-93.00 557.98 1559.6
-79.05 545.41 1524.4
-76.35 554.56 1550.0
-76.42 585.92 1637.7
-75.46 612.57 1712.2
-68.26 588.73 1645.5
-61.80 568.59 1589.2
-59.50 586.48 1639.2
-56.46 599.32 1675.1
-51.53 592.63 1656.4
-46.44 582.57 1628.3
-42.36 584.63 1634.0
-39.38 603.86 1687.8
-35.55 613.32 1714.2
-31.01 611.32 1708.7
-26.10 600.23 1677.7
-21.35 589.14 1646.7
-16.96 585.11 1635.4
-12.54 577.04 1612.8
-8.47 584.46 1633.6
-4.31 594.23 1660.9
0.00 597.26 1669.4
4.45 614.11 1716.4
8.86 611.07 1708.0
12.84 590.85 1651.4
17.58 606.67 1695.7
22.57 622.82 1740.8
26.68 613.71 1715.3
31.47 620.42 1734.1
36.37 627.46 1753.8
40.19 616.32 1722.6
44.85 618.98 1730.1
50.95 639.14 1786.4
56.89 654.25 1828.7
-299.07 650.36 1831.0
-285.75 631.41 1777.7
-277.41 623.02 1754.1
-274.98 627.88 1767.8
-275.63 640.03 1801.9
-266.56 629.64 1772.7
-255.85 614.93 1731.3
-249.55 610.50 1718.8
-240.64 599.42 1687.6
-232.16 588.99 1658.3
-227.93 589.17 1658.8
-223.95 590.02 1661.2
-219.59 589.87 1660.7
-215.10 589.38 1659.4
-210.15 587.55 1654.2
-201.37 574.76 1618.2
-189.59 552.64 1555.9
-185.39 552.13 1554.5
-183.26 557.93 1570.8
-181.16 564.07 1588.1
-183.98 586.18 1650.4
-184.34 601.31 1692.9
-180.40 602.79 1697.1
-173.51 594.27 1673.1
-166.94 586.42 1651.0
-159.64 575.55 1620.4
-145.03 537.01 1511.9
-137.42 537.91 1514.4
-140.72 567.04 1596.5
-140.39 582.83 1640.9
-136.16 582.94 1641.2
-130.80 578.04 1627.4
-127.92 584.16 1644.7
-124.52 588.27 1656.2
-117.52 575.01 1618.9
-111.04 563.41 1586.3
-107.89 568.51 1600.6
-105.83 579.96 1632.8
-99.15 566.01 1593.6
-88.87 529.33 1490.3
-85.62 558.55 1572.6
-83.45 571.65 1609.5
-79.75 575.06 1619.1
-75.61 575.46 1620.2
-70.54 568.50 1600.6
-66.79 571.90 1610.1
-63.28 577.97 1627.2
-59.61 583.38 1642.5
-55.33 583.09 1641.6
-50.87 580.79 1635.2
-46.29 576.48 1623.0
-42.20 578.19 1627.9
-39.15 595.96 1677.9
-34.33 587.96 1655.3
-29.09 569.24 1602.7
-26.00 593.69 1671.5
-22.66 620.82 1747.9
-17.87 612.14 1723.4
-13.13 599.43 1687.7
-8.58 587.39 1653.8
-4.22 578.02 1627.4
0.00 561.96 1582.2
4.08 559.28 1574.6
8.48 580.70 1634.9
12.85 586.71 1651.9
17.03 583.35 1642.4
21.16 579.66 1632.0
25.28 577.30 1625.3
30.20 590.99 1663.9
34.94 598.33 1684.6
38.60 587.59 1654.3
43.18 591.57 1665.5
49.13 611.95 1722.9
54.04 616.92 1736.9
58.57 617.21 1737.7
64.81 634.22 1785.6
71.74 655.24 1844.8
-293.28 623.22 1767.5
-286.52 618.52 1754.2
-283.43 621.71 1763.2
-274.82 612.72 1737.8
-272.30 617.22 1750.5
-266.86 615.13 1744.6
-251.61 589.99 1673.3
-246.81 588.87 1670.1
-246.35 598.29 1696.8
-238.30 589.26 1671.2
-230.51 580.54 1646.5
-225.54 578.75 1641.4
-220.85 577.61 1638.2
-222.36 592.96 1681.7
-223.53 607.99 1724.3
-211.15 586.05 1662.1
-195.94 555.17 1574.5
-190.32 550.70 1561.9
-191.57 566.38 1606.3
-191.39 578.43 1640.5
-190.72 589.50 1671.9
-188.21 595.27 1688.3
-183.98 595.75 1689.6
-179.15 594.24 1685.3
-171.12 581.81 1650.1
-161.19 562.08 1594.1
-150.98 540.36 1532.5
-146.59 538.82 1528.2
-146.17 552.19 1566.1
-142.05 551.97 1565.5
-139.68 558.71 1584.6
-139.38 574.40 1629.1
-135.41 575.51 1632.2
-130.83 573.96 1627.8
-128.75 583.68 1655.4
-124.70 584.78 1658.5
-117.14 568.95 1613.6
-109.48 551.46 1564.0
-105.25 550.55 1561.4
-104.27 567.23 1608.7
-98.83 560.01 1588.3
-91.41 540.50 1532.9
-89.65 554.19 1571.8
-86.76 561.90 1593.6
-81.08 551.34 1563.7
-77.92 557.71 1581.7
-74.09 559.77 1587.6
-69.15 553.18 1568.9
-65.40 555.89 1576.6
-61.65 558.94 1585.2
-57.68 560.31 1589.1
-54.61 571.33 1620.4
-51.29 581.34 1648.8
-46.84 579.05 1642.3
-42.92 583.74 1655.6
-38.43 580.79 1647.2
-32.56 553.55 1570.0
-27.88 541.61 1536.1
-25.23 571.89 1621.9
-21.84 594.18 1685.2
-17.12 582.23 1651.3
-12.87 583.57 1655.1
-8.62 586.24 1662.7
-4.32 587.24 1665.5
0.00 581.59 1649.5
4.21 572.28 1623.1
8.64 587.57 1666.4
12.94 586.56 1663.6
16.95 576.24 1634.3
21.18 576.23 1634.3
25.46 577.21 1637.0
29.64 575.85 1633.2
33.42 568.18 1611.4
37.95 573.47 1626.4
43.61 593.05 1682.0
48.61 600.99 1704.5
52.29 592.64 1680.8
56.87 594.92 1687.3
63.29 614.82 1743.7
68.50 621.08 1761.5
72.71 618.03 1752.8
81.48 651.86 1848.8
-289.64 610.97 1745.6
-279.59 599.12 1711.8
-278.40 606.19 1732.0
-270.76 599.22 1712.1
-261.91 589.30 1683.7
-250.21 572.51 1635.7
-239.87 558.31 1595.2
-240.37 569.30 1626.6
-242.88 585.52 1672.9
-237.02 581.79 1662.2
-224.93 562.32 1606.6
-216.07 550.38 1572.5
-216.10 561.04 1603.0
-221.42 586.12 1674.6
-226.62 611.87 1748.2
-218.34 601.55 1718.7
-205.78 578.76 1653.6
-202.81 582.53 1664.4
-199.67 585.97 1674.2
-194.61 583.83 1668.1
-188.30 577.75 1650.7
-181.04 568.37 1623.9
-179.84 578.04 1651.5
-177.79 585.42 1672.6
-169.41 571.75 1633.6
-158.94 550.18 1571.9
-154.53 548.99 1568.5
-155.73 568.19 1623.4
-155.76 584.11 1668.9
-151.64 584.89 1671.1
-142.78 566.90 1619.7
-136.67 559.11 1597.5
-134.27 566.47 1618.5
-131.01 570.53 1630.1
-129.52 582.82 1665.2
-126.07 586.88 1676.8
-120.72 582.03 1663.0
-115.17 575.87 1645.3
-107.50 558.15 1594.7
-103.50 558.90 1596.9
-99.96 562.28 1606.5
-94.12 552.46 1578.5
-88.75 544.62 1556.1
-82.68 531.49 1518.6
-78.36 528.92 1511.2
-76.49 543.50 1552.9
-75.03 562.70 1607.7
-72.32 574.31 1640.9
-66.51 561.17 1603.3
-60.85 547.68 1564.8
-58.38 562.92 1608.3
-56.60 587.73 1679.2
-52.83 594.37 1698.2
-47.92 588.14 1680.4
-43.01 580.58 1658.8
-37.67 565.09 1614.6
-33.08 558.19 1594.8
-29.44 567.79 1622.3
-25.50 573.76 1639.3
-21.13 570.47 1629.9
-16.43 554.63 1584.7
-12.24 551.01 1574.3
-8.38 565.55 1615.9
-4.29 579.43 1655.5
0.00 596.94 1705.6
4.53 611.15 1746.1
9.09 613.45 1752.7
13.30 598.58 1710.2
17.14 578.42 1652.6
21.06 568.49 1624.3
24.75 556.91 1591.2
32.78 553.23 1580.7
38.51 577.64 1650.4
43.30 584.55 1670.1
47.30 580.55 1658.7
51.54 579.85 1656.7
56.82 590.04 1685.8
63.34 610.79 1745.1
68.70 618.33 1766.7
72.49 611.67 1747.6
-310.67 630.76 1815.6
-304.35 627.43 1806.0
-286.31 599.46 1725.5
-261.36 555.90 1600.1
-253.83 557.60 1605.0
-258.63 577.61 1662.6
-245.11 556.70 1602.4
-233.45 539.34 1552.5
-236.97 557.08 1603.5
-242.40 580.02 1669.6
-241.75 588.99 1695.4
-234.55 582.02 1675.3
-220.11 556.50 1601.9
-215.14 554.39 1595.8
-212.92 559.45 1610.3
-210.51 564.17 1624.0
-211.72 579.00 1666.6
-208.51 582.10 1675.6
-201.71 575.09 1655.4
-194.90 567.75 1634.2
-189.07 563.01 1620.6
-182.24 555.00 1597.5
-176.99 551.55 1587.6
-177.73 567.04 1632.2
-174.94 571.75 1645.8
-165.74 555.23 1598.2
-158.59 544.90 1568.5
-157.34 554.83 1597.1
-155.58 563.45 1621.9
-152.73 568.48 1636.3
-151.59 580.37 1670.6
-145.55 573.62 1651.1
-138.39 561.96 1617.6
-135.01 565.34 1627.3
-130.74 565.12 1626.7
-128.37 573.40 1650.5
-124.40 574.81 1654.6
-118.63 567.71 1634.1
-116.59 578.61 1665.5
-112.48 579.68 1668.6
-104.32 559.14 1609.5
-96.93 541.20 1557.8
-90.99 530.14 1526.0
-85.49 520.70 1498.8
-81.92 522.74 1504.7
-79.89 535.26 1540.7
-76.18 537.29 1546.6
-73.15 544.56 1567.5
-72.05 567.89 1634.7
-67.97 569.26 1638.6
-61.86 552.59 1590.6
-58.94 564.12 1623.8
-56.51 582.53 1676.8
-52.08 581.59 1674.1
-47.05 573.10 1649.7
-42.04 563.30 1621.4
-37.77 562.34 1618.7
-34.02 569.92 1640.5
-29.62 566.99 1632.1
-25.12 561.11 1615.1
-20.99 562.44 1619.0
-16.49 552.28 1589.7
-12.32 550.32 1584.1
-8.43 564.77 1625.7
-4.22 566.09 1629.5
0.00 570.36 1641.7
4.36 584.14 1681.4
8.76 586.76 1689.0
12.95 578.22 1664.4
16.84 564.09 1623.7
20.70 554.89 1597.2
24.37 544.37 1567.0
33.75 565.32 1627.3
39.77 592.20 1704.6
45.00 602.99 1735.7
49.28 600.33 1728.0
53.85 601.27 1730.7
56.96 587.12 1690.0
60.86 582.48 1676.7
68.91 615.56 1771.9
75.72 634.19 1825.5
80.95 638.06 1836.6
85.79 638.65 1838.3
90.92 641.20 1845.7
-307.08 609.57 1767.8
-301.81 608.20 1763.8
-304.43 622.92 1806.5
-279.87 581.61 1686.7
-255.34 566.01 1641.5
-251.03 565.88 1641.1
-234.90 538.65 1562.1
-234.11 546.25 1584.2
-239.19 568.07 1647.5
-238.33 576.34 1671.4
-238.80 588.15 1705.7
-232.39 583.17 1691.2
-215.43 551.01 1598.0
-202.55 528.21 1531.9
-201.19 535.17 1552.0
-203.54 552.48 1602.2
-202.60 561.38 1628.1
-197.98 560.24 1624.8
-192.03 555.21 1610.2
-187.03 552.77 1603.1
-183.99 556.16 1612.9
-182.27 563.76 1635.0
-179.71 569.09 1650.4
-173.58 563.07 1632.9
-166.07 552.17 1601.4
-160.53 547.43 1587.6
-158.11 553.40 1604.9
-155.34 558.39 1619.4
-151.88 561.11 1627.3
-149.91 569.68 1652.1
-145.16 567.84 1646.8
-139.23 561.13 1627.4
-136.21 566.12 1641.8
-132.51 568.50 1648.7
-125.62 556.90 1615.1
-117.48 538.79 1562.5
-113.79 540.51 1567.5
-114.17 562.39 1631.0
-110.34 564.43 1636.9
-102.38 544.67 1579.6
-98.12 543.77 1577.0
-95.23 550.68 1597.0
-88.52 535.13 1551.9
-83.89 531.30 1540.8
-79.76 530.38 1538.2
-74.06 518.40 1503.4
-71.84 530.83 1539.5
-71.56 559.87 1623.7
-68.34 568.07 1647.5
-63.30 561.28 1627.8
-59.40 564.27 1636.4
-55.99 572.78 1661.1
-52.07 577.06 1673.5
-47.46 573.84 1664.2
-42.36 563.45 1634.1
-38.02 561.85 1629.4
-33.23 552.43 1602.1
-28.05 532.90 1545.5
-16.29 541.75 1571.1
-12.83 568.82 1649.6
-8.73 580.24 1682.8
-4.34 577.31 1674.3
0.00 569.49 1651.6
4.29 570.46 1654.4
8.73 580.24 1682.8
13.06 578.92 1678.9
17.05 566.85 1643.9
21.00 558.69 1620.3
25.32 561.28 1627.8
30.16 572.99 1661.7
34.25 569.38 1651.3
38.42 567.72 1646.4
44.06 585.94 1699.3
48.92 591.44 1715.2
54.51 604.11 1752.0
58.82 601.78 1745.2
61.69 586.09 1699.7
68.45 606.89 1760.0
73.75 613.02 1777.8
77.14 603.52 1750.3
84.18 622.02 1803.9
92.06 644.42 1868.9
-299.21 589.48 1722.5
-302.05 604.09 1765.2
-291.57 601.35 1757.2
-271.69 569.26 1663.4
-265.37 564.99 1650.9
-260.45 563.59 1646.9
-263.55 579.81 1694.2
-259.68 580.97 1697.6
-244.10 555.53 1623.3
-228.48 529.10 1546.1
-221.41 531.38 1552.7
-224.54 548.88 1603.9
-227.03 565.43 1652.2
-218.26 554.04 1619.0
-208.05 538.47 1573.4
-209.75 553.74 1618.1
-208.36 561.29 1640.1
-203.35 559.20 1634.0
-197.91 555.82 1624.2
-191.28 548.90 1603.9
-180.26 528.77 1545.1
-178.63 548.37 1602.4
-184.16 578.78 1691.2
-175.81 566.04 1654.0
-166.49 549.42 1605.4
-162.08 548.58 1603.0
-160.84 558.70 1632.6
-155.19 553.67 1617.9
-149.01 546.37 1596.5
-144.82 546.16 1595.9
-138.05 535.95 1566.1
-130.95 523.79 1530.6
-126.85 523.25 1529.0
-126.17 537.23 1569.8
-122.19 537.65 1571.1
-116.15 528.70 1544.9
-114.63 540.42 1579.2
-112.34 549.23 1604.9
-106.23 539.30 1575.9
-102.10 539.06 1575.2
-101.14 556.27 1625.5
-98.97 567.99 1659.7
-92.74 556.43 1625.9
-88.02 553.27 1616.7
-83.84 553.33 1616.9
-76.35 530.43 1550.0
-72.47 531.46 1553.0
-71.16 552.55 1614.6
-67.02 552.93 1615.7
-62.40 549.09 1604.5
-59.00 556.26 1625.4
-55.87 567.31 1657.7
-52.11 573.18 1674.9
-47.98 575.81 1682.6
-43.31 571.64 1670.4
-38.12 559.04 1633.6
-32.63 538.35 1573.1
-27.85 525.10 1534.4
-23.80 523.51 1529.7
-19.95 526.76 1539.2
-16.63 548.79 1603.6
-12.83 564.35 1649.1
-8.55 564.35 1649.1
-4.26 562.42 1643.4
0.00 554.32 1619.8
4.20 554.32 1619.8
8.53 562.73 1644.4
12.78 562.40 1643.4
16.71 551.38 1611.2
21.23 560.43 1637.6
26.40 580.81 1697.2
30.63 577.55 1687.6
33.86 558.75 1632.7
37.52 550.30 1608.0
42.32 558.69 1632.5
47.09 565.13 1651.3
52.64 579.00 1691.9
58.87 597.73 1746.6
64.11 604.48 1766.3
69.60 612.51 1789.8
73.41 605.66 1769.8
75.83 588.78 1720.5
81.60 598.42 1748.6
90.41 628.11 1835.4
98.39 649.38 1897.5
-324.37 624.88 1839.9
-307.88 601.97 1772.4
-299.56 594.58 1750.7
-297.66 599.89 1766.3
-296.29 606.47 1785.7
-292.08 607.33 1788.2
-286.34 605.02 1781.4
-281.53 604.60 1780.2
-277.31 605.45 1782.7
-266.76 592.30 1743.9
-251.33 567.67 1671.4
-235.58 541.43 1594.2
-223.22 522.17 1537.5
-222.38 529.67 1559.6
-222.35 539.41 1588.2
-221.66 547.87 1613.1
-221.60 558.25 1643.7
-219.39 563.53 1659.2
-210.76 552.20 1625.9
-199.44 533.21 1570.0
-202.22 551.89 1625.0
-204.59 570.25 1679.0
-196.37 559.23 1646.6
-183.81 535.08 1575.5
-170.90 520.65 1533.0
-177.12 552.45 1626.6
-170.24 543.95 1601.6
-165.64 542.48 1597.3
-165.45 555.74 1636.3
-163.38 563.23 1658.4
-157.13 556.31 1638.0
-148.60 540.73 1592.1
-142.53 533.48 1570.8
-136.08 524.30 1543.7
-129.11 512.54 1509.1
-128.98 528.03 1554.7
-132.03 557.95 1642.8
-125.45 547.79 1612.9
-116.81 527.68 1553.7
-114.25 534.51 1573.8
-111.04 538.76 1586.3
-104.40 526.01 1548.8
-99.60 521.92 1536.7
-97.87 534.20 1572.9
-94.87 540.37 1591.1
-90.55 539.16 1587.5
-87.37 545.01 1604.7
-83.51 547.01 1610.6
-76.22 525.55 1547.4
-72.00 524.00 1542.9
-70.47 543.01 1598.8
-67.11 549.49 1617.9
-63.22 552.11 1625.6
-58.77 549.91 1619.2
-54.70 551.24 1623.1
-50.50 551.28 1623.2
-46.02 548.11 1613.8
-42.06 551.04 1622.5
-37.51 545.92 1607.4
-33.69 551.74 1624.5
-30.22 565.59 1665.3
-25.39 554.36 1632.2
-20.93 548.27 1614.3
-17.22 564.04 1660.7
-13.09 571.45 1682.6
-8.61 564.06 1660.8
-4.23 554.42 1632.4
0.00 542.20 1596.4
4.11 538.66 1586.0
8.43 552.16 1625.8
12.77 557.62 1641.8
16.75 548.60 1615.3
21.29 557.91 1642.7
27.10 591.66 1742.1
32.20 602.57 1774.2
34.95 572.32 1685.1
37.90 551.71 1624.4
43.02 563.57 1659.4
48.10 572.86 1686.7
52.15 569.29 1676.2
56.62 570.53 1679.9
63.44 593.62 1747.9
70.65 617.03 1816.8
75.98 622.12 1831.7
80.14 617.56 1818.3
84.32 613.63 1806.8
90.95 627.06 1846.3
-318.35 608.62 1805.8
-299.67 581.44 1725.2
-288.91 569.06 1688.4
-293.00 585.99 1738.7
-297.30 603.88 1791.7
-292.61 603.79 1791.5
-286.41 600.54 1781.8
-271.37 578.33 1715.9
-257.69 558.32 1656.6
-254.91 561.68 1666.5
-247.15 553.97 1643.6
-241.59 550.99 1634.8
-238.93 554.66 1645.7
-231.93 548.19 1626.5
-226.47 545.20 1617.6
-220.54 540.94 1605.0
-215.43 538.58 1598.0
-215.58 549.52 1630.4
-209.10 543.66 1613.1
-194.34 515.60 1529.8
-193.94 525.26 1558.5
-204.06 564.44 1674.7
-203.71 575.70 1708.1
-193.07 557.76 1654.9
-180.02 531.87 1578.1
-173.35 524.07 1554.9
-172.13 532.78 1580.8
-167.17 530.05 1572.7
-164.40 534.31 1585.3
-165.48 551.61 1636.6
-164.44 562.55 1669.1
-159.60 560.76 1663.8
-152.41 550.39 1633.0
-149.24 554.32 1644.7
-145.76 557.30 1653.5
-137.70 542.45 1609.5
-136.30 553.70 1642.9
-136.54 572.60 1698.9
-127.24 551.36 1635.9
-117.97 528.84 1569.1
-114.82 533.07 1581.6
-113.65 547.18 1623.5
-108.88 544.40 1615.3
-100.66 523.44 1553.1
-95.77 518.74 1539.1
-94.27 532.84 1581.0
-91.26 539.29 1600.1
-85.48 529.16 1570.0
-79.21 514.87 1527.6
-74.93 512.69 1521.2
-73.51 530.94 1575.3
-71.77 548.86 1628.5
-68.23 554.34 1644.8
-62.97 545.78 1619.3
-57.37 532.74 1580.7
-53.73 537.25 1594.0
-49.95 541.12 1605.5
-45.44 537.01 1593.3
-41.46 538.96 1599.1
-36.81 531.65 1577.4
-32.91 534.87 1587.0
-29.68 551.18 1635.4
-25.09 543.53 1612.7
-20.66 537.16 1593.8
-17.01 552.83 1640.3
-12.77 553.48 1642.2
-8.30 539.75 1601.5
-4.18 543.91 1613.8
0.00 546.79 1622.3
4.23 549.34 1629.9
8.76 569.14 1688.6
13.08 566.89 1682.0
16.90 549.32 1629.8
20.73 539.08 1599.5
25.47 551.84 1637.3
31.11 577.68 1714.0
34.72 564.24 1674.1
37.69 544.42 1615.3
42.71 555.24 1647.4
47.98 567.02 1682.4
52.28 566.34 1680.4
56.82 568.22 1685.9
63.70 591.47 1754.9
69.16 599.40 1778.4
72.23 586.90 1741.3
80.12 612.68 1817.9
88.71 640.70 1901.0
93.16 637.44 1891.3
104.97 620.30 1840.4
107.53 607.78 1803.3
-321.89 610.65 1825.9
-314.52 605.57 1810.7
-294.73 576.07 1722.5
-290.06 575.66 1721.3
-286.95 578.39 1729.4
-276.30 565.76 1691.6
-274.58 571.29 1708.2
-263.72 557.70 1667.5
-249.27 535.94 1602.5
-245.49 536.75 1604.9
-240.57 535.05 1599.8
-237.47 537.44 1607.0
-238.70 549.87 1644.1
-235.46 552.25 1651.3
-230.46 550.54 1646.1
-224.97 547.57 1637.3
-220.29 546.49 1634.0
-220.72 558.30 1669.3
-218.17 562.87 1683.0
-207.65 546.66 1634.5
-196.67 528.55 1580.4
-196.19 538.47 1610.0
-199.60 559.74 1673.6
-193.00 553.27 1654.3
-185.32 543.32 1624.6
-183.15 549.46 1642.9
-174.42 535.72 1601.8
-162.89 512.50 1532.4
-165.12 532.51 1592.2
-171.05 565.78 1691.7
-165.59 562.13 1680.8
-156.55 545.83 1632.0
-150.42 538.99 1611.6
-148.33 546.69 1634.6
-146.70 556.61 1664.3
-140.39 548.81 1641.0
-133.42 537.85 1608.2
-128.59 535.11 1600.0
-122.63 527.30 1576.6
-116.64 518.85 1551.4
-114.29 526.53 1574.4
-114.07 544.98 1629.5
-110.81 549.81 1644.0
-103.81 535.65 1601.6
-98.49 529.40 1582.9
-96.55 541.51 1619.1
-94.20 552.35 1651.5
-88.90 546.08 1632.8
-82.46 531.90 1590.4
-78.07 530.06 1584.9
-74.19 531.70 1589.8
-70.12 532.07 1590.9
-66.55 536.56 1604.3
-61.40 528.06 1578.9
-56.69 522.40 1562.0
-53.86 534.49 1598.1
-49.93 536.75 1604.9
-45.37 532.03 1590.8
-41.29 532.69 1592.8
-36.55 523.85 1566.3
-24.31 522.65 1562.7
-21.02 542.33 1621.6
-16.93 545.83 1632.1
-12.44 534.74 1598.9
-8.36 539.19 1612.2
-4.35 561.08 1677.7
0.00 558.86 1671.0
4.31 556.32 1663.4
8.79 566.79 1694.7
12.92 555.36 1660.5
17.03 549.32 1642.5
21.35 550.89 1647.2
25.52 548.65 1640.5
30.46 561.32 1678.4
33.98 547.97 1638.5
36.88 528.60 1580.5
42.06 542.52 1622.2
47.53 557.39 1666.6
52.47 564.01 1686.4
57.92 574.75 1718.5
62.40 575.02 1719.3
64.90 558.17 1668.9
69.03 556.53 1664.0
78.09 592.60 1771.9
86.88 622.64 1861.7
91.65 622.25 1860.6
97.10 626.30 1872.7
101.63 624.32 1866.7
106.73 625.82 1871.2
-329.25 610.79 1840.5
-318.01 598.61 1803.8
-318.18 607.86 1831.7
-305.05 591.62 1782.8
-295.50 581.90 1753.5
-287.79 575.59 1734.5
-269.16 546.86 1647.9
-259.55 535.85 1614.7
-260.95 547.57 1650.0
-257.79 549.95 1657.2
-255.30 553.88 1669.1
-250.78 553.45 1667.8
-235.99 529.93 1596.9
-226.19 517.01 1557.9
-229.06 533.10 1606.4
-230.24 545.76 1644.6
-227.86 550.30 1658.3
-225.92 556.10 1675.7
-220.77 554.08 1669.7
-213.57 546.75 1647.6
-208.88 545.66 1644.3
-203.39 542.37 1634.4
-199.67 543.78 1638.6
-199.75 555.82 1674.9
-187.43 533.12 1606.5
-174.48 507.59 1529.6
-177.61 528.70 1593.2
-174.35 531.35 1601.2
-164.92 514.87 1551.5
-169.65 542.89 1635.9
-172.90 567.47 1710.0
-164.60 554.43 1670.7
-155.68 538.56 1622.9
-149.65 532.09 1603.4
-143.47 524.67 1581.0
-137.98 519.45 1565.3
-136.94 531.17 1600.6
-135.09 540.38 1628.4
-129.83 536.08 1615.4
-123.16 525.50 1583.5
-116.73 515.23 1552.6
-114.10 521.60 1571.8
-114.09 540.86 1629.8
-111.28 547.86 1650.9
-104.99 537.57 1619.9
-100.16 534.19 1609.7
-97.64 543.38 1637.4
-94.60 550.38 1658.5
-89.69 546.67 1647.3
-83.66 535.42 1613.4
-79.77 537.37 1619.3
-76.24 542.15 1633.7
-69.84 525.84 1584.6
-64.12 512.99 1545.8
-60.31 514.61 1550.7
-56.81 519.38 1565.1
-53.78 529.50 1595.6
-49.64 529.54 1595.7
-45.40 528.31 1592.0
-41.57 532.12 1603.5
-38.01 540.66 1629.2
-33.83 541.31 1631.2
-28.67 524.33 1580.0
-24.73 527.50 1589.6
-21.15 541.38 1631.4
-16.87 539.82 1626.7
-12.64 539.52 1625.8
-8.65 553.70 1668.5
-4.43 566.61 1707.4
0.00 556.54 1677.1
4.22 539.53 1625.8
8.33 533.22 1606.8
12.98 553.69 1668.5
18.16 581.08 1751.0
22.67 580.43 1749.1
27.01 576.32 1736.7
32.02 585.43 1764.1
35.56 569.03 1714.7
38.70 550.42 1658.6
44.20 565.82 1705.0
49.35 574.28 1730.5
53.86 574.56 1731.4
57.07 561.92 1693.3
58.87 538.27 1622.0
63.52 542.00 1633.2
70.30 562.40 1694.7
76.40 575.25 1733.4
81.73 581.17 1751.3
86.77 584.56 1761.5
92.60 592.67 1786.0
102.13 622.48 1875.8
-322.47 593.52 1802.6
-312.14 582.97 1770.5
-314.18 595.54 1808.7
-303.68 584.35 1774.8
-296.03 578.40 1756.7
-294.55 584.50 1775.2
-281.62 567.72 1724.2
-262.92 538.56 1635.7
-255.50 531.95 1615.6
-252.57 534.62 1623.7
-250.03 538.21 1634.6
-250.26 547.99 1664.3
-239.64 533.93 1621.6
-229.09 519.55 1577.9
-230.58 532.43 1617.1
-230.02 540.97 1643.0
-226.61 543.01 1649.2
-223.55 545.97 1658.2
-217.45 541.48 1644.5
-212.51 539.78 1639.4
-210.12 544.60 1654.0
-209.18 553.45 1680.9
-209.71 566.66 1721.0
-203.28 561.22 1704.5
-184.93 521.90 1585.1
-171.22 505.69 1535.8
-176.64 534.13 1622.2
-175.79 544.53 1653.8
-170.27 540.62 1641.9
-163.86 533.59 1620.6
-156.80 524.06 1591.6
-148.36 509.23 1546.6
-146.32 516.19 1567.7
-143.83 521.91 1585.1
-137.50 513.60 1559.9
-135.59 521.81 1584.8
-137.48 545.61 1657.1
-135.72 556.00 1688.6
-129.37 547.68 1663.4
-123.02 538.73 1636.2
-113.64 515.43 1565.4
-107.34 504.90 1533.5
-108.24 528.70 1605.7
-105.75 537.21 1631.6
-101.71 538.23 1634.7
-99.86 551.42 1674.7
-94.56 545.87 1657.9
-87.69 530.33 1610.7
-84.46 536.33 1628.9
-83.15 555.76 1687.9
-77.98 550.20 1671.0
-70.10 523.70 1590.5
-64.29 510.31 1549.9
-60.39 511.30 1552.9
-55.68 505.09 1534.0
-51.55 503.57 1529.4
-49.95 528.62 1605.5
-47.96 553.66 1681.5
-42.24 536.50 1629.4
-37.16 524.34 1592.5
-33.62 533.75 1621.1
-28.97 525.64 1596.4
-24.97 528.48 1605.1
-21.37 542.88 1648.8
-17.11 543.21 1649.8
-12.85 544.16 1652.7
-8.54 542.29 1647.0
-4.26 540.42 1641.3
0.00 545.11 1655.6
4.27 542.61 1648.0
8.41 534.16 1622.3
13.05 552.60 1678.3
18.13 575.73 1748.6
22.56 572.90 1740.0
26.16 553.81 1682.0
30.11 546.28 1659.1
35.73 567.21 1722.7
41.50 585.62 1778.6
54.56 577.38 1753.6
54.87 536.08 1628.1
57.85 524.78 1593.8
63.93 541.30 1644.0
69.37 550.63 1672.3
73.87 551.82 1675.9
79.80 563.01 1709.9
85.58 572.01 1737.3
91.89 583.50 1772.1
102.26 618.40 1878.2
-312.14 570.00 1744.9
-305.27 565.64 1731.6
-309.69 582.41 1782.9
-301.98 576.51 1764.8
-286.92 556.19 1702.6
-279.03 549.35 1681.7
-276.31 552.62 1691.7
-267.50 543.62 1664.1
-258.07 533.07 1631.8
-252.91 531.11 1625.9
-252.38 538.98 1649.9
-254.70 553.31 1693.8
-247.47 547.04 1674.6
-239.66 539.23 1650.7
-235.86 540.33 1654.1
-229.67 535.89 1640.5
-226.13 537.60 1645.7
-223.72 542.08 1659.4
-215.37 532.08 1628.8
-208.03 524.23 1604.8
-207.28 533.01 1631.7
-208.16 546.43 1672.7
-204.92 549.36 1681.7
-194.98 534.09 1635.0
-187.71 525.59 1609.0
-182.94 523.88 1603.7
-179.57 526.18 1610.7
-180.17 540.52 1654.7
-179.45 551.47 1688.2
-173.93 547.89 1677.2
-163.03 526.70 1612.3
-151.70 503.01 1539.8
-145.93 496.94 1521.3
-146.52 512.83 1569.9
-144.46 520.05 1592.0
-138.61 513.66 1572.4
-136.18 519.95 1591.7
-137.58 541.73 1658.3
-135.44 550.50 1685.2
-128.96 541.62 1658.0
-125.89 546.98 1674.4
-119.51 537.78 1646.3
-110.61 516.18 1580.2
-109.22 529.28 1620.2
-104.72 527.81 1615.8
-98.84 518.90 1588.5
-98.19 537.89 1646.6
-94.15 539.20 1650.6
-87.81 526.87 1612.9
-85.07 535.93 1640.6
-71.41 529.28 1620.2
-65.17 513.20 1571.0
-61.51 516.66 1581.6
-56.96 512.67 1569.4
-52.71 510.85 1563.8
-51.11 536.65 1642.8
-48.07 550.66 1685.7
-41.41 521.82 1597.4
-36.30 508.19 1555.7
-32.88 517.84 1585.2
-28.72 516.94 1582.5
-25.10 527.20 1613.9
-21.46 540.88 1655.8
-17.15 540.28 1653.9
-12.75 535.63 1639.7
-8.39 528.50 1617.8
-4.25 535.95 1640.7
0.00 550.24 1684.4
4.34 547.13 1674.9
8.55 538.74 1649.2
12.91 542.15 1659.6
17.53 552.08 1690.0
21.78 548.96 1680.5
25.16 528.44 1617.7
29.60 532.77 1630.9
35.91 565.66 1731.6
40.22 563.14 1723.9
44.00 554.42 1697.2
49.24 564.01 1726.5
51.64 542.24 1659.9
54.66 529.78 1621.8
60.83 547.43 1675.8
66.64 559.79 1713.7
71.67 564.39 1727.7
74.80 554.41 1697.2
79.10 553.73 1695.1
87.98 583.45 1786.1
97.97 617.18 1889.3
104.35 626.10 1916.6
109.52 627.26 1920.2
-343.76 605.21 1867.5
-332.59 593.92 1832.7
-319.76 579.27 1787.5
-303.34 557.62 1720.6
-298.02 556.01 1715.7
-297.39 563.23 1738.0
-289.04 555.84 1715.2
-278.93 544.78 1681.1
-273.45 542.55 1674.2
-268.15 540.62 1668.2
-261.69 536.25 1654.7
-260.71 543.15 1676.0
-264.52 560.43 1729.3
-265.37 571.91 1764.8
-256.57 562.64 1736.2
-242.30 540.85 1668.9
-232.14 527.58 1628.0
-228.25 528.37 1630.4
-226.82 534.96 1650.7
-216.38 520.14 1605.0
-201.30 493.38 1522.4
-199.37 498.43 1538.0
-203.24 518.47 1599.8
-199.97 520.76 1606.9
-193.33 514.17 1586.6
-187.58 509.72 1572.9
-183.88 510.78 1576.1
-181.89 516.74 1594.5
-180.86 525.77 1622.4
-177.84 529.28 1633.2
-173.44 528.79 1631.7
-174.36 544.88 1681.3
-169.18 542.24 1673.2
-160.59 528.25 1630.0
-158.31 534.82 1650.3
-154.42 536.16 1654.4
-148.18 529.21 1633.0
-139.05 511.20 1577.4
-133.85 507.00 1564.5
-132.10 516.01 1592.3
-127.16 512.73 1582.1
-123.30 513.75 1585.3
-122.78 529.21 1633.0
-122.08 544.99 1681.7
-118.60 549.08 1694.3
-113.91 547.63 1689.8
-106.10 530.48 1636.9
-97.55 508.10 1567.8
-94.41 513.09 1583.3
-92.10 523.32 1614.8
-87.26 519.39 1602.7
-82.42 515.14 1589.6
-79.90 525.67 1622.1
-78.23 543.29 1676.4
-72.30 531.64 1640.5
-66.01 515.67 1591.2
-62.15 517.88 1598.0
-57.94 517.31 1596.3
-53.96 518.89 1601.2
-51.27 534.03 1647.9
-47.16 535.92 1653.7
-41.87 523.32 1614.8
-37.79 524.89 1619.7
-34.27 535.39 1652.1
-30.02 536.04 1654.1
-25.54 532.05 1641.8
-21.23 530.83 1638.0
-16.77 524.07 1617.1
-12.34 514.21 1586.7
-8.14 508.67 1569.6
-4.13 516.38 1593.4
0.00 531.18 1639.1
4.23 529.33 1633.4
8.55 534.57 1649.5
13.25 552.13 1703.7
17.81 556.44 1717.0
21.94 548.40 1692.2
25.79 537.29 1657.9
30.93 552.37 1704.5
36.53 570.84 1761.5
39.92 554.48 1711.0
42.95 536.88 1656.6
47.27 537.15 1657.5
51.24 533.72 1646.9
56.08 539.23 1663.9
60.66 541.65 1671.4
64.55 537.91 1659.8
71.17 556.03 1715.7
76.28 560.90 1730.8
80.10 556.22 1716.3
88.66 583.26 1799.8
97.10 606.90 1872.7
101.33 603.13 1861.1
105.22 597.82 1844.7
112.25 610.05 1882.4
-336.76 588.15 1829.5
-337.95 598.65 1862.2
-321.67 578.08 1798.2
-302.08 550.85 1713.5
-297.92 551.37 1715.1
-298.09 560.04 1742.1
-286.87 547.27 1702.3
-273.36 529.64 1647.5
-270.88 533.17 1658.5
-268.35 536.69 1669.4
-263.67 535.98 1667.2
-264.71 547.07 1701.7
-262.99 552.72 1719.3
-258.34 552.31 1718.0
-252.30 548.86 1707.3
-240.56 532.67 1656.9
-235.13 530.12 1649.0
-235.69 541.22 1683.5
-231.66 542.00 1685.9
-218.45 520.92 1620.4
-200.70 487.98 1517.9
-197.27 499.21 1552.8
-191.42 494.49 1538.2
-191.28 504.67 1569.8
-191.67 516.67 1607.1
-185.56 511.33 1590.6
-181.60 511.78 1591.9
-177.20 511.00 1589.5
-171.16 505.34 1571.9
-168.64 510.04 1586.5
-171.15 530.57 1650.4
-168.54 535.87 1666.9
-162.30 529.60 1647.4
-159.06 533.07 1658.2
-154.35 531.66 1653.8
-150.01 531.47 1653.2
-142.58 520.00 1617.5
-138.41 520.10 1617.8
-137.63 533.32 1659.0
-131.07 524.27 1630.8
-125.83 520.09 1617.8
-120.73 516.22 1605.7
-115.90 513.25 1596.5
-113.11 519.45 1615.8
-109.06 520.14 1618.0
-106.55 528.47 1643.9
-102.60 530.08 1648.9
-95.95 517.32 1609.2
-90.44 509.75 1585.6
-85.20 503.09 1564.9
-80.02 496.12 1543.2
-77.39 505.05 1571.0
-75.67 521.31 1621.6
-71.23 519.53 1616.0
-66.14 512.55 1594.3
-62.19 514.13 1599.2
-57.91 512.95 1595.6
-53.65 511.77 1591.9
-50.74 524.35 1631.0
-47.60 536.62 1669.2
-43.06 533.90 1660.8
-38.73 533.63 1659.9
-35.00 542.53 1687.6
-30.39 538.27 1674.3
-25.65 530.03 1648.7
-21.58 535.25 1664.9
-17.26 534.96 1664.0
-12.92 534.05 1661.2
-8.67 537.73 1672.7
-4.23 524.27 1630.8
0.00 516.93 1608.0
4.28 530.39 1649.8
8.89 551.20 1714.6
13.54 559.76 1741.2
17.94 556.07 1729.7
22.68 562.49 1749.7
27.41 566.45 1762.0
30.59 541.94 1685.8
33.68 522.03 1623.8
38.42 529.34 1646.6
43.13 534.82 1663.6
47.98 540.91 1682.5
52.64 543.93 1691.9
57.31 546.64 1700.4
61.68 546.29 1699.3
64.60 534.01 1661.1
69.92 541.91 1685.7
76.17 555.61 1728.3
81.44 561.06 1745.2
89.38 583.31 1814.4
97.18 602.50 1874.1
101.09 596.92 1856.8
104.64 589.82 1834.7
110.69 596.76 1856.3
120.04 620.20 1929.2
-351.42 600.34 1882.6
-342.19 592.81 1859.0
-337.00 592.16 1856.9
-314.35 560.36 1757.2
-297.99 539.01 1690.3
-297.16 545.52 1710.7
-302.01 562.83 1765.0
-295.33 558.85 1752.5
-282.31 542.56 1701.4
-280.31 547.27 1716.2
-268.09 531.86 1667.8
-254.63 513.43 1610.0
-259.78 532.54 1670.0
-261.74 545.66 1711.1
-250.30 530.81 1664.6
-238.12 513.85 1611.4
-238.96 524.86 1645.9
-245.67 549.42 1722.9
-243.00 553.51 1735.7
-236.24 548.27 1719.3
-224.98 532.17 1668.8
-207.97 501.58 1572.9
-201.14 494.80 1551.6
-200.42 503.09 1577.6
-201.68 516.82 1620.7
-208.15 544.73 1708.2
-199.71 534.01 1674.6
-185.26 506.38 1588.0
-180.44 504.40 1581.7
-175.01 500.61 1569.8
-172.74 505.87 1586.4
-173.60 520.81 1633.2
-170.89 525.47 1647.8
-163.58 515.92 1617.9
-155.50 503.34 1578.4
-150.26 499.52 1566.4
-145.70 497.81 1561.1
-141.34 496.71 1557.6
-141.43 511.65 1604.5
-144.12 537.19 1684.6
-136.82 542.85 1702.3
-131.76 540.22 1694.1
-126.89 538.20 1687.7
-118.26 519.50 1629.1
-111.99 510.19 1599.9
-109.27 516.94 1621.1
-108.04 531.58 1667.0
-102.44 524.98 1646.3
-94.15 503.52 1579.0
-89.75 501.77 1573.5
-85.73 502.14 1574.7
-80.13 492.80 1545.4
-77.12 499.23 1565.5
-75.15 513.55 1610.4
-70.57 510.57 1601.1
-65.24 501.51 1572.7
-61.24 502.17 1574.7
-58.65 515.27 1615.8
-55.88 528.67 1657.9
-52.09 533.87 1674.2
-48.24 539.38 1691.4
-43.29 532.43 1669.6
-38.60 527.60 1654.5
-34.26 526.71 1651.7
-29.25 513.98 1611.8
-24.55 503.37 1578.5
-20.56 505.81 1586.2
-16.79 516.16 1618.6
-12.85 526.80 1652.0
-8.56 526.20 1650.1
-4.14 509.19 1596.8
0.00 500.38 1569.1
4.15 511.02 1602.5
8.71 535.62 1679.6
13.37 548.37 1719.6
17.71 544.71 1708.2
22.39 550.78 1727.2
27.21 557.74 1749.0
30.60 537.67 1686.1
33.17 510.01 1599.3
37.20 508.46 1594.5
41.29 507.82 1592.5
45.41 507.79 1592.4
51.52 528.10 1656.1
57.96 548.41 1719.7
62.97 553.22 1734.8
66.57 545.89 1711.8
71.48 549.48 1723.1
77.15 558.22 1750.5
81.99 560.29 1757.0
89.07 576.61 1808.2
96.66 594.45 1864.1
100.44 588.31 1844.9
106.35 594.60 1864.6
-349.53 600.60 1898.8
-337.76 588.66 1861.1
-319.96 565.72 1788.6
-307.82 552.27 1746.1
-300.31 546.84 1728.9
-298.85 552.41 1746.5
-303.32 569.30 1799.9
-300.80 573.39 1812.8
-290.52 562.58 1778.7
-270.10 531.49 1680.4
-250.49 500.98 1583.9
-249.40 507.12 1603.3
-255.44 528.19 1669.9
-248.07 521.81 1649.8
-234.67 502.28 1588.0
-234.34 510.52 1614.0
-239.93 532.20 1682.6
-236.30 533.87 1687.9
-230.96 531.65 1680.9
-221.45 519.55 1642.6
-210.00 502.36 1588.3
-208.16 507.90 1605.8
-209.83 522.42 1651.7
-213.38 542.34 1714.7
-209.23 543.09 1717.0
-190.14 504.29 1594.4
-180.64 489.75 1548.4
-180.46 500.37 1582.0
-176.30 500.20 1581.4
-175.14 508.73 1608.4
-176.05 523.86 1656.2
-173.47 529.09 1672.8
-167.45 523.81 1656.1
-160.57 515.53 1629.9
-148.64 490.12 1549.6
-136.85 491.04 1552.5
-138.13 510.67 1614.5
-136.42 520.09 1644.3
-130.96 515.38 1629.4
-126.98 516.38 1632.6
-126.06 530.31 1676.6
-121.11 527.69 1668.3
-114.81 518.75 1640.1
-112.24 526.66 1665.1
-108.68 530.36 1676.8
-100.68 511.77 1618.0
-92.24 489.26 1546.8
-87.70 486.32 1537.5
-84.65 491.80 1554.9
-79.84 487.05 1539.8
-76.14 488.91 1545.7
-73.61 498.91 1577.3
-69.07 495.65 1567.0
-64.06 488.46 1544.3
-60.69 493.63 1560.7
-58.48 509.65 1611.3
-56.14 526.87 1665.8
-52.78 536.56 1696.4
-48.19 534.49 1689.8
-42.60 519.75 1643.2
-38.34 519.78 1643.3
-34.36 524.03 1656.8
-29.26 509.88 1612.0
-24.50 498.14 1574.9
-20.27 494.54 1563.5
-16.36 499.08 1577.9
-12.29 499.69 1579.8
-8.03 489.74 1548.4
-4.01 488.84 1545.5
0.00 494.58 1563.6
4.06 494.88 1564.6
8.33 508.14 1606.5
13.16 535.27 1692.3
17.95 547.32 1730.4
21.95 535.55 1693.2
25.86 525.88 1662.6
30.45 530.69 1677.8
34.58 527.34 1667.2
38.37 520.08 1644.3
42.13 514.02 1625.1
45.96 509.77 1611.7
51.65 525.11 1660.2
56.17 527.18 1666.7
59.00 514.17 1625.6
63.88 519.55 1642.6
70.38 536.68 1696.8
77.76 558.02 1764.2
84.50 572.72 1810.7
88.01 565.12 1786.7
91.40 557.53 1762.7
96.89 562.88 1779.6
104.96 582.08 1840.3
123.06 625.56 1977.8
139.18 653.06 2064.7
-337.66 583.67 1860.6
-316.49 555.00 1769.2
-305.89 544.30 1735.1
-299.39 540.68 1723.5
-289.56 530.85 1692.2
-286.55 533.42 1700.4
-290.54 549.30 1751.0
-286.41 550.10 1753.6
-273.18 533.14 1699.5
-259.32 514.40 1639.8
-248.26 500.67 1596.0
-244.65 501.73 1599.4
-249.25 519.98 1657.6
-247.69 525.79 1676.1
-239.17 516.78 1647.4
-236.73 520.81 1660.2
-226.81 508.22 1620.1
-216.05 493.25 1572.3
-217.02 504.98 1609.8
-215.54 511.38 1630.1
-209.54 507.08 1616.4
-207.57 512.58 1634.0
-205.40 517.78 1650.5
-195.29 502.77 1602.7
-185.42 487.74 1554.8
-184.87 497.10 1584.6
-182.11 500.80 1596.4
-175.90 494.98 1577.9
-174.65 503.14 1603.9
-175.78 518.76 1653.7
-172.52 521.86 1663.6
-165.94 514.84 1641.2
-160.79 511.98 1632.0
-150.57 492.42 1569.7
-143.17 481.20 1533.9
-143.53 496.21 1581.8
-140.80 501.09 1597.3
-138.40 507.46 1617.6
-134.39 508.15 1619.9
-127.08 496.02 1581.2
-121.82 491.33 1566.2
-119.85 500.08 1594.1
-118.71 513.00 1635.3
-115.89 519.36 1655.6
-112.39 523.03 1667.3
-107.90 522.22 1664.7
-99.86 503.47 1604.9
-91.28 480.23 1530.8
-87.71 482.39 1537.7
-85.50 492.62 1570.3
-81.04 490.29 1562.9
-77.61 494.23 1575.5
-72.86 489.80 1561.4
-64.78 489.90 1561.7
-64.56 520.76 1660.0
-59.01 510.04 1625.9
-53.71 499.91 1593.6
-51.12 515.50 1643.3
-47.19 519.13 1654.8
-42.02 508.39 1620.6
-38.13 512.61 1634.1
-35.00 529.40 1687.6
-30.56 528.22 1683.8
-25.26 509.39 1623.8
-20.62 498.93 1590.5
-16.66 504.03 1606.7
-12.53 505.24 1610.6
-8.30 501.96 1600.1
-4.19 506.75 1615.4
0.00 510.34 1626.8
4.21 508.84 1622.1
8.33 503.75 1605.8
12.68 511.23 1629.6
17.03 515.11 1642.0
20.53 496.84 1583.8
25.20 508.19 1620.0
30.89 533.91 1702.0
35.16 531.79 1695.2
39.06 525.18 1674.1
43.50 526.34 1677.8
48.12 529.30 1687.3
52.76 531.96 1695.7
56.06 521.75 1663.2
59.60 515.12 1642.1
65.45 527.94 1682.9
70.12 530.28 1690.4
75.46 537.11 1712.1
83.23 559.48 1783.5
87.98 560.31 1786.1
92.95 562.34 1792.6
100.38 578.41 1843.8
104.99 577.43 1840.7
110.82 583.03 1858.5
120.19 605.96 1931.6
129.19 625.28 1993.2
140.11 652.07 2078.6
-345.88 584.58 1879.0
-323.39 554.38 1781.9
-311.49 541.73 1741.3
-309.93 546.93 1758.0
-301.07 539.24 1733.3
-289.12 525.67 1689.7
-279.13 515.32 1656.4
-276.51 518.45 1666.4
-281.69 536.55 1724.6
-277.17 536.46 1724.3
-269.96 531.08 1707.0
-264.75 529.50 1702.0
-250.75 510.00 1639.3
-245.73 508.41 1634.2
-253.04 532.71 1712.3
-252.94 542.01 1742.2
-241.22 526.30 1691.7
-222.73 494.97 1591.0
-212.96 482.17 1549.8
-214.62 495.28 1592.0
-213.07 501.33 1611.4
-207.11 497.06 1597.7
-211.58 518.15 1665.5
-216.05 540.13 1736.1
-203.87 520.51 1673.1
-192.68 502.66 1615.7
-187.88 501.02 1610.4
-181.59 495.25 1591.9
-175.92 490.95 1578.1
-175.29 500.83 1609.8
-177.82 520.46 1672.9
-175.80 527.39 1695.2
-167.98 516.87 1661.4
-161.47 509.89 1638.9
-156.34 507.05 1629.8
-153.57 511.90 1645.4
-149.85 513.78 1651.4
-143.34 505.90 1626.1
-141.27 513.70 1651.2
-137.49 515.58 1657.2
-128.32 496.72 1596.6
-121.46 485.85 1561.7
-122.02 504.90 1622.9
-123.22 528.11 1697.5
-115.78 514.56 1653.9
-107.91 498.04 1600.8
-103.90 498.71 1603.0
-96.44 482.18 1549.9
-90.73 473.35 1521.5
-89.95 490.62 1577.0
-89.76 512.94 1648.7
-87.03 522.20 1678.5
-81.42 514.25 1652.9
-74.61 497.39 1598.8
-68.20 481.42 1547.4
-66.41 498.09 1601.0
-64.79 518.32 1666.0
-58.12 498.18 1601.3
-52.46 484.26 1556.6
-49.65 496.48 1595.8
-46.44 506.61 1628.4
-41.82 501.89 1613.2
-37.47 499.54 1605.7
-33.92 508.78 1635.3
-30.10 515.93 1658.3
-25.23 504.66 1622.1
-20.27 486.56 1563.9
-16.14 484.19 1556.3
-12.66 506.48 1628.0
-8.76 525.80 1690.1
-4.33 520.16 1671.9
0.00 512.44 1647.1
4.26 510.66 1641.4
8.42 505.30 1624.2
12.20 488.07 1568.8
26.06 521.29 1675.6
31.55 540.88 1738.5
35.48 532.24 1710.8
39.45 525.97 1690.6
43.98 527.73 1696.3
49.54 540.46 1737.2
55.17 551.71 1773.3
57.87 534.15 1716.9
60.82 521.34 1675.7
65.72 525.74 1689.9
69.22 519.16 1668.7
73.04 515.55 1657.1
78.88 525.88 1690.3
85.09 537.39 1727.3
91.98 551.87 1773.9
99.84 570.49 1833.7
104.79 571.60 1837.3
110.39 575.97 1851.3
127.62 612.57 1969.0
137.52 634.71 2040.1
-344.74 577.80 1872.8
-327.04 555.96 1802.0
-319.63 551.25 1786.8
-306.33 536.07 1737.6
-286.88 509.53 1651.5
-285.29 514.39 1667.3
-284.89 521.58 1690.6
-275.61 512.46 1661.0
-274.95 519.35 1683.4
-273.42 524.79 1701.0
-268.96 524.70 1700.7
-264.65 524.89 1701.3
-251.51 507.28 1644.2
-239.79 491.99 1594.7
-240.78 502.67 1629.3
-244.05 518.61 1681.0
-235.18 508.85 1649.3
-222.10 489.44 1586.4
-217.41 488.14 1582.2
-216.18 494.73 1603.6
-211.59 493.71 1600.3
-204.68 487.13 1578.9
-207.51 503.96 1633.5
-209.83 520.21 1686.1
-196.38 497.22 1611.6
-190.79 493.56 1599.8
-191.45 506.29 1641.0
-183.46 496.17 1608.2
-176.37 488.09 1582.1
-179.14 507.57 1645.2
-172.62 526.73 1707.3
-163.46 511.88 1659.2
-155.91 501.43 1625.3
-153.06 505.94 1639.9
-149.10 506.93 1643.1
-143.19 501.17 1624.4
-141.86 511.55 1658.1
-139.72 519.59 1684.1
-131.86 506.17 1640.6
-122.59 486.27 1576.1
-120.89 496.06 1607.9
-122.97 522.62 1694.0
-116.33 512.70 1661.8
-105.67 483.66 1567.7
-99.28 472.55 1531.7
-96.86 480.28 1556.7
-96.03 496.83 1610.4
-90.99 492.19 1595.3
-86.71 491.37 1592.7
-85.76 510.27 1654.0
-81.62 511.22 1657.0
-76.36 504.80 1636.2
-70.99 496.90 1610.6
-66.38 493.71 1600.3
-62.05 492.28 1595.6
-58.37 496.16 1608.2
-55.43 507.39 1644.6
-51.08 506.55 1641.9
-46.53 503.34 1631.5
-42.77 508.98 1649.7
-39.10 516.96 1675.6
-34.20 508.74 1649.0
-29.25 497.26 1611.8
-25.07 497.28 1611.8
-20.57 489.64 1587.1
-16.72 497.31 1611.9
-13.42 532.41 1725.7
-4.39 522.10 1692.3
0.00 509.13 1650.2
4.22 502.35 1628.3
8.57 510.01 1653.1
12.77 506.46 1641.6
16.60 493.78 1600.5
21.63 514.69 1668.3
27.33 542.09 1757.1
32.18 547.08 1773.2
35.23 524.06 1698.6
38.14 504.29 1634.6
43.39 516.34 1673.6
49.82 539.00 1747.1
55.86 553.99 1795.7
59.03 540.40 1751.6
60.45 513.83 1665.5
63.57 504.36 1634.8
68.24 507.55 1645.1
73.38 513.69 1665.0
79.07 522.76 1694.4
84.91 531.83 1723.8
90.36 537.66 1742.7
96.53 547.01 1773.0
103.40 559.30 1812.9
111.33 576.00 1867.0
128.33 610.85 1979.9
136.27 623.70 2021.6
145.03 639.19 2071.8
152.79 649.37 2104.8
-344.71 581.08 1899.4
-326.94 559.12 1827.6
-303.22 526.17 1719.9
-284.95 501.86 1640.4
-284.85 509.27 1664.7
-292.10 530.27 1733.3
-289.75 534.23 1746.3
-279.31 523.16 1710.1
-268.75 511.50 1672.0
-261.53 505.90 1653.7
-254.98 501.46 1639.2
-253.71 507.43 1658.7
-253.34 515.42 1684.8
-247.52 512.42 1675.0
-243.95 514.04 1680.3
-237.38 509.28 1664.7
-227.04 496.11 1621.7
-218.47 486.41 1590.0
-212.89 483.09 1579.1
-208.61 482.66 1577.7
-201.87 476.42 1557.3
-196.69 473.65 1548.3
-190.96 469.44 1534.5
-186.92 469.28 1534.0
-190.13 487.72 1594.3
-189.93 498.04 1628.0
-180.99 485.37 1586.6
-175.75 482.30 1576.5
-180.10 506.00 1654.0
-181.01 520.97 1702.9
-173.29 511.20 1671.0
-165.92 502.00 1640.9
-158.98 493.67 1613.7
-150.81 480.97 1572.2
-147.04 481.95 1575.4
-144.71 487.88 1594.8
-140.44 487.40 1593.2
-140.09 500.91 1637.4
-139.19 513.26 1677.7
-134.33 511.32 1671.4
-127.65 502.08 1641.2
-121.05 492.54 1610.0
-118.42 499.05 1631.3
-115.88 506.43 1655.4
-109.16 495.42 1619.4
-102.13 482.06 1575.7
-99.31 488.27 1596.0
-98.32 504.40 1648.8
-93.29 500.38 1635.6
-86.20 484.38 1583.3
-82.55 487.07 1592.1
-79.80 495.60 1620.0
-75.88 497.41 1625.9
-71.88 498.93 1630.9
-68.29 503.65 1646.3
-63.36 498.44 1629.3
-59.18 498.78 1630.4
-56.21 510.22 1667.8
-51.80 509.38 1665.1
-46.64 500.35 1635.5
-42.43 500.68 1636.6
-38.93 510.36 1668.2
-34.17 503.95 1647.3
-28.96 488.18 1595.7
-24.63 484.40 1583.4
-20.46 482.95 1578.7
-16.85 497.01 1624.6
-13.16 517.49 1691.6
-8.65 510.48 1668.6
-4.25 501.12 1638.1
0.00 497.61 1626.6
4.21 497.03 1624.7
8.67 511.36 1671.5
13.36 525.68 1718.3
18.03 531.82 1738.4
22.03 519.81 1699.1
26.13 513.94 1679.9
31.08 523.86 1712.4
34.31 506.00 1654.0
36.78 482.28 1576.5
41.61 491.03 1605.1
47.38 508.25 1661.3
52.46 515.82 1686.1
58.53 531.27 1736.6
63.48 535.03 1748.9
64.81 509.84 1666.6
67.54 498.10 1628.2
73.48 510.03 1667.2
79.89 523.71 1711.9
86.34 536.22 1752.8
92.31 544.63 1780.3
98.58 553.91 1810.6
105.60 566.40 1851.4
112.89 579.17 1893.2
121.17 595.73 1947.3
130.40 615.50 2011.9
139.71 634.09 2072.7
-346.44 570.89 1882.0
-340.50 569.12 1876.2
-326.16 553.05 1823.3
-316.91 545.26 1797.6
-312.04 544.91 1796.4
-290.70 515.34 1698.9
-277.50 499.49 1646.7
-283.06 517.46 1705.9
-279.82 519.67 1713.2
-269.40 508.38 1676.0
-262.46 503.41 1659.6
-255.75 498.71 1644.1
-255.05 505.78 1667.4
-257.51 519.46 1712.5
-253.58 520.51 1716.0
-245.50 512.92 1690.9
-234.71 499.29 1646.0
-228.39 494.85 1631.4
-223.84 494.15 1629.1
-221.10 497.47 1640.0
-219.17 502.81 1657.6
-214.94 502.96 1658.1
-212.52 507.43 1672.9
-200.67 489.14 1612.5
-190.52 474.29 1563.6
-187.88 477.88 1575.4
-182.52 474.55 1564.5
-186.11 494.88 1631.5
-192.43 523.58 1726.1
-183.23 510.44 1682.8
-171.33 488.91 1611.8
-166.50 487.01 1605.5
-162.18 486.55 1604.0
-161.25 496.49 1636.8
-159.06 502.96 1658.1
-152.66 496.13 1635.6
-147.84 494.22 1629.3
-137.77 474.07 1562.9
-131.95 467.81 1542.2
-134.15 490.47 1616.9
-132.66 500.69 1650.6
-127.59 497.60 1640.4
-122.28 493.35 1626.4
-117.74 491.99 1621.9
-113.42 491.49 1620.3
-110.72 498.23 1642.5
-107.47 502.95 1658.1
-101.16 493.17 1625.8
-96.91 492.95 1625.1
-94.94 504.90 1664.5
-90.74 505.55 1666.6
-84.55 494.60 1630.5
-79.62 490.31 1616.4
-74.91 486.88 1605.1
-70.46 484.91 1598.6
-67.39 492.79 1624.6
-62.96 491.09 1619.0
-57.45 480.11 1582.8
-53.38 480.44 1583.9
-49.88 486.28 1603.1
-45.59 484.87 1598.5
-41.67 487.51 1607.2
-38.40 499.15 1645.5
-34.09 498.59 1643.7
-29.24 488.75 1611.3
-24.35 474.83 1565.4
-16.08 470.22 1550.2
-12.37 482.42 1590.4
-8.51 498.10 1642.1
-4.39 513.49 1692.8
0.00 503.33 1659.3
4.25 496.95 1638.3
8.69 508.55 1676.5
13.31 518.99 1711.0
17.54 513.18 1691.8
20.96 490.52 1617.1
25.12 489.93 1615.1
30.27 505.87 1667.7
34.37 502.65 1657.1
37.90 492.76 1624.5
41.02 479.96 1582.3
50.14 488.89 1611.7
56.38 507.42 1672.8
62.07 518.70 1710.0
64.56 503.57 1660.1
67.94 496.85 1638.0
74.71 514.20 1695.2
79.95 519.65 1713.1
84.85 522.49 1722.5
90.49 529.39 1745.2
96.36 536.86 1769.9
104.10 553.60 1825.0
112.06 570.04 1879.3
128.33 600.58 1979.9
137.82 620.19 2044.6
144.37 625.59 2062.4
152.46 637.07 2100.2
-346.48 558.22 1856.2
-341.29 557.61 1854.1
-341.08 565.22 1879.4
-321.15 539.91 1795.3
-307.80 525.08 1746.0
-307.01 531.54 1767.4
-289.45 508.73 1691.6
-275.62 491.87 1635.5
-280.11 507.71 1688.2
-276.93 509.89 1695.5
-266.39 498.42 1657.3
-258.75 492.05 1636.1
-250.77 484.82 1612.1
-246.97 485.57 1614.6
-246.72 493.44 1640.7
-247.17 503.02 1672.6
-243.19 503.76 1675.1
-232.44 490.23 1630.1
-225.90 485.26 1613.5
-226.22 495.12 1646.3
-228.42 509.56 1694.4
-227.87 518.29 1723.4
-224.95 521.88 1735.3
-209.81 507.03 1685.9
-195.76 483.15 1606.5
-189.49 477.85 1588.9
-179.98 463.96 1542.7
-179.83 474.11 1576.5
-189.49 511.17 1699.7
-183.26 506.15 1683.0
-172.77 488.80 1625.3
-169.38 491.21 1633.3
-163.65 486.75 1618.5
-161.65 493.45 1640.8
-163.65 513.07 1706.0
-154.27 511.29 1700.1
-142.07 484.71 1611.7
-133.35 468.73 1558.6
-132.89 481.74 1601.9
-132.83 497.06 1652.8
-129.09 499.16 1659.8
-120.72 482.88 1605.6
-113.59 470.61 1564.8
-112.16 481.89 1602.4
-112.34 501.23 1666.6
-108.47 503.32 1673.6
-101.59 491.03 1632.7
-98.17 495.13 1646.4
-96.97 511.30 1700.1
-92.84 512.80 1705.1
-86.64 502.51 1670.9
-82.27 502.29 1670.2
-77.99 502.63 1671.3
-72.66 495.78 1648.5
-68.91 499.57 1661.1
-64.57 499.33 1660.3
-59.23 490.74 1631.8
-53.52 477.54 1587.9
-48.63 470.09 1563.1
-45.73 482.22 1603.4
-43.01 498.95 1659.1
-38.33 494.08 1642.9
-32.92 477.41 1587.4
-28.38 470.23 1563.6
-16.18 469.13 1559.9
-12.51 483.82 1608.8
-8.64 501.40 1667.2
-4.46 517.24 1719.9
0.00 508.03 1689.3
4.28 496.80 1651.9
8.70 504.57 1677.7
13.39 517.81 1721.8
17.75 514.63 1711.2
21.90 507.99 1689.1
27.03 522.66 1737.9
31.35 519.47 1727.3
34.31 497.56 1654.5
39.50 509.05 1692.7
44.68 518.24 1723.2
46.87 494.31 1643.6
50.30 486.21 1616.7
55.81 497.98 1655.8
60.65 502.54 1671.0
65.20 504.22 1676.6
71.13 515.69 1714.7
76.45 521.68 1734.6
79.87 514.72 1711.5
84.91 518.40 1723.7
90.61 525.53 1747.4
96.90 535.24 1779.7
105.10 554.15 1842.6
112.94 569.60 1894.0
126.56 587.25 1952.7
133.09 593.77 1974.4
140.66 604.30 2009.4
148.89 616.84 2051.1
-361.38 569.29 1909.4
-349.54 558.29 1872.5
-352.30 570.63 1913.9
-346.80 569.74 1910.9
-321.88 536.47 1799.3
-303.85 513.87 1723.5
-299.18 513.51 1722.3
-295.96 515.69 1729.7
-295.26 522.38 1752.1
-288.79 518.92 1740.5
-274.64 501.33 1681.5
-268.56 498.13 1670.8
-265.07 499.73 1676.1
-262.45 503.02 1687.2
-263.68 513.95 1723.8
-257.73 511.02 1714.0
-253.09 510.63 1712.7
-249.57 512.50 1718.9
-238.96 499.65 1675.8
-222.86 474.61 1591.9
-213.19 462.59 1551.5
-219.87 486.25 1630.9
-224.13 505.40 1695.1
-221.78 510.09 1710.9
-219.82 515.91 1730.4
-208.53 499.61 1675.7
-196.01 479.61 1608.6
-194.62 486.56 1631.9
-189.67 484.70 1625.7
-175.83 459.56 1541.4
-172.73 461.95 1549.4
-176.75 483.95 1623.2
-175.62 492.60 1652.2
-171.68 493.58 1655.5
-165.60 488.29 1637.8
-159.51 482.72 1619.1
-157.36 489.09 1640.4
-154.65 494.04 1657.0
-147.53 484.75 1625.9
-144.02 487.13 1633.9
-143.16 498.91 1673.4
-136.08 489.04 1640.2
-129.78 481.44 1614.8
-126.21 483.81 1622.7
-118.07 468.22 1570.4
-114.30 469.45 1574.5
-116.46 496.04 1663.7
-113.71 502.96 1686.9
-107.00 492.20 1650.9
-101.37 485.72 1629.1
-99.04 495.20 1660.9
-95.73 500.40 1678.4
-89.62 490.77 1646.1
-84.47 485.70 1629.0
-80.87 489.46 1641.7
-77.83 497.23 1667.7
-73.51 497.28 1667.9
-69.79 501.61 1682.4
-65.36 501.09 1680.7
-59.13 485.71 1629.1
-52.59 465.19 1560.3
-47.92 459.23 1540.3
-45.24 472.97 1586.4
-42.22 485.57 1628.6
-37.36 477.32 1600.9
-32.43 466.20 1563.7
-28.24 463.94 1556.1
-23.98 459.67 1541.8
-20.20 464.54 1558.1
-16.60 477.13 1600.3
-12.72 487.71 1635.8
-8.34 479.43 1608.0
-4.08 468.86 1572.6
0.00 480.29 1610.9
4.27 490.58 1645.4
8.71 500.57 1678.9
13.45 515.71 1729.7
17.90 514.56 1725.8
22.20 510.54 1712.4
27.02 517.95 1737.2
30.80 505.93 1696.9
34.84 500.77 1679.6
41.42 529.31 1775.3
49.72 519.82 1743.5
52.75 505.50 1695.5
57.75 510.89 1713.5
62.15 510.56 1712.4
66.22 507.66 1702.7
70.19 504.47 1692.0
73.22 495.28 1661.2
78.27 500.08 1677.3
85.11 515.15 1727.8
90.87 522.51 1752.5
97.17 532.14 1784.8
106.43 556.32 1865.9
123.21 590.39 1980.2
129.63 596.29 2000.0
134.47 594.77 1994.9
140.09 596.67 2001.3
145.25 596.57 2000.9
156.02 618.69 2075.1
-355.95 563.58 1906.9
-350.11 562.15 1902.0
-335.89 547.03 1850.8
-322.10 532.17 1800.6
-314.40 527.08 1783.4
-305.96 520.58 1761.4
-299.57 517.43 1750.7
-288.76 506.45 1713.5
-272.33 485.09 1641.3
-271.89 492.00 1664.7
-279.26 513.47 1737.3
-275.30 514.50 1740.8
-272.22 517.21 1750.0
-270.54 522.73 1768.6
-261.19 513.38 1737.0
-250.46 500.93 1694.9
-241.33 491.27 1662.2
-234.66 486.38 1645.7
-221.55 467.72 1582.5
-214.90 471.12 1594.0
-215.86 482.51 1632.6
-210.95 480.97 1627.3
-214.66 499.41 1689.7
-208.68 495.61 1676.9
-190.93 463.10 1566.9
-184.87 458.16 1550.2
-190.80 483.36 1635.4
-187.26 485.18 1641.6
-178.06 472.06 1597.2
-176.14 478.11 1617.7
-176.86 491.76 1663.9
-174.67 497.81 1684.3
-167.16 488.62 1653.2
-160.00 479.99 1624.0
-157.47 485.18 1641.6
-154.67 489.80 1657.2
-147.03 478.90 1620.3
-143.11 479.85 1623.5
-141.96 490.40 1659.2
-134.59 479.47 1622.3
-127.72 469.68 1589.1
-123.70 470.05 1590.4
-120.75 474.66 1606.0
-122.23 497.64 1683.7
-118.49 500.27 1692.6
-109.92 481.97 1630.7
-107.01 487.98 1651.1
-104.60 496.83 1681.0
-98.88 490.11 1658.3
-92.41 478.86 1620.2
-87.18 473.26 1601.3
-82.79 471.90 1596.7
-78.75 472.53 1598.8
-75.29 476.83 1613.3
-69.97 469.23 1587.6
-65.43 466.17 1577.3
-62.24 473.01 1600.4
-56.98 463.99 1569.9
-52.62 461.47 1561.4
-49.86 473.69 1602.7
-45.63 472.88 1600.0
-41.33 471.21 1594.3
-37.47 474.64 1605.9
-33.35 475.23 1607.9
-29.23 476.10 1610.9
-25.01 475.27 1608.0
-20.98 478.40 1618.7
-17.14 488.62 1653.2
-13.16 500.25 1692.6
-8.64 492.60 1666.7
-4.10 467.95 1583.3
0.00 464.83 1572.7
4.18 477.02 1614.0
8.56 487.79 1650.4
13.30 505.35 1709.8
17.82 507.89 1718.4
21.47 489.45 1656.1
25.42 482.92 1633.9
30.43 495.65 1677.0
36.13 514.90 1742.1
41.12 520.82 1762.2
44.71 509.74 1724.7
48.96 507.44 1716.9
53.89 511.94 1732.1
57.28 502.27 1699.4
59.87 487.50 1649.4
64.51 490.29 1658.9
69.00 491.65 1663.5
72.68 487.36 1649.0
78.42 496.65 1680.4
85.36 512.16 1732.9
91.18 519.74 1758.5
95.26 517.13 1749.7
102.13 529.23 1790.6
110.59 548.12 1854.5
