ply
format ascii 1.0
element vertex 2283
property float x
property float y
property float z
end_header
493.43 415.52 2504.2
498.72 414.52 2498.2
504.55 413.99 2495.1
513.74 416.20 2508.3
549.69 429.02 2585.6
555.89 428.64 2583.3
577.97 425.18 2562.4
571.08 410.66 2475.0
584.13 415.38 2503.4
587.11 412.92 2488.6
603.54 419.85 2530.4
634.18 427.24 2574.9
143.47 430.42 2635.2
149.22 427.30 2616.1
168.40 424.37 2598.2
173.58 420.60 2575.1
178.99 417.63 2556.9
183.58 413.06 2528.9
189.29 411.21 2517.6
198.07 415.95 2546.7
205.58 417.80 2558.0
204.99 403.58 2470.9
209.59 400.12 2449.7
220.66 408.86 2503.2
230.22 414.39 2537.1
239.86 419.75 2569.9
251.90 417.63 2556.9
257.97 416.72 2551.4
264.01 415.81 2545.8
260.83 400.79 2453.8
272.32 398.97 2442.7
287.41 411.52 2519.5
297.63 416.68 2551.1
308.52 413.55 2532.0
306.22 401.91 2460.7
322.70 414.90 2540.2
332.22 418.60 2562.9
328.92 406.32 2487.7
342.39 414.81 2539.7
345.46 395.71 2422.7
383.03 409.00 2504.1
399.85 406.29 2487.5
398.33 398.33 2438.8
415.00 408.51 2501.1
414.75 401.99 2461.1
414.46 395.62 2422.2
426.14 400.69 2453.2
443.62 411.00 2516.4
460.50 414.45 2537.5
472.41 419.18 2566.4
485.83 419.28 2567.0
483.78 406.38 2488.0
486.76 403.49 2470.4
501.62 405.16 2480.6
531.18 423.60 2593.5
536.64 422.60 2587.4
525.82 408.97 2503.9
520.75 400.09 2449.5
530.98 403.03 2467.5
556.64 417.48 2556.0
586.16 410.31 2512.1
610.25 422.48 2586.6
608.13 416.44 2549.6
612.76 415.10 2541.4
641.92 421.26 2579.1
640.16 411.53 2519.6
143.37 423.29 2633.3
148.27 417.84 2599.5
161.57 417.40 2596.7
163.87 406.40 2528.3
170.00 405.38 2522.0
175.13 402.15 2501.8
179.72 397.96 2475.8
188.77 403.58 2510.8
200.76 414.90 2581.2
211.44 409.67 2548.6
214.55 403.10 2507.8
224.21 408.86 2543.6
230.04 407.51 2535.2
235.83 406.15 2526.7
261.85 416.27 2589.7
257.70 399.43 2484.9
259.90 393.01 2445.0
264.45 390.38 2428.7
269.47 388.54 2417.2
276.33 389.38 2422.4
294.20 388.09 2414.4
310.97 401.67 2498.9
321.71 407.06 2532.4
325.38 403.47 2510.0
326.73 397.20 2471.0
343.84 409.97 2550.5
351.31 396.03 2463.8
368.31 393.71 2449.4
385.12 404.71 2517.8
391.81 404.87 2518.8
407.28 413.96 2575.3
406.12 406.12 2526.5
407.85 389.03 2420.2
425.28 399.51 2485.4
430.02 397.93 2475.6
440.37 401.51 2497.9
467.56 414.13 2576.4
468.13 408.79 2543.2
486.47 418.91 2606.1
500.27 419.14 2607.6
508.34 414.69 2579.9
488.86 393.63 2448.8
501.43 398.57 2479.6
530.20 416.11 2588.7
533.84 413.72 2573.9
520.95 398.75 2480.7
546.34 403.25 2508.7
560.85 409.09 2545.0
563.70 406.39 2528.2
569.73 406.02 2525.9
557.73 392.94 2444.6
590.87 407.05 2532.3
610.49 415.94 2587.6
602.86 406.28 2527.5
616.71 402.49 2504.0
620.45 400.71 2492.9
635.30 401.92 2500.4
140.15 407.11 2574.2
147.31 408.46 2582.8
162.37 412.70 2609.6
164.13 400.48 2532.3
168.81 396.04 2504.3
172.58 389.90 2465.4
180.08 392.32 2480.7
191.81 403.46 2551.2
194.56 395.60 2501.4
208.16 384.77 2433.0
220.05 394.80 2496.4
228.44 398.14 2517.5
230.32 390.27 2467.7
242.23 399.35 2525.2
255.69 399.93 2528.8
255.76 390.04 2466.3
261.36 388.85 2458.8
264.77 384.55 2431.6
268.48 380.87 2408.3
280.25 388.53 2456.7
284.82 386.09 2441.3
296.70 385.08 2434.9
304.51 386.98 2446.9
305.40 380.19 2404.0
322.33 393.24 2486.5
337.73 403.96 2554.3
337.91 396.39 2506.5
342.67 394.40 2493.9
356.58 388.42 2456.0
378.59 398.18 2517.7
394.99 408.38 2582.2
386.34 392.78 2483.6
385.84 385.84 2439.7
408.79 402.19 2543.1
417.44 404.19 2555.8
405.30 386.30 2442.7
411.30 385.99 2440.7
431.95 399.23 2524.4
439.49 400.13 2530.1
435.22 390.42 2468.7
442.30 391.02 2472.5
451.34 393.31 2487.0
459.37 394.67 2495.6
471.79 399.71 2527.5
476.66 398.30 2518.5
488.92 403.03 2548.4
515.36 408.27 2581.6
514.55 402.41 2544.5
527.63 407.41 2576.1
540.47 402.06 2542.3
540.54 397.26 2512.0
551.81 400.72 2533.8
551.28 395.62 2501.6
550.80 390.68 2470.4
551.25 386.51 2444.0
557.06 386.14 2441.7
579.08 396.90 2509.7
592.67 401.70 2540.0
594.15 398.28 2518.4
612.26 405.96 2566.9
619.95 406.64 2571.2
619.47 402.00 2541.9
642.00 412.23 2606.6
659.81 414.93 2623.7
647.71 403.16 2549.3
646.06 398.07 2517.1
148.83 405.91 2609.4
160.60 401.49 2581.0
162.85 390.84 2512.6
168.54 388.94 2500.3
175.13 389.18 2501.9
185.38 397.23 2553.6
198.85 397.70 2556.6
197.92 383.06 2462.5
203.11 380.84 2448.2
222.64 381.66 2453.5
229.40 382.34 2457.9
235.15 381.33 2451.4
242.03 382.15 2456.7
245.95 378.39 2432.5
250.77 376.15 2418.1
260.21 380.79 2447.9
267.44 382.06 2456.1
268.26 374.32 2406.3
277.22 378.03 2430.2
287.45 383.27 2463.9
290.83 379.34 2438.6
303.87 387.92 2493.8
309.27 386.58 2485.2
325.56 383.01 2462.2
333.15 384.41 2471.2
362.67 381.76 2454.1
371.25 384.05 2468.9
401.38 401.38 2580.3
386.45 380.12 2443.6
394.51 381.79 2454.3
415.37 395.60 2543.1
416.30 390.28 2508.9
416.22 384.20 2469.9
430.78 391.62 2517.6
458.31 398.53 2562.0
444.98 381.41 2451.9
447.73 378.37 2432.4
469.48 385.88 2480.6
493.95 400.50 2574.6
510.76 408.61 2626.8
513.89 405.70 2608.1
508.01 395.85 2544.8
507.11 390.08 2507.7
525.06 398.78 2563.6
554.45 405.69 2608.0
541.78 391.65 2517.8
541.08 386.49 2484.6
558.30 394.09 2533.5
574.25 400.64 2575.5
572.34 394.72 2537.5
577.72 393.90 2532.2
598.01 394.29 2534.7
600.11 391.37 2516.0
656.74 410.46 2638.7
675.30 409.28 2631.1
129.08 400.82 2620.4
148.10 397.19 2596.6
148.99 382.19 2498.6
154.64 380.17 2485.3
161.64 381.46 2493.8
170.00 385.77 2522.0
179.27 391.74 2561.0
183.73 387.15 2531.0
189.22 384.96 2516.7
198.62 390.62 2553.7
204.57 389.33 2545.3
210.30 387.75 2534.9
212.28 379.53 2481.2
214.24 371.76 2430.4
223.97 377.55 2468.3
227.56 372.95 2438.2
229.96 366.69 2397.2
240.77 373.82 2443.9
248.73 376.29 2460.0
256.17 377.85 2470.2
268.25 386.02 2523.6
276.54 388.47 2539.6
278.77 382.50 2500.6
281.14 376.98 2464.5
284.24 372.67 2436.3
288.13 369.55 2416.0
301.60 378.60 2475.1
319.88 393.19 2570.5
321.34 386.92 2529.5
316.99 374.05 2445.3
328.15 379.62 2481.8
333.28 378.15 2472.1
364.24 383.76 2508.8
371.34 384.36 2512.8
368.01 374.35 2447.3
382.28 382.28 2499.2
395.76 389.16 2544.2
392.16 379.30 2479.7
394.66 375.57 2455.3
409.00 383.03 2504.1
423.74 390.63 2553.8
439.62 392.99 2569.2
466.69 393.35 2571.6
476.73 396.15 2589.9
474.69 388.98 2543.0
481.25 388.95 2542.8
502.89 400.95 2621.2
512.39 387.58 2533.8
508.59 379.83 2483.2
529.03 390.16 2550.7
532.93 388.18 2537.8
532.44 383.10 2504.5
533.46 379.20 2479.1
537.92 377.82 2470.0
560.42 389.00 2543.1
568.43 389.97 2549.4
558.84 378.99 2477.6
572.00 383.50 2507.1
608.45 394.49 2579.0
618.69 396.77 2593.9
639.78 393.20 2570.6
651.61 396.34 2591.1
678.39 408.42 2670.1
673.34 401.28 2623.4
677.24 399.57 2612.2
135.29 392.35 2609.2
151.81 382.83 2545.9
155.07 374.76 2492.2
160.61 372.62 2478.0
167.27 373.15 2481.5
179.20 384.95 2560.0
186.16 385.62 2564.5
187.81 375.62 2497.9
193.10 373.32 2482.7
202.35 378.58 2517.7
211.53 383.40 2549.7
219.44 385.68 2564.9
233.35 386.70 2571.6
232.24 374.17 2488.3
230.99 362.09 2408.0
238.34 363.78 2419.2
252.21 375.08 2494.4
265.96 385.63 2564.6
282.49 381.04 2534.0
280.35 369.55 2457.6
286.98 369.89 2459.8
294.80 371.70 2471.9
303.75 374.83 2492.7
316.71 382.69 2545.0
342.53 374.84 2492.8
359.47 365.78 2432.5
375.50 375.50 2497.2
385.27 378.74 2518.7
394.08 380.95 2533.4
396.94 377.42 2509.9
406.11 379.91 2526.5
410.43 377.85 2512.8
414.83 375.94 2500.1
432.64 386.05 2567.3
440.12 386.77 2572.1
444.56 384.85 2559.3
459.59 392.00 2606.9
487.94 393.06 2614.0
486.76 386.74 2571.9
501.03 392.70 2611.5
510.20 394.56 2623.9
518.67 395.83 2632.3
526.04 386.21 2568.4
532.23 385.87 2566.1
529.67 379.27 2522.2
522.97 369.91 2460.0
543.85 380.04 2527.4
568.00 383.07 2547.5
561.01 374.01 2487.2
576.83 380.18 2528.3
593.07 386.50 2570.3
596.03 384.11 2554.4
604.13 385.05 2560.7
676.70 404.63 2690.9
693.86 398.46 2649.8
128.84 386.51 2615.5
135.55 386.31 2614.1
156.99 389.07 2632.8
160.72 381.71 2583.0
167.07 380.92 2577.7
169.13 370.79 2509.1
176.37 372.33 2519.5
185.30 377.22 2552.6
189.29 372.05 2517.6
192.48 365.71 2474.7
199.96 367.68 2488.0
209.15 372.56 2521.1
216.91 374.66 2535.3
226.39 379.53 2568.3
232.81 379.15 2565.7
234.17 370.77 2509.0
235.33 362.53 2453.2
239.79 359.68 2433.9
250.51 366.13 2477.6
264.73 377.24 2552.7
280.41 371.70 2515.3
277.99 360.12 2436.9
283.31 358.85 2428.3
293.73 363.97 2463.0
306.13 371.27 2512.3
311.45 369.85 2502.7
317.21 369.01 2497.0
327.40 373.24 2525.7
340.58 380.65 2575.8
348.18 374.46 2533.9
352.29 371.87 2516.4
355.34 368.26 2492.0
351.58 357.86 2421.6
365.54 365.54 2473.6
374.90 368.44 2493.2
377.93 365.12 2470.7
392.40 372.78 2522.6
401.11 374.80 2536.3
410.82 377.69 2555.8
415.84 376.24 2546.0
409.47 364.69 2467.8
417.02 365.69 2474.6
428.93 370.44 2506.7
439.31 373.74 2529.1
448.08 375.59 2541.6
453.95 375.00 2537.6
464.74 378.43 2560.8
469.20 376.68 2548.9
469.05 371.33 2512.8
472.58 369.00 2497.0
489.65 377.16 2552.2
502.64 382.01 2585.0
513.88 385.41 2608.1
545.32 383.74 2596.8
530.77 368.95 2496.7
545.30 374.48 2534.1
574.25 385.08 2605.8
569.71 377.60 2555.2
567.74 371.97 2517.1
577.26 373.91 2530.2
586.16 375.41 2540.4
590.17 373.77 2529.3
600.94 376.41 2547.1
605.36 375.06 2538.0
615.30 377.12 2551.9
612.18 371.21 2512.0
662.24 393.20 2660.8
667.77 392.40 2655.3
148.89 379.00 2610.4
153.16 372.92 2568.6
161.89 377.73 2601.7
169.24 379.11 2611.2
172.39 371.30 2557.4
175.67 364.36 2509.6
180.86 361.71 2491.4
187.80 362.65 2497.8
194.32 362.72 2498.3
198.06 357.78 2464.3
203.26 355.70 2450.0
211.76 359.35 2475.1
221.86 365.42 2517.0
226.46 362.34 2495.7
225.98 351.52 2421.2
233.15 352.87 2430.5
243.27 358.50 2469.3
250.51 359.70 2477.5
261.15 365.61 2518.2
289.08 367.92 2534.2
285.93 355.83 2450.9
286.69 349.02 2403.9
302.65 360.61 2483.8
312.79 364.92 2513.5
314.96 359.96 2479.3
321.03 359.56 2476.5
325.79 357.73 2463.9
328.10 353.34 2433.7
339.28 358.48 2469.2
357.78 371.03 2555.5
363.85 370.47 2551.7
362.09 362.09 2494.0
365.67 359.25 2474.5
364.44 351.87 2423.6
371.03 352.17 2425.6
387.98 362.12 2494.2
399.40 366.66 2525.5
411.75 371.91 2561.6
414.56 368.49 2538.1
406.38 355.58 2449.2
416.84 359.12 2473.5
431.92 366.48 2524.2
430.32 359.67 2477.3
459.33 362.29 2495.3
484.30 376.67 2594.4
481.41 369.30 2543.6
492.06 372.37 2564.8
506.79 378.40 2606.4
520.00 383.16 2639.1
523.29 380.58 2621.3
521.20 374.19 2577.3
552.63 382.07 2631.6
546.61 373.30 2571.2
544.45 367.34 2530.1
550.51 367.01 2527.8
548.88 361.62 2490.7
591.37 363.92 2506.6
606.49 369.17 2542.7
631.54 364.60 2511.3
670.83 383.33 2640.3
675.53 382.12 2632.0
136.98 376.70 2641.8
151.98 363.43 2548.7
162.62 372.67 2613.6
173.25 366.50 2570.2
174.70 355.87 2495.7
180.92 355.38 2492.3
188.54 357.57 2507.6
194.85 357.22 2505.2
198.53 352.22 2470.1
205.54 353.27 2477.5
216.22 360.37 2527.3
218.90 354.11 2483.3
240.15 347.59 2437.7
248.60 350.60 2458.7
291.88 364.85 2558.7
289.71 354.09 2483.2
292.94 342.80 2404.1
304.10 348.44 2443.6
308.34 346.09 2427.1
315.29 346.82 2432.2
320.84 346.01 2426.5
335.76 355.13 2490.5
366.08 366.08 2567.3
364.78 358.26 2512.5
368.26 355.34 2492.0
368.40 349.34 2449.9
376.26 350.75 2459.8
395.73 362.75 2544.0
402.94 357.45 2506.8
410.40 347.27 2435.4
430.07 358.39 2513.4
432.17 354.76 2487.9
432.58 349.88 2453.7
462.90 358.58 2514.7
513.10 371.32 2604.1
538.44 370.18 2596.0
555.04 372.28 2610.8
555.06 367.81 2579.4
563.77 369.13 2588.7
564.42 365.21 2561.2
554.16 354.40 2485.4
623.25 372.59 2613.0
641.26 379.24 2659.6
624.09 365.16 2560.9
626.09 358.70 2515.6
660.02 374.24 2624.5
688.62 386.47 2710.3
678.72 377.07 2644.4
144.26 354.10 2529.3
154.86 363.59 2597.1
162.56 365.75 2612.5
174.97 349.94 2499.6
177.40 342.13 2443.8
186.52 347.32 2480.9
194.69 350.43 2503.1
198.75 346.22 2473.0
206.68 348.77 2491.2
217.23 355.47 2539.1
219.42 348.48 2489.2
223.04 344.12 2458.0
232.12 348.19 2487.0
238.61 348.24 2487.4
245.87 349.40 2495.7
247.90 343.24 2451.7
258.17 348.53 2489.5
276.65 347.42 2481.6
286.25 343.50 2453.6
297.22 348.91 2492.2
297.72 342.06 2443.3
300.90 338.51 2417.9
308.20 339.64 2426.0
318.33 343.80 2455.7
323.68 342.72 2448.0
339.18 352.23 2515.9
357.48 357.48 2553.4
368.03 361.34 2581.0
382.96 356.55 2546.8
374.14 342.44 2446.0
377.14 339.43 2424.5
397.20 351.62 2511.6
397.58 346.28 2473.4
419.93 348.87 2491.9
437.91 358.29 2559.2
440.11 354.72 2533.7
440.64 349.92 2499.4
452.51 354.14 2529.6
459.93 354.80 2534.3
472.56 359.41 2567.2
510.36 367.46 2624.7
504.47 349.25 2494.7
523.73 353.52 2525.1
548.34 365.56 2611.1
552.76 364.01 2600.1
538.37 350.26 2501.9
567.81 360.73 2576.6
584.91 363.04 2593.2
570.81 350.27 2501.9
664.36 373.70 2669.3
675.95 376.30 2687.9
674.70 371.77 2655.5
681.66 371.81 2655.8
701.05 378.57 2704.1
141.76 357.77 2603.7
179.67 352.68 2566.7
177.54 336.05 2445.6
197.52 348.95 2539.5
207.49 343.65 2501.0
207.09 332.59 2420.5
216.19 337.00 2452.5
226.52 343.02 2496.4
250.27 340.12 2475.2
249.88 331.09 2409.6
259.72 335.74 2443.4
278.21 351.08 2555.0
283.22 349.09 2540.5
275.35 331.68 2413.8
283.71 334.15 2431.8
300.96 346.76 2523.6
307.77 347.06 2525.8
315.69 348.57 2536.8
327.66 354.40 2579.2
338.08 351.34 2556.9
336.52 342.99 2496.2
336.40 336.40 2448.2
343.12 330.64 2406.3
369.02 349.25 2541.7
381.92 348.99 2539.8
373.37 335.40 2440.9
390.06 338.91 2466.5
399.76 341.73 2487.0
401.57 337.83 2458.6
410.05 339.58 2471.3
427.81 348.83 2538.7
430.54 345.73 2516.1
454.93 349.44 2543.1
463.62 351.03 2554.6
477.57 356.49 2594.4
483.89 356.20 2592.3
476.01 345.60 2515.1
478.01 342.36 2491.6
508.90 350.28 2549.2
521.93 354.65 2581.0
522.39 350.47 2550.6
523.51 346.82 2524.1
526.12 344.25 2505.3
564.38 351.91 2561.0
584.95 360.49 2623.5
573.98 349.67 2544.7
577.61 347.88 2531.7
585.86 348.88 2539.0
589.86 347.36 2528.0
629.30 366.52 2667.4
650.94 363.15 2642.9
681.74 372.50 2710.9
679.07 367.25 2672.7
683.37 365.84 2662.5
701.29 371.68 2705.0
182.98 339.82 2520.6
192.44 333.56 2474.2
205.72 345.08 2559.7
204.28 331.96 2462.3
205.05 323.10 2396.6
214.69 328.36 2435.6
225.88 335.60 2489.3
243.79 342.62 2541.4
235.94 322.86 2394.8
241.29 321.72 2386.4
250.48 325.62 2415.3
260.55 330.45 2451.1
278.85 345.24 2560.8
291.39 336.72 2497.6
296.48 335.16 2486.0
308.71 341.55 2533.5
333.08 346.40 2569.4
343.39 350.13 2597.1
349.75 349.75 2594.3
343.80 337.32 2502.1
357.47 331.93 2462.1
368.93 336.57 2496.5
365.10 327.33 2428.0
370.95 326.94 2425.1
384.56 333.28 2472.2
389.11 331.70 2460.4
402.35 332.10 2463.4
426.25 346.33 2568.9
425.82 340.65 2526.8
480.42 356.88 2647.2
478.98 350.81 2602.1
469.32 338.95 2514.2
481.72 338.51 2510.9
500.02 342.12 2537.7
523.23 353.35 2621.0
521.91 347.94 2580.9
518.99 341.61 2533.9
559.28 346.22 2568.1
578.43 353.87 2624.8
568.09 343.50 2547.9
569.81 340.57 2526.2
585.30 345.86 2565.4
597.42 349.05 2589.1
605.60 349.90 2595.4
593.76 339.29 2516.7
639.82 357.75 2653.6
661.81 366.11 2715.6
657.31 359.79 2668.8
663.12 359.19 2664.3
676.40 362.60 2689.6
682.96 362.39 2688.0
687.04 360.87 2676.8
705.50 366.86 2721.2
149.49 346.55 2621.0
163.07 332.65 2515.9
172.29 337.96 2556.0
177.78 335.81 2539.7
184.19 335.49 2537.3
189.77 333.72 2524.0
192.43 327.13 2474.1
197.53 324.97 2457.8
202.06 322.03 2435.5
208.66 322.48 2438.9
217.38 326.07 2466.1
227.31 331.22 2505.0
244.91 337.58 2553.2
237.18 318.32 2407.5
242.27 316.81 2396.0
249.85 318.55 2409.2
258.64 321.73 2433.2
269.17 326.85 2472.0
274.52 325.59 2462.4
283.29 328.36 2483.4
288.27 326.71 2470.9
293.88 325.83 2464.2
306.54 332.63 2515.7
312.23 331.74 2509.0
313.01 325.79 2463.9
321.08 327.50 2476.9
336.36 336.36 2543.9
346.55 339.89 2570.6
344.05 331.07 2503.9
344.24 325.11 2458.8
354.27 328.50 2484.5
360.43 328.25 2482.6
357.89 320.22 2421.8
365.81 321.66 2432.7
383.22 331.26 2505.3
391.70 332.94 2518.1
390.95 326.86 2472.0
404.88 327.76 2478.9
425.42 339.01 2563.9
421.01 330.33 2498.3
417.78 322.83 2441.6
443.95 337.93 2555.8
488.12 350.62 2651.7
492.77 349.04 2639.8
514.39 354.51 2681.2
506.71 344.56 2605.9
520.89 349.54 2643.6
526.40 344.19 2603.1
523.45 333.70 2523.8
532.17 335.07 2534.1
536.19 333.49 2522.2
569.78 350.11 2647.9
573.29 343.97 2601.5
576.26 341.74 2584.6
594.21 348.33 2634.4
607.11 351.85 2661.0
616.96 345.77 2615.1
664.84 360.71 2728.1
690.16 362.87 2744.4
690.99 359.60 2719.6
688.74 354.80 2683.4
701.74 357.89 2706.7
144.97 329.47 2541.6
157.98 329.12 2538.9
164.98 329.96 2545.4
171.82 330.42 2548.9
177.98 329.59 2542.6
185.04 330.43 2549.0
193.17 333.06 2569.3
198.57 330.94 2553.0
203.87 328.83 2536.7
208.19 325.30 2509.5
209.49 317.42 2448.6
213.01 313.25 2416.5
223.44 319.20 2462.4
239.35 332.43 2564.5
246.40 324.21 2501.1
252.62 323.87 2498.5
261.39 326.73 2520.5
258.31 315.01 2430.1
266.04 309.34 2386.4
277.65 315.52 2434.0
286.07 317.85 2452.0
295.04 320.69 2473.9
309.52 329.27 2540.1
316.62 329.81 2544.2
313.61 320.01 2468.7
318.12 318.12 2454.1
331.27 324.78 2505.4
339.11 326.07 2515.4
336.06 317.04 2445.7
348.78 317.07 2446.0
357.27 319.00 2460.8
367.44 322.31 2486.4
389.97 336.18 2593.4
397.44 336.81 2598.3
395.48 329.57 2542.4
400.83 328.55 2534.6
404.41 326.14 2515.9
412.37 327.28 2524.7
423.94 331.20 2555.0
427.09 328.53 2534.4
431.47 326.87 2521.6
445.46 332.43 2564.5
458.62 337.22 2601.4
457.13 331.25 2555.4
459.12 327.94 2529.8
461.16 324.76 2505.3
485.52 332.55 2565.4
496.80 335.68 2589.5
498.16 332.11 2562.0
521.05 342.80 2644.4
530.07 335.49 2588.1
545.38 340.86 2629.5
569.14 338.77 2613.4
565.78 332.81 2567.4
578.82 336.52 2596.1
599.86 344.75 2659.5
608.73 341.98 2638.2
630.59 346.48 2672.8
642.68 349.28 2694.5
670.05 345.39 2664.4
681.80 344.34 2656.4
147.67 328.90 2589.0
151.76 323.32 2545.1
164.68 336.22 2646.7
182.61 331.40 2608.7
185.10 323.93 2549.9
188.48 318.46 2506.8
197.40 322.42 2538.0
206.32 326.12 2567.2
206.95 316.89 2494.5
204.24 303.26 2387.2
216.25 302.75 2383.1
231.78 315.48 2483.3
240.43 318.41 2506.4
243.76 314.32 2474.2
255.60 321.14 2527.9
267.31 311.86 2454.9
280.33 312.19 2457.4
293.29 319.36 2513.9
308.29 328.40 2585.1
314.84 314.84 2478.3
314.78 308.49 2428.3
323.44 310.76 2446.2
339.22 319.65 2516.2
345.22 319.17 2512.4
339.78 308.32 2427.0
346.51 308.71 2430.1
359.10 314.21 2473.4
374.37 321.83 2533.3
381.98 322.71 2540.3
374.46 311.00 2448.1
381.28 311.37 2451.1
395.07 317.35 2498.1
401.71 317.48 2499.1
412.66 320.96 2526.5
427.81 327.54 2578.3
434.97 327.90 2581.1
437.29 324.66 2555.6
448.65 328.12 2582.9
454.98 327.85 2580.8
446.44 317.04 2495.6
456.96 319.87 2518.0
468.31 323.20 2544.1
490.97 325.10 2559.1
514.04 335.84 2643.6
511.24 329.62 2594.7
511.31 325.38 2561.3
523.59 328.92 2589.2
525.66 326.04 2566.5
536.08 328.35 2584.6
552.90 334.47 2632.9
562.12 335.90 2644.1
556.78 328.70 2587.4
560.87 327.17 2575.4
583.90 336.60 2649.6
570.15 324.85 2557.1
668.78 341.36 2687.1
152.81 318.92 2562.7
163.07 326.14 2620.8
168.87 324.24 2605.5
170.26 314.33 2525.8
174.28 309.84 2489.7
192.77 308.43 2478.5
203.84 315.63 2536.3
206.60 309.90 2490.3
208.28 302.95 2434.4
215.32 303.99 2442.8
215.87 296.05 2379.0
221.89 295.86 2377.4
238.05 308.82 2481.6
249.77 315.50 2535.3
259.17 318.98 2563.3
294.99 307.82 2473.5
319.15 319.15 2564.6
312.56 306.18 2460.4
318.33 305.59 2455.7
325.63 306.47 2462.7
339.99 313.84 2521.9
355.46 321.93 2586.9
359.57 319.61 2568.3
357.41 311.92 2506.5
361.35 309.73 2488.9
371.59 312.92 2514.5
373.39 309.01 2483.1
375.63 305.60 2455.7
391.92 313.54 2519.5
410.24 322.81 2594.0
421.05 325.97 2619.4
421.75 321.33 2582.1
426.15 319.62 2568.3
436.43 322.28 2589.8
442.28 321.66 2584.8
446.76 320.06 2571.9
445.99 314.82 2529.8
450.95 313.70 2520.8
478.02 327.78 2634.0
488.76 330.43 2655.2
471.01 314.01 2523.3
478.44 314.59 2528.0
512.07 332.15 2669.1
513.51 324.32 2606.2
510.49 318.23 2557.2
520.21 320.13 2572.5
524.23 318.52 2559.5
536.85 322.11 2588.4
538.18 318.92 2562.8
569.90 329.58 2648.4
595.09 324.60 2608.4
644.00 336.00 2700.0
646.20 333.52 2680.1
660.52 337.29 2710.4
666.92 336.97 2707.8
687.89 340.40 2735.4
677.45 331.81 2666.3
689.87 334.48 2687.8
153.57 313.82 2575.4
160.90 315.10 2585.9
163.73 307.80 2526.1
171.63 298.77 2451.9
179.90 301.97 2478.2
190.61 308.91 2535.1
199.30 312.23 2562.4
214.14 314.51 2581.1
218.67 311.43 2555.8
225.33 311.48 2556.3
225.53 302.86 2485.5
221.96 289.78 2378.1
227.98 289.59 2376.6
244.98 303.00 2486.7
262.66 308.62 2532.8
262.54 300.96 2469.9
275.64 308.46 2531.4
278.06 303.92 2494.2
276.23 295.06 2421.5
288.06 300.87 2469.1
292.61 298.97 2453.6
302.61 302.61 2483.4
311.52 305.03 2503.3
312.41 299.66 2459.2
323.15 303.76 2492.9
335.75 309.42 2539.3
343.28 310.27 2546.3
351.11 311.36 2555.3
364.36 317.13 2602.6
371.11 317.13 2602.6
373.59 313.55 2573.2
382.73 315.59 2589.9
388.56 314.87 2584.0
395.11 314.75 2583.1
402.88 315.59 2589.9
412.22 317.61 2606.6
426.20 317.96 2609.4
422.55 310.31 2546.6
424.35 306.84 2518.1
433.21 308.50 2531.7
440.94 309.32 2538.5
454.74 314.31 2579.4
481.54 318.77 2616.0
474.25 309.58 2540.6
492.25 316.93 2600.9
506.61 321.77 2640.7
497.68 311.88 2559.5
546.50 325.13 2668.3
557.93 323.74 2656.8
547.39 313.75 2574.8
596.70 322.35 2645.4
690.12 330.98 2716.2
153.03 306.05 2566.3
160.64 307.90 2581.7
166.22 305.84 2564.5
171.17 302.83 2539.3
175.99 299.83 2514.1
184.20 302.61 2537.4
194.68 308.81 2589.4
203.57 302.08 2532.9
201.15 289.15 2424.5
209.76 292.39 2451.7
220.60 298.46 2502.6
228.39 300.16 2516.9
232.27 296.79 2488.6
231.55 287.88 2413.9
241.16 291.93 2447.9
263.46 302.97 2540.5
260.31 292.06 2448.9
270.46 296.22 2483.8
279.68 299.20 2508.8
285.43 298.41 2502.2
312.43 305.78 2564.0
314.56 301.45 2527.7
318.26 298.77 2505.3
331.80 305.26 2559.6
341.71 308.21 2584.4
346.30 306.34 2568.7
348.38 302.37 2535.4
355.79 303.08 2541.4
365.34 305.56 2562.1
370.42 304.27 2551.4
377.62 304.75 2555.3
381.45 302.53 2536.7
386.07 301.01 2524.0
392.16 300.66 2521.0
396.52 299.02 2507.3
403.49 299.37 2510.2
416.88 304.39 2552.3
424.95 305.43 2561.1
426.13 301.57 2528.7
434.68 302.96 2540.3
441.25 302.95 2540.2
453.50 306.78 2572.4
472.21 314.81 2639.7
479.55 315.13 2642.4
493.19 319.53 2679.3
502.37 316.56 2654.4
491.23 305.36 2560.5
497.63 305.22 2559.3
535.70 311.93 2615.5
548.87 315.60 2646.3
561.97 319.15 2676.1
554.56 307.35 2577.2
140.50 301.08 2580.7
148.76 304.28 2608.1
158.04 309.21 2650.3
165.07 309.51 2652.9
169.80 305.64 2619.8
173.56 300.39 2574.7
177.43 295.71 2534.6
181.45 291.61 2499.5
188.11 291.90 2502.0
193.33 290.00 2485.7
217.00 287.21 2461.8
228.09 293.26 2513.7
238.16 297.70 2551.7
243.48 296.12 2538.2
243.38 288.21 2470.4
250.12 288.60 2473.7
263.43 296.36 2540.2
268.90 295.13 2529.7
272.58 292.05 2503.3
274.81 287.60 2465.1
279.55 285.90 2450.6
293.65 293.65 2517.0
299.26 292.75 2509.3
299.54 286.80 2458.3
314.16 294.53 2524.5
338.03 304.22 2607.6
340.38 300.33 2574.3
342.16 296.10 2538.0
341.59 290.03 2485.9
347.77 289.81 2484.1
356.33 291.54 2498.9
359.11 288.57 2473.5
363.65 287.09 2460.8
372.84 289.27 2479.5
383.78 292.72 2509.0
391.82 293.86 2518.8
397.57 293.29 2513.9
413.07 299.81 2569.8
439.79 304.47 2609.7
468.64 310.13 2658.2
469.90 306.46 2626.8
471.35 303.01 2597.2
478.95 303.56 2601.9
490.21 306.38 2626.1
482.01 297.13 2546.8
492.31 299.38 2566.1
523.19 313.91 2690.7
524.92 310.81 2664.0
507.06 296.33 2540.0
523.23 301.87 2587.4
553.60 315.34 2702.9
139.25 291.76 2557.6
145.07 290.14 2543.4
155.42 297.33 2606.5
163.58 299.89 2628.9
165.22 290.79 2549.2
177.27 288.88 2532.4
189.05 297.08 2604.3
190.85 289.57 2538.4
192.08 281.71 2469.6
211.92 274.25 2404.1
222.23 279.38 2449.1
232.04 283.60 2486.1
235.49 280.04 2454.9
233.32 270.16 2368.2
242.49 273.58 2398.3
257.87 283.66 2486.6
257.42 276.26 2421.7
281.21 281.21 2465.1
292.70 286.19 2508.8
295.46 282.62 2477.5
306.03 280.53 2459.2
329.09 295.51 2590.5
338.91 292.40 2563.2
334.29 282.86 2479.6
339.79 282.09 2472.9
352.42 287.16 2517.3
364.29 291.43 2554.8
370.35 290.99 2550.9
372.47 287.52 2520.5
379.45 287.86 2523.4
392.46 292.68 2565.7
403.08 295.59 2591.2
404.67 291.89 2558.8
415.87 295.13 2587.2
428.82 299.49 2625.4
424.22 291.65 2556.7
428.19 289.85 2540.9
449.68 299.79 2628.0
452.73 292.94 2568.0
461.98 294.60 2582.5
471.49 296.36 2598.0
508.18 302.16 2648.8
521.44 305.91 2681.7
502.78 291.08 2551.7
528.90 298.35 2615.4
140.21 287.09 2575.3
159.18 285.20 2558.2
162.57 279.62 2508.2
177.25 282.29 2532.2
191.84 294.61 2642.7
196.27 291.02 2610.5
196.45 281.58 2525.8
196.11 272.02 2440.1
199.19 267.66 2400.9
207.23 270.03 2422.2
211.81 267.87 2402.9
216.64 266.16 2387.5
231.18 276.13 2477.0
239.73 278.61 2499.1
235.62 266.63 2391.7
243.36 268.32 2406.9
258.15 277.51 2489.3
256.97 269.51 2417.5
276.51 276.51 2480.4
282.19 275.78 2473.7
284.83 272.17 2441.4
298.25 278.80 2500.9
307.17 281.03 2520.9
308.82 276.65 2481.6
320.42 281.18 2522.2
331.45 285.05 2556.9
326.76 275.51 2471.3
336.51 278.27 2496.1
357.34 289.92 2600.6
364.23 290.04 2601.7
370.14 289.39 2595.8
381.59 293.01 2628.3
388.85 293.34 2631.3
388.13 287.75 2581.2
393.92 287.10 2575.3
406.71 291.47 2614.6
410.68 289.50 2596.8
401.63 278.55 2498.6
458.44 285.69 2562.7
473.93 291.13 2611.4
466.98 282.82 2536.9
500.77 294.97 2645.9
515.52 295.56 2651.2
526.36 297.81 2671.4
543.23 299.47 2686.3
151.21 288.67 2651.0
154.92 282.90 2598.1
160.95 281.67 2586.7
170.08 285.73 2624.0
177.78 287.19 2637.5
181.47 282.28 2592.4
186.57 279.85 2570.1
192.90 279.37 2565.6
194.81 272.73 2504.7
199.03 269.65 2476.4
206.64 271.22 2490.8
214.41 272.88 2506.1
218.59 270.02 2479.8
219.67 263.60 2420.8
230.05 268.39 2464.8
243.69 276.62 2540.4
243.88 269.55 2475.5
240.73 259.25 2380.9
258.30 264.60 2430.0
277.45 277.45 2548.0
284.30 271.37 2492.2
282.49 263.66 2421.4
291.04 265.73 2440.4
306.65 274.03 2516.6
314.80 275.45 2529.6
309.48 265.27 2436.1
346.30 279.70 2568.7
363.64 282.83 2597.5
365.05 278.77 2560.1
371.99 278.99 2562.1
384.30 283.17 2600.6
388.83 281.57 2585.8
392.68 279.53 2567.1
402.85 281.99 2589.7
411.11 283.06 2599.5
405.85 274.93 2524.9
406.46 270.97 2488.5
423.32 277.80 2551.2
423.97 273.95 2515.9
455.76 277.42 2547.7
465.89 279.53 2567.1
481.33 284.73 2614.9
511.07 294.04 2700.4
501.34 284.55 2613.2
513.95 287.81 2643.2
554.43 287.48 2640.1
156.74 279.40 2628.5
162.29 277.25 2608.3
170.51 279.63 2630.7
191.01 279.70 2631.3
194.96 275.64 2593.1
195.63 267.36 2515.3
198.69 262.78 2472.1
204.97 262.62 2470.6
211.33 262.56 2470.1
218.65 263.66 2480.5
223.05 261.29 2458.1
227.61 259.23 2438.7
234.55 259.90 2445.1
243.46 262.68 2471.2
249.40 262.19 2466.6
250.09 256.34 2411.6
260.79 260.79 2453.4
273.32 266.81 2510.1
275.68 262.85 2472.8
279.19 260.15 2447.4
283.61 258.40 2430.9
296.75 258.87 2435.4
311.32 265.92 2501.7
312.20 261.22 2457.5
325.64 261.79 2462.8
338.56 266.94 2511.3
336.96 260.67 2452.3
344.85 261.83 2463.2
353.64 263.62 2480.1
358.80 262.69 2471.3
368.85 265.31 2496.0
381.54 269.71 2537.3
393.54 273.47 2572.7
409.38 279.74 2631.7
421.74 278.89 2623.7
426.28 277.42 2609.9
436.81 275.53 2592.1
459.39 272.97 2568.0
467.43 273.78 2575.7
480.56 277.50 2610.7
502.70 282.34 2656.1
501.66 277.95 2614.8
547.62 284.21 2673.7
152.71 277.65 2677.3
154.47 268.65 2590.5
159.50 265.83 2563.3
164.83 263.72 2543.1
172.73 265.74 2562.5
184.76 273.72 2639.4
203.71 271.61 2619.1
206.55 266.52 2570.0
212.76 265.95 2564.5
215.63 261.37 2520.3
219.67 258.43 2492.0
225.18 257.35 2481.6
231.28 256.98 2478.0
237.36 256.61 2474.4
245.38 258.29 2490.6
253.57 260.07 2507.8
256.52 256.52 2473.5
262.96 256.55 2473.9
270.60 257.71 2485.1
274.10 254.97 2458.7
278.70 253.36 2443.1
287.83 255.85 2467.1
295.55 257.00 2478.2
299.36 254.77 2456.7
306.98 255.82 2466.8
322.56 263.31 2539.1
334.66 267.73 2581.7
337.20 264.47 2550.2
334.92 257.63 2484.3
339.62 256.32 2471.6
354.87 262.87 2534.8
358.65 260.84 2515.2
358.32 255.94 2468.0
371.42 260.65 2513.4
387.26 267.08 2575.4
399.20 270.65 2609.8
418.85 270.23 2605.8
418.54 265.74 2562.5
428.43 267.77 2582.0
435.93 268.27 2586.8
432.89 262.36 2529.9
437.38 261.12 2518.0
462.20 271.88 2621.7
473.34 274.40 2646.0
468.27 267.58 2580.2
466.63 262.89 2535.0
488.77 267.82 2582.5
503.11 271.95 2622.4
520.10 277.39 2674.8
526.59 277.15 2672.6
531.12 275.90 2660.5
161.08 261.76 2588.8
176.96 255.60 2528.0
187.15 260.68 2578.1
196.41 264.14 2612.3
218.91 258.71 2558.7
221.38 253.94 2511.5
225.60 251.38 2486.2
235.87 255.53 2527.2
247.98 254.50 2517.0
249.63 249.63 2468.9
255.15 248.77 2460.3
264.08 251.20 2484.4
272.93 253.43 2506.5
277.80 251.96 2491.9
285.20 252.79 2500.1
296.90 257.31 2544.9
302.35 256.34 2535.2
303.65 251.96 2492.0
313.58 254.78 2519.8
336.28 262.30 2594.2
331.55 253.54 2507.5
343.78 257.84 2550.0
363.80 262.74 2598.5
351.72 249.40 2466.6
356.98 248.61 2458.8
375.88 257.18 2543.5
391.95 263.55 2606.6
404.12 267.13 2642.0
401.18 260.76 2579.0
392.31 250.82 2480.7
396.38 249.33 2465.9
405.65 251.12 2483.6
423.49 258.06 2552.3
440.67 264.40 2615.0
436.86 258.14 2553.1
440.73 256.55 2537.3
443.49 254.35 2515.6
470.72 258.56 2557.2
480.23 260.13 2572.7
499.26 266.73 2638.0
506.42 266.90 2639.6
514.92 267.76 2648.1
162.61 257.46 2613.3
167.62 254.78 2586.1
177.77 259.82 2637.3
180.69 254.30 2581.2
184.39 250.24 2540.1
189.30 248.04 2517.7
195.40 247.51 2512.3
203.47 249.41 2531.6
203.90 242.13 2457.7
206.41 237.68 2412.5
212.18 237.14 2407.1
226.31 238.89 2424.8
238.62 245.07 2487.6
242.96 242.96 2466.2
248.39 242.02 2456.6
257.37 244.50 2481.7
267.10 247.55 2512.7
276.77 250.41 2541.7
298.53 246.61 2503.2
303.12 245.08 2487.6
316.48 250.55 2543.2
335.22 254.76 2585.9
322.37 240.20 2438.1
349.14 250.33 2540.9
353.54 248.79 2525.3
377.14 251.43 2552.1
396.99 251.43 2552.1
388.53 242.03 2456.7
393.16 240.97 2445.9
413.17 245.32 2490.1
430.36 251.60 2553.8
474.37 257.51 2613.9
521.12 264.04 2680.1
518.39 259.19 2630.9
144.06 253.82 2646.0
162.46 250.46 2611.0
170.81 252.80 2635.4
179.62 255.62 2664.7
181.43 248.62 2591.8
185.66 245.34 2557.6
191.06 243.77 2541.2
190.43 234.87 2448.4
226.18 232.47 2423.4
237.26 237.26 2473.3
244.10 237.67 2477.7
251.86 238.94 2490.9
256.09 236.89 2469.5
260.74 235.30 2453.0
279.31 246.06 2565.1
291.51 239.69 2498.7
290.47 233.64 2435.6
297.42 234.14 2440.8
309.31 238.42 2485.5
323.05 243.94 2543.0
346.20 251.16 2618.3
334.51 238.02 2481.3
342.86 239.35 2495.2
358.18 245.42 2558.4
359.62 241.93 2522.0
356.45 235.51 2455.1
369.95 240.15 2503.4
392.73 250.54 2611.8
398.90 250.16 2607.8
400.61 247.04 2575.3
404.02 245.06 2554.7
408.89 244.02 2543.8
414.84 243.64 2539.8
417.83 241.56 2518.2
423.35 240.99 2512.2
427.84 239.85 2500.3
437.71 241.72 2519.9
459.78 250.17 2608.0
534.43 256.81 2677.1
162.32 243.47 2608.6
168.95 233.93 2506.4
177.85 237.14 2540.8
188.66 242.56 2598.9
196.56 244.00 2614.3
198.28 237.93 2549.3
202.29 234.92 2517.0
208.11 234.13 2508.5
208.71 227.69 2439.5
214.55 227.18 2434.0
225.40 231.84 2484.0
237.53 237.53 2544.9
247.49 240.80 2580.0
252.65 239.35 2564.5
256.03 236.33 2532.1
255.44 229.89 2463.1
261.02 229.19 2455.6
280.78 240.67 2578.6
284.43 227.54 2437.9
311.47 233.60 2502.9
319.62 234.82 2515.9
332.56 239.44 2565.5
352.29 239.29 2563.9
357.02 238.01 2550.2
372.92 244.09 2615.3
378.19 238.86 2559.2
380.83 236.38 2532.6
397.79 242.72 2600.6
411.42 246.85 2644.8
415.47 245.19 2627.1
420.69 244.27 2617.2
425.69 243.25 2606.3
427.87 240.68 2578.7
432.55 239.57 2566.8
435.83 237.73 2547.1
444.97 239.09 2561.7
498.32 245.75 2633.0
516.92 251.47 2694.4
162.48 236.95 2611.2
176.50 228.80 2521.5
183.37 229.21 2526.0
187.04 225.74 2487.8
202.11 235.79 2598.5
217.51 230.69 2542.3
218.54 224.97 2479.2
224.65 224.65 2475.7
233.32 226.84 2499.9
240.03 227.06 2502.3
247.53 227.99 2512.6
252.98 227.03 2502.0
254.57 222.75 2454.8
262.45 224.04 2469.0
275.35 229.46 2528.7
285.80 232.63 2563.7
294.96 234.63 2585.7
290.84 226.21 2492.9
297.44 221.50 2441.0
314.74 229.50 2529.2
320.32 228.80 2521.5
322.27 225.59 2486.1
329.39 226.05 2491.2
337.60 227.23 2504.1
340.31 224.73 2476.6
347.58 225.28 2482.7
366.82 233.43 2572.5
387.14 233.62 2574.6
397.43 235.77 2598.2
408.15 238.08 2623.8
408.87 234.60 2585.4
404.34 228.26 2515.5
450.53 235.35 2593.7
494.25 243.64 2685.0
488.18 237.31 2615.3
162.21 229.79 2606.9
184.96 232.92 2642.3
180.89 219.65 2491.8
200.53 227.27 2578.2
203.85 216.59 2457.1
212.97 219.43 2489.3
227.34 227.34 2579.0
225.51 219.07 2485.2
226.99 214.38 2432.0
238.66 219.31 2488.0
251.69 225.20 2554.8
255.64 222.87 2528.4
255.66 217.31 2465.3
260.93 216.38 2454.7
271.42 219.72 2492.7
275.60 217.92 2472.2
278.20 214.97 2438.8
289.52 218.75 2481.6
298.82 220.86 2505.6
305.46 220.97 2506.8
315.06 223.17 2531.7
322.78 223.97 2540.8
326.82 222.24 2521.2
331.55 221.03 2507.5
337.14 220.44 2500.8
340.93 218.71 2481.2
349.31 219.94 2495.1
359.17 222.03 2518.9
370.72 225.08 2553.4
379.24 226.21 2566.3
380.56 223.09 2530.8
385.17 221.96 2518.1
389.40 220.66 2503.3
445.86 226.25 2566.8
458.71 229.36 2601.9
185.69 218.85 2557.9
193.70 220.42 2576.3
194.70 214.17 2503.3
208.60 208.60 2438.2
231.39 212.11 2479.2
236.24 210.70 2462.7
252.43 219.22 2562.3
259.41 219.50 2565.6
263.73 217.58 2543.1
273.41 220.06 2572.2
275.90 216.78 2533.8
271.24 208.16 2433.1
284.50 208.64 2438.6
293.81 210.78 2463.6
300.95 211.30 2469.8
314.76 216.40 2529.3
327.62 220.64 2578.9
332.92 219.72 2568.2
339.20 219.48 2565.4
349.06 221.52 2589.2
357.28 222.46 2600.2
362.10 221.28 2586.4
368.11 220.87 2581.6
368.22 216.99 2536.2
365.34 211.51 2472.2
393.47 216.41 2529.4
416.68 225.42 2634.7
411.80 219.18 2561.9
416.82 218.34 2552.0
433.70 223.63 2613.8
442.95 224.88 2628.5
443.52 221.76 2592.0
444.59 218.98 2559.5
454.31 220.48 2577.0
171.07 218.97 2639.4
178.15 211.14 2545.1
187.89 214.73 2588.3
202.78 216.30 2607.2
198.64 205.05 2471.6
215.71 203.02 2447.1
229.48 209.81 2529.0
230.61 204.99 2470.8
236.20 204.28 2462.3
253.07 213.11 2568.8
281.25 214.29 2582.9
277.27 206.34 2487.1
280.36 203.90 2457.7
289.65 205.97 2482.7
297.06 206.65 2490.9
303.42 206.59 2490.1
316.43 210.95 2542.7
326.56 213.26 2570.6
329.91 211.14 2545.0
341.62 214.35 2583.7
371.28 216.02 2603.8
367.16 209.80 2528.9
367.02 206.05 2483.6
369.61 203.92 2458.0
392.17 209.16 2521.1
452.02 219.16 2641.7
450.99 215.40 2596.3
459.95 216.45 2608.9
499.29 221.91 2674.8
175.71 209.50 2606.7
182.16 209.14 2602.3
195.33 201.84 2511.3
204.11 204.11 2539.6
229.17 197.35 2455.4
245.29 205.51 2557.1
255.18 208.17 2590.1
261.02 207.48 2581.6
269.81 209.10 2601.7
274.90 207.85 2586.1
281.74 207.95 2587.4
286.71 206.70 2571.8
288.66 203.38 2530.5
296.64 204.35 2542.6
306.33 206.44 2568.6
315.30 207.96 2587.6
331.52 205.54 2557.4
336.73 204.68 2546.7
364.32 209.15 2602.3
363.76 205.03 2551.1
367.52 203.45 2531.4
377.59 205.35 2555.1
386.44 206.54 2569.9
392.80 206.39 2567.9
395.17 204.17 2540.4
405.02 205.83 2561.0
420.83 210.41 2618.1
453.64 209.89 2611.6
460.73 210.04 2613.4
491.60 214.64 2670.7
495.00 213.13 2651.8
177.67 197.41 2538.1
199.84 193.39 2486.5
202.20 189.57 2437.3
214.92 189.64 2438.2
227.05 194.62 2502.2
239.51 199.59 2566.1
248.10 201.16 2586.4
250.73 197.95 2545.0
257.06 197.74 2542.4
265.95 199.46 2564.5
271.79 198.87 2556.9
279.42 199.59 2566.1
290.30 202.54 2604.1
302.82 201.88 2595.6
308.51 201.20 2586.9
312.95 199.76 2568.3
319.39 199.62 2566.5
331.09 202.71 2606.2
332.35 199.41 2563.9
334.31 196.66 2528.4
346.61 199.97 2571.0
353.02 199.82 2569.2
353.75 196.53 2526.8
362.00 197.46 2538.7
373.47 200.07 2572.3
375.77 197.77 2542.8
377.47 195.24 2510.3
395.44 201.07 2585.2
408.68 200.99 2584.2
413.00 199.84 2569.4
417.72 198.92 2557.5
435.77 204.27 2626.3
453.05 202.86 2608.2
453.03 199.87 2569.7
467.39 203.21 2612.8
478.94 205.26 2639.1
490.07 207.07 2662.4
170.47 197.74 2630.1
175.65 195.91 2605.7
175.76 188.77 2510.8
194.63 188.14 2502.4
201.24 188.25 2503.9
208.59 189.04 2514.3
216.17 189.97 2526.7
219.34 187.09 2488.4
224.12 185.70 2469.9
257.04 196.16 2609.0
254.61 189.32 2518.1
266.11 192.93 2566.0
274.37 194.07 2581.2
280.66 193.79 2577.5
290.47 195.90 2605.6
291.83 192.34 2558.2
289.01 186.25 2477.3
292.39 184.34 2451.8
294.32 181.60 2415.4
303.69 183.48 2440.3
317.96 188.18 2502.9
327.80 190.13 2528.8
338.43 192.44 2559.6
346.95 193.49 2573.5
349.56 191.27 2544.0
353.27 189.72 2523.3
363.90 191.88 2552.1
370.39 191.81 2551.1
366.95 186.69 2483.1
373.10 186.55 2481.2
394.61 193.96 2579.8
409.12 197.74 2630.0
408.92 194.40 2585.7
411.81 192.62 2562.0
415.07 191.06 2541.2
439.17 192.97 2566.6
448.19 193.99 2580.2
453.29 193.32 2571.2
471.87 198.32 2637.8
479.21 198.53 2640.5
486.01 198.51 2640.3
497.94 200.56 2667.5
167.61 195.54 2693.7
167.79 187.93 2588.8
173.13 186.45 2568.4
180.25 186.92 2574.9
186.45 186.45 2568.5
196.07 189.31 2607.8
209.35 189.09 2604.8
213.58 186.88 2574.4
216.47 183.67 2530.1
215.18 177.21 2441.1
234.78 182.60 2515.5
256.50 189.00 2603.6
251.34 180.45 2485.8
260.19 182.13 2509.0
270.42 184.68 2544.0
278.77 185.85 2560.2
282.35 183.85 2532.7
277.87 176.82 2435.8
281.09 174.90 2409.4
289.50 176.22 2427.5
307.08 175.48 2417.3
316.71 177.36 2443.2
325.68 178.81 2463.1
333.15 179.39 2471.2
340.12 179.69 2475.3
347.80 180.34 2484.3
355.81 181.14 2495.3
359.99 180.00 2479.5
373.29 183.37 2526.0
399.99 186.66 2571.4
401.67 184.37 2539.8
406.35 183.51 2528.0
420.29 186.80 2573.2
419.60 183.58 2528.9
429.66 182.28 2511.0
437.69 182.91 2519.7
467.22 189.60 2611.8
481.23 189.78 2614.3
482.84 187.77 2586.6
179.94 186.86 2669.4
184.11 184.11 2630.1
192.05 185.19 2645.6
212.79 179.55 2564.9
212.59 173.94 2484.9
219.25 174.11 2487.3
229.34 176.92 2527.5
229.35 172.01 2457.3
232.90 169.96 2427.9
246.08 174.85 2497.8
255.60 176.96 2528.0
262.40 177.12 2530.3
270.36 178.04 2543.5
272.78 175.36 2505.1
269.47 169.20 2417.1
276.79 169.85 2426.4
292.01 175.21 2502.9
301.01 176.68 2524.0
298.77 171.63 2451.9
301.34 169.50 2421.4
313.80 172.91 2470.2
323.69 174.79 2497.0
333.85 176.74 2524.9
327.08 169.83 2426.2
347.00 170.34 2433.5
362.35 174.71 2495.8
397.15 178.72 2553.1
394.57 174.65 2495.0
407.53 177.47 2535.3
431.46 184.91 2641.6
436.66 184.22 2631.7
436.34 181.25 2589.2
440.00 180.00 2571.4
433.33 174.62 2494.6
504.80 186.71 2667.2
201.00 174.20 2584.3
206.14 172.90 2564.9
211.76 172.05 2552.5
215.61 169.87 2520.1
226.12 172.92 2565.3
233.80 173.68 2576.6
231.34 167.08 2478.6
234.85 165.03 2448.2
248.38 169.94 2521.1
258.66 172.44 2558.2
265.84 172.80 2563.5
269.78 171.08 2538.0
267.96 165.88 2460.9
295.07 170.48 2529.1
310.17 171.58 2545.4
315.31 170.79 2533.8
329.95 175.08 2597.3
338.60 169.30 2511.6
349.17 165.06 2448.7
365.00 169.46 2514.0
379.69 173.19 2569.3
386.65 173.33 2571.3
387.13 170.60 2530.9
382.80 165.88 2460.9
406.81 170.60 2530.8
425.59 175.64 2605.6
426.12 173.11 2568.1
431.44 172.57 2560.2
442.60 174.36 2586.6
440.06 170.77 2533.4
505.44 180.02 2670.6
161.69 175.75 2711.5
165.78 172.68 2664.3
168.52 168.52 2600.1
177.92 171.08 2639.5
187.24 173.37 2674.9
188.86 168.63 2601.7
186.67 160.92 2482.8
195.39 162.83 2512.2
208.90 168.47 2599.2
214.60 167.66 2586.7
218.45 165.49 2553.3
222.31 163.46 2521.9
222.84 159.17 2455.8
228.78 158.88 2451.2
241.46 163.15 2517.2
252.23 165.94 2560.3
259.41 166.29 2565.6
261.25 163.28 2519.2
259.91 158.48 2445.1
270.39 160.94 2483.1
281.83 163.86 2528.1
293.08 159.28 2457.5
294.89 156.86 2420.1
303.16 157.90 2436.1
320.07 163.30 2519.5
331.63 165.81 2558.3
337.23 165.31 2550.5
339.46 163.20 2518.0
340.16 160.46 2475.6
340.65 157.71 2433.2
346.69 157.59 2431.4
358.75 160.15 2471.0
369.54 162.08 2500.7
374.84 161.57 2492.8
398.64 160.74 2480.0
414.24 164.38 2536.1
419.49 163.86 2528.2
429.85 165.33 2550.8
451.26 170.93 2637.2
460.29 171.75 2649.8
453.44 166.71 2572.0
456.39 165.36 2551.2
165.62 165.62 2661.7
171.37 158.19 2542.3
181.63 161.44 2594.6
183.98 157.70 2534.4
194.49 155.59 2500.6
207.33 160.52 2579.7
212.33 159.24 2559.3
215.76 156.92 2521.9
219.01 154.60 2484.6
225.94 154.93 2490.0
238.46 158.98 2555.0
245.41 159.19 2558.3
250.22 158.03 2539.8
250.21 153.98 2474.6
277.56 158.61 2549.0
285.30 155.62 2501.0
278.86 148.72 2390.2
285.09 148.74 2390.5
292.16 149.19 2397.7
305.18 152.59 2452.4
317.48 155.50 2499.1
324.50 155.76 2503.3
334.15 157.25 2527.2
340.72 157.25 2527.3
344.84 156.15 2509.6
349.28 155.24 2494.9
352.10 153.65 2469.3
360.67 154.57 2484.2
373.98 157.46 2530.7
381.73 157.96 2538.6
385.75 156.91 2521.8
390.60 156.24 2511.0
398.98 156.98 2522.8
417.40 161.57 2596.7
422.99 161.14 2589.7
416.46 156.17 2509.9
421.29 155.55 2500.0
435.84 158.49 2547.1
468.24 162.86 2617.5
483.01 165.60 2661.5
160.67 160.67 2694.4
164.78 157.91 2648.2
168.64 155.15 2601.9
173.61 153.58 2575.6
182.56 155.51 2608.0
187.05 153.64 2576.7
188.82 149.76 2511.5
196.15 150.38 2521.9
206.17 152.96 2565.2
212.77 152.93 2564.6
218.01 151.95 2548.2
224.83 152.09 2550.6
235.63 154.84 2596.7
245.35 152.52 2557.7
252.22 152.66 2560.1
253.66 149.60 2508.8
252.07 144.94 2430.7
266.00 149.22 2502.5
298.56 152.60 2559.1
300.85 150.43 2522.7
303.92 148.73 2494.2
317.07 151.93 2547.9
330.19 151.89 2547.2
332.24 149.83 2512.7
343.44 151.90 2547.5
352.64 153.03 2566.4
358.20 152.57 2558.5
362.30 151.51 2540.8
368.04 151.16 2535.0
378.12 152.58 2558.7
387.28 153.58 2575.5
392.60 153.05 2566.6
405.24 155.34 2605.1
421.10 156.22 2619.8
405.19 147.93 2480.8
411.78 147.98 2481.7
431.15 152.56 2558.4
440.29 153.43 2573.1
461.15 151.52 2541.1
463.37 150.11 2517.3
493.68 157.70 2644.7
159.74 152.80 2678.9
166.29 152.43 2672.5
172.41 151.72 2660.1
179.35 151.76 2660.6
187.05 152.41 2672.1
190.25 149.49 2620.9
190.28 144.35 2530.8
195.79 143.58 2517.3
207.16 147.01 2577.5
215.36 148.06 2595.9
221.45 147.63 2588.4
229.25 148.34 2600.7
233.23 146.60 2570.3
234.18 143.11 2509.0
239.67 142.51 2498.5
249.81 144.62 2535.6
258.02 145.55 2551.9
263.33 144.83 2539.3
271.74 145.81 2556.5
284.62 145.62 2553.1
281.31 140.65 2466.0
286.35 139.99 2454.4
290.02 138.71 2431.8
292.37 136.85 2399.4
305.15 139.86 2452.1
322.36 144.73 2537.5
327.93 144.29 2529.8
324.04 139.78 2450.7
328.68 139.06 2438.0
343.72 142.68 2501.5
355.48 144.83 2539.2
355.17 142.07 2490.8
356.76 140.16 2457.3
369.57 142.64 2500.8
381.70 144.78 2538.4
387.07 144.33 2530.5
399.93 146.64 2571.0
414.38 149.45 2620.2
411.03 145.85 2557.1
409.60 143.03 2507.7
432.11 148.54 2604.2
458.96 150.70 2642.2
451.57 146.09 2561.4
462.22 147.38 2583.8
468.00 147.08 2578.8
473.74 146.79 2573.6
176.89 142.87 2624.2
178.85 139.10 2555.0
185.80 139.35 2559.5
189.63 137.32 2522.2
193.11 135.18 2482.8
202.23 136.99 2516.2
210.52 138.15 2537.5
216.88 138.02 2535.0
222.35 137.34 2522.5
223.97 134.38 2468.2
231.89 135.27 2484.5
244.47 138.75 2548.5
246.61 136.28 2503.2
246.71 132.84 2440.0
253.17 132.92 2441.3
262.92 134.66 2473.4
272.17 136.09 2499.5
271.38 132.54 2434.3
306.55 131.38 2413.1
321.30 134.95 2478.6
327.75 134.96 2478.8
328.06 132.49 2433.4
338.88 134.27 2466.2
349.99 136.11 2500.0
349.72 133.53 2452.6
366.11 134.88 2477.5
383.38 138.81 2549.6
394.37 140.37 2578.2
395.68 138.49 2543.7
398.38 137.15 2519.0
412.51 139.72 2566.3
429.94 143.31 2632.3
439.85 144.33 2650.9
446.04 144.10 2646.8
454.90 144.74 2658.5
452.87 141.95 2607.2
468.95 140.69 2584.0
151.61 137.83 2658.1
157.05 136.57 2633.8
166.21 138.51 2671.3
173.75 139.00 2680.8
175.97 135.36 2610.6
179.71 133.12 2567.3
188.43 134.59 2595.7
194.60 134.20 2588.2
200.18 133.46 2573.8
200.89 129.61 2499.6
211.38 128.11 2470.7
220.89 129.94 2505.9
226.71 129.55 2498.4
238.60 132.56 2556.5
246.22 133.09 2566.8
243.32 128.06 2469.7
245.33 125.81 2426.4
253.31 126.66 2442.6
261.16 127.39 2456.9
268.43 127.82 2465.1
276.73 128.71 2482.3
285.01 129.55 2498.5
291.86 129.72 2501.7
294.12 127.88 2466.2
295.95 125.94 2428.8
306.84 127.85 2465.7
312.13 127.40 2457.0
316.72 126.69 2443.3
331.07 129.83 2503.9
340.11 130.81 2522.8
348.44 131.49 2535.8
357.38 132.36 2552.7
355.83 129.39 2495.4
357.00 127.50 2459.0
366.16 128.48 2477.8
377.64 130.22 2511.4
390.05 132.22 2550.0
393.13 131.04 2527.3
405.92 133.09 2566.7
428.22 135.94 2621.8
415.39 129.81 2503.5
419.71 129.14 2490.6
427.16 129.44 2496.4
437.21 130.51 2517.0
478.82 136.81 2638.4
490.95 136.38 2630.1
156.78 129.51 2629.1
166.29 131.65 2672.6
174.16 132.37 2687.1
177.47 129.69 2632.8
182.10 128.15 2601.5
193.88 131.56 2670.7
206.61 122.68 2490.4
212.00 122.06 2478.0
222.94 124.58 2529.1
230.26 125.00 2537.5
239.38 126.34 2564.8
244.25 125.43 2546.2
245.40 122.70 2490.9
251.80 122.67 2490.3
259.94 123.47 2506.5
267.63 124.02 2517.8
265.87 120.27 2441.6
286.29 123.63 2509.7
308.07 124.54 2528.3
319.09 126.31 2564.1
324.75 125.93 2556.4
322.16 122.42 2485.2
328.49 122.38 2484.4
337.35 123.26 2502.4
346.03 124.05 2518.3
376.42 127.71 2592.7
374.83 124.94 2536.4
379.62 124.36 2524.6
384.96 123.97 2516.7
394.87 125.04 2538.4
413.95 124.84 2534.4
436.07 123.66 2510.4
449.14 125.50 2547.7
473.31 130.33 2645.8
150.85 123.43 2644.8
156.74 122.66 2628.5
163.34 122.50 2625.1
175.22 126.16 2703.4
182.33 126.23 2704.9
182.75 121.84 2610.8
190.93 122.74 2630.2
213.82 116.63 2499.2
216.91 114.84 2460.8
228.12 117.32 2513.9
240.89 120.45 2581.0
246.00 119.67 2564.5
247.20 117.09 2509.1
254.34 117.39 2515.5
263.58 118.61 2541.6
268.72 117.97 2528.0
264.28 113.26 2427.0
286.44 117.18 2511.0
298.54 119.41 2558.9
290.05 113.50 2432.1
294.09 112.63 2413.5
309.26 115.97 2485.1
324.54 119.22 2554.7
332.09 119.55 2561.8
326.96 115.40 2472.8
333.84 113.38 2429.6
358.58 119.53 2561.3
382.61 120.82 2589.1
387.84 120.36 2579.2
384.56 117.32 2514.1
385.70 115.71 2479.5
404.46 119.35 2557.5
416.79 121.00 2592.9
418.99 119.71 2565.3
429.55 120.81 2588.8
438.41 121.40 2601.5
446.31 121.72 2608.3
454.07 121.99 2614.1
463.42 122.67 2628.6
491.34 121.15 2596.1
166.40 117.86 2674.2
173.69 118.11 2679.8
182.29 119.19 2704.2
184.24 116.00 2632.0
190.16 115.46 2619.6
198.94 116.62 2646.0
206.84 117.21 2659.4
213.44 113.39 2572.7
212.48 109.46 2483.5
216.50 108.25 2456.1
228.41 110.94 2517.2
237.21 112.01 2541.5
238.01 109.36 2481.2
239.39 107.10 2429.9
246.03 107.24 2433.2
260.41 110.67 2511.1
271.18 112.44 2551.2
278.04 112.54 2553.4
291.16 109.99 2495.7
287.13 106.11 2407.6
295.82 107.00 2427.7
304.49 107.84 2446.8
312.62 108.46 2460.9
331.22 112.62 2555.2
338.39 112.80 2559.3
339.30 110.93 2516.8
352.51 113.07 2565.4
354.46 111.59 2531.9
354.13 109.46 2483.5
362.30 109.98 2495.4
369.66 110.25 2501.4
382.09 111.99 2541.0
385.81 111.17 2522.2
393.58 111.51 2530.1
423.87 114.38 2595.1
426.00 113.16 2567.4
425.34 111.24 2524.0
438.61 112.97 2563.3
452.41 114.79 2604.5
467.12 116.78 2649.6
474.76 113.68 2579.2
492.88 114.78 2604.3
182.87 108.36 2612.4
184.18 105.24 2537.1
200.08 110.39 2661.2
215.69 107.85 2599.8
215.99 104.72 2524.6
221.00 104.00 2507.1
227.99 104.22 2512.5
231.48 102.88 2480.1
239.85 103.72 2500.4
248.62 104.68 2523.6
244.95 100.49 2422.6
270.15 105.43 2541.5
292.73 106.45 2566.2
293.51 104.36 2515.8
295.33 102.72 2476.3
306.73 104.42 2517.2
317.85 105.95 2554.1
310.76 101.47 2446.3
314.31 100.58 2424.6
334.11 104.82 2526.9
348.55 107.25 2585.4
355.00 107.17 2583.5
350.07 103.72 2500.5
350.22 101.88 2456.1
358.61 102.46 2470.0
366.63 102.91 2480.9
379.75 104.76 2525.5
385.55 104.56 2520.5
395.00 105.33 2539.3
418.47 107.99 2603.4
415.38 105.49 2543.1
417.38 104.35 2515.5
449.90 107.44 2590.0
468.16 107.01 2579.7
472.65 106.51 2567.7
181.98 101.10 2599.7
195.46 101.10 2599.7
207.97 100.63 2587.7
212.90 99.80 2566.3
220.02 100.01 2571.7
221.11 97.55 2508.4
224.22 96.09 2471.0
231.22 96.34 2477.4
242.55 98.33 2528.5
255.73 98.36 2529.2
251.09 94.16 2421.2
264.90 96.91 2492.1
284.97 99.41 2556.2
285.63 97.37 2503.9
288.10 96.03 2469.4
294.53 96.04 2469.6
310.39 99.06 2547.2
323.89 99.15 2549.6
314.08 94.22 2422.9
321.17 94.46 2429.0
329.90 95.16 2447.0
339.85 94.40 2427.5
353.92 96.52 2482.0
366.11 98.07 2521.7
378.06 99.49 2558.3
386.03 99.84 2567.2
386.34 98.22 2525.7
382.14 95.54 2456.6
388.04 95.42 2453.7
406.77 98.41 2530.6
422.83 100.67 2588.8
429.53 100.67 2588.7
425.10 98.10 2522.6
428.42 97.37 2503.7
465.00 99.64 2562.2
485.36 102.54 2636.7
171.48 96.03 2645.7
184.09 95.45 2629.8
187.04 93.52 2576.5
189.03 91.26 2514.3
208.88 91.38 2517.7
217.83 92.41 2546.0
220.69 90.87 2503.6
220.54 88.22 2430.4
236.56 89.51 2466.1
250.24 92.19 2540.0
255.05 91.56 2522.5
255.13 89.30 2460.2
264.61 90.35 2489.3
277.26 92.42 2546.3
279.80 91.10 2509.8
279.99 89.09 2454.5
288.59 89.78 2473.6
300.71 91.52 2521.5
