ply
format ascii 1.0
element vertex 2109
property float x
property float y
property float z
end_header
-430.69 -18.46 2373.2
-380.24 -17.82 2291.6
-370.44 -18.84 2421.8
-756.20 -24.20 2333.4
-764.06 -24.85 2396.0
-766.22 -25.33 2442.5
-724.81 -24.16 2329.7
-717.82 -24.13 2326.7
-686.84 -23.68 2283.8
-657.41 -22.87 2205.0
-658.39 -23.10 2227.6
-648.01 -22.94 2211.9
-652.76 -23.31 2248.0
-616.07 -22.82 2200.3
-589.13 -22.02 2123.7
-599.64 -22.63 2182.0
-616.70 -23.49 2265.4
-586.76 -22.57 2176.2
-546.41 -21.22 2046.2
-541.30 -21.44 2067.2
-570.66 -22.83 2201.1
-550.64 -22.94 2212.4
-518.93 -21.85 2106.9
-507.62 -21.60 2082.9
-515.17 -22.16 2136.7
-505.52 -21.98 2119.4
-481.26 -21.15 2039.9
-481.25 -21.39 2062.5
-486.51 -21.87 2108.5
-484.21 -22.01 2122.4
-486.68 -22.38 2157.7
-461.98 -21.49 2072.0
-454.71 -21.65 2088.0
-485.74 -23.69 2284.8
-463.01 -22.86 2204.8
-435.60 -21.78 2100.2
-430.37 -21.79 2101.3
-457.05 -23.44 2260.1
-450.43 -24.02 2316.5
-433.71 -23.44 2260.7
-423.78 -23.22 2239.1
-417.43 -23.19 2236.3
-410.20 -23.11 2228.4
-405.86 -23.19 2236.4
-412.57 -23.92 2306.3
-412.26 -24.61 2373.3
-386.72 -23.44 2260.0
-381.19 -23.46 2262.0
-767.58 -30.70 2368.5
-750.39 -30.26 2334.2
-760.52 -31.43 2424.3
-719.14 -29.96 2311.5
-707.78 -29.74 2294.1
-678.94 -28.77 2219.3
-656.26 -28.05 2163.5
-651.69 -28.09 2167.0
-657.96 -28.61 2206.8
-643.06 -28.20 2175.8
-619.88 -27.43 2115.9
-643.82 -28.74 2217.2
-632.22 -29.00 2237.2
-607.97 -28.15 2171.3
-609.42 -28.48 2196.9
-569.42 -26.86 2072.0
-555.94 -26.99 2081.9
-549.11 -26.92 2076.5
-555.98 -27.52 2123.2
-574.91 -28.75 2217.5
-556.75 -28.70 2213.9
-538.79 -28.06 2164.8
-520.83 -27.41 2114.6
-499.08 -26.55 2047.9
-494.06 -26.56 2049.1
-490.66 -26.67 2057.1
-471.24 -26.18 2019.6
-476.61 -26.78 2065.6
-479.08 -27.22 2099.9
-485.12 -27.88 2150.8
-491.35 -28.57 2203.7
-489.56 -28.80 2221.5
-479.38 -28.53 2201.2
-484.23 -29.17 2250.3
-470.51 -29.41 2268.5
-455.64 -28.84 2224.6
-443.96 -28.83 2223.9
-462.25 -30.82 2377.3
-440.29 -29.75 2295.0
-426.55 -29.22 2253.8
-424.58 -29.48 2274.5
-421.23 -29.66 2288.4
-405.84 -28.99 2236.3
-400.76 -29.04 2240.3
-405.71 -29.83 2301.3
-397.19 -29.64 2286.6
-380.97 -28.86 2226.5
-382.84 -29.45 2271.8
-386.44 -30.19 2329.0
-380.88 -30.23 2331.9
-381.97 -30.80 2376.3
-379.71 -31.12 2401.0
-381.93 -31.83 2455.3
-801.49 -37.57 2415.2
-783.65 -37.02 2380.0
-785.84 -37.42 2405.6
-777.73 -37.33 2399.8
-781.58 -37.82 2431.2
-765.83 -37.36 2401.6
-735.45 -36.17 2325.2
-729.66 -36.18 2326.0
-700.38 -35.31 2270.2
-659.32 -33.52 2155.2
-635.94 -33.18 2133.0
-624.05 -32.84 2111.5
-599.62 -31.84 2046.7
-625.12 -33.49 2152.8
-633.45 -34.55 2221.2
-618.60 -34.05 2189.0
-634.37 -35.24 2265.6
-619.56 -34.74 2233.4
-560.13 -31.71 2038.2
-552.31 -32.17 2068.3
-547.55 -32.21 2070.6
-551.14 -32.74 2104.8
-564.85 -33.89 2178.7
-567.26 -34.38 2210.1
-544.40 -33.33 2142.7
-553.81 -34.26 2202.2
-545.20 -34.43 2213.6
-518.00 -33.06 2125.5
-496.86 -32.06 2060.7
-494.85 -32.99 2120.8
-501.10 -33.78 2171.7
-502.64 -34.27 2203.1
-487.75 -33.64 2162.4
-474.14 -33.08 2126.5
-480.50 -33.92 2180.4
-475.74 -33.98 2184.5
-474.96 -34.33 2207.2
-467.52 -35.96 2311.9
-442.97 -34.52 2219.0
-445.55 -35.18 2261.3
-445.82 -35.67 2292.8
-433.87 -35.18 2261.5
-426.17 -35.03 2251.8
-431.72 -35.98 2312.8
-421.17 -36.62 2354.3
-398.93 -35.20 2262.8
-403.67 -36.15 2323.9
-397.15 -36.10 2321.0
-356.86 -38.23 2457.9
-786.03 -42.99 2368.6
-781.15 -43.40 2391.3
-749.65 -41.98 2313.2
-759.21 -42.86 2361.6
-746.67 -42.49 2341.5
-646.77 -39.37 2169.3
-670.79 -41.19 2269.6
-645.72 -40.36 2223.8
-610.54 -38.50 2121.6
-615.60 -39.17 2158.6
-627.55 -40.30 2220.7
-617.93 -40.43 2227.5
-593.49 -39.19 2159.6
-591.43 -39.43 2172.6
-573.42 -38.60 2126.7
-557.45 -37.88 2087.5
-546.76 -37.52 2067.6
-545.04 -37.78 2081.5
-559.56 -39.17 2158.3
-563.76 -39.86 2196.5
-542.90 -38.78 2136.8
-555.49 -40.09 2208.9
-543.79 -40.49 2231.3
-520.04 -39.14 2156.8
-519.39 -39.52 2177.6
-516.14 -40.59 2236.9
-515.52 -41.01 2259.6
-497.63 -40.04 2206.2
-487.39 -39.67 2186.0
-495.54 -40.81 2248.7
-485.72 -40.48 2230.4
-478.73 -40.37 2224.7
-472.79 -40.36 2223.9
-478.57 -41.36 2278.9
-480.42 -42.04 2316.3
-469.65 -41.61 2293.0
-456.41 -40.96 2257.0
-437.03 -40.25 2218.0
-436.64 -40.75 2245.6
-445.34 -42.13 2321.3
-437.75 -42.56 2345.1
-434.23 -42.81 2359.0
-422.73 -42.89 2363.1
-392.14 -40.37 2224.3
-388.60 -40.60 2237.1
-384.63 -41.42 2282.4
-385.75 -43.55 2399.8
-367.96 -42.23 2326.7
-377.80 -44.82 2469.9
-363.96 -43.93 2420.4
-782.21 -48.89 2357.1
-771.18 -48.96 2360.8
-741.60 -47.46 2288.4
-751.83 -48.51 2338.6
-766.07 -49.83 2402.3
-746.24 -48.93 2359.3
-726.31 -48.02 2315.3
-705.39 -47.03 2267.3
-640.67 -44.18 2130.3
-647.03 -45.01 2170.2
-652.62 -45.80 2208.1
-674.06 -47.72 2300.8
-636.77 -45.48 2193.0
-596.68 -43.00 2073.4
-596.65 -43.39 2092.2
-590.81 -43.36 2090.7
-580.94 -43.03 2074.8
-576.75 -43.12 2079.1
-573.32 -43.27 2086.2
-605.32 -46.12 2223.6
-584.25 -45.38 2187.9
-556.20 -43.62 2103.3
-551.09 -43.65 2104.6
-564.55 -45.16 2177.6
-565.72 -45.71 2204.1
-542.13 -44.26 2133.8
-545.95 -45.03 2171.0
-556.63 -46.87 2260.0
-521.98 -44.42 2141.9
-517.44 -44.51 2146.1
-534.91 -46.51 2242.6
-513.41 -46.15 2225.1
-483.47 -43.95 2119.1
-494.08 -45.43 2190.5
-499.61 -47.02 2267.1
-469.96 -44.76 2158.0
-458.59 -46.44 2239.0
-440.38 -45.75 2206.0
-470.83 -49.56 2389.6
-431.50 -47.94 2311.6
-413.03 -46.54 2243.8
-414.54 -47.38 2284.2
-427.82 -49.60 2391.5
-406.89 -49.32 2377.9
-381.96 -47.01 2266.6
-359.11 -50.40 2430.1
-791.62 -55.66 2385.5
-782.60 -55.46 2376.9
-787.28 -56.23 2410.0
-785.94 -56.59 2425.2
-768.31 -55.76 2389.9
-756.01 -55.32 2370.8
-749.22 -55.27 2368.7
-740.64 -55.09 2360.9
-734.76 -55.11 2361.7
-694.10 -52.49 2249.8
-657.47 -50.15 2149.1
-655.85 -50.45 2162.2
-631.14 -48.97 2098.6
-600.10 -47.80 2048.4
-615.83 -49.49 2120.8
-628.73 -50.98 2184.8
-611.70 -50.05 2144.9
-591.33 -48.83 2092.5
-573.09 -47.76 2046.7
-587.43 -50.35 2157.9
-606.68 -52.50 2250.1
-573.90 -50.15 2149.1
-549.01 -48.44 2076.1
-544.48 -48.52 2079.3
-546.71 -49.20 2108.7
-535.61 -48.69 2086.8
-518.22 -47.59 2039.7
-528.61 -49.05 2102.0
-550.12 -52.67 2257.3
-542.95 -52.54 2251.9
-525.14 -51.37 2201.7
-515.60 -50.99 2185.4
-502.15 -50.78 2176.2
-480.77 -49.17 2107.3
-500.43 -51.77 2218.7
-479.94 -50.23 2152.6
-452.50 -55.79 2390.9
-432.39 -54.05 2316.4
-434.36 -55.06 2359.7
-420.23 -54.03 2315.6
-418.99 -54.65 2342.2
-388.58 -53.80 2305.9
-363.02 -52.70 2258.4
-350.13 -58.36 2500.9
-783.20 -62.16 2397.6
-764.33 -61.15 2358.5
-726.20 -59.04 2277.3
-727.77 -59.65 2300.9
-736.70 -60.88 2348.4
-700.84 -58.89 2271.6
-662.70 -56.16 2166.2
-681.93 -58.28 2248.1
-675.72 -58.25 2246.9
-637.81 -55.46 2139.3
-637.25 -55.90 2156.1
-636.60 -56.34 2173.0
-646.46 -57.72 2226.3
-651.91 -58.73 2265.3
-626.74 -56.98 2197.7
-612.50 -56.19 2167.4
-600.82 -55.63 2145.8
-611.15 -57.12 2203.1
-613.92 -58.47 2255.2
-581.92 -55.95 2158.2
-597.33 -57.99 2236.9
-576.61 -57.09 2202.0
-537.64 -53.76 2073.8
-537.82 -54.33 2095.4
-532.47 -54.33 2095.7
-524.68 -54.09 2086.4
-550.98 -57.39 2213.7
-552.69 -58.80 2267.9
-540.11 -58.08 2240.1
-519.54 -56.47 2178.2
-491.46 -54.01 2083.1
-489.98 -54.44 2099.9
-502.34 -56.44 2177.1
-484.27 -56.31 2172.0
-482.03 -57.38 2213.4
-465.76 -62.10 2395.3
-440.18 -59.48 2294.4
-424.59 -58.16 2243.4
-415.30 -57.68 2224.8
-425.11 -59.87 2309.4
-415.92 -59.42 2291.8
-393.79 -57.07 2201.3
-401.62 -59.06 2278.1
-394.03 -59.70 2302.8
-380.76 -63.46 2447.7
-343.34 -64.78 2498.7
-761.11 -66.45 2329.9
-752.26 -66.20 2321.3
-725.61 -65.42 2294.1
-691.95 -63.96 2242.8
-664.41 -61.94 2171.8
-692.91 -65.15 2284.3
-676.90 -64.75 2270.4
-673.47 -64.98 2278.7
-671.13 -65.33 2290.8
-638.61 -62.72 2199.3
-601.00 -59.56 2088.4
-602.58 -60.26 2112.9
-614.63 -62.03 2175.0
-608.33 -61.96 2172.6
-625.28 -64.28 2254.0
-595.50 -62.39 2187.5
-571.21 -60.42 2118.5
-591.88 -63.21 2216.5
-586.95 -63.93 2241.5
-554.67 -61.01 2139.4
-560.40 -62.27 2183.4
-562.47 -63.13 2213.8
-564.38 -64.00 2244.2
-514.00 -58.90 2065.2
-543.35 -64.27 2253.5
-535.04 -63.97 2243.2
-518.52 -62.68 2197.8
-483.59 -59.10 2072.5
-498.28 -62.28 2184.0
-509.83 -64.46 2260.3
-500.33 -64.00 2244.0
-483.48 -63.31 2220.1
-468.34 -64.40 2258.0
-449.38 -66.80 2342.3
-437.20 -65.88 2310.1
-422.61 -64.57 2264.0
-430.33 -66.67 2337.8
-414.46 -65.13 2283.8
-376.57 -63.73 2234.6
-386.77 -69.75 2445.6
-364.08 -71.52 2507.7
-351.08 -70.22 2462.1
-345.65 -70.41 2468.9
-763.88 -73.92 2376.1
-727.01 -70.93 2279.8
-728.27 -71.63 2302.5
-724.34 -71.84 2309.0
-692.45 -69.25 2225.7
-685.42 -69.12 2221.6
-702.96 -71.49 2297.8
-670.52 -68.77 2210.5
-636.59 -66.43 2135.1
-679.94 -71.57 2300.6
-672.20 -71.38 2294.5
-632.99 -67.82 2179.9
-608.15 -65.75 2113.3
-623.09 -67.97 2184.9
-618.66 -68.11 2189.2
-596.15 -66.24 2129.1
-622.83 -69.85 2245.2
-605.17 -69.16 2223.1
-585.48 -67.56 2171.4
-568.88 -66.28 2130.4
-558.87 -65.75 2113.4
-576.28 -68.47 2200.8
-575.72 -70.50 2265.9
-566.54 -70.09 2252.8
-505.04 -64.47 2072.4
-490.44 -67.65 2174.3
-490.94 -68.50 2201.9
-495.36 -70.77 2274.6
-487.20 -70.44 2264.1
-480.13 -70.26 2258.5
-462.40 -73.01 2346.8
-446.05 -71.37 2293.9
-437.86 -71.00 2282.3
-445.53 -73.24 2354.1
-438.07 -74.04 2379.9
-402.74 -73.23 2353.7
-393.81 -73.84 2373.4
-377.02 -71.81 2308.3
-376.74 -72.92 2343.8
-387.47 -77.49 2490.9
-352.46 -76.90 2471.8
-730.00 -77.15 2289.2
-729.73 -77.76 2307.1
-724.88 -77.88 2310.7
-693.29 -75.11 2228.4
-688.90 -75.26 2232.9
-702.03 -77.34 2294.8
-663.80 -73.76 2188.3
-637.01 -71.39 2118.1
-682.23 -77.12 2288.2
-649.39 -74.71 2216.6
-618.45 -71.78 2129.9
-599.81 -70.25 2084.3
-613.18 -72.47 2150.1
-608.29 -72.55 2152.5
-568.01 -69.01 2047.6
-607.30 -74.48 2209.9
-602.23 -74.56 2212.3
-594.28 -74.29 2204.1
-589.73 -74.43 2208.4
-573.64 -73.11 2169.2
-588.13 -75.70 2246.0
-576.90 -76.53 2270.6
-565.27 -75.76 2247.8
-551.58 -74.69 2216.2
-556.68 -76.18 2260.2
-557.07 -77.04 2285.8
-485.38 -70.90 2103.6
-499.31 -73.76 2188.6
-495.46 -74.03 2196.6
-475.99 -72.80 2160.0
-469.47 -81.38 2414.4
-442.91 -77.81 2308.6
-436.39 -77.71 2305.8
-444.74 -80.30 2382.5
-424.11 -77.65 2304.0
-399.50 -78.69 2334.8
-397.11 -79.42 2356.5
-390.18 -79.26 2351.5
-388.11 -80.09 2376.2
-386.07 -80.95 2401.8
-379.01 -83.51 2477.8
-356.56 -82.77 2455.9
-348.16 -85.40 2533.8
-340.91 -85.23 2528.7
-742.99 -84.57 2329.9
-734.79 -84.32 2323.1
-725.12 -83.90 2311.5
-688.78 -80.36 2213.9
-668.52 -78.65 2166.9
-666.01 -79.02 2177.0
-662.00 -79.21 2182.4
-666.31 -80.42 2215.6
-679.03 -82.66 2277.5
-653.49 -80.25 2211.1
-635.57 -78.74 2169.4
-625.37 -78.17 2153.7
-595.04 -75.73 2086.5
-606.33 -77.88 2145.6
-577.73 -74.89 2063.3
-570.44 -75.34 2075.7
-572.52 -76.34 2103.1
-571.86 -76.98 2120.9
-577.30 -78.47 2161.9
-570.53 -78.31 2157.5
-556.94 -77.20 2126.9
-545.26 -76.34 2103.1
-540.14 -76.38 2104.4
-532.80 -76.11 2097.0
-540.61 -78.03 2149.7
-551.53 -80.43 2216.0
-517.52 -78.75 2169.7
-497.69 -78.29 2156.9
-503.49 -80.10 2206.9
-497.39 -80.04 2205.2
-479.75 -79.96 2202.9
-490.90 -82.80 2281.3
-479.91 -87.26 2404.0
-457.80 -85.46 2354.4
-454.56 -87.18 2401.8
-454.60 -88.39 2435.4
-442.52 -87.26 2404.1
-420.61 -84.12 2317.6
-409.33 -83.05 2288.2
-402.19 -82.80 2281.3
-401.89 -86.56 2384.8
-366.82 -85.59 2358.1
-360.81 -93.54 2577.2
-757.20 -92.34 2374.5
-716.94 -88.15 2266.7
-678.63 -84.83 2181.3
-695.56 -87.68 2254.5
-674.72 -85.77 2205.5
-651.21 -83.49 2146.9
-627.66 -82.59 2123.6
-652.93 -86.67 2228.7
-668.50 -89.53 2302.2
-656.91 -88.77 2282.7
-632.53 -86.25 2218.0
-617.97 -85.04 2186.8
-604.36 -83.94 2158.4
-595.69 -83.51 2147.3
-625.20 -88.47 2275.0
-593.66 -85.62 2201.8
-551.98 -80.39 2067.1
-570.22 -83.86 2156.3
-585.24 -86.92 2235.0
-549.97 -82.50 2121.3
-536.99 -84.79 2180.2
-529.07 -86.26 2218.1
-505.50 -83.32 2142.6
-495.46 -82.58 2123.4
-504.16 -84.97 2185.0
-509.45 -86.84 2233.0
-500.64 -86.32 2219.6
-489.94 -85.46 2197.4
-489.24 -86.34 2220.1
-501.40 -89.54 2302.3
-498.85 -90.15 2318.2
-479.52 -92.22 2371.2
-464.22 -90.43 2325.4
-437.43 -89.88 2311.3
-443.92 -92.48 2378.2
-435.25 -91.95 2364.5
-431.99 -92.57 2380.3
-424.01 -93.53 2405.1
-394.36 -88.29 2270.3
-399.19 -92.12 2368.8
-385.05 -93.16 2395.5
-369.59 -97.26 2501.0
-351.38 -95.83 2464.2
-750.87 -95.35 2298.6
-737.47 -94.40 2275.6
-697.57 -90.01 2169.9
-735.27 -95.64 2305.7
-705.25 -93.26 2248.1
-690.44 -92.06 2219.3
-710.22 -95.49 2302.0
-692.20 -93.86 2262.6
-662.17 -90.55 2183.0
-631.56 -88.64 2136.9
-657.64 -93.12 2244.8
-669.55 -95.65 2305.9
-643.99 -94.53 2278.9
-608.88 -90.20 2174.6
-610.32 -91.26 2200.1
-601.41 -92.52 2230.5
-574.61 -89.26 2151.8
-589.54 -94.33 2273.9
-539.79 -87.24 2103.1
-531.64 -88.61 2136.1
-524.03 -88.26 2127.6
-507.90 -90.29 2176.7
-520.51 -93.58 2255.8
-524.29 -95.33 2298.0
-496.42 -91.30 2200.9
-481.45 -90.63 2184.7
-485.21 -99.53 2399.4
-454.27 -98.22 2367.8
-421.09 -94.89 2287.6
-434.09 -99.22 2391.9
-420.34 -97.47 2349.7
-400.57 -97.11 2341.0
-402.14 -98.99 2386.3
-387.07 -99.89 2408.0
-373.35 -104.80 2526.4
-367.36 -104.96 2530.3
-366.15 -106.52 2567.8
-744.17 -101.21 2296.3
-707.28 -96.97 2200.1
-743.39 -102.74 2331.2
-680.27 -96.37 2186.6
-662.43 -94.63 2147.1
-655.59 -94.45 2143.0
-641.09 -93.95 2131.7
-662.56 -97.94 2222.3
-665.48 -99.24 2251.6
-671.62 -101.04 2292.5
-643.57 -97.69 2216.4
-614.78 -94.16 2136.3
-648.30 -100.19 2273.2
-607.20 -95.58 2168.6
-589.69 -93.69 2125.7
-605.75 -97.15 2204.2
-589.94 -95.51 2167.1
-577.68 -94.43 2142.5
-600.33 -99.08 2248.1
-599.48 -99.91 2266.9
-573.48 -96.53 2190.1
-569.42 -96.80 2196.3
-543.71 -93.36 2118.3
-565.79 -99.16 2249.8
-566.98 -101.46 2302.0
-533.44 -96.47 2188.9
-511.92 -93.58 2123.2
-505.78 -93.46 2120.5
-530.63 -99.13 2249.1
-518.74 -97.98 2223.2
-482.69 -96.54 2190.4
-500.44 -101.28 2298.0
-479.38 -105.84 2401.3
-453.88 -101.53 2303.5
-470.24 -106.59 2418.4
-429.71 -101.46 2302.0
-423.51 -102.85 2333.7
-416.95 -102.73 2330.8
-399.07 -101.26 2297.4
-406.05 -107.86 2447.2
-376.20 -101.51 2303.3
-366.79 -107.51 2439.2
-371.99 -110.95 2517.2
-361.87 -109.85 2492.5
-354.55 -109.59 2486.5
-362.63 -114.16 2590.2
-340.10 -111.19 2522.8
-728.13 -108.32 2321.1
-678.42 -101.76 2180.6
-667.66 -100.99 2164.1
-667.79 -101.87 2182.9
-655.94 -100.91 2162.5
-669.22 -103.84 2225.2
-665.63 -104.19 2232.6
-642.75 -101.49 2174.7
-656.94 -104.65 2242.4
-637.93 -102.52 2197.0
-606.85 -99.30 2127.9
-645.49 -106.59 2284.2
-623.56 -103.93 2227.0
-578.95 -97.39 2087.0
-575.77 -97.77 2095.1
-584.36 -100.18 2146.6
-596.08 -103.17 2210.7
-601.55 -105.13 2252.7
-582.56 -102.80 2203.0
-563.80 -100.48 2153.1
-566.85 -102.03 2186.4
-570.72 -103.77 2223.6
-577.85 -106.14 2274.3
-572.55 -106.25 2276.7
-553.72 -103.82 2224.8
-565.01 -107.05 2294.0
-536.21 -103.78 2223.9
-515.92 -100.94 2163.0
-537.45 -106.31 2278.0
-517.55 -103.51 2218.1
-499.06 -100.93 2162.9
-503.73 -103.04 2207.9
-507.83 -106.29 2277.7
-513.81 -108.81 2331.6
-491.67 -105.36 2257.7
-477.04 -103.46 2216.9
-492.11 -109.36 2343.4
-464.47 -111.47 2388.7
-444.33 -111.08 2380.3
-426.14 -109.58 2348.1
-415.43 -111.61 2391.6
-409.41 -111.66 2392.7
-390.31 -109.77 2352.3
-369.39 -107.24 2298.0
-397.12 -117.18 2511.1
-365.83 -111.61 2391.6
-362.55 -118.65 2542.5
-340.06 -117.71 2522.5
-321.30 -115.67 2478.6
-325.42 -119.54 2561.6
-703.23 -110.42 2241.7
-685.76 -108.58 2204.2
-707.34 -112.94 2292.7
-711.55 -114.57 2325.9
-701.39 -113.90 2312.3
-681.80 -111.67 2267.1
-647.86 -107.04 2173.0
-632.77 -105.46 2141.0
-655.74 -110.26 2238.3
-655.69 -111.23 2258.1
-625.97 -107.15 2175.2
-610.89 -105.52 2142.1
-620.69 -108.19 2196.4
-636.42 -111.96 2272.9
-630.68 -111.99 2273.5
-615.67 -110.36 2240.3
-615.25 -111.33 2260.1
-574.87 -108.14 2195.4
-570.04 -108.31 2198.7
-564.69 -108.38 2200.1
-571.39 -110.78 2248.9
-562.98 -110.27 2238.7
-540.15 -106.90 2170.2
-549.65 -109.93 2231.7
-550.58 -111.29 2259.2
-510.16 -104.23 2115.9
-517.66 -108.08 2194.2
-534.06 -112.75 2288.8
-487.69 -113.00 2294.0
-472.04 -119.58 2427.6
-469.74 -120.61 2448.4
-447.94 -118.21 2399.7
-431.62 -115.50 2344.8
-425.91 -115.60 2346.9
-427.40 -117.69 2389.2
-418.29 -118.62 2408.1
-397.74 -114.50 2324.4
-394.20 -115.23 2339.2
-377.18 -111.98 2273.2
-353.10 -113.71 2308.4
-353.93 -115.94 2353.7
-362.50 -125.23 2542.2
-355.14 -127.32 2584.6
-340.82 -124.53 2528.1
-327.58 -122.04 2477.5
-745.46 -119.27 2300.3
-728.31 -119.39 2302.6
-690.59 -114.15 2201.4
-688.05 -114.68 2211.6
-687.83 -115.60 2229.4
-672.61 -114.00 2198.6
-679.27 -116.12 2239.4
-675.39 -116.45 2245.8
-661.48 -115.04 2218.6
-668.93 -117.36 2263.3
-658.19 -116.49 2246.7
-623.30 -111.30 2146.6
-614.29 -110.68 2134.6
-617.67 -112.30 2165.8
-645.60 -118.46 2284.6
-609.41 -116.08 2238.6
-594.90 -114.40 2206.3
-587.53 -115.20 2221.7
-558.86 -110.67 2134.3
-564.96 -112.99 2179.1
-535.82 -108.25 2087.6
-551.46 -113.70 2192.9
-571.44 -119.05 2296.0
-558.66 -117.61 2268.3
-535.85 -114.01 2198.8
-517.35 -111.26 2145.7
-519.51 -112.94 2178.1
-539.61 -118.60 2287.2
-530.83 -119.29 2300.5
-522.27 -118.70 2289.2
-521.68 -119.93 2312.9
-456.32 -126.75 2444.5
-410.42 -126.28 2435.4
-377.14 -117.85 2272.9
-380.80 -124.85 2407.9
-352.15 -119.37 2302.2
-353.88 -122.03 2353.4
-339.50 -121.25 2338.4
-341.04 -126.31 2436.0
-342.59 -129.28 2493.3
-323.61 -126.90 2447.4
-332.64 -133.06 2566.1
-728.12 -121.35 2228.9
-750.30 -126.05 2315.2
-741.83 -126.65 2326.3
-712.00 -124.60 2288.6
-669.49 -118.14 2170.0
-668.43 -118.96 2184.9
-689.62 -123.78 2273.5
-696.59 -126.11 2316.2
-691.93 -126.35 2320.8
-640.49 -120.09 2205.8
-616.98 -116.73 2143.9
-629.09 -120.10 2205.9
-616.31 -122.10 2242.7
-571.44 -118.81 2182.3
-576.66 -121.10 2224.3
-546.68 -115.96 2129.9
-540.01 -118.13 2169.7
-545.69 -120.63 2215.6
-527.62 -121.76 2236.4
-535.28 -124.90 2294.1
-522.68 -123.33 2265.2
-532.20 -127.00 2332.7
-518.51 -126.61 2325.5
-504.81 -124.72 2290.7
-495.03 -129.94 2386.7
-486.29 -129.27 2374.3
-469.61 -133.27 2447.8
-443.81 -133.14 2445.5
-430.82 -133.05 2443.8
-429.12 -134.50 2470.4
-416.83 -134.67 2473.5
-386.56 -126.84 2329.7
-369.68 -127.27 2337.5
-392.15 -137.25 2521.0
-365.57 -132.36 2431.1
-344.36 -126.87 2330.3
-342.18 -128.32 2356.8
-351.84 -134.34 2467.4
-339.33 -131.96 2423.8
-330.06 -133.29 2448.3
-337.83 -139.11 2555.0
-326.82 -137.27 2521.2
-724.66 -132.85 2329.3
-689.12 -127.40 2233.6
-699.60 -130.43 2286.8
-699.97 -131.62 2307.6
-682.98 -129.53 2271.0
-683.56 -130.77 2292.7
-627.94 -124.46 2182.0
-612.85 -122.57 2149.0
-633.49 -127.86 2241.7
-635.64 -129.48 2270.1
-605.08 -124.41 2181.2
-570.27 -123.00 2156.5
-601.97 -131.12 2298.9
-580.09 -127.62 2237.5
-543.53 -123.27 2161.3
-525.71 -120.48 2112.2
-540.37 -125.14 2194.0
-523.54 -125.19 2195.0
-533.97 -129.09 2263.3
-514.79 -125.84 2206.2
-512.50 -126.69 2221.1
-531.02 -132.75 2327.5
-515.40 -131.85 2311.6
-513.12 -132.81 2328.4
-486.25 -130.46 2287.2
-487.76 -132.48 2322.6
-483.81 -133.05 2332.6
-396.23 -132.08 2315.6
-404.50 -136.91 2400.3
-397.13 -136.51 2393.4
-374.51 -130.78 2292.9
-370.25 -133.53 2341.1
-382.70 -142.70 2501.9
-354.53 -134.48 2357.7
-338.97 -133.17 2334.8
-354.04 -141.62 2482.9
-344.96 -140.54 2464.0
-330.58 -142.60 2500.2
-322.16 -141.75 2485.2
-319.09 -143.26 2511.8
-750.56 -137.01 2297.6
-715.96 -137.23 2301.3
-675.19 -130.50 2188.5
-677.01 -131.96 2213.0
-669.15 -131.54 2206.0
-659.88 -130.84 2194.2
-666.92 -133.38 2236.9
-660.46 -133.25 2234.6
-652.88 -132.89 2228.5
-661.75 -135.89 2279.0
-646.90 -134.04 2247.9
-620.16 -129.67 2174.6
-628.78 -132.68 2225.1
-636.09 -135.46 2271.7
-608.74 -130.85 2194.4
-565.11 -126.19 2116.2
-604.14 -136.23 2284.5
-595.81 -135.68 2275.4
-573.75 -131.96 2213.0
-545.65 -130.73 2192.3
-523.34 -126.70 2124.8
-538.70 -131.81 2210.5
-534.91 -136.70 2292.5
-529.26 -136.78 2293.8
-505.85 -132.21 2217.2
-487.48 -138.42 2321.3
-487.39 -140.12 2349.9
-470.14 -138.63 2324.9
-461.50 -141.53 2373.4
-441.45 -139.09 2332.5
-393.14 -137.00 2297.6
-400.95 -141.88 2379.3
-380.08 -136.59 2290.7
-370.35 -139.64 2341.8
-371.17 -142.28 2386.1
-347.91 -140.39 2354.3
-329.89 -137.95 2313.5
-334.25 -142.37 2387.5
-322.20 -139.82 2344.8
-321.77 -145.11 2433.5
-320.82 -147.58 2474.9
-717.91 -136.74 2197.7
-734.60 -141.04 2266.8
-723.47 -140.03 2250.4
-726.06 -141.67 2276.8
-680.86 -136.17 2188.5
-664.94 -135.24 2173.5
-678.62 -139.20 2237.2
-691.41 -143.05 2299.0
-675.95 -141.07 2267.2
-649.05 -136.64 2196.0
-620.79 -131.85 2119.0
-628.31 -135.85 2183.3
-644.16 -140.54 2258.7
-643.89 -141.77 2278.5
-645.95 -143.55 2307.0
-639.87 -143.52 2306.6
-607.86 -137.63 2211.9
-553.44 -128.96 2072.5
-565.51 -133.06 2138.5
-560.83 -133.27 2141.8
-544.86 -130.77 2101.6
-548.48 -135.71 2181.0
-564.61 -141.15 2268.5
-528.27 -133.46 2144.9
-531.06 -135.59 2179.1
-535.32 -138.15 2220.2
-521.30 -135.99 2185.6
-544.81 -143.69 2309.3
-522.92 -144.25 2318.4
-493.17 -144.34 2319.8
-507.71 -150.43 2417.7
-494.61 -148.38 2384.7
-475.26 -144.38 2320.4
-477.79 -147.01 2362.7
-417.83 -149.67 2405.4
-416.48 -151.45 2434.0
-388.78 -143.55 2307.1
-370.83 -143.55 2307.0
-379.34 -149.25 2398.6
-365.13 -146.05 2347.3
-343.93 -150.08 2412.0
-323.37 -146.43 2353.4
-320.77 -153.97 2474.5
-726.18 -145.24 2240.8
-710.53 -143.25 2210.2
-708.67 -144.04 2222.3
-730.82 -149.76 2310.6
-706.25 -145.92 2251.3
-668.61 -139.29 2149.1
-673.52 -141.50 2183.1
-690.54 -146.30 2257.2
-708.36 -151.36 2335.2
-688.11 -149.59 2308.0
-643.57 -141.13 2177.5
-624.35 -141.90 2189.3
-632.67 -145.11 2238.8
-617.10 -146.93 2266.9
-580.19 -139.47 2151.8
-558.76 -135.62 2092.4
-579.71 -142.09 2192.2
-582.49 -144.18 2224.5
-538.76 -134.69 2078.1
-553.44 -144.12 2223.6
-532.25 -140.07 2161.0
-504.94 -148.51 2291.3
-498.28 -151.91 2343.8
-494.71 -152.69 2355.8
-495.55 -154.86 2389.2
-492.81 -155.95 2406.1
-492.75 -157.93 2436.7
-457.54 -152.51 2353.1
-452.50 -157.12 2424.1
-444.44 -156.49 2414.5
-408.56 -150.21 2317.5
-396.41 -147.91 2282.1
-401.27 -152.00 2345.1
-371.93 -147.59 2277.1
-351.16 -154.02 2376.3
-331.73 -159.48 2460.6
-754.07 -156.85 2326.8
-711.03 -149.09 2211.7
-697.77 -149.93 2224.3
-714.16 -154.73 2295.5
-687.54 -150.22 2228.5
-675.83 -148.91 2209.1
-697.82 -155.07 2300.5
-680.88 -153.94 2283.7
-635.84 -145.02 2151.3
-614.99 -141.50 2099.2
-625.55 -145.22 2154.3
-623.43 -146.03 2166.4
-622.61 -147.16 2183.2
-614.39 -146.55 2174.1
-613.73 -147.75 2191.9
-618.32 -153.11 2271.4
-568.92 -142.23 2110.0
-571.71 -145.73 2161.9
-559.17 -146.85 2178.6
-562.96 -149.36 2215.7
-546.36 -146.45 2172.6
-547.67 -151.48 2247.3
-542.86 -151.77 2251.5
-555.86 -157.09 2330.5
-532.77 -162.97 2417.6
-522.97 -161.87 2401.4
-508.83 -159.39 2364.6
-496.33 -157.37 2334.6
-483.56 -155.22 2302.7
-475.20 -154.44 2291.1
-488.72 -160.84 2386.2
-452.31 -165.64 2457.2
-388.66 -155.46 2306.3
-385.29 -164.22 2436.3
-348.75 -164.86 2445.8
-336.30 -161.92 2402.2
-326.71 -166.56 2470.9
-728.65 -154.91 2213.0
-736.16 -157.75 2253.6
-711.19 -153.62 2194.5
-713.97 -155.46 2220.9
-720.87 -158.24 2260.6
-707.22 -159.13 2273.2
-704.62 -161.23 2303.2
-699.44 -161.41 2305.9
-683.61 -159.12 2273.1
-638.86 -149.99 2142.8
-622.16 -147.35 2105.0
-630.32 -150.61 2151.5
-649.65 -156.61 2237.3
-658.37 -160.14 2287.8
-634.00 -155.62 2223.1
-603.43 -149.47 2135.3
-599.11 -149.78 2139.7
-626.23 -158.02 2257.4
-625.03 -160.72 2296.0
-583.90 -151.59 2165.5
-576.08 -151.01 2157.3
-577.74 -152.93 2184.7
-580.15 -156.64 2237.7
-545.91 -150.40 2148.6
-542.38 -150.97 2156.7
-548.76 -157.62 2251.7
-544.64 -158.12 2258.9
-550.21 -161.48 2306.8
-498.44 -166.15 2373.5
-484.04 -163.36 2333.7
-490.24 -167.55 2393.6
-494.17 -171.06 2443.7
-483.39 -169.50 2421.4
-475.48 -171.17 2445.3
-424.08 -165.95 2370.7
-424.88 -168.70 2410.0
-424.96 -171.25 2446.5
-376.65 -166.72 2381.6
-360.81 -162.36 2319.5
-371.68 -170.09 2429.9
-361.81 -168.43 2406.1
-349.73 -165.66 2366.6
-341.28 -164.55 2350.7
-341.93 -167.86 2397.9
-333.80 -170.05 2429.3
-329.75 -171.22 2445.9
-714.39 -162.62 2240.2
-694.06 -161.95 2230.9
-699.83 -166.06 2287.6
-697.30 -166.87 2298.8
-685.51 -165.47 2279.4
-657.00 -159.96 2203.6
-655.42 -160.98 2217.6
-648.44 -160.68 2213.4
-655.94 -163.99 2259.0
-618.25 -158.82 2187.8
-592.55 -153.62 2116.2
-620.52 -162.38 2236.9
-614.18 -165.36 2277.9
-568.00 -154.41 2127.1
-566.28 -156.99 2162.6
-565.78 -158.42 2182.3
-564.24 -161.21 2220.8
-519.71 -171.20 2358.4
-478.26 -171.68 2365.0
-470.41 -171.06 2356.4
-469.93 -173.13 2385.0
-398.63 -171.72 2365.5
-403.60 -176.58 2432.4
-375.62 -175.29 2414.7
-342.99 -174.61 2405.4
-331.35 -171.81 2366.8
-337.95 -178.54 2459.5
-761.47 -173.88 2312.7
-756.36 -174.08 2315.4
-734.93 -170.50 2267.8
-718.61 -168.06 2235.3
-736.99 -173.76 2311.1
-711.09 -169.03 2248.2
-695.93 -166.79 2218.4
-700.46 -169.28 2251.5
-679.55 -165.60 2202.6
-639.43 -159.86 2126.2
-631.23 -159.18 2117.2
-652.76 -166.05 2208.6
-671.32 -172.29 2291.5
-636.64 -164.84 2192.5
-618.42 -161.57 2149.0
-638.98 -168.46 2240.6
-619.23 -164.75 2191.2
-581.22 -157.53 2095.2
-607.09 -166.09 2209.1
-604.12 -166.85 2219.2
-586.03 -163.41 2173.5
-582.34 -167.21 2223.9
-550.82 -181.52 2414.3
-537.84 -179.28 2384.5
-523.27 -176.45 2346.9
-492.75 -174.26 2317.8
-454.75 -183.16 2436.2
-404.86 -180.63 2402.4
-387.04 -175.38 2332.6
-383.72 -176.63 2349.3
-376.52 -179.00 2380.8
-353.32 -170.77 2271.3
-359.33 -176.62 2349.1
-360.34 -180.17 2396.4
-351.06 -178.61 2375.6
-342.73 -177.49 2360.7
-321.87 -176.12 2342.4
-330.03 -184.05 2448.0
-751.97 -176.24 2266.0
-739.50 -174.68 2245.9
-737.33 -175.56 2257.1
-748.95 -179.75 2311.0
-716.40 -177.62 2283.7
-659.45 -164.86 2119.7
-686.19 -172.99 2224.1
-692.00 -175.93 2262.0
-645.52 -165.52 2128.1
-624.56 -162.93 2094.8
-662.25 -174.28 2240.7
-668.11 -177.38 2280.5
-619.56 -165.95 2133.7
-596.91 -165.81 2131.8
-603.22 -172.35 2215.9
-595.84 -173.55 2231.3
-563.41 -165.71 2130.5
-593.86 -176.39 2267.9
-559.46 -174.83 2247.8
-574.00 -181.26 2330.5
-560.03 -178.73 2298.0
-543.42 -175.30 2253.8
-572.59 -186.71 2400.6
-534.05 -178.02 2288.8
-517.21 -174.34 2241.5
-514.79 -175.50 2256.4
-506.37 -174.61 2245.0
-507.72 -179.19 2303.9
-501.78 -183.58 2360.3
-477.85 -188.63 2425.2
-435.38 -183.96 2365.2
-438.88 -188.09 2418.3
-416.38 -189.26 2433.4
-389.20 -179.63 2309.6
-371.76 -177.03 2276.1
-387.37 -187.44 2409.9
-348.56 -180.29 2318.0
-343.99 -181.05 2327.8
-340.80 -182.57 2347.4
-323.57 -186.67 2400.1
-315.76 -185.74 2388.1
-315.05 -189.03 2430.4
-756.08 -186.02 2314.5
-753.42 -186.85 2324.8
-740.02 -185.00 2301.9
-744.90 -187.74 2335.9
-722.83 -185.19 2304.2
-657.85 -169.94 2114.5
-680.47 -177.27 2205.6
-704.70 -185.13 2303.5
-670.87 -177.75 2211.7
-662.17 -176.96 2201.8
-690.25 -186.07 2315.1
-658.74 -180.72 2248.5
-625.28 -173.07 2153.4
-614.93 -174.89 2176.0
-629.86 -180.79 2249.5
-585.00 -169.49 2108.8
-569.88 -166.66 2073.7
-575.66 -173.26 2155.7
-580.86 -178.28 2218.3
-572.22 -177.39 2207.1
-566.60 -177.42 2207.6
-559.11 -180.55 2246.4
-560.30 -182.83 2274.9
-549.77 -181.31 2255.9
-537.47 -179.16 2229.1
-569.79 -194.10 2415.1
-536.21 -184.70 2298.1
-523.61 -182.38 2269.2
-530.65 -186.94 2325.9
-527.99 -188.13 2340.8
-510.06 -183.86 2287.6
-530.57 -193.50 2407.6
-421.88 -186.83 2324.7
-412.79 -188.18 2341.5
-397.30 -186.61 2321.9
-381.51 -184.79 2299.3
-381.12 -190.56 2371.0
-370.64 -194.74 2423.1
-353.68 -189.04 2352.1
-358.93 -195.21 2428.9
-351.05 -194.33 2417.9
-335.18 -196.05 2439.3
-337.49 -201.20 2503.4
-324.58 -197.29 2454.8
-320.63 -198.79 2473.4
-740.06 -189.46 2283.6
-736.55 -193.19 2328.7
-724.36 -193.16 2328.3
-684.16 -183.98 2217.6
-647.99 -175.73 2118.1
-650.20 -177.83 2143.5
-676.68 -186.67 2250.0
-657.08 -182.84 2203.9
-615.94 -172.90 2084.0
-621.34 -175.95 2120.9
-622.93 -177.98 2145.3
-608.15 -175.32 2113.3
-629.60 -183.16 2207.7
-644.36 -189.17 2280.2
-619.52 -183.56 2212.6
-581.15 -173.80 2094.9
-574.25 -173.36 2089.6
-570.21 -184.31 2221.6
-558.91 -182.50 2199.8
-582.35 -194.12 2339.8
-576.57 -196.28 2365.9
-532.69 -183.29 2209.3
-535.59 -186.29 2245.5
-559.15 -196.62 2370.0
-545.84 -194.08 2339.3
-535.83 -192.66 2322.2
-544.29 -197.93 2385.7
-551.13 -202.71 2443.4
-543.57 -202.26 2438.0
-501.39 -191.01 2302.3
-492.75 -189.98 2289.9
-498.06 -194.36 2342.8
-399.57 -193.73 2335.2
-390.73 -195.36 2354.8
-350.26 -200.15 2412.5
-347.51 -202.19 2437.1
-325.16 -204.02 2459.2
-313.38 -200.57 2417.5
-780.74 -201.28 2352.7
-773.68 -201.03 2349.8
-740.01 -200.17 2339.6
-671.48 -187.79 2194.9
-654.41 -184.58 2157.4
-677.69 -192.79 2253.4
-652.11 -187.13 2187.2
-631.64 -182.84 2137.1
-661.00 -193.04 2256.3
-650.60 -191.70 2240.6
-624.01 -185.52 2168.4
-605.69 -181.71 2123.9
-587.42 -179.49 2097.9
-586.37 -180.84 2113.7
-546.38 -185.88 2172.7
-569.00 -195.59 2286.2
-567.25 -199.14 2327.6
-549.65 -199.32 2329.8
-521.57 -195.59 2286.1
-530.79 -206.07 2408.6
-424.38 -205.95 2407.2
-410.99 -202.43 2366.1
-404.86 -202.43 2366.1
-396.42 -201.26 2352.4
-398.96 -205.71 2404.5
-398.83 -208.91 2441.8
-359.78 -212.01 2478.1
-325.09 -210.36 2458.7
-759.87 -201.84 2289.8
-744.85 -199.41 2262.2
-718.23 -196.94 2234.1
-705.00 -196.48 2228.9
-734.63 -206.43 2341.8
-667.58 -194.00 2200.8
-662.63 -194.22 2203.3
-683.29 -202.02 2291.8
-637.39 -195.24 2214.9
-601.74 -185.99 2110.0
-599.11 -186.88 2120.1
-634.58 -199.78 2266.4
-617.32 -198.01 2246.3
-593.58 -192.21 2180.5
-585.89 -195.30 2215.5
-553.56 -194.03 2201.2
-567.19 -200.88 2278.9
-548.81 -200.64 2276.2
-529.77 -200.13 2270.4
-557.36 -215.34 2443.0
-502.39 -205.80 2334.7
-420.34 -207.12 2349.7
-408.08 -213.46 2421.6
-400.51 -212.77 2413.8
-374.55 -205.40 2330.2
-369.96 -209.64 2378.3
-359.14 -214.23 2430.3
-345.81 -213.77 2425.2
-329.28 -207.33 2352.0
-331.03 -212.36 2409.1
-337.27 -220.52 2501.8
-336.91 -224.60 2548.0
-318.26 -220.83 2505.2
-318.01 -225.26 2555.5
-317.39 -229.60 2604.7
-763.48 -207.14 2282.8
-753.42 -207.64 2288.2
-757.65 -210.46 2319.3
-717.50 -200.90 2214.0
-692.23 -198.59 2188.6
-708.54 -204.95 2258.6
-695.49 -208.05 2292.8
-691.47 -208.63 2299.2
-669.49 -205.55 2265.2
-611.99 -189.55 2089.0
-642.83 -200.88 2213.8
-659.84 -208.06 2292.9
-630.85 -200.72 2212.1
-638.27 -204.95 2258.6
-628.73 -205.66 2266.4
-611.26 -205.71 2267.0
-580.59 -197.29 2174.2
-569.97 -195.58 2155.3
-571.30 -197.98 2181.8
-597.50 -209.12 2304.6
-563.40 -203.29 2240.3
-552.88 -201.57 2221.4
-567.69 -209.15 2304.9
-559.94 -215.36 2373.4
-535.54 -208.26 2295.2
-548.92 -215.87 2379.0
-514.02 -216.75 2388.7
-428.28 -214.14 2359.9
-402.70 -220.23 2427.0
-393.52 -218.62 2409.3
-379.84 -214.43 2363.1
-377.60 -216.66 2387.6
-357.07 -211.82 2334.4
-343.48 -218.58 2408.8
-337.63 -218.84 2411.7
-349.26 -230.64 2541.8
-338.39 -227.77 2510.1
-319.47 -219.24 2416.1
-324.96 -227.47 2506.8
-323.71 -231.22 2548.1
-770.90 -215.13 2305.0
-757.98 -213.18 2284.1
-762.92 -216.26 2317.1
-766.76 -219.08 2347.2
-751.43 -216.41 2318.7
-737.75 -214.18 2294.8
-673.75 -202.13 2165.6
-692.11 -209.38 2243.3
-665.52 -203.04 2175.4
-675.97 -207.99 2228.5
-679.02 -212.56 2277.4
-604.92 -194.44 2083.3
-634.36 -205.74 2204.3
-618.14 -202.30 2167.5
-619.71 -204.67 2192.9
-623.30 -207.77 2226.1
-596.64 -200.74 2150.8
-608.34 -206.61 2213.7
-625.43 -218.60 2342.1
-602.18 -212.53 2277.2
-590.60 -210.51 2255.5
-599.44 -217.98 2335.5
-562.06 -208.60 2235.0
-568.04 -215.26 2306.3
-550.84 -210.96 2260.3
-560.24 -216.87 2323.6
-551.08 -215.64 2310.4
-555.69 -219.83 2355.4
-567.33 -226.93 2431.4
-547.68 -221.53 2373.6
-533.41 -218.21 2338.0
-528.74 -218.79 2344.2
-412.25 -221.51 2373.3
-394.95 -222.16 2380.3
-391.34 -223.62 2396.0
-382.60 -222.15 2380.2
-366.16 -216.09 2315.3
-352.02 -214.79 2301.3
-358.62 -222.59 2384.9
-363.35 -229.48 2458.7
-347.52 -223.40 2393.6
-338.34 -221.46 2372.8
-349.15 -232.77 2493.9
-341.59 -232.02 2485.9
-312.95 -234.71 2514.8
-311.34 -238.47 2555.1
-307.88 -240.95 2581.6
-303.23 -242.59 2599.2
-800.27 -227.77 2374.4
-758.63 -224.55 2340.9
-739.41 -220.63 2300.0
-684.00 -218.17 2274.4
-654.96 -210.73 2196.8
-612.47 -198.78 2072.3
-649.79 -212.76 2218.0
-631.99 -208.78 2176.5
-642.59 -218.13 2273.9
-637.66 -218.46 2277.3
-603.43 -208.66 2175.2
-633.02 -225.21 2347.7
-608.37 -222.87 2323.4
-590.58 -225.27 2348.4
-533.26 -219.23 2285.4
-545.03 -229.16 2388.9
-539.30 -232.02 2418.8
-529.89 -230.66 2404.5
-427.33 -222.69 2321.5
-392.90 -227.14 2367.9
-371.36 -225.25 2348.2
-366.79 -226.19 2357.9
-372.86 -233.83 2437.6
-351.88 -224.47 2340.1
-338.42 -223.60 2331.0
-351.33 -236.35 2463.9
-345.34 -236.62 2466.7
-321.85 -224.69 2342.3
-314.36 -228.06 2377.5
-313.80 -232.21 2420.7
-314.90 -237.78 2478.8
-314.47 -242.40 2527.0
-312.35 -245.89 2563.4
-310.51 -249.76 2603.7
-292.06 -251.31 2619.8
-780.69 -228.20 2316.3
-783.99 -232.75 2362.5
-750.43 -224.54 2279.2
-743.21 -229.61 2330.6
-726.24 -228.08 2315.1
-676.25 -215.94 2191.9
-684.15 -220.32 2236.3
-668.07 -218.85 2221.4
-668.75 -220.98 2243.0
-659.73 -219.91 2232.2
-635.17 -217.45 2207.2
-611.58 -211.27 2144.5
-631.61 -220.19 2235.1
-607.71 -213.83 2170.4
-600.62 -213.31 2165.1
-578.78 -207.49 2106.1
-586.29 -220.59 2239.0
-548.32 -234.11 2376.3
-529.55 -236.74 2403.0
-522.75 -236.48 2400.4
-416.29 -232.63 2361.3
-419.89 -238.15 2417.3
-390.30 -224.72 2281.0
-396.06 -235.16 2387.0
-383.36 -234.97 2385.0
-377.95 -235.45 2389.9
-355.34 -232.81 2363.1
-337.56 -225.04 2284.3
-347.06 -235.51 2390.5
-352.51 -243.55 2472.1
-339.19 -238.69 2422.8
-331.53 -237.70 2412.8
-334.96 -244.78 2484.6
-332.54 -247.78 2515.0
-326.64 -248.25 2519.8
-320.72 -248.72 2524.6
-313.53 -248.21 2519.5
-312.63 -252.77 2565.7
-303.66 -256.43 2602.8
-292.83 -252.90 2567.0
-781.15 -234.35 2317.7
-739.38 -232.55 2299.9
-700.45 -225.77 2232.8
-683.72 -224.08 2216.1
-661.49 -224.33 2218.6
-628.36 -222.78 2203.3
-621.99 -222.55 2201.0
-607.84 -219.50 2170.8
-613.52 -223.62 2211.6
-623.48 -229.39 2268.7
-604.15 -224.40 2219.3
-580.13 -217.55 2151.6
-594.18 -224.98 2225.1
-612.18 -238.75 2361.3
-597.04 -235.20 2326.1
-597.74 -237.88 2352.6
-566.92 -245.67 2429.7
-541.94 -242.94 2402.7
-526.65 -244.51 2418.3
-513.20 -244.08 2414.0
-440.06 -238.37 2357.5
-419.30 -240.48 2378.4
-404.97 -239.30 2366.7
-391.56 -234.94 2323.6
-357.03 -228.27 2257.6
-370.74 -240.98 2383.3
-361.09 -238.69 2360.6
-352.89 -237.29 2346.8
-357.70 -244.74 2420.5
-348.98 -243.04 2403.7
-334.44 -237.15 2345.4
-329.31 -237.83 2352.2
-330.36 -243.10 2404.3
-341.92 -256.44 2536.2
-312.92 -259.65 2568.0
-303.59 -263.11 2602.2
-278.91 -265.31 2623.9
-811.64 -247.83 2389.8
-765.14 -237.25 2287.8
-785.50 -245.47 2367.0
-793.03 -249.77 2408.5
-768.53 -243.98 2352.7
-732.02 -234.25 2258.8
-754.43 -243.36 2346.7
-721.69 -234.70 2263.1
-666.16 -231.71 2234.3
-635.42 -228.98 2208.0
-652.68 -239.52 2309.6
-633.71 -234.71 2263.3
-619.22 -231.48 2232.2
-610.41 -230.34 2221.2
-616.81 -234.97 2265.8
-620.14 -238.51 2300.0
-601.47 -233.58 2252.4
-600.09 -235.33 2269.2
-605.04 -242.02 2333.7
-570.01 -250.55 2416.1
-559.55 -248.69 2398.1
-525.22 -247.16 2383.3
-519.10 -247.19 2383.6
-519.27 -250.25 2413.1
-506.87 -247.25 2384.2
-410.07 -248.53 2396.5
-400.09 -250.06 2411.3
-377.17 -239.47 2309.2
-391.06 -252.30 2432.9
-382.42 -250.77 2418.1
-364.22 -242.82 2341.4
-358.89 -243.32 2346.3
-355.75 -245.35 2365.9
-345.31 -251.13 2421.6
-339.56 -251.53 2425.5
-330.01 -249.06 2401.7
-329.34 -253.34 2442.9
-297.98 -264.87 2554.1
-291.44 -264.94 2554.8
-785.86 -247.85 2331.7
-804.40 -255.66 2405.2
-727.75 -240.63 2263.8
-680.46 -230.57 2169.1
-680.77 -240.62 2263.6
-669.69 -238.76 2246.2
-649.67 -233.65 2198.1
-633.23 -229.76 2161.5
-620.01 -226.97 2135.3
-642.96 -237.49 2234.2
-640.60 -238.77 2246.3
-605.18 -227.64 2141.5
-624.44 -237.05 2230.1
-646.99 -247.91 2332.3
-636.09 -246.03 2314.6
-604.94 -258.36 2430.6
-568.27 -256.03 2408.7
-572.06 -260.61 2451.7
-534.22 -254.68 2396.0
-537.07 -259.06 2437.1
-423.48 -244.55 2300.6
-420.01 -246.01 2314.4
-395.87 -245.92 2313.5
-384.91 -242.79 2284.1
-366.88 -250.70 2358.5
-356.39 -247.66 2329.9
-346.94 -254.01 2389.6
-349.85 -260.80 2453.5
-348.71 -264.76 2490.8
-343.32 -265.59 2498.6
-332.84 -262.43 2468.9
-315.52 -275.24 2589.4
-303.31 -276.35 2599.8
-764.02 -252.67 2320.4
-756.73 -252.24 2316.5
-746.14 -252.73 2320.9
-704.00 -242.36 2225.8
-668.95 -234.13 2150.2
-659.99 -236.92 2175.8
-666.73 -250.02 2296.1
-635.92 -240.62 2209.8
-649.75 -252.68 2320.5
-630.44 -254.60 2338.2
-627.08 -255.70 2348.3
-623.93 -256.91 2359.4
-614.93 -255.71 2348.4
-516.08 -258.04 2369.8
-513.56 -259.87 2386.6
-444.14 -255.53 2346.7
-444.10 -259.06 2379.1
-421.93 -249.59 2292.2
-423.81 -254.29 2335.3
-414.38 -263.70 2421.7
-379.21 -252.81 2321.7
-382.81 -259.32 2381.5
-363.89 -250.55 2301.0
-354.71 -248.29 2280.3
-352.24 -250.75 2302.8
-340.93 -246.88 2267.3
-334.18 -255.19 2343.6
-346.14 -269.22 2472.4
-336.06 -266.31 2445.7
-318.80 -257.50 2364.8
-316.04 -260.27 2390.2
-310.14 -277.15 2545.2
-303.58 -283.34 2602.1
-756.53 -258.18 2315.9
-772.86 -265.86 2384.8
-757.40 -264.78 2375.1
-673.80 -241.45 2165.8
-660.18 -253.46 2273.6
-623.11 -241.38 2165.2
-628.93 -248.11 2225.6
-646.90 -257.56 2310.4
-620.60 -249.40 2237.2
-630.49 -255.76 2294.2
-619.40 -256.10 2297.2
-624.10 -260.55 2337.1
-619.96 -261.35 2344.4
-609.23 -259.37 2326.6
-581.72 -271.89 2438.9
-568.42 -268.60 2409.3
-567.69 -271.23 2433.0
-551.42 -266.42 2389.8
-514.67 -266.64 2391.8
-441.79 -263.84 2366.7
-405.88 -264.44 2372.0
-363.62 -252.19 2262.1
-350.79 -255.66 2293.3
-351.18 -260.36 2335.4
-339.30 -255.96 2296.0
-331.56 -259.22 2325.2
-345.77 -275.33 2469.8
-337.72 -274.00 2457.8
-317.05 -284.02 2547.7
-305.01 -279.05 2503.1
-302.34 -288.90 2591.5
-787.21 -270.60 2372.2
-781.04 -270.60 2372.1
-775.79 -270.91 2374.9
-771.62 -273.80 2400.2
-741.50 -265.25 2325.3
-708.50 -257.64 2258.5
-677.17 -248.30 2176.6
-672.89 -248.80 2181.0
-667.18 -255.27 2237.7
-670.58 -258.82 2268.9
-646.15 -251.60 2205.6
-643.64 -252.86 2216.6
-622.07 -253.44 2221.7
-618.71 -261.76 2294.7
-612.08 -266.65 2337.5
-572.96 -280.11 2455.5
-553.28 -273.53 2397.8
-527.91 -279.86 2453.3
-458.37 -272.55 2389.2
-407.74 -260.01 2279.3
-402.18 -260.23 2281.2
-404.94 -265.93 2331.2
-393.03 -262.02 2296.9
-380.95 -261.90 2295.9
-391.49 -273.42 2396.9
-372.69 -268.83 2356.6
-358.63 -263.00 2305.5
-352.79 -263.10 2306.4
-347.53 -263.65 2311.2
-343.85 -265.43 2326.8
-337.37 -265.08 2323.7
-324.17 -259.34 2273.4
-342.50 -284.34 2492.6
-328.05 -277.58 2433.3
-314.62 -276.87 2427.1
-313.64 -287.51 2520.3
-298.29 -285.32 2501.2
-296.61 -290.02 2542.4
-286.95 -286.95 2515.5
-781.14 -276.78 2372.4
-752.12 -268.62 2302.4
-744.64 -270.23 2316.3
-731.03 -267.45 2292.4
-705.52 -266.80 2286.8
-675.97 -257.78 2209.6
-651.24 -257.07 2203.4
-661.90 -263.59 2259.3
-652.45 -264.51 2267.2
-622.48 -254.65 2182.7
-596.64 -285.62 2448.2
-574.95 -284.32 2437.0
-543.68 -278.02 2383.0
-500.47 -278.04 2383.2
-496.56 -279.32 2394.1
-472.82 -276.33 2368.5
-464.42 -274.98 2357.0
-461.37 -276.82 2372.8
-449.49 -277.08 2375.0
-412.45 -265.15 2272.7
-399.40 -260.48 2232.6
-401.03 -265.38 2274.7
-411.28 -276.23 2367.7
-415.54 -283.32 2428.5
-386.86 -272.01 2331.5
-372.00 -265.72 2277.6
-389.42 -282.65 2422.7
-363.72 -272.79 2338.2
-348.93 -266.14 2281.2
-344.33 -267.15 2289.9
-340.56 -268.86 2304.5
-348.98 -280.43 2403.7
-351.00 -287.18 2461.6
-333.66 -288.75 2475.0
-298.91 -292.41 2506.4
-290.36 -296.96 2545.3
-781.93 -278.83 2338.0
-776.46 -279.04 2339.8
-697.63 -260.90 2187.7
-710.74 -272.45 2284.5
-662.46 -260.45 2183.9
-648.52 -261.68 2194.3
-660.04 -268.69 2253.0
-627.08 -267.09 2239.6
-605.92 -287.35 2409.4
-575.93 -291.13 2441.1
-499.92 -283.90 2380.6
-491.58 -282.66 2370.1
-484.28 -281.99 2364.5
-433.50 -280.86 2355.0
-411.98 -270.73 2270.1
-411.87 -274.58 2302.4
-425.91 -288.12 2415.9
-423.57 -290.81 2438.5
-418.43 -291.63 2445.4
-408.47 -289.07 2423.9
-371.14 -266.76 2236.8
-374.65 -277.97 2330.8
-384.73 -290.13 2432.7
-371.40 -284.74 2387.6
-353.79 -275.83 2312.9
-345.86 -274.30 2300.0
-351.05 -283.31 2375.5
-329.49 -280.68 2353.5
-320.88 -289.42 2426.8
-315.97 -290.69 2437.5
-301.29 -301.29 2526.3
-761.27 -283.97 2330.4
-741.40 -278.77 2287.8
-673.23 -270.44 2219.4
-653.07 -264.61 2171.5
-666.91 -272.56 2236.8
-664.39 -273.91 2247.9
-657.90 -273.64 2245.7
-644.22 -270.34 2218.6
-654.83 -277.27 2275.5
-623.91 -269.03 2207.8
-622.07 -281.13 2307.1
-628.07 -295.19 2422.6
-608.17 -294.68 2418.3
-604.42 -295.91 2428.5
-518.14 -300.65 2467.3
-442.92 -289.13 2372.8
-414.68 -274.50 2252.8
-400.38 -272.73 2238.2
-416.48 -287.86 2362.4
-418.01 -293.23 2406.4
-414.62 -295.26 2423.1
-405.87 -293.48 2408.5
-384.35 -282.26 2316.4
-380.10 -283.57 2327.2
-375.96 -285.00 2338.9
-366.47 -282.36 2317.3
-363.66 -284.86 2337.8
-355.63 -283.30 2325.0
-324.04 -304.60 2499.7
-314.28 -301.46 2474.0
-308.83 -302.39 2481.6
-307.53 -307.53 2523.8
-299.43 -305.94 2510.8
-289.33 -302.19 2480.0
-668.87 -284.12 2283.1
-662.05 -286.29 2300.6
-443.69 -295.79 2376.9
-416.71 -281.72 2263.8
-400.61 -278.69 2239.4
-416.18 -293.77 2360.7
-414.65 -297.06 2387.1
-405.96 -295.24 2372.5
-388.47 -295.98 2378.4
-364.81 -282.44 2269.6
-350.12 -284.84 2288.9
-370.29 -306.45 2462.5
-345.50 -301.53 2423.0
-319.11 -283.65 2279.4
-321.28 -290.97 2338.2
-335.22 -309.43 2486.5
-319.51 -300.72 2416.5
-309.56 -303.24 2436.8
-304.43 -310.91 2498.4
-287.86 -307.05 2467.4
-767.53 -296.13 2331.1
-736.84 -293.54 2310.7
-700.92 -288.61 2271.9
-670.13 -283.07 2228.3
-658.86 -280.73 2209.8
-671.31 -288.55 2271.4
-666.72 -289.11 2275.8
-662.38 -289.79 2281.2
-635.36 -288.27 2269.2
-626.45 -286.88 2258.2
-630.40 -294.19 2315.8
-494.16 -298.94 2353.2
-505.55 -313.57 2468.3
-448.58 -301.10 2370.2
-447.92 -304.84 2399.6
-441.37 -304.60 2397.8
-410.19 -287.13 2260.2
-402.95 -290.36 2285.7
-397.20 -290.49 2286.7
-389.76 -289.37 2277.8
-401.17 -302.42 2380.6
-389.79 -303.17 2386.4
-382.02 -301.92 2376.6
-385.00 -309.26 2434.4
-371.82 -303.65 2390.3
-370.86 -308.01 2424.5
-357.82 -313.09 2464.6
-334.75 -298.23 2347.6
-336.70 -317.28 2497.5
-322.31 -315.86 2486.4
-294.31 -313.50 2467.8
-288.09 -320.83 2525.5
-277.55 -316.28 2489.7
-730.87 -299.54 2310.7
-702.24 -290.18 2238.6
-686.04 -285.85 2205.1
-660.38 -292.20 2254.2
-421.47 -296.81 2289.7
-415.90 -297.07 2291.7
-413.11 -299.36 2309.3
-430.04 -316.20 2439.3
-413.03 -308.23 2377.8
-396.00 -300.00 2314.3
-395.93 -304.56 2349.5
-391.79 -306.08 2361.2
-359.16 -294.39 2271.0
-373.07 -310.89 2398.3
-379.29 -321.44 2479.6
-361.55 -322.81 2490.3
-329.46 -299.51 2310.5
-327.18 -314.60 2426.9
-328.93 -322.48 2487.7
-311.24 -311.24 2401.0
-296.18 -329.09 2538.7
-280.65 -326.34 2517.5
-270.34 -321.83 2482.7
-695.85 -295.74 2236.7
-683.21 -295.28 2233.2
-680.01 -298.97 2261.1
-643.35 -295.59 2235.6
-470.99 -311.95 2359.3
-470.27 -315.58 2386.7
-464.50 -315.86 2388.8
-439.46 -302.87 2290.6
-423.20 -308.33 2331.9
-414.76 -315.72 2387.8
-398.71 -308.10 2330.1
-400.91 -314.56 2379.0
-395.39 -315.08 2383.0
-358.02 -304.31 2301.5
-360.73 -311.82 2358.3
-370.67 -325.94 2465.1
-359.92 -322.04 2435.6
-353.31 -321.77 2433.5
-331.31 -307.22 2323.5
-333.04 -326.63 2470.3
-323.36 -323.36 2445.6
-709.48 -307.44 2280.5
-684.49 -299.10 2218.6
-699.82 -308.40 2287.6
-662.26 -302.08 2240.7
-662.60 -307.64 2281.9
-454.79 -323.96 2403.0
-438.03 -316.36 2346.6
-447.58 -327.80 2431.5
-409.62 -313.24 2323.5
-395.63 -307.05 2277.6
-396.07 -312.06 2314.7
-413.13 -330.51 2451.6
-402.19 -331.97 2462.4
-387.47 -324.97 2410.5
-377.19 -321.54 2385.0
-355.46 -308.06 2285.1
-338.36 -308.68 2289.6
-354.62 -329.29 2442.5
-337.33 -330.96 2454.9
-326.31 -326.31 2420.4
-331.96 -338.47 2510.6
-324.16 -337.12 2500.6
-297.92 -329.62 2445.0
-285.00 -336.81 2498.3
-710.87 -316.61 2304.1
-675.30 -308.54 2245.4
-464.79 -324.13 2358.9
-464.57 -328.30 2389.2
-445.97 -323.79 2356.4
-439.34 -323.40 2353.6
-437.13 -335.77 2443.6
-405.35 -315.94 2299.3
-392.27 -310.30 2258.3
-383.02 -312.31 2272.9
-406.81 -336.89 2451.8
-403.65 -339.58 2471.3
-393.63 -336.49 2448.8
-386.20 -335.55 2442.0
-370.72 -327.47 2383.2
-360.34 -323.69 2355.7
-352.65 -333.76 2428.9
-349.97 -337.24 2454.3
-335.32 -335.32 2440.4
-325.74 -338.52 2463.6
-318.31 -337.41 2455.6
-686.90 -314.35 2245.3
-656.43 -319.35 2281.0
-451.36 -324.98 2321.3
-428.87 -317.25 2266.1
-439.55 -329.66 2354.7
-421.27 -320.40 2288.6
-411.17 -321.78 2298.4
-422.93 -335.85 2399.0
-408.07 -328.89 2349.2
-393.47 -321.93 2299.5
-375.25 -321.64 2297.4
-379.50 -330.53 2361.0
-388.54 -343.95 2456.8
-370.10 -338.73 2419.5
-299.39 -343.99 2457.0
-713.29 -321.56 2255.1
-663.56 -317.35 2225.6
-656.54 -319.56 2241.0
-452.12 -336.03 2356.6
-443.09 -333.83 2341.2
-451.39 -344.81 2418.2
-427.94 -331.50 2324.8
-416.78 -332.21 2329.8
-418.21 -348.51 2444.1
-385.56 -326.24 2287.9
-379.94 -326.51 2289.8
-387.09 -337.94 2369.9
-366.33 -324.97 2279.0
-355.85 -326.20 2287.6
-728.30 -331.58 2283.9
-704.09 -323.19 2226.0
-710.69 -328.91 2265.5
-722.10 -336.98 2321.0
-715.72 -336.81 2319.9
-681.89 -334.96 2307.1
-659.11 -326.64 2249.8
-459.42 -347.67 2394.7
-437.96 -335.97 2314.1
-434.52 -337.96 2327.8
-424.56 -334.86 2306.5
-408.87 -327.10 2253.0
-429.70 -348.75 2402.1
-403.71 -342.54 2359.3
-395.78 -340.98 2348.6
-384.58 -347.36 2392.5
-359.66 -330.18 2274.2
-353.75 -330.16 2274.1
-360.76 -348.32 2399.2
-360.46 -354.14 2439.2
-734.37 -340.32 2302.9
-710.42 -331.92 2246.1
-713.71 -336.21 2275.1
-710.08 -337.29 2282.4
-687.16 -329.14 2227.3
-683.03 -329.94 2232.7
-684.61 -339.33 2296.2
-665.10 -332.55 2250.3
-465.60 -358.63 2426.9
-443.99 -351.49 2378.5
-418.85 -336.26 2275.5
-422.40 -348.94 2361.3
-419.32 -356.74 2414.0
-391.21 -337.86 2286.3
-388.08 -340.31 2302.9
-406.72 -362.24 2451.2
-398.73 -366.57 2480.6
-391.83 -366.14 2477.6
-383.73 -364.55 2466.9
-372.40 -365.98 2476.6
-360.47 -360.47 2439.3
-361.10 -367.55 2487.2
-356.18 -369.13 2497.9
-728.95 -352.33 2343.1
-694.80 -338.64 2252.1
-686.27 -337.32 2243.2
-689.55 -350.82 2333.1
-641.11 -338.04 2248.1
-452.88 -345.62 2298.4
-467.53 -361.55 2404.4
-441.62 -360.76 2399.2
-432.60 -358.44 2383.7
-403.79 -339.41 2257.2
-391.74 -339.12 2255.2
-400.91 -352.31 2343.0
-377.25 -336.62 2238.6
-374.19 -339.11 2255.2
-395.44 -364.05 2421.1
-702.23 -354.12 2315.1
-664.91 -344.12 2249.7
-670.10 -349.88 2287.3
-678.42 -357.38 2336.4
-580.53 -380.57 2488.0
-568.84 -377.10 2465.3
-528.46 -375.65 2455.9
-506.53 -373.57 2442.2
-470.68 -365.40 2388.8
-436.56 -352.84 2306.7
-432.78 -354.64 2318.4
-434.30 -360.90 2359.4
-434.73 -366.42 2395.5
-412.52 -352.73 2306.0
-414.78 -365.26 2387.9
-420.27 -375.70 2456.1
-390.91 -354.83 2319.7
-383.60 -353.63 2311.9
-401.51 -376.01 2458.2
-697.90 -360.98 2320.6
-582.41 -392.64 2524.1
-438.97 -360.80 2319.4
-439.69 -366.41 2355.5
-433.78 -366.57 2356.5
-426.27 -365.37 2348.8
-429.42 -373.41 2400.5
-424.61 -380.24 2444.4
-396.11 -360.10 2314.9
-384.52 -354.94 2281.8
-394.13 -369.50 2375.3
-395.46 -376.63 2421.2
-392.79 -380.12 2443.6
-380.57 -380.57 2446.5
-374.67 -381.02 2449.4
-727.50 -366.75 2319.1
-706.36 -365.15 2308.9
-689.96 -359.72 2274.6
-664.33 -349.34 2209.0
-684.20 -362.92 2294.8
-551.23 -390.99 2472.3
-523.62 -389.52 2463.0
-518.11 -390.18 2467.2
-459.08 -373.38 2361.0
-462.48 -381.23 2410.6
-455.29 -385.73 2439.1
-433.43 -372.38 2354.7
-417.46 -363.79 2300.3
-411.50 -363.79 2300.3
-412.41 -369.95 2339.3
-398.74 -363.03 2295.5
-393.29 -363.49 2298.4
-402.10 -377.36 2386.1
-393.82 -375.36 2373.4
-375.08 -363.17 2296.4
-363.00 -357.15 2258.3
-362.38 -362.38 2291.4
-354.75 -360.67 2280.6
-681.96 -361.38 2248.2
-683.44 -365.28 2272.5
-665.30 -361.83 2251.0
-679.92 -373.06 2320.8
-657.83 -364.16 2265.5
-653.05 -371.46 2310.9
-581.45 -396.15 2464.5
-565.09 -393.66 2449.0
-542.62 -405.33 2521.6
-505.75 -391.96 2438.4
-505.03 -396.35 2465.8
-506.33 -402.46 2503.8
-474.34 -386.97 2407.4
-437.41 -361.59 2249.5
-435.87 -365.19 2271.9
-448.18 -380.65 2368.1
-433.73 -373.49 2323.5
-433.44 -378.50 2354.7
-437.23 -387.26 2409.2
-427.35 -383.99 2388.9
-422.54 -385.25 2396.7
-396.22 -366.65 2281.0
-388.00 -370.09 2302.4
-377.82 -366.01 2277.0
-367.61 -361.77 2250.7
-365.05 -365.05 2271.1
-387.54 -393.89 2450.5
-723.11 -376.50 2305.1
-671.66 -361.67 2214.3
-684.89 -371.96 2277.3
-672.68 -368.51 2256.2
-662.25 -365.98 2240.7
-657.17 -366.39 2243.2
-669.15 -376.40 2304.5
-643.95 -365.49 2237.7
-599.65 -410.63 2514.1
-576.06 -403.24 2468.8
-582.63 -412.42 2525.0
