ply
format ascii 1.0
element vertex 2175
property float x
property float y
property float z
end_header
-654.50 734.32 2052.5
-656.75 742.89 2076.4
-641.61 731.75 2045.3
-637.57 733.20 2049.3
-665.59 771.86 2157.4
-670.39 784.01 2191.3
-661.57 780.31 2181.0
-629.48 762.01 2129.8
-624.35 762.49 2131.2
-626.34 771.74 2157.0
-618.51 768.96 2149.3
-618.24 775.61 2167.9
-972.43 744.26 2095.4
-921.56 717.35 2019.7
-893.94 699.83 1970.3
-888.05 699.22 1968.6
-926.94 734.05 2066.7
-894.49 712.48 2005.9
-894.07 720.51 2028.6
-920.87 746.51 2101.7
-864.57 705.04 1985.0
-849.21 696.65 1961.4
-864.38 713.38 2008.5
-840.47 697.84 1964.7
-827.90 691.60 1947.1
-837.23 703.68 1981.2
-818.81 692.45 1949.5
-818.82 696.76 1961.7
-842.08 721.03 2030.0
-848.74 731.30 2058.9
-823.93 714.42 2011.4
-822.25 717.50 2020.1
-852.22 748.42 2107.1
-801.46 712.98 2007.4
-762.12 691.46 1946.8
-779.35 711.81 2004.0
-788.79 725.26 2041.9
-774.59 717.02 2018.7
-745.62 694.89 1956.4
-739.77 694.17 1954.4
-762.32 720.26 2027.9
-768.26 730.92 2057.9
-743.72 712.52 2006.0
-736.79 710.84 2001.3
-748.11 726.89 2046.5
-743.36 727.43 2048.0
-735.39 724.81 2040.6
-715.94 710.76 2001.1
-716.68 716.68 2017.8
-740.97 746.42 2101.5
-717.58 728.21 2050.2
-687.58 702.98 1979.2
-710.45 731.81 2060.4
-741.21 769.29 2165.9
-724.23 757.40 2132.4
-693.18 730.50 2056.7
-697.65 740.91 2086.0
-701.38 750.70 2113.5
-688.38 742.59 2090.7
-696.97 757.81 2133.6
-696.58 763.45 2149.5
-662.49 731.94 2060.7
-653.85 728.27 2050.4
-653.54 733.89 2066.2
-635.29 719.29 2025.1
-625.39 713.99 2010.2
-649.34 747.56 2104.7
-616.42 734.35 2067.5
-597.77 718.37 2022.5
-614.45 744.96 2097.4
-614.15 751.23 2115.0
-602.50 743.62 2093.6
-603.92 752.16 2117.7
-609.76 780.73 2198.1
-978.10 747.32 2119.5
-963.95 740.66 2100.6
-961.73 743.15 2107.7
-940.19 730.66 2072.3
-945.04 738.65 2094.9
-943.16 741.45 2102.8
-868.37 686.61 1947.3
-929.62 743.70 2109.2
-914.95 740.67 2100.7
-866.81 705.91 2002.0
-851.83 697.88 1979.3
-859.76 708.65 2009.8
-878.72 728.70 2066.7
-855.30 722.49 2049.1
-834.66 709.46 2012.1
-838.47 717.18 2034.0
-810.46 697.61 1978.5
-803.48 696.01 1974.0
-827.17 721.12 2045.2
-828.91 727.30 2062.7
-787.23 695.22 1971.7
-755.05 680.04 1928.7
-773.02 700.87 1987.8
-778.74 710.80 2015.9
-761.87 700.10 1985.6
-748.18 692.20 1963.2
-757.12 705.26 2000.2
-774.57 726.49 2060.4
-776.79 733.64 2080.7
-745.25 708.77 2010.2
-729.12 698.32 1980.5
-740.51 714.25 2025.7
-736.78 715.73 2029.9
-731.42 715.63 2029.6
-714.55 704.19 1997.2
-698.46 693.36 1966.5
-703.97 703.97 1996.6
-707.45 712.69 2021.3
-704.59 715.11 2028.1
-707.57 723.53 2052.0
-719.03 740.82 2101.1
-713.18 740.40 2099.9
-694.00 726.03 2059.1
-679.22 716.07 2030.9
-663.07 704.51 1998.1
-674.07 721.84 2047.2
-708.38 764.60 2168.5
-697.39 758.76 2152.0
-653.70 716.96 2033.4
-643.39 711.39 2017.6
-641.16 714.74 2027.1
-632.64 711.07 2016.7
-631.21 715.37 2028.9
-624.13 713.29 2023.0
-638.41 735.80 2086.8
-655.14 761.53 2159.8
-612.85 718.52 2037.8
-604.13 720.71 2044.0
-629.83 758.03 2149.9
-636.01 772.29 2190.3
-617.62 756.73 2146.2
-611.92 756.55 2145.7
-630.93 787.22 2232.6
-618.37 778.69 2208.5
-585.43 744.09 2110.3
-600.12 769.97 2183.7
-980.90 748.14 2137.6
-979.79 751.54 2147.3
-955.01 736.72 2104.9
-934.72 725.21 2072.0
-911.07 710.95 2031.3
-906.59 711.57 2033.1
-950.75 750.59 2144.5
-949.08 753.68 2153.4
-893.49 713.73 2039.2
-893.15 717.71 2050.6
-891.25 720.47 2058.5
-864.09 702.72 2007.8
-862.23 705.46 2015.6
-871.51 717.41 2049.7
-889.53 736.73 2104.9
-881.50 734.58 2098.8
-828.41 694.63 1984.6
-780.02 666.47 1904.2
-820.19 705.25 2015.0
-824.19 713.24 2037.8
-806.80 702.70 2007.7
-809.30 709.45 2027.0
-802.59 708.17 2023.3
-783.34 695.73 1987.8
-786.43 703.10 2008.9
-780.12 702.11 2006.0
-762.52 690.87 1973.9
-755.27 688.93 1968.4
-751.43 690.09 1971.7
-775.50 717.07 2048.8
-807.56 751.87 2148.2
-794.64 744.97 2128.5
-747.77 705.94 2017.0
-717.18 681.83 1948.1
-714.63 684.22 1954.9
-715.28 689.73 1970.7
-715.53 694.94 1985.5
-721.15 705.47 2015.6
-727.90 717.27 2049.3
-712.38 707.14 2020.4
-695.74 695.74 1987.8
-709.16 714.45 2041.3
-729.44 740.41 2115.5
-714.64 730.88 2088.2
-682.26 703.09 2008.8
-685.41 711.78 2033.6
-690.86 722.99 2065.7
-674.32 711.20 2032.0
-684.95 728.10 2080.3
-690.64 739.97 2114.2
-652.57 704.78 2013.7
-638.21 694.83 1985.2
-656.55 720.61 2058.9
-655.08 724.89 2071.1
-646.46 721.26 2060.7
-655.07 736.95 2105.6
-657.02 745.36 2129.6
-625.30 715.38 2044.0
-604.58 715.95 2045.6
-622.58 743.79 2125.1
-611.11 736.61 2104.6
-614.66 761.27 2175.1
-965.11 739.00 2127.2
-901.25 694.07 1997.9
-915.59 709.18 2041.4
-948.75 739.14 2127.6
-932.05 734.68 2114.7
-870.39 690.14 1986.5
-861.05 686.79 1976.9
-865.74 694.67 1999.6
-848.87 685.23 1972.4
-860.96 699.20 2012.6
-883.67 722.03 2078.3
-875.32 719.59 2071.3
-843.76 697.93 2009.0
-816.51 679.58 1956.2
-791.69 663.04 1908.5
-802.21 680.36 1958.4
-829.37 707.87 2037.6
-818.70 703.24 2024.3
-797.79 689.70 1985.3
-795.76 692.41 1993.1
-822.81 720.63 2074.3
-831.73 738.09 2124.6
-815.50 728.52 2097.0
-782.60 703.81 2025.9
-760.24 688.32 1981.3
-751.29 684.85 1971.3
-768.98 705.78 2031.6
-779.38 730.33 2102.2
-722.95 682.22 1963.8
-742.88 706.00 2032.2
-765.09 732.30 2107.9
-744.40 717.63 2065.7
-729.99 708.84 2040.4
-738.92 722.74 2080.4
-727.43 716.73 2063.1
-719.79 714.45 2056.5
-746.15 746.15 2147.8
-754.13 759.80 2187.1
-724.08 735.05 2115.8
-694.67 710.58 2045.4
-700.48 722.03 2078.3
-691.36 718.16 2067.2
-662.85 693.92 1997.4
-673.87 711.02 2046.6
-681.41 724.68 2086.0
-669.45 717.65 2065.7
-681.11 736.04 2118.7
-688.48 750.05 2159.0
-673.89 740.18 2130.6
-679.33 752.31 2165.5
-654.36 743.09 2138.9
-640.15 733.16 2110.4
-645.74 745.94 2147.2
-619.98 722.42 2079.4
-605.57 711.81 2048.9
-612.64 726.50 2091.2
-583.40 717.20 2064.4
-614.70 769.82 2215.9
-976.41 742.07 2152.1
-921.48 704.35 2042.7
-954.08 733.48 2127.2
-940.07 726.92 2108.1
-912.23 709.52 2057.7
-939.61 735.11 2131.9
-932.60 733.94 2128.5
-896.66 709.86 2058.7
-876.56 698.10 2024.6
-869.42 696.59 2020.2
-892.67 719.55 2086.8
-875.71 710.18 2059.6
-830.66 677.78 1965.6
-835.12 685.62 1988.4
-840.57 694.39 2013.8
-834.22 693.45 2011.1
-836.96 700.10 2030.4
-834.91 702.81 2038.2
-834.26 706.73 2049.6
-824.27 702.74 2038.0
-802.61 688.69 1997.3
-819.62 707.85 2052.9
-808.02 711.70 2064.0
-825.40 731.85 2122.4
-825.69 737.02 2137.4
-798.97 717.99 2082.3
-783.68 709.05 2056.3
-769.53 701.01 2033.0
-800.68 734.42 2129.9
-780.60 726.01 2105.5
-744.83 697.63 2023.2
-786.53 741.91 2151.6
-771.71 738.39 2141.4
-750.38 723.20 2097.3
-756.96 734.86 2131.2
-751.36 734.78 2130.9
-746.69 735.63 2133.4
-755.43 749.79 2174.5
-746.31 746.31 2164.4
-707.99 713.35 2068.8
-669.80 680.03 1972.2
-697.04 713.13 2068.1
-710.56 732.59 2124.6
-673.51 699.82 2029.6
-676.45 708.40 2054.4
-694.90 733.50 2127.2
-692.20 736.50 2135.9
-688.59 738.56 2141.9
-679.46 734.70 2130.7
-678.11 739.25 2143.9
-696.89 766.00 2221.5
-662.34 746.54 2165.0
-664.05 754.86 2189.2
-655.17 757.72 2197.5
-635.89 741.88 2151.5
-639.52 752.71 2182.9
-637.70 757.27 2196.2
-631.61 756.80 2194.8
-598.72 723.91 2099.4
-597.41 742.57 2153.5
-1000.01 745.77 2179.2
-945.71 709.28 2072.6
-962.47 725.98 2121.4
-975.82 744.55 2175.6
-905.34 694.79 2030.2
-909.37 701.97 2051.2
-924.17 730.48 2134.5
-894.53 711.31 2078.5
-891.40 713.12 2083.8
-850.55 684.59 2000.4
-826.41 669.24 1955.6
-847.51 690.57 2017.9
-859.15 704.40 2058.3
-857.09 707.10 2066.2
-838.99 696.52 2035.3
-816.70 682.31 1993.8
-821.90 691.03 2019.2
-818.41 692.50 2023.5
-813.83 693.07 2025.2
-812.59 705.67 2062.0
-759.62 664.04 1940.4
-760.37 669.12 1955.2
-796.75 705.84 2062.5
-809.77 722.23 2110.4
-799.50 717.92 2097.8
-787.94 712.38 2081.6
-780.47 710.50 2076.1
-777.68 712.88 2083.1
-773.54 714.04 2086.5
-790.76 735.07 2147.9
-789.05 738.69 2158.5
-757.09 713.83 2085.9
-766.77 728.16 2127.7
-761.64 733.85 2144.4
-728.16 706.74 2065.2
-700.08 684.52 2000.2
-682.91 672.71 1965.7
-700.01 694.75 2030.1
-688.17 688.17 2010.9
-671.20 676.33 1976.3
-720.63 731.72 2138.1
-735.51 752.61 2199.2
-695.87 717.62 2096.9
-679.91 706.68 2065.0
-679.75 712.12 2080.9
-657.82 694.66 2029.8
-647.89 695.30 2031.7
-674.31 729.58 2131.9
-682.89 744.97 2176.9
-685.60 754.16 2203.7
-674.45 748.13 2186.1
-655.60 733.39 2143.0
-645.78 728.57 2128.9
-648.07 737.45 2154.9
-640.72 735.44 2149.0
-633.94 734.04 2144.9
-640.26 747.92 2185.5
-640.03 754.32 2204.2
-628.93 747.92 2185.5
-594.21 713.06 2083.6
-595.65 728.01 2127.3
-613.34 756.64 2211.0
-614.76 765.56 2237.0
-980.35 725.57 2136.4
-928.09 690.80 2034.0
-941.80 705.01 2075.8
-967.89 728.70 2145.6
-929.17 703.59 2071.6
-904.78 689.10 2029.0
-949.46 727.37 2141.6
-940.00 728.64 2145.4
-924.41 725.14 2135.1
-884.95 698.36 2056.3
-874.37 694.19 2044.0
-870.18 695.08 2046.6
-878.98 706.42 2080.0
-864.35 698.95 2058.0
-837.32 681.30 2006.0
-856.94 701.62 2065.8
-860.30 708.80 2087.0
-827.03 685.70 2019.0
-821.03 685.07 2017.1
-808.96 679.32 2000.2
-796.97 673.57 1983.2
-797.42 678.33 1997.3
-780.23 668.04 1967.0
-777.15 669.78 1972.1
-769.53 667.61 1965.7
-749.15 654.26 1926.4
-763.64 671.39 1976.8
-784.72 694.59 2045.1
-782.07 696.95 2052.1
-760.49 682.36 2009.1
-743.80 671.98 1978.6
-766.23 697.06 2052.4
-786.34 720.35 2121.0
-757.08 698.43 2056.5
-711.76 661.28 1947.1
-711.15 665.43 1959.3
-746.97 703.98 2072.8
-761.72 723.08 2129.0
-736.68 704.42 2074.1
-725.51 698.84 2057.7
-719.45 698.13 2055.6
-697.77 682.15 2008.5
-712.31 701.60 2065.8
-723.80 718.32 2115.0
-731.69 731.69 2154.4
-729.66 735.28 2164.9
-689.24 699.93 2060.9
-671.79 687.54 2024.4
-679.21 700.60 2062.8
-675.22 702.01 2067.0
-648.91 680.06 2002.3
-634.92 681.76 2007.4
-626.15 677.90 1996.0
-646.54 705.81 2078.2
-655.04 721.09 2123.2
-650.80 722.49 2127.3
-656.47 735.02 2164.2
-645.53 729.00 2146.5
-627.61 714.93 2105.0
-615.00 706.71 2080.8
-613.47 711.19 2094.0
-633.08 740.47 2180.2
-645.69 762.04 2243.7
-630.11 750.40 2209.5
-628.90 755.83 2225.5
-971.03 713.19 2116.1
-935.46 690.96 2050.1
-919.12 682.78 2025.8
-910.36 680.15 2018.0
-900.45 676.64 2007.6
-904.60 683.71 2028.6
-893.16 679.01 2014.7
-858.27 656.33 1947.3
-862.03 671.04 1991.0
-883.28 691.73 2052.4
-867.44 683.44 2027.8
-859.19 681.06 2020.7
-897.80 716.03 2124.5
-854.81 690.22 2047.9
-846.55 687.82 2040.8
-841.96 688.40 2042.5
-802.26 660.09 1958.5
-795.32 658.55 1953.9
-781.96 651.64 1933.4
-781.50 655.45 1944.8
-792.66 669.13 1985.3
-774.43 658.01 1952.4
-769.99 658.55 1953.9
-783.28 674.35 2000.8
-783.90 679.38 2015.7
-772.08 673.62 1998.7
-765.45 672.36 1994.9
-760.20 672.28 1994.7
-736.03 655.37 1944.5
-736.09 664.52 1971.7
-754.41 685.83 2034.9
-726.98 665.54 1974.7
-709.37 658.70 1954.4
-733.28 685.80 2034.8
-733.68 691.15 2050.7
-746.77 708.62 2102.5
-760.34 743.19 2205.1
-750.23 738.86 2192.2
-747.84 742.13 2201.9
-736.27 736.27 2184.5
-699.40 704.83 2091.2
-685.47 696.18 2065.6
-689.53 705.82 2094.2
-682.80 704.48 2090.2
-691.65 719.32 2134.2
-697.37 731.11 2169.2
-675.15 713.57 2117.2
-647.72 690.20 2047.8
-640.36 699.55 2075.6
-658.79 725.78 2153.4
-672.14 746.82 2215.8
-668.47 749.15 2222.8
-634.32 717.05 2127.5
-608.17 693.53 2057.7
-622.75 729.35 2164.0
-642.05 758.79 2251.3
-641.26 764.81 2269.2
-610.98 756.45 2244.4
-607.00 758.76 2251.3
-958.90 698.86 2089.6
-936.47 686.39 2052.3
-932.38 687.30 2055.0
-935.35 693.45 2073.4
-935.89 697.86 2086.6
-914.16 685.62 2050.0
-880.19 664.00 1985.4
-866.94 657.86 1967.0
-853.00 651.11 1946.8
-852.89 654.90 1958.2
-894.13 690.68 2065.1
-898.99 698.61 2088.9
-865.02 676.29 2022.1
-847.42 666.57 1993.1
-879.43 695.99 2081.0
-864.04 688.03 2057.2
-792.99 651.56 1948.2
-779.63 644.70 1927.7
-779.54 648.78 1939.9
-805.25 674.52 2016.8
-798.91 673.59 2014.0
-781.37 663.14 1982.8
-781.73 667.84 1996.9
-785.83 675.81 2020.7
-778.11 673.67 2014.3
-792.31 690.59 2064.9
-806.95 708.14 2117.4
-779.79 688.99 2060.1
-759.27 675.49 2019.7
-758.96 679.90 2032.9
-758.91 684.61 2047.0
-740.34 672.56 2011.0
-716.36 655.40 1959.7
-728.10 670.89 2006.0
-752.87 698.71 2089.2
-735.48 687.52 2055.7
-731.34 688.63 2059.0
-771.25 731.56 2187.4
-766.35 737.75 2205.9
-756.21 733.47 2193.1
-740.88 724.04 2164.9
-731.51 720.34 2153.8
-742.88 737.17 2204.2
-729.23 729.23 2180.4
-700.67 706.14 2111.4
-689.13 699.98 2093.0
-689.50 705.92 2110.7
-706.24 728.84 2179.3
-691.28 730.95 2185.6
-647.87 690.70 2065.2
-625.12 672.00 2009.3
-636.05 689.50 2061.6
-650.62 711.27 2126.7
-659.63 727.29 2174.6
-670.60 745.76 2229.8
-650.29 729.45 2181.1
-630.74 713.73 2134.1
-614.36 701.35 2097.1
-611.19 716.76 2143.1
-612.74 725.16 2168.3
-638.03 762.09 2278.7
-623.68 766.23 2291.1
-607.70 753.78 2253.8
-970.71 701.98 2115.3
-947.42 689.03 2076.3
-918.75 672.00 2025.0
-901.72 663.34 1998.9
-930.63 688.56 2074.9
-934.64 695.55 2096.0
-902.88 675.84 2036.6
-891.44 671.20 2022.6
-870.85 659.58 1987.6
-866.07 659.86 1988.4
-912.24 707.68 2132.5
-881.30 687.84 2072.7
-869.22 682.58 2056.9
-815.00 643.95 1940.5
-823.52 658.81 1985.3
-801.20 644.99 1943.6
-827.04 674.27 2031.8
-842.87 691.59 2084.0
-804.66 664.49 2002.4
-793.74 659.74 1988.0
-801.92 670.88 2021.6
-798.72 672.61 2026.8
-790.97 670.49 2020.5
-787.75 672.21 2025.6
-773.83 664.76 2003.2
-782.93 677.13 2040.5
-803.82 709.58 2138.2
-796.89 708.35 2134.5
-795.95 712.46 2146.9
-776.15 699.63 2108.3
-736.20 668.32 2013.9
-732.19 669.43 2017.2
-755.34 695.56 2096.0
-736.32 682.96 2058.0
-692.56 647.06 1949.8
-689.28 648.74 1954.9
-738.31 700.03 2109.5
-761.25 727.16 2191.2
-746.79 718.71 2165.8
-725.65 703.66 2120.4
-701.04 684.98 2064.1
-698.01 687.27 2071.0
-716.43 710.88 2142.2
-719.79 719.79 2169.0
-701.25 706.77 2129.8
-695.03 706.06 2127.6
-702.92 719.80 2169.0
-708.56 737.36 2222.0
-666.19 698.95 2106.2
-656.89 694.90 2094.0
-667.76 712.28 2146.4
-662.36 712.45 2146.9
-660.01 715.95 2157.4
-650.42 711.57 2144.3
-644.46 711.13 2142.9
-652.39 726.14 2188.1
-662.80 744.19 2242.5
-664.37 752.56 2267.7
-642.17 733.90 2211.5
-613.12 707.02 2130.5
-611.27 724.46 2183.1
-602.41 720.64 2171.6
-614.13 748.65 2256.0
-950.56 682.04 2071.4
-922.98 666.01 2022.8
-890.86 646.51 1963.5
-890.89 650.25 1974.9
-933.59 685.35 2081.5
-943.84 696.90 2116.6
-915.89 680.22 2065.9
-913.27 682.26 2072.1
-900.62 676.80 2055.5
-854.40 645.89 1961.6
-882.00 670.75 2037.1
-903.06 695.08 2111.1
-868.77 672.77 2043.3
-854.90 666.09 2023.0
-865.20 678.27 2060.0
-846.95 676.49 2054.6
-789.39 634.51 1927.1
-818.58 662.16 2011.1
-845.59 688.40 2090.8
-818.40 670.56 2036.6
-806.69 665.26 2020.5
-814.09 675.75 2052.3
-796.81 665.75 2022.0
-776.87 653.39 1984.4
-777.54 658.32 1999.4
-768.84 655.32 1990.3
-763.60 655.25 1990.1
-794.44 686.36 2084.5
-783.07 690.62 2097.5
-758.30 673.46 2045.4
-765.46 684.60 2079.2
-752.45 677.74 2058.4
-720.63 653.72 1985.4
-712.46 650.96 1977.0
-713.66 656.78 1994.7
-727.47 684.36 2078.5
-752.38 713.08 2165.7
-742.02 708.54 2151.9
-722.14 694.78 2110.1
-699.68 678.32 2060.1
-682.04 666.30 2023.6
-685.14 674.52 2048.6
-717.29 711.69 2161.5
-729.50 729.50 2215.6
-716.56 722.24 2193.5
-721.37 732.91 2225.9
-713.17 730.42 2218.4
-676.31 698.30 2120.8
-643.93 670.32 2035.8
-643.08 674.97 2050.0
-664.27 703.02 2135.1
-669.01 713.99 2168.5
-662.72 713.26 2166.3
-651.16 706.82 2146.7
-636.96 697.36 2118.0
-637.32 703.83 2137.6
-650.30 724.45 2200.3
-653.05 733.96 2229.1
-653.00 740.45 2248.8
-645.20 738.20 2242.0
-620.70 716.63 2176.5
-609.47 710.12 2156.7
-595.00 699.68 2125.0
-924.39 658.04 2014.4
-899.35 647.53 1982.2
-927.33 671.52 2055.7
-945.18 688.40 2107.3
-928.45 680.14 2082.1
-890.08 655.85 2007.7
-878.31 650.99 1992.8
-900.44 671.34 2055.1
-887.10 665.32 2036.7
-841.86 635.18 1944.4
-827.19 631.67 1933.7
-821.38 631.06 1931.8
-827.14 639.38 1957.3
-859.10 668.19 2045.5
-880.70 689.25 2109.9
-874.50 688.67 2108.2
-855.54 677.98 2075.4
-837.44 667.84 2044.4
-822.01 659.70 2019.5
-806.33 651.26 1993.7
-812.52 660.50 2021.9
-834.20 682.53 2089.4
-820.64 675.82 2068.8
-785.07 650.78 1992.2
-758.91 633.26 1938.6
-752.76 632.32 1935.7
-766.95 648.56 1985.4
-784.34 667.75 2044.1
-771.14 660.98 2023.4
-755.66 652.15 1996.4
-780.69 678.39 2076.7
-777.91 680.68 2083.7
-743.53 655.14 2005.5
-740.88 657.40 2012.5
-743.12 664.06 2032.9
-726.02 653.42 2000.3
-723.32 655.67 2007.2
-729.93 666.46 2040.2
-727.74 669.31 2048.9
-743.31 688.65 2108.1
-739.02 689.75 2111.5
-712.76 670.21 2051.7
-724.47 686.34 2101.0
-728.52 695.40 2128.8
-711.84 684.68 2095.9
-698.68 677.18 2073.0
-688.05 672.04 2057.3
-704.25 693.25 2122.2
-711.79 706.19 2161.8
-695.41 695.41 2128.8
-717.75 723.49 2214.8
-686.35 703.09 2152.3
-649.28 670.57 2052.8
-657.82 685.01 2097.0
-687.99 722.39 2211.4
-691.44 732.11 2241.2
-683.29 729.61 2233.5
-682.38 734.87 2249.6
-679.19 737.74 2258.4
-660.41 723.58 2215.0
-656.17 725.24 2220.1
-648.68 723.31 2214.2
-634.04 713.29 2183.6
-643.02 729.92 2234.4
-636.06 728.57 2230.3
-608.35 703.24 2152.8
-611.15 726.46 2223.8
-609.50 731.40 2239.0
-624.91 757.10 2317.7
-982.70 697.94 2153.6
-989.89 707.06 2181.8
-962.24 691.26 2133.0
-928.52 670.90 2070.2
-927.88 674.33 2080.8
-903.87 660.72 2038.8
-866.51 637.14 1966.0
-865.25 639.98 1974.8
-863.94 642.81 1983.5
-840.36 644.45 1988.6
-861.15 664.47 2050.4
-869.11 674.77 2082.2
-868.11 678.21 2092.8
-853.19 670.74 2069.7
-820.21 648.90 2002.3
-789.34 628.45 1939.2
-807.94 647.39 1997.7
-850.20 685.65 2115.7
-854.29 693.41 2139.7
-822.60 672.06 2073.8
-791.56 650.95 2008.7
-771.63 638.77 1971.1
-763.32 636.10 1962.8
-774.02 649.34 2003.7
-777.32 656.52 2025.8
-751.55 639.07 1972.0
-745.19 642.40 1982.3
-753.34 653.94 2017.9
-730.06 638.17 1969.2
-749.32 659.61 2035.4
-774.17 686.32 2117.8
-759.15 677.81 2091.5
-760.79 684.16 2111.1
-743.64 673.59 2078.5
-717.04 654.23 2018.8
-722.83 664.36 2050.0
-707.94 655.50 2022.7
-686.01 644.74 1989.5
-709.52 671.89 2073.3
-711.41 678.83 2094.7
-679.93 653.78 2017.4
-677.65 661.77 2042.0
-692.56 681.65 2103.4
-674.23 668.88 2064.0
-690.26 690.26 2130.0
-714.46 720.22 2222.4
-689.45 700.66 2162.0
-690.65 707.63 2183.5
-664.33 697.82 2153.3
-682.65 723.15 2231.4
-666.33 724.27 2234.9
-663.94 728.01 2246.4
-656.39 726.10 2240.5
-633.69 707.24 2182.3
-635.56 715.72 2208.5
-644.10 731.93 2258.5
-630.34 722.86 2230.5
-597.91 692.03 2135.4
-601.16 702.29 2167.1
-627.01 739.40 2281.6
-618.46 736.26 2271.9
-617.90 742.67 2291.7
-955.36 680.83 2117.8
-909.48 651.88 2027.7
-895.65 645.70 2008.5
-878.01 636.69 1980.5
-869.66 638.09 1984.8
-895.14 660.70 2055.2
-871.54 647.13 2013.0
-851.53 636.08 1978.6
-850.90 639.46 1989.1
-871.61 659.02 2050.0
-863.68 657.03 2043.8
-851.32 651.62 2026.9
-857.12 660.14 2053.4
-852.88 660.98 2056.1
-823.79 642.45 1998.4
-835.78 664.34 2066.5
-852.19 681.75 2120.7
-829.62 668.01 2077.9
-813.61 659.39 2051.1
-795.25 648.76 2018.0
-782.27 642.40 1998.2
-780.85 645.50 2007.9
-788.69 656.36 2041.7
-788.82 660.91 2055.8
-774.91 653.66 2033.3
-764.14 649.00 2018.8
-757.82 648.06 2015.9
-741.46 638.48 1986.0
-732.95 640.04 1990.9
-784.89 690.25 2147.1
-795.26 704.38 2191.0
-778.50 694.49 2160.3
-744.47 668.94 2080.8
-720.73 652.34 2029.2
-726.19 662.11 2059.6
-723.28 664.34 2066.5
-708.40 655.54 2039.1
-687.05 670.82 2086.7
-697.86 686.78 2136.3
-675.71 670.30 2085.0
-656.43 656.43 2041.9
-663.78 669.18 2081.5
-697.18 708.61 2204.2
-659.14 681.11 2118.6
-638.11 670.56 2085.8
-667.52 707.46 2200.6
-658.95 704.39 2191.1
-636.76 686.60 2135.7
-640.30 696.47 2166.4
-652.55 716.08 2227.4
-651.19 720.96 2242.6
-660.84 738.24 2296.4
-654.94 745.07 2317.6
-612.76 703.54 2188.4
-619.71 718.17 2233.9
-609.87 720.23 2240.3
-618.92 745.11 2317.7
-961.10 679.40 2130.5
-908.49 645.92 2025.5
-890.75 636.99 1997.5
-868.85 624.96 1959.8
-858.33 621.03 1947.5
-911.05 663.07 2079.3
-908.75 665.34 2086.4
-862.18 635.02 1991.4
-865.73 641.48 2011.6
-888.81 662.57 2077.7
-897.33 673.00 2110.4
-876.19 661.17 2073.4
-873.04 662.87 2078.7
-887.61 678.11 2126.5
-882.11 678.12 2126.5
-853.21 660.03 2069.8
-796.56 620.11 1944.6
-792.90 621.19 1948.0
-846.40 667.35 2092.7
-861.69 683.79 2144.3
-827.68 661.07 2073.0
-798.24 641.72 2012.4
-792.26 641.10 2010.4
-791.18 644.47 2021.0
-788.66 646.70 2028.0
-796.46 657.48 2061.8
-795.87 661.43 2074.2
-781.22 653.68 2049.9
-782.97 659.62 2068.5
-790.36 670.44 2102.4
-777.81 664.38 2083.4
-754.03 648.57 2033.8
-735.10 636.74 1996.8
-749.56 653.87 2050.5
-781.09 686.25 2152.0
-785.20 694.81 2178.9
-774.97 690.74 2166.1
-773.46 694.42 2177.6
-772.53 698.69 2191.0
-759.51 692.00 2170.0
-750.67 689.05 2160.8
-707.86 654.63 2052.9
-674.14 637.84 2000.2
-665.08 644.13 2019.9
-693.88 677.36 2124.1
-688.86 677.84 2125.6
-670.06 664.65 2084.3
-679.65 679.65 2131.3
-674.00 679.53 2130.9
-649.75 660.49 2071.2
-634.30 650.16 2038.8
-627.46 648.55 2033.8
-635.20 662.11 2076.3
-651.05 684.44 2146.3
-665.47 705.62 2212.8
-666.99 713.39 2237.1
-644.81 695.72 2181.7
-632.04 687.97 2157.4
-641.25 704.22 2208.4
-661.04 732.51 2297.1
-640.58 722.86 2266.8
-636.90 725.36 2274.7
-630.48 745.66 2338.3
-958.02 667.88 2111.6
-889.40 623.60 1971.6
-916.53 646.34 2043.5
-974.65 691.32 2185.7
-936.75 668.33 2113.0
-916.99 658.08 2080.6
-941.31 679.53 2148.4
-907.80 659.23 2084.2
-853.58 623.57 1971.5
-852.62 626.63 1981.1
-866.35 640.57 2025.2
-861.09 640.57 2025.2
-873.76 653.98 2067.6
-902.23 679.46 2148.2
-882.29 676.98 2140.3
-840.01 648.61 2050.7
-806.45 626.66 1981.3
-829.68 648.85 2051.4
-833.78 664.84 2102.0
-824.43 661.72 2092.1
-798.69 645.30 2040.2
-772.49 628.29 1986.4
-776.25 635.59 2009.5
-771.66 636.10 2011.1
-758.18 629.23 1989.4
-760.06 635.12 2008.0
-818.55 688.71 2177.4
-805.85 687.51 2173.6
-759.77 652.76 2063.8
-749.08 648.14 2049.1
-756.76 659.46 2085.0
-764.60 671.09 2121.7
-757.09 669.31 2116.1
-771.42 686.96 2171.9
-769.42 700.51 2214.7
-757.99 695.30 2198.3
-732.68 677.17 2140.9
-715.95 666.76 2108.0
-702.74 659.49 2085.1
-684.16 647.04 2045.7
-676.93 645.20 2039.9
-674.21 647.67 2047.7
-685.14 663.39 2097.4
-702.91 686.04 2169.0
-708.90 697.47 2205.1
-683.31 677.76 2142.8
-640.11 640.11 2023.8
-642.17 647.48 2047.1
-651.51 662.37 2094.2
-630.43 646.33 2043.4
-623.87 645.02 2039.3
-622.33 648.92 2051.6
-616.59 648.48 2050.2
-631.91 670.37 2119.4
-625.73 669.64 2117.1
-631.40 681.69 2155.2
-658.50 717.29 2267.8
-662.56 728.22 2302.3
-652.54 723.73 2288.1
-640.50 737.18 2330.7
-637.11 740.26 2340.4
-967.83 661.62 2109.1
-926.51 636.97 2030.5
-898.24 621.07 1979.8
-966.29 675.84 2154.4
-970.46 686.70 2189.0
-911.75 648.95 2068.7
-898.32 643.18 2050.3
-887.27 639.04 2037.1
-850.68 616.36 1964.8
-866.08 631.30 2012.4
-898.26 658.73 2099.8
-857.88 632.95 2017.7
-836.18 620.72 1978.7
-860.03 642.37 2047.7
-865.07 650.15 2072.5
-847.18 640.68 2042.3
-827.22 629.52 2006.7
-827.08 633.40 2019.1
-831.58 640.90 2043.0
-838.86 650.65 2074.1
-865.32 675.51 2153.3
-845.65 668.78 2131.9
-849.25 676.05 2155.1
-836.65 670.43 2137.2
-781.34 630.28 2009.2
-760.85 617.87 1969.6
-784.88 641.70 2045.5
-800.02 658.52 2099.2
-807.78 669.46 2134.1
-814.39 689.10 2196.7
-778.17 663.09 2113.7
-774.27 664.45 2118.1
-756.61 653.93 2084.5
-740.40 644.52 2054.5
-745.64 653.79 2084.1
-770.65 680.64 2169.7
-766.87 682.29 2175.0
-738.04 661.51 2108.7
-743.82 671.66 2141.1
-746.31 678.98 2164.4
-734.72 673.50 2146.9
-731.54 675.70 2153.9
-734.13 683.31 2178.2
-728.10 682.94 2177.0
-712.71 673.73 2147.7
-705.54 672.21 2142.8
-697.80 670.11 2136.1
-697.18 674.87 2151.3
-714.08 696.80 2221.2
-702.41 690.98 2202.7
-661.64 656.21 2091.8
-663.83 663.83 2116.1
-672.16 677.77 2160.5
-653.74 664.73 2119.0
-632.71 648.79 2068.2
-625.50 658.14 2098.0
-620.74 658.85 2100.2
-627.26 671.67 2141.1
-662.69 715.94 2282.2
-627.41 709.50 2261.7
-594.28 678.38 2162.5
-596.07 686.90 2189.6
-591.24 687.89 2192.8
-949.96 644.04 2070.1
-991.79 676.22 2173.6
-1004.14 688.55 2213.2
-925.13 653.03 2099.0
-905.06 642.65 2065.6
-885.14 632.24 2032.2
-848.76 613.56 1972.2
-895.81 651.50 2094.1
-873.47 639.12 2054.3
-877.87 646.29 2077.3
-900.80 671.40 2158.1
-842.56 631.92 2031.2
-831.78 627.76 2017.8
-841.09 638.80 2053.3
-828.49 633.24 2035.4
-819.58 630.45 2026.4
-848.68 657.04 2111.9
-853.16 664.80 2136.9
-818.21 641.73 2062.7
-810.01 639.48 2055.5
-831.94 661.15 2125.1
-813.18 650.54 2091.0
-776.92 625.71 2011.2
-786.43 637.64 2049.6
-811.15 662.16 2128.4
-813.88 673.55 2165.0
-762.56 635.47 2042.6
-770.87 646.89 2079.3
-810.52 684.94 2201.6
-794.23 675.94 2172.7
-764.64 655.40 2106.7
-752.60 649.73 2088.4
-762.30 662.87 2130.6
-752.21 658.87 2117.8
-715.05 630.93 2028.0
-697.71 624.82 2008.3
-743.37 670.71 2155.8
-737.07 680.38 2186.9
-727.67 676.90 2175.8
-709.56 665.21 2138.2
-711.41 672.20 2160.7
-713.16 679.20 2183.1
-702.08 674.00 2166.4
-707.81 684.98 2201.7
-701.98 690.47 2219.4
-673.46 667.90 2146.8
-652.97 652.97 2098.8
-658.14 663.67 2133.2
-664.54 675.80 2172.2
-648.50 665.12 2137.9
-645.59 667.85 2146.7
-666.18 695.14 2234.4
-669.23 704.46 2264.3
-650.32 690.61 2219.8
-654.60 701.35 2254.4
-661.35 714.98 2298.1
-644.77 703.39 2260.9
-629.67 693.22 2228.2
-608.27 675.85 2172.4
-615.30 690.05 2218.0
-640.12 724.67 2329.3
-990.55 662.22 2146.5
-1022.43 687.40 2228.1
-1017.98 688.29 2231.0
-987.65 671.61 2176.9
-981.71 671.40 2176.2
-972.61 669.02 2168.5
-981.58 679.11 2201.2
-946.70 658.82 2135.4
-929.58 650.71 2109.1
-956.60 673.58 2183.3
-931.03 659.48 2137.6
-882.34 628.73 2037.9
-849.67 609.10 1974.3
-857.78 618.64 2005.2
-871.76 632.56 2050.3
-912.50 666.18 2159.3
-887.69 660.22 2140.0
-859.80 643.49 2085.8
-870.05 655.29 2124.0
-859.47 651.45 2111.5
-837.05 638.52 2069.6
-855.67 656.94 2129.3
-855.13 660.79 2141.8
-815.55 634.31 2056.0
-791.15 619.38 2007.6
-799.90 630.38 2043.3
-816.84 648.03 2100.4
-812.05 648.55 2102.1
-778.67 626.10 2029.4
-760.34 615.52 1995.1
-783.66 638.74 2070.3
-779.25 639.52 2072.9
-758.02 626.42 2030.4
-795.42 661.92 2145.5
-808.72 677.73 2196.7
-766.38 646.81 2096.5
-765.14 650.37 2108.0
-780.12 667.87 2164.8
-766.03 660.57 2141.1
-734.06 637.62 2066.7
-714.56 625.24 2026.6
-705.40 621.80 2015.4
-713.93 634.01 2055.0
-738.69 671.02 2175.0
-722.54 661.41 2143.8
-716.28 660.76 2141.7
-686.46 638.19 2068.6
-672.87 630.49 2043.6
-683.84 645.85 2093.4
-681.26 648.56 2102.2
-666.00 639.14 2071.7
-652.63 631.41 2046.6
-684.81 667.97 2165.1
-660.25 654.75 2122.2
-641.33 641.33 2078.8
-658.82 664.40 2153.5
-655.90 667.11 2162.3
-648.51 665.28 2156.4
-666.63 689.82 2235.9
-659.05 700.24 2269.7
-629.72 675.11 2188.2
-622.34 673.26 2182.2
-614.98 671.40 2176.2
-598.86 659.86 2138.8
-613.67 682.49 2212.2
-635.48 713.42 2312.4
-955.38 647.90 2117.8
-926.30 631.81 2065.3
-915.89 628.34 2053.9
-893.04 616.25 2014.4
-888.60 616.79 2016.2
-954.49 666.45 2178.5
-961.21 675.14 2206.9
-924.58 653.30 2135.5
-903.86 642.51 2100.2
-875.35 626.01 2046.3
-858.37 617.61 2018.8
-846.75 612.99 2003.7
-858.31 625.19 2043.6
-908.97 666.21 2177.7
-854.47 634.13 2072.8
-838.87 626.50 2047.9
-859.65 646.11 2112.0
-869.68 657.84 2150.3
-866.26 659.48 2155.7
-843.19 646.08 2111.9
-805.43 621.18 2030.5
-783.54 608.27 1988.3
-791.64 618.63 2022.2
-809.34 636.68 2081.2
-785.54 622.11 2033.5
-777.02 628.00 2052.8
-808.50 657.96 2150.7
-809.97 668.36 2184.7
-769.07 639.08 2089.0
-755.00 631.85 2065.4
-783.34 660.25 2158.2
-795.28 675.13 2206.9
-776.24 663.75 2169.6
-733.25 631.56 2064.4
-704.81 611.52 1998.9
-714.11 624.19 2040.3
-740.88 652.42 2132.6
-755.31 670.12 2190.5
-734.01 656.16 2144.8
-700.25 630.76 2061.8
-692.65 628.71 2055.1
-709.45 648.95 2121.3
-699.61 644.96 2108.2
-693.14 644.02 2105.2
-712.32 667.09 2180.6
-688.22 649.68 2123.7
-652.04 620.49 2028.2
-640.82 614.77 2009.5
-673.97 651.87 2130.8
-679.80 668.47 2185.1
-651.38 645.91 2111.3
-662.35 662.35 2165.1
-657.45 663.07 2167.4
-648.12 659.29 2155.1
-658.03 675.20 2207.1
-673.40 697.03 2278.4
-664.42 693.82 2267.9
-625.79 659.31 2155.1
-613.70 652.40 2132.5
-623.02 668.33 2184.6
-625.83 677.51 2214.6
-622.55 680.19 2223.4
-616.65 680.04 2222.9
-618.12 688.10 2249.2
-608.38 683.70 2234.9
-984.41 654.41 2157.4
-969.35 648.08 2136.5
-1000.35 672.65 2217.5
-978.14 661.52 2180.8
-947.07 644.23 2123.8
-902.57 617.54 2035.9
-875.81 606.33 1998.9
-916.79 638.48 2104.9
-915.96 641.72 2115.6
-904.42 637.45 2101.5
-880.44 624.31 2058.2
-881.14 628.62 2072.4
-887.02 636.69 2099.0
-838.33 605.46 1996.0
-829.42 602.75 1987.1
-870.35 636.44 2098.2
-863.08 635.09 2093.7
-837.94 620.50 2045.6
-850.76 634.00 2090.1
-853.62 640.22 2110.6
-842.76 636.15 2097.2
-852.65 647.79 2135.6
-841.78 643.71 2122.1
-799.56 615.45 2029.0
-789.69 611.88 2017.2
-811.60 633.05 2087.0
-791.24 621.31 2048.3
-766.28 614.07 2024.4
-779.57 629.03 2073.7
-787.59 639.92 2109.6
-770.03 630.02 2077.0
-758.93 625.31 2061.5
-773.98 642.24 2117.3
-766.46 640.54 2111.7
-743.96 626.21 2064.4
-744.36 631.08 2080.5
-722.14 616.72 2033.1
-718.71 622.88 2053.4
-722.12 630.51 2078.6
-713.19 627.39 2068.3
-723.59 641.37 2114.4
-721.11 644.05 2123.2
-693.72 624.35 2058.3
-691.32 627.01 2067.1
-696.74 636.87 2099.6
-708.02 652.27 2150.3
-666.88 629.24 2074.4
-652.67 631.10 2080.5
-666.27 649.61 2141.6
-682.40 670.93 2211.9
-679.93 674.16 2222.5
-659.56 659.56 2174.4
-636.38 641.87 2116.0
-631.31 642.29 2117.4
-636.30 653.04 2152.9
-619.79 641.73 2115.6
-616.57 644.10 2123.4
-637.74 672.21 2216.1
-622.39 662.00 2182.4
-604.59 648.96 2139.4
-606.14 656.66 2164.8
-607.83 664.64 2191.1
-1029.04 678.23 2255.2
-995.04 659.57 2193.1
-1008.89 672.59 2236.4
-989.39 663.41 2205.9
-964.14 650.23 2162.1
-935.94 634.91 2111.1
-902.52 615.84 2047.7
-879.44 603.64 2007.2
-882.32 609.22 2025.7
-915.38 635.83 2114.2
-940.41 657.16 2185.1
-914.34 642.81 2137.4
-909.96 643.63 2140.2
-876.54 627.64 2087.0
-838.64 611.84 2034.4
-848.68 623.08 2071.8
-852.01 629.51 2093.2
-844.04 627.62 2086.9
-840.77 629.22 2092.2
-861.40 648.84 2157.5
-856.15 649.11 2158.4
-817.01 623.51 2073.2
-796.50 611.88 2034.6
-808.28 625.07 2078.4
-818.46 637.19 2118.7
-796.03 623.91 2074.6
-791.97 624.96 2078.1
-813.11 646.03 2148.1
-821.05 656.84 2184.1
-787.25 638.61 2123.4
-759.08 620.09 2061.9
-753.33 619.76 2060.8
-725.25 600.92 1998.1
-717.61 603.21 2005.7
-721.00 610.48 2029.9
-723.31 616.94 2051.4
-728.07 625.60 2080.2
-719.74 623.06 2071.8
-712.08 621.06 2065.1
-723.13 635.48 2113.0
-745.39 660.04 2194.7
-743.93 663.81 2207.3
-711.59 639.88 2127.7
-689.02 624.42 2076.3
-687.13 627.62 2086.9
-709.08 652.80 2170.6
-708.81 663.08 2204.8
-655.40 628.32 2089.2
-679.27 656.63 2183.4
-682.00 664.80 2210.6
-664.07 652.81 2170.7
-648.28 642.74 2137.2
-627.67 627.67 2087.1
-617.18 622.54 2070.0
-617.66 628.49 2089.8
-625.87 642.49 2136.3
-647.25 670.37 2229.1
-670.05 700.23 2328.3
-654.95 690.67 2296.6
-616.75 656.36 2182.5
-599.30 643.69 2140.4
-624.41 676.93 2250.9
-1036.58 673.48 2258.9
-1010.83 660.48 2215.3
-1017.96 668.95 2243.7
-1006.32 665.10 2230.8
-963.53 640.50 2148.2
-972.97 650.53 2181.9
-983.82 661.63 2219.1
-949.37 642.22 2154.0
-924.11 628.83 2109.1
-952.58 652.06 2187.0
-913.92 640.86 2149.5
-900.50 635.32 2130.9
-881.56 625.80 2098.9
-841.96 601.40 2017.1
-834.12 599.52 2010.8
-859.74 621.82 2085.6
-840.80 611.98 2052.6
-818.74 599.72 2011.5
-863.72 636.72 2135.6
-867.65 647.92 2173.1
-797.35 599.31 2010.1
-793.85 600.61 2014.5
-804.03 612.34 2053.8
-808.08 619.53 2077.9
-813.07 627.54 2104.8
-807.57 627.51 2104.7
-820.26 641.70 2152.3
-834.08 656.98 2203.5
-784.40 630.81 2115.8
-754.24 610.83 2048.7
-744.55 607.26 2036.8
-732.28 601.52 2017.5
-731.53 605.22 2029.9
-734.28 611.90 2052.3
-731.13 613.72 2058.4
-744.26 629.34 2110.8
-759.38 646.88 2169.7
-745.16 639.50 2144.9
-731.05 632.11 2120.1
-721.10 628.23 2107.1
-723.90 635.49 2131.4
-733.34 648.73 2175.9
-710.22 633.14 2123.6
-677.04 608.28 2040.2
-667.12 604.08 2026.1
-665.32 607.24 2036.7
-672.07 618.31 2073.8
-687.48 637.58 2138.5
-664.88 621.63 2085.0
-660.51 622.61 2088.3
-693.55 659.16 2210.8
-668.57 640.71 2149.0
-627.44 606.35 2033.7
-658.32 641.58 2151.9
-693.37 681.52 2285.8
-637.50 632.00 2119.8
-626.28 637.37 2137.8
-628.92 645.76 2165.9
-631.68 654.44 2195.0
-665.40 695.64 2333.2
-640.13 681.62 2286.2
-1027.12 661.54 2238.3
-994.59 644.22 2179.7
-1031.73 672.10 2274.0
-1044.24 684.16 2314.8
-956.99 630.62 2133.7
-925.97 613.73 2076.5
-981.67 654.45 2214.3
-991.99 665.21 2250.7
-952.94 642.81 2174.9
-972.04 659.60 2231.7
-904.65 628.84 2127.7
-883.39 617.83 2090.4
-860.42 605.48 2048.6
-835.26 598.87 2026.2
-850.46 613.62 2076.2
-821.43 596.45 2018.1
-862.08 629.98 2131.5
-872.83 646.12 2186.1
-811.71 604.80 2046.3
-814.84 611.13 2067.7
-828.07 625.17 2115.2
-836.89 636.04 2152.0
-828.51 633.89 2144.8
-807.73 622.17 2105.1
-777.17 602.70 2039.2
-748.04 596.34 2017.7
-784.67 629.95 2131.4
-760.90 615.19 2081.5
-733.73 597.47 2021.5
-759.10 622.57 2106.5
-787.32 650.40 2200.6
-752.87 626.48 2119.7
-734.17 615.40 2082.2
-761.77 643.28 2176.5
-762.70 648.87 2195.4
-745.33 638.85 2161.5
-733.10 633.13 2142.2
-722.51 628.75 2127.3
-717.82 629.47 2129.8
-714.95 631.82 2137.7
-700.83 624.17 2111.9
-676.28 607.05 2053.9
-663.66 600.45 2031.6
-658.56 600.61 2032.1
-660.23 606.99 2053.7
-664.72 616.08 2084.5
-687.93 642.82 2175.0
-693.88 659.18 2230.3
-643.74 616.69 2086.5
-668.60 645.93 2185.5
-660.91 649.52 2197.6
-632.38 637.97 2158.6
-644.08 655.58 2218.1
-623.84 640.70 2167.8
-633.39 656.42 2221.0
-623.70 664.50 2248.3
-608.57 654.50 2214.5
-1057.15 674.90 2303.7
-981.14 629.94 2150.2
-972.06 627.68 2142.5
-1040.09 675.46 2305.6
-1001.44 654.12 2232.8
-956.03 628.09 2143.9
-1000.65 661.25 2257.1
-970.18 648.70 2214.3
-924.80 622.04 2123.3
-925.48 626.22 2137.5
-939.45 639.50 2182.9
-888.28 608.33 2076.5
-869.31 598.97 2044.5
-877.54 608.35 2076.6
-859.82 599.75 2047.2
-836.71 598.41 2042.6
-843.03 606.77 2071.1
-805.80 583.69 1992.4
-822.92 603.83 2061.1
-838.89 619.57 2114.8
-808.62 601.15 2052.0
-789.55 590.85 2016.8
-815.73 614.51 2097.6
-824.85 625.56 2135.3
-795.79 607.60 2074.0
-762.92 602.87 2057.8
-813.15 647.08 2208.7
-800.77 641.75 2190.5
-773.99 624.72 2132.4
-735.28 606.47 2070.1
-723.33 609.97 2082.1
-749.57 636.85 2173.8
-746.05 638.66 2180.0
-740.01 638.33 2178.9
-721.60 642.06 2191.6
-691.00 619.71 2115.3
-672.05 607.53 2073.7
-688.37 627.30 2141.2
-706.41 648.98 2215.2
-702.31 650.50 2220.4
-707.42 660.64 2255.0
-691.00 661.72 2258.7
-673.03 650.02 2218.8
-669.38 652.07 2225.8
-658.00 646.56 2207.0
-644.52 638.87 2180.7
-660.66 660.66 2255.1
-663.29 669.22 2284.3
-632.24 643.63 2197.0
-623.51 640.51 2186.3
-646.50 670.22 2287.7
-647.71 677.70 2313.3
-602.50 636.28 2171.9
-599.96 651.88 2225.1
-1034.69 658.44 2267.6
-972.63 622.49 2143.8
-983.46 633.03 2180.1
-1025.37 663.83 2286.1
-928.48 615.32 2119.1
-879.28 593.25 2043.1
-858.79 582.93 2007.6
-861.89 588.61 2027.1
-880.69 605.14 2084.0
-874.18 604.37 2081.4
-930.18 647.08 2228.5
-899.22 633.41 2181.4
-851.86 603.85 2079.6
-870.12 620.72 2137.7
-842.49 604.87 2083.1
-798.19 576.76 1986.3
-808.38 587.91 2024.7
-821.60 601.43 2071.3
-786.82 579.76 1996.6
-798.38 596.13 2053.0
-812.84 610.99 2104.2
-791.44 598.93 2062.6
-798.41 608.31 2095.0
-790.20 606.18 2087.6
-771.78 604.47 2081.7
-814.32 642.28 2211.9
-807.56 641.46 2209.1
-787.64 630.11 2170.0
-776.73 625.86 2155.4
-737.29 598.38 2060.8
-725.08 592.77 2041.4
-727.71 599.29 2063.9
-724.89 610.44 2102.3
-724.35 614.60 2116.6
-711.33 608.16 2094.4
-720.58 620.81 2138.0
-737.27 640.11 2204.5
-719.02 629.15 2166.7
-701.86 618.96 2131.6
-686.95 610.62 2102.9
-672.77 602.80 2076.0
-692.64 625.61 2154.5
-689.29 627.65 2161.5
-664.11 609.67 2099.6
-671.52 621.57 2140.6
-693.62 647.38 2229.5
-704.79 663.33 2284.4
-692.29 657.09 2262.9
-688.84 659.41 2270.9
-698.39 674.31 2322.2
-692.56 674.49 2322.9
-683.71 671.71 2313.3
-650.80 645.04 2221.4
-642.40 654.08 2252.6
-629.89 647.23 2229.0
-611.15 645.74 2223.9
-596.09 641.94 2210.8
-1049.50 658.16 2287.0
-1024.05 645.85 2244.3
-985.19 624.89 2171.4
-981.65 626.22 2176.1
-1010.53 648.38 2253.1
-927.08 608.91 2115.9
-906.98 602.84 2094.8
-901.20 602.61 2094.0
-845.00 571.92 1987.4
-868.42 591.38 2055.0
-885.55 606.77 2108.5
-899.98 632.27 2197.1
-831.21 607.00 2109.3
-808.82 594.56 2066.0
-817.07 604.63 2101.0
-809.85 603.31 2096.4
-794.34 595.76 2070.2
-805.43 608.18 2113.4
-826.57 628.42 2183.7
-782.49 599.01 2081.5
-750.70 578.66 2010.8
-789.03 612.47 2128.3
-798.47 624.16 2168.9
-760.66 598.82 2080.8
-745.24 603.80 2098.2
-771.49 629.67 2188.0
-759.06 624.12 2168.7
-716.64 593.63 2062.8
-702.70 586.46 2037.9
-722.61 607.65 2111.5
-730.08 618.62 2149.6
-707.47 604.07 2099.1
-695.50 598.46 2079.6
-717.05 621.81 2160.7
-720.03 634.31 2204.2
-696.98 618.92 2150.7
-697.80 624.64 2170.6
-673.32 607.63 2111.5
-666.57 616.57 2142.5
-692.45 645.90 2244.4
-661.20 643.80 2237.1
-649.05 649.05 2255.4
-677.71 683.87 2376.4
-662.27 674.42 2343.6
-628.55 646.01 2244.8
-621.83 645.07 2241.6
-626.61 656.17 2280.1
-641.58 678.24 2356.8
-1003.27 623.50 2186.3
-1013.26 640.56 2246.1
-999.63 635.61 2228.7
-992.79 634.92 2226.3
-913.96 605.64 2123.7
-873.12 582.08 2041.0
-901.51 604.67 2120.3
-896.04 604.69 2120.3
-884.58 600.64 2106.1
-898.50 613.88 2152.6
-891.84 613.14 2150.0
-863.80 597.60 2095.5
-845.91 588.92 2065.1
-856.58 600.15 2104.4
-861.63 607.56 2130.4
-852.14 604.74 2120.5
-843.05 602.18 2111.5
-869.63 625.23 2192.4
-860.06 622.41 2182.5
-815.64 594.18 2083.5
-802.85 588.76 2064.5
-812.43 599.78 2103.1
-813.52 604.64 2120.2
-796.97 596.37 2091.2
-787.74 593.50 2081.1
-795.55 603.52 2116.2
-814.34 622.07 2181.3
-810.34 623.34 2185.7
-777.60 602.37 2112.2
-758.14 591.46 2073.9
-746.02 598.99 2100.4
-745.63 603.08 2114.7
-744.54 606.66 2127.2
-714.54 586.57 2056.8
-716.98 592.99 2079.3
-751.51 626.26 2196.0
-747.92 628.02 2202.2
-715.93 605.79 2124.2
-697.16 594.48 2084.5
-711.41 611.37 2143.8
-736.37 642.86 2254.2
-705.45 620.80 2176.8
-698.24 619.40 2171.9
-688.11 615.38 2157.8
-666.69 601.12 2107.8
-639.76 586.44 2056.4
-675.82 624.70 2190.5
-683.21 659.24 2311.6
-643.77 626.68 2197.4
-667.80 655.87 2299.8
-685.20 679.03 2381.0
-674.44 674.44 2364.9
-664.79 670.89 2352.5
-637.27 649.07 2276.0
-635.11 652.92 2289.5
-648.47 672.94 2359.7
-640.78 677.75 2376.5
-1015.15 625.15 2212.2
-1000.70 626.87 2218.3
-980.00 617.46 2185.0
-978.77 620.26 2194.9
-1011.23 644.59 2281.0
-979.67 628.14 2222.8
-962.74 620.94 2197.3
-986.50 643.88 2278.5
-952.76 625.61 2213.8
-923.32 621.24 2198.4
-911.33 616.99 2183.3
-940.56 640.75 2267.4
-839.07 578.85 2048.4
-808.10 564.63 1998.0
-816.21 573.98 2031.1
-810.19 573.45 2029.2
-837.34 596.54 2110.9
-834.69 598.56 2118.1
-794.27 573.35 2028.9
-790.36 574.33 2032.4
-806.29 589.84 2087.2
-820.58 604.35 2138.6
-819.49 607.65 2150.3
-805.67 601.49 2128.5
-811.00 609.65 2157.3
-815.17 617.04 2183.5
-796.71 607.28 2149.0
-762.71 585.46 2071.8
-740.68 572.58 2026.2
-750.84 584.58 2068.6
-758.17 594.54 2103.9
-760.79 600.91 2126.4
-761.03 605.49 2142.6
-725.84 581.74 2058.6
-731.59 599.58 2121.7
-746.34 616.30 2180.9
-721.35 600.21 2123.9
-691.07 579.44 2050.4
-678.69 577.95 2045.2
-702.57 602.99 2133.8
-723.63 626.00 2215.2
-727.63 634.49 2245.2
-703.40 618.31 2188.0
-675.63 598.73 2118.7
-698.85 624.38 2209.5
-712.38 641.73 2270.9
-668.84 607.53 2149.8
-658.02 602.73 2132.9
-654.07 604.18 2138.0
-657.37 612.42 2167.1
-700.00 657.76 2327.6
-667.51 643.88 2278.5
-685.98 667.61 2362.4
-669.04 662.96 2346.0
-640.02 640.02 2264.8
-616.60 622.31 2202.1
-620.04 631.63 2235.1
-615.14 632.55 2238.4
-626.87 657.01 2324.9
-1010.52 620.09 2214.6
-975.77 612.69 2188.2
-980.01 618.95 2210.5
-920.85 585.01 2089.3
-898.11 577.35 2062.0
-923.18 597.03 2132.2
-942.21 613.00 2189.3
-962.49 630.00 2250.0
-971.52 639.78 2284.9
-946.92 635.20 2268.6
-917.72 627.30 2240.4
-821.46 565.08 2018.1
-819.09 567.07 2025.2
-859.28 598.72 2138.3
-886.39 621.62 2220.1
-874.56 621.40 2219.3
-820.85 587.10 2096.8
-805.91 580.26 2072.3
-805.38 583.76 2084.9
-803.05 586.01 2092.9
-819.63 602.18 2150.6
-823.96 609.50 2176.8
-792.42 590.22 2107.9
-763.56 572.67 2045.3
-777.69 587.35 2097.7
-771.86 587.05 2096.6
-749.76 574.28 2051.0
-760.20 586.44 2094.4
-763.22 593.01 2117.9
-761.25 595.76 2127.7
-763.11 601.57 2148.5
-732.39 581.61 2077.2
-709.39 571.75 2042.0
-731.09 593.67 2120.2
-733.65 600.26 2143.8
-725.52 598.14 2136.2
-710.94 590.63 2109.4
-697.71 584.13 2086.2
-708.64 597.91 2135.4
-705.12 599.63 2141.5
-697.07 597.49 2133.9
-722.41 624.17 2229.2
-720.39 627.44 2240.9
-704.23 618.34 2208.4
-689.92 620.92 2217.6
-680.08 617.21 2204.3
-680.19 622.55 2223.4
-659.18 608.47 2173.1
-675.40 628.82 2245.8
-646.29 606.95 2167.7
-636.33 613.60 2191.4
-664.17 646.22 2307.9
-655.69 643.77 2299.2
-645.15 639.23 2283.0
-640.68 640.68 2288.1
-634.11 640.04 2285.8
-618.85 630.53 2251.9
-623.00 646.96 2310.6
-1013.47 619.67 2233.8
-964.05 596.26 2149.4
-978.30 608.59 2193.9
-959.35 600.29 2163.9
-954.99 601.08 2166.8
-959.56 607.53 2190.0
-920.29 586.14 2112.9
-893.29 572.35 2063.2
-895.63 577.30 2081.1
-902.07 584.98 2108.7
-932.65 608.50 2193.5
-951.91 624.87 2252.5
-945.02 624.18 2250.0
-931.42 619.02 2231.4
-928.29 620.79 2237.8
-929.18 625.30 2254.1
-906.87 614.15 2213.9
-862.83 588.04 2119.8
-850.80 583.56 2103.6
-883.97 610.23 2199.8
-900.55 625.71 2255.6
-865.45 613.27 2210.7
-835.86 596.25 2149.4
-821.90 590.22 2127.6
-812.54 587.44 2117.6
-822.53 598.71 2158.2
-838.84 614.76 2216.1
-819.46 604.70 2179.8
-759.95 564.69 2035.6
-746.19 558.34 2012.7
-787.03 593.04 2137.8
-810.67 615.19 2217.6
-794.33 607.09 2188.5
-770.57 593.17 2138.3
-759.42 588.83 2122.6
-752.23 587.51 2117.9
-742.81 584.41 2106.7
-731.19 579.54 2089.1
-732.99 585.30 2109.9
-746.67 600.70 2165.4
-761.65 617.40 2225.6
-752.46 619.33 2232.6
-744.76 617.75 2226.9
-735.57 614.89 2216.5
-710.08 598.26 2156.6
-689.39 585.43 2110.4
-703.48 602.18 2170.7
-712.83 625.19 2253.7
-652.50 577.00 2080.0
-647.27 577.15 2080.5
-681.64 612.90 2209.4
-703.80 638.19 2300.5
-701.67 641.70 2313.2
-662.46 611.06 2202.8
-642.65 613.96 2213.2
-680.61 656.09 2365.1
-655.83 637.95 2299.7
-630.05 618.49 2229.6
-635.87 629.98 2271.0
-639.16 639.16 2304.0
-631.02 636.97 2296.2
-616.31 628.05 2264.0
-628.42 646.55 2330.7
-1045.97 640.88 2332.0
-1031.78 635.87 2313.8
-1002.34 621.33 2260.9
-989.16 616.77 2244.3
-1000.57 627.58 2283.6
-958.37 604.69 2200.3
-904.59 574.17 2089.3
-887.32 566.60 2061.8
-897.24 576.41 2097.5
-930.52 601.44 2188.5
-906.04 589.20 2144.0
-859.22 562.21 2045.8
-844.95 556.30 2024.3
-843.40 558.75 2033.2
-887.98 591.99 2154.1
-906.29 608.02 2212.5
-887.81 599.41 2181.1
-897.07 609.55 2218.0
-888.46 607.59 2210.9
-864.79 595.24 2166.0
-878.83 608.86 2215.5
-864.19 606.65 2207.5
-831.79 587.79 2138.9
-814.35 579.34 2108.1
-802.26 574.59 2090.8
-823.36 593.71 2160.4
-833.91 609.62 2218.3
-776.32 571.46 2079.4
-766.83 568.42 2068.4
-814.59 608.07 2212.7
-811.48 610.05 2219.9
-768.37 581.77 2116.9
-762.16 581.22 2114.9
-769.00 590.68 2149.4
-775.36 599.91 2183.0
-778.66 606.89 2208.4
-754.97 592.79 2157.1
-744.23 588.72 2142.2
-764.79 609.53 2218.0
-742.75 610.33 2220.9
-712.54 590.07 2147.2
-715.05 596.82 2171.7
-721.95 607.35 2210.0
-703.31 596.41 2170.2
-697.59 596.32 2169.9
-726.84 626.38 2279.3
-712.97 619.47 2254.1
-656.37 575.00 2092.3
-657.72 580.98 2114.1
-665.23 592.56 2156.2
-657.26 590.42 2148.4
-697.05 631.51 2298.0
-700.74 640.34 2330.1
-659.25 607.65 2211.1
-662.99 616.47 2243.2
-661.41 620.44 2257.7
-684.57 647.89 2357.6
-673.21 648.73 2360.6
-634.39 616.93 2244.9
-628.44 616.81 2244.4
-629.99 624.10 2271.0
-620.39 620.39 2257.5
-1033.45 620.07 2277.8
-1026.43 626.60 2301.8
-973.40 597.70 2195.6
-945.10 583.74 2144.4
-945.06 587.17 2156.9
-968.59 605.37 2223.8
-972.94 611.73 2247.2
-906.61 573.46 2106.6
-909.42 582.25 2138.9
-893.34 575.46 2113.9
-848.44 549.92 2020.1
-851.16 562.08 2064.8
-895.42 595.06 2185.9
-898.92 601.19 2208.4
-889.95 599.01 2200.4
-862.94 584.57 2147.4
-820.35 559.33 2054.7
-812.49 557.59 2048.3
-855.83 591.20 2171.8
-852.32 592.67 2177.2
-835.78 585.05 2149.1
-832.29 586.51 2154.5
-812.79 576.64 2118.3
-826.60 590.43 2168.9
-783.55 571.34 2098.8
-777.38 570.81 2096.8
-794.98 587.84 2159.4
-764.73 569.48 2092.0
-752.63 564.47 2073.6
-777.06 586.99 2156.3
-790.02 601.10 2208.1
-770.46 599.25 2201.3
-739.90 579.78 2129.8
-741.56 585.44 2150.6
-748.45 595.36 2187.0
-732.75 587.32 2157.5
-735.11 593.74 2181.1
-727.84 592.43 2176.3
-707.48 580.35 2131.9
-715.78 591.79 2173.9
-722.98 602.49 2213.2
-705.22 592.39 2176.1
-690.60 584.78 2148.2
-711.98 607.79 2232.7
-718.19 623.22 2289.4
-686.58 600.76 2206.9
-665.63 587.32 2157.5
-645.49 574.37 2109.9
-673.03 604.00 2218.8
-692.56 643.53 2364.0
-667.18 625.48 2297.7
-646.40 611.46 2246.2
-670.44 639.96 2350.9
-663.52 645.09 2369.7
-639.43 627.48 2305.0
-641.54 635.49 2334.4
-629.78 629.78 2313.5
-629.27 641.49 2356.5
-986.27 586.13 2173.8
-1012.55 608.70 2257.5
-940.89 572.24 2122.3
-967.95 592.16 2196.2
-948.31 583.58 2164.4
-951.69 589.14 2185.0
-967.31 602.40 2234.2
-913.64 572.40 2122.9
-907.27 575.34 2133.8
-942.57 601.40 2230.5
-943.62 605.78 2246.7
-916.93 592.30 2196.7
-890.09 578.56 2145.8
-860.88 563.09 2088.4
-844.07 555.59 2060.6
-888.45 588.53 2182.7
-916.65 611.10 2266.4
-878.99 589.77 2187.3
-822.97 555.78 2061.3
-799.72 543.60 2016.1
-822.18 562.54 2086.4
-830.18 571.78 2120.6
-825.36 572.25 2122.4
-856.18 597.60 2216.4
-841.23 595.16 2207.3
-828.29 590.01 2188.2
-841.02 603.21 2237.2
-809.10 584.35 2167.2
-767.72 558.34 2070.8
-755.59 553.39 2052.4
-768.83 567.08 2103.2
-798.71 593.32 2200.5
-794.28 594.28 2204.1
-776.44 585.14 2170.2
-767.19 582.39 2160.0
-746.06 570.52 2115.9
-739.22 569.47 2112.0
-731.12 567.43 2104.5
-727.47 568.85 2109.7
-729.76 574.96 2132.4
-718.85 570.69 2116.6
-723.48 578.78 2146.6
-727.05 586.14 2173.9
-718.58 583.85 2165.4
-706.21 578.31 2144.8
-689.42 569.05 2110.5
-692.51 576.16 2136.9
-701.98 588.76 2183.6
-673.56 569.52 2112.2
-649.28 553.48 2052.8
-681.51 585.76 2172.5
-707.13 612.85 2272.9
-700.86 612.52 2271.7
-696.30 613.69 2276.0
-665.01 591.12 2192.3
-655.58 587.76 2179.9
-654.52 591.91 2195.3
-640.99 589.94 2188.0
-658.41 611.38 2267.5
-647.60 606.76 2250.3
-684.39 647.06 2399.8
-657.93 639.48 2371.7
-652.03 645.82 2395.2
-978.10 585.72 2193.4
-979.20 589.81 2208.7
-1021.37 618.83 2317.4
-1008.09 614.40 2300.8
-958.03 587.36 2199.6
-925.01 570.52 2136.5
-934.49 579.84 2171.4
-956.04 596.80 2234.9
-945.77 593.99 2224.4
-934.40 590.45 2211.1
-933.24 593.36 2222.0
-902.48 577.36 2162.1
-880.54 566.85 2122.7
-857.29 555.35 2079.7
-857.05 558.71 2092.3
-915.30 600.49 2248.7
-866.27 579.39 2169.7
-850.63 572.65 2144.4
-865.70 586.63 2196.8
-863.20 588.80 2204.9
-836.73 574.56 2151.6
-845.48 584.46 2188.7
-839.45 584.21 2187.8
-792.99 555.63 2080.7
-765.37 543.68 2036.0
-765.12 547.27 2049.4
-755.69 544.31 2038.3
-772.78 560.54 2099.1
-805.12 592.34 2218.2
-752.32 557.47 2087.6
-742.91 554.49 2076.5
-741.34 557.36 2087.2
-737.46 558.52 2091.5
-745.73 568.97 2130.7
-706.41 542.98 2033.4
-714.17 557.27 2086.9
-747.95 588.08 2202.3
-744.65 589.99 2209.4
-738.23 589.44 2207.3
-705.87 568.01 2127.1
-675.69 552.35 2068.4
-696.20 573.67 2148.3
-696.46 578.51 2166.4
-661.30 553.77 2073.8
-676.99 576.28 2158.0
-672.14 576.92 2160.5
-662.42 578.21 2165.3
-660.62 581.57 2177.9
-664.06 616.20 2307.5
-673.64 630.77 2362.1
-668.74 631.92 2366.4
-673.99 642.78 2407.1
-642.07 635.90 2381.3
-987.61 589.10 2227.7
-1001.23 604.29 2285.1
-949.07 579.67 2192.0
-912.73 560.83 2120.8
-960.01 593.46 2244.2
-968.34 602.26 2277.5
-921.30 576.52 2180.1
-886.73 558.31 2111.3
-928.80 588.43 2225.2
-920.71 590.64 2233.5
-888.82 573.80 2169.8
-894.94 581.43 2198.7
-878.35 574.30 2171.7
-859.69 565.73 2139.3
-829.30 549.28 2077.1
-803.13 535.42 2024.7
-809.94 543.51 2055.3
-824.39 556.87 2105.8
-811.52 551.83 2086.8
-831.26 569.05 2151.9
-835.75 575.99 2178.1
-818.33 567.82 2147.2
-819.61 572.61 2165.3
-793.14 557.93 2109.8
-768.61 544.43 2058.8
-775.01 552.81 2090.4
-813.12 584.08 2208.7
-819.70 592.97 2242.3
-763.53 556.29 2103.6
-717.09 533.89 2018.9
-727.56 545.67 2063.5
-751.29 567.64 2146.6
-724.64 551.59 2085.9
-725.92 565.22 2137.4
-732.38 574.64 2173.0
-674.89 542.04 2049.7
-669.57 550.77 2082.8
-674.95 559.71 2116.6
