ply
format ascii 1.0
element vertex 2108
property float x
property float y
property float z
end_header
246.05 -805.25 1725.5
257.75 -828.48 1775.3
265.99 -839.96 1799.9
261.66 -812.05 1740.1
257.71 -786.24 1684.8
267.58 -802.74 1720.1
273.51 -807.08 1729.5
279.34 -810.99 1737.8
279.65 -799.01 1712.2
301.09 -821.16 1759.6
296.21 -795.80 1705.3
303.21 -802.61 1719.9
321.47 -838.63 1797.1
312.71 -804.10 1723.1
330.13 -814.01 1744.3
335.20 -815.36 1747.2
331.79 -796.29 1706.3
326.23 -772.66 1655.7
367.58 -827.06 1772.3
371.27 -825.04 1768.0
380.43 -778.15 1667.5
392.76 -794.34 1702.2
388.72 -760.55 1629.7
402.15 -778.35 1667.9
418.24 -784.21 1680.4
478.79 -790.66 1694.3
486.91 -796.76 1707.3
472.89 -766.84 1643.2
468.22 -752.50 1612.5
507.33 -801.05 1716.5
521.48 -795.47 1704.6
513.73 -777.07 1665.1
515.83 -773.74 1658.0
530.47 -789.13 1691.0
539.21 -795.55 1704.8
530.29 -763.62 1636.3
533.63 -762.33 1633.6
532.37 -754.54 1616.9
552.92 -777.54 1666.2
567.03 -791.20 1695.4
580.40 -803.63 1722.1
590.36 -811.18 1738.2
624.82 -797.65 1709.2
655.41 -824.99 1767.8
631.64 -789.55 1691.9
637.50 -791.39 1695.8
646.31 -796.82 1707.5
645.69 -790.64 1694.2
639.10 -777.29 1665.6
680.44 -795.32 1704.3
677.20 -771.50 1653.2
707.56 -801.01 1716.5
728.00 -819.00 1755.0
707.92 -791.47 1696.0
706.79 -785.32 1682.8
732.05 -808.40 1732.3
738.84 -810.92 1737.7
740.23 -807.52 1730.4
731.04 -792.70 1698.6
722.81 -779.07 1669.4
739.40 -792.22 1697.6
822.95 -805.06 1725.1
794.43 -768.81 1647.4
805.63 -771.35 1652.9
851.01 -810.48 1736.8
818.49 -775.41 1661.6
839.42 -778.84 1668.9
852.99 -787.38 1687.2
836.94 -768.62 1647.0
812.74 -742.60 1591.3
841.44 -764.94 1639.2
876.05 -788.44 1689.5
853.59 -753.17 1613.9
887.76 -768.25 1646.3
909.27 -783.10 1678.1
902.59 -773.65 1657.8
881.40 -748.36 1603.6
903.52 -763.54 1636.2
901.07 -757.91 1624.1
915.25 -766.25 1642.0
903.70 -753.08 1613.8
897.64 -731.11 1566.7
929.04 -753.28 1614.2
1000.17 -786.16 1684.6
998.79 -781.66 1675.0
976.87 -761.20 1631.1
978.70 -759.33 1627.1
973.91 -745.97 1598.5
1006.12 -757.75 1623.7
1042.23 -781.67 1675.0
1040.59 -777.20 1665.4
986.52 -733.78 1572.4
1052.09 -772.97 1656.4
1048.81 -767.42 1644.5
1041.96 -759.32 1627.1
1045.11 -758.55 1625.5
1001.75 -721.26 1545.6
1035.71 -742.74 1591.6
1023.49 -731.06 1566.6
1115.00 -774.91 1660.5
1128.57 -781.32 1674.2
1129.10 -775.72 1662.3
1103.31 -755.12 1618.1
1113.20 -759.00 1626.4
1115.71 -757.84 1623.9
1143.65 -773.90 1658.3
1157.54 -771.70 1653.6
1116.56 -741.62 1589.2
1188.99 -778.25 1667.7
1226.31 -799.77 1713.8
1225.07 -796.07 1705.9
1197.55 -775.39 1661.6
1204.58 -768.88 1647.6
1242.42 -790.23 1693.4
1206.06 -764.40 1638.0
1168.43 -732.81 1570.3
1179.63 -737.27 1579.9
1193.10 -743.11 1592.4
1213.41 -750.56 1608.3
1229.82 -758.11 1624.5
1203.77 -739.51 1584.7
1230.99 -753.67 1615.0
1252.61 -764.31 1637.8
1197.52 -723.33 1550.0
1251.37 -753.33 1614.3
1249.56 -749.73 1606.6
1215.96 -727.15 1558.2
1238.89 -731.15 1566.7
1362.39 -796.20 1706.1
1365.29 -795.31 1704.2
1295.18 -752.04 1611.5
1313.24 -760.07 1628.7
1333.72 -769.46 1648.8
1336.50 -768.59 1647.0
1352.33 -775.22 1661.2
1347.38 -769.93 1649.9
1322.12 -753.11 1613.8
1324.22 -751.92 1611.3
1326.30 -750.74 1608.7
1334.37 -752.94 1613.4
-1632.66 -941.12 2005.5
-1606.20 -928.82 1979.3
-1647.26 -958.70 2043.0
-1572.99 -924.39 1969.9
-1602.37 -944.72 2013.2
-1620.51 -958.54 2042.7
-1632.58 -975.24 2078.2
-1588.51 -952.06 2028.8
-1615.01 -971.15 2069.5
-1622.94 -979.17 2086.6
-1597.49 -967.04 2060.8
-1603.65 -974.03 2075.7
-1558.14 -982.66 2094.1
-1498.20 -968.48 2063.8
-1448.44 -939.67 2002.4
-1375.40 -895.49 1908.3
-1345.77 -895.53 1908.4
-1310.04 -874.97 1864.6
-1300.17 -871.60 1857.4
-1334.10 -897.67 1912.9
-1367.29 -923.43 1967.8
-1270.17 -861.05 1834.9
-1256.19 -861.25 1835.3
-1246.87 -864.69 1842.7
-1188.17 -827.15 1762.7
-1167.18 -815.67 1738.2
-1149.02 -812.39 1731.2
-1136.99 -807.04 1719.8
-1118.34 -796.92 1698.3
-1106.40 -791.54 1686.8
-1084.33 -778.82 1659.7
-1100.42 -793.53 1691.0
-1129.05 -817.43 1742.0
-1100.45 -799.93 1704.7
-1068.48 -779.82 1661.8
-1060.74 -777.31 1656.5
-1073.85 -813.25 1733.1
-1120.17 -851.90 1815.4
-1108.32 -846.44 1803.8
-1075.67 -824.98 1758.1
-1020.06 -792.40 1688.6
-1026.72 -801.02 1707.0
-1008.53 -790.23 1684.0
-1039.80 -832.76 1774.6
-1015.84 -820.84 1749.2
-1013.68 -822.76 1753.3
-972.68 -793.04 1690.0
-959.56 -785.88 1674.7
-968.06 -796.45 1697.2
-962.75 -795.70 1695.6
-967.01 -802.89 1711.0
-963.49 -803.65 1712.6
-956.34 -801.38 1707.8
-970.37 -820.74 1749.0
-947.07 -804.79 1715.0
-939.49 -805.92 1717.4
-966.86 -833.34 1775.9
-961.83 -832.97 1775.1
-957.68 -833.36 1775.9
-957.89 -837.57 1784.9
-960.86 -852.53 1816.7
-886.48 -790.41 1684.4
-902.62 -808.79 1723.5
-901.96 -812.21 1730.8
-897.86 -812.56 1731.6
-942.41 -857.17 1826.6
-947.21 -870.28 1854.6
-913.57 -843.65 1797.8
-865.19 -803.07 1711.4
-858.24 -826.29 1760.8
-868.89 -841.01 1792.2
-869.79 -846.40 1803.7
-869.04 -850.25 1811.9
-844.47 -830.70 1770.2
-820.86 -811.89 1730.2
-806.86 -802.42 1710.0
-788.63 -788.63 1680.6
-803.31 -812.29 1731.0
-816.07 -829.82 1768.4
-832.88 -851.70 1815.0
-814.35 -837.49 1784.7
-789.12 -816.17 1739.3
-770.89 -801.90 1708.9
-772.73 -808.46 1722.8
-785.36 -826.45 1761.2
-781.80 -827.52 1763.5
-735.97 -807.34 1720.5
-725.61 -820.84 1749.2
-740.86 -843.37 1797.2
-736.41 -843.61 1797.8
-718.48 -828.31 1765.2
-685.91 -795.83 1695.9
-683.70 -808.83 1723.6
-698.56 -831.84 1772.7
-682.12 -817.64 1742.4
-642.09 -801.51 1708.0
-645.48 -811.34 1729.0
-661.18 -836.88 1783.4
-662.08 -843.92 1798.4
-653.80 -839.27 1788.5
-651.17 -841.87 1794.1
-634.26 -825.90 1760.0
-631.05 -827.68 1763.8
-640.07 -845.64 1802.1
-613.33 -816.27 1739.5
-589.20 -807.92 1721.7
-583.06 -805.61 1716.8
-581.29 -815.61 1738.1
-584.93 -827.12 1762.6
-582.16 -829.69 1768.1
-547.52 -812.31 1731.0
-553.20 -827.52 1763.5
-550.05 -829.67 1768.0
-549.03 -835.08 1779.6
-555.42 -851.96 1815.6
-540.72 -836.50 1782.6
-518.29 -808.72 1723.4
-520.12 -818.63 1744.5
-529.86 -841.27 1792.8
-521.42 -835.19 1779.8
-496.58 -832.22 1773.5
-502.24 -849.58 1810.5
-499.75 -853.35 1818.5
-481.91 -830.72 1770.3
-473.31 -823.74 1755.4
-475.35 -835.33 1780.1
-466.57 -827.93 1764.3
-450.71 -807.70 1721.2
-446.71 -808.54 1723.0
-457.86 -837.09 1783.9
-457.73 -845.39 1801.5
-446.63 -833.40 1776.0
-436.75 -823.46 1754.8
-425.28 -818.89 1745.1
-429.92 -836.72 1783.1
-416.00 -818.44 1744.1
-397.06 -789.76 1683.0
-391.52 -814.55 1735.8
-415.49 -874.47 1863.5
-392.27 -845.25 1801.2
-376.11 -820.19 1747.8
-345.20 -801.05 1707.1
-346.61 -814.76 1736.3
-356.65 -849.39 1810.1
-347.42 -838.43 1786.7
-328.96 -815.65 1738.2
-335.41 -843.19 1796.9
-321.02 -818.37 1744.0
-298.14 -782.08 1666.6
-308.90 -822.23 1752.2
-310.22 -838.05 1785.9
-296.36 -812.74 1732.0
-279.93 -817.23 1741.5
-283.31 -840.63 1791.4
-275.27 -830.39 1769.6
-268.98 -825.18 1758.5
-245.55 -808.08 1722.0
-247.44 -829.39 1767.5
-248.61 -849.03 1809.3
-234.05 -814.69 1736.1
-224.63 -797.20 1698.9
-228.56 -827.38 1763.2
-226.56 -836.89 1783.4
-224.46 -846.39 1803.7
-222.25 -855.90 1823.9
-200.21 -823.58 1755.1
-194.70 -819.55 1746.5
-184.23 -793.95 1691.9
-177.87 -785.25 1673.4
-177.69 -804.03 1713.4
-175.20 -813.09 1732.7
-168.70 -803.53 1712.3
-168.01 -821.89 1751.5
-168.64 -847.88 1806.8
-162.27 -839.15 1788.2
-155.04 -825.33 1758.8
-154.36 -846.66 1804.3
-149.41 -845.12 1801.0
-137.29 -801.62 1708.3
-131.06 -790.74 1685.1
-129.09 -805.70 1717.0
-128.20 -828.72 1766.0
-124.21 -832.66 1774.4
-117.80 -820.06 1747.6
-111.94 -810.42 1727.0
-107.98 -814.35 1735.4
-105.65 -831.42 1771.8
-99.26 -816.67 1740.3
-91.71 -790.46 1684.5
-87.49 -791.83 1687.4
-75.19 -800.56 1706.0
-70.59 -798.51 1701.6
-66.36 -800.70 1706.3
-62.73 -810.95 1728.2
-57.43 -799.55 1703.9
-35.44 -801.90 1708.9
-22.45 -812.61 1731.7
-18.23 -824.95 1758.0
-4.42 -800.34 1705.5
0.00 -804.17 1713.7
4.52 -817.76 1742.7
9.01 -815.20 1737.2
22.85 -827.05 1762.5
26.98 -813.86 1734.3
32.26 -834.22 1777.7
37.49 -848.20 1807.5
41.43 -833.29 1775.8
54.25 -818.29 1743.8
60.72 -845.41 1801.6
70.30 -848.25 1807.6
72.46 -819.73 1746.9
75.35 -802.26 1709.6
81.63 -820.85 1749.3
97.62 -841.38 1793.0
99.78 -820.92 1749.4
103.93 -817.85 1742.8
108.32 -816.89 1740.8
111.59 -807.88 1721.6
117.68 -819.21 1745.8
123.58 -828.42 1765.4
125.25 -809.64 1725.4
136.47 -823.37 1754.6
139.47 -814.34 1735.4
149.63 -796.54 1697.4
153.10 -791.73 1687.2
155.76 -783.11 1668.8
160.40 -784.65 1672.1
172.43 -821.30 1750.2
178.84 -830.01 1768.8
174.42 -789.23 1681.9
179.79 -793.71 1691.4
191.20 -823.96 1755.9
195.00 -820.82 1749.2
197.95 -814.28 1735.2
202.19 -813.24 1733.0
204.16 -803.32 1711.9
208.11 -801.43 1707.9
213.82 -806.29 1718.2
213.99 -790.46 1684.5
236.51 -839.38 1788.7
241.20 -839.57 1789.1
236.14 -806.45 1718.6
238.01 -797.79 1700.1
249.65 -821.57 1750.8
257.60 -790.26 1684.0
267.60 -807.25 1720.3
273.95 -812.87 1732.2
276.91 -808.40 1722.7
274.11 -787.53 1678.3
280.21 -780.27 1662.8
303.25 -831.63 1772.2
303.54 -820.01 1747.4
300.55 -799.99 1704.8
308.21 -808.50 1722.9
312.73 -808.62 1723.2
324.44 -793.56 1691.1
357.26 -808.31 1722.5
362.14 -809.22 1724.5
383.24 -806.59 1718.9
390.92 -813.30 1733.2
383.50 -788.79 1680.9
392.88 -790.13 1683.8
402.07 -799.73 1704.2
399.96 -786.88 1676.9
423.12 -814.74 1736.2
430.87 -803.99 1713.3
424.33 -783.71 1670.1
464.44 -800.61 1706.1
464.74 -793.57 1691.1
453.28 -766.77 1634.0
478.83 -795.13 1694.4
501.95 -825.94 1760.1
504.21 -822.18 1752.1
511.26 -804.69 1714.8
521.39 -806.60 1718.9
503.91 -772.95 1647.2
501.42 -762.66 1625.2
526.71 -787.88 1679.0
531.83 -789.03 1681.4
510.34 -750.99 1600.4
544.20 -781.75 1665.9
559.31 -797.12 1698.7
549.83 -777.49 1656.8
568.19 -779.11 1660.3
597.44 -813.06 1732.6
585.33 -790.63 1684.8
609.18 -782.00 1666.5
645.96 -823.37 1754.6
645.27 -816.74 1740.5
627.87 -789.20 1681.8
637.26 -795.47 1695.2
644.76 -799.32 1703.4
643.16 -791.92 1687.6
665.11 -813.42 1733.4
682.99 -829.67 1768.0
676.11 -815.84 1738.6
669.09 -802.02 1709.1
717.78 -817.10 1741.2
728.07 -823.63 1755.2
698.47 -785.24 1673.4
750.06 -798.60 1701.8
754.61 -798.74 1702.1
726.96 -765.00 1630.2
726.83 -760.44 1620.5
725.52 -754.71 1608.3
736.69 -761.94 1623.7
742.50 -750.80 1600.0
765.57 -765.57 1631.4
796.89 -783.90 1670.5
787.39 -770.37 1641.7
819.08 -784.41 1671.6
788.89 -751.52 1601.5
820.37 -757.59 1614.4
835.16 -767.33 1635.2
828.11 -757.01 1613.2
843.39 -767.10 1634.7
875.76 -792.56 1689.0
877.21 -789.93 1683.3
863.93 -755.42 1609.8
872.13 -758.92 1617.3
886.52 -767.75 1636.1
895.68 -771.99 1645.1
945.41 -770.81 1642.6
968.70 -786.25 1675.5
924.64 -747.14 1592.2
913.28 -731.43 1558.7
955.46 -761.84 1623.5
979.02 -777.20 1656.2
1005.07 -794.40 1692.9
1003.77 -783.11 1668.8
959.64 -739.13 1575.1
973.91 -746.94 1591.7
1024.71 -782.58 1667.7
1026.54 -780.69 1663.7
1021.51 -773.61 1648.6
1022.30 -770.98 1643.0
987.12 -741.37 1579.9
990.49 -731.75 1559.4
1014.02 -746.09 1589.9
1033.66 -757.46 1614.2
1056.41 -771.01 1643.0
1039.91 -755.92 1610.9
1016.19 -735.72 1567.8
1038.51 -745.92 1589.6
1048.20 -749.90 1598.0
1074.81 -765.91 1632.2
1067.66 -757.83 1614.9
1035.71 -732.28 1560.5
1083.89 -751.67 1601.8
1091.62 -754.14 1607.1
1100.94 -757.68 1614.6
1120.30 -768.08 1636.8
1132.34 -773.41 1648.1
1116.88 -759.98 1619.5
1146.55 -768.61 1637.9
1126.76 -749.79 1597.8
1127.54 -747.57 1593.1
1165.92 -767.39 1635.3
1179.24 -773.34 1648.0
1184.14 -770.97 1643.0
1164.98 -750.40 1599.1
1251.81 -797.81 1700.1
1179.25 -748.93 1596.0
1178.76 -746.00 1589.7
1210.64 -763.51 1627.0
1172.66 -736.98 1570.5
1184.95 -737.03 1570.6
1228.99 -761.81 1623.4
1229.58 -759.57 1618.7
1199.49 -738.46 1573.7
1199.01 -728.26 1551.9
1247.66 -755.27 1609.5
1260.24 -760.34 1620.3
1242.85 -747.36 1592.6
1276.75 -752.74 1604.1
1304.67 -766.71 1633.9
1231.13 -721.15 1536.8
1214.91 -709.35 1511.6
1277.01 -743.21 1583.8
1274.37 -739.30 1575.5
1253.34 -724.78 1544.5
1278.48 -736.96 1570.5
1279.93 -735.45 1567.3
1249.79 -715.86 1525.5
1251.14 -714.37 1522.3
1273.42 -724.81 1544.6
1299.36 -737.25 1571.1
-1612.85 -937.82 1987.5
-1660.96 -975.14 2066.6
-1599.36 -942.02 1996.4
-1618.21 -956.21 2026.5
-1665.58 -987.41 2092.6
-1636.30 -976.41 2069.3
-1562.57 -938.58 1989.1
-1633.16 -994.10 2106.8
-1591.69 -972.10 2060.2
-1586.20 -975.30 2067.0
-1541.32 -957.41 2029.0
-1605.33 -1007.48 2135.2
-1576.85 -993.04 2104.6
-1491.40 -942.48 1997.4
-1560.42 -989.53 2097.1
-1540.93 -990.99 2100.2
-1563.06 -1008.79 2137.9
-1443.37 -938.19 1988.3
-1443.59 -941.70 1995.7
-1437.27 -958.18 2030.7
-1402.88 -938.69 1989.4
-1338.61 -898.99 1905.2
-1300.32 -876.51 1857.6
-1253.52 -851.27 1804.1
-1250.69 -852.53 1806.8
-1261.08 -862.84 1828.6
-1277.18 -877.16 1859.0
-1298.97 -895.50 1897.8
-1256.92 -876.48 1857.5
-1239.36 -867.55 1838.6
-1173.07 -824.32 1747.0
-1127.84 -795.60 1686.1
-1149.46 -826.89 1752.4
-1131.56 -820.50 1738.9
-1082.49 -791.22 1676.8
-1092.32 -801.62 1698.9
-1086.01 -800.22 1695.9
-1109.79 -824.42 1747.2
-1133.69 -845.62 1792.1
-1088.60 -815.33 1727.9
-1068.13 -820.25 1738.4
-1068.07 -823.68 1745.6
-1047.65 -814.84 1726.9
-1025.02 -800.66 1696.9
-1002.99 -790.23 1674.7
-1020.51 -807.53 1711.4
-1000.29 -801.99 1699.7
-1022.13 -823.13 1744.5
-1019.47 -835.78 1771.3
-999.29 -822.94 1744.1
-1002.14 -829.04 1757.0
-978.43 -813.13 1723.3
-962.60 -803.64 1703.2
-963.63 -808.21 1712.8
-961.91 -810.50 1717.7
-966.46 -818.12 1733.9
-971.39 -826.14 1750.8
-950.34 -812.02 1720.9
-924.50 -793.68 1682.1
-936.52 -807.81 1712.0
-954.60 -827.32 1753.3
-938.17 -816.97 1731.4
-922.71 -807.37 1711.1
-929.60 -817.33 1732.2
-953.17 -850.38 1802.2
-881.46 -790.28 1674.8
-901.46 -812.21 1721.3
-930.21 -842.28 1785.0
-954.86 -868.93 1841.5
-934.88 -855.01 1812.0
-901.14 -832.53 1764.4
-894.86 -830.94 1761.0
-796.12 -791.77 1678.0
-803.03 -803.03 1701.9
-811.91 -830.15 1759.4
-828.72 -852.13 1805.9
-812.89 -840.61 1781.5
-810.08 -842.48 1785.5
-812.16 -849.50 1800.3
-793.12 -834.38 1768.3
-783.19 -828.72 1756.3
-782.25 -832.57 1764.5
-747.24 -824.23 1746.8
-754.78 -837.63 1775.2
-715.09 -828.95 1756.8
-716.57 -836.00 1771.7
-693.38 -814.17 1725.5
-688.07 -813.17 1723.4
-695.26 -827.04 1752.7
-699.95 -838.10 1776.2
-711.22 -857.23 1816.7
-650.98 -811.50 1719.8
-647.31 -812.49 1721.9
-641.07 -810.24 1717.1
-647.24 -823.76 1745.8
-639.37 -819.48 1736.7
-628.10 -810.73 1718.2
-623.77 -810.89 1718.5
-620.84 -824.76 1747.9
-567.36 -813.06 1723.1
-567.50 -819.72 1737.2
-538.50 -809.98 1716.6
-532.48 -807.60 1711.6
-529.17 -809.32 1715.2
-532.24 -820.92 1739.8
-533.08 -829.23 1757.4
-525.95 -825.19 1748.8
-517.82 -819.50 1736.8
-517.49 -826.17 1750.9
-514.02 -827.89 1754.5
-502.98 -832.21 1763.7
-497.20 -830.19 1759.4
-485.55 -818.25 1734.1
-483.27 -822.02 1742.1
-474.20 -814.19 1725.5
-468.07 -811.32 1719.4
-470.02 -822.54 1743.2
-471.15 -832.52 1764.4
-454.96 -828.02 1754.8
-456.52 -839.26 1778.6
-446.99 -830.13 1759.3
-441.10 -827.64 1754.0
-436.78 -828.05 1754.9
-420.92 -806.39 1709.0
-417.77 -808.87 1714.3
-423.76 -829.28 1757.5
-411.60 -814.25 1725.7
-404.40 -808.80 1714.1
-414.39 -838.00 1776.0
-420.40 -859.70 1822.0
-411.83 -851.74 1805.1
-390.75 -817.43 1732.4
-390.98 -827.42 1753.6
-407.72 -873.00 1850.1
-402.71 -872.55 1849.2
-389.50 -854.08 1810.1
-378.74 -840.63 1781.6
-367.94 -826.74 1752.1
-365.03 -830.45 1760.0
-351.88 -810.66 1718.0
-328.31 -818.52 1734.7
-327.60 -828.09 1755.0
-317.42 -813.68 1724.4
-303.56 -812.48 1721.9
-308.52 -838.07 1776.1
-298.52 -823.18 1744.6
-243.26 -804.98 1706.0
-250.09 -842.89 1786.4
-249.48 -856.69 1815.6
-233.95 -818.81 1735.3
-221.32 -789.80 1673.8
-221.58 -806.55 1709.3
-221.43 -822.45 1743.0
-221.44 -839.63 1779.4
-219.95 -851.72 1805.1
-209.53 -829.03 1757.0
-191.60 -810.95 1718.6
-187.97 -814.53 1726.2
-179.71 -797.73 1690.6
-177.88 -809.37 1715.3
-174.02 -812.10 1721.1
-166.22 -796.12 1687.2
-164.65 -809.88 1716.4
-164.27 -830.46 1760.0
-159.90 -831.47 1762.1
-154.56 -827.37 1753.5
-151.13 -833.48 1766.4
-143.50 -816.18 1729.7
-134.40 -789.08 1672.3
-129.23 -811.05 1718.9
-128.40 -834.60 1768.8
-123.58 -833.02 1765.4
-116.40 -814.83 1726.9
-111.12 -808.98 1714.5
-107.70 -816.75 1731.0
-107.43 -850.10 1801.6
-103.03 -852.33 1806.4
-94.72 -820.89 1739.7
-89.66 -815.87 1729.1
-84.69 -811.27 1719.3
-74.48 -797.36 1689.8
-70.25 -799.13 1693.6
-66.40 -805.60 1707.3
-63.06 -819.74 1737.3
-57.58 -806.15 1708.5
-39.58 -800.37 1696.2
-35.86 -815.77 1728.9
-31.15 -809.83 1716.3
-27.18 -824.37 1747.1
-22.65 -824.39 1747.1
0.00 -790.74 1675.8
4.37 -795.43 1685.8
23.07 -839.75 1779.7
28.02 -849.97 1801.3
32.08 -834.15 1767.8
35.76 -813.64 1724.3
40.97 -828.53 1755.9
45.50 -828.06 1754.9
48.86 -808.39 1713.2
54.00 -819.00 1735.7
59.35 -830.89 1760.9
63.94 -831.25 1761.7
69.56 -843.98 1788.7
73.78 -839.22 1778.6
74.64 -799.06 1693.5
78.73 -796.00 1687.0
85.05 -814.68 1726.6
88.39 -804.36 1704.7
94.52 -819.19 1736.1
100.35 -830.17 1759.4
102.91 -814.30 1725.8
105.68 -801.42 1698.4
116.71 -816.96 1731.4
121.56 -819.39 1736.5
132.19 -801.98 1699.6
138.32 -812.06 1721.0
140.44 -798.73 1692.8
153.60 -798.72 1692.7
164.18 -786.34 1666.5
177.66 -829.10 1757.1
181.43 -825.52 1749.5
178.94 -794.33 1683.4
182.28 -789.90 1674.0
190.80 -807.55 1711.5
198.26 -820.09 1738.0
201.78 -816.08 1729.5
202.78 -802.30 1700.3
205.49 -795.73 1686.4
209.70 -795.10 1685.1
233.19 -832.17 1763.6
240.48 -841.68 1783.8
247.10 -817.68 1732.9
241.23 -784.01 1661.6
255.84 -789.19 1672.5
265.66 -805.84 1707.8
273.68 -816.56 1730.6
278.22 -816.72 1730.9
278.96 -805.89 1707.9
274.09 -779.45 1651.9
289.12 -785.37 1664.4
304.82 -815.85 1729.0
312.07 -823.13 1744.5
316.15 -821.98 1742.0
330.62 -813.15 1723.3
329.04 -777.73 1648.3
329.58 -769.02 1629.8
332.57 -766.18 1623.8
354.52 -806.54 1709.3
366.64 -823.80 1745.9
367.65 -787.20 1668.3
381.10 -806.51 1709.2
392.75 -821.61 1741.2
389.40 -805.35 1706.8
387.31 -792.02 1678.5
399.94 -808.77 1714.0
413.79 -827.58 1753.9
415.82 -822.60 1743.3
406.29 -795.10 1685.1
413.68 -800.96 1697.5
437.21 -828.89 1756.7
429.79 -806.41 1709.0
432.88 -803.92 1703.8
433.68 -797.28 1689.7
434.18 -790.21 1674.7
442.54 -774.44 1641.3
457.55 -793.08 1680.8
454.66 -780.64 1654.4
470.21 -785.13 1663.9
496.30 -806.49 1709.2
548.80 -792.71 1680.0
560.51 -803.25 1702.3
547.31 -778.21 1649.3
566.68 -787.29 1668.5
591.91 -816.12 1729.6
572.81 -777.99 1648.8
608.79 -791.43 1677.3
604.55 -780.35 1653.8
637.38 -811.21 1719.2
658.02 -831.66 1762.6
657.61 -825.42 1749.3
656.17 -817.96 1733.5
634.77 -785.90 1665.6
669.51 -817.80 1733.2
681.81 -827.26 1753.2
655.48 -790.05 1674.4
675.50 -798.32 1691.9
684.35 -788.31 1670.7
689.10 -764.74 1620.7
714.05 -787.62 1669.2
731.65 -783.29 1660.0
756.94 -805.63 1707.4
752.89 -796.67 1688.4
763.04 -802.74 1701.3
773.63 -809.20 1714.9
748.96 -778.92 1650.8
788.70 -801.92 1699.5
813.36 -817.85 1733.3
781.05 -781.05 1655.3
768.03 -755.57 1601.3
833.79 -802.91 1701.6
833.73 -790.30 1674.9
830.27 -767.06 1625.6
847.87 -771.56 1635.2
865.41 -783.60 1660.7
858.23 -773.25 1638.8
851.81 -763.69 1618.5
864.98 -760.51 1611.8
885.89 -775.16 1642.8
895.93 -780.19 1653.5
898.05 -778.31 1649.5
895.16 -750.78 1591.1
936.66 -781.98 1657.3
942.80 -783.52 1660.5
896.70 -741.81 1572.1
951.26 -776.36 1645.4
939.26 -763.15 1617.3
937.80 -751.89 1593.5
936.30 -747.40 1584.0
952.26 -756.82 1603.9
962.13 -761.34 1613.5
957.94 -741.90 1572.3
990.12 -763.56 1618.2
1014.70 -779.22 1651.4
977.77 -729.32 1545.6
1003.34 -733.36 1554.2
1006.34 -732.61 1552.6
1048.40 -748.27 1585.8
1042.16 -740.91 1570.2
1070.71 -749.50 1588.4
1095.11 -763.64 1618.4
1094.49 -760.30 1611.3
1101.79 -753.85 1597.7
1071.87 -730.64 1548.4
1149.09 -768.87 1629.5
1172.57 -781.71 1656.7
1188.04 -789.14 1672.4
1111.45 -735.58 1558.9
1180.04 -772.54 1637.3
1174.80 -766.36 1624.1
1143.17 -743.06 1574.8
1166.92 -755.80 1601.8
1229.38 -793.43 1681.5
1212.70 -777.16 1647.0
1203.01 -765.55 1622.4
1219.30 -773.22 1638.7
1181.19 -733.71 1555.0
1156.11 -715.69 1516.8
1163.89 -718.06 1521.8
1260.06 -769.57 1631.0
1264.05 -769.42 1630.6
1232.93 -747.98 1585.2
1241.69 -738.52 1565.2
1264.22 -749.48 1588.4
1237.07 -731.00 1549.2
1203.92 -709.11 1502.8
1222.35 -717.64 1520.9
1314.48 -769.24 1630.3
1342.62 -783.20 1659.8
1264.36 -735.19 1558.1
1229.04 -712.37 1509.7
1287.42 -743.84 1576.4
1315.06 -757.41 1605.2
1287.32 -739.09 1566.4
1282.76 -734.16 1555.9
1311.70 -748.37 1586.0
-1650.35 -955.74 2014.4
-1651.51 -968.68 2041.7
-1637.62 -973.00 2050.8
-1656.72 -994.03 2095.2
-1531.31 -921.81 1942.9
-1555.17 -939.26 1979.7
-1641.26 -994.54 2096.2
-1549.45 -948.33 1998.8
-1557.90 -959.92 2023.2
-1580.57 -977.17 2059.6
-1541.71 -956.38 2015.8
-1512.64 -941.54 1984.5
-1533.48 -957.77 2018.7
-1551.37 -972.26 2049.3
-1517.78 -964.42 2032.7
-1544.84 -985.03 2076.2
-1474.95 -950.41 2003.2
-1463.61 -946.43 1994.8
-1523.94 -988.94 2084.4
-1476.74 -961.72 2027.0
-1526.27 -997.52 2102.5
-1471.78 -972.33 2049.4
-1455.00 -964.73 2033.4
-1448.57 -963.96 2031.8
-1362.66 -916.79 1932.3
-1383.74 -934.41 1969.5
-1333.06 -903.52 1904.4
-1293.81 -880.18 1855.2
-1302.06 -889.09 1874.0
-1330.38 -911.84 1921.9
-1286.61 -885.15 1865.6
-1249.89 -863.13 1819.3
-1237.02 -857.48 1807.3
-1161.76 -808.38 1703.8
-1163.56 -818.96 1726.2
-1126.57 -795.99 1677.7
-1128.04 -800.12 1686.4
-1167.13 -831.07 1751.7
-1160.34 -839.29 1769.0
-1189.47 -863.78 1820.6
-1119.47 -822.74 1734.1
-1078.94 -796.15 1678.1
-1108.46 -827.95 1745.1
-1126.88 -845.16 1781.4
-1077.89 -811.74 1710.9
-1079.46 -816.29 1720.5
-1116.88 -848.09 1787.5
-1075.96 -834.32 1758.5
-1086.44 -846.04 1783.2
-1054.53 -824.70 1738.2
-1006.51 -790.52 1666.2
-1021.00 -815.91 1719.7
-1000.58 -803.10 1692.7
-1010.77 -814.85 1717.5
-1012.44 -819.81 1727.9
-1029.45 -837.29 1764.8
-1043.57 -856.38 1805.0
-1014.97 -836.67 1763.5
-1024.24 -848.13 1787.6
-1013.71 -843.22 1777.3
-977.66 -816.95 1721.9
-955.47 -802.07 1690.5
-949.27 -800.54 1687.3
-939.02 -795.56 1676.8
-934.65 -795.54 1676.8
-941.94 -805.49 1697.7
-925.02 -794.74 1675.1
-910.42 -785.88 1656.4
-933.11 -809.29 1705.8
-950.74 -828.50 1746.3
-933.02 -816.95 1721.9
-904.45 -795.74 1677.2
-899.18 -794.93 1675.5
-891.31 -791.80 1668.9
-873.50 -783.58 1651.6
-884.61 -797.45 1680.8
-890.03 -806.31 1699.5
-903.89 -822.94 1734.5
-924.38 -845.81 1782.7
-900.31 -827.92 1745.0
-872.84 -814.95 1717.7
-853.88 -805.47 1697.7
-846.11 -802.27 1691.0
-847.39 -807.67 1702.3
-855.15 -819.33 1726.9
-847.75 -816.52 1721.0
-846.05 -819.19 1726.6
-834.24 -812.05 1711.6
-823.59 -810.31 1707.9
-826.23 -817.29 1722.6
-815.69 -820.17 1728.7
-811.11 -820.07 1728.5
-806.92 -820.37 1729.1
-813.55 -831.73 1753.1
-796.36 -837.55 1765.3
-801.45 -847.77 1786.9
-775.79 -825.40 1739.7
-761.86 -815.33 1718.5
-754.69 -812.40 1712.3
-742.76 -804.29 1695.2
-737.85 -803.73 1694.1
-729.31 -799.18 1684.5
-717.18 -790.63 1666.4
-736.86 -817.24 1722.5
-760.58 -848.70 1788.8
-737.99 -828.54 1746.3
-723.28 -827.25 1743.6
-716.53 -835.19 1760.3
-711.13 -834.21 1758.3
-683.21 -806.63 1700.2
-678.98 -806.84 1700.6
-686.54 -821.16 1730.8
-683.23 -822.57 1733.8
-686.91 -832.48 1754.6
-712.36 -869.08 1831.8
-700.61 -866.30 1825.9
-675.55 -840.99 1772.6
-664.31 -832.67 1755.0
-622.83 -797.05 1680.0
-626.49 -807.38 1701.7
-627.84 -814.86 1717.5
-619.77 -810.13 1707.5
-606.48 -798.46 1682.9
-597.66 -798.34 1682.7
-603.72 -812.36 1712.2
-612.05 -829.66 1748.7
-591.45 -807.73 1702.5
-577.62 -819.42 1727.1
-549.71 -798.39 1682.8
-549.63 -804.65 1696.0
-541.95 -799.81 1685.8
-529.33 -787.54 1659.9
-521.16 -801.45 1689.2
-519.49 -805.65 1698.1
-516.46 -807.79 1702.6
-510.51 -805.38 1697.5
-504.36 -809.64 1706.5
-502.28 -813.42 1714.5
-494.06 -807.26 1701.5
-499.49 -823.49 1735.7
-510.24 -848.86 1789.2
-497.73 -835.63 1761.3
-471.36 -798.70 1683.4
-463.66 -815.86 1719.6
-462.28 -837.60 1765.4
-450.88 -825.10 1739.1
-438.69 -810.92 1709.2
-433.37 -809.24 1705.7
-431.60 -814.25 1716.2
-430.44 -820.52 1729.4
-418.56 -806.28 1699.4
-422.75 -823.01 1734.7
-436.55 -859.01 1810.6
-413.10 -821.71 1732.0
-402.24 -817.89 1723.9
-405.51 -833.80 1757.4
-405.18 -842.58 1775.9
-391.97 -824.49 1737.8
-376.98 -802.17 1690.8
-378.23 -814.31 1716.3
-388.23 -845.79 1782.7
-390.65 -861.31 1815.4
-370.27 -826.33 1741.7
-356.57 -815.66 1719.2
-351.17 -813.48 1714.6
-321.08 -804.89 1696.5
-321.62 -817.46 1723.0
-312.03 -804.24 1695.1
-302.95 -827.45 1744.0
-298.68 -828.17 1745.6
-286.13 -805.58 1697.9
-259.41 -818.48 1725.1
-240.08 -798.83 1683.7
-238.93 -809.69 1706.6
-220.27 -790.38 1665.9
-219.03 -801.66 1689.7
-217.22 -811.25 1709.9
-211.61 -806.77 1700.5
-204.85 -797.61 1681.1
-203.22 -808.46 1704.0
-198.22 -806.11 1699.1
-188.90 -803.93 1694.5
-190.03 -828.01 1745.2
-186.41 -832.03 1753.7
-167.94 -830.61 1750.7
-161.75 -822.23 1733.0
-146.89 -814.57 1716.9
-143.29 -819.42 1727.1
-137.89 -814.00 1715.7
-136.83 -834.66 1759.2
-129.52 -846.47 1784.1
-118.47 -802.97 1692.4
-113.41 -830.15 1749.7
-107.60 -820.42 1729.2
-105.12 -836.36 1762.8
-100.04 -832.19 1754.0
-91.28 -795.46 1676.6
-88.21 -807.11 1701.2
-85.10 -819.62 1727.5
-78.82 -801.29 1688.9
-74.36 -800.51 1687.3
-71.49 -817.71 1723.5
-68.82 -839.63 1769.7
-64.73 -846.12 1783.4
-58.53 -823.91 1736.6
-51.92 -791.83 1669.0
-47.81 -795.31 1676.3
-40.05 -814.25 1716.2
-35.97 -822.86 1734.4
-31.03 -811.32 1710.0
-27.39 -835.35 1760.7
-23.08 -844.81 1780.6
-17.83 -815.68 1719.2
-13.24 -807.55 1702.1
0.00 -791.71 1668.7
4.34 -794.28 1674.1
22.40 -819.95 1728.2
27.33 -833.64 1757.1
31.43 -821.61 1731.7
35.19 -804.86 1696.4
40.55 -824.53 1737.9
45.90 -839.92 1770.3
50.20 -835.16 1760.3
53.64 -817.96 1724.0
57.10 -803.77 1694.1
60.44 -790.00 1665.1
64.54 -787.37 1659.6
71.91 -822.43 1733.4
76.39 -822.35 1733.3
78.65 -799.57 1685.3
82.87 -798.21 1682.4
96.75 -804.79 1696.3
98.45 -783.29 1651.0
118.91 -805.96 1698.7
123.82 -809.26 1705.7
130.93 -826.24 1741.5
135.64 -827.39 1743.9
138.90 -819.99 1728.3
140.37 -802.75 1692.0
144.19 -799.61 1685.4
149.81 -806.30 1699.5
152.79 -798.89 1683.8
156.71 -796.60 1679.0
159.30 -787.90 1660.7
160.74 -774.08 1631.5
167.84 -787.57 1660.0
177.33 -811.31 1710.0
181.35 -809.42 1706.0
182.30 -794.31 1674.2
188.00 -800.09 1686.4
195.81 -814.40 1716.5
199.80 -812.50 1712.5
202.36 -805.05 1696.8
207.04 -806.13 1699.1
208.26 -794.00 1673.5
229.05 -821.87 1732.3
242.82 -838.43 1767.2
245.49 -788.15 1661.2
255.51 -806.17 1699.2
265.03 -822.05 1732.7
270.69 -825.61 1740.2
274.40 -823.21 1735.1
277.66 -819.55 1727.4
277.23 -805.28 1697.3
287.60 -785.53 1655.7
299.96 -807.25 1701.5
304.10 -806.54 1700.0
317.46 -829.92 1749.3
320.72 -826.65 1742.4
326.71 -807.95 1702.9
325.81 -794.97 1675.6
331.21 -787.16 1659.1
337.17 -791.05 1667.3
344.99 -799.15 1684.4
357.31 -817.35 1722.8
360.13 -813.63 1714.9
363.67 -811.60 1710.6
370.80 -817.55 1723.2
361.98 -788.59 1662.1
372.80 -784.17 1652.8
380.95 -792.20 1669.7
391.22 -804.42 1695.5
401.41 -816.21 1720.3
412.77 -830.07 1749.6
409.73 -815.01 1717.8
423.56 -782.94 1650.2
421.46 -771.26 1625.6
455.92 -794.61 1674.8
464.35 -801.66 1689.7
458.51 -784.17 1652.8
477.06 -793.65 1672.8
478.86 -789.47 1664.0
485.43 -793.16 1671.8
497.67 -805.96 1698.8
489.40 -785.62 1655.9
485.34 -765.67 1613.8
511.43 -799.94 1686.0
539.23 -789.43 1663.9
545.75 -792.63 1670.7
541.74 -780.62 1645.3
556.57 -795.72 1677.2
572.71 -812.44 1712.4
573.57 -807.40 1701.8
583.40 -808.80 1704.7
569.59 -777.87 1639.5
581.90 -788.79 1662.6
585.81 -788.26 1661.4
610.20 -803.36 1693.3
621.33 -812.17 1711.8
627.70 -797.71 1681.4
641.26 -809.32 1705.8
655.58 -821.72 1732.0
647.87 -806.54 1700.0
652.77 -801.73 1689.8
686.51 -837.54 1765.3
683.57 -828.44 1746.1
640.97 -771.69 1626.5
635.94 -760.63 1603.2
666.76 -792.32 1670.0
667.18 -787.70 1660.3
665.45 -775.65 1634.9
680.28 -787.92 1660.7
698.75 -784.49 1653.5
731.17 -815.88 1719.7
746.59 -828.04 1745.3
742.55 -818.59 1725.4
733.68 -803.97 1694.6
718.45 -782.59 1649.5
715.15 -774.39 1632.2
715.11 -769.79 1622.5
705.72 -755.24 1591.8
727.58 -774.11 1631.6
763.14 -807.25 1701.5
758.24 -797.46 1680.8
769.47 -786.66 1658.1
787.88 -801.01 1688.3
797.41 -797.41 1680.7
793.96 -789.65 1664.4
794.42 -785.83 1656.3
794.83 -782.01 1648.3
805.64 -788.41 1661.8
815.70 -794.01 1673.5
809.21 -783.52 1651.4
829.05 -798.50 1683.0
840.83 -801.41 1689.2
794.62 -753.45 1588.1
819.13 -772.69 1628.6
856.70 -803.98 1694.6
848.02 -775.94 1635.5
868.11 -790.37 1665.9
854.96 -774.54 1632.5
844.24 -761.06 1604.1
869.62 -780.10 1644.2
880.44 -785.95 1656.6
870.45 -773.27 1629.8
883.91 -781.43 1647.0
897.00 -789.19 1663.4
898.72 -786.92 1658.6
888.06 -773.88 1631.1
927.25 -796.65 1679.1
944.29 -796.34 1678.5
946.83 -794.82 1675.3
915.58 -765.08 1612.6
892.78 -742.63 1565.3
889.39 -729.86 1538.4
934.34 -763.32 1608.9
946.00 -769.41 1621.7
973.61 -788.37 1661.7
956.30 -767.55 1617.8
942.54 -753.21 1587.6
969.44 -771.34 1625.8
962.71 -762.67 1607.5
1008.24 -765.59 1613.7
1005.49 -760.35 1602.6
983.90 -740.96 1561.7
1002.59 -736.84 1553.1
1053.66 -750.27 1581.4
1030.10 -727.83 1534.1
1060.05 -746.11 1572.6
1084.28 -757.34 1596.3
1087.29 -756.55 1594.6
1153.91 -796.85 1679.5
1145.94 -788.37 1661.7
1109.27 -760.29 1602.5
1105.60 -746.59 1573.6
1147.73 -772.19 1627.6
1179.82 -790.87 1666.9
1174.24 -784.25 1653.0
1163.16 -768.44 1619.7
1225.04 -806.41 1699.7
1161.39 -761.77 1605.6
1135.32 -739.37 1558.4
1159.08 -752.17 1585.4
1159.17 -749.57 1579.9
1130.42 -725.85 1529.9
1152.09 -737.17 1553.8
1155.98 -737.09 1553.6
1158.19 -735.93 1551.1
1174.96 -744.01 1568.2
1197.97 -755.96 1593.4
1208.12 -759.74 1601.3
1189.49 -745.47 1571.2
1182.29 -730.94 1540.6
1232.95 -759.70 1601.2
1288.98 -791.55 1668.4
1286.72 -787.52 1659.9
1252.80 -764.21 1610.7
1229.09 -747.25 1575.0
1180.41 -715.28 1507.6
1249.23 -749.54 1579.8
1221.64 -730.59 1539.9
1176.98 -701.59 1478.8
1260.63 -741.78 1563.5
1326.99 -778.33 1640.5
1288.37 -753.27 1587.7
1242.46 -724.11 1526.2
1290.15 -749.51 1579.8
1308.26 -757.63 1596.9
1270.39 -733.38 1545.8
1288.51 -741.50 1562.9
1341.39 -769.51 1621.9
-1615.98 -940.95 1972.5
-1645.24 -989.29 2073.8
-1588.83 -964.83 2022.6
-1587.25 -980.05 2054.4
-1601.35 -992.08 2079.7
-1593.73 -990.69 2076.8
-1571.33 -980.09 2054.5
-1559.22 -975.84 2045.6
-1483.73 -934.96 1959.9
-1549.14 -989.73 2074.7
-1501.39 -962.57 2017.8
-1519.47 -977.56 2049.2
-1454.58 -973.24 2040.2
-1353.14 -908.68 1904.8
-1380.48 -933.85 1957.6
-1352.93 -922.00 1932.8
-1332.30 -911.31 1910.4
-1355.84 -930.88 1951.4
-1329.42 -916.16 1920.5
-1230.72 -851.32 1784.6
-1178.37 -818.19 1715.1
-1153.08 -803.66 1684.7
-1162.54 -825.90 1731.3
-1208.35 -861.77 1806.5
-1201.82 -860.45 1803.7
-1083.67 -785.02 1645.6
-1101.40 -801.02 1679.1
-1076.53 -792.33 1660.9
-1125.17 -831.45 1743.0
-1065.58 -790.59 1657.3
-1093.56 -817.94 1714.6
-1130.00 -848.65 1779.0
-1120.57 -845.02 1771.4
-1069.65 -809.94 1697.9
-1071.74 -814.88 1708.2
-1137.15 -868.20 1820.0
-1096.84 -840.91 1762.8
-1020.15 -785.38 1646.4
-1025.65 -792.94 1662.2
-1017.98 -814.38 1707.2
-1023.99 -822.77 1724.7
-1000.27 -807.23 1692.2
-1010.92 -819.42 1717.7
-1013.52 -825.16 1729.8
-988.11 -808.06 1693.9
-986.06 -809.98 1697.9
-1015.91 -838.24 1757.2
-1019.77 -852.90 1787.9
-952.25 -800.07 1677.2
-935.38 -793.14 1662.6
-967.14 -823.86 1727.0
-928.96 -795.02 1666.6
-961.68 -834.67 1749.7
-885.37 -787.00 1649.8
-885.27 -798.48 1673.8
-898.04 -813.99 1706.3
-905.11 -824.46 1728.3
-889.53 -814.29 1707.0
-880.81 -810.35 1698.7
-889.86 -822.78 1724.8
-873.14 -811.41 1700.9
-859.88 -803.14 1683.6
-864.20 -811.29 1700.7
-865.12 -816.31 1711.2
-865.16 -820.56 1720.1
-849.93 -810.30 1698.6
-844.63 -809.44 1696.8
-858.51 -827.05 1733.7
-860.04 -832.88 1745.9
-848.98 -826.52 1732.6
-827.90 -810.28 1698.6
-828.21 -814.93 1708.3
-851.23 -842.08 1765.2
-840.23 -835.68 1751.8
-797.64 -797.64 1672.1
-781.17 -794.12 1664.7
-790.31 -807.88 1693.5
-787.35 -809.35 1696.6
-786.87 -836.90 1754.4
-767.28 -820.81 1720.6
-753.03 -810.28 1698.6
-745.53 -806.93 1691.5
-742.11 -807.98 1693.7
-744.16 -815.04 1708.5
-733.04 -807.66 1693.1
-716.92 -794.66 1665.8
-707.04 -788.45 1652.8
-700.80 -786.26 1648.2
-704.91 -795.72 1668.1
-703.61 -799.16 1675.3
-695.93 -795.35 1667.3
-703.01 -808.46 1694.8
-709.96 -821.59 1722.3
-707.42 -823.83 1727.0
-712.10 -834.56 1749.5
-697.47 -822.65 1724.5
-678.18 -805.06 1687.6
-683.46 -816.60 1711.8
-689.64 -829.37 1738.6
-685.30 -829.58 1739.0
-665.64 -811.11 1700.3
-668.67 -820.23 1719.4
-693.67 -856.61 1795.7
-685.59 -852.35 1786.8
-663.55 -830.57 1741.1
-652.72 -822.61 1724.4
-648.07 -822.38 1723.9
-635.76 -812.36 1702.9
-623.22 -801.91 1681.0
-638.55 -833.29 1746.8
-645.36 -848.19 1778.0
-624.80 -827.07 1733.8
-609.98 -813.30 1704.9
-614.82 -825.75 1731.0
-627.43 -848.87 1779.5
-626.85 -854.37 1791.0
-595.74 -843.20 1767.6
-593.27 -846.22 1773.9
-559.21 -803.87 1685.1
-552.03 -806.14 1689.9
-548.84 -807.89 1693.6
-538.38 -798.88 1674.7
-529.39 -791.94 1660.1
-523.65 -802.93 1683.2
-527.65 -815.86 1710.3
-516.77 -812.69 1703.6
-509.77 -808.60 1695.1
-511.78 -833.33 1746.9
-514.89 -845.89 1773.2
-504.80 -836.79 1754.1
-499.04 -834.76 1749.9
-458.25 -810.76 1699.6
-458.07 -818.31 1715.4
-464.08 -837.17 1754.9
-468.51 -853.53 1789.2
-458.19 -843.08 1767.3
-426.98 -809.94 1697.9
-438.13 -839.75 1760.4
-424.67 -822.52 1724.2
-426.85 -835.54 1751.5
-432.70 -865.40 1814.1
-362.21 -793.40 1663.2
-371.59 -823.76 1726.8
-326.31 -845.65 1772.7
-329.11 -865.08 1813.5
-316.88 -845.00 1771.4
-313.50 -848.29 1778.2
-304.04 -834.98 1750.4
-293.07 -829.61 1739.1
-292.96 -842.25 1765.6
-272.58 -796.11 1668.9
-268.49 -796.80 1670.3
-268.34 -809.42 1696.8
-246.47 -809.84 1697.7
-241.38 -807.52 1692.8
-231.91 -820.62 1720.2
-217.80 -785.79 1647.2
-205.16 -820.64 1720.3
-204.20 -834.97 1750.3
-199.20 -833.03 1746.3
-184.98 -830.18 1740.3
-181.26 -833.79 1747.8
-171.49 -809.10 1696.1
-169.79 -822.13 1723.4
-171.91 -854.90 1792.1
-164.61 -841.34 1763.7
-153.22 -829.21 1738.3
-147.90 -824.64 1728.7
-140.75 -809.33 1696.6
-137.54 -816.34 1711.3
-138.37 -848.69 1779.1
-134.80 -855.27 1792.9
-123.63 -812.44 1703.1
-115.33 -785.92 1647.5
-114.53 -810.53 1699.1
-112.30 -826.55 1732.7
-105.92 -812.04 1702.3
-100.66 -805.27 1688.1
-88.45 -813.72 1705.8
-85.41 -827.14 1733.9
-79.24 -810.02 1698.0
-75.04 -812.25 1702.7
-72.28 -831.25 1742.5
-54.71 -838.82 1758.4
-48.74 -815.20 1708.9
-38.97 -796.78 1670.3
-34.51 -793.81 1664.0
-26.10 -800.33 1677.7
-22.85 -840.82 1762.6
-18.27 -840.41 1761.7
0.00 -824.52 1728.4
4.42 -814.18 1706.7
39.63 -810.13 1698.2
44.12 -811.81 1701.8
48.76 -815.63 1709.8
52.54 -805.68 1688.9
56.71 -802.62 1682.5
60.90 -800.41 1677.9
76.67 -829.89 1739.7
81.39 -831.96 1744.0
84.61 -819.40 1717.7
86.67 -797.38 1671.5
116.21 -791.94 1660.1
130.74 -829.50 1738.9
141.01 -836.96 1754.5
140.98 -810.62 1699.3
142.89 -796.74 1670.2
146.32 -791.87 1660.0
152.40 -801.17 1679.5
159.91 -817.32 1713.3
162.85 -809.86 1697.7
164.74 -797.69 1672.2
167.68 -791.09 1658.3
172.96 -795.63 1667.9
178.87 -802.75 1682.8
182.02 -797.42 1671.6
187.81 -803.67 1684.7
196.03 -819.75 1718.4
199.73 -781.91 1639.1
213.24 -784.72 1645.0
225.50 -813.58 1705.5
232.28 -821.90 1722.9
237.04 -822.95 1725.1
246.24 -781.19 1637.6
250.55 -781.37 1638.0
263.54 -794.93 1666.4
275.38 -817.25 1713.2
282.79 -825.92 1731.4
287.33 -826.07 1731.7
288.26 -815.99 1710.5
295.18 -822.94 1725.1
308.74 -811.55 1701.2
316.48 -820.16 1719.3
326.53 -801.08 1679.3
335.65 -812.63 1703.5
344.64 -792.66 1661.6
356.99 -810.94 1699.9
371.23 -833.00 1746.2
363.39 -805.59 1688.7
368.05 -778.41 1631.8
385.83 -806.73 1691.1
395.33 -817.31 1713.3
404.32 -826.62 1732.8
415.50 -840.12 1761.1
411.65 -823.31 1725.9
408.98 -783.88 1643.2
429.48 -790.25 1656.6
427.34 -778.53 1632.0
444.30 -786.07 1647.8
457.88 -802.37 1682.0
463.67 -804.86 1687.2
469.97 -808.18 1694.2
459.40 -782.69 1640.7
476.10 -782.17 1639.6
485.45 -790.46 1657.0
505.32 -801.54 1680.2
527.26 -822.17 1723.5
509.95 -788.49 1652.9
517.16 -792.98 1662.3
512.44 -779.24 1633.5
542.28 -804.67 1686.8
539.85 -794.66 1665.8
521.49 -761.54 1596.4
530.52 -762.63 1598.7
545.59 -778.21 1631.3
584.33 -802.36 1682.0
576.85 -786.22 1648.1
601.68 -802.24 1681.7
609.58 -778.90 1632.8
619.48 -786.10 1647.9
630.42 -794.50 1665.5
641.44 -802.89 1683.1
645.01 -801.90 1681.0
638.03 -787.90 1651.7
646.15 -792.61 1661.5
676.30 -824.10 1727.5
666.20 -806.45 1690.5
713.82 -805.78 1689.1
715.49 -802.74 1682.8
745.58 -831.43 1742.9
745.42 -821.30 1721.7
729.16 -798.61 1674.1
713.06 -776.35 1627.4
701.92 -759.72 1592.6
776.02 -806.71 1691.1
791.30 -817.97 1714.7
766.88 -788.30 1652.5
735.97 -752.32 1577.1
815.63 -820.09 1719.1
812.42 -808.03 1693.8
772.61 -764.30 1602.2
792.94 -780.21 1635.5
812.60 -795.31 1667.2
812.17 -790.68 1657.5
836.07 -809.67 1697.3
838.48 -803.55 1684.5
826.09 -779.49 1634.0
835.85 -784.67 1644.9
867.39 -794.03 1664.5
891.43 -812.00 1702.2
867.58 -786.37 1648.5
879.24 -793.04 1662.4
894.43 -802.80 1682.9
889.72 -794.70 1665.9
864.45 -768.40 1610.8
853.25 -740.55 1552.4
873.87 -754.89 1582.5
927.23 -786.23 1648.1
925.34 -777.46 1629.8
940.13 -768.82 1611.6
964.02 -777.98 1630.9
953.40 -759.42 1592.0
982.83 -779.49 1634.0
961.21 -759.07 1591.2
989.12 -758.32 1589.7
995.19 -759.82 1592.8
963.34 -732.45 1535.4
991.06 -750.43 1573.1
1045.70 -788.56 1653.0
1052.41 -790.38 1656.9
1063.62 -795.55 1667.7
1036.34 -772.01 1618.3
1028.58 -751.03 1574.4
1075.93 -782.49 1640.3
1079.58 -782.06 1639.4
1061.20 -765.73 1605.2
1065.29 -765.68 1605.1
1088.96 -779.64 1634.3
1078.63 -769.25 1612.6
1039.19 -738.26 1547.6
1086.86 -757.51 1587.9
1135.68 -788.55 1653.0
1122.39 -776.39 1627.5
1081.78 -734.49 1539.7
1112.01 -752.24 1576.9
1139.68 -768.13 1610.2
1200.07 -800.05 1677.1
1216.00 -804.83 1687.2
1204.86 -794.60 1665.7
1216.65 -799.51 1676.0
1162.54 -761.24 1595.8
1131.32 -732.97 1536.5
1140.73 -736.47 1543.8
1181.32 -760.01 1593.2
1189.18 -762.40 1598.2
1189.80 -760.15 1593.5
1198.80 -763.25 1600.0
1215.12 -770.97 1616.2
1228.11 -776.54 1627.8
1212.94 -764.32 1602.2
1207.68 -750.72 1573.7
1199.59 -743.18 1557.9
1189.15 -734.24 1539.2
1233.00 -756.24 1585.3
1261.09 -770.90 1616.0
1267.34 -772.16 1618.7
1198.42 -727.75 1525.6
1174.38 -710.81 1490.1
1203.08 -725.79 1521.5
1176.00 -707.14 1482.4
1246.85 -737.69 1546.4
1237.68 -729.91 1530.1
1276.30 -750.29 1572.8
1306.78 -765.76 1605.2
1322.53 -772.53 1619.4
1311.57 -763.70 1600.9
1266.59 -735.18 1541.1
1276.93 -738.85 1548.8
1300.44 -750.10 1572.4
-1559.77 -918.97 1916.0
-1548.28 -921.00 1920.2
-1644.77 -981.55 2046.5
-1588.87 -960.59 2002.8
-1567.43 -950.74 1982.2
-1615.57 -983.16 2049.8
-1601.63 -977.90 2038.9
-1515.16 -931.24 1941.6
-1627.33 -1010.25 2106.3
-1539.81 -959.14 1999.8
-1559.07 -974.42 2031.6
-1569.69 -984.38 2052.4
-1505.63 -967.16 2016.5
-1510.94 -973.95 2030.6
-1542.87 -998.01 2080.8
-1515.29 -997.61 2080.0
-1491.26 -985.29 2054.3
-1448.74 -960.63 2002.9
-1466.34 -975.80 2034.5
-1457.19 -973.21 2029.1
-1452.93 -973.89 2030.5
-1438.40 -967.65 2017.5
-1415.27 -955.57 1992.3
-1451.95 -983.92 2051.4
-1434.22 -975.48 2033.8
-1360.89 -929.02 1936.9
-1349.82 -924.88 1928.3
-1361.68 -936.47 1952.5
-1362.87 -944.31 1968.8
-1198.98 -840.19 1751.7
-1198.30 -842.91 1757.4
-1172.53 -827.93 1726.2
-1210.42 -857.96 1788.8
-1200.75 -861.00 1795.1
-1080.95 -796.72 1661.1
-1095.56 -820.56 1710.8
-1123.63 -845.01 1761.8
-1124.67 -849.24 1770.6
-1142.51 -866.25 1806.1
-1116.25 -849.82 1771.8
-1093.08 -835.62 1742.2
-1133.34 -869.99 1813.9
-1123.40 -865.96 1805.5
-1066.67 -825.67 1721.5
-1041.39 -809.48 1687.7
-1018.17 -794.78 1657.1
-1055.29 -845.15 1762.1
-1038.49 -835.31 1741.6
-1002.89 -810.19 1689.2
-993.37 -806.02 1680.5
-1017.62 -829.34 1729.1
-1011.32 -827.85 1726.0
-976.16 -802.62 1673.4
-1019.81 -849.84 1771.9
-1029.96 -862.18 1797.6
-1004.78 -844.93 1761.6
-962.23 -820.33 1710.3
-993.85 -851.22 1774.7
-952.91 -819.95 1709.5
-922.97 -797.90 1663.6
-950.27 -825.35 1720.8
-966.67 -843.56 1758.8
-933.00 -833.84 1738.5
-884.65 -794.47 1656.4
-873.81 -788.56 1644.1
-912.53 -827.54 1725.4
-938.89 -855.64 1784.0
-904.79 -828.64 1727.7
-900.16 -845.33 1762.5
-889.72 -839.78 1750.9
-797.44 -797.44 1662.6
-793.01 -797.32 1662.4
-803.92 -812.71 1694.4
-791.80 -809.30 1687.3
-782.27 -804.00 1676.3
-737.87 -802.97 1674.2
-731.54 -800.80 1669.6
-726.93 -815.04 1699.3
-711.28 -802.36 1672.9
-708.56 -804.19 1676.7
-696.61 -795.52 1658.6
-676.29 -802.01 1672.1
-670.42 -800.17 1668.3
-677.77 -814.20 1697.6
-686.66 -830.28 1731.1
-690.38 -840.27 1751.9
-676.69 -829.06 1728.5
-665.35 -831.69 1734.0
-663.28 -834.74 1740.4
-654.07 -828.79 1728.0
-651.66 -831.43 1733.5
-639.33 -821.36 1712.5
-627.41 -811.69 1692.3
-639.85 -839.52 1750.4
-638.66 -862.42 1798.1
-623.55 -860.86 1794.9
-607.43 -844.92 1761.6
-593.73 -844.93 1761.6
-592.44 -849.62 1771.4
-575.90 -832.35 1735.4
-579.16 -843.66 1759.0
-569.88 -836.73 1744.5
-550.57 -814.84 1698.9
-555.14 -828.23 1726.8
-561.51 -844.54 1760.8
-540.56 -819.70 1709.0
-532.62 -821.12 1712.0
-535.73 -832.86 1736.5
-529.96 -830.86 1732.3
-524.20 -828.86 1728.1
-516.88 -824.34 1718.7
-509.35 -819.39 1708.4
-509.60 -826.98 1724.2
-518.70 -849.20 1770.5
-522.76 -863.49 1800.3
-513.12 -855.19 1783.0
-502.31 -844.79 1761.3
-486.17 -825.15 1720.4
-474.53 -828.20 1726.7
-466.26 -821.51 1712.8
-454.27 -808.08 1684.8
-452.49 -812.72 1694.5
-456.22 -827.45 1725.2
-457.04 -837.15 1745.4
-451.61 -835.48 1741.9
-431.54 -806.41 1681.3
-428.78 -817.78 1705.0
-446.03 -859.54 1792.1
-438.35 -853.64 1779.8
-415.46 -835.44 1741.8
-401.57 -816.38 1702.1
-383.34 -796.83 1661.3
-381.42 -801.86 1671.8
-387.82 -824.68 1719.4
-382.75 -823.36 1716.7
-368.37 -821.07 1711.9
-346.32 -800.87 1669.8
-347.04 -812.69 1694.4
-336.90 -820.08 1709.8
-336.05 -828.92 1728.3
-320.75 -835.76 1742.5
-318.06 -865.30 1804.1
-299.72 -827.59 1725.5
-293.26 -847.70 1767.4
-283.53 -832.59 1735.9
-272.52 -813.18 1695.4
-266.24 -807.45 1683.5
-252.00 -817.90 1705.3
-251.94 -832.30 1735.3
-245.86 -826.98 1724.2
-236.57 -810.48 1689.8
-234.10 -817.16 1703.7
-234.82 -835.42 1741.8
-215.99 -815.48 1700.2
-214.43 -826.43 1723.1
-211.21 -831.37 1733.4
-206.77 -831.58 1733.8
-196.45 -825.96 1722.1
-188.63 -811.53 1692.0
-184.51 -832.56 1735.8
-180.70 -835.76 1742.5
-170.87 -810.53 1689.9
-166.61 -811.13 1691.2
-165.96 -829.82 1730.1
-163.61 -840.76 1752.9
-159.42 -842.64 1756.9
-154.73 -841.94 1755.4
-138.27 -825.13 1720.4
-134.25 -827.86 1726.0
-121.68 -803.95 1676.2
-119.37 -817.88 1705.2
-115.69 -823.18 1716.3
-110.73 -819.41 1708.4
-103.12 -794.91 1657.3
-89.63 -789.59 1646.2
-89.67 -829.42 1729.3
-86.26 -839.87 1751.1
-79.92 -821.38 1712.5
-75.52 -821.89 1713.6
-70.83 -818.94 1707.4
-63.67 -785.30 1637.3
-56.89 -809.62 1688.0
-54.45 -839.51 1750.3
-49.43 -831.35 1733.3
-43.49 -804.59 1677.5
-38.62 -793.82 1655.1
-34.83 -805.53 1679.5
-30.46 -805.13 1678.7
-25.97 -800.84 1669.7
-22.05 -816.00 1701.3
-17.69 -818.18 1705.9
-4.45 -823.40 1716.7
0.00 -835.94 1742.9
39.42 -810.25 1689.3
43.47 -804.16 1676.6
47.50 -798.92 1665.7
52.13 -803.63 1675.5
57.23 -814.38 1697.9
61.49 -812.59 1694.2
74.49 -810.65 1690.2
78.87 -810.58 1690.0
81.82 -796.67 1661.0
85.00 -786.22 1639.2
88.65 -780.95 1628.2
105.76 -815.20 1699.6
113.12 -837.11 1745.3
116.05 -825.77 1721.7
116.41 -797.60 1662.9
119.59 -790.14 1647.4
128.64 -820.65 1711.0
135.65 -836.48 1744.0
136.17 -812.62 1694.3
137.78 -796.53 1660.7
141.29 -792.08 1651.4
147.21 -800.98 1670.0
156.48 -827.13 1724.5
162.10 -833.00 1736.8
163.38 -816.89 1703.2
167.23 -814.14 1697.4
172.23 -816.99 1703.4
174.19 -805.62 1679.7
176.98 -798.55 1664.9
178.91 -788.04 1643.0
183.93 -791.31 1649.8
194.40 -817.36 1704.2
196.26 -806.84 1682.2
247.40 -817.29 1704.0
252.14 -818.33 1706.2
246.81 -787.23 1641.3
278.24 -843.84 1759.4
284.29 -848.27 1768.6
285.28 -837.72 1746.6
296.37 -856.68 1786.1
302.06 -846.68 1765.3
290.75 -802.80 1673.8
302.62 -799.79 1667.5
315.85 -789.62 1646.3
329.49 -812.74 1694.5
345.59 -799.17 1666.2
360.18 -822.63 1715.1
363.71 -820.57 1710.8
384.24 -807.79 1684.2
398.21 -827.73 1725.8
394.67 -811.27 1691.4
408.94 -822.33 1714.5
415.31 -826.16 1722.5
419.49 -816.91 1703.2
420.63 -810.59 1690.0
434.08 -803.05 1674.3
440.49 -806.84 1682.2
452.95 -813.56 1696.2
455.69 -810.60 1690.1
458.63 -808.07 1684.8
454.57 -793.36 1654.1
467.78 -801.29 1670.6
469.57 -775.64 1617.2
494.59 -775.42 1616.7
514.83 -800.36 1668.7
525.86 -810.71 1690.3
525.02 -802.72 1673.6
531.06 -773.60 1612.9
574.22 -792.77 1652.9
572.40 -784.41 1635.4
595.30 -798.04 1663.9
593.83 -779.14 1624.5
589.44 -767.93 1601.1
610.61 -789.95 1647.0
630.72 -810.30 1689.4
636.57 -812.18 1693.3
694.45 -783.38 1633.3
726.93 -815.04 1699.3
730.40 -814.00 1697.1
713.49 -790.39 1647.9
723.29 -760.28 1585.1
777.27 -812.40 1693.8
795.07 -817.15 1703.7
782.45 -799.74 1667.4
804.47 -808.84 1686.4
777.99 -777.99 1622.1
769.03 -760.81 1586.2
839.42 -808.81 1686.3
829.74 -783.17 1632.9
855.82 -803.69 1675.6
866.96 -810.04 1688.9
867.61 -806.57 1681.7
830.11 -767.85 1600.9
848.39 -780.86 1628.0
890.70 -815.74 1700.8
885.30 -806.80 1682.1
878.09 -796.31 1660.3
874.68 -789.34 1645.7
885.95 -795.64 1658.9
877.24 -784.01 1634.6
860.55 -750.95 1565.7
876.73 -761.48 1587.6
869.28 -751.48 1566.8
900.25 -767.50 1600.2
947.39 -800.31 1668.6
982.98 -757.71 1579.8
961.54 -738.12 1538.9
965.06 -737.75 1538.2
1028.34 -782.89 1632.3
1046.39 -793.37 1654.1
1017.82 -768.56 1602.4
1049.36 -789.15 1645.3
1046.56 -783.86 1634.3
1011.06 -742.25 1547.5
1062.90 -777.22 1620.5
1072.14 -780.89 1628.1
1058.36 -767.83 1600.9
1073.18 -769.53 1604.4
1052.40 -751.72 1567.3
1060.33 -743.03 1549.2
1087.98 -759.54 1583.6
1099.40 -764.62 1594.2
1100.31 -756.72 1577.7
1121.38 -768.36 1602.0
1130.77 -771.93 1609.4
1118.72 -760.89 1586.4
1150.42 -771.12 1607.7
1173.47 -783.73 1634.0
1175.36 -782.16 1630.8
1193.62 -791.47 1650.2
1211.95 -800.76 1669.5
1166.12 -767.73 1600.7
1132.72 -740.47 1543.8
1187.17 -767.92 1601.1
1207.86 -778.58 1623.3
1218.57 -782.76 1632.0
1239.39 -793.38 1654.2
1231.11 -785.36 1637.4
1217.14 -773.78 1613.3
1165.87 -738.65 1540.0
1239.86 -774.91 1615.6
1218.73 -759.14 1582.8
1268.29 -779.51 1625.2
1282.64 -785.72 1638.2
1215.53 -742.16 1547.4
1190.39 -724.42 1510.4
1220.28 -740.17 1543.2
1204.89 -728.45 1518.8
1224.09 -723.50 1508.5
1286.40 -757.91 1580.2
1340.05 -787.01 1640.9
1333.89 -780.92 1628.2
1291.96 -753.99 1572.0
1264.76 -735.79 1534.1
1251.18 -725.61 1512.8
-1592.66 -955.60 1981.6
-1618.54 -974.27 2020.4
-1604.00 -968.65 2008.7
-1609.88 -975.37 2022.7
-1545.36 -939.34 1947.9
-1628.38 -1009.60 2093.6
-1605.85 -998.95 2071.6
-1567.67 -985.09 2042.8
-1525.80 -968.60 2008.6
-1523.38 -970.37 2012.3
-1488.34 -951.31 1972.8
-1498.85 -961.33 1993.5
-1560.75 -1004.50 2083.1
-1579.47 -1023.63 2122.7
-1554.56 -1011.01 2096.6
-1495.98 -986.71 2046.2
-1467.76 -975.01 2021.9
-1387.17 -931.46 1931.6
-1434.02 -966.40 2004.1
-1422.24 -961.95 1994.8
-1402.40 -951.99 1974.2
-1413.81 -963.26 1997.5
-1375.81 -940.81 1951.0
-1337.98 -918.32 1904.3
-1354.18 -932.88 1934.5
-1320.27 -912.90 1893.1
-1301.89 -903.55 1873.7
-1330.14 -926.61 1921.5
-1262.17 -882.57 1830.2
-1198.10 -844.11 1750.5
-1238.76 -876.08 1816.8
-1254.65 -890.70 1847.1
-1223.05 -871.60 1807.5
-1141.78 -816.81 1693.9
-1126.67 -809.11 1677.9
-1174.05 -846.41 1755.2
-1189.75 -861.06 1785.6
-1154.01 -838.46 1738.7
-1116.92 -814.69 1689.5
-1115.21 -816.65 1693.5
-1113.99 -818.98 1698.3
-1107.68 -817.57 1695.4
-1106.94 -820.28 1701.0
-1071.38 -797.11 1653.0
-1057.03 -799.21 1657.4
-1063.72 -807.56 1674.7
-1083.72 -826.11 1713.1
-1094.67 -837.90 1737.6
-1106.51 -850.46 1763.6
-1077.53 -831.62 1724.6
-1051.27 -821.58 1703.7
-1030.94 -809.09 1677.8
-1038.80 -836.43 1734.5
-1020.17 -825.00 1710.8
-1004.46 -815.85 1691.9
-1010.91 -824.69 1710.2
-1026.19 -840.84 1743.7
-1011.92 -832.82 1727.0
-1001.43 -827.85 1716.7
-1013.70 -841.73 1745.5
-995.66 -837.97 1737.7
-972.44 -822.16 1704.9
-936.85 -799.33 1657.6
-979.54 -839.60 1741.1
-992.60 -854.74 1772.5
-987.59 -854.38 1771.8
-993.30 -863.34 1790.3
-956.63 -835.36 1732.3
-914.86 -802.66 1664.5
-915.69 -822.80 1706.3
-882.62 -796.93 1652.6
-907.90 -827.79 1716.6
-924.83 -847.38 1757.2
-881.43 -811.61 1683.1
-872.58 -811.50 1682.8
-845.81 -790.56 1639.4
-863.72 -811.37 1682.6
-896.90 -846.82 1756.1
