ply
format ascii 1.0
element vertex 2275
property float x
property float y
property float z
end_header
758.37 666.63 2359.0
734.47 640.46 2266.4
732.62 633.78 2242.7
752.11 645.51 2284.2
775.13 660.07 2335.8
792.26 669.43 2368.9
803.37 673.60 2383.6
805.54 670.26 2371.8
798.89 659.69 2334.4
786.39 644.49 2280.6
776.18 631.37 2234.2
782.02 631.41 2234.3
840.74 659.29 2333.0
883.37 682.89 2416.5
850.54 652.88 2310.3
850.81 648.52 2294.9
862.85 653.13 2311.2
862.36 648.26 2294.0
883.36 659.50 2333.7
913.49 677.35 2396.9
936.62 689.81 2441.0
949.49 689.96 2441.5
927.53 669.54 2369.3
926.88 664.67 2352.0
975.71 695.11 2459.8
1025.38 725.76 2568.2
1023.60 719.83 2547.2
1039.50 726.32 2570.2
1046.64 722.05 2555.1
1050.89 720.42 2549.3
560.07 703.34 2511.9
569.47 706.93 2524.8
541.61 657.24 2347.3
566.04 671.79 2399.2
583.85 663.75 2370.5
563.80 634.27 2265.3
593.61 647.58 2312.8
617.43 666.82 2381.5
622.01 665.12 2375.4
625.57 662.37 2365.6
637.80 668.77 2388.4
645.62 670.45 2394.5
649.40 667.95 2385.5
648.27 660.51 2358.9
647.53 653.58 2334.2
658.12 658.12 2350.4
665.90 659.79 2356.4
658.07 646.11 2307.5
649.48 631.92 2256.9
666.22 642.42 2294.4
683.95 653.68 2334.6
671.75 636.40 2272.9
671.13 630.28 2251.0
691.26 643.59 2298.5
694.79 641.34 2290.5
697.71 638.58 2280.7
719.95 653.40 2333.6
755.80 669.07 2389.5
746.20 655.20 2340.0
726.60 632.85 2260.2
718.54 620.82 2217.2
734.88 629.89 2249.6
749.55 637.41 2276.5
767.08 647.22 2311.5
778.64 651.89 2328.2
783.80 651.15 2325.6
791.42 652.47 2330.2
789.99 646.35 2308.4
792.86 643.82 2299.4
798.86 643.85 2299.5
811.88 649.50 2319.6
820.49 651.56 2327.0
818.77 645.45 2305.2
837.47 655.41 2340.8
856.33 665.35 2376.2
867.42 659.73 2356.2
849.64 641.69 2291.7
845.77 634.33 2265.5
868.67 647.01 2310.7
915.39 677.14 2418.4
921.27 676.85 2417.3
919.16 670.74 2395.5
944.49 684.60 2445.0
941.28 677.72 2420.4
924.91 661.52 2362.6
929.91 660.73 2359.7
979.50 691.41 2469.3
1030.29 722.54 2580.5
569.63 700.58 2525.4
565.14 687.16 2477.1
548.04 658.87 2375.1
563.08 662.08 2386.7
577.47 671.62 2421.1
575.28 661.88 2385.9
580.91 661.25 2383.7
578.22 651.26 2347.7
571.85 637.38 2297.6
576.07 635.45 2290.7
581.91 635.35 2290.3
598.31 646.66 2331.1
619.75 663.14 2390.5
622.65 659.64 2377.9
611.40 641.37 2312.0
607.80 631.41 2276.1
628.92 647.07 2332.5
645.75 658.05 2372.1
651.50 657.64 2370.7
657.75 657.75 2371.1
656.45 650.37 2344.5
651.86 639.90 2306.7
658.48 640.53 2309.0
665.38 641.40 2312.1
659.89 630.43 2272.6
656.93 622.05 2242.4
669.16 628.07 2264.1
692.25 644.10 2321.8
704.77 650.09 2343.4
700.27 640.42 2308.6
697.29 632.29 2279.3
714.12 642.11 2314.7
715.90 638.34 2301.1
704.00 622.55 2244.2
722.74 633.88 2285.0
734.32 638.80 2302.8
724.39 625.08 2253.3
726.43 621.83 2241.6
747.94 635.15 2289.6
769.06 647.94 2335.7
777.60 650.02 2343.2
779.42 646.50 2330.5
782.11 643.74 2320.5
787.55 643.26 2318.8
786.71 637.71 2298.8
789.87 635.46 2290.7
804.73 642.59 2316.4
826.75 655.27 2362.1
844.79 664.65 2395.9
852.94 666.16 2401.4
847.10 656.81 2367.7
840.77 647.21 2333.1
853.42 652.26 2351.3
855.86 649.48 2341.3
857.24 645.95 2328.5
858.22 642.17 2314.9
856.09 636.12 2293.1
883.15 651.70 2349.3
911.48 668.00 2408.0
896.99 652.91 2353.6
898.20 649.37 2340.9
925.86 664.88 2396.8
936.22 667.84 2407.4
934.28 662.04 2386.5
942.53 663.49 2391.7
993.64 694.90 2505.0
1043.98 716.06 2581.3
581.61 692.71 2520.6
585.64 689.75 2509.9
592.94 690.67 2513.2
591.95 682.03 2481.8
581.53 662.82 2411.9
579.45 653.42 2377.7
585.52 653.31 2377.3
587.38 648.57 2360.0
592.22 647.17 2354.9
597.50 646.28 2351.7
606.85 649.76 2364.4
621.60 658.89 2397.6
623.77 654.65 2382.2
611.78 635.77 2313.5
603.69 621.28 2260.7
619.25 631.16 2296.7
634.22 640.26 2329.8
637.56 637.56 2319.9
649.63 643.56 2341.8
654.51 642.39 2337.5
661.20 643.01 2339.8
679.31 654.61 2382.0
681.84 651.12 2369.3
671.09 635.14 2311.1
665.49 624.27 2271.6
675.60 628.19 2285.9
693.23 638.98 2325.1
698.24 638.04 2321.7
698.73 633.04 2303.5
701.11 629.82 2291.8
711.71 633.96 2306.9
708.58 625.91 2277.6
705.09 612.62 2229.2
718.02 618.78 2251.6
710.32 607.21 2209.5
725.98 615.63 2240.2
760.10 639.45 2326.9
769.82 642.53 2338.0
767.40 635.50 2312.5
769.46 632.27 2300.7
771.14 628.78 2288.0
781.17 632.09 2300.1
783.73 629.36 2290.1
780.88 622.35 2264.6
789.65 624.65 2273.0
791.43 621.42 2261.2
801.93 620.47 2257.8
803.57 617.24 2246.0
820.26 625.52 2276.2
856.24 648.30 2359.0
862.02 648.04 2358.1
866.11 646.53 2352.6
869.16 644.27 2344.4
868.45 639.28 2326.2
855.38 625.31 2275.4
892.00 643.21 2340.5
935.01 660.74 2404.3
954.95 670.36 2439.3
987.83 688.88 2506.7
1008.51 698.70 2542.5
1022.51 703.81 2561.0
1039.13 710.63 2585.8
1027.51 698.18 2540.5
591.43 675.00 2479.6
576.45 650.84 2390.8
566.76 633.09 2325.6
565.77 625.32 2297.1
581.21 635.70 2335.2
598.95 648.35 2381.7
602.40 645.43 2371.0
611.08 648.11 2380.8
615.43 646.20 2373.8
607.01 631.05 2318.1
615.13 633.22 2326.1
626.77 638.94 2347.1
625.17 631.18 2318.6
623.43 623.43 2290.2
620.01 614.16 2256.1
624.95 613.27 2252.8
642.13 624.30 2293.3
661.35 637.08 2340.3
668.85 638.45 2345.3
661.65 625.89 2299.2
659.90 618.65 2272.6
662.36 615.47 2260.9
666.69 614.05 2255.7
677.62 618.70 2272.8
684.17 619.29 2275.0
686.23 615.85 2262.3
699.84 622.74 2287.6
722.13 637.17 2340.6
741.78 649.06 2384.3
747.45 648.61 2382.7
739.38 636.35 2337.6
732.27 625.11 2296.3
721.71 611.12 2244.9
732.38 615.20 2259.9
760.26 633.55 2327.3
763.02 630.84 2317.4
778.23 638.39 2345.1
799.09 650.42 2389.3
776.86 627.47 2305.0
761.08 610.03 2240.9
776.05 617.31 2267.7
783.87 618.84 2273.3
787.26 616.88 2266.1
782.62 608.70 2236.0
803.37 615.73 2261.8
818.41 622.70 2287.5
848.99 641.32 2355.9
881.20 660.90 2427.8
882.15 656.92 2413.2
873.65 646.01 2373.1
864.28 634.61 2331.2
865.91 631.39 2319.4
921.51 658.22 2417.9
950.34 669.70 2460.1
918.69 643.08 2362.3
930.06 646.73 2375.7
956.77 660.92 2427.9
972.27 667.24 2451.1
997.94 680.41 2499.5
1029.96 697.72 2563.0
566.45 677.13 2511.3
570.82 667.02 2473.8
547.69 632.89 2347.2
567.47 648.54 2405.3
582.37 658.33 2441.6
570.69 638.19 2366.9
566.20 626.43 2323.3
564.04 617.47 2290.1
578.06 626.23 2322.6
594.60 637.51 2364.4
596.81 633.35 2349.0
607.85 638.54 2368.2
615.08 639.69 2372.5
592.92 610.53 2264.3
622.66 628.71 2331.7
646.72 646.72 2398.5
641.86 635.75 2357.9
634.24 622.27 2307.9
641.89 623.89 2313.9
663.14 638.58 2368.4
670.96 640.19 2374.3
666.86 630.49 2338.4
659.38 617.79 2291.3
658.41 611.38 2267.5
668.75 615.49 2282.7
680.54 620.84 2302.6
690.20 624.18 2315.0
696.85 624.77 2317.1
692.27 615.35 2282.2
698.85 615.93 2284.4
707.71 618.51 2293.9
713.75 618.58 2294.2
727.02 624.88 2317.5
726.39 619.22 2296.5
724.47 612.56 2271.9
718.58 602.68 2235.2
721.17 600.02 2225.3
740.26 611.01 2266.1
758.02 620.74 2302.2
789.37 641.36 2378.7
804.55 643.64 2387.1
783.03 621.65 2305.6
791.88 623.90 2313.9
803.28 628.13 2329.6
810.94 629.38 2334.3
819.89 631.62 2342.6
833.72 637.55 2364.5
833.37 632.63 2346.3
826.07 622.54 2308.9
840.94 629.19 2333.5
855.26 635.34 2356.3
862.69 636.31 2359.9
861.09 630.66 2339.0
861.41 626.48 2323.5
871.49 629.41 2334.4
875.48 627.93 2328.9
893.51 636.47 2360.5
902.70 638.64 2368.6
893.51 627.87 2328.6
918.73 641.26 2378.3
939.96 651.70 2417.0
928.12 639.23 2370.8
929.22 635.78 2358.0
933.84 634.77 2354.2
948.87 640.79 2376.6
980.27 657.73 2439.4
1014.13 676.09 2507.5
1040.98 689.57 2557.5
1041.57 685.59 2542.7
552.68 669.71 2507.9
577.02 683.14 2558.2
579.04 677.74 2538.0
547.23 633.32 2371.6
556.04 629.37 2356.8
572.62 641.09 2400.8
565.14 625.91 2343.9
576.17 631.34 2364.2
588.00 637.51 2387.4
581.92 624.36 2338.1
578.68 614.47 2301.1
590.50 620.63 2324.1
611.11 635.80 2380.9
623.45 635.80 2380.9
648.12 641.89 2403.7
658.74 640.10 2397.0
665.06 640.20 2397.4
682.43 644.87 2414.9
673.38 630.53 2361.2
661.92 614.21 2300.1
664.75 611.33 2289.3
678.96 618.87 2317.6
685.06 618.96 2317.9
688.68 616.82 2309.8
698.67 620.37 2323.2
697.46 614.01 2299.3
687.36 599.98 2246.8
720.70 593.86 2223.9
735.28 601.06 2250.9
747.86 606.53 2271.3
756.25 608.54 2278.9
762.22 608.59 2279.1
756.41 599.31 2244.3
780.41 608.96 2280.4
819.87 634.94 2377.7
822.23 632.01 2366.8
825.82 630.07 2359.5
834.52 632.03 2366.8
828.66 623.00 2333.0
815.11 608.38 2278.3
822.03 609.13 2281.1
850.46 625.69 2343.1
874.51 638.83 2392.3
881.36 639.30 2394.0
889.90 640.98 2400.3
900.50 644.10 2412.0
907.39 644.56 2413.7
909.13 641.37 2401.8
900.11 630.69 2361.8
893.33 621.71 2328.2
924.85 639.33 2394.1
953.15 654.50 2451.0
945.98 645.27 2416.4
950.74 644.25 2412.6
958.70 645.40 2416.9
960.92 642.69 2406.8
556.77 668.12 2526.5
567.03 672.52 2543.2
574.23 665.58 2516.9
559.54 641.28 2425.0
561.57 636.44 2406.7
560.38 628.12 2375.3
550.95 610.84 2309.9
572.17 620.86 2347.8
586.04 629.22 2379.4
581.58 617.93 2336.7
576.67 606.39 2293.1
586.57 610.51 2308.7
596.79 614.87 2325.1
606.11 618.23 2337.8
619.90 626.04 2367.4
608.57 608.57 2301.3
637.25 596.32 2255.0
643.75 596.93 2257.3
650.25 597.53 2259.6
672.17 612.15 2314.9
680.18 613.97 2321.7
679.98 608.40 2300.7
677.18 600.63 2271.3
679.54 597.52 2259.5
694.78 605.71 2290.5
700.81 605.79 2290.8
699.12 599.25 2266.1
710.56 603.98 2283.9
715.40 603.07 2280.5
702.68 587.49 2221.6
717.67 595.14 2250.5
751.78 618.40 2338.5
761.79 621.62 2350.7
763.11 617.76 2336.1
763.46 613.17 2318.7
759.44 605.18 2288.5
758.05 599.39 2266.6
746.94 586.06 2216.2
798.84 612.64 2316.7
813.79 619.45 2342.5
807.38 610.02 2306.8
805.97 604.48 2285.8
827.18 615.86 2328.9
843.37 623.36 2357.2
821.84 603.08 2280.5
821.48 598.51 2263.3
861.35 623.10 2356.3
887.56 637.55 2410.9
884.33 630.78 2385.3
883.36 625.71 2366.1
900.39 633.38 2395.1
913.08 637.91 2412.3
916.87 636.19 2405.8
924.09 636.87 2408.3
940.07 643.54 2433.5
951.23 646.83 2446.0
959.61 648.21 2451.2
980.82 658.19 2488.9
998.98 665.99 2518.4
1010.79 669.49 2531.7
1019.76 671.07 2537.6
1003.62 656.21 2481.5
1047.15 676.01 2556.3
570.05 661.78 2527.3
580.61 666.38 2544.9
582.54 661.09 2524.7
582.83 654.06 2497.8
579.86 643.58 2457.8
568.15 623.73 2382.0
569.01 617.96 2360.0
586.05 629.69 2404.8
598.21 635.99 2428.8
597.85 628.98 2402.1
595.45 620.01 2367.8
595.52 613.75 2343.9
595.94 607.98 2321.8
596.25 602.21 2299.8
600.38 600.38 2292.8
606.21 600.27 2292.4
644.13 591.43 2258.6
670.48 610.08 2329.9
675.27 608.95 2325.6
666.68 595.88 2275.6
668.28 592.08 2261.1
666.49 585.35 2235.4
672.40 585.45 2235.8
691.25 596.72 2278.8
702.08 600.93 2294.9
705.25 598.58 2285.9
719.33 605.44 2312.1
725.70 605.75 2313.3
724.45 599.75 2290.4
749.63 615.55 2350.7
779.53 624.86 2386.3
777.25 618.13 2360.6
775.77 612.13 2337.7
777.88 609.04 2325.9
782.09 607.62 2320.5
775.97 598.27 2284.8
770.31 589.41 2250.9
791.70 601.22 2296.0
812.66 612.53 2339.2
812.34 607.75 2321.0
814.18 604.65 2309.1
839.68 619.03 2364.1
854.97 625.74 2389.7
829.88 603.01 2302.9
838.83 600.87 2294.7
872.97 620.91 2371.2
880.78 622.09 2375.7
868.91 609.44 2327.4
874.92 609.43 2327.4
878.87 607.99 2321.9
874.83 601.08 2295.5
889.46 607.00 2318.1
913.99 619.55 2366.0
927.11 624.25 2384.0
934.64 625.16 2387.5
982.80 653.04 2493.9
1031.43 680.88 2600.2
1038.02 680.78 2599.9
1042.06 679.02 2593.1
1022.39 661.93 2527.9
1026.23 660.19 2521.2
1075.17 678.70 2591.9
574.02 659.80 2544.9
576.22 654.79 2525.6
579.19 650.77 2510.1
579.87 644.30 2485.2
588.89 647.13 2496.1
587.16 638.22 2461.7
582.08 625.89 2414.2
594.90 632.87 2441.1
596.95 628.36 2423.7
587.43 611.90 2360.2
593.68 612.04 2360.7
601.60 613.88 2367.8
604.25 610.36 2354.2
606.83 606.83 2340.6
614.99 608.90 2348.6
624.92 612.67 2363.2
629.67 611.33 2358.0
616.20 592.50 2285.4
634.90 587.87 2267.5
646.71 593.31 2288.5
663.40 603.09 2326.2
673.29 606.57 2339.6
661.33 590.47 2277.5
664.34 587.91 2267.7
677.75 594.52 2293.1
685.18 595.81 2298.1
700.18 603.60 2328.2
713.35 609.70 2351.7
719.52 609.76 2351.9
707.09 594.20 2291.9
705.33 587.78 2267.1
730.18 603.46 2327.6
747.71 612.87 2363.9
733.25 596.14 2299.4
720.26 580.86 2240.4
737.23 589.78 2274.9
750.73 595.82 2298.2
747.94 588.93 2271.6
745.64 582.53 2246.9
771.24 597.86 2306.0
799.91 615.31 2373.3
803.59 613.43 2366.1
808.80 612.73 2363.4
819.07 615.84 2375.4
828.11 617.99 2383.7
841.03 622.99 2403.0
850.56 620.85 2394.7
829.92 601.39 2319.7
843.52 606.85 2340.7
866.49 618.92 2387.3
865.99 614.18 2369.0
877.15 617.71 2382.6
891.41 623.36 2404.4
887.07 616.02 2376.1
891.48 614.82 2371.4
892.78 611.49 2358.6
885.70 602.52 2324.0
898.66 607.20 2342.1
908.54 609.76 2351.9
908.25 605.50 2335.5
922.40 610.86 2356.2
975.14 641.54 2474.5
1020.88 667.24 2573.7
1028.13 667.62 2575.1
1034.30 667.29 2573.8
1015.66 651.06 2511.2
1042.40 659.75 2544.7
554.98 624.36 2432.6
550.46 605.50 2359.1
581.00 632.08 2462.6
585.49 630.03 2454.7
586.75 624.60 2433.5
592.96 624.50 2433.1
588.95 613.74 2391.2
583.32 601.55 2343.7
593.79 606.04 2361.2
604.35 610.51 2378.6
609.92 609.92 2376.3
610.60 604.49 2355.2
616.09 603.89 2352.8
618.84 600.64 2340.2
615.51 591.61 2305.0
630.96 600.63 2340.1
636.13 599.78 2336.8
625.84 584.51 2277.3
632.13 584.86 2278.7
656.74 602.01 2345.5
676.39 614.34 2393.5
682.69 614.42 2393.8
681.74 608.04 2369.0
687.97 608.12 2369.3
714.01 609.37 2374.2
704.45 596.08 2322.4
725.33 608.54 2370.9
726.97 604.79 2356.3
704.58 581.28 2264.7
710.54 581.35 2265.0
731.44 593.54 2312.5
720.98 580.30 2260.9
741.81 582.85 2270.8
752.62 586.69 2285.8
740.55 568.33 2214.3
770.57 586.82 2286.3
776.23 586.62 2285.5
791.64 593.73 2313.2
813.19 605.31 2358.3
828.57 612.16 2385.0
847.29 621.34 2420.8
848.06 617.34 2405.2
826.31 597.12 2326.4
814.34 584.20 2276.1
837.40 596.42 2323.7
862.00 609.56 2374.9
863.14 606.03 2361.2
862.19 601.10 2342.0
863.18 597.58 2328.2
876.00 602.25 2346.4
899.16 613.91 2391.9
911.17 617.85 2407.2
915.63 616.65 2402.5
936.08 626.16 2439.6
954.95 634.50 2472.1
953.16 629.09 2451.0
965.46 632.98 2466.2
991.72 645.92 2516.6
1009.60 653.27 2545.2
1029.05 661.53 2577.4
1049.37 670.24 2611.3
1047.95 665.04 2591.1
1047.89 660.77 2574.4
1047.76 656.51 2557.8
1056.82 658.02 2563.7
555.81 640.82 2522.2
545.81 607.84 2392.4
570.86 621.60 2446.5
598.28 644.31 2535.9
600.25 639.39 2516.6
600.06 632.33 2488.7
605.03 630.77 2482.6
588.13 606.71 2387.9
584.91 590.94 2325.8
599.20 599.20 2358.4
609.79 603.63 2375.8
614.85 602.56 2371.6
615.47 597.19 2350.4
612.00 588.00 2314.3
621.13 590.98 2326.0
650.04 612.54 2410.9
656.91 613.11 2413.1
645.76 597.03 2349.8
645.22 590.95 2325.9
662.36 601.03 2365.6
680.48 611.81 2408.0
684.95 610.23 2401.8
681.86 602.01 2369.4
685.12 599.48 2359.5
707.72 613.77 2415.7
713.58 602.85 2372.7
707.40 592.52 2332.1
731.72 607.70 2391.8
733.11 603.74 2376.2
710.18 579.98 2282.7
707.75 573.22 2256.1
719.54 577.99 2274.9
726.11 578.53 2277.0
724.95 572.94 2255.0
733.27 574.88 2262.7
757.32 589.02 2318.3
774.02 597.28 2350.8
759.65 581.60 2289.1
755.77 574.15 2259.8
774.42 583.79 2297.7
768.22 574.70 2261.9
769.73 571.47 2249.2
790.19 582.25 2291.6
806.06 589.51 2320.2
836.19 607.01 2389.1
848.21 611.21 2405.6
833.28 596.07 2346.0
828.88 588.63 2316.8
832.92 587.24 2311.3
837.26 586.08 2306.7
859.61 597.46 2351.5
880.48 607.65 2391.6
875.83 600.22 2362.4
883.62 601.36 2366.9
872.27 589.53 2320.3
880.09 586.73 2309.3
928.93 615.10 2420.9
979.78 640.12 2519.4
988.33 641.43 2524.6
1007.96 649.87 2557.8
1017.33 651.62 2564.7
1026.36 653.14 2570.7
1048.12 662.68 2608.2
1049.60 659.37 2595.2
1062.77 663.38 2611.0
1059.98 653.32 2571.4
548.33 611.36 2431.0
561.44 611.90 2433.2
578.69 623.70 2480.1
586.81 625.50 2487.3
598.80 631.34 2510.5
608.16 634.31 2522.3
603.54 622.80 2476.5
578.72 590.90 2349.7
588.09 588.09 2338.5
596.68 590.59 2348.4
601.21 589.06 2342.4
618.87 600.30 2387.1
631.58 606.56 2412.0
625.27 594.62 2364.5
631.77 594.97 2365.9
665.45 608.95 2421.4
671.57 608.80 2420.9
673.48 604.89 2405.3
676.38 601.91 2393.5
682.14 601.53 2391.9
679.83 594.09 2362.4
664.32 565.25 2247.7
694.14 585.49 2328.2
702.22 587.20 2335.0
712.88 591.02 2350.1
735.83 604.88 2405.3
736.11 600.02 2385.9
734.27 593.54 2360.2
752.97 603.62 2400.3
745.60 583.25 2319.3
720.79 559.33 2224.1
757.44 583.11 2318.7
786.62 600.81 2389.1
782.74 593.17 2358.7
790.44 594.36 2363.4
799.08 596.24 2370.9
782.73 579.58 2304.7
776.46 570.58 2268.9
788.41 575.01 2286.5
792.46 573.65 2281.1
809.34 581.52 2312.4
850.30 606.46 2411.6
848.03 596.08 2370.3
838.00 584.79 2325.4
848.34 587.78 2337.3
878.79 604.56 2404.0
909.98 612.97 2437.4
873.09 584.06 2322.5
922.10 604.35 2403.2
967.56 629.89 2504.7
987.72 638.73 2539.9
1000.22 642.53 2555.0
998.51 637.20 2533.8
983.77 623.69 2480.1
991.53 624.53 2483.4
1009.83 631.96 2512.9
1013.65 630.28 2506.3
1029.56 636.09 2529.4
554.85 612.25 2459.9
561.37 612.40 2460.5
569.63 614.43 2468.7
576.82 615.28 2472.1
588.05 620.36 2492.5
603.88 630.13 2531.8
601.45 620.85 2494.5
586.86 599.35 2408.1
576.26 582.33 2339.7
577.30 577.30 2319.5
599.10 592.92 2382.3
608.75 596.33 2396.0
605.90 587.54 2360.7
615.81 591.18 2375.3
628.00 596.91 2398.3
620.16 583.68 2345.2
624.86 582.39 2340.0
652.31 602.13 2419.3
657.66 601.29 2415.9
654.23 592.51 2380.6
674.29 604.97 2430.7
682.58 601.17 2415.4
678.26 591.94 2378.3
695.01 601.09 2415.1
678.30 581.40 2336.0
689.25 575.37 2311.8
704.86 583.33 2343.7
697.75 572.51 2300.3
702.66 571.66 2296.8
717.02 578.43 2324.1
730.06 584.05 2346.6
740.58 587.57 2360.8
749.69 589.92 2370.2
758.22 587.01 2358.5
720.59 553.41 2223.5
745.47 567.98 2282.1
764.54 577.92 2322.0
749.15 561.86 2257.5
755.06 561.91 2257.7
764.08 564.25 2267.1
769.39 563.83 2265.4
784.13 570.28 2291.3
812.64 586.57 2356.8
834.42 597.80 2401.9
834.54 593.45 2384.4
858.21 605.79 2434.0
864.17 605.55 2433.0
832.74 579.30 2327.5
841.42 581.13 2334.9
871.06 597.30 2399.9
868.23 591.14 2375.1
871.68 589.30 2367.7
894.72 600.65 2413.3
891.05 594.04 2386.8
870.13 576.09 2314.6
890.76 581.72 2337.3
961.68 623.79 2506.3
973.00 626.90 2518.8
956.82 612.37 2460.4
1003.60 638.05 2563.6
1008.36 632.69 2542.1
993.86 619.55 2489.3
1017.99 630.50 2533.3
1030.26 634.01 2547.4
1032.67 631.44 2537.0
1066.43 647.96 2603.4
567.80 620.01 2517.3
586.82 612.62 2487.3
602.19 621.83 2524.7
599.28 612.17 2485.5
584.43 590.65 2398.1
573.57 573.57 2328.8
606.71 588.13 2387.9
628.36 596.95 2423.7
621.70 584.77 2374.2
635.44 591.83 2402.9
661.29 604.06 2452.6
639.89 578.95 2350.6
641.97 575.35 2336.0
667.65 592.77 2406.7
653.78 575.09 2334.9
644.48 556.60 2259.9
692.44 592.63 2406.2
704.27 592.08 2403.9
697.89 581.57 2361.3
715.22 590.83 2398.9
707.22 579.18 2351.6
676.95 549.66 2231.7
695.93 560.28 2274.8
724.02 578.00 2346.8
717.16 567.75 2305.2
708.35 556.14 2258.0
711.36 553.92 2249.0
730.28 564.04 2290.1
746.42 571.86 2321.8
744.40 565.74 2297.0
757.07 570.80 2317.6
763.13 570.84 2317.7
742.20 550.85 2236.5
757.66 553.67 2248.0
768.24 557.12 2262.0
787.40 566.69 2300.8
820.70 586.22 2380.1
838.07 594.16 2412.4
832.42 585.78 2378.3
833.41 582.16 2363.7
815.74 565.66 2296.7
827.68 565.68 2296.7
849.26 576.28 2339.8
837.93 564.56 2292.2
838.49 560.96 2277.6
859.97 571.31 2319.6
861.54 568.38 2307.7
957.36 610.40 2478.3
928.72 588.19 2388.1
957.22 602.23 2445.1
1029.81 635.27 2579.3
1048.70 642.75 2609.7
1055.66 642.87 2610.1
1051.22 636.09 2582.6
562.73 615.08 2523.9
568.76 614.53 2521.6
583.23 609.15 2499.6
566.82 585.51 2402.6
578.16 590.72 2423.9
604.41 610.91 2506.8
606.71 600.32 2463.3
595.59 583.18 2393.0
585.54 567.43 2328.4
611.12 586.18 2405.3
623.83 586.40 2406.2
621.56 578.48 2373.7
639.78 589.60 2419.3
650.76 588.19 2413.5
642.80 575.46 2361.3
657.55 583.11 2392.7
668.28 587.09 2409.0
640.23 557.24 2286.5
651.52 556.75 2284.5
678.29 574.40 2357.0
675.80 567.19 2327.4
704.11 585.72 2403.4
718.40 587.21 2409.5
677.88 549.31 2254.0
703.44 560.37 2299.4
743.65 587.42 2410.4
747.07 585.20 2401.3
729.44 566.67 2325.3
724.08 557.90 2289.3
741.04 566.32 2323.8
754.28 571.80 2346.3
750.21 564.16 2314.9
761.11 567.81 2329.9
789.44 584.31 2397.6
790.47 580.50 2382.0
790.81 576.25 2364.5
807.24 583.69 2395.1
797.48 572.24 2348.1
795.40 566.42 2324.2
804.95 568.91 2334.4
796.95 559.05 2294.0
801.64 558.18 2290.4
814.41 562.90 2309.8
816.17 560.00 2297.9
824.77 561.80 2305.3
836.05 565.39 2320.0
842.07 565.39 2320.0
843.39 562.26 2307.2
856.78 567.16 2327.3
866.53 569.61 2337.3
857.22 559.58 2296.1
861.11 558.23 2290.6
902.93 581.34 2385.4
964.44 612.55 2513.5
956.10 603.18 2475.1
938.39 588.06 2413.0
996.11 611.99 2511.2
1041.19 635.53 2607.8
1031.79 625.73 2567.6
1010.13 608.67 2497.6
1019.77 610.56 2505.4
1058.66 629.84 2584.4
560.72 606.36 2514.9
578.05 604.03 2505.2
562.99 581.75 2412.8
569.16 581.66 2412.4
576.45 582.71 2416.8
598.14 598.14 2480.7
622.96 603.50 2503.0
610.57 585.39 2427.9
595.64 565.25 2344.3
604.39 562.08 2331.2
638.68 588.09 2439.1
626.44 571.16 2368.9
614.60 554.93 2301.6
641.49 573.64 2379.1
667.98 591.64 2453.8
667.21 585.38 2427.8
661.62 575.05 2385.0
657.40 566.09 2347.8
655.91 559.63 2321.0
668.17 564.91 2343.0
670.58 561.83 2330.2
668.84 555.38 2303.4
697.92 574.40 2382.3
708.05 577.62 2395.6
674.25 545.26 2261.5
689.00 547.67 2271.4
701.54 552.91 2293.2
715.33 559.04 2318.6
737.05 571.21 2369.1
737.13 566.55 2349.8
720.36 549.13 2277.5
727.53 550.08 2281.4
736.50 552.37 2290.9
727.18 541.02 2243.9
728.53 537.72 2230.2
748.10 547.82 2272.1
780.46 567.05 2351.8
810.14 575.14 2385.4
808.45 569.59 2362.4
817.77 571.82 2371.6
810.81 562.73 2333.9
817.85 563.41 2336.7
844.35 577.39 2394.7
859.69 583.58 2420.4
870.22 586.45 2432.3
881.79 589.97 2446.9
884.77 587.74 2437.6
884.69 583.52 2420.1
889.24 582.39 2415.4
890.38 579.06 2401.6
883.26 570.44 2365.9
890.73 571.30 2369.4
882.33 562.03 2331.0
878.27 555.64 2304.5
921.26 578.90 2401.0
945.35 590.05 2447.2
936.76 580.79 2408.8
991.23 602.51 2498.9
1009.89 609.87 2529.4
1026.55 608.08 2522.0
1055.87 621.50 2577.6
577.12 610.29 2558.7
559.40 584.82 2451.9
557.56 576.36 2416.4
567.95 580.57 2434.1
573.72 580.03 2431.8
581.06 581.06 2436.1
575.86 569.67 2388.4
578.73 566.42 2374.7
605.76 586.63 2459.5
612.25 586.74 2459.9
599.74 568.82 2384.8
608.14 559.49 2345.7
638.29 581.41 2437.6
622.05 561.06 2352.3
617.74 546.46 2291.1
645.56 565.64 2371.5
646.14 560.80 2351.2
636.45 547.23 2294.3
645.13 544.52 2282.9
677.36 566.52 2375.2
681.73 565.03 2368.9
682.25 560.42 2349.6
691.72 563.17 2361.1
682.18 550.53 2308.1
699.85 550.31 2307.2
711.33 554.60 2325.2
716.86 554.21 2323.6
729.05 558.94 2343.4
732.27 556.77 2334.3
718.98 542.18 2273.1
722.88 540.69 2266.9
728.53 540.52 2266.2
736.59 542.13 2272.9
755.26 551.46 2312.0
759.79 550.40 2307.6
779.95 560.59 2350.3
779.90 556.21 2331.9
754.83 534.19 2239.6
772.93 542.82 2275.8
808.56 563.54 2362.7
818.84 566.41 2374.7
810.60 556.53 2333.3
805.07 548.64 2300.2
818.51 553.70 2321.4
851.65 571.91 2397.8
879.60 582.18 2440.8
869.58 571.44 2395.8
908.64 580.52 2433.8
917.64 582.23 2441.0
909.05 572.83 2401.6
876.64 548.64 2300.2
892.01 554.50 2324.7
953.58 588.79 2468.5
988.54 606.31 2542.0
992.17 604.50 2534.4
1024.38 620.02 2599.5
1014.77 610.19 2558.3
958.63 572.69 2401.0
1032.76 609.06 2553.5
1036.28 607.24 2545.9
559.44 606.06 2568.8
553.22 592.27 2510.4
570.04 603.18 2556.7
570.58 596.81 2529.7
560.14 579.23 2455.2
565.98 578.70 2452.9
581.33 587.79 2491.4
591.27 591.27 2506.2
602.42 595.87 2525.7
600.86 587.93 2492.0
586.66 567.94 2407.3
599.10 573.87 2432.4
607.64 576.00 2441.4
597.69 560.72 2376.7
603.98 560.84 2377.2
617.78 567.86 2406.9
616.06 560.62 2376.2
611.23 550.71 2334.3
618.65 551.93 2339.4
620.06 547.82 2322.0
622.14 544.37 2307.4
633.62 549.14 2327.6
647.78 556.11 2357.2
651.91 554.43 2350.0
648.12 546.10 2314.7
670.14 559.48 2371.4
691.90 572.39 2426.2
685.87 562.29 2383.3
679.90 552.42 2341.5
684.42 551.17 2336.2
698.31 557.42 2362.7
707.86 560.13 2374.2
717.18 562.62 2384.7
734.48 571.26 2421.4
741.96 572.19 2425.3
743.13 568.28 2408.7
747.40 566.78 2402.4
742.01 558.04 2365.3
727.90 542.94 2301.3
730.97 540.80 2292.2
732.20 537.34 2277.6
735.47 535.42 2269.5
762.94 551.01 2335.5
776.97 556.73 2359.8
773.60 549.98 2331.2
750.28 529.27 2243.4
779.61 541.56 2295.5
799.82 551.39 2337.1
795.41 544.22 2306.8
803.34 545.55 2312.4
814.84 549.26 2328.1
844.49 556.87 2360.4
863.84 565.54 2397.1
852.05 553.83 2347.5
879.24 567.45 2405.2
903.32 578.89 2453.7
879.08 559.42 2371.2
871.20 550.55 2333.6
890.97 559.16 2370.1
915.74 570.77 2419.3
914.30 565.99 2399.0
905.06 556.49 2358.8
939.63 573.87 2432.4
997.90 605.39 2566.0
1050.13 612.58 2596.5
1051.90 609.70 2584.3
1042.87 600.64 2545.9
555.00 587.64 2518.5
566.54 592.89 2540.9
572.39 592.13 2537.7
566.30 579.17 2482.2
571.12 577.53 2475.1
585.64 585.64 2509.9
587.79 581.33 2491.4
592.11 579.24 2482.5
602.56 583.12 2499.1
599.92 574.39 2461.7
598.72 567.21 2430.9
594.78 557.61 2389.8
592.54 549.78 2356.2
606.23 556.74 2386.0
616.90 560.82 2403.5
610.52 549.47 2354.9
611.56 544.95 2335.5
624.47 551.00 2361.4
637.76 557.27 2388.3
650.92 563.29 2414.1
657.54 563.60 2415.4
666.74 566.10 2426.2
676.52 569.03 2438.7
677.41 564.51 2419.3
674.22 556.69 2385.8
670.86 548.89 2352.4
678.41 550.06 2357.4
686.25 551.45 2363.4
696.03 554.36 2375.8
716.10 565.35 2422.9
720.78 564.09 2417.5
725.15 562.62 2411.2
726.66 558.97 2395.6
718.66 548.13 2349.1
727.12 549.92 2356.8
738.81 554.11 2374.7
748.83 556.98 2387.0
750.65 553.76 2373.3
736.99 539.26 2311.1
721.24 523.48 2243.5
742.48 534.58 2291.1
791.23 565.16 2422.1
790.20 559.99 2399.9
772.78 543.36 2328.7
760.58 530.64 2274.2
764.97 529.60 2269.7
796.97 547.54 2346.6
812.25 553.81 2373.5
814.28 551.02 2361.5
828.75 556.62 2385.5
848.81 565.87 2425.2
837.87 554.48 2376.3
832.27 546.74 2343.2
872.56 569.06 2438.8
882.17 571.19 2447.9
859.48 552.52 2368.0
861.24 549.73 2356.0
860.25 545.23 2336.7
851.35 535.81 2296.3
857.63 536.02 2297.2
877.32 544.55 2333.8
901.68 555.83 2382.1
916.15 560.91 2403.9
922.32 560.87 2403.7
917.22 554.03 2374.4
929.69 557.82 2390.6
998.51 595.14 2550.6
1009.67 593.92 2545.4
976.27 570.55 2445.2
1044.06 602.34 2581.5
569.39 589.26 2553.8
560.69 573.57 2485.8
554.89 561.20 2432.2
558.48 558.48 2420.4
564.67 558.40 2420.0
559.66 547.36 2372.2
564.13 545.74 2365.2
574.75 550.03 2383.8
572.98 542.50 2351.1
572.21 536.07 2323.3
575.54 533.58 2312.4
587.81 533.83 2313.5
593.21 533.29 2311.2
602.03 535.81 2322.1
618.81 545.29 2363.2
624.56 544.96 2361.8
631.05 545.28 2363.2
653.30 559.07 2422.9
659.60 553.81 2400.2
650.52 541.09 2345.0
655.66 540.31 2341.6
656.79 536.28 2324.2
660.78 534.63 2317.0
674.99 541.21 2345.5
687.97 546.69 2369.3
704.36 554.76 2404.3
693.24 541.21 2345.5
680.54 522.14 2262.9
691.04 525.66 2278.2
707.87 525.00 2275.3
731.68 538.18 2332.4
748.10 545.74 2365.2
747.46 540.85 2344.0
754.19 541.32 2346.0
799.94 556.21 2410.5
788.86 544.25 2358.7
772.23 528.68 2291.2
782.30 531.49 2303.4
815.51 549.85 2383.0
835.72 559.24 2423.7
838.79 557.11 2414.4
847.31 558.60 2420.9
835.38 546.68 2369.2
829.09 538.61 2334.3
857.86 553.26 2397.8
856.11 548.16 2375.6
860.92 547.30 2371.9
890.54 562.11 2436.1
888.03 556.58 2412.2
879.30 547.25 2371.7
898.06 555.05 2405.5
931.08 571.49 2476.8
933.27 568.91 2465.6
924.97 560.01 2427.0
936.09 562.92 2439.6
936.00 559.09 2423.0
943.98 560.09 2427.4
1006.85 593.44 2571.9
1026.04 596.84 2586.6
1019.45 585.36 2536.9
1034.67 590.29 2558.3
1028.98 583.31 2528.0
1067.26 601.18 2605.4
560.77 587.47 2575.0
563.16 583.04 2555.5
558.02 571.00 2502.7
552.40 558.75 2449.0
547.59 547.59 2400.2
553.52 547.30 2398.9
562.76 550.25 2411.8
564.22 545.62 2391.5
575.76 550.73 2413.9
582.84 551.50 2417.3
577.21 540.37 2368.5
578.82 536.17 2350.1
583.63 535.00 2344.9
581.99 527.99 2314.2
586.92 527.03 2310.0
599.35 532.76 2335.1
616.07 542.14 2376.3
622.35 542.25 2376.7
617.65 532.87 2335.6
630.38 538.57 2360.6
660.00 558.46 2447.8
662.60 555.32 2434.0
639.24 530.69 2326.1
635.46 522.62 2290.7
647.05 527.23 2310.9
656.87 530.32 2324.4
669.97 535.97 2349.2
672.37 533.05 2336.4
672.26 528.21 2315.2
693.74 540.26 2368.0
688.06 531.13 2328.0
704.16 529.63 2321.4
713.12 531.82 2331.0
712.75 518.37 2272.1
729.04 525.86 2304.9
746.66 534.20 2341.4
771.03 547.18 2398.4
779.10 548.48 2404.1
773.83 540.46 2368.9
769.01 532.86 2335.6
764.03 525.27 2302.3
789.58 538.63 2360.9
811.02 549.00 2406.3
793.70 533.17 2337.0
797.89 531.93 2331.5
821.80 543.75 2383.3
827.67 543.54 2382.4
827.07 539.13 2363.1
805.57 521.25 2284.7
828.03 524.22 2297.7
875.03 550.02 2410.8
887.63 553.98 2428.2
868.21 538.04 2358.3
881.44 542.42 2377.5
922.79 563.93 2471.8
919.89 554.45 2430.2
900.00 538.78 2361.5
900.12 535.21 2345.9
938.23 554.12 2428.8
985.21 577.99 2533.4
982.03 572.31 2508.5
962.96 557.50 2443.6
1004.90 577.98 2533.4
1044.39 592.94 2598.9
1012.07 570.91 2502.4
1023.95 573.93 2515.6
550.26 569.92 2526.7
546.65 559.51 2480.6
542.80 549.11 2434.5
548.54 542.30 2404.3
568.30 555.53 2463.0
559.95 541.29 2399.8
571.99 540.90 2398.1
593.45 555.16 2461.3
588.62 544.79 2415.3
591.27 541.48 2400.7
596.44 540.53 2396.4
596.59 535.08 2372.3
610.56 542.03 2403.1
633.67 556.86 2468.9
636.75 553.97 2456.0
627.14 540.21 2395.0
622.47 530.93 2353.9
636.25 537.42 2382.6
644.57 539.21 2390.6
626.50 519.10 2301.4
628.44 515.80 2286.8
649.90 528.42 2342.8
651.07 524.48 2325.3
651.36 519.90 2305.0
664.69 525.71 2330.7
667.86 523.45 2320.7
677.24 526.07 2332.3
707.57 544.76 2415.2
721.50 541.13 2399.1
734.88 546.45 2422.7
714.40 517.94 2296.3
705.51 507.27 2249.0
724.69 516.79 2291.2
747.34 528.61 2343.6
760.05 533.26 2364.2
757.79 527.42 2338.3
754.49 520.96 2309.7
750.44 514.08 2279.2
769.51 518.97 2300.8
796.13 532.79 2362.1
785.30 521.53 2312.2
803.04 529.28 2346.5
838.80 548.69 2432.6
843.17 547.43 2427.0
839.76 541.18 2399.3
834.59 533.89 2367.0
821.74 521.83 2313.6
815.89 514.36 2280.4
839.06 525.17 2328.3
889.48 552.75 2450.6
904.19 557.90 2473.5
872.69 534.68 2370.5
873.71 531.56 2356.7
924.50 550.90 2442.4
911.43 535.77 2375.3
982.06 573.42 2542.2
1008.56 581.09 2576.3
956.97 547.74 2428.4
966.78 549.73 2437.2
1046.77 576.39 2555.4
566.07 572.73 2568.7
555.00 555.00 2489.2
550.62 544.29 2441.2
560.35 547.61 2456.1
576.07 556.66 2496.6
563.58 538.53 2415.3
577.28 539.63 2420.3
599.72 554.58 2487.3
595.18 544.52 2442.2
583.64 528.34 2369.6
591.42 524.35 2351.7
621.47 545.37 2446.0
639.53 550.00 2466.8
631.42 537.65 2411.4
627.54 529.10 2373.1
631.79 527.51 2365.9
630.15 521.08 2337.1
636.54 516.44 2316.2
655.72 527.03 2363.8
654.84 521.44 2338.7
654.36 516.28 2315.6
667.98 522.24 2342.3
673.61 521.89 2340.7
685.77 526.57 2361.7
694.46 528.52 2370.5
693.48 523.15 2346.4
718.37 537.22 2409.4
727.59 534.81 2398.7
730.16 532.15 2386.7
755.73 541.61 2429.1
725.19 515.42 2311.7
725.35 511.31 2293.3
756.63 529.03 2372.7
780.50 541.31 2427.8
776.57 534.28 2396.3
772.79 527.46 2365.7
780.50 528.53 2370.5
783.29 526.27 2360.4
781.37 520.91 2336.3
781.84 517.22 2319.7
784.11 514.76 2308.7
814.53 530.68 2380.1
845.52 542.64 2433.8
836.95 533.16 2391.3
826.55 522.67 2344.2
820.84 515.27 2311.0
820.24 511.17 2292.6
838.81 518.97 2327.6
883.24 542.56 2433.4
908.97 550.50 2469.0
874.14 525.70 2357.8
900.42 537.75 2411.8
927.98 550.39 2468.5
883.02 520.13 2332.8
1010.92 571.97 2565.3
964.71 542.26 2432.1
993.43 554.77 2488.2
1025.68 569.08 2552.4
1042.90 564.08 2529.9
568.27 561.66 2548.7
554.56 541.81 2458.7
580.64 560.85 2545.0
597.89 558.46 2534.2
600.94 555.22 2519.5
599.57 547.99 2486.7
604.75 546.85 2481.5
602.41 539.00 2445.9
581.71 515.06 2337.2
586.71 514.13 2333.0
607.83 527.20 2392.3
616.82 529.60 2403.2
629.06 534.70 2426.4
634.72 534.17 2424.0
631.61 526.34 2388.5
636.91 525.60 2385.1
643.46 525.90 2386.4
644.36 521.62 2367.0
652.16 522.95 2373.1
665.73 528.85 2399.8
664.14 522.70 2371.9
663.47 517.39 2347.8
679.32 524.93 2382.0
688.29 527.07 2391.7
695.81 514.29 2333.8
720.26 527.78 2395.0
716.03 520.19 2360.5
699.61 503.96 2286.9
707.93 505.66 2294.6
752.91 533.31 2420.1
751.10 523.31 2374.7
764.14 528.07 2396.3
791.74 538.38 2443.1
777.43 524.46 2379.9
774.46 518.34 2352.1
791.38 525.53 2384.7
802.25 528.61 2398.8
789.10 515.95 2341.3
777.89 504.74 2290.4
800.35 515.38 2338.7
822.39 525.59 2385.0
834.04 529.06 2400.8
837.68 527.43 2393.4
817.51 510.94 2318.6
833.24 509.54 2312.2
857.61 520.69 2362.8
871.12 525.14 2383.0
867.12 519.05 2355.3
909.34 525.81 2386.0
934.41 536.66 2435.2
924.77 527.55 2393.9
938.36 531.74 2412.9
961.32 541.14 2455.6
1010.32 564.98 2563.8
1004.44 554.40 2515.7
1049.80 568.36 2579.1
556.96 556.96 2557.5
564.56 557.92 2561.9
549.61 536.83 2465.0
545.60 526.78 2418.9
581.38 554.95 2548.3
587.41 542.23 2489.8
585.36 534.46 2454.2
592.77 535.41 2458.5
605.75 541.31 2485.6
614.19 543.07 2493.7
604.46 528.90 2428.6
603.00 522.19 2397.8
617.29 529.11 2429.6
618.36 524.66 2409.2
622.75 523.11 2402.0
620.92 516.40 2371.2
611.42 503.52 2312.1
635.46 518.24 2379.7
661.11 533.97 2451.9
652.91 522.33 2398.4
652.48 517.06 2374.3
659.01 517.35 2375.6
650.75 506.14 2324.1
659.28 508.07 2333.0
685.03 523.11 2402.0
669.27 501.95 2304.9
685.85 505.37 2320.6
716.01 523.00 2401.5
707.37 512.23 2352.1
713.83 512.49 2353.3
707.69 503.78 2313.3
730.60 511.42 2348.4
759.91 527.54 2422.4
753.83 519.03 2383.3
753.22 514.39 2362.0
766.29 519.10 2383.6
782.17 525.62 2413.5
785.11 523.41 2403.4
777.59 514.31 2361.6
788.69 517.58 2376.6
801.71 522.04 2397.1
791.37 511.35 2348.0
782.05 501.47 2302.7
807.08 513.60 2358.4
820.24 518.05 2378.8
821.27 514.83 2364.0
850.38 529.13 2429.7
856.34 528.92 2428.7
829.18 508.40 2334.5
824.34 501.77 2304.1
842.28 509.00 2337.3
859.03 515.42 2366.7
871.20 519.01 2383.2
864.83 511.59 2349.1
872.32 505.35 2320.5
910.92 524.09 2406.5
939.08 536.62 2464.1
926.78 526.01 2415.4
917.44 517.21 2375.0
930.63 521.15 2393.1
949.62 528.27 2425.7
1040.83 560.45 2573.5
552.24 545.67 2535.8
554.53 541.48 2516.3
550.53 531.33 2469.2
556.86 531.25 2468.8
561.21 529.33 2459.9
561.12 523.29 2431.8
566.23 522.19 2426.7
565.46 515.75 2396.8
575.24 507.92 2360.4
589.92 515.40 2395.2
604.06 522.26 2427.0
626.23 535.84 2490.1
633.03 536.14 2491.5
626.21 525.01 2439.8
627.49 520.82 2420.3
623.71 512.55 2381.9
617.48 502.46 2335.0
646.64 521.08 2421.6
651.75 520.15 2417.2
641.65 502.43 2334.9
667.19 517.54 2405.1
655.04 503.41 2339.4
660.41 502.88 2337.0
680.00 513.09 2384.4
691.14 516.80 2401.7
692.26 513.02 2384.1
692.75 508.83 2364.6
713.12 519.20 2412.8
714.69 515.82 2397.1
701.51 501.94 2332.6
703.66 499.18 2319.8
708.90 498.63 2317.2
712.67 497.07 2310.0
741.15 512.63 2382.3
767.61 526.54 2446.9
760.11 517.12 2403.2
758.35 511.73 2378.1
764.26 511.56 2377.3
772.58 513.00 2384.0
801.01 527.65 2452.1
808.20 524.07 2435.4
797.75 513.28 2385.3
794.25 507.10 2356.6
790.31 500.73 2327.0
803.35 505.14 2347.4
804.34 501.96 2332.7
816.52 505.76 2350.3
856.62 526.66 2447.5
872.22 528.42 2455.7
845.20 508.35 2362.4
839.36 501.20 2329.2
870.47 516.07 2398.2
897.53 528.33 2455.2
892.67 521.77 2424.7
879.48 510.47 2372.2
906.51 522.50 2428.2
937.43 529.30 2459.7
955.32 535.75 2489.7
980.47 542.52 2521.2
985.81 541.87 2518.2
1017.74 555.74 2582.6
542.73 529.81 2492.1
547.43 528.11 2484.2
545.49 520.11 2446.5
564.46 532.02 2502.5
580.45 540.87 2544.2
574.18 529.02 2488.4
574.08 523.05 2460.3
562.82 507.16 2385.6
570.19 497.40 2339.7
584.83 504.80 2374.5
597.97 510.77 2402.6
622.24 526.02 2474.3
631.42 528.33 2485.2
625.55 518.13 2437.2
627.80 514.80 2421.5
635.68 516.10 2427.6
641.83 515.98 2427.1
615.88 490.31 2306.4
654.17 506.06 2380.4
679.04 520.39 2447.8
665.40 505.21 2376.4
654.60 492.46 2316.4
657.22 489.93 2304.5
657.34 485.60 2284.2
687.92 494.82 2327.5
709.16 505.66 2378.5
716.81 506.71 2383.5
717.94 503.17 2366.8
722.43 502.03 2361.5
718.80 495.31 2329.8
739.47 505.30 2376.9
771.71 518.69 2439.8
766.16 510.77 2402.6
768.23 508.02 2389.7
770.84 505.67 2378.6
793.18 516.20 2428.1
808.28 517.81 2435.7
787.56 500.62 2354.8
774.60 488.59 2298.3
785.00 487.65 2293.8
803.45 495.36 2330.1
833.32 509.94 2398.7
869.06 516.40 2429.0
866.68 511.28 2405.0
891.05 514.55 2420.4
888.42 509.44 2396.3
927.18 527.97 2483.5
909.92 507.58 2387.6
939.15 516.85 2431.2
981.63 536.62 2524.2
983.76 534.23 2512.9
1012.10 546.00 2568.3
1014.20 540.03 2540.2
1038.57 549.44 2584.5
567.33 528.21 2515.3
596.18 536.56 2555.1
582.22 518.24 2467.8
568.74 500.74 2384.5
580.34 505.46 2407.0
597.15 514.57 2450.3
602.69 513.87 2447.0
601.34 507.38 2416.1
612.27 511.28 2434.7
616.29 509.38 2425.6
603.45 493.73 2351.1
614.09 497.42 2368.6
630.78 505.87 2408.9
635.38 504.57 2402.7
654.49 500.13 2381.6
660.24 499.81 2380.1
667.31 500.48 2383.2
677.31 503.33 2396.8
679.59 500.42 2383.0
678.26 494.95 2356.9
669.43 484.14 2305.4
684.88 490.93 2337.8
705.48 501.26 2387.0
713.70 502.70 2393.8
722.52 504.52 2402.5
725.97 502.60 2393.3
733.96 503.82 2399.2
734.75 500.13 2381.5
737.49 497.81 2370.5
753.09 504.13 2400.6
764.98 507.90 2418.6
773.08 509.10 2424.3
767.40 501.28 2387.1
762.14 493.87 2351.7
780.46 501.73 2389.2
799.88 510.16 2429.3
810.83 513.10 2443.3
808.15 507.44 2416.4
787.81 490.86 2337.4
779.70 482.11 2295.7
795.54 488.17 2324.6
816.30 497.14 2367.3
818.26 494.62 2355.3
818.86 491.32 2339.6
843.86 502.59 2393.3
864.17 510.93 2433.0
872.77 512.28 2439.4
893.69 520.79 2479.9
901.41 521.53 2483.5
885.57 508.73 2422.5
884.01 504.26 2401.2
899.40 509.45 2426.0
901.18 506.91 2413.9
900.82 503.22 2396.3
930.61 516.29 2458.5
909.30 501.04 2385.9
924.10 499.02 2376.3
1034.65 540.69 2574.7
559.58 526.66 2539.3
566.08 526.59 2538.9
580.77 534.04 2574.8
583.78 524.75 2530.0
571.08 507.63 2447.5
586.79 515.86 2487.2
601.55 523.08 2522.0
584.99 503.22 2426.2
574.93 489.30 2359.1
597.36 503.04 2425.4
611.35 509.46 2456.3
615.68 507.78 2448.2
613.21 500.58 2413.5
622.89 493.38 2378.8
633.69 497.01 2396.3
642.54 499.06 2406.2
643.52 495.02 2386.7
641.83 489.01 2357.7
654.81 494.20 2382.7
672.10 502.50 2422.8
687.98 500.35 2412.4
701.20 496.42 2393.5
687.47 482.43 2326.0
691.91 481.33 2320.7
697.16 480.80 2318.2
716.64 490.01 2362.5
741.20 502.51 2422.8
745.22 500.99 2415.5
749.21 499.47 2408.2
749.63 495.62 2389.6
747.89 490.42 2364.5
768.97 500.15 2411.4
776.17 500.75 2414.3
767.03 490.90 2366.8
782.35 496.73 2395.0
791.05 498.30 2402.5
790.81 494.26 2383.0
810.40 502.57 2423.1
811.36 499.30 2407.3
793.63 484.66 2336.8
799.72 484.68 2336.8
816.68 491.23 2368.4
812.84 485.28 2339.7
800.12 474.14 2286.1
810.64 476.85 2299.1
839.28 490.09 2362.9
859.62 498.33 2402.7
867.49 499.27 2407.2
861.64 492.37 2373.9
866.43 491.59 2370.2
883.74 497.88 2400.5
897.09 501.87 2419.7
895.41 497.45 2398.4
881.20 486.18 2344.1
895.93 490.92 2366.9
917.40 499.27 2407.2
906.69 490.10 2363.0
911.70 489.50 2360.1
928.08 494.98 2386.5
957.82 507.45 2446.6
974.86 513.08 2473.8
971.02 507.72 2448.0
1016.58 528.09 2546.2
571.94 507.68 2478.7
573.34 497.73 2430.2
606.85 521.10 2544.2
607.58 516.11 2519.9
587.75 493.96 2411.7
601.17 499.92 2440.8
619.22 509.57 2488.0
627.70 511.22 2496.0
633.79 510.92 2494.5
623.30 497.38 2428.4
614.20 485.21 2369.0
622.94 487.25 2379.0
637.75 493.95 2411.7
650.69 499.07 2436.7
651.49 494.88 2416.2
649.10 488.37 2384.4
653.04 486.70 2376.3
660.88 487.94 2382.3
679.85 497.30 2428.0
680.36 493.11 2407.6
674.32 484.28 2364.5
692.21 492.65 2405.4
700.99 494.45 2414.1
680.29 475.60 2322.1
683.90 473.93 2313.9
704.01 483.62 2361.3
690.71 470.40 2296.7
692.76 467.76 2283.8
726.33 486.27 2374.2
739.21 490.73 2396.0
728.57 479.64 2341.8
713.85 466.07 2275.5
738.92 474.59 2317.2
766.31 488.22 2383.7
777.07 491.11 2397.8
785.76 492.66 2405.4
788.04 490.20 2393.4
790.56 487.92 2382.3
813.89 498.43 2433.5
821.77 499.38 2438.2
809.79 488.34 2384.3
797.54 477.32 2330.5
795.29 472.39 2306.4
816.44 481.33 2350.1
830.97 486.27 2374.2
842.68 489.50 2389.9
872.20 502.95 2455.6
875.22 501.03 2446.3
867.22 492.88 2406.5
865.39 488.32 2384.2
872.22 488.69 2386.0
917.39 510.38 2491.9
930.85 510.68 2493.4
890.93 485.40 2370.0
890.77 481.99 2353.3
896.48 481.78 2352.3
918.71 490.39 2394.3
963.08 510.63 2493.1
937.04 493.51 2409.5
585.52 518.98 2566.4
577.29 505.94 2501.9
575.20 498.51 2465.2
576.99 494.56 2445.7
598.71 507.61 2510.1
617.15 501.43 2479.6
642.14 505.92 2501.8
638.38 497.93 2462.3
646.11 498.98 2467.5
658.09 498.36 2464.4
642.35 481.76 2382.3
640.38 475.71 2352.4
644.51 474.26 2345.2
650.70 474.34 2345.6
666.41 481.30 2380.0
675.61 483.47 2390.8
677.86 480.67 2376.9
685.75 481.88 2382.9
684.35 476.60 2356.8
679.23 468.85 2318.5
697.85 477.48 2361.2
727.79 489.37 2420.0
704.20 469.47 2321.5
713.46 471.61 2332.1
736.66 482.85 2387.7
735.32 477.96 2363.5
724.46 467.01 2309.4
729.93 466.68 2307.7
748.37 466.98 2309.3
799.85 495.14 2448.5
811.43 498.36 2464.4
808.96 489.14 2418.8
777.61 466.56 2307.2
782.68 466.02 2304.5
787.73 465.48 2301.8
790.53 463.62 2292.6
818.10 476.21 2354.9
860.23 497.02 2457.8
889.25 499.01 2467.6
862.76 480.68 2377.0
871.60 482.16 2384.3
933.67 505.74 2500.9
912.07 490.63 2426.2
931.52 497.66 2461.0
935.72 496.50 2455.2
958.90 505.37 2499.1
953.48 495.81 2451.8
1013.83 513.50 2539.3
596.54 516.11 2585.3
581.28 497.32 2491.2
573.43 485.21 2430.6
577.13 483.04 2419.7
590.21 488.67 2447.9
610.39 500.00 2504.7
607.84 492.67 2467.9
605.59 485.73 2433.2
626.38 497.23 2490.8
624.97 491.04 2459.8
605.09 470.63 2357.5
613.79 472.62 2367.5
632.98 482.57 2417.3
651.41 491.75 2463.3
653.08 488.22 2445.7
641.62 475.05 2379.7
643.00 471.53 2362.0
647.15 470.10 2354.9
652.31 469.42 2351.5
667.78 476.10 2384.9
676.19 477.68 2392.8
666.33 466.43 2336.5
663.79 460.47 2306.6
672.34 462.23 2315.5
677.89 461.92 2313.9
691.22 466.87 2338.7
718.41 481.02 2409.6
721.05 478.63 2397.6
702.81 462.54 2317.0
726.72 474.21 2375.5
755.50 484.78 2428.4
738.03 469.65 2352.6
744.19 469.69 2352.8
789.23 482.31 2416.0
806.58 489.03 2449.7
817.58 491.83 2463.7
802.78 479.18 2400.4
778.58 461.16 2310.1
789.98 464.34 2326.0
799.86 466.58 2337.2
808.18 467.89 2343.8
811.69 466.42 2336.4
827.50 471.98 2364.3
841.48 476.42 2386.5
838.77 471.43 2361.5
874.68 488.05 2444.8
883.65 489.51 2452.1
849.39 467.17 2340.2
850.72 464.58 2327.2
883.91 479.30 2401.0
910.25 490.13 2455.2
921.02 492.49 2467.0
941.18 499.80 2503.6
961.85 507.28 2541.1
965.54 505.76 2533.5
582.79 503.32 2554.5
589.54 503.43 2555.0
575.75 486.19 2467.5
581.35 465.08 2360.4
595.19 471.19 2391.4
604.87 473.92 2405.2
623.69 474.01 2405.7
620.59 466.98 2370.0
617.30 459.95 2334.3
632.09 466.40 2367.1
634.76 463.86 2354.2
644.59 466.56 2367.9
655.26 469.81 2384.4
653.93 464.47 2357.3
663.32 466.78 2369.0
662.88 462.19 2345.7
690.14 460.09 2335.1
694.88 459.22 2330.6
702.90 452.71 2297.6
747.76 477.56 2423.7
750.01 475.00 2410.7
748.07 469.86 2384.6
770.60 480.05 2436.3
760.23 469.74 2384.0
736.98 451.70 2292.5
763.33 460.42 2336.7
776.51 464.68 2358.3
783.58 465.25 2361.2
807.51 475.74 2414.5
823.20 481.26 2442.5
833.96 483.82 2455.5
841.91 484.74 2460.1
813.35 464.77 2358.8
854.53 470.61 2388.5
877.04 479.53 2433.7
859.16 466.40 2367.1
879.20 467.27 2371.5
890.13 469.79 2384.3
921.18 482.82 2450.4
956.35 497.83 2526.6
958.95 495.78 2516.2
978.41 502.43 2549.9
983.13 501.46 2545.0
945.76 479.18 2431.9
965.24 485.81 2465.6
1000.85 493.93 2506.8
580.22 494.51 2543.2
572.14 482.14 2479.6
575.35 479.46 2465.8
572.84 472.12 2428.1
574.41 463.23 2382.3
586.30 467.79 2405.8
601.12 474.57 2440.7
618.73 483.38 2486.0
631.27 488.10 2510.2
611.27 467.81 2405.9
607.61 460.31 2367.3
634.83 476.12 2448.6
626.85 465.48 2393.9
638.89 460.74 2369.5
670.70 479.07 2463.8
673.27 476.37 2449.9
663.16 464.83 2390.6
673.16 467.47 2404.1
672.54 462.75 2379.9
663.70 452.52 2327.3
667.66 451.12 2320.1
697.70 459.01 2360.6
704.18 459.25 2361.8
705.56 456.18 2346.1
722.00 462.82 2380.2
710.40 451.53 2322.1
708.38 446.46 2296.1
720.55 450.34 2316.1
728.68 451.66 2322.8
763.53 469.39 2414.0
768.64 468.68 2410.4
754.21 448.93 2308.8
772.85 456.41 2347.2
773.40 453.16 2330.6
790.71 459.71 2364.2
794.04 458.10 2355.9
792.26 453.59 2332.7
812.35 461.56 2373.7
795.43 448.55 2306.8
836.65 461.39 2372.9
885.60 484.82 2493.3
887.38 482.27 2480.3
864.42 466.41 2398.7
868.93 465.50 2394.0
872.40 464.04 2386.5
864.62 456.67 2348.6
873.42 458.09 2355.9
901.86 469.72 2415.7
935.89 477.49 2455.7
944.99 478.88 2462.8
934.62 470.45 2419.4
984.66 489.07 2515.2
578.18 497.50 2593.1
581.80 489.24 2550.1
573.29 476.66 2484.5
577.17 474.57 2473.6
581.91 473.20 2466.5
584.78 470.37 2451.7
602.55 479.45 2499.1
627.04 473.48 2467.9
624.14 457.29 2383.6
638.98 463.57 2416.3
636.47 457.27 2383.5
655.05 466.09 2429.4
677.74 473.14 2466.2
666.08 460.66 2401.1
673.99 461.81 2407.1
684.87 464.96 2423.5
688.27 463.02 2413.4
701.96 467.97 2439.2
706.16 466.57 2431.9
705.05 453.69 2364.8
709.28 444.80 2318.5
702.03 436.56 2275.5
709.47 437.51 2280.4
714.28 436.83 2276.9
744.59 451.64 2354.1
771.97 464.43 2420.8
760.81 454.03 2366.6
743.04 439.88 2292.8
761.87 447.45 2332.2
787.34 458.77 2391.3
795.43 459.86 2396.9
812.59 466.13 2429.7
817.32 465.24 2425.0
787.86 445.05 2319.8
781.80 438.28 2284.5
803.15 446.87 2329.2
812.44 448.66 2338.6
818.51 448.67 2338.6
858.61 467.19 2435.1
871.19 467.16 2435.0
858.11 456.84 2381.2
871.99 460.91 2402.4
874.80 459.12 2393.1
866.35 451.48 2353.3
875.16 452.88 2360.6
903.63 464.36 2420.4
931.32 475.29 2477.4
916.05 464.30 2420.1
919.81 463.03 2413.5
959.49 479.75 2500.6
980.77 487.09 2538.9
975.59 474.96 2475.7
976.45 472.27 2461.6
576.82 478.50 2528.3
570.89 468.26 2474.2
585.03 474.53 2507.3
599.33 480.78 2540.3
602.38 477.98 2525.5
620.80 487.30 2574.8
630.45 479.41 2533.1
625.13 470.46 2485.8
620.30 462.06 2441.4
614.02 452.76 2392.3
619.85 452.49 2390.8
649.83 469.68 2481.7
648.07 463.81 2450.7
627.87 445.00 2351.3
631.27 443.10 2341.2
642.88 446.95 2361.6
662.14 456.00 2409.4
672.16 458.58 2423.0
683.84 462.23 2442.3
698.55 467.84 2471.9
687.50 456.25 2410.7
687.03 451.83 2387.4
703.45 458.50 2422.6
675.51 436.39 2305.8
693.84 440.43 2327.2
731.98 460.64 2433.9
710.92 443.57 2343.7
712.49 437.07 2309.4
734.92 447.08 2362.2
754.36 455.11 2404.7
773.11 462.60 2444.2
788.75 468.12 2473.4
792.47 466.53 2465.1
789.78 461.23 2437.0
786.34 455.58 2407.2
789.84 454.00 2398.8
799.49 455.96 2409.2
817.93 462.86 2445.6
832.20 463.74 2450.3
806.04 445.76 2355.3
807.67 443.31 2342.3
833.14 453.87 2398.2
854.63 462.13 2441.8
852.76 457.73 2418.5
840.89 448.06 2367.5
839.39 444.02 2346.1
841.46 441.92 2335.0
863.62 450.32 2379.4
876.19 453.63 2396.9
878.62 451.69 2386.6
900.86 459.88 2429.9
910.20 461.42 2438.0
916.46 461.39 2437.9
918.18 459.09 2425.7
937.38 465.50 2459.6
959.89 473.46 2501.7
961.66 471.15 2489.4
969.08 471.62 2491.9
958.56 463.41 2448.5
961.55 461.80 2440.0
584.03 483.34 2589.3
574.23 469.83 2516.9
598.80 484.42 2595.1
623.62 482.80 2586.4
615.05 471.10 2523.8
608.53 461.20 2470.7
608.87 456.65 2446.3
615.33 456.74 2446.8
622.03 457.00 2448.2
615.03 447.29 2396.2
620.37 446.67 2392.9
639.40 455.81 2441.8
626.46 442.21 2369.0
621.04 434.13 2325.7
637.95 441.66 2366.0
646.00 442.97 2373.1
661.65 449.42 2407.6
687.19 462.41 2477.2
701.56 459.21 2460.0
690.32 447.78 2398.8
695.25 446.95 2394.4
690.75 440.12 2357.8
687.46 434.18 2326.0
701.17 438.99 2351.7
706.78 438.69 2350.1
706.66 434.87 2329.6
712.78 434.91 2329.9
725.86 439.17 2352.7
744.89 446.93 2394.3
762.35 453.63 2430.1
779.38 459.96 2464.1
784.00 458.93 2458.5
775.93 450.54 2413.6
791.63 455.98 2442.8
806.86 461.06 2470.0
787.09 446.23 2390.5
771.92 434.20 2326.1
778.61 434.57 2328.1
787.20 435.99 2335.6
817.03 449.06 2405.7
833.16 454.45 2434.6
832.08 450.45 2413.1
856.11 460.00 2464.3
860.52 458.95 2458.6
841.00 445.23 2385.2
823.11 432.58 2317.4
881.80 453.49 2429.4
916.80 468.15 2508.0
942.97 465.03 2491.2
946.18 463.44 2482.7
950.76 462.53 2477.9
954.25 461.11 2470.2
965.55 463.46 2482.8
973.32 464.10 2486.2
582.99 475.77 2584.7
578.43 466.68 2535.3
607.10 473.67 2573.3
601.78 464.41 2523.0
604.28 461.33 2506.2
611.59 461.95 2509.6
621.51 464.49 2523.4
619.36 458.07 2488.5
624.72 457.27 2484.2
623.03 451.38 2452.1
606.73 435.13 2363.9
624.47 434.68 2361.5
650.01 448.07 2434.2
670.27 457.59 2485.9
680.16 459.92 2498.6
682.55 457.18 2483.7
695.94 453.32 2462.7
694.84 448.49 2436.5
702.06 449.06 2439.6
708.46 449.11 2439.8
705.16 443.07 2407.0
693.05 431.64 2344.9
