ply
format ascii 1.0
element vertex 2081
property float x
property float y
property float z
end_header
-1287.57 993.07 2641.7
-1272.39 986.61 2624.5
-1269.62 989.75 2632.8
-1264.35 990.97 2636.1
-1237.45 975.16 2594.0
-1216.41 963.82 2563.9
-1202.37 957.93 2548.2
-1199.65 961.04 2556.5
-1186.88 956.10 2543.3
-1176.55 953.07 2535.3
-1188.46 968.13 2575.3
-1193.49 977.71 2600.8
-1194.07 983.75 2616.9
-1187.54 983.96 2617.4
-1164.28 970.23 2580.9
-1154.72 967.83 2574.5
-1173.31 989.13 2631.2
-1187.42 1006.88 2678.4
-1173.86 1001.24 2663.4
-1119.77 960.75 2555.7
-1113.65 966.94 2572.2
-1152.76 1006.93 2678.5
-1132.65 995.36 2647.8
-1139.30 1007.31 2679.5
-1116.74 993.42 2642.6
-1087.68 985.71 2622.1
-1113.45 1015.41 2701.1
-1110.92 1019.52 2712.0
-1116.53 1031.19 2743.1
-1064.42 1008.77 2683.4
-1041.00 993.06 2641.6
-1043.22 1001.77 2664.8
-1033.70 999.25 2658.1
-1033.39 1005.65 2675.1
-1053.28 1031.93 2745.0
-1040.61 1040.61 2768.1
-996.33 1010.27 2687.4
-991.74 1012.69 2693.9
-991.80 1034.62 2752.2
-970.01 1034.21 2751.1
-996.27 1070.06 2846.5
-1370.30 976.85 2616.6
-1356.93 972.13 2603.9
-1356.28 976.52 2615.7
-1352.52 978.71 2621.5
-1351.34 982.79 2632.5
-1365.64 998.24 2673.8
-1309.70 962.23 2577.4
-1294.94 961.19 2574.6
-1316.95 987.71 2645.7
-1293.21 974.99 2611.6
-1270.45 962.87 2579.1
-1251.17 953.27 2553.4
-1247.77 955.74 2560.0
-1231.10 948.02 2539.3
-1226.87 949.84 2544.2
-1242.29 966.97 2590.1
-1235.47 966.89 2589.9
-1233.93 970.96 2600.8
-1238.80 980.15 2625.4
-1209.76 962.46 2578.0
-1188.56 956.16 2561.1
-1229.00 994.25 2663.2
-1220.81 993.20 2660.4
-1208.69 988.93 2648.9
-1176.27 967.91 2592.6
-1145.10 953.15 2553.1
-1193.05 998.83 2675.4
-1169.76 990.85 2654.1
-1145.26 975.85 2613.9
-1126.99 965.99 2587.5
-1103.94 951.90 2549.7
-1093.68 954.48 2556.6
-1134.58 996.22 2668.4
-1118.30 987.95 2646.3
-1072.08 952.96 2552.6
-1067.80 955.05 2558.2
-1096.46 986.81 2643.2
-1118.23 1012.74 2712.7
-1111.39 1012.91 2713.2
-1087.08 997.07 2670.7
-1086.34 1002.78 2686.0
-1081.59 1017.97 2726.7
-1075.37 1018.78 2728.9
-1063.92 1021.36 2735.8
-1033.83 999.14 2676.3
-1025.32 997.61 2672.2
-1023.88 1002.99 2686.6
-1022.12 1022.12 2737.8
-990.53 997.46 2671.8
-1021.84 1036.23 2775.6
-1011.19 1032.70 2766.2
-982.23 1010.29 2706.1
-989.68 1025.28 2746.3
-966.44 1008.46 2701.2
-1394.16 986.95 2662.1
-1374.10 977.59 2636.9
-1331.84 952.27 2568.6
-1291.86 937.75 2529.4
-1319.64 962.80 2597.0
-1329.57 975.01 2629.9
-1344.89 991.34 2673.9
-1309.83 975.55 2631.4
-1272.64 952.81 2570.0
-1264.63 951.80 2567.3
-1260.39 953.63 2572.2
-1253.22 953.24 2571.2
-1233.21 943.04 2543.7
-1220.73 938.52 2531.5
-1227.99 949.20 2560.3
-1235.53 960.22 2590.0
-1247.40 974.75 2629.2
-1211.82 962.73 2596.8
-1198.98 957.85 2583.6
-1227.61 991.80 2675.2
-1206.41 980.21 2643.9
-1165.37 952.28 2568.6
-1149.60 944.79 2548.4
-1201.75 993.35 2679.4
-1161.51 971.32 2619.9
-1148.07 965.73 2604.9
-1135.08 960.45 2590.6
-1110.04 944.85 2548.6
-1125.75 975.65 2631.6
-1103.28 973.89 2626.9
-1094.83 972.43 2622.9
-1089.65 973.88 2626.8
-1074.71 966.57 2607.1
-1069.54 968.00 2611.0
-1048.31 954.83 2575.5
-1032.90 946.82 2553.9
-1040.85 960.27 2590.1
-1039.87 965.60 2604.5
-1029.76 962.46 2596.0
-1059.19 996.48 2687.8
-1048.09 1012.68 2731.5
-1030.04 1002.01 2702.7
-1015.79 994.92 2683.6
-987.00 973.38 2625.5
-1011.64 1011.64 2728.7
-1000.57 1036.83 2796.6
-998.73 1057.92 2853.5
-997.31 1064.29 2870.7
-1393.42 965.20 2621.8
-1330.13 944.39 2565.2
-1293.00 936.76 2544.5
-1294.05 942.33 2559.7
-1296.30 948.84 2577.3
-1302.73 958.49 2603.5
-1255.30 928.40 2521.8
-1250.83 934.83 2539.3
-1255.84 943.54 2562.9
-1256.59 949.12 2578.1
-1242.35 943.39 2562.5
-1239.32 946.14 2570.0
-1259.63 966.85 2626.3
-1275.21 984.13 2673.2
-1245.43 966.40 2625.0
-1241.77 968.85 2631.7
-1247.75 978.89 2659.0
-1184.60 934.52 2538.4
-1171.54 934.60 2538.6
-1186.56 951.93 2585.7
-1191.13 961.02 2610.4
-1169.73 949.15 2578.2
-1173.42 957.62 2601.2
-1189.03 975.97 2651.0
-1154.62 953.23 2589.3
-1128.54 937.15 2545.6
-1132.08 945.62 2568.6
-1127.91 947.71 2574.3
-1110.46 938.61 2549.5
-1100.98 941.80 2558.2
-1107.94 953.50 2590.0
-1115.12 965.53 2622.7
-1137.26 990.74 2691.2
-1123.52 984.82 2675.1
-1121.89 989.49 2687.8
-1123.82 997.39 2709.2
-1077.31 962.12 2613.4
-1044.85 939.05 2550.7
-1049.43 949.17 2578.2
-1058.14 963.18 2616.3
-1042.68 955.23 2594.7
-1023.89 950.28 2581.2
-1078.01 1007.09 2735.6
-1075.22 1011.13 2746.5
-1021.97 967.46 2627.9
-1027.20 978.94 2659.1
-1031.94 990.10 2689.4
-1014.31 979.81 2661.4
-999.81 972.42 2641.4
-1000.52 986.62 2680.0
-1005.83 998.79 2713.0
-1006.07 1006.07 2732.8
-997.26 1011.50 2747.5
-981.21 1017.02 2762.5
-976.95 1020.05 2770.8
-991.69 1043.11 2833.4
-984.87 1051.51 2856.2
-1354.23 954.74 2611.7
-1300.55 930.85 2546.4
-1316.28 946.92 2590.3
-1291.50 933.85 2554.6
-1316.57 971.92 2658.7
-1297.04 962.54 2633.1
-1272.59 949.40 2597.1
-1305.32 978.99 2678.1
-1275.66 967.03 2645.4
-1255.17 956.65 2617.0
-1256.07 967.79 2647.5
-1207.39 935.40 2558.8
-1205.87 949.88 2598.4
-1157.70 927.48 2537.2
-1188.59 957.67 2619.8
-1134.46 919.31 2514.8
-1127.24 924.08 2527.9
-1173.17 967.35 2646.2
-1171.14 971.36 2657.2
-1161.83 969.33 2651.7
-1152.15 966.98 2645.2
-1138.74 961.45 2630.1
-1121.63 952.71 2606.2
-1099.04 939.18 2569.2
-1071.86 932.92 2552.1
-1124.53 984.84 2694.1
-1092.17 968.53 2649.5
-1069.32 954.26 2610.4
-1085.55 974.92 2667.0
-1078.80 975.07 2667.4
-1046.27 951.77 2603.6
-1031.22 944.17 2582.8
-1053.28 970.67 2655.3
-1083.60 1011.84 2768.0
-1019.29 958.14 2621.0
-1009.54 955.34 2613.4
-1034.40 985.47 2695.8
-1040.67 998.20 2730.6
-1028.70 993.47 2717.7
-1017.44 989.37 2706.5
-1023.77 1002.44 2742.2
-1022.36 1008.06 2757.6
-997.68 1004.81 2748.7
-995.78 1010.11 2763.2
-989.00 1048.49 2868.2
-1355.59 948.91 2614.3
-1319.39 932.91 2570.2
-1344.71 955.63 2632.9
-1345.62 961.16 2648.1
-1349.04 968.54 2668.4
-1338.68 966.06 2661.6
-1311.75 951.53 2621.6
-1315.58 969.37 2670.7
-1261.76 934.63 2575.0
-1267.49 943.87 2600.5
-1288.10 969.54 2671.2
-1230.47 941.34 2593.5
-1229.72 951.16 2620.6
-1219.20 948.27 2612.6
-1214.58 955.28 2631.9
-1177.66 942.13 2595.7
-1141.12 918.14 2529.6
-1156.65 941.46 2593.8
-1184.60 975.56 2687.8
-1165.32 965.35 2659.6
-1148.43 957.02 2636.7
-1150.48 964.48 2657.2
-1145.69 966.24 2662.1
-1134.53 962.63 2652.1
-1104.48 942.85 2597.6
-1076.88 924.93 2548.3
-1114.13 962.83 2652.7
-1114.39 969.03 2669.8
-1067.69 934.23 2573.9
-1079.60 950.59 2619.0
-1108.54 982.25 2706.2
-1093.09 980.98 2702.7
-1054.81 952.73 2624.9
-1036.19 942.00 2595.3
-1050.20 960.97 2647.6
-1086.20 1000.45 2756.3
-1058.50 987.93 2721.8
-1017.45 955.99 2633.9
-1012.77 958.02 2639.5
-1038.74 989.28 2725.6
-1048.57 1005.47 2770.2
-1031.52 995.95 2743.9
-1032.14 1003.47 2764.7
-1016.54 995.21 2741.9
-1014.95 1029.66 2836.8
-972.55 993.85 2738.1
-986.61 1015.62 2798.1
-991.00 1027.70 2831.4
-1397.03 961.32 2667.6
-1356.24 937.90 2602.6
-1329.41 933.28 2589.8
-1365.54 963.50 2673.6
-1356.88 962.28 2670.2
-1351.24 963.19 2672.8
-1284.10 939.42 2606.8
-1271.90 945.43 2623.5
-1258.42 940.43 2609.6
-1232.14 935.89 2597.0
-1210.65 945.39 2623.4
-1221.56 959.31 2662.0
-1185.36 936.17 2597.8
-1185.95 941.98 2613.9
-1170.44 935.01 2594.6
-1160.85 932.70 2588.2
-1197.70 967.91 2685.9
-1161.19 955.06 2650.2
-1109.05 917.61 2546.3
-1125.12 942.11 2614.3
-1153.55 977.70 2713.1
-1146.74 977.89 2713.6
-1120.30 967.22 2684.0
-1075.00 933.91 2591.5
-1089.05 952.07 2641.9
-1100.35 968.03 2686.2
-1090.35 965.34 2678.7
-1070.41 953.77 2646.6
-1033.29 926.63 2571.3
-1031.32 930.87 2583.1
-1062.86 965.60 2679.5
-1061.27 970.50 2693.1
-1035.77 953.46 2645.8
-1026.63 951.34 2639.9
-1015.12 946.99 2627.8
-1025.73 963.36 2673.2
-1071.23 1012.94 2810.8
-1033.95 991.17 2750.4
-1038.54 1002.48 2781.8
-1025.86 997.16 2767.0
-1002.11 980.94 2722.0
-1010.43 996.10 2764.1
-1010.48 1003.26 2784.0
-1009.15 1009.15 2800.3
-1023.36 1030.78 2860.3
-1014.16 1028.96 2855.3
-986.08 1007.84 2796.7
-1372.31 937.52 2620.4
-1322.04 921.42 2575.4
-1333.95 934.44 2611.8
-1301.68 916.49 2561.6
-1321.63 935.31 2614.2
-1348.48 964.20 2695.0
-1326.63 953.51 2665.1
-1313.35 948.91 2652.2
-1263.80 927.68 2592.9
-1247.86 920.88 2573.9
-1250.07 937.55 2620.5
-1210.03 927.69 2592.9
-1198.43 939.67 2626.4
-1220.17 962.19 2689.4
-1171.39 934.40 2611.7
-1159.83 930.56 2600.9
-1201.47 969.60 2710.1
-1195.86 970.76 2713.3
-1165.06 951.35 2659.1
-1112.11 913.52 2553.3
-1094.74 910.09 2543.7
-1111.49 929.61 2598.3
-1081.15 909.75 2542.8
-1093.95 926.17 2588.7
-1122.72 956.39 2673.1
-1106.12 960.03 2683.3
-1076.31 940.07 2627.5
-1081.11 950.28 2656.1
-1076.17 951.99 2660.9
-1057.75 941.74 2632.2
-1077.11 965.20 2697.8
-1039.43 943.69 2637.6
-1020.96 933.06 2607.9
-1018.44 936.96 2618.8
-1031.24 955.11 2669.6
-1066.24 994.19 2778.8
-1022.82 994.01 2778.3
-1031.03 1009.09 2820.4
-1029.66 1014.95 2836.8
-999.93 992.74 2774.7
-984.22 984.22 2750.9
-1015.23 1022.64 2858.3
-994.67 1016.77 2841.9
-978.69 1007.90 2817.1
-1361.81 932.84 2626.3
-1345.99 931.32 2622.1
-1341.78 933.11 2627.1
-1334.08 932.49 2625.4
-1336.68 943.94 2657.6
-1270.68 911.43 2566.1
-1250.50 906.45 2552.0
-1265.49 922.19 2596.4
-1233.50 913.46 2571.8
-1257.89 936.58 2636.9
-1250.97 936.52 2636.7
-1239.17 932.78 2626.2
-1211.64 917.10 2582.0
-1244.28 947.03 2666.3
-1220.45 934.08 2629.9
-1173.18 913.22 2571.1
-1182.49 925.72 2606.3
-1220.19 960.73 2704.9
-1195.95 947.08 2666.4
-1133.79 913.70 2572.5
-1159.01 939.55 2645.2
-1125.80 918.07 2584.8
-1096.26 899.33 2532.0
-1120.69 924.91 2604.0
-1134.33 941.84 2651.7
-1096.79 916.22 2579.6
-1102.86 926.95 2609.8
-1097.38 928.03 2612.8
-1079.44 918.53 2586.1
-1086.73 930.52 2619.8
-1064.18 916.93 2581.6
-1055.84 915.50 2577.5
-1082.60 944.69 2659.7
-1033.58 925.49 2605.7
-1012.35 918.49 2586.0
-1037.07 947.19 2666.7
-1078.51 991.65 2791.9
-1060.89 982.04 2764.9
-1032.24 962.02 2708.5
-1040.79 976.63 2749.6
-1038.24 994.68 2800.5
-1002.65 1002.65 2822.9
-1016.55 1024.03 2883.1
-977.87 992.35 2793.9
-974.66 1003.97 2826.6
-1349.32 922.15 2615.3
-1376.95 945.78 2682.4
-1369.01 954.80 2707.9
-1311.73 934.00 2649.0
-1321.67 946.04 2683.1
-1298.74 934.54 2650.5
-1284.30 929.07 2635.0
-1296.12 942.63 2673.4
-1283.38 943.46 2675.8
-1234.13 912.18 2587.1
-1216.70 904.21 2564.5
-1199.61 906.37 2570.6
-1230.10 934.60 2650.7
-1199.98 916.84 2600.3
-1193.51 917.05 2600.9
-1195.34 923.67 2619.7
-1191.17 925.71 2625.4
-1217.51 951.62 2698.9
-1215.48 955.52 2710.0
-1152.91 911.60 2585.4
-1131.39 899.82 2552.0
-1190.23 952.19 2700.5
-1185.02 953.63 2704.6
-1121.27 907.69 2574.3
-1119.33 911.55 2585.3
-1173.38 961.32 2726.4
-1090.09 920.82 2611.6
-1059.11 911.64 2585.5
-1062.58 920.46 2610.5
-1065.94 929.29 2635.6
-1076.27 944.34 2678.3
-1047.29 924.88 2623.1
-1018.55 905.38 2567.8
-1022.46 914.83 2594.6
-1042.52 938.96 2663.0
-1053.15 967.76 2744.7
-1016.41 940.35 2667.0
-1018.68 948.91 2691.2
-1030.53 966.57 2741.3
-1034.51 977.03 2771.0
-1007.31 958.00 2717.0
-998.30 991.01 2810.6
-1392.73 930.79 2659.4
-1343.82 907.08 2591.6
-1390.05 943.00 2694.3
-1375.24 937.66 2679.0
-1360.49 932.31 2663.7
-1369.58 943.33 2695.2
-1297.57 898.32 2566.6
-1276.19 902.02 2577.2
-1280.81 910.05 2600.1
-1255.11 896.51 2561.5
-1268.86 911.15 2603.3
-1292.50 943.17 2694.8
-1218.13 893.73 2553.5
-1220.17 910.07 2600.2
-1214.13 910.60 2601.7
-1207.27 910.51 2601.5
-1191.62 903.75 2582.2
-1199.10 914.57 2613.0
-1208.42 926.91 2648.3
-1213.64 936.24 2675.0
-1227.75 952.57 2721.6
-1213.58 947.02 2705.8
-1201.42 942.98 2694.2
-1145.72 915.22 2614.9
-1127.30 911.29 2603.7
-1148.60 934.10 2668.9
-1140.03 932.76 2665.0
-1124.78 925.88 2645.4
-1133.68 938.94 2682.7
-1068.22 901.31 2575.2
-1049.04 896.33 2560.9
-1064.05 914.95 2614.1
-1054.57 912.61 2607.5
-1050.79 915.21 2614.9
-1075.19 942.53 2693.0
-1048.55 950.02 2714.4
-1018.15 928.72 2653.5
-1001.57 919.81 2628.0
-1042.29 963.76 2753.6
-1047.35 988.75 2825.0
-1016.52 966.41 2761.2
-1041.12 996.81 2848.0
-1033.54 996.63 2847.5
-997.94 969.22 2769.2
-1007.50 985.59 2816.0
-1012.06 997.29 2849.4
-997.83 990.50 2830.0
-1373.51 915.67 2635.7
-1384.28 927.47 2669.7
-1375.26 930.73 2679.1
-1342.26 913.01 2628.1
-1334.12 912.11 2625.5
-1347.98 926.30 2666.3
-1363.80 942.00 2711.5
-1345.66 934.29 2689.3
-1317.83 919.73 2647.4
-1307.54 917.33 2640.5
-1296.01 914.03 2631.0
-1260.15 893.44 2571.7
-1264.27 901.13 2593.9
-1276.46 929.60 2675.8
-1233.56 913.24 2628.7
-1257.70 936.29 2695.1
-1221.56 935.36 2692.4
-1190.17 916.57 2638.3
-1186.33 918.89 2645.0
-1188.27 925.74 2664.7
-1172.35 918.68 2644.4
-1136.14 906.21 2608.5
-1126.18 903.64 2601.1
-1117.01 901.68 2595.5
-1140.45 926.18 2666.0
-1106.29 909.47 2617.9
-1076.46 890.41 2563.0
-1109.59 923.51 2658.3
-1098.51 920.01 2648.2
-1063.85 902.25 2597.1
-1051.16 897.17 2582.5
-1047.28 905.39 2606.1
-1017.19 927.23 2669.0
-1038.33 952.98 2743.1
-1029.08 971.10 2795.3
-997.37 961.50 2767.6
-1002.78 973.72 2802.8
-1408.51 941.37 2730.1
-1394.93 937.00 2717.4
-1384.00 934.38 2709.8
-1373.97 932.33 2703.9
-1389.82 947.93 2749.1
-1367.66 947.39 2747.5
-1319.00 918.46 2663.6
-1345.83 942.08 2732.1
-1345.89 947.10 2746.7
-1275.57 902.40 2617.0
-1253.71 891.68 2586.0
-1214.41 887.45 2573.7
-1210.46 889.45 2579.5
-1225.45 905.47 2626.0
-1220.95 907.19 2630.9
-1238.81 925.63 2684.4
-1220.81 927.81 2690.8
-1198.43 916.04 2656.6
-1206.26 927.36 2689.4
-1170.43 905.04 2624.7
-1157.24 910.73 2641.2
-1164.71 922.06 2674.1
-1138.70 906.87 2630.0
-1124.18 900.70 2612.1
-1142.36 920.81 2670.5
-1100.38 897.86 2603.9
-1086.13 902.85 2618.4
-1099.85 920.00 2668.1
-1098.17 924.41 2680.9
-1068.06 904.79 2624.0
-1033.09 886.46 2570.8
-1397.58 927.04 2708.9
-1384.03 922.69 2696.2
-1352.26 906.09 2647.7
-1321.13 889.74 2599.9
-1316.07 890.88 2603.2
-1338.93 911.03 2662.1
-1368.55 940.88 2749.3
-1318.59 911.27 2662.8
-1347.98 936.49 2736.5
-1338.36 934.73 2731.3
-1260.91 885.32 2587.0
-1280.20 913.44 2669.1
-1253.94 909.45 2657.5
-1231.15 897.85 2623.6
-1224.65 898.08 2624.3
-1202.47 886.74 2591.1
-1203.23 892.28 2607.3
-1202.72 896.95 2620.9
-1179.95 884.97 2585.9
-1192.05 899.14 2627.4
-1226.72 930.61 2719.3
-1223.09 933.23 2727.0
-1175.11 901.83 2635.2
-1165.82 899.93 2629.7
-1203.51 934.49 2730.6
-1146.45 911.63 2663.9
-1132.26 905.81 2646.8
-1112.55 895.47 2616.6
-1100.02 890.82 2603.0
-1076.47 877.12 2563.0
-1066.68 874.55 2555.5
-1101.86 909.04 2656.3
-1084.62 900.44 2631.2
-1052.32 879.15 2568.9
-1083.17 910.69 2661.1
-1060.47 903.11 2639.0
-1044.78 913.31 2668.8
-1021.76 899.15 2627.4
-1026.40 909.29 2657.0
-1039.80 940.09 2747.0
-1023.42 931.67 2722.4
-1424.75 923.97 2720.5
-1353.70 891.13 2623.8
-1364.37 902.69 2657.9
-1354.87 900.96 2652.8
-1327.18 887.04 2611.8
-1325.56 890.50 2622.0
-1330.64 907.88 2673.2
-1345.34 922.72 2716.8
-1352.66 932.62 2746.0
-1320.71 915.41 2695.3
-1296.10 903.13 2659.2
-1281.64 897.84 2643.6
-1279.30 901.01 2652.9
-1251.91 896.17 2638.7
-1244.17 895.53 2636.8
-1257.95 910.45 2680.7
-1258.20 915.69 2696.1
-1239.87 907.39 2671.7
-1220.45 898.19 2644.6
-1200.73 888.68 2616.6
-1182.72 880.32 2592.0
-1197.97 896.77 2640.4
-1209.08 910.28 2680.2
-1184.04 896.59 2639.9
-1171.62 892.34 2627.4
-1196.80 916.84 2699.5
-1195.85 921.51 2713.3
-1128.36 890.45 2621.8
-1112.76 883.46 2601.3
-1114.06 889.89 2620.2
-1121.95 901.69 2654.9
-1123.03 908.13 2673.9
-1053.40 873.39 2571.6
-1056.59 881.61 2595.8
-1086.84 912.67 2687.3
-1052.74 895.51 2636.7
-1020.03 873.36 2571.5
-1035.85 892.74 2628.6
-1038.20 900.69 2652.0
-1025.24 895.38 2636.3
-1041.20 915.42 2695.3
-1036.40 917.35 2701.0
-1019.68 908.69 2675.5
-1014.89 910.62 2681.2
-1018.78 920.41 2710.1
-1006.80 935.40 2754.2
-993.27 929.42 2736.6
-993.37 936.20 2756.5
-1378.80 905.27 2686.0
-1400.61 924.26 2742.3
-1399.61 928.31 2754.3
-1393.81 929.21 2757.0
-1357.01 909.34 2698.0
-1322.17 890.58 2642.4
-1327.23 898.65 2666.3
-1327.94 903.83 2681.7
-1323.93 905.84 2687.7
-1289.14 886.71 2630.9
-1260.46 871.59 2586.0
-1293.33 899.11 2667.7
-1242.35 877.75 2604.3
-1225.39 875.28 2597.0
-1229.93 883.37 2621.0
-1217.78 879.51 2609.5
-1217.75 884.40 2624.0
-1216.05 888.12 2635.1
-1223.46 898.59 2666.1
-1233.12 910.83 2702.5
-1203.51 894.04 2652.6
-1170.18 874.27 2594.0
-1168.01 877.70 2604.2
-1177.07 889.65 2639.6
-1158.09 880.42 2612.2
-1118.80 855.55 2538.5
-1110.24 869.46 2579.7
-1096.61 863.99 2563.5
-1099.86 871.84 2586.8
-1102.12 901.10 2673.6
-1040.37 856.00 2539.8
-1034.64 856.71 2541.9
-1056.10 880.08 2611.2
-1071.18 898.41 2665.6
-1047.45 884.21 2623.5
-1012.84 871.98 2587.2
-1006.59 872.38 2588.4
-1027.14 896.16 2658.9
-1025.84 901.08 2673.5
-1004.99 913.63 2710.8
-1001.04 916.44 2719.1
-994.09 916.54 2719.4
-997.87 926.59 2749.2
-1423.97 913.89 2732.6
-1366.84 886.04 2649.3
-1406.81 916.56 2740.5
-1387.04 912.90 2729.6
-1335.90 883.75 2642.4
-1356.58 902.06 2697.2
-1374.88 918.96 2747.7
-1342.59 902.06 2697.2
-1306.26 882.24 2637.9
-1334.93 906.35 2710.0
-1331.69 908.93 2717.7
-1265.05 868.04 2595.5
-1267.43 874.32 2614.3
-1295.10 898.21 2685.7
-1267.80 884.04 2643.3
-1236.97 867.23 2593.0
-1244.93 877.57 2624.0
-1228.23 870.56 2603.0
-1203.24 867.14 2592.8
-1209.63 876.64 2621.2
-1224.27 892.26 2667.9
-1216.86 891.90 2666.8
-1171.10 863.27 2581.2
-1164.09 868.02 2595.4
-1178.25 883.68 2642.2
-1163.51 877.74 2624.5
-1118.00 848.37 2536.6
-1117.47 863.20 2581.0
-1134.03 881.27 2635.0
-1113.51 870.56 2603.0
-1113.69 876.01 2619.3
-1102.36 883.26 2641.0
-1065.31 858.91 2568.2
-1021.61 855.76 2558.8
-1033.40 871.30 2605.2
-1021.88 867.25 2593.1
-1017.36 869.14 2598.8
-1016.29 885.82 2648.6
-998.32 876.08 2619.5
-995.59 891.88 2666.8
-1013.60 920.81 2753.2
-996.09 911.32 2724.9
-1430.64 915.61 2759.1
-1398.04 899.24 2709.8
-1398.78 913.49 2752.7
-1324.27 873.74 2632.9
-1337.15 886.81 2672.3
-1305.00 870.00 2621.7
-1300.07 880.47 2653.2
-1349.83 919.03 2769.4
-1333.87 913.02 2751.3
-1279.30 899.73 2711.2
-1244.55 880.12 2652.2
-1242.45 883.52 2662.4
-1222.56 874.24 2634.4
-1199.18 862.33 2598.6
-1203.90 870.62 2623.5
-1189.44 865.04 2606.7
-1177.01 860.90 2594.2
-1189.44 874.99 2636.7
-1182.09 874.61 2635.5
-1177.46 876.25 2640.5
-1125.80 852.68 2569.5
-1104.45 841.49 2535.7
-1148.86 891.24 2685.7
-1103.58 861.33 2595.5
-1104.86 867.62 2614.5
-1052.29 852.49 2568.9
-1067.76 870.53 2623.2
-1053.23 864.19 2604.1
-1053.13 881.05 2655.0
-1062.29 900.49 2713.5
-1019.40 869.89 2621.3
-1010.83 874.23 2634.4
-1051.39 915.50 2758.8
-988.92 897.74 2705.3
-1004.47 918.38 2767.4
-1437.28 908.13 2758.1
-1435.50 911.54 2768.5
-1422.68 907.94 2757.5
-1426.11 914.73 2778.1
-1415.91 912.80 2772.3
-1394.94 913.18 2773.4
-1386.50 912.36 2770.9
-1343.44 888.63 2698.9
-1304.89 881.50 2677.2
-1258.45 873.35 2652.5
-1266.22 883.57 2683.5
-1270.59 891.52 2707.7
-1242.31 881.42 2677.0
-1213.21 865.60 2628.9
-1215.47 872.12 2648.7
-1213.28 875.49 2659.0
-1211.42 879.15 2670.1
-1198.49 874.76 2656.7
-1165.62 855.68 2598.8
-1159.52 856.15 2600.2
-1185.23 880.26 2673.4
-1168.04 877.76 2665.9
-1110.53 839.51 2549.7
-1145.20 870.90 2645.0
-1087.84 842.41 2558.5
-1087.52 852.56 2589.3
-1116.00 880.32 2673.6
-1098.64 872.04 2648.5
-1080.29 862.87 2620.6
-1104.85 888.08 2697.2
-1071.94 878.30 2667.5
-1041.43 858.84 2608.4
-1060.90 880.61 2674.5
-1075.15 898.32 2728.3
-1043.49 877.64 2665.5
-1018.36 862.21 2618.6
-1017.89 867.60 2635.0
-1032.41 885.92 2690.6
-1038.75 909.80 2763.2
-1436.39 904.93 2770.2
-1412.11 894.10 2737.0
-1408.57 896.36 2744.0
-1391.90 890.25 2725.3
-1396.61 897.82 2748.4
-1389.09 897.57 2747.7
-1364.32 886.11 2712.6
-1263.58 851.40 2606.3
-1261.75 854.73 2616.5
-1274.39 867.96 2657.0
-1232.33 843.88 2583.3
-1236.74 856.21 2621.0
-1252.26 871.74 2668.6
-1257.84 880.49 2695.4
-1248.36 878.73 2690.0
-1231.67 871.85 2668.9
-1215.86 865.53 2649.6
-1194.96 855.48 2618.8
-1194.78 860.24 2633.4
-1182.71 856.45 2621.8
-1169.90 852.07 2608.4
-1184.08 867.40 2655.3
-1148.33 846.14 2590.2
-1138.05 848.49 2597.4
-1143.78 857.83 2626.0
-1104.85 833.60 2551.8
-1113.09 850.00 2602.0
-1117.79 858.79 2628.9
-1091.05 843.39 2581.8
-1110.86 864.00 2644.9
-1094.23 861.71 2637.9
-1070.06 847.97 2595.8
-1088.90 868.36 2658.2
-1082.64 874.44 2676.9
-1083.01 880.38 2695.0
-1076.78 886.76 2714.6
-1039.39 861.60 2637.6
-1019.79 850.95 2604.9
-1042.02 881.17 2697.5
-1030.91 889.69 2723.5
-1014.89 881.91 2699.7
-1346.44 854.34 2636.2
-1384.42 882.92 2724.4
-1409.89 903.78 2788.8
-1348.77 869.05 2681.6
-1334.92 878.24 2710.0
-1313.94 869.01 2681.5
-1285.08 854.44 2636.6
-1277.36 853.85 2634.7
-1251.82 855.07 2638.5
-1272.75 874.14 2697.3
-1259.86 874.90 2699.7
-1227.35 857.09 2644.7
-1207.93 848.27 2617.5
-1187.03 838.30 2586.8
-1159.81 833.20 2571.0
-1188.71 858.89 2650.3
-1199.29 871.58 2689.4
-1158.79 847.07 2613.8
-1116.86 826.08 2549.0
-1162.90 865.25 2669.9
-1163.07 870.57 2686.3
-1108.24 834.52 2575.1
-1098.37 832.09 2567.6
-1120.02 853.67 2634.2
-1110.04 851.26 2626.7
-1099.72 848.55 2618.4
-1086.84 843.82 2603.8
-1065.22 832.20 2567.9
-1045.35 832.28 2568.2
-1069.71 857.14 2644.9
-1055.18 867.75 2677.6
-1016.98 841.87 2597.8
-1043.06 875.05 2700.2
-1038.88 883.40 2725.9
-1014.67 868.72 2680.6
-1027.37 885.66 2732.9
-1011.71 878.22 2709.9
-1007.79 887.14 2737.5
-1409.22 891.55 2773.3
-1367.15 878.38 2732.3
-1335.68 862.63 2683.3
-1305.68 847.67 2636.8
-1296.69 846.26 2632.4
-1354.07 888.39 2763.4
-1255.64 841.62 2617.9
-1233.06 830.98 2584.8
-1236.97 838.16 2607.2
-1232.16 839.50 2611.3
-1263.64 865.70 2692.8
-1241.46 860.01 2675.1
-1223.18 852.10 2650.6
-1205.80 844.74 2627.7
-1141.56 818.23 2545.2
-1165.76 845.34 2629.5
-1188.59 866.97 2696.8
-1154.15 846.83 2634.2
-1155.61 852.95 2653.2
-1140.04 851.60 2649.0
-1100.59 827.11 2572.8
-1093.36 826.69 2571.5
-1102.93 839.04 2609.9
-1112.69 851.69 2649.3
-1094.20 842.74 2621.4
-1066.65 826.66 2571.4
-1062.51 844.56 2627.1
-1091.23 872.99 2715.5
-1087.93 875.99 2724.9
-1082.58 883.16 2747.1
-1060.61 870.97 2709.2
-1068.32 883.15 2747.1
-1053.77 876.96 2727.9
-1033.46 865.88 2693.4
-1024.57 864.26 2688.4
-1028.23 873.29 2716.5
-1039.85 889.25 2766.1
-1020.76 878.99 2734.2
-1015.79 880.83 2739.9
-986.93 886.80 2758.5
-1403.11 880.52 2761.2
-1393.40 878.91 2756.2
-1401.42 888.53 2786.3
-1382.62 881.15 2763.2
-1363.92 873.76 2740.0
-1347.88 868.00 2722.0
-1318.73 853.70 2677.1
-1281.36 851.93 2671.6
-1247.90 834.19 2615.9
-1238.15 832.20 2609.7
-1234.99 834.63 2617.3
-1270.56 863.42 2707.6
-1242.65 853.89 2677.7
-1246.89 861.62 2701.9
-1236.72 864.30 2710.3
-1216.51 855.04 2681.3
-1193.67 843.80 2646.1
-1174.12 834.78 2617.8
-1131.48 813.87 2552.2
-1196.32 865.58 2714.3
-1161.33 850.26 2666.3
-1133.31 834.71 2617.6
-1118.02 828.41 2597.8
-1098.66 819.00 2568.3
-1101.58 826.18 2590.8
-1124.18 848.31 2660.2
-1124.93 854.11 2678.4
-1096.39 837.62 2626.7
-1086.46 835.22 2619.2
-1091.91 844.69 2648.8
-1071.78 834.36 2616.5
-1050.27 828.09 2596.8
-1058.70 840.13 2634.6
-1049.89 838.55 2629.6
-1052.41 846.06 2653.1
-1060.45 858.12 2691.0
-1062.01 865.08 2712.8
-1033.44 864.72 2711.7
-1047.92 882.83 2768.5
-1000.84 873.07 2737.9
-1395.11 872.84 2759.6
-1353.84 851.38 2691.7
-1379.59 872.07 2757.1
-1350.66 871.86 2756.5
-1303.49 845.88 2674.3
-1275.54 832.17 2631.0
-1266.15 830.49 2625.7
-1273.00 839.49 2654.1
-1278.90 847.96 2680.9
-1258.29 838.86 2652.1
-1242.73 833.04 2633.7
-1273.80 858.58 2714.5
-1273.62 863.23 2729.2
-1216.31 829.00 2621.0
-1197.33 820.64 2594.5
-1224.56 844.05 2668.5
-1228.72 851.73 2692.8
-1231.18 858.31 2713.6
-1235.52 866.28 2738.8
-1198.85 850.35 2688.5
-1169.51 844.26 2669.2
-1173.96 852.52 2695.3
-1148.91 839.33 2653.6
-1136.20 835.04 2640.0
-1106.92 818.45 2587.6
-1101.91 819.71 2591.6
-1124.16 841.39 2660.1
-1122.68 845.47 2673.0
-1113.37 843.67 2667.3
-1123.21 856.45 2707.7
-1117.13 857.17 2710.0
-1084.12 837.10 2646.6
-1063.68 826.56 2613.2
-1067.86 835.12 2640.3
-1073.70 845.11 2671.9
-1063.74 842.70 2664.3
-1048.86 836.34 2644.2
-1037.58 832.79 2632.9
-1032.64 834.31 2637.8
-1063.48 864.96 2734.7
-1046.76 868.74 2746.6
-1040.46 869.43 2748.8
-1018.77 875.28 2767.3
-1002.69 873.77 2762.5
-1411.16 875.64 2791.3
-1341.68 836.82 2667.6
-1339.93 840.06 2677.9
-1342.85 846.27 2697.7
-1323.89 838.69 2673.5
-1332.68 848.70 2705.4
-1318.88 844.36 2691.6
-1315.67 846.79 2699.3
-1300.79 846.21 2697.5
-1282.52 838.84 2674.0
-1273.05 837.17 2668.7
-1235.56 816.96 2604.2
-1211.06 805.16 2566.6
-1232.09 823.66 2625.6
-1252.85 842.19 2684.7
-1215.86 821.89 2620.0
-1183.58 813.71 2593.9
-1212.08 838.07 2671.5
-1220.48 848.72 2705.5
-1219.67 853.06 2719.3
-1170.71 828.39 2640.7
-1133.88 807.05 2572.7
-1167.93 836.21 2665.6
-1176.24 847.17 2700.6
-1156.90 838.23 2672.1
-1168.45 851.70 2715.0
-1164.31 853.82 2721.8
-1134.19 836.81 2667.5
-1129.74 838.64 2673.4
-1140.14 851.58 2714.6
-1103.57 839.83 2677.1
-1085.91 831.61 2650.9
-1077.04 830.08 2646.1
-1080.79 838.31 2672.3
-1086.21 847.95 2703.0
-1071.55 841.93 2683.8
-1050.95 831.15 2649.5
-1047.75 834.07 2658.8
-1052.90 843.72 2689.5
-1047.47 844.96 2693.5
-1062.77 863.05 2751.2
-1048.62 869.06 2770.3
-1006.51 857.66 2734.0
-1006.45 863.70 2753.2
-1393.31 857.42 2756.0
-1395.30 863.07 2774.2
-1354.53 842.19 2707.1
-1348.62 847.30 2723.5
-1302.00 840.00 2700.0
-1292.05 838.09 2693.8
-1294.14 844.01 2712.9
-1262.73 828.02 2661.5
-1240.97 818.22 2630.0
-1250.84 829.28 2665.6
-1262.98 841.99 2706.4
-1227.95 823.21 2646.0
-1228.25 837.44 2691.8
-1225.56 840.38 2701.2
-1201.85 828.86 2664.2
-1191.29 826.33 2656.1
-1180.77 823.79 2647.9
-1180.40 828.35 2662.6
-1188.51 838.95 2696.6
-1189.12 844.35 2714.0
-1158.93 827.81 2660.8
-1118.66 803.83 2583.7
-1114.07 805.35 2588.6
-1149.16 835.75 2686.3
-1157.10 846.66 2721.4
-1122.44 841.83 2705.9
-1081.57 816.28 2623.8
-1060.70 810.73 2605.9
-1078.60 829.70 2666.9
-1075.80 832.88 2677.1
-1052.65 820.25 2636.5
-1056.24 828.42 2662.8
-1080.83 853.29 2742.7
-1078.45 857.04 2754.8
-1067.65 854.12 2745.4
-1052.73 847.84 2725.2
-1044.10 846.57 2721.1
-1379.67 846.29 2743.1
-1376.47 848.71 2750.9
-1348.75 835.95 2709.5
-1379.80 859.67 2786.4
-1329.15 845.82 2741.6
-1268.47 811.55 2630.5
-1256.59 808.29 2619.9
-1296.59 838.56 2718.0
-1302.31 846.86 2744.9
-1235.56 807.87 2618.5
-1270.68 840.06 2722.9
-1219.33 815.17 2642.2
-1213.58 815.91 2644.6
-1229.01 830.98 2693.4
-1191.71 810.36 2626.6
-1187.38 826.30 2678.3
-1204.38 843.07 2732.6
-1166.57 826.32 2678.4
-1112.86 793.00 2570.3
-1110.15 800.66 2595.2
-1113.41 807.90 2618.7
-1112.82 812.43 2633.3
-1107.18 828.64 2685.9
-1074.54 809.30 2623.2
-1079.51 818.22 2652.1
-1099.12 838.43 2717.6
-1097.28 842.43 2730.6
-1087.19 840.10 2723.0
-1080.19 851.28 2759.2
-1074.60 852.52 2763.3
-1064.15 849.89 2754.7
-1057.51 850.29 2756.1
-1008.50 845.15 2739.4
-1296.51 813.76 2660.0
-1297.14 818.52 2675.5
-1256.67 797.24 2606.0
-1232.21 790.22 2583.1
-1255.58 809.61 2646.4
-1213.87 791.37 2586.8
-1214.32 809.55 2646.2
-1177.77 789.64 2581.2
-1182.89 797.60 2607.2
-1182.34 801.82 2621.0
-1186.54 814.02 2660.8
-1208.41 833.87 2725.7
-1210.18 840.01 2745.8
-1197.29 840.95 2748.9
-1161.37 820.61 2682.4
-1156.95 822.41 2688.3
-1130.53 808.50 2642.8
-1110.25 808.70 2643.4
-1105.42 815.25 2664.9
-1093.57 811.58 2652.9
-1104.76 825.07 2697.0
-1100.50 827.13 2703.7
-1111.36 840.64 2747.9
-1106.59 842.44 2753.7
-1094.65 838.76 2741.7
-1079.83 843.84 2758.3
-1073.20 844.25 2759.7
-1043.69 826.55 2701.8
-1030.31 827.05 2703.4
-1040.79 841.19 2749.6
-1044.97 856.29 2799.0
-1016.80 839.04 2742.6
-1005.50 835.55 2731.2
-1012.06 846.97 2768.5
-1392.30 835.38 2754.0
-1361.35 821.02 2706.7
-1338.00 823.93 2716.2
-1322.64 823.13 2713.6
-1263.40 790.47 2605.9
-1223.68 782.35 2579.2
-1240.76 797.63 2629.5
-1244.41 822.58 2711.8
-1202.10 799.12 2634.5
-1199.54 801.98 2643.9
-1204.46 809.90 2670.0
-1182.84 799.96 2637.2
-1189.62 809.22 2667.8
-1188.06 812.88 2679.8
-1187.99 817.62 2695.4
-1207.57 836.01 2756.1
-1184.56 824.96 2719.7
-1159.02 812.01 2677.0
-1138.24 802.25 2644.8
-1097.89 778.51 2566.5
-1111.03 792.63 2613.1
-1135.58 815.11 2687.2
-1071.51 788.47 2599.3
-1088.66 806.16 2657.7
-1090.30 812.52 2678.6
-1093.65 820.24 2704.1
-1080.37 815.50 2688.5
-1085.35 824.58 2718.4
-1083.30 844.97 2785.6
-1036.50 836.34 2757.2
-1044.63 848.76 2798.1
-1033.50 845.59 2787.7
-1368.65 818.37 2721.2
-1390.57 835.78 2779.1
-1339.40 813.46 2704.8
-1354.14 826.74 2749.0
-1347.10 831.19 2763.8
-1267.19 794.56 2642.0
-1293.93 815.74 2712.4
-1250.88 792.91 2636.5
-1227.91 782.62 2602.3
-1242.79 796.49 2648.4
-1230.54 793.02 2636.9
-1237.02 801.65 2665.6
-1238.92 807.39 2684.7
-1247.17 817.36 2717.8
-1247.26 822.06 2733.5
-1221.38 809.60 2692.0
-1203.21 802.14 2667.2
-1150.88 780.71 2596.0
-1178.61 804.23 2674.1
-1195.93 820.87 2729.5
-1171.81 809.11 2690.4
-1147.86 797.32 2651.2
-1127.89 788.16 2620.7
-1117.14 785.39 2611.5
-1163.76 823.15 2737.1
-1117.59 800.25 2660.9
-1116.39 809.39 2691.3
-1114.77 813.29 2704.3
-1078.75 791.99 2633.5
-1097.52 810.91 2696.4
-1115.28 829.31 2757.6
-1098.64 822.21 2733.9
-1102.10 830.15 2760.4
-1055.71 816.42 2714.7
-1030.56 807.74 2685.8
-1037.48 853.53 2838.1
-1354.68 803.03 2693.4
-1372.33 826.27 2771.4
-1345.11 814.15 2730.7
-1349.09 820.88 2753.3
-1327.58 812.08 2723.8
-1282.59 788.76 2645.5
-1258.33 782.20 2623.5
-1308.00 817.50 2741.9
-1285.97 808.12 2710.5
-1231.93 778.42 2610.8
-1218.51 774.19 2596.7
-1191.03 765.18 2566.5
-1197.19 773.47 2594.2
-1210.08 786.21 2637.0
-1186.25 788.55 2644.8
-1162.13 781.55 2621.3
-1153.64 780.40 2617.5
-1136.26 773.19 2593.3
-1168.67 799.98 2683.2
-1168.62 819.46 2748.5
-1133.60 799.78 2682.5
-1122.76 797.02 2673.2
-1137.59 812.56 2725.4
-1081.97 787.51 2641.3
-1092.78 816.04 2737.0
-1061.35 797.75 2675.7
-1079.31 816.58 2738.9
-1067.82 813.24 2727.6
-1047.29 802.93 2693.0
-1050.53 810.81 2719.5
-1049.84 815.76 2736.1
-1366.32 802.89 2716.5
-1379.41 819.03 2771.1
-1342.24 801.13 2710.6
-1325.82 795.49 2691.5
-1326.48 800.10 2707.1
-1338.98 816.28 2761.8
-1327.17 817.83 2767.1
-1311.26 812.41 2748.8
-1311.16 816.79 2763.6
-1278.00 800.51 2708.5
-1290.63 812.89 2750.4
-1277.93 813.88 2753.7
-1272.77 815.15 2758.0
-1209.99 779.32 2636.8
-1195.03 774.06 2619.0
-1240.78 812.93 2750.5
-1185.37 781.11 2642.9
-1163.07 770.87 2608.2
-1198.82 799.21 2704.1
-1208.84 810.63 2742.7
-1170.26 789.40 2670.9
-1189.42 807.10 2730.8
-1135.04 793.83 2685.9
-1114.48 784.26 2653.5
-1101.80 789.97 2672.8
-1086.29 783.78 2651.9
-1119.55 818.13 2768.1
-1062.72 791.83 2679.1
-1055.23 791.42 2677.8
-1059.34 799.77 2706.0
-1055.98 802.55 2715.4
-1056.05 807.98 2733.8
-1050.84 809.43 2738.7
-1040.44 841.21 2846.2
-1033.87 841.86 2848.4
-1356.74 802.68 2739.9
-1338.55 796.08 2717.3
-1334.48 797.86 2723.4
-1331.23 800.16 2731.3
-1312.06 801.42 2735.6
-1263.07 784.22 2676.8
-1297.14 809.81 2764.2
-1198.61 765.21 2612.0
-1214.90 788.98 2693.1
-1220.47 797.19 2721.1
-1214.51 797.91 2723.6
-1174.44 785.28 2680.5
-1182.80 795.57 2715.6
-1174.60 799.58 2729.3
-1160.57 794.81 2713.0
-1169.28 805.66 2750.0
-1145.12 793.85 2709.7
-1113.66 776.81 2651.6
-1099.91 791.65 2702.2
-1074.28 778.17 2656.2
-1060.85 778.42 2657.0
-1070.85 790.89 2699.6
-1047.39 778.65 2657.9
-1059.78 798.37 2725.1
-1070.84 817.60 2790.8
-1031.83 793.18 2707.4
-1025.87 822.15 2806.3
-1361.97 802.85 2764.9
-1349.29 799.58 2753.7
-1338.78 797.57 2746.7
-1320.26 790.75 2723.2
-1283.62 781.34 2690.8
-1275.36 784.84 2702.9
-1280.22 792.18 2728.2
-1282.51 798.01 2748.2
-1276.98 799.00 2751.7
-1224.02 770.17 2652.4
-1192.16 767.36 2642.7
-1211.70 784.45 2701.6
-1221.53 795.41 2739.3
-1146.78 769.10 2648.7
-1136.72 766.94 2641.3
-1136.56 771.48 2656.9
-1155.99 789.46 2718.8
-1127.75 774.90 2668.7
-1094.87 756.95 2606.8
-1130.35 786.33 2708.0
-1106.03 789.02 2717.3
-1083.98 778.24 2680.2
-1063.96 783.97 2699.9
-1052.20 780.44 2687.7
-1075.47 803.02 2765.5
-1038.43 824.85 2840.7
-1347.50 791.39 2750.0
-1255.79 753.48 2618.3
-1314.78 793.15 2756.1
-1296.33 790.62 2747.3
-1272.32 780.27 2711.3
-1223.51 754.50 2621.8
-1199.59 748.06 2599.4
-1210.90 759.38 2638.8
-1182.27 745.64 2591.0
-1185.02 751.64 2611.9
-1186.88 757.15 2631.0
-1166.88 748.69 2601.6
-1167.88 753.69 2619.0
-1205.65 782.61 2719.5
-1190.19 781.72 2716.4
-1124.03 747.11 2596.1
-1120.36 758.29 2635.0
-1110.36 756.14 2627.5
-1092.16 748.33 2600.4
-1147.03 790.81 2748.0
-1126.99 786.77 2733.9
-1079.10 758.10 2634.3
-1097.22 775.74 2695.6
-1098.32 791.64 2750.9
-1069.13 796.46 2767.6
-1046.12 812.02 2821.7
-1049.29 820.22 2850.2
-1034.81 820.45 2851.0
-1373.90 787.13 2760.1
-1347.51 788.43 2764.6
-1335.28 785.46 2754.2
-1300.90 773.51 2712.3
-1282.58 766.76 2688.6
-1300.89 781.96 2741.9
-1268.14 766.46 2687.6
-1286.21 781.68 2740.9
-1278.66 781.41 2740.0
-1199.89 745.69 2614.8
-1183.36 739.60 2593.4
-1201.70 755.36 2648.7
-1220.60 771.65 2705.8
-1218.65 774.86 2717.1
-1209.35 782.52 2743.9
-1163.30 770.86 2703.0
-1099.72 742.14 2602.3
-1102.54 748.64 2625.1
-1105.62 755.39 2648.8
-1092.66 751.20 2634.1
-1099.66 760.77 2667.6
-1115.30 776.47 2722.7
-1101.16 771.51 2705.3
-1100.51 776.00 2721.0
-1060.67 810.24 2841.1
-1338.14 767.67 2716.5
-1328.54 766.19 2711.3
-1283.72 760.47 2691.0
-1244.14 749.23 2651.3
-1290.59 785.89 2781.0
-1224.50 749.84 2653.4
-1200.97 739.58 2617.1
-1198.51 742.26 2626.6
-1228.40 765.12 2707.5
-1198.41 763.90 2703.2
-1162.02 745.06 2636.5
-1175.64 758.25 2683.2
-1178.92 778.80 2755.9
-1162.57 772.69 2734.3
-1139.91 766.97 2714.1
-1112.23 753.00 2664.6
-1135.19 773.35 2736.6
-1095.61 760.65 2691.7
-1095.72 765.60 2709.2
-1082.96 792.23 2803.4
-1054.21 797.98 2823.8
-1033.53 793.35 2807.4
-1029.14 801.26 2835.4
-1326.26 770.09 2750.3
-1320.39 770.82 2752.9
-1250.21 733.82 2620.8
-1230.53 742.44 2651.6
-1256.06 762.10 2721.8
-1235.61 753.93 2692.6
-1235.39 758.08 2707.4
-1216.29 750.62 2680.8
-1184.94 735.48 2626.7
-1202.20 750.51 2680.4
-1211.73 760.85 2717.3
-1162.97 734.51 2623.2
-1139.46 732.51 2616.1
-1175.63 760.29 2715.3
-1163.98 761.88 2721.0
-1156.43 761.55 2719.8
-1162.82 770.46 2751.6
-1138.69 759.13 2711.2
-1114.00 747.28 2668.8
-1142.53 771.21 2754.3
-1102.30 753.47 2691.0
-1054.26 729.87 2606.7
-1112.99 775.50 2769.6
-1063.34 775.95 2771.3
-1063.34 786.58 2809.2
-1049.41 781.63 2791.5
-1038.17 789.59 2820.0
-1030.09 794.64 2838.0
-1366.89 765.74 2760.4
-1311.69 750.54 2705.5
-1281.48 737.20 2657.4
-1267.84 733.29 2643.4
-1255.92 730.34 2632.7
-1266.49 740.51 2669.4
-1294.28 760.92 2743.0
-1263.25 746.78 2692.0
-1217.33 727.68 2623.1
-1249.85 751.32 2708.4
-1238.73 748.83 2699.4
-1242.52 755.40 2723.1
-1224.58 748.74 2699.1
-1178.43 724.67 2612.3
-1185.03 732.94 2642.1
-1189.91 740.23 2668.4
-1135.46 723.18 2606.9
-1152.81 738.63 2662.6
-1171.06 754.84 2721.0
-1155.50 749.33 2701.2
-1136.62 741.57 2673.2
-1128.79 740.99 2671.1
-1128.47 745.35 2686.8
-1128.82 750.21 2704.4
-1130.57 756.07 2725.5
-1123.73 756.22 2726.0
-1064.38 720.82 2598.4
-1060.39 771.85 2782.4
-1029.95 781.60 2817.5
-1030.05 787.25 2837.9
-1333.16 755.69 2749.8
-1327.30 756.42 2752.5
-1311.35 751.37 2734.1
-1298.81 748.23 2722.7
-1290.07 747.25 2719.1
-1298.31 756.16 2751.5
-1286.87 757.82 2757.6
-1260.49 746.43 2716.1
-1252.99 746.16 2715.1
-1241.44 743.46 2705.3
-1244.02 749.24 2726.3
-1197.70 742.43 2701.6
-1180.82 736.27 2679.2
-1177.65 738.64 2687.8
-1174.44 741.02 2696.4
-1179.28 748.52 2723.7
-1180.92 754.08 2744.0
-1129.81 734.72 2673.5
-1072.17 710.31 2584.7
-1092.24 728.16 2649.6
-1063.47 732.00 2663.6
-1065.84 768.57 2796.7
-1061.85 770.93 2805.3
-1034.55 777.75 2830.1
-1351.36 746.80 2743.4
-1342.56 745.86 2739.9
-1351.64 754.90 2773.1
-1352.10 759.20 2788.9
-1315.36 742.54 2727.7
-1272.16 722.04 2652.4
-1266.49 722.72 2654.9
-1262.05 724.13 2660.1
-1248.47 720.27 2645.9
-1250.61 725.49 2665.1
-1228.86 716.83 2633.3
-1207.64 708.40 2602.3
-1201.48 720.89 2648.2
-1220.86 736.72 2706.3
-1232.42 748.00 2747.8
-1166.19 728.87 2677.5
-1128.29 709.40 2606.0
-1114.09 704.69 2588.7
-1112.55 707.99 2600.8
-1133.09 729.91 2681.3
-1075.94 701.70 2577.7
-1080.21 708.89 2604.1
-1096.56 724.14 2660.1
-1088.76 723.54 2657.9
-1075.48 719.27 2642.2
-1067.36 718.41 2639.1
-1076.19 773.97 2843.2
-1046.70 773.97 2843.2
-1035.49 771.11 2832.7
-1317.87 729.04 2703.8
-1332.47 741.05 2748.4
-1310.58 732.80 2717.8
-1243.34 710.48 2635.0
-1249.64 718.03 2663.0
-1228.71 709.92 2632.9
-1217.71 707.50 2624.0
-1235.31 729.96 2707.3
-1179.20 704.81 2614.0
-1139.78 727.22 2697.1
-1124.32 730.81 2710.4
-1111.94 736.57 2731.8
-1093.06 728.71 2702.6
-1060.93 711.85 2640.1
-1054.30 745.90 2766.4
-1327.52 727.31 2723.6
-1289.92 718.17 2689.4
-1263.83 711.33 2663.8
-1263.92 715.29 2678.6
-1247.42 709.86 2658.3
-1246.63 713.35 2671.4
-1252.32 720.61 2698.5
-1169.85 692.50 2593.3
-1173.74 698.82 2616.9
-1174.49 707.44 2649.2
-1132.96 694.61 2601.2
-1119.89 690.71 2586.6
-1131.07 701.81 2628.1
-1127.93 704.10 2636.7
-1096.62 688.73 2579.2
-1120.49 712.41 2667.8
-1128.38 721.89 2703.3
-1093.33 703.83 2635.7
-1098.54 711.63 2664.9
-1107.29 721.84 2703.1
-1098.29 720.53 2698.3
-1058.90 712.86 2669.5
-1081.88 742.89 2782.0
-1277.46 715.94 2707.3
-1243.55 700.78 2650.0
-1227.21 699.30 2644.4
-1208.99 712.81 2695.5
-1216.16 721.21 2727.3
-1173.55 700.01 2647.1
-1155.99 693.59 2622.8
-1172.46 707.64 2675.9
-1155.31 701.44 2652.5
-1129.38 689.80 2608.5
-1126.31 692.07 2617.1
-1120.14 692.45 2618.5
-1138.04 716.54 2709.6
-1080.29 697.40 2637.2
-1068.80 698.83 2642.6
-1053.41 702.27 2655.7
-1047.40 702.86 2657.9
-1280.95 695.57 2656.4
-1292.28 713.22 2723.8
-1256.12 697.08 2662.1
-1247.92 696.36 2659.3
-1266.89 710.86 2714.8
-1196.31 694.41 2651.9
-1191.07 699.41 2671.0
-1195.08 705.86 2695.7
-1140.92 677.84 2588.6
-1128.21 674.26 2575.0
-1146.62 689.34 2632.5
-1159.36 701.17 2677.7
-1126.16 685.19 2616.7
-1120.27 689.92 2634.8
-1103.35 705.31 2693.5
-1070.20 688.47 2629.2
-1040.19 695.75 2657.0
-1062.32 729.89 2787.4
-1296.71 708.58 2733.1
-1297.91 713.14 2750.7
-1280.42 707.42 2728.6
-1220.16 701.24 2704.8
-1162.98 680.11 2623.3
-1172.93 689.96 2661.3
-1139.36 674.18 2600.4
-1136.75 676.63 2609.9
-1165.35 706.27 2724.2
-1150.56 701.56 2706.0
-1089.78 676.88 2610.8
-1075.92 685.30 2643.3
-1071.07 686.58 2648.3
-1100.23 714.44 2755.7
-1255.02 686.45 2674.5
-1229.50 676.22 2634.6
-1232.43 681.62 2655.7
-1258.42 707.86 2757.9
-1223.06 691.91 2695.7
-1233.61 701.88 2734.6
-1209.32 692.04 2696.3
-1155.46 665.06 2591.1
-1169.52 677.09 2638.0
-1197.89 697.60 2717.9
-1179.03 690.68 2690.9
-1143.57 673.89 2625.5
-1155.37 697.45 2717.3
-1128.88 685.64 2671.3
-1136.13 694.30 2705.1
-1100.49 676.70 2636.5
-1106.21 697.55 2717.7
-1076.76 683.33 2662.3
-1057.19 679.62 2647.9
-1093.89 707.81 2757.7
-1266.96 674.80 2655.9
-1305.57 699.16 2751.8
-1266.40 681.91 2683.9
-1248.56 687.41 2705.5
-1241.69 691.39 2721.2
-1213.64 679.64 2675.0
-1229.05 692.22 2724.5
-1161.29 677.42 2666.2
-1153.48 676.89 2664.1
-1142.85 678.78 2671.6
-1139.75 689.48 2713.7
-1133.71 690.08 2716.1
-1097.03 680.44 2678.1
-1124.79 706.60 2781.1
-1076.07 680.35 2677.8
-1102.51 701.60 2761.4
-1083.82 708.10 2787.0
-1079.94 710.30 2795.6
-1296.89 679.99 2703.9
-1266.77 667.81 2655.5
-1264.85 670.44 2666.0
-1279.11 681.72 2710.8
-1281.16 686.59 2730.2
-1248.08 672.57 2674.4
-1234.52 668.98 2660.2
-1263.09 688.31 2737.0
-1271.80 696.98 2771.5
-1223.27 681.94 2711.7
-1192.24 668.48 2658.2
-1179.40 680.96 2707.8
-1168.41 678.65 2698.6
-1123.75 672.87 2675.6
-1129.80 680.69 2706.7
-1117.42 677.44 2693.8
-1130.33 689.58 2742.1
-1091.09 700.90 2787.1
-1096.76 709.24 2820.2
-1084.97 711.10 2827.6
-1280.47 682.92 2743.9
-1254.03 672.55 2702.2
-1269.04 684.43 2749.9
-1271.23 689.48 2770.2
-1265.23 690.12 2772.8
-1217.08 671.49 2698.0
-1162.25 652.49 2621.6
-1165.55 658.20 2644.5
-1181.66 671.24 2696.9
-1167.56 667.18 2680.6
-1160.10 666.89 2679.4
-1140.57 675.89 2715.6
-1131.81 687.68 2763.0
-1112.76 680.41 2733.8
-1106.98 681.22 2737.0
-1116.13 700.31 2813.8
-1261.65 658.55 2673.8
-1237.00 656.51 2665.5
-1270.09 677.86 2752.2
-1244.40 671.69 2727.2
-1211.07 657.44 2669.3
-1213.46 674.14 2737.1
-1168.90 653.21 2652.1
-1179.08 674.77 2739.7
-1149.77 678.43 2754.5
-1138.39 675.92 2744.3
-1127.06 673.40 2734.1
-1113.18 669.32 2717.5
-1097.53 664.11 2696.4
-1114.85 683.30 2774.3
-1119.81 690.79 2804.7
-1055.32 659.57 2678.0
-1067.53 689.90 2801.1
-1072.52 697.87 2833.5
-1048.98 692.04 2809.8
-1285.16 660.14 2708.8
-1254.78 648.07 2659.3
-1236.38 649.27 2664.2
-1261.72 666.30 2734.1
-1211.63 658.34 2701.4
-1216.87 665.03 2728.9
-1171.12 651.39 2672.9
-1155.76 654.47 2685.5
-1115.61 663.72 2723.5
-1100.68 659.00 2704.1
-1094.97 659.79 2707.4
-1109.61 672.93 2761.3
-1102.31 672.84 2760.9
-1281.97 662.35 2747.1
-1250.15 649.52 2693.9
-1244.34 650.13 2696.4
-1271.92 668.30 2771.7
-1239.42 666.28 2763.4
-1217.48 658.29 2730.2
-1233.28 670.73 2781.8
-1214.42 668.29 2771.7
-1165.83 645.37 2676.6
-1146.57 646.25 2680.3
-1166.99 661.77 2744.7
-1174.21 669.95 2778.6
-1130.68 669.76 2777.8
-1106.51 659.65 2735.9
-1100.73 660.44 2739.1
-1100.71 664.71 2756.9
-1057.88 669.27 2775.8
-1267.56 637.24 2671.7
-1271.85 642.91 2695.5
-1273.92 651.11 2729.8
-1263.51 649.40 2722.7
-1281.39 662.29 2776.7
-1246.86 648.09 2717.1
-1217.86 636.61 2669.0
-1233.87 648.66 2719.5
-1217.51 643.74 2698.9
-1209.64 643.28 2697.0
-1238.38 662.39 2777.1
-1243.79 669.17 2805.5
-1233.31 667.44 2798.3
-1221.30 664.85 2787.4
-1180.06 646.23 2709.3
-1145.22 638.55 2677.1
-1167.11 662.80 2778.8
-1131.18 658.66 2761.5
-1126.84 660.31 2768.4
-1125.38 663.69 2782.5
-1123.50 666.85 2795.8
-1128.06 673.91 2825.4
-1115.93 671.02 2813.3
-1102.41 667.25 2797.5
-1100.00 670.20 2809.8
-1265.37 632.69 2681.7
-1243.93 628.88 2665.6
-1266.23 651.00 2759.3
-1229.03 646.49 2740.2
-1238.19 655.09 2776.7
-1219.05 648.73 2749.7
-1206.33 645.74 2737.0
-1195.62 643.79 2728.8
-1232.17 667.42 2829.0
-1191.88 653.38 2769.4
-1197.29 660.33 2798.9
-1167.02 651.52 2761.6
-1133.66 640.76 2716.0
-1138.46 647.50 2744.5
-1118.56 648.34 2748.1
-1079.99 664.05 2814.6
-1081.92 669.76 2838.9
-1059.89 660.62 2800.1
-1067.92 670.21 2840.8
-1330.27 657.83 2819.3
-1271.03 632.00 2708.6
-1234.47 631.26 2705.4
-1196.01 622.20 2666.6
-1196.26 633.32 2714.2
-1186.39 631.80 2707.7
-1226.13 656.85 2815.1
-1139.50 633.06 2713.1
-1133.47 633.61 2715.5
-1125.17 632.91 2712.5
-1123.05 639.71 2741.6
-1143.07 655.26 2808.3
-1106.60 650.94 2789.8
-1287.58 640.19 2774.5
-1250.84 625.42 2710.5
-1233.56 620.26 2688.1
-1225.30 619.61 2685.3
-1210.59 615.67 2668.2
-1220.49 624.27 2705.5
-1206.19 620.53 2689.3
-1192.07 620.43 2688.9
-1199.60 628.03 2721.8
-1175.58 619.09 2683.1
-1191.11 638.61 2767.6
-1178.82 643.65 2789.5
-1152.56 633.19 2744.2
-1162.28 642.50 2784.5
-1119.05 650.95 2821.1
-1055.25 647.70 2807.1
-1050.20 653.62 2832.7
-1240.76 613.41 2688.6
-1224.69 619.38 2714.8
-1255.24 638.50 2798.6
-1246.20 641.32 2811.0
-1213.60 628.22 2753.5
-1190.67 620.00 2717.5
-1165.55 610.53 2676.0
-1168.47 619.43 2715.0
-1180.18 629.43 2758.9
-1162.21 631.32 2767.2
-1140.98 623.64 2733.5
-1147.64 631.20 2766.6
-1124.51 642.58 2816.5
-1115.40 650.03 2849.2
-1095.82 642.88 2817.8
-1089.07 643.21 2819.3
-1370.20 640.90 2841.4
-1359.92 639.53 2835.4
-1339.96 633.57 2808.9
-1287.38 618.80 2743.4
-1258.26 611.56 2711.3
-1264.74 618.16 2740.6
-1235.12 607.09 2691.5
-1240.28 613.09 2718.1
-1258.67 625.74 2774.2
-1253.86 626.93 2779.5
-1255.43 631.34 2799.1
-1239.45 634.31 2812.2
-1229.75 633.07 2806.7
-1223.20 633.44 2808.4
-1209.24 629.96 2792.9
-1217.80 638.24 2829.7
-1204.24 634.96 2815.1
-1151.39 618.34 2741.4
-1129.33 617.94 2739.6
-1127.37 632.78 2805.4
-1109.10 634.82 2814.5
-1105.59 637.00 2824.1
-1104.87 640.83 2841.1
-1100.72 647.05 2868.7
-1356.30 630.50 2827.8
-1331.28 632.54 2837.0
-1328.50 634.73 2846.8
-1288.42 626.01 2807.7
-1287.64 629.19 2821.9
-1264.52 621.42 2787.1
-1217.37 601.69 2698.6
-1229.14 611.02 2740.5
-1252.71 626.35 2809.2
-1248.16 627.73 2815.4
-1236.87 625.71 2806.3
-1214.21 617.88 2771.2
-1193.26 610.83 2739.6
-1188.79 612.19 2745.7
-1205.59 624.58 2801.3
-1202.41 630.53 2828.0
-1154.97 609.37 2733.1
-1156.49 613.94 2753.5
-1173.76 626.98 2812.0
-1148.16 621.02 2785.3
-1128.57 614.29 2755.1
-1113.25 621.68 2788.3
-1100.47 618.56 2774.3
-1094.56 619.29 2777.6
-1102.92 628.15 2817.3
-1113.21 638.24 2862.5
-1093.33 639.64 2868.8
-1066.69 628.32 2818.1
-1050.61 623.12 2794.7
-1051.06 627.72 2815.3
-1359.46 624.62 2834.4
-1317.30 618.62 2807.2
-1254.57 609.36 2765.2
-1213.89 592.99 2690.9
-1191.13 592.08 2686.8
-1207.00 603.50 2738.6
-1212.41 609.79 2767.1
-1175.81 594.90 2699.6
-1174.14 604.86 2744.7
-1211.03 627.67 2848.2
-1129.10 607.43 2756.4
-1130.85 624.17 2832.4
-1097.96 613.99 2786.2
-1113.80 626.97 2845.1
-1092.09 618.85 2808.2
-1085.01 618.97 2808.8
-1063.16 631.95 2867.7
-1044.74 625.37 2837.8
-1277.84 596.33 2738.2
-1318.21 618.60 2840.5
-1270.89 606.56 2785.2
-1274.18 611.61 2808.4
-1251.94 607.88 2791.3
-1232.25 612.48 2812.4
-1213.27 610.27 2802.2
-1198.57 606.50 2785.0
-1195.12 608.43 2793.8
-1212.35 620.96 2851.4
-1138.22 612.89 2814.3
-1124.23 609.26 2797.6
-1114.68 620.09 2847.3
-1109.66 621.41 2853.4
-1083.41 610.78 2804.6
-1094.24 621.05 2851.8
-1096.47 626.55 2877.0
-1090.11 635.90 2919.9
-1071.16 629.21 2889.2
-1059.45 626.72 2877.8
-1030.98 614.20 2820.3
-1031.84 619.10 2842.8
-1198.07 578.14 2686.7
-1195.39 580.22 2696.4
-1222.32 603.89 2806.4
-1197.17 605.88 2815.6
-1167.65 594.57 2763.1
-1184.69 606.97 2820.7
-1099.12 604.15 2807.6
-1122.61 621.18 2886.7
-1109.50 622.22 2891.6
-1084.77 612.49 2846.3
-1057.11 600.96 2792.8
-1064.57 613.61 2851.5
-1359.02 605.65 2848.9
-1353.56 609.84 2868.6
-1322.80 599.28 2818.9
-1294.74 596.45 2805.6
-1258.73 593.19 2790.3
-1232.30 605.08 2846.2
-1204.24 602.12 2832.3
-1159.39 583.25 2743.5
-1160.53 587.43 2763.2
-1175.18 598.54 2815.4
-1173.05 601.19 2827.9
-1131.04 587.00 2761.1
-1087.58 594.54 2796.6
-1113.05 612.55 2881.3
-1119.15 620.07 2916.7
-1111.12 619.81 2915.5
-1095.80 615.45 2895.0
-1060.20 599.56 2820.2
-1070.21 609.43 2866.6
-1063.31 609.73 2868.1
-1029.80 603.17 2837.2
-1342.58 594.26 2829.8
-1287.61 589.25 2805.9
-1262.91 587.91 2799.6
-1226.81 588.00 2800.0
-1188.54 579.95 2761.7
-1185.54 581.99 2771.4
-1217.07 601.11 2862.5
-1186.14 593.07 2824.1
-1144.70 575.90 2742.4
-1167.18 590.89 2813.7
-1107.47 582.50 2773.8
-1120.04 592.96 2823.6
-1117.27 595.39 2835.2
-1117.30 599.35 2854.0
-1103.73 596.01 2838.2
-1107.90 602.28 2868.0
-1095.76 599.71 2855.8
-1069.35 589.23 2805.9
-1078.24 598.20 2848.6
-1065.87 595.41 2835.3
-1051.83 591.66 2817.4
-1035.30 599.00 2852.4
-1066.09 625.75 2979.8
-1296.28 576.13 2777.7
-1271.37 574.63 2770.5
-1270.24 587.40 2832.1
-1252.89 589.60 2842.7
-1244.35 592.55 2856.9
-1186.95 568.60 2741.4
-1178.97 568.18 2739.4
-1168.68 566.63 2732.0
-1191.47 581.21 2802.2
-1185.38 596.42 2875.6
-1142.20 593.35 2860.8
-1128.22 605.75 2920.6
-1074.10 580.60 2799.3
-1059.00 576.32 2778.7
-1080.12 591.85 2853.5
-1068.43 589.48 2842.1
-1055.75 586.53 2827.9
-1043.47 583.76 2814.6
-1040.07 585.95 2825.1
-1051.78 596.75 2877.2
-1019.31 590.90 2849.0
-1314.08 589.84 2879.9
-1258.32 574.61 2805.5
-1271.99 587.64 2869.1
-1254.22 582.85 2845.7
-1225.91 573.06 2797.9
-1232.33 579.49 2829.3
-1221.43 577.80 2821.1
-1208.23 575.00 2807.4
-1193.93 571.64 2791.0
-1179.31 568.08 2773.6
-1200.33 581.75 2840.4
-1205.83 588.03 2871.0
-1163.12 570.72 2786.5
-1152.03 568.81 2777.2
-1136.10 564.48 2756.0
-1115.98 576.22 2813.4
-1105.67 574.66 2805.7
-1118.67 585.26 2857.5
-1081.98 577.54 2819.8
-1075.21 577.84 2821.3
-1108.07 599.57 2927.4
-1106.23 602.71 2942.7
-1083.36 594.34 2901.9
-1063.75 587.66 2869.2
-1040.20 578.70 2825.5
-1031.69 578.04 2822.2
-1027.21 579.64 2830.1
-1018.69 578.97 2826.8
-1021.09 584.54 2854.0
-1045.10 607.08 2964.1
-1245.24 571.35 2825.3
-1218.94 562.59 2782.0
-1230.90 571.49 2826.0
-1234.46 576.57 2851.2
-1229.74 577.83 2857.4
-1228.86 580.91 2872.7
-1228.67 584.37 2889.7
-1081.70 562.49 2781.5
-1114.35 583.35 2884.7
-1112.03 586.07 2898.1
-1071.84 568.73 2812.4
-1071.35 572.36 2830.4
-1091.86 587.34 2904.5
-1089.34 590.06 2917.9
-1057.05 576.57 2851.2
-1051.38 581.61 2876.1
-1079.76 605.91 2996.3
-1058.32 606.97 3001.5
-1058.17 611.39 3023.3
-1282.12 564.13 2825.9
-1294.60 572.90 2869.8
