ply
format ascii 1.0
element vertex 2109
property float x
property float y
property float z
end_header
-1086.18 -864.77 1611.4
-1053.83 -862.22 1606.6
-1048.56 -864.75 1611.3
-1075.66 -890.65 1659.6
-1083.58 -908.10 1692.1
-1032.23 -868.59 1618.5
-1015.37 -857.88 1598.5
-999.06 -847.56 1579.3
-1003.21 -854.59 1592.4
-1000.53 -855.83 1594.7
-995.63 -858.73 1600.1
-1044.66 -904.79 1685.9
-1044.58 -912.35 1700.0
-986.59 -865.36 1612.5
-975.38 -862.83 1607.8
-1005.96 -893.71 1665.3
-1014.30 -905.00 1686.3
-1015.08 -909.62 1694.9
-989.31 -890.38 1659.1
-969.25 -876.14 1632.6
-954.37 -866.47 1614.5
-922.54 -844.98 1574.5
-899.67 -835.12 1556.1
-934.90 -871.74 1624.4
-918.10 -867.80 1617.0
-899.14 -853.77 1590.9
-904.18 -870.53 1622.1
-907.81 -878.12 1636.2
-897.38 -872.10 1625.0
-910.97 -889.48 1657.4
-917.04 -899.65 1676.4
-878.47 -865.92 1613.5
-863.09 -867.28 1616.1
-866.87 -875.32 1631.0
-877.33 -890.24 1658.8
-835.51 -851.97 1587.5
-826.22 -850.88 1585.5
-848.14 -886.69 1652.2
-873.29 -922.30 1718.6
-796.91 -859.17 1600.9
-804.22 -871.59 1624.1
-805.86 -877.96 1636.0
-807.84 -884.77 1648.6
-806.60 -888.11 1654.9
-802.58 -888.41 1655.4
-783.55 -891.18 1660.6
-785.61 -898.45 1674.1
-764.40 -879.06 1638.0
-752.44 -870.14 1621.4
-761.64 -885.72 1650.4
-787.58 -921.06 1716.3
-785.24 -923.55 1720.9
-767.29 -907.59 1691.2
-757.22 -900.83 1678.6
-759.34 -908.58 1693.0
-745.30 -896.96 1671.4
-713.24 -900.25 1677.5
-708.03 -899.15 1675.4
-692.06 -884.30 1647.8
-690.02 -887.17 1653.1
-711.30 -920.25 1714.8
-698.35 -914.93 1704.8
-661.01 -871.53 1624.0
-682.79 -906.01 1688.2
-674.56 -900.87 1678.6
-634.85 -853.34 1590.1
-626.75 -859.18 1601.0
-629.19 -868.29 1617.9
-632.20 -878.29 1636.6
-625.19 -886.40 1651.7
-629.19 -898.23 1673.7
-633.09 -910.07 1695.8
-629.74 -911.58 1698.6
-628.84 -916.69 1708.1
-619.01 -908.75 1693.3
-577.87 -866.81 1615.2
-587.50 -887.68 1654.1
-579.73 -882.39 1644.2
-582.92 -893.80 1665.5
-602.09 -930.10 1733.1
-550.02 -896.49 1670.5
-541.32 -889.31 1657.1
-529.93 -877.57 1635.2
-514.29 -858.53 1599.7
-514.16 -894.37 1666.5
-516.90 -906.76 1689.6
-486.89 -891.92 1662.0
-484.09 -894.70 1667.1
-482.24 -899.32 1675.7
-477.91 -899.34 1675.8
-473.82 -899.83 1676.7
-460.38 -882.40 1644.2
-443.30 -857.61 1598.0
-444.57 -868.17 1617.7
-452.27 -891.61 1661.4
-441.26 -878.27 1636.5
-436.82 -895.27 1668.2
-411.48 -878.11 1636.2
-414.93 -894.69 1667.1
-416.95 -908.52 1692.9
-418.85 -922.36 1718.7
-403.78 -898.73 1674.7
-384.85 -885.15 1649.3
-379.35 -882.30 1644.0
-364.02 -856.27 1595.5
-359.84 -856.18 1595.4
-360.49 -867.69 1616.8
-353.78 -861.56 1605.4
-349.01 -860.07 1602.6
-351.90 -877.62 1635.3
-348.35 -879.38 1638.6
-340.43 -869.98 1621.1
-332.40 -860.10 1602.7
-303.65 -861.03 1604.4
-298.79 -859.02 1600.7
-297.79 -868.20 1617.8
-292.28 -864.31 1610.5
-285.09 -855.27 1593.7
-287.96 -876.60 1633.4
-293.21 -905.88 1688.0
-288.03 -903.38 1683.3
-276.42 -880.30 1640.3
-273.22 -897.72 1672.8
-247.78 -869.32 1619.9
-234.36 -851.08 1585.9
-238.94 -883.22 1645.8
-240.10 -903.65 1683.8
-232.50 -891.23 1660.7
-221.16 -863.78 1609.5
-200.86 -903.89 1684.3
-201.45 -926.68 1726.7
-190.92 -898.19 1673.6
-166.71 -862.71 1607.5
-157.48 -857.88 1598.5
-149.92 -886.65 1652.1
-145.97 -888.69 1655.9
-139.82 -877.06 1634.3
-136.63 -883.81 1646.8
-127.86 -882.20 1643.9
-123.35 -880.45 1640.6
-118.54 -876.33 1632.9
-115.18 -883.07 1645.5
-111.88 -890.74 1659.8
-106.68 -883.31 1645.9
-101.49 -875.39 1631.2
-97.38 -876.44 1633.1
-93.31 -877.96 1636.0
-89.85 -885.62 1650.2
-87.90 -909.80 1695.3
-84.82 -924.07 1721.9
-77.86 -895.34 1668.3
-71.36 -868.96 1619.2
-67.61 -874.70 1629.9
-63.39 -874.78 1630.0
-59.52 -880.04 1639.8
-55.12 -877.74 1635.5
-50.04 -863.14 1608.3
-45.49 -856.10 1595.2
-25.09 -865.75 1613.2
-12.95 -893.71 1665.3
-8.78 -908.38 1692.6
0.00 -871.98 1624.8
25.83 -891.28 1660.8
29.84 -882.27 1644.0
58.08 -858.77 1600.2
62.23 -858.71 1600.1
66.95 -866.20 1614.0
71.91 -875.57 1631.5
75.47 -867.93 1617.3
78.70 -857.46 1597.7
84.85 -878.16 1636.3
91.62 -903.10 1682.8
94.16 -885.99 1650.9
97.12 -874.08 1628.7
101.88 -878.70 1637.3
104.46 -864.89 1611.6
107.91 -859.12 1600.8
118.09 -873.03 1626.8
122.36 -873.37 1627.4
126.97 -876.07 1632.4
130.40 -870.74 1622.5
134.51 -870.13 1621.4
141.02 -884.60 1648.3
145.43 -885.39 1649.8
143.70 -849.88 1583.6
170.35 -881.55 1642.6
173.45 -875.71 1631.8
175.64 -865.64 1613.0
186.21 -856.59 1596.1
197.00 -886.49 1651.8
199.31 -877.81 1635.7
197.29 -850.80 1585.3
202.57 -855.76 1594.6
208.24 -862.12 1606.4
217.10 -881.15 1641.9
229.45 -896.17 1669.9
223.44 -856.50 1596.0
228.76 -860.95 1604.3
237.42 -877.59 1635.3
239.65 -870.31 1621.7
243.13 -867.71 1616.8
246.31 -864.16 1610.2
244.16 -842.35 1569.6
264.90 -884.43 1648.0
268.23 -881.34 1642.2
258.23 -835.20 1556.3
292.44 -864.77 1611.4
319.61 -906.28 1688.7
306.53 -834.90 1555.7
306.63 -824.33 1536.0
331.33 -846.73 1577.8
361.60 -860.35 1603.1
389.85 -831.94 1550.2
405.25 -855.99 1595.0
419.78 -877.71 1635.5
421.58 -872.67 1626.1
429.18 -879.61 1639.0
437.98 -888.84 1656.2
418.68 -841.43 1567.9
433.51 -846.57 1577.5
426.92 -825.91 1539.0
453.54 -853.48 1590.3
450.53 -840.19 1565.6
457.90 -838.81 1563.0
450.10 -817.29 1522.9
481.43 -823.60 1534.7
500.42 -849.08 1582.1
495.30 -833.55 1553.2
521.32 -849.71 1583.3
519.49 -840.11 1565.4
529.37 -823.91 1535.2
536.13 -810.06 1509.4
550.81 -826.22 1539.5
560.03 -816.39 1521.2
566.08 -819.43 1526.9
586.38 -825.72 1538.6
604.69 -845.75 1575.9
604.81 -840.24 1565.7
652.86 -855.33 1593.8
687.26 -883.62 1646.5
685.69 -870.79 1622.6
755.84 -874.08 1628.7
745.01 -856.76 1596.4
715.30 -818.05 1524.3
714.83 -813.02 1514.9
722.03 -816.72 1521.8
749.02 -842.65 1570.2
777.00 -869.40 1620.0
753.19 -838.23 1561.9
804.66 -876.66 1633.5
804.10 -828.10 1543.0
813.68 -833.82 1553.7
823.49 -827.49 1541.9
799.37 -784.21 1461.3
838.97 -804.02 1498.2
821.22 -783.37 1459.7
1003.32 -804.99 1500.0
1005.69 -803.78 1497.7
985.58 -784.67 1462.1
978.65 -776.17 1446.3
1024.04 -809.07 1507.6
1095.08 -839.56 1564.4
1078.54 -823.83 1535.1
1046.27 -790.43 1472.9
1054.33 -793.63 1478.8
1049.14 -781.19 1455.6
1052.36 -780.78 1454.9
1052.35 -777.98 1449.7
1111.34 -812.89 1514.7
1122.27 -818.00 1524.2
1061.21 -770.78 1436.2
1111.55 -779.97 1453.4
1134.30 -793.24 1478.1
1139.14 -780.80 1454.9
1174.70 -802.52 1495.4
1221.24 -831.57 1549.5
1215.18 -822.03 1531.7
1170.19 -789.02 1470.2
1171.59 -787.40 1467.2
1200.08 -803.94 1498.0
1170.88 -781.85 1456.9
1127.06 -750.16 1397.8
1141.65 -757.44 1411.4
1176.06 -777.78 1449.3
1186.12 -781.94 1457.0
1193.29 -784.16 1461.2
1179.39 -772.57 1439.6
1177.15 -768.67 1432.3
1197.80 -779.70 1452.9
1180.83 -766.24 1427.8
-1567.83 -1022.28 1895.7
-1566.37 -1024.55 1899.9
-1510.98 -991.43 1838.5
-1485.62 -977.88 1813.4
-1523.96 -1006.30 1866.1
-1535.88 -1037.22 1923.4
-1494.09 -1012.28 1877.2
-1451.89 -986.91 1830.1
-1440.02 -1001.75 1857.6
-1456.97 -1016.95 1885.8
-1426.69 -999.17 1852.9
-1431.23 -1005.73 1865.0
-1409.48 -993.80 1842.9
-1446.30 -1023.23 1897.5
-1452.91 -1031.42 1912.7
-1281.38 -941.79 1746.5
-1283.07 -949.75 1761.2
-1281.44 -951.93 1765.3
-1168.32 -874.14 1621.0
-1193.64 -896.31 1662.1
-1172.44 -883.58 1638.5
-1129.99 -873.75 1620.3
-1111.80 -862.89 1600.1
-1100.46 -857.28 1589.7
-1122.87 -878.03 1628.2
-1136.34 -891.92 1654.0
-1122.88 -884.69 1640.6
-1080.13 -854.24 1584.1
-1060.17 -841.66 1560.8
-1117.05 -890.22 1650.8
-1128.69 -902.95 1674.4
-1081.16 -885.36 1641.8
-1075.47 -884.18 1639.6
-1043.37 -861.19 1597.0
-1042.39 -870.75 1614.7
-1076.50 -913.93 1694.8
-1043.96 -889.94 1650.3
-1035.84 -886.65 1644.2
-1021.46 -877.95 1628.1
-981.83 -850.92 1577.9
-1030.39 -896.74 1662.9
-1052.83 -920.12 1706.3
-1031.81 -905.55 1679.3
-979.60 -863.38 1601.0
-1007.46 -899.36 1667.8
-1022.15 -920.38 1706.7
-978.72 -885.10 1641.3
-959.93 -879.58 1631.1
-978.59 -900.65 1670.2
-951.87 -879.95 1631.8
-941.23 -874.00 1620.7
-923.84 -861.70 1597.9
-933.45 -878.54 1629.2
-952.96 -900.98 1670.8
-963.80 -915.39 1697.5
-933.10 -890.30 1651.0
-890.78 -865.81 1605.5
-867.88 -867.88 1609.4
-867.01 -875.42 1623.4
-870.76 -883.50 1638.4
-881.62 -898.90 1666.9
-878.48 -900.12 1669.2
-866.96 -892.71 1655.4
-857.16 -887.01 1644.9
-819.59 -852.37 1580.6
-835.43 -877.63 1627.5
-862.27 -910.41 1688.3
-826.78 -877.39 1627.0
-807.43 -874.71 1622.1
-799.55 -884.61 1640.4
-788.50 -877.05 1626.4
-775.72 -891.43 1653.1
-786.11 -908.39 1684.5
-757.41 -880.12 1632.1
-748.89 -875.11 1622.8
-774.48 -910.13 1687.7
-771.46 -911.73 1690.7
-753.59 -895.70 1661.0
-743.60 -888.90 1648.4
-755.33 -908.14 1684.0
-751.18 -908.40 1684.5
-710.46 -901.07 1670.9
-713.28 -910.20 1687.9
-708.04 -909.09 1685.8
-713.51 -921.80 1709.4
-694.97 -914.90 1696.6
-652.29 -864.18 1602.5
-668.05 -890.74 1651.8
-676.58 -907.93 1683.7
-651.15 -879.48 1630.9
-644.42 -876.07 1624.6
-654.75 -895.97 1661.5
-653.83 -900.64 1670.1
-651.90 -903.97 1676.3
-646.40 -902.35 1673.3
-641.86 -902.08 1672.8
-642.10 -908.55 1684.8
-637.86 -908.73 1685.1
-625.75 -897.63 1664.6
-614.37 -887.42 1645.6
-595.00 -865.45 1604.9
-561.83 -885.32 1641.7
-572.25 -908.61 1684.9
-557.14 -891.43 1653.1
-505.24 -875.75 1624.0
-513.90 -898.25 1665.7
-507.54 -894.64 1659.0
-488.82 -869.01 1611.5
-498.24 -909.06 1685.8
-504.38 -928.41 1721.6
-492.02 -913.75 1694.4
-485.93 -910.56 1688.5
-476.45 -900.93 1670.7
-473.34 -903.26 1675.0
-450.68 -876.09 1624.6
-458.22 -899.15 1667.4
-437.95 -901.91 1672.5
-423.59 -881.07 1633.9
-419.12 -880.58 1632.9
-418.37 -887.96 1646.6
-415.16 -890.24 1650.9
-414.50 -898.09 1665.4
-409.74 -897.12 1663.6
-405.20 -896.62 1662.7
-394.43 -882.18 1635.9
-368.96 -852.70 1581.2
-377.36 -881.92 1635.4
-376.24 -889.29 1649.1
-369.01 -882.23 1636.0
-366.47 -886.34 1643.6
-356.27 -871.81 1616.7
-348.46 -862.86 1600.1
-345.39 -865.55 1605.1
-336.59 -853.78 1583.2
-336.07 -863.00 1600.3
-335.65 -872.69 1618.3
-318.15 -882.35 1636.2
-320.69 -901.40 1671.6
-306.62 -873.65 1620.1
-292.44 -868.97 1611.4
-288.99 -871.16 1615.5
-295.48 -903.82 1676.0
-293.05 -909.76 1687.1
-280.58 -884.26 1639.8
-276.42 -884.55 1640.3
-279.63 -908.80 1685.3
-271.51 -896.40 1662.3
-234.76 -871.95 1616.9
-236.11 -892.92 1655.8
-227.97 -878.09 1628.3
-223.21 -875.98 1624.4
-223.41 -893.66 1657.2
-222.41 -907.09 1682.1
-222.64 -926.19 1717.5
-217.02 -921.24 1708.3
-204.82 -926.16 1717.5
-201.54 -931.57 1727.5
-187.42 -885.98 1643.0
-154.25 -891.23 1652.7
-154.93 -920.73 1707.4
-148.52 -908.59 1684.9
-131.53 -882.53 1636.6
-129.22 -895.93 1661.4
-124.73 -894.65 1659.0
-119.88 -890.51 1651.4
-115.55 -890.17 1650.7
-111.40 -891.24 1652.7
-107.76 -896.57 1662.6
-104.01 -901.42 1671.6
-98.85 -893.95 1657.7
-93.71 -885.99 1643.0
-90.13 -892.73 1655.5
-88.13 -916.53 1699.6
-84.86 -928.95 1722.7
-77.73 -898.22 1665.7
-71.21 -871.27 1615.7
-55.21 -883.40 1638.2
-51.71 -896.27 1662.0
-46.67 -882.56 1636.6
0.00 -888.06 1646.8
4.23 -879.51 1631.0
29.39 -873.23 1619.3
33.20 -863.23 1600.8
41.79 -869.32 1612.1
47.95 -906.76 1681.5
52.28 -906.23 1680.5
55.48 -887.67 1646.1
59.14 -878.59 1629.3
67.68 -879.88 1631.6
72.02 -881.23 1634.1
74.94 -865.97 1605.9
79.70 -872.53 1618.0
87.49 -909.89 1687.3
93.86 -887.42 1645.6
104.29 -867.66 1609.0
109.21 -873.71 1620.2
117.07 -869.67 1612.7
118.66 -851.07 1578.2
132.62 -862.03 1598.5
138.84 -875.14 1622.9
142.87 -874.04 1620.8
183.42 -867.09 1607.9
191.84 -886.72 1644.3
199.40 -901.62 1672.0
203.26 -899.51 1668.1
203.39 -881.36 1634.4
210.02 -891.52 1653.2
217.20 -903.56 1675.5
211.78 -863.72 1601.7
221.79 -838.76 1555.4
238.43 -885.60 1642.3
243.52 -888.64 1647.9
250.21 -897.32 1664.0
249.92 -881.06 1633.8
243.09 -842.70 1562.7
254.25 -852.98 1581.8
267.67 -883.72 1638.8
267.49 -869.34 1612.1
279.30 -867.07 1607.9
284.44 -870.05 1613.4
285.26 -859.90 1594.6
293.86 -873.19 1619.2
297.47 -871.47 1616.1
305.77 -883.34 1638.1
319.27 -909.70 1686.9
318.53 -895.32 1660.3
312.02 -842.87 1563.0
367.26 -878.04 1628.2
361.47 -854.39 1584.4
367.61 -859.13 1593.2
365.94 -845.73 1568.3
416.04 -874.10 1620.9
419.14 -871.82 1616.7
417.34 -842.78 1562.9
444.04 -888.07 1646.8
445.98 -883.46 1638.3
430.24 -844.25 1565.6
427.20 -830.44 1540.0
450.32 -843.85 1564.8
466.27 -865.92 1605.8
465.43 -856.71 1588.7
462.40 -829.13 1537.5
464.83 -826.36 1532.4
485.73 -834.98 1548.4
522.82 -863.06 1600.5
531.03 -862.92 1600.2
536.76 -809.02 1500.2
617.55 -818.15 1517.2
656.98 -864.89 1603.8
669.36 -864.77 1603.6
655.69 -841.87 1561.2
681.55 -869.71 1612.8
696.09 -882.85 1637.1
679.41 -841.18 1559.9
701.29 -863.12 1600.6
719.72 -880.60 1633.0
727.76 -885.23 1641.6
709.53 -858.03 1591.1
699.58 -822.11 1524.5
732.33 -855.76 1586.9
749.09 -870.45 1614.2
730.53 -825.81 1531.4
753.34 -847.00 1570.7
724.37 -810.04 1502.1
776.72 -845.86 1568.6
776.93 -841.67 1560.8
787.96 -815.40 1512.1
807.94 -831.93 1542.7
815.85 -835.95 1550.2
809.45 -825.32 1530.5
826.69 -838.79 1555.4
841.06 -849.22 1574.8
808.21 -796.72 1477.4
821.33 -805.83 1494.3
949.28 -777.36 1441.5
970.04 -782.05 1450.2
991.15 -795.98 1476.1
986.32 -789.06 1463.2
956.89 -762.58 1414.1
983.03 -774.51 1436.2
983.69 -772.10 1431.8
1046.34 -815.13 1511.6
1024.15 -794.87 1474.0
1078.86 -818.99 1518.7
1073.71 -812.12 1506.0
1029.58 -770.33 1428.5
1062.83 -792.36 1469.4
1092.46 -811.54 1504.9
1070.93 -789.90 1464.8
1111.04 -816.59 1514.3
1105.10 -809.37 1500.9
1073.49 -783.46 1452.8
1091.17 -785.34 1456.3
1134.08 -813.41 1508.4
1141.23 -815.72 1512.7
1102.91 -785.63 1456.9
1115.19 -786.30 1458.1
1123.94 -789.80 1464.6
1112.52 -779.14 1444.8
1102.15 -769.28 1426.6
1101.29 -766.12 1420.7
1132.89 -777.70 1442.2
1157.08 -791.68 1468.1
1168.78 -797.07 1478.1
1133.57 -770.53 1428.9
1140.08 -772.43 1432.4
1194.32 -806.55 1495.7
1184.12 -791.95 1468.6
1187.81 -791.87 1468.4
1216.49 -808.40 1499.1
1220.22 -808.30 1498.9
1204.69 -795.48 1475.1
1169.19 -769.60 1427.1
1189.21 -780.30 1447.0
1234.54 -807.50 1497.4
1198.82 -781.68 1449.5
-1557.87 -1033.63 1907.6
-1540.63 -1025.45 1892.5
-1500.66 -1015.01 1873.2
-1508.91 -1023.90 1889.6
-1435.72 -993.60 1833.7
-1442.11 -1001.33 1848.0
-1419.37 -995.46 1837.2
-1431.29 -1010.60 1865.1
-1433.54 -1015.63 1874.4
-1389.55 -1008.39 1861.0
-1340.73 -976.35 1801.9
-1335.80 -979.59 1807.9
-1329.24 -978.21 1805.3
-1265.22 -934.39 1724.4
-1188.44 -896.70 1654.9
-1193.36 -903.67 1667.7
-1196.63 -909.44 1678.4
-1176.55 -897.44 1656.3
-1138.04 -887.50 1637.9
-1157.81 -906.30 1672.6
-1120.94 -880.74 1625.4
-1077.01 -849.42 1567.6
-1083.95 -867.99 1601.9
-1130.84 -909.02 1677.6
-1107.28 -893.52 1649.0
-1086.87 -880.45 1624.9
-1083.73 -881.33 1626.5
-1072.53 -875.62 1616.0
-1083.47 -888.02 1638.9
-1089.81 -896.73 1654.9
-1065.11 -879.87 1623.8
-1035.54 -858.84 1585.0
-1078.72 -909.08 1677.7
-1050.75 -896.35 1654.2
-1014.42 -868.91 1603.6
-1004.94 -864.33 1595.1
-1020.13 -881.02 1625.9
-1007.26 -873.52 1612.1
-991.87 -871.01 1607.5
-971.53 -856.75 1581.2
-969.30 -858.41 1584.2
-971.78 -864.26 1595.0
-963.97 -868.40 1602.7
-946.74 -856.57 1580.8
-950.49 -863.70 1594.0
-973.62 -888.59 1639.9
-954.85 -883.03 1629.6
-956.53 -888.51 1639.8
-960.89 -896.54 1654.6
-935.55 -880.77 1625.5
-945.69 -894.34 1650.5
-961.10 -913.04 1685.0
-924.73 -886.55 1636.2
-934.28 -908.21 1676.1
-908.85 -887.62 1638.1
-870.11 -874.29 1613.5
-887.60 -896.18 1653.9
-879.84 -892.65 1647.4
-880.14 -897.32 1656.0
-881.25 -902.85 1666.2
-866.78 -892.40 1646.9
-836.91 -865.91 1598.1
-837.35 -879.43 1623.0
-841.26 -888.00 1638.8
-834.45 -885.28 1633.8
-812.16 -866.03 1598.3
-826.67 -890.59 1643.6
-839.61 -909.22 1678.0
-846.39 -921.33 1700.3
-840.29 -919.47 1696.9
-801.50 -895.79 1653.2
-778.35 -874.60 1614.1
-782.18 -883.65 1630.8
-790.58 -897.99 1657.3
-760.12 -877.71 1619.8
-731.14 -883.28 1630.1
-764.71 -929.21 1714.9
-759.40 -928.15 1712.9
-734.94 -903.55 1667.5
-729.38 -902.02 1664.7
-723.47 -900.04 1661.0
-711.53 -890.48 1643.4
-735.35 -937.12 1729.5
-716.72 -924.66 1706.5
-691.12 -897.17 1655.7
-678.77 -886.64 1636.3
-654.23 -859.97 1587.1
-646.27 -860.32 1587.7
-649.99 -870.81 1607.1
-644.28 -868.75 1603.3
-648.40 -885.73 1634.6
-665.90 -915.61 1689.8
-671.42 -929.32 1715.1
-667.77 -930.42 1717.1
-659.60 -925.21 1707.5
-617.92 -890.66 1643.7
-579.49 -884.03 1631.5
-547.93 -874.18 1613.3
-538.91 -886.87 1636.7
-542.17 -899.31 1659.7
-520.34 -898.77 1658.7
-499.23 -884.23 1631.9
-492.45 -879.67 1623.5
-463.11 -871.98 1609.3
-426.40 -900.17 1661.3
-434.07 -925.71 1708.4
-419.42 -913.11 1685.2
-395.99 -871.17 1607.8
-373.11 -856.92 1581.5
-363.57 -873.40 1611.9
-330.09 -862.37 1591.5
-319.84 -891.29 1644.9
-322.68 -911.36 1681.9
-308.92 -884.44 1632.3
-296.39 -884.93 1633.2
-297.54 -901.24 1663.3
-301.14 -925.57 1708.2
-296.21 -924.00 1705.3
-282.37 -894.16 1650.2
-277.16 -891.16 1644.7
-273.27 -892.40 1646.9
-258.43 -857.32 1582.2
-264.01 -904.57 1669.4
-264.51 -921.37 1700.4
-247.12 -875.38 1615.5
-228.77 -869.31 1604.3
-225.52 -872.86 1610.9
-225.61 -889.66 1641.9
-222.00 -892.26 1646.7
-217.67 -892.02 1646.3
-208.70 -872.37 1610.0
-202.93 -902.40 1665.4
-205.13 -931.99 1720.0
-196.02 -910.40 1680.2
-192.11 -912.51 1684.1
-189.93 -923.14 1703.7
-142.97 -905.48 1671.1
-129.27 -871.56 1608.5
-127.65 -889.28 1641.2
-123.81 -892.27 1646.7
-120.89 -902.39 1665.4
-118.19 -914.88 1688.4
-105.76 -920.95 1699.6
-76.42 -887.28 1637.5
-73.80 -907.35 1674.5
-68.45 -894.10 1650.1
-53.35 -857.64 1582.8
-50.45 -878.65 1621.6
-46.00 -873.94 1612.9
-42.18 -881.60 1627.0
-38.13 -885.46 1634.1
-33.62 -878.35 1621.0
-4.21 -879.45 1623.0
0.00 -896.60 1654.7
4.26 -889.45 1641.5
8.28 -865.15 1596.7
16.45 -859.41 1586.1
33.84 -884.07 1631.6
38.25 -888.32 1639.4
42.02 -878.27 1620.9
46.25 -878.70 1621.7
51.13 -890.55 1643.5
54.95 -883.35 1630.2
57.86 -863.77 1594.1
77.97 -857.69 1582.9
82.43 -861.41 1589.7
101.28 -881.94 1627.6
106.28 -888.49 1639.7
110.40 -887.42 1637.8
113.89 -881.59 1627.0
117.84 -879.57 1623.3
130.54 -880.11 1624.3
137.28 -896.60 1654.7
143.50 -908.80 1677.2
146.35 -899.62 1660.3
146.73 -876.19 1617.0
180.17 -875.73 1616.2
185.12 -879.33 1622.8
190.51 -884.81 1632.9
194.39 -883.18 1629.9
194.09 -863.08 1592.8
206.78 -864.33 1595.1
205.89 -843.75 1557.2
236.02 -880.88 1625.7
245.45 -899.99 1661.0
251.78 -907.29 1674.4
250.98 -889.07 1640.8
248.25 -864.73 1595.9
252.03 -863.52 1593.6
249.65 -841.55 1553.1
288.73 -887.43 1637.8
300.96 -911.60 1682.4
310.42 -913.77 1686.4
304.64 -884.29 1632.0
304.00 -870.34 1606.2
313.53 -885.52 1634.3
316.47 -881.90 1627.6
322.80 -864.93 1596.3
320.96 -849.12 1567.1
323.46 -845.03 1559.5
330.09 -851.72 1571.9
336.05 -856.52 1580.7
338.52 -852.42 1573.2
371.20 -871.70 1608.7
368.97 -856.84 1581.3
388.01 -871.98 1609.3
383.62 -852.94 1574.1
418.47 -883.44 1630.4
417.82 -873.25 1611.6
431.59 -867.32 1600.7
422.48 -840.93 1552.0
467.77 -880.76 1625.5
469.01 -875.20 1615.2
453.23 -838.27 1547.1
485.89 -853.38 1574.9
506.99 -861.48 1589.9
516.77 -843.79 1557.2
533.47 -864.30 1595.1
511.70 -822.65 1518.2
545.50 -832.19 1535.8
538.33 -815.29 1504.6
586.23 -844.97 1559.4
587.34 -840.78 1551.7
581.11 -826.20 1524.8
647.21 -878.36 1621.0
642.29 -866.05 1598.3
642.28 -860.49 1588.1
645.93 -859.87 1586.9
632.55 -821.14 1515.4
665.99 -833.49 1538.2
717.75 -892.92 1647.9
720.90 -881.10 1626.1
701.93 -852.92 1574.1
692.76 -832.11 1535.7
707.68 -845.18 1559.8
689.20 -818.43 1510.4
696.31 -822.20 1517.4
705.71 -828.61 1529.2
718.46 -811.66 1497.9
719.02 -807.93 1491.1
719.94 -804.64 1485.0
746.43 -829.81 1531.4
776.69 -858.88 1585.1
790.48 -869.53 1604.7
807.09 -878.55 1621.4
789.68 -855.14 1578.2
773.00 -824.27 1521.2
793.49 -841.82 1553.6
762.28 -804.63 1485.0
765.15 -787.77 1453.8
806.73 -818.48 1510.5
805.24 -813.02 1500.5
802.42 -806.28 1488.0
815.46 -815.46 1504.9
839.79 -835.79 1542.5
857.59 -845.46 1560.3
815.01 -799.70 1475.9
988.08 -794.27 1465.8
994.98 -796.75 1470.4
1018.80 -800.49 1477.3
1042.40 -815.96 1505.9
1048.37 -817.57 1508.8
1040.24 -808.21 1491.6
1065.12 -803.64 1483.1
1060.90 -797.58 1472.0
1062.55 -795.96 1469.0
1111.52 -829.67 1531.2
1107.33 -823.60 1520.0
1071.73 -794.29 1465.9
1078.21 -796.27 1469.5
1087.26 -791.77 1461.2
1116.80 -810.45 1495.7
1143.16 -826.71 1525.7
1153.08 -831.01 1533.7
1124.89 -807.91 1491.0
1143.37 -810.05 1495.0
1125.34 -794.58 1466.4
1090.95 -767.71 1416.8
1104.14 -774.38 1429.1
1128.64 -788.91 1456.0
1132.34 -788.86 1455.9
1130.95 -785.27 1449.2
1153.01 -784.95 1448.6
1188.85 -806.72 1488.8
1225.41 -828.84 1529.6
1202.35 -808.01 1491.2
1193.33 -799.38 1475.3
1206.90 -805.89 1487.3
1224.01 -814.70 1503.6
1222.50 -811.12 1496.9
1189.98 -787.05 1452.5
1216.47 -802.03 1480.2
1214.29 -798.07 1472.9
-1546.80 -1018.27 1870.3
-1527.78 -1008.91 1853.1
-1567.24 -1044.83 1919.1
-1546.50 -1034.28 1899.7
-1491.58 -1000.74 1838.1
-1493.63 -1005.33 1846.5
-1448.25 -977.92 1796.2
-1468.50 -998.01 1833.1
-1415.40 -984.22 1807.7
-1510.02 -1053.50 1935.0
-1485.72 -1043.48 1916.6
-1447.51 -1020.06 1873.6
-1492.69 -1062.59 1951.7
-1434.68 -1024.77 1882.2
-1344.52 -973.62 1788.3
-1336.34 -971.04 1783.5
-1296.50 -948.65 1742.4
-1381.18 -1014.16 1862.7
-1319.00 -971.89 1785.1
-1260.89 -932.35 1712.5
-1281.05 -950.60 1746.0
-1277.30 -951.18 1747.1
-1246.60 -931.62 1711.1
-1280.01 -960.00 1763.3
-1207.79 -915.66 1681.8
-1260.01 -958.70 1760.9
-1253.01 -956.85 1757.5
-1221.15 -935.92 1719.0
-1173.07 -902.36 1657.4
-1148.90 -887.02 1629.2
-1174.20 -909.90 1671.2
-1183.63 -920.60 1690.9
-1142.83 -892.17 1638.7
-1135.57 -889.81 1634.4
-1135.08 -892.76 1639.8
-1118.41 -896.44 1646.5
-1093.29 -879.66 1615.7
-1046.38 -845.15 1552.3
-1090.13 -883.89 1623.5
-1120.74 -915.78 1682.0
-1098.35 -900.99 1654.9
-1040.91 -857.22 1574.5
-1029.30 -854.36 1569.2
-1063.56 -886.30 1627.9
-1052.94 -880.95 1618.1
-1031.39 -876.89 1610.6
-1046.79 -893.60 1641.3
-1013.97 -879.89 1616.1
-1017.97 -887.02 1629.2
-992.66 -868.57 1595.3
-934.19 -845.60 1553.1
-950.12 -863.75 1586.5
-984.94 -899.29 1651.8
-1006.54 -923.03 1695.4
-950.09 -875.08 1607.3
-935.52 -877.05 1610.9
-930.85 -876.58 1610.1
-910.83 -861.60 1582.5
-915.65 -870.08 1598.1
-924.88 -882.84 1621.5
-944.28 -905.47 1663.1
-926.87 -905.31 1662.8
-897.54 -880.77 1617.7
-884.55 -872.09 1601.8
-909.87 -901.29 1655.4
-915.48 -911.14 1673.5
-880.89 -880.89 1618.0
-854.27 -858.36 1576.6
-878.33 -886.77 1628.8
-885.53 -898.37 1650.1
-868.01 -884.87 1625.3
-856.35 -885.88 1627.1
-862.07 -896.21 1646.1
-825.11 -893.16 1640.5
-821.95 -894.35 1642.7
-812.77 -888.96 1632.8
-804.02 -884.00 1623.7
-791.79 -884.45 1624.5
-809.77 -909.37 1670.3
-799.86 -903.07 1658.7
-796.99 -904.69 1661.7
-800.28 -913.36 1677.6
-730.42 -866.61 1591.7
-748.45 -893.03 1640.3
-736.26 -883.52 1622.8
-723.12 -877.78 1612.2
-757.42 -924.76 1698.5
-757.23 -929.93 1708.0
-738.22 -911.92 1675.0
-735.52 -913.95 1678.7
-732.79 -915.99 1682.4
-720.45 -905.96 1664.0
-713.66 -913.83 1678.5
-693.21 -904.19 1660.8
-663.40 -870.71 1599.3
-637.57 -852.80 1566.4
-651.37 -876.84 1610.5
-662.30 -897.31 1648.1
-670.74 -914.64 1680.0
-656.99 -901.75 1656.3
-649.23 -896.96 1647.5
-651.91 -906.63 1665.2
-646.11 -904.55 1661.4
-650.28 -916.50 1683.4
-645.72 -916.23 1682.9
-597.15 -883.11 1622.0
-607.71 -905.10 1662.4
-603.49 -905.24 1662.7
-582.49 -892.86 1640.0
-589.26 -909.88 1671.2
-573.25 -891.73 1637.9
-560.84 -885.54 1626.5
-569.93 -906.70 1665.4
-569.68 -913.23 1677.4
-549.50 -887.66 1630.4
-541.72 -888.75 1632.4
-566.15 -936.15 1719.5
-565.06 -941.77 1729.8
-548.60 -921.64 1692.8
-519.82 -902.16 1657.0
-507.12 -887.46 1630.0
-482.42 -865.89 1590.4
-477.12 -878.91 1614.3
-478.17 -896.56 1646.7
-481.50 -910.95 1673.2
-482.77 -921.65 1692.8
-456.96 -880.38 1617.0
-433.58 -858.99 1577.7
-436.51 -925.93 1700.7
-402.75 -881.02 1618.2
-391.35 -865.08 1588.9
-402.69 -899.62 1652.4
-396.93 -896.29 1646.3
-386.90 -883.13 1622.1
-383.68 -885.41 1626.3
-364.26 -869.25 1596.6
-352.31 -850.39 1561.9
-345.59 -874.39 1606.0
-339.74 -870.05 1598.1
-306.13 -880.66 1617.5
-308.85 -900.80 1654.5
-284.60 -878.92 1614.3
-292.88 -917.98 1686.1
-292.17 -929.64 1707.5
-278.62 -900.15 1653.3
-263.69 -878.96 1614.4
-269.51 -912.86 1676.7
-270.06 -929.72 1707.6
-259.35 -907.74 1667.3
-252.05 -897.11 1647.8
-252.82 -915.39 1681.3
-249.57 -919.46 1688.8
-242.22 -908.34 1668.4
-218.54 -865.90 1590.4
-216.12 -872.78 1603.1
-213.52 -879.18 1614.8
-205.99 -865.16 1589.1
-199.15 -871.29 1600.3
-201.54 -900.51 1654.0
-197.41 -901.20 1655.3
-190.81 -890.47 1635.6
-188.81 -901.14 1655.2
-188.85 -922.28 1694.0
-175.83 -879.17 1614.8
-161.73 -849.06 1559.5
-159.57 -859.23 1578.2
-146.42 -904.38 1661.1
-145.29 -924.56 1698.2
-135.39 -888.47 1631.9
-127.78 -894.48 1642.9
-121.96 -883.17 1622.1
-117.33 -879.96 1616.2
-114.87 -893.44 1641.0
-112.35 -907.41 1666.7
-110.09 -924.71 1698.5
-102.26 -894.75 1643.4
-72.95 -901.15 1655.2
-67.35 -884.02 1623.7
-62.26 -871.67 1601.0
-58.24 -873.65 1604.7
-53.38 -862.24 1583.7
-38.66 -902.11 1656.9
-34.20 -897.85 1649.1
-30.36 -910.79 1672.9
-25.98 -909.39 1670.3
-21.36 -896.99 1647.5
-16.40 -861.15 1581.7
-8.29 -870.26 1598.4
-4.29 -900.87 1654.7
0.00 -904.69 1661.7
4.31 -906.13 1664.3
8.47 -888.91 1632.7
12.55 -878.37 1613.3
16.99 -891.75 1637.9
21.08 -885.51 1626.4
24.47 -856.32 1572.8
28.48 -854.38 1569.3
32.98 -865.82 1590.3
37.37 -872.00 1601.6
57.06 -855.96 1572.2
60.83 -851.60 1564.2
70.09 -865.79 1590.2
74.12 -864.76 1588.3
78.58 -868.50 1595.2
100.07 -875.65 1608.3
103.72 -871.25 1600.2
115.99 -869.93 1597.8
143.49 -913.12 1677.2
183.88 -898.01 1649.4
202.60 -850.90 1562.9
205.90 -847.83 1557.2
239.91 -883.89 1623.5
245.36 -888.37 1631.7
253.38 -901.85 1656.5
259.62 -908.69 1669.0
253.41 -872.41 1602.4
275.12 -849.62 1560.5
283.26 -862.08 1583.4
286.94 -860.83 1581.1
293.97 -869.50 1597.0
292.52 -841.51 1545.6
302.40 -858.17 1576.2
310.92 -870.57 1599.0
319.04 -881.55 1619.2
325.01 -886.39 1628.1
322.46 -868.16 1594.6
322.57 -857.46 1574.9
326.16 -856.18 1572.6
331.19 -858.65 1577.1
335.88 -860.18 1579.9
337.98 -855.13 1570.6
345.85 -864.63 1588.1
370.70 -846.16 1554.2
384.91 -869.16 1596.4
383.22 -856.14 1572.5
405.06 -859.23 1578.2
424.20 -840.40 1543.6
466.07 -881.75 1619.5
463.48 -861.34 1582.0
463.56 -853.92 1568.4
479.26 -852.93 1566.6
493.25 -870.44 1598.8
480.76 -841.34 1545.3
514.71 -885.97 1627.3
516.55 -874.80 1606.8
499.87 -839.78 1542.5
498.63 -818.06 1502.6
518.28 -843.71 1549.7
545.15 -854.34 1569.2
554.79 -850.41 1562.0
554.88 -844.38 1550.9
577.50 -836.38 1536.2
597.18 -858.95 1577.7
582.13 -831.61 1527.5
584.70 -818.58 1503.5
582.33 -809.87 1487.5
615.87 -850.87 1562.8
628.69 -862.91 1584.9
614.15 -837.48 1538.2
631.35 -855.37 1571.1
654.71 -881.35 1618.8
669.21 -895.12 1644.1
655.16 -828.82 1522.3
673.89 -847.41 1556.5
691.70 -864.63 1588.1
689.19 -856.39 1573.0
679.02 -838.79 1540.6
697.73 -856.86 1573.8
706.74 -862.87 1584.9
699.30 -848.86 1559.1
728.58 -879.32 1615.1
729.60 -875.52 1608.1
696.74 -831.34 1526.9
741.61 -832.82 1529.7
792.97 -885.76 1626.9
802.46 -886.93 1629.1
795.54 -870.12 1598.2
803.41 -856.43 1573.0
794.88 -843.06 1548.5
822.68 -830.59 1525.6
800.99 -804.82 1478.2
793.32 -793.32 1457.1
823.67 -819.77 1505.7
834.53 -815.13 1497.2
832.81 -809.67 1487.2
820.40 -793.94 1458.3
804.32 -774.80 1423.1
1019.55 -804.91 1478.4
1051.96 -827.38 1519.7
1066.81 -835.94 1535.4
1058.74 -826.53 1518.1
1050.89 -799.59 1468.6
1113.37 -844.07 1550.3
1097.52 -829.06 1522.8
1050.42 -785.01 1441.9
1064.42 -792.65 1455.9
1106.63 -806.92 1482.1
1107.11 -804.47 1477.6
1089.94 -789.27 1449.7
1085.93 -783.66 1439.4
1115.37 -796.69 1463.3
1123.56 -799.82 1469.1
1077.55 -764.48 1404.1
1064.37 -752.58 1382.3
1092.09 -769.59 1413.5
1115.98 -783.80 1439.6
1122.20 -782.93 1438.0
1121.33 -779.73 1432.2
1139.56 -779.51 1431.7
1202.92 -820.17 1506.4
1218.76 -828.29 1521.3
1211.02 -820.37 1506.8
1130.50 -760.91 1397.6
1149.74 -771.39 1416.8
1171.94 -783.78 1439.6
1216.96 -811.30 1490.2
1229.43 -817.03 1500.7
1217.94 -806.84 1482.0
1177.65 -777.70 1428.4
-1489.01 -1000.58 1829.1
-1535.16 -1034.88 1891.8
-1550.57 -1052.00 1923.1
-1484.68 -1013.81 1853.3
-1503.84 -1030.23 1883.3
-1458.76 -1002.60 1832.8
-1441.28 -993.82 1816.7
-1444.94 -999.62 1827.3
-1435.48 -996.34 1821.3
-1423.59 -997.93 1824.3
-1462.14 -1035.27 1892.5
-1467.51 -1053.21 1925.3
-1448.97 -1047.03 1914.0
-1367.66 -1005.49 1838.1
-1318.52 -979.61 1790.7
-1320.65 -984.66 1800.0
-1314.87 -994.40 1817.8
-1195.66 -910.77 1664.9
-1221.80 -934.06 1707.5
-1187.87 -911.42 1666.1
-1183.70 -911.54 1666.3
-1163.18 -899.01 1643.4
-1126.95 -874.22 1598.1
-1139.69 -887.36 1622.1
-1174.32 -917.71 1677.6
-1158.11 -908.40 1660.6
-1126.22 -906.99 1658.0
-1093.94 -884.38 1616.7
-1062.35 -865.47 1582.1
-1029.95 -858.97 1570.2
-1063.69 -890.63 1628.1
-1025.64 -876.16 1601.6
-1044.45 -895.85 1637.6
-999.84 -861.09 1574.1
-958.07 -867.61 1586.0
-984.26 -895.17 1636.4
-1021.87 -933.39 1706.3
-1005.21 -926.20 1693.1
-992.09 -918.12 1678.3
-959.29 -891.68 1630.0
-951.69 -892.47 1631.5
-956.05 -900.57 1646.3
-906.89 -861.95 1575.7
-918.00 -876.46 1602.2
-909.76 -872.54 1595.0
-901.25 -897.00 1639.7
-918.57 -918.57 1679.2
-896.06 -900.33 1645.8
-882.71 -891.15 1629.1
-895.51 -908.42 1660.6
-891.13 -908.35 1660.5
-877.85 -899.15 1643.7
-865.47 -890.80 1628.4
-857.26 -891.04 1628.9
-861.71 -900.10 1645.4
-822.42 -863.34 1578.2
-822.90 -885.88 1619.4
-853.45 -923.48 1688.1
-824.36 -896.59 1639.0
-780.74 -890.46 1627.8
-811.12 -930.14 1700.3
-813.90 -938.43 1715.5
-771.85 -894.84 1635.8
-760.43 -891.39 1629.5
-759.44 -895.21 1636.5
-767.81 -910.16 1663.8
-778.66 -928.24 1696.8
-767.81 -920.50 1682.7
-727.44 -877.08 1603.3
-710.96 -862.15 1576.0
-741.11 -903.90 1652.4
-740.68 -908.62 1661.0
-703.60 -878.46 1605.9
-704.61 -884.96 1617.7
-696.33 -879.80 1608.3
-705.75 -897.07 1639.9
-722.76 -924.25 1689.6
-703.54 -905.16 1654.7
-687.00 -894.79 1635.7
-665.54 -894.45 1635.1
-668.13 -903.68 1652.0
-669.64 -911.57 1666.4
-671.08 -919.47 1680.8
-650.43 -897.00 1639.7
-614.02 -869.51 1589.5
-625.31 -891.49 1629.7
-602.29 -882.52 1613.3
-602.53 -889.04 1625.2
-603.02 -896.03 1638.0
-597.33 -893.88 1634.0
-603.81 -910.02 1663.5
-595.06 -903.30 1651.3
-583.08 -891.52 1629.7
-593.51 -914.09 1671.0
-605.52 -939.44 1717.3
-594.11 -928.57 1697.5
-566.94 -899.43 1644.2
-564.76 -902.76 1650.3
-552.26 -889.52 1626.1
-552.64 -896.98 1639.7
-555.15 -915.13 1672.9
-570.02 -947.04 1731.2
-567.25 -949.92 1736.5
-549.14 -926.95 1694.5
-536.66 -913.18 1669.3
-524.83 -900.32 1645.8
-512.31 -886.05 1619.7
-515.57 -899.06 1643.5
-511.87 -900.04 1645.3
-502.68 -891.30 1629.3
-502.37 -898.30 1642.1
-493.76 -890.46 1627.8
-482.93 -878.43 1605.8
-487.64 -894.71 1635.6
-497.72 -921.22 1684.0
-497.61 -929.16 1698.5
-479.90 -904.09 1652.7
-473.67 -900.40 1646.0
-487.37 -934.87 1709.0
-475.26 -919.99 1681.8
-452.37 -892.05 1630.7
-450.48 -896.72 1639.2
-441.55 -941.08 1720.3
-424.00 -922.31 1686.0
-406.24 -911.88 1666.9
-399.00 -905.26 1654.8
-382.60 -877.49 1604.1
-373.75 -866.61 1584.2
-370.43 -878.20 1605.4
-369.37 -885.65 1619.0
-354.07 -858.73 1569.8
-356.10 -883.96 1615.9
-360.88 -906.49 1657.1
-355.80 -904.51 1653.5
-349.28 -898.75 1642.9
-340.80 -910.23 1663.9
-329.45 -891.22 1629.2
-322.60 -884.00 1616.0
-326.02 -905.15 1654.6
-319.50 -898.87 1643.2
-313.83 -907.11 1658.2
-306.25 -897.50 1640.7
-287.75 -906.19 1656.5
-291.71 -932.60 1704.8
-283.00 -918.66 1679.3
-271.10 -893.79 1633.9
-268.37 -898.83 1643.1
-269.08 -915.75 1674.0
-264.41 -914.61 1671.9
-254.88 -896.34 1638.5
-251.90 -916.39 1675.2
-251.10 -929.51 1699.2
-242.60 -914.06 1670.9
-201.93 -869.51 1589.5
-201.11 -884.04 1616.1
-200.37 -899.53 1644.4
-195.22 -895.45 1636.9
-183.23 -878.67 1606.2
-180.95 -887.94 1623.2
-158.78 -859.05 1570.4
-156.98 -871.65 1593.4
-153.21 -873.73 1597.2
-147.22 -862.89 1577.4
-149.98 -904.19 1652.9
-148.81 -923.49 1688.2
-137.87 -881.54 1611.5
-112.36 -878.04 1605.1
-79.01 -877.44 1604.0
-76.09 -891.91 1630.4
-71.44 -886.71 1620.9
-67.06 -884.39 1616.7
-63.01 -886.38 1620.3
-58.66 -884.05 1616.1
-50.31 -884.65 1617.2
-48.07 -922.12 1685.7
-43.70 -922.17 1685.8
-38.52 -903.02 1650.8
-33.80 -891.55 1629.8
-29.77 -897.34 1640.4
-26.19 -920.88 1683.4
-22.13 -933.87 1707.1
-17.50 -923.33 1687.9
-13.09 -920.47 1682.6
-8.67 -914.72 1672.1
-4.28 -903.69 1652.0
0.00 -899.37 1644.1
4.23 -892.17 1630.9
8.84 -932.48 1704.6
24.66 -867.14 1585.2
28.99 -873.83 1597.4
32.84 -866.12 1583.3
45.70 -876.54 1602.3
57.70 -869.66 1589.8
63.22 -889.26 1625.6
67.21 -886.31 1620.2
70.94 -880.48 1609.5
75.72 -887.59 1622.5
81.04 -899.97 1645.2
84.75 -894.13 1634.5
87.88 -883.01 1614.2
115.99 -874.09 1597.9
121.83 -886.41 1620.4
125.19 -880.53 1609.6
134.06 -912.47 1668.0
140.79 -900.20 1645.6
195.94 -843.76 1542.4
205.54 -867.39 1585.6
209.25 -865.73 1582.6
212.01 -860.26 1572.6
219.38 -873.37 1596.6
224.31 -876.47 1602.2
271.45 -881.16 1610.8
283.70 -906.97 1658.0
283.38 -892.43 1631.4
273.29 -848.02 1550.2
298.11 -861.66 1575.1
300.42 -856.61 1565.9
301.00 -846.83 1548.0
328.59 -877.64 1604.4
330.12 -870.68 1591.6
333.38 -868.44 1587.5
332.96 -856.76 1566.2
337.42 -847.57 1549.4
343.76 -853.34 1559.9
437.83 -871.52 1593.2
450.48 -888.32 1623.9
443.24 -865.95 1583.0
433.63 -839.41 1534.5
458.06 -847.82 1549.8
470.68 -863.60 1578.7
473.45 -853.82 1560.8
476.70 -852.41 1558.2
479.95 -851.00 1555.6
482.12 -847.73 1549.7
497.53 -867.60 1586.0
505.90 -874.95 1599.4
498.43 -855.02 1563.0
510.05 -867.91 1586.6
520.70 -878.94 1606.7
520.69 -871.95 1594.0
520.07 -864.05 1579.5
519.09 -855.69 1564.2
515.51 -843.19 1541.4
558.60 -879.58 1607.9
554.48 -866.64 1584.2
539.96 -831.62 1520.2
561.52 -858.55 1569.5
561.90 -852.96 1559.2
578.94 -836.69 1529.5
585.45 -829.06 1515.5
582.19 -818.95 1497.1
635.69 -859.81 1571.8
664.86 -893.54 1633.4
657.12 -877.54 1604.2
681.12 -887.14 1621.7
666.74 -863.08 1577.7
665.21 -830.53 1518.2
659.26 -818.26 1495.8
705.70 -865.72 1582.6
715.48 -872.64 1595.2
712.80 -864.38 1580.1
740.21 -872.54 1595.0
746.41 -874.96 1599.4
769.10 -877.19 1603.5
758.60 -860.56 1573.1
777.32 -877.08 1603.3
781.62 -877.25 1603.6
744.39 -818.05 1495.4
816.39 -828.17 1513.9
835.56 -820.01 1499.0
839.57 -820.14 1499.2
833.85 -810.79 1482.2
821.38 -795.01 1453.3
1046.19 -823.68 1505.7
1066.77 -836.76 1529.6
1042.44 -814.65 1489.2
1014.42 -784.04 1433.2
1067.87 -822.34 1503.3
1078.25 -824.31 1506.9
1073.68 -814.92 1489.7
1072.77 -802.68 1467.3
1079.80 -805.08 1471.7
1111.79 -826.01 1510.0
1111.28 -822.74 1504.0
1104.07 -806.09 1473.6
1065.44 -775.20 1417.1
1084.17 -780.75 1427.2
1056.64 -753.21 1376.9
1119.55 -795.37 1454.0
1113.16 -788.17 1440.8
1142.27 -800.72 1463.7
1126.73 -787.22 1439.1
1107.50 -766.18 1400.6
1183.68 -810.89 1482.3
1224.20 -835.94 1528.1
1199.19 -816.22 1492.1
1127.27 -764.80 1398.1
1112.98 -747.89 1367.2
1135.12 -760.35 1389.9
1147.42 -766.16 1400.6
1135.78 -755.99 1382.0
1163.33 -771.90 1411.0
1152.81 -762.52 1393.9
-1463.92 -991.54 1804.0
-1508.23 -1024.82 1864.6
-1529.25 -1042.44 1896.6
-1445.36 -1001.36 1821.9
-1389.01 -994.83 1810.0
-1368.30 -1007.22 1832.6
-1396.65 -1031.67 1877.0
-1377.98 -1021.44 1858.4
-1357.08 -1013.03 1843.1
-1328.29 -995.04 1810.4
-1328.20 -998.50 1816.7
-1314.09 -991.41 1803.8
-1231.47 -942.50 1714.8
-1222.44 -938.98 1708.4
-1185.87 -914.20 1663.3
-1178.01 -911.45 1658.3
-1150.66 -893.55 1625.7
-1143.63 -901.30 1639.8
-1132.21 -895.63 1629.5
-1103.26 -896.14 1630.4
-1075.72 -877.12 1595.8
-1079.64 -901.12 1639.5
-1082.43 -907.01 1650.2
-1050.39 -883.66 1607.7
-1029.92 -887.58 1614.9
-983.12 -864.82 1573.5
-1001.52 -884.68 1609.6
-960.93 -870.59 1584.0
-952.11 -866.30 1576.1
-954.04 -871.80 1586.2
-991.72 -910.15 1655.9
-991.59 -913.98 1662.9
-964.66 -893.04 1624.8
-944.32 -878.05 1597.5
-898.89 -858.40 1561.8
-922.58 -885.01 1610.2
-927.29 -893.57 1625.8
-880.47 -868.18 1579.6
-859.23 -851.20 1548.7
-898.73 -902.99 1642.9
-873.56 -903.39 1643.6
-874.68 -908.98 1653.8
-863.61 -901.90 1640.9
-842.58 -884.29 1608.9
-820.02 -864.89 1573.6
-841.99 -906.10 1648.6
-797.15 -875.63 1593.1
-801.28 -884.75 1609.7
-819.27 -909.34 1654.5
-815.26 -909.66 1655.0
-790.86 -906.28 1648.9
-807.28 -930.13 1692.3
-789.09 -919.16 1672.3
-773.60 -906.09 1648.5
-774.48 -912.16 1659.6
-768.15 -909.76 1655.2
-770.46 -917.63 1669.5
-772.71 -925.50 1683.9
-754.47 -908.79 1653.5
-746.70 -904.57 1645.8
-764.70 -931.71 1695.2
-757.61 -928.40 1689.1
-721.41 -889.18 1617.8
-702.57 -881.34 1603.5
-725.69 -915.75 1666.1
-706.66 -897.08 1632.2
-704.72 -900.01 1637.5
-733.65 -942.63 1715.0
-723.11 -934.76 1700.7
-650.40 -872.69 1587.8
-651.79 -880.12 1601.3
-645.09 -876.67 1595.0
-645.20 -894.01 1626.6
-608.07 -859.41 1563.6
-623.36 -886.92 1613.7
-634.26 -908.53 1653.0
-629.77 -908.24 1652.5
-626.24 -948.31 1725.4
-602.60 -919.08 1672.2
-579.25 -896.35 1630.8
-583.95 -910.28 1656.2
-580.61 -911.78 1658.9
-546.99 -913.08 1661.3
-544.11 -915.49 1665.6
-534.65 -906.77 1649.8
-535.33 -922.69 1678.7
-538.77 -936.23 1703.4
-535.99 -939.09 1708.6
-528.45 -933.60 1698.6
-506.34 -902.05 1641.2
-493.57 -886.75 1613.4
-498.91 -904.01 1644.8
-502.31 -918.02 1670.3
-499.02 -919.93 1673.7
-500.22 -930.23 1692.5
-495.61 -929.81 1691.7
-477.90 -921.04 1675.7
-475.73 -925.27 1683.4
-462.53 -916.42 1667.3
-460.79 -921.58 1676.7
-414.09 -877.87 1597.2
-431.43 -923.88 1680.9
-431.63 -933.73 1698.8
-401.85 -906.29 1648.9
-388.87 -886.45 1612.8
-366.04 -881.82 1604.4
-365.72 -891.19 1621.4
-369.73 -911.42 1658.3
-350.74 -906.79 1649.8
-333.34 -883.36 1607.2
-342.38 -918.79 1671.7
-338.18 -919.15 1672.3
-326.74 -899.58 1636.7
-326.36 -910.37 1656.3
-325.38 -919.74 1673.4
-321.49 -921.03 1675.7
-309.90 -899.99 1637.4
-295.92 -896.20 1630.6
-287.76 -884.14 1608.6
-286.44 -893.02 1624.8
-285.78 -904.27 1645.2
-278.20 -893.62 1625.9
-277.73 -905.83 1648.1
-274.41 -908.98 1653.8
-260.01 -903.64 1644.1
-253.67 -896.29 1630.7
-236.73 -865.30 1574.3
-242.35 -901.38 1640.0
-240.44 -910.24 1656.1
-233.61 -900.46 1638.3
-224.80 -882.54 1605.7
-197.86 -873.87 1589.9
-198.67 -896.11 1630.4
-194.80 -897.76 1633.4
-187.45 -883.11 1606.7
-183.83 -885.71 1611.5
-180.27 -888.78 1617.1
-159.91 -892.10 1623.1
-157.91 -904.76 1646.1
-153.59 -904.45 1645.6
-150.06 -908.93 1653.7
-142.72 -889.88 1619.1
-135.03 -867.46 1578.3
-132.19 -875.77 1593.4
-131.38 -898.50 1634.7
-128.12 -905.36 1647.2
-121.56 -888.68 1616.9
-117.07 -886.41 1612.7
-113.03 -887.49 1614.7
-90.06 -867.85 1579.0
-87.98 -888.15 1615.9
-85.61 -907.49 1651.1
-81.77 -912.40 1660.0
-77.07 -907.67 1651.4
-72.52 -904.38 1645.4
-68.08 -902.05 1641.2
-47.85 -922.11 1677.7
-44.50 -943.35 1716.3
-38.56 -908.24 1652.5
-21.24 -900.66 1638.7
-16.91 -896.35 1630.8
-12.88 -909.85 1655.4
-8.67 -919.02 1672.1
-4.26 -902.16 1641.4
0.00 -892.05 1623.0
4.32 -916.61 1667.7
21.21 -899.22 1636.0
24.93 -880.89 1602.7
29.09 -880.86 1602.6
43.50 -922.16 1677.8
52.25 -923.02 1679.3
54.65 -891.18 1621.4
59.26 -897.38 1632.7
63.97 -904.05 1644.8
66.99 -887.61 1614.9
81.30 -907.10 1650.4
85.52 -906.53 1649.3
87.98 -888.15 1615.9
117.01 -885.93 1611.9
123.41 -902.14 1641.4
127.17 -898.64 1635.0
127.87 -874.47 1591.0
130.02 -861.36 1567.2
135.25 -868.90 1580.9
151.29 -866.84 1577.1
155.35 -866.67 1576.8
160.20 -870.82 1584.4
168.98 -895.59 1629.4
169.64 -877.18 1595.9
181.24 -893.58 1625.8
190.40 -897.01 1632.0
188.77 -869.97 1582.8
192.72 -869.29 1581.6
217.59 -870.35 1583.5
222.36 -872.98 1588.3
259.45 -887.15 1614.1
265.53 -893.54 1625.7
269.95 -894.21 1626.9
277.73 -905.83 1648.1
283.24 -909.82 1655.3
292.11 -924.27 1681.6
291.33 -908.25 1652.5
293.83 -877.34 1596.2
312.55 -920.28 1674.4
307.45 -892.86 1624.5
299.17 -845.66 1538.6
314.80 -855.60 1556.7
336.90 -904.10 1644.9
341.39 -904.68 1646.0
336.47 -880.63 1602.2
346.81 -864.99 1573.8
360.72 -889.20 1617.8
365.53 -890.71 1620.6
366.43 -882.77 1606.1
365.88 -871.52 1585.7
371.42 -874.91 1591.8
376.19 -876.41 1594.5
372.18 -857.62 1560.4
399.18 -890.80 1620.7
404.05 -892.27 1623.4
396.01 -865.50 1574.7
391.42 -846.75 1540.6
391.49 -838.35 1525.3
435.50 -905.15 1646.8
433.85 -892.97 1624.7
446.70 -885.06 1610.3
446.59 -876.64 1595.0
444.00 -863.56 1571.2
444.92 -857.49 1560.1
460.34 -848.63 1544.0
463.32 -846.76 1540.6
467.57 -847.22 1541.4
471.30 -846.74 1540.6
478.15 -851.83 1549.8
497.33 -850.28 1547.0
506.78 -859.51 1563.8
505.85 -851.12 1548.5
527.30 -880.22 1601.5
545.93 -897.18 1632.3
539.62 -880.00 1601.1
532.31 -861.45 1567.3
528.19 -841.93 1531.8
541.73 -857.06 1559.3
551.29 -865.73 1575.1
544.98 -849.53 1545.6
539.42 -834.73 1518.7
577.83 -868.79 1580.7
599.96 -895.72 1629.7
605.02 -896.96 1631.9
592.36 -872.09 1586.7
593.21 -844.04 1535.6
596.78 -843.45 1534.6
635.44 -869.11 1581.3
666.81 -906.18 1648.7
666.57 -900.08 1637.6
632.15 -848.21 1543.2
652.83 -854.32 1554.4
664.36 -864.08 1572.1
672.11 -843.11 1534.0
698.27 -870.78 1584.3
745.84 -893.33 1625.3
744.22 -886.37 1612.7
753.08 -891.92 1622.8
747.60 -880.51 1602.0
719.97 -843.28 1534.3
749.81 -863.91 1571.8
776.91 -890.30 1619.8
758.29 -864.29 1572.5
760.57 -862.25 1568.8
749.87 -845.60 1538.5
735.88 -825.43 1501.8
745.90 -832.27 1514.2
756.77 -839.97 1528.3
769.29 -849.43 1545.5
762.21 -837.25 1523.3
780.25 -843.94 1535.5
791.95 -795.71 1447.7
832.19 -820.58 1493.0
839.27 -823.73 1498.7
796.41 -778.06 1415.6
983.91 -799.19 1454.1
996.41 -806.26 1466.9
980.75 -790.57 1438.4
973.72 -781.93 1422.6
961.99 -769.59 1400.2
976.70 -772.62 1405.7
1048.72 -826.50 1503.7
1075.60 -844.55 1536.6
1066.00 -807.11 1468.5
1093.02 -818.80 1489.7
1118.15 -798.14 1452.1
1139.16 -802.33 1459.8
1137.21 -798.30 1452.4
1101.20 -770.48 1401.8
1108.21 -772.83 1406.1
1149.41 -798.93 1453.6
1138.25 -788.59 1434.8
1178.49 -808.54 1471.1
1182.19 -808.46 1470.9
1129.91 -770.23 1401.4
1119.61 -760.76 1384.1
1169.52 -792.13 1441.2
1198.71 -809.32 1472.5
1157.58 -779.07 1417.5
1109.27 -744.19 1354.0
-1436.30 -999.78 1810.5
-1433.54 -1021.22 1849.3
-1415.78 -1015.36 1838.7
-1443.72 -1038.89 1881.3
-1412.54 -1019.90 1846.9
-1393.17 -1019.74 1846.6
-1295.36 -971.52 1759.3
-1319.15 -992.86 1797.9
-1306.14 -986.55 1786.5
-1279.19 -969.64 1755.9
-1271.66 -967.37 1751.8
-1255.58 -958.56 1735.8
-1229.95 -942.37 1706.5
-1244.35 -956.84 1732.7
-1244.31 -960.28 1738.9
-1213.00 -939.52 1701.4
-1220.91 -949.10 1718.7
-1208.74 -943.08 1707.8
-1170.34 -916.48 1659.6
-1173.98 -929.58 1683.3
-1156.76 -919.37 1664.9
-1104.89 -881.43 1596.2
-1077.57 -862.87 1562.5
-1095.73 -880.72 1594.9
-1102.97 -889.89 1611.5
-1098.86 -889.95 1611.6
-1123.89 -913.70 1654.6
-1125.81 -918.77 1663.8
-1090.09 -893.03 1617.2
-1036.38 -862.30 1561.5
-1055.39 -881.56 1596.4
-1075.26 -901.69 1632.8
-1054.65 -887.91 1607.9
-1045.05 -883.32 1599.6
-1034.50 -877.88 1589.7
-1006.22 -857.30 1552.4
-992.26 -852.22 1543.3
-1024.43 -883.41 1599.7
-1031.99 -893.55 1618.1
-1028.75 -905.47 1639.7
-1041.80 -920.76 1667.4
-1043.72 -926.31 1677.4
-1009.37 -899.57 1629.0
-1010.36 -915.78 1658.3
-980.28 -892.30 1615.8
-946.77 -876.79 1587.8
-965.21 -897.77 1625.7
-952.23 -889.59 1610.9
-907.71 -863.14 1563.0
-891.85 -851.85 1542.6
-895.41 -859.11 1555.7
-918.64 -885.38 1603.3
-910.40 -881.43 1596.2
-910.58 -893.80 1618.5
-915.12 -902.41 1634.1
-913.90 -905.39 1639.5
-891.67 -887.51 1607.2
-884.81 -884.81 1602.3
-879.42 -896.25 1623.0
-857.17 -890.62 1612.8
-860.45 -898.41 1626.9
-849.44 -891.28 1614.0
-853.90 -900.40 1630.5
-856.63 -907.77 1643.8
-840.28 -894.90 1620.5
-836.79 -895.66 1621.9
-846.82 -910.98 1649.7
-871.42 -942.20 1706.2
-847.44 -925.66 1676.3
-851.79 -940.06 1702.3
-845.68 -938.18 1698.9
-854.31 -952.71 1725.2
-790.64 -905.41 1639.6
-779.29 -897.23 1624.8
-767.99 -889.04 1609.9
-769.45 -905.49 1639.7
-773.37 -915.16 1657.2
-768.93 -914.99 1656.9
-766.74 -917.50 1661.5
-765.64 -921.37 1668.5
-747.82 -905.03 1638.9
-741.93 -903.04 1635.3
-725.78 -888.45 1608.9
-697.09 -863.26 1563.2
-747.09 -947.20 1715.3
-735.05 -937.52 1697.7
-695.23 -892.08 1615.4
-694.16 -901.56 1632.6
-667.87 -883.58 1600.0
-663.87 -883.77 1600.4
-639.98 -862.76 1562.3
-645.11 -875.22 1584.9
-632.79 -864.00 1564.6
-643.59 -895.97 1622.5
-660.70 -925.85 1676.6
-666.21 -939.76 1701.8
-652.59 -926.68 1678.1
-651.57 -931.44 1686.7
-647.96 -932.54 1688.7
-630.10 -913.00 1653.3
-631.54 -934.15 1691.6
-621.38 -945.39 1712.0
-583.64 -948.97 1718.5
-571.90 -937.04 1696.9
-522.21 -911.73 1651.0
-539.42 -949.56 1719.5
-525.81 -933.31 1690.1
-499.30 -893.71 1618.4
-481.16 -868.54 1572.8
-480.43 -874.64 1583.8
-473.79 -869.98 1575.4
-473.41 -884.52 1601.8
-481.93 -908.42 1645.0
-470.04 -893.92 1618.8
-473.67 -908.94 1646.0
-471.35 -912.71 1652.8
-450.96 -897.71 1625.6
-451.89 -908.04 1644.3
-427.15 -891.99 1615.3
-428.98 -904.69 1638.3
-414.32 -882.50 1598.1
-410.99 -921.48 1668.7
-418.95 -949.33 1719.1
-403.33 -923.75 1672.8
-375.87 -870.23 1575.9
-366.44 -886.95 1606.1
-370.95 -908.20 1644.6
-377.96 -936.11 1695.2
-375.43 -940.78 1703.6
-355.81 -902.23 1633.8
-345.98 -887.88 1607.8
-350.74 -911.06 1649.8
-345.15 -907.62 1643.6
-326.56 -869.46 1574.5
-322.43 -869.33 1574.2
-328.23 -896.33 1623.1
-326.56 -903.34 1635.8
-324.14 -908.45 1645.1
-321.00 -911.65 1650.9
-323.14 -930.11 1684.3
-317.25 -925.68 1676.3
-297.86 -881.17 1595.7
-298.13 -894.38 1619.6
-305.80 -930.50 1685.0
-295.04 -910.77 1649.3
-288.42 -903.44 1636.0
-283.22 -900.40 1630.5
-259.05 -904.54 1638.0
-253.80 -900.98 1631.6
-236.15 -898.20 1626.5
-243.64 -943.55 1708.6
-236.72 -933.73 1690.9
-228.46 -918.15 1662.6
-215.70 -918.87 1663.9
-209.78 -911.89 1651.3
-201.76 -895.30 1621.3
-197.81 -896.48 1623.4
-195.31 -904.38 1637.7
-188.88 -894.01 1618.9
-165.72 -882.46 1598.0
-165.14 -901.90 1633.2
-159.82 -895.82 1622.2
-154.64 -890.21 1612.1
-146.66 -867.73 1571.3
-138.18 -865.63 1567.5
-136.00 -877.83 1589.6
-132.99 -885.21 1603.0
-131.80 -905.61 1639.9
-129.27 -917.81 1662.0
-123.34 -905.89 1640.4
-116.82 -888.65 1609.2
-94.40 -874.27 1583.2
-93.35 -903.82 1636.7
-91.83 -931.44 1686.7
-74.68 -935.67 1694.4
-70.94 -944.45 1710.3
-66.58 -945.49 1712.2
-60.78 -924.78 1674.7
-54.62 -894.89 1620.5
-49.00 -869.82 1575.1
-46.10 -892.58 1616.3
-44.15 -940.48 1703.1
-39.37 -931.82 1687.4
-34.36 -914.95 1656.8
-30.21 -919.33 1664.8
-12.74 -904.44 1637.8
-8.64 -919.92 1665.9
0.00 -901.56 1632.6
4.36 -929.60 1683.4
13.11 -930.55 1685.1
16.94 -902.01 1633.4
20.45 -871.05 1577.4
37.96 -898.47 1627.0
43.97 -936.61 1696.1
57.33 -939.34 1701.0
58.62 -891.93 1615.2
71.40 -894.61 1620.0
75.80 -896.95 1624.3
81.08 -908.94 1646.0
85.84 -914.16 1655.4
88.83 -901.02 1631.6
93.25 -902.85 1634.9
97.17 -899.85 1629.5
99.69 -884.78 1602.2
103.78 -884.19 1601.1
108.98 -892.76 1616.7
113.46 -895.05 1620.8
116.69 -887.69 1607.5
120.51 -885.15 1602.9
134.36 -867.23 1570.4
141.64 -887.32 1606.8
149.10 -907.41 1643.2
153.83 -910.13 1648.1
158.99 -915.26 1657.4
164.54 -922.31 1670.2
170.87 -933.20 1689.9
174.18 -904.90 1638.7
172.13 -872.95 1580.8
185.52 -918.95 1664.1
193.85 -917.58 1661.6
192.41 -890.92 1613.3
196.65 -891.19 1613.8
201.97 -896.26 1623.0
206.02 -895.56 1621.7
206.45 -879.48 1592.6
227.91 -882.63 1598.3
231.61 -880.94 1595.3
236.32 -883.09 1599.1
241.31 -886.18 1604.8
240.35 -867.71 1571.3
243.81 -865.54 1567.4
261.51 -913.16 1653.6
269.23 -896.03 1622.6
275.24 -888.27 1608.5
289.84 -921.43 1668.6
296.35 -928.28 1681.0
304.47 -900.73 1631.1
295.68 -862.73 1562.3
307.65 -862.24 1561.4
322.43 -869.33 1574.2
335.85 -894.19 1619.3
339.73 -893.36 1617.8
358.80 -888.66 1609.2
371.15 -908.67 1645.5
369.77 -895.01 1620.7
366.48 -877.08 1588.3
361.03 -854.43 1547.3
363.20 -840.89 1522.7
377.31 -864.15 1564.9
390.64 -866.73 1569.5
424.96 -896.21 1622.9
418.38 -865.19 1566.7
454.83 -888.79 1609.5
456.58 -884.10 1601.0
439.72 -843.78 1528.0
454.85 -857.38 1552.6
462.64 -864.40 1565.3
461.89 -855.50 1549.2
463.87 -851.75 1542.4
467.60 -851.28 1541.5
478.06 -862.94 1562.7
490.96 -878.78 1591.3
501.16 -860.87 1558.9
505.72 -861.76 1560.5
504.24 -852.41 1543.6
525.94 -882.09 1597.3
540.92 -900.12 1630.0
529.92 -874.99 1584.5
544.74 -892.53 1616.3
558.28 -907.73 1643.8
555.51 -863.68 1564.0
557.71 -860.81 1558.8
590.47 -885.71 1603.9
601.03 -895.24 1621.2
597.05 -877.05 1588.2
587.55 -857.18 1552.2
585.48 -848.34 1536.2
659.82 -900.91 1631.4
646.12 -876.58 1587.4
667.74 -856.79 1551.5
687.16 -860.97 1559.1
657.03 -818.40 1482.0
745.97 -887.67 1607.4
