ply
format ascii 1.0
element vertex 2310
property float x
property float y
property float z
end_header
-66.83 383.17 1718.5
-62.06 381.25 1709.9
-55.73 368.67 1653.5
-47.27 369.59 1657.6
-43.33 372.66 1671.4
-38.89 371.60 1666.6
-35.03 376.62 1689.2
-30.82 378.60 1698.0
-26.52 380.14 1704.9
-22.77 391.68 1756.7
-18.53 398.44 1787.0
-13.44 385.39 1728.5
-8.65 372.12 1669.0
-4.31 370.39 1661.2
0.00 373.22 1673.9
4.41 378.87 1699.3
8.89 382.13 1713.9
13.48 386.48 1733.4
18.31 393.65 1765.6
22.65 389.51 1747.0
26.13 374.48 1679.6
30.07 369.46 1657.0
34.45 370.31 1660.9
39.23 374.86 1681.3
44.98 386.80 1734.8
50.78 397.00 1780.6
55.39 396.97 1780.4
59.05 390.63 1752.0
62.35 382.99 1717.7
65.16 373.60 1675.6
70.11 376.83 1690.1
77.10 390.05 1749.4
81.26 388.27 1741.4
84.28 381.48 1711.0
89.56 385.13 1727.3
94.99 388.99 1744.6
99.72 389.81 1748.3
104.64 391.27 1754.9
110.27 395.12 1772.1
114.59 394.19 1768.0
118.10 390.65 1752.1
124.19 395.58 1774.2
129.20 396.81 1779.7
132.25 392.18 1759.0
136.40 391.02 1753.8
141.47 392.47 1760.2
146.73 394.34 1768.6
149.04 388.40 1742.0
151.47 383.12 1718.3
160.47 394.31 1768.5
165.38 395.08 1772.0
162.76 378.31 1696.7
166.55 376.92 1690.5
176.48 389.17 1745.5
184.39 396.44 1778.0
188.95 396.33 1777.6
192.87 394.93 1771.3
196.33 392.66 1761.1
197.30 385.63 1729.6
201.39 384.88 1726.2
209.04 390.82 1752.8
217.89 398.70 1788.2
226.32 405.49 1818.6
228.63 401.26 1799.7
225.81 388.40 1742.0
224.63 378.78 1698.9
232.09 383.84 1721.5
242.05 392.77 1761.6
243.97 388.54 1742.6
248.12 387.98 1740.1
257.32 395.17 1772.3
260.96 393.73 1765.9
264.86 392.73 1761.4
269.78 393.23 1763.7
271.99 389.86 1748.5
279.78 394.44 1769.1
295.42 409.77 1837.8
306.36 418.21 1875.7
307.90 413.74 1855.7
304.47 402.84 1806.8
302.77 394.52 1769.4
310.57 398.65 1788.0
317.96 402.13 1803.6
316.14 394.02 1767.2
322.50 396.21 1777.0
343.23 415.74 1864.6
357.95 427.55 1917.6
364.39 429.28 1925.4
376.39 437.43 1961.9
-117.60 416.52 1890.1
-110.92 409.92 1860.1
-107.11 413.85 1878.0
-102.84 416.27 1888.9
-96.69 410.95 1864.8
-90.09 403.05 1829.0
-84.13 397.29 1802.8
-76.63 383.14 1738.6
-71.36 379.10 1720.3
-68.27 386.88 1755.6
-62.91 381.97 1733.3
-56.12 366.94 1665.1
-46.49 359.26 1630.2
-43.36 368.53 1672.3
-39.62 374.15 1697.8
-35.22 374.17 1697.9
-30.60 371.60 1686.3
-26.57 376.35 1707.8
-23.00 391.00 1774.3
-13.65 386.72 1754.8
-8.78 372.95 1692.4
-4.35 370.15 1679.7
0.00 364.35 1653.3
4.25 360.90 1637.7
8.78 373.16 1693.3
13.62 385.85 1750.9
18.32 389.29 1766.5
22.39 380.67 1727.4
26.19 370.97 1683.4
30.57 371.17 1684.3
34.75 369.22 1675.4
39.30 371.14 1684.1
43.94 373.48 1694.8
48.50 374.74 1700.5
54.02 382.68 1736.5
58.75 384.15 1743.2
62.56 379.82 1723.5
65.88 373.33 1694.1
69.74 370.50 1681.2
75.55 377.77 1714.2
81.58 385.25 1748.2
86.78 388.21 1761.6
91.13 387.31 1757.5
95.52 386.61 1754.4
99.61 384.84 1746.3
103.89 383.92 1742.2
108.20 383.22 1739.0
111.05 377.58 1713.4
116.40 380.52 1726.7
124.53 392.05 1779.1
129.69 393.70 1786.5
132.91 389.55 1767.7
135.80 384.76 1746.0
139.51 382.54 1735.9
144.07 382.67 1736.5
145.62 375.09 1702.1
148.20 370.51 1681.3
157.29 382.00 1733.5
166.65 393.49 1785.6
168.91 388.04 1760.9
171.71 384.09 1742.9
180.51 393.42 1785.3
185.29 393.75 1786.8
186.26 386.16 1752.3
188.22 380.92 1728.5
189.84 375.26 1702.8
196.52 379.64 1722.8
207.27 391.51 1776.6
213.32 394.18 1788.7
220.26 398.34 1807.6
225.72 399.71 1813.8
225.18 390.62 1772.6
228.95 389.22 1766.2
234.74 391.23 1775.3
237.04 387.47 1758.3
241.65 387.56 1758.7
243.96 384.01 1742.6
248.81 384.52 1744.9
259.28 393.55 1785.9
264.39 394.26 1789.1
265.73 389.44 1767.2
268.44 386.74 1755.0
277.40 392.98 1783.3
291.68 406.44 1844.4
297.28 407.56 1849.4
298.65 402.94 1828.5
303.75 403.42 1830.6
303.66 397.10 1801.9
302.44 389.50 1767.5
310.91 394.43 1789.9
318.47 398.09 1806.4
316.48 389.86 1769.1
318.31 386.51 1753.9
333.86 399.69 1813.7
359.21 424.07 1924.4
-110.34 402.98 1850.4
-103.83 396.45 1820.4
-100.88 403.52 1852.9
-95.73 402.08 1846.3
-89.85 397.25 1824.1
-84.45 394.10 1809.7
-78.43 387.56 1779.6
-74.31 390.15 1791.5
-68.77 385.09 1768.2
-61.32 367.90 1689.3
-56.18 363.04 1667.0
-51.93 363.49 1669.1
-47.32 361.39 1659.4
-43.58 366.09 1681.0
-39.61 369.73 1697.8
-35.09 368.48 1692.0
-30.69 368.28 1691.1
-26.79 375.11 1722.4
-22.71 381.50 1751.8
-18.11 380.24 1746.0
-13.47 377.27 1732.3
-8.86 372.17 1708.9
-4.39 368.98 1694.3
0.00 362.17 1663.0
4.26 358.12 1644.5
8.80 369.61 1697.2
13.25 371.10 1704.0
17.29 363.00 1666.8
22.09 371.08 1703.9
27.02 378.30 1737.1
31.49 377.86 1735.1
35.74 375.28 1723.2
39.41 367.82 1689.0
43.03 361.41 1659.6
47.13 359.90 1652.6
52.20 365.40 1677.9
58.29 376.65 1729.5
63.58 381.51 1751.8
67.63 378.71 1739.0
72.17 378.88 1739.8
77.19 381.39 1751.3
82.36 384.33 1764.8
86.34 381.73 1752.8
89.46 375.73 1725.3
96.15 384.61 1766.1
102.83 392.63 1802.9
105.69 385.99 1772.4
108.44 379.56 1742.9
112.82 379.07 1740.6
119.74 386.87 1776.4
124.81 388.29 1782.9
126.72 380.15 1745.6
131.88 381.99 1754.0
136.78 382.98 1758.6
139.59 378.24 1736.8
143.34 376.26 1727.7
148.62 378.30 1737.1
155.15 383.31 1760.1
158.88 381.31 1750.9
162.11 378.26 1736.9
166.58 378.17 1736.5
171.52 379.14 1741.0
179.33 386.25 1773.6
182.67 383.61 1761.5
185.85 380.76 1748.4
190.44 380.87 1748.9
191.99 375.06 1722.2
198.51 378.97 1740.2
209.99 391.97 1799.9
217.25 396.72 1821.7
220.96 394.92 1813.4
223.30 390.78 1794.4
224.93 385.60 1770.6
230.83 387.80 1780.7
239.86 395.06 1814.1
245.92 397.25 1824.1
249.37 395.22 1814.8
250.60 389.82 1790.0
252.25 385.26 1769.0
259.28 388.92 1785.8
265.81 391.73 1798.7
268.93 389.48 1788.4
268.59 382.39 1755.9
274.39 384.14 1763.9
287.87 396.40 1820.2
292.78 396.67 1821.5
291.56 388.74 1785.0
293.83 385.65 1770.8
304.31 393.26 1805.8
313.81 399.40 1834.0
315.59 395.66 1816.8
316.26 390.67 1793.9
324.56 395.12 1814.3
338.20 405.84 1863.6
346.96 410.48 1884.9
364.25 424.95 1951.3
-127.42 423.05 1966.0
-119.07 411.77 1913.6
-110.69 399.45 1856.3
-102.38 386.27 1795.1
-98.12 387.79 1802.1
-93.96 389.95 1812.1
-88.94 388.52 1805.5
-84.54 389.83 1811.6
-79.34 387.35 1800.1
-72.94 378.35 1758.3
-65.34 361.57 1680.3
-60.99 361.61 1680.5
-58.55 373.83 1737.3
-53.63 370.92 1723.7
-48.52 366.11 1701.4
-44.01 365.29 1697.6
-39.45 363.85 1690.8
-35.38 367.02 1705.6
-31.31 371.24 1725.2
-26.81 370.84 1723.3
-22.26 369.59 1717.5
-17.66 366.45 1702.9
-13.06 361.19 1678.5
-8.62 357.62 1661.9
-4.29 355.94 1654.1
0.00 356.58 1657.1
4.34 359.94 1672.7
8.84 366.67 1704.0
13.12 362.88 1686.3
17.04 353.61 1643.3
21.73 360.76 1676.5
26.97 373.15 1734.1
31.86 377.76 1755.5
35.84 371.86 1728.1
39.20 361.53 1680.1
42.97 356.67 1657.5
47.32 357.07 1659.4
52.56 363.56 1689.5
58.85 375.73 1746.1
64.29 381.16 1771.3
68.54 379.23 1762.4
72.81 377.72 1755.3
77.53 378.52 1759.1
82.45 380.16 1766.7
86.10 376.13 1747.9
90.27 374.61 1740.9
98.17 388.00 1803.1
107.43 387.68 1801.6
110.93 383.64 1782.8
116.04 385.26 1790.3
118.62 378.69 1759.8
118.93 365.61 1699.0
122.96 364.50 1693.9
130.26 372.82 1732.6
135.64 375.27 1743.9
138.96 372.05 1729.0
145.43 377.22 1753.0
153.70 386.57 1796.5
158.24 386.28 1795.1
159.67 378.65 1759.7
161.83 373.12 1733.9
164.70 369.47 1717.0
169.12 369.38 1716.6
175.79 374.11 1738.5
179.84 373.18 1734.2
183.98 372.45 1730.8
192.97 381.35 1772.2
199.46 385.01 1789.2
198.50 374.45 1740.1
201.60 371.84 1728.0
212.04 382.60 1778.0
219.43 387.50 1800.8
224.39 388.01 1803.1
228.99 387.89 1802.6
229.82 381.50 1772.9
233.45 379.92 1765.6
240.56 383.97 1784.4
245.50 384.47 1786.7
250.32 384.76 1788.0
255.98 386.29 1795.2
259.27 384.28 1785.8
262.09 381.65 1773.6
268.05 383.59 1782.6
270.65 380.74 1769.4
270.02 373.53 1735.9
276.71 376.51 1749.7
285.95 382.80 1778.9
289.03 380.78 1769.6
286.29 371.29 1725.4
291.63 372.38 1730.5
305.07 383.64 1782.9
310.90 385.14 1789.8
319.99 390.58 1815.1
337.82 406.37 1888.5
347.11 411.58 1912.7
350.85 410.15 1906.1
357.79 412.46 1916.7
366.24 416.41 1935.1
-113.54 404.81 1904.1
-105.17 391.99 1843.9
-98.65 385.19 1811.9
-92.85 380.67 1790.6
-86.96 375.32 1765.5
-81.85 372.87 1753.9
-77.05 371.67 1748.3
-70.95 363.61 1710.3
-65.80 359.69 1691.9
-63.47 371.78 1748.8
-59.74 376.80 1772.4
-53.72 367.06 1726.6
-47.96 357.53 1681.7
-43.00 352.56 1658.4
-39.25 357.57 1682.0
-35.86 367.57 1729.0
-31.27 366.34 1723.2
-26.38 360.54 1695.9
-22.04 361.38 1699.9
-17.60 360.77 1697.0
-13.12 358.49 1686.3
-8.74 358.29 1685.3
-4.33 354.96 1669.7
0.00 354.55 1667.7
4.36 357.25 1680.4
8.87 363.48 1709.8
13.39 365.97 1721.5
17.69 362.64 1705.8
22.31 365.95 1721.4
27.42 374.67 1762.4
32.18 376.95 1773.1
35.98 368.82 1734.9
39.68 361.52 1700.5
43.93 360.25 1694.6
47.96 357.53 1681.7
52.83 361.03 1698.2
59.01 372.23 1750.9
64.43 377.39 1775.2
68.50 374.45 1761.3
72.65 372.33 1751.4
76.67 369.80 1739.5
80.76 367.89 1730.5
86.39 372.83 1753.7
92.75 380.26 1788.7
97.96 382.49 1799.2
101.71 379.12 1783.3
105.74 376.99 1773.3
110.69 378.18 1778.9
115.09 377.49 1775.7
116.91 368.72 1734.4
118.72 360.56 1696.0
124.30 364.03 1712.3
129.45 366.04 1721.8
132.45 362.03 1702.9
140.13 370.66 1743.5
151.25 387.58 1823.1
156.36 388.54 1827.6
157.46 379.75 1786.3
160.20 375.32 1765.5
163.92 373.37 1756.3
167.78 371.84 1749.1
173.23 373.82 1758.4
180.60 379.73 1786.2
185.39 380.05 1787.7
184.80 369.61 1738.6
188.84 368.68 1734.2
199.35 380.16 1788.2
202.82 377.99 1778.0
205.11 373.75 1758.0
214.47 382.31 1798.3
223.45 389.84 1833.8
230.19 393.23 1849.7
232.20 388.57 1827.8
230.32 377.72 1776.7
231.52 372.24 1751.0
235.85 371.91 1749.4
241.90 374.26 1760.5
248.42 377.23 1774.4
253.07 377.30 1774.8
255.47 374.08 1759.6
259.37 373.13 1755.1
266.44 376.70 1771.9
273.16 379.64 1785.8
276.18 377.44 1775.4
280.22 376.68 1771.9
286.87 379.41 1784.7
295.02 383.99 1806.2
297.66 381.37 1793.9
296.00 373.42 1756.5
302.91 376.34 1770.3
309.05 378.24 1779.2
318.29 383.82 1805.4
336.45 399.83 1880.8
345.89 405.19 1905.9
350.50 404.81 1904.1
358.87 408.72 1922.5
361.51 406.08 1910.1
372.38 412.64 1941.0
-116.11 408.90 1947.1
-107.23 394.80 1880.0
-100.45 387.47 1845.1
-94.26 381.77 1818.0
-88.02 375.25 1786.9
-81.62 367.29 1749.0
-75.89 361.58 1721.8
-72.04 364.70 1736.7
-68.84 371.72 1770.1
-63.83 369.29 1758.5
-57.82 360.28 1715.6
-53.17 358.87 1708.9
-48.60 357.87 1704.2
-43.60 353.17 1681.8
-39.79 358.12 1705.3
-35.80 362.46 1726.0
-30.76 355.90 1694.8
-26.29 354.89 1689.9
-22.28 360.86 1718.4
-17.66 357.58 1702.8
-13.08 353.07 1681.3
-8.82 357.18 1700.9
-4.43 358.63 1707.7
0.00 361.09 1719.5
4.53 366.85 1746.9
9.07 367.25 1748.8
13.48 363.96 1733.1
18.07 366.01 1742.9
23.14 374.83 1784.9
27.81 375.44 1787.8
31.93 369.46 1759.3
36.47 369.24 1758.3
41.12 370.04 1762.1
45.07 365.09 1738.5
48.77 359.10 1710.0
52.89 357.02 1700.1
58.22 362.75 1727.4
64.57 373.60 1779.0
69.67 376.24 1791.6
72.85 368.81 1756.2
75.71 360.76 1717.9
81.21 365.44 1740.2
88.26 376.28 1791.8
93.05 376.84 1794.5
96.73 373.10 1776.7
100.43 369.77 1760.8
104.46 367.87 1751.7
109.10 368.22 1753.4
113.19 366.73 1746.3
118.75 369.95 1761.7
124.66 373.99 1780.9
127.63 369.21 1758.1
129.96 362.99 1728.5
134.42 362.92 1728.2
143.42 374.73 1784.4
156.34 372.45 1773.6
156.57 362.34 1725.4
163.64 368.19 1753.3
171.23 374.86 1785.0
175.63 374.36 1782.7
182.07 378.15 1800.7
188.31 381.33 1815.9
189.14 373.67 1779.4
191.90 370.10 1762.4
201.08 378.78 1803.7
204.04 375.61 1788.6
205.55 369.99 1761.9
215.97 380.30 1810.9
226.17 389.78 1856.1
229.34 387.01 1842.9
227.26 375.67 1788.9
231.32 374.74 1784.5
238.57 378.90 1804.3
237.54 370.01 1762.0
238.30 364.19 1734.2
243.66 365.49 1740.4
247.53 364.55 1735.9
256.17 370.53 1764.4
266.37 378.53 1802.5
269.05 375.75 1789.3
271.08 372.16 1772.2
276.47 373.23 1777.3
282.65 375.33 1787.3
294.48 384.72 1832.0
307.79 395.73 1884.5
313.36 396.59 1888.5
314.87 392.38 1868.5
315.12 386.74 1841.6
314.57 380.30 1811.0
321.51 382.97 1823.7
337.13 395.77 1884.6
349.74 404.70 1927.1
357.77 408.16 1943.6
366.60 412.43 1964.0
369.52 410.02 1952.5
375.71 411.25 1958.3
-117.16 407.51 1964.8
-109.85 399.46 1925.9
-100.99 384.71 1854.8
-93.20 372.79 1797.4
-88.02 370.61 1786.9
-82.48 366.59 1767.5
-75.97 357.50 1723.7
-71.71 358.56 1728.8
-68.83 367.12 1770.0
-64.00 365.73 1763.3
-58.48 359.87 1735.1
-54.23 361.53 1743.1
-49.80 362.16 1746.1
-44.92 359.35 1732.6
-40.50 359.98 1735.6
-35.96 359.59 1733.7
-30.95 353.72 1705.4
-26.51 353.53 1704.5
-22.62 361.87 1744.7
-18.07 361.47 1742.8
-13.20 351.94 1696.8
-8.76 350.32 1689.0
-4.40 352.15 1697.9
0.00 354.79 1710.6
4.52 361.90 1744.9
9.08 363.31 1751.7
13.62 363.11 1750.7
18.43 368.58 1777.1
23.16 370.60 1786.8
27.32 364.29 1756.4
31.79 363.26 1751.4
36.79 367.91 1773.9
40.77 362.41 1747.3
43.90 351.22 1693.4
49.27 358.31 1727.5
55.33 368.83 1778.3
59.11 363.73 1753.7
63.65 363.70 1753.5
69.10 368.54 1776.9
72.69 363.43 1752.2
75.28 354.26 1708.0
80.47 357.67 1724.5
87.54 368.58 1777.1
92.23 368.94 1778.8
96.03 365.85 1763.9
99.92 363.36 1751.9
105.09 365.54 1762.4
110.98 369.94 1783.7
116.22 371.91 1793.2
123.03 378.54 1825.1
132.44 378.41 1824.5
134.73 371.66 1791.9
139.12 370.98 1788.6
143.73 370.91 1788.3
148.98 372.45 1795.7
155.36 376.62 1815.9
156.59 368.45 1776.4
157.62 360.28 1737.0
165.73 368.28 1775.7
173.28 374.67 1806.4
177.73 374.17 1804.1
182.96 375.29 1809.5
187.80 375.60 1810.9
189.96 370.66 1787.1
193.91 369.35 1780.8
201.18 374.30 1804.6
201.92 367.13 1770.1
200.32 356.13 1717.1
206.92 359.86 1735.0
220.36 375.08 1808.4
227.16 378.59 1825.4
227.50 371.42 1790.8
234.21 374.73 1806.7
244.72 383.88 1850.8
247.87 381.34 1838.6
244.02 368.33 1775.9
244.73 362.57 1748.1
251.67 366.06 1765.0
263.33 376.19 1813.8
268.94 377.46 1819.9
267.15 368.49 1776.6
270.03 366.14 1765.3
276.31 368.41 1776.3
283.56 371.88 1793.0
295.87 381.77 1840.7
304.48 386.64 1864.1
305.18 381.47 1839.2
309.33 380.71 1835.6
311.81 377.95 1822.3
313.22 373.99 1803.2
322.35 379.24 1828.5
332.30 385.28 1857.6
338.55 386.91 1865.5
345.00 388.74 1874.3
351.15 390.16 1881.1
361.51 396.18 1910.1
376.26 406.77 1961.2
-117.63 404.02 1972.6
-98.69 371.28 1812.7
-92.84 366.72 1790.5
-89.27 371.17 1812.2
-84.22 369.61 1804.6
-78.17 363.24 1773.5
-72.07 355.86 1737.5
-67.61 356.10 1738.6
-63.75 359.74 1756.4
-59.00 358.57 1750.7
-53.68 353.38 1725.4
-48.37 347.39 1696.1
-43.65 344.81 1683.5
-39.42 346.03 1689.5
-35.43 349.86 1708.2
-30.88 348.47 1701.4
-26.15 344.27 1680.9
-22.04 348.30 1700.6
-18.04 356.34 1739.8
-13.52 355.94 1737.9
-8.96 353.74 1727.1
-4.49 354.35 1730.1
0.00 345.32 1686.0
4.30 339.70 1658.6
8.85 349.53 1706.6
13.58 357.55 1745.7
18.31 361.55 1765.3
22.95 362.54 1770.1
27.05 356.11 1738.7
31.48 355.29 1734.7
36.24 357.88 1747.4
39.88 350.04 1709.1
43.80 346.01 1689.4
50.16 360.23 1758.8
55.87 367.82 1795.9
59.24 359.97 1757.5
63.47 358.13 1748.6
68.49 360.71 1761.1
72.72 359.07 1753.1
76.14 353.82 1727.5
79.33 348.16 1699.9
84.21 350.13 1709.5
90.30 356.70 1741.6
95.71 360.06 1758.0
100.48 360.81 1761.6
106.60 366.16 1787.8
112.50 370.31 1808.0
117.80 372.26 1817.5
121.84 370.19 1807.5
125.20 366.33 1788.6
130.45 368.06 1797.1
135.01 367.80 1795.8
138.50 364.73 1780.8
142.31 362.66 1770.6
145.01 357.98 1747.8
148.50 355.51 1735.8
155.29 360.83 1761.7
162.57 366.95 1791.6
167.82 368.26 1798.0
172.25 367.78 1795.6
174.56 362.89 1771.8
177.33 359.21 1753.8
184.66 364.71 1780.7
189.54 365.21 1783.1
192.63 362.32 1769.0
198.79 365.22 1783.2
200.91 360.73 1761.2
200.76 352.45 1720.8
203.31 349.16 1704.8
212.29 356.83 1742.2
223.76 368.27 1798.1
229.59 370.15 1807.3
234.45 370.43 1808.6
243.17 376.68 1839.1
249.30 378.75 1849.2
248.94 371.07 1811.7
252.47 369.35 1803.3
262.17 376.57 1838.6
268.39 378.63 1848.6
268.36 371.94 1816.0
268.89 366.25 1788.2
274.02 366.90 1791.4
281.57 370.73 1810.1
290.29 375.95 1835.5
296.18 377.39 1842.6
298.15 373.87 1825.4
296.18 365.60 1785.0
297.43 361.49 1765.0
303.37 363.13 1772.9
308.85 364.16 1778.0
315.19 366.18 1787.9
322.11 368.79 1800.6
328.74 371.00 1811.4
336.12 374.00 1826.0
339.99 373.04 1821.4
347.47 376.03 1835.9
366.66 391.44 1911.2
-116.69 395.74 1957.0
-103.99 368.69 1823.2
-97.36 361.62 1788.2
-94.41 368.20 1820.7
-89.70 368.24 1821.0
-83.76 362.94 1794.8
-79.72 365.75 1808.7
-75.28 366.98 1814.7
-68.52 356.32 1762.0
-62.72 349.42 1727.9
-58.44 350.64 1733.9
-53.46 347.50 1718.4
-48.00 340.39 1683.3
-43.21 337.05 1666.7
-39.05 338.45 1673.7
-35.10 342.24 1692.4
-30.70 342.06 1691.5
-26.08 339.10 1676.9
-21.64 337.52 1669.1
-17.43 339.91 1680.9
-13.49 350.82 1734.8
-9.25 360.94 1784.8
-4.64 361.93 1789.8
0.00 353.01 1745.7
4.35 339.53 1679.0
8.73 340.32 1682.9
13.39 348.05 1721.1
18.03 351.61 1738.7
22.83 356.15 1761.2
27.18 353.37 1747.4
31.53 351.37 1737.5
36.18 352.74 1744.3
40.84 353.91 1750.1
46.01 358.84 1774.5
49.85 353.47 1747.9
52.82 343.34 1697.8
57.48 344.90 1705.5
63.11 351.60 1738.7
68.33 355.33 1757.1
72.88 355.30 1757.0
76.65 351.69 1739.1
80.28 347.89 1720.3
85.75 352.01 1740.7
92.58 361.07 1785.5
98.16 364.58 1802.9
103.21 365.92 1809.5
105.61 358.15 1771.1
107.32 348.80 1724.8
111.78 348.74 1724.5
115.04 345.12 1706.7
121.98 352.38 1742.5
131.30 365.76 1808.7
134.71 362.34 1791.8
137.05 356.34 1762.1
140.57 353.70 1749.1
143.13 348.89 1725.3
147.16 347.83 1720.0
154.25 353.87 1749.9
159.73 355.97 1760.3
163.34 353.91 1750.1
171.12 360.74 1783.9
176.95 363.22 1796.1
177.22 354.45 1752.8
181.72 354.36 1752.3
187.77 357.22 1766.5
192.19 356.93 1765.0
199.32 361.56 1788.0
202.79 359.49 1777.7
205.30 355.85 1759.7
210.49 356.92 1765.0
216.43 359.18 1776.2
224.84 365.37 1806.8
226.61 360.73 1783.8
227.26 354.52 1753.1
236.48 361.68 1788.5
243.53 365.30 1806.4
246.80 363.21 1796.1
254.09 367.02 1814.9
259.40 367.87 1819.1
261.06 363.62 1798.1
268.21 367.02 1814.9
275.88 371.01 1834.6
274.15 362.44 1792.3
274.02 356.23 1761.6
285.53 365.10 1805.5
294.92 371.03 1834.8
296.40 366.97 1814.7
293.92 358.22 1771.4
297.74 357.29 1766.8
306.50 362.22 1791.2
311.35 362.46 1792.4
317.73 364.46 1802.3
323.65 365.86 1809.2
329.25 366.88 1814.2
344.28 378.22 1870.3
356.89 386.63 1911.9
356.58 381.00 1884.1
366.84 386.67 1912.1
380.99 396.23 1959.4
388.73 398.96 1972.9
-105.38 368.84 1847.6
-99.11 363.41 1820.4
-95.42 367.37 1840.3
-90.18 365.46 1830.7
-84.07 359.64 1801.5
-79.93 362.03 1813.5
-75.97 365.59 1831.3
-69.55 357.02 1788.4
-62.85 345.70 1731.7
-57.87 342.80 1717.2
-53.46 343.02 1718.3
-48.53 339.72 1701.7
-43.41 334.26 1674.4
-38.98 333.50 1670.6
-34.94 336.26 1684.4
-30.45 334.90 1677.6
-26.13 335.31 1679.7
-21.90 337.28 1689.5
-17.61 339.05 1698.4
-13.64 350.02 1753.4
-9.21 354.53 1775.9
-4.55 350.03 1753.4
0.00 353.36 1770.1
4.58 352.38 1765.2
9.01 346.89 1737.7
13.57 348.26 1744.5
17.91 344.73 1726.8
22.23 342.37 1715.0
26.78 343.73 1721.8
31.46 346.06 1733.5
36.77 353.87 1772.6
42.25 361.49 1810.8
46.79 360.29 1804.8
49.90 349.31 1749.8
52.91 339.50 1700.6
57.71 341.82 1712.3
62.36 342.96 1718.0
66.54 341.56 1711.0
72.71 349.94 1752.9
78.24 354.40 1775.3
82.06 351.03 1758.4
87.86 356.08 1783.7
93.29 359.16 1799.1
97.35 356.96 1788.1
103.48 362.19 1814.3
107.18 358.82 1797.4
108.05 346.65 1736.4
111.45 343.27 1719.5
115.82 343.02 1718.3
123.89 353.31 1769.8
132.22 363.60 1821.4
134.49 357.09 1788.8
137.81 353.70 1771.8
142.37 353.63 1771.4
146.37 352.20 1764.2
151.83 354.27 1774.6
157.26 356.14 1784.0
160.78 353.72 1771.9
165.98 355.01 1778.3
175.51 365.25 1829.7
183.43 362.15 1814.1
184.24 354.66 1776.6
186.21 349.70 1751.8
190.27 348.83 1747.4
196.92 352.63 1766.4
203.78 356.62 1786.4
209.83 359.04 1798.5
215.01 359.91 1802.9
220.69 361.55 1811.1
228.47 366.50 1835.9
230.06 361.53 1811.0
228.38 351.70 1761.8
235.19 355.09 1778.7
241.03 356.91 1787.9
243.45 353.69 1771.7
252.85 360.55 1806.1
260.35 364.50 1825.9
258.93 356.03 1783.5
262.89 355.13 1778.9
272.51 361.78 1812.3
272.95 356.23 1784.4
273.85 351.45 1760.5
286.59 361.76 1812.2
291.95 362.59 1816.3
289.90 354.32 1774.9
297.12 357.47 1790.7
310.44 367.75 1842.2
316.74 369.53 1851.1
319.22 366.87 1837.7
327.09 370.38 1855.3
334.69 373.50 1870.9
334.84 368.32 1845.0
343.38 372.40 1865.4
370.39 396.11 1984.2
378.85 394.21 1974.7
371.80 381.72 1912.1
-125.47 397.31 2016.4
-118.04 390.03 1979.5
-101.72 368.14 1868.4
-96.74 367.61 1865.7
-91.82 367.27 1863.9
-85.85 362.48 1839.7
-80.79 361.17 1833.0
-76.00 361.02 1832.2
-69.89 354.10 1797.1
-63.49 344.66 1749.2
-58.50 341.99 1735.7
-54.09 342.60 1738.7
-48.64 336.05 1705.5
-43.13 327.76 1663.5
-38.75 327.21 1660.6
-34.75 330.12 1675.4
-30.64 332.65 1688.3
-26.64 337.50 1712.9
-22.40 340.41 1727.6
-18.07 343.32 1742.4
-13.75 348.35 1768.0
-9.13 347.01 1761.1
-4.57 347.20 1762.1
4.59 348.94 1770.9
8.88 337.53 1713.0
13.61 344.68 1749.3
18.29 347.57 1764.0
22.23 337.90 1714.9
26.17 331.51 1682.5
30.94 335.94 1704.9
36.48 346.55 1758.8
41.63 351.56 1784.2
45.82 348.25 1767.4
49.53 342.24 1736.9
53.21 336.99 1710.3
58.37 341.22 1731.7
63.46 344.47 1748.3
66.69 337.87 1714.8
71.77 340.93 1730.3
77.50 346.49 1758.5
81.55 344.33 1747.5
87.33 349.31 1772.8
92.78 352.55 1789.2
96.23 348.25 1767.4
101.80 351.68 1784.8
106.12 350.66 1779.7
107.73 341.15 1731.4
112.71 342.64 1739.0
118.85 347.41 1763.2
123.61 347.93 1765.8
128.23 348.06 1766.5
132.64 347.61 1764.2
138.18 350.05 1776.6
142.36 349.02 1771.3
146.11 347.02 1761.2
149.98 345.41 1753.0
153.54 343.22 1741.9
159.71 346.80 1760.1
167.61 353.84 1795.8
174.38 358.19 1817.9
178.09 356.18 1807.7
178.48 347.82 1765.2
178.26 338.69 1718.9
183.70 340.52 1728.2
191.53 346.58 1759.0
195.82 346.11 1756.5
200.10 345.62 1754.1
206.29 348.41 1768.2
211.51 349.46 1773.6
217.83 352.23 1787.7
226.27 358.27 1818.3
232.65 360.84 1831.3
235.81 358.43 1819.1
242.25 361.00 1832.1
247.70 362.03 1837.4
246.91 354.05 1796.9
252.84 355.85 1806.0
264.50 365.49 1854.9
267.66 363.25 1843.6
269.33 359.11 1822.5
276.44 362.23 1838.4
273.38 352.15 1787.2
271.12 343.42 1742.9
283.35 353.03 1791.7
288.67 353.85 1795.8
289.41 349.13 1771.9
299.51 355.67 1805.1
308.80 361.05 1832.4
310.77 357.85 1816.2
319.54 362.47 1839.6
334.91 374.32 1899.7
338.14 372.44 1890.2
333.77 362.38 1839.2
339.10 362.98 1842.2
361.92 382.03 1938.9
379.59 389.85 1978.5
381.91 387.01 1964.1
-124.00 387.51 1992.9
-117.74 383.95 1974.6
-111.91 381.52 1962.1
-92.01 363.18 1867.8
-85.21 355.03 1825.9
-79.44 350.49 1802.5
-74.74 350.34 1801.7
-68.74 343.70 1767.6
-63.31 339.15 1744.2
-59.09 340.90 1753.2
-54.73 342.07 1759.2
-49.33 336.37 1729.9
-44.19 331.43 1704.5
-40.12 334.32 1719.3
-35.74 335.10 1723.4
-31.33 335.69 1726.4
-27.13 339.14 1744.1
-22.72 340.87 1753.0
-18.10 339.35 1745.2
-13.60 339.93 1748.2
-9.07 340.13 1749.2
-4.56 341.85 1758.1
0.00 349.48 1797.3
4.56 341.66 1757.1
8.87 332.49 1710.0
13.67 341.65 1757.0
18.42 345.46 1776.6
22.42 336.29 1729.5
26.47 330.93 1701.9
31.40 336.45 1730.3
36.23 339.68 1746.9
40.55 337.94 1738.0
44.73 335.44 1725.1
48.49 330.65 1700.5
52.72 329.48 1694.5
58.49 337.46 1735.5
63.77 341.63 1757.0
67.21 336.07 1728.3
71.97 337.37 1735.0
77.33 341.15 1754.5
80.95 337.29 1734.7
86.26 340.50 1751.1
92.21 345.79 1778.3
96.27 343.84 1768.3
101.57 346.27 1780.8
105.41 343.74 1767.8
106.51 332.83 1711.7
111.05 333.16 1713.4
119.37 344.34 1770.9
126.61 351.71 1808.8
130.43 349.36 1796.7
133.88 346.25 1780.7
138.40 345.99 1779.4
141.65 342.69 1762.4
145.54 341.10 1754.2
149.47 339.70 1747.0
153.45 338.48 1740.8
159.88 342.59 1761.9
164.22 342.13 1759.5
167.34 339.20 1744.5
174.52 344.44 1771.4
178.77 343.78 1768.0
178.65 334.96 1722.7
184.00 336.58 1731.0
192.48 343.71 1767.6
197.44 344.37 1771.1
200.53 341.81 1757.9
205.14 341.90 1758.4
211.62 345.03 1774.4
219.24 349.85 1799.2
222.02 346.90 1784.1
222.12 339.98 1748.5
229.99 344.98 1774.2
241.21 354.71 1824.2
248.22 358.00 1841.2
249.03 352.40 1812.3
253.64 352.28 1811.7
263.79 359.72 1850.0
268.35 359.40 1848.4
270.89 356.44 1833.1
277.88 359.33 1848.0
274.55 349.01 1794.9
269.74 337.18 1734.0
278.73 342.71 1762.5
288.65 349.17 1795.7
294.30 350.35 1801.8
299.17 350.59 1803.0
302.90 349.50 1797.5
307.11 348.98 1794.8
318.86 356.93 1835.6
334.56 369.00 1897.7
338.64 368.09 1893.0
342.35 366.80 1886.4
357.04 377.16 1939.7
366.60 381.87 1963.9
371.34 381.51 1962.1
379.21 384.34 1976.6
-119.55 384.65 2004.9
-112.30 377.75 1968.9
-91.33 355.69 1854.0
-84.24 346.32 1805.1
-78.70 342.60 1785.7
-74.29 343.57 1790.8
-68.81 339.47 1769.4
-63.77 337.05 1756.8
-58.95 335.57 1749.1
-54.12 333.72 1739.5
-49.89 335.63 1749.4
-45.74 338.47 1764.2
-40.96 336.80 1755.5
-35.96 332.67 1734.0
-31.24 330.24 1721.3
-26.79 330.44 1722.4
-22.52 333.28 1737.2
-17.99 332.72 1734.3
-13.49 332.73 1734.3
-8.99 332.55 1733.4
-4.44 328.41 1711.8
0.00 329.35 1716.7
4.46 329.73 1718.7
8.88 328.59 1712.7
13.57 334.80 1745.1
18.11 334.99 1746.1
22.57 334.03 1741.1
27.37 337.60 1759.7
32.06 338.91 1766.5
36.56 338.14 1762.5
40.50 333.03 1735.9
44.24 327.36 1706.3
49.08 330.16 1720.9
54.54 336.35 1753.2
58.52 333.12 1736.4
61.88 327.07 1704.8
66.94 330.24 1721.3
73.47 339.81 1771.2
79.35 345.42 1800.4
83.46 343.12 1788.5
87.56 341.01 1777.5
92.26 341.34 1779.2
95.57 336.78 1755.4
100.00 336.36 1753.2
108.21 348.16 1814.7
113.94 351.31 1831.1
115.62 342.22 1783.8
120.82 343.86 1792.3
125.99 345.30 1799.9
127.43 336.79 1755.4
131.00 334.28 1742.4
135.65 334.59 1744.0
141.48 337.72 1760.3
147.88 341.97 1782.5
151.55 339.83 1771.3
155.16 337.70 1760.2
162.26 343.06 1788.2
167.50 344.30 1794.6
168.17 336.34 1753.1
172.96 336.82 1755.6
179.45 340.49 1774.7
181.77 336.28 1752.8
186.89 337.32 1758.2
194.91 343.41 1790.0
199.82 343.88 1792.4
202.63 340.78 1776.3
206.26 339.19 1768.0
211.60 340.40 1774.3
216.61 341.05 1777.7
217.03 334.59 1744.0
216.78 327.38 1706.4
223.53 330.83 1724.4
232.05 336.70 1755.0
236.39 336.40 1753.4
242.59 338.72 1765.5
252.40 345.88 1802.9
261.28 351.54 1832.4
264.39 349.37 1821.0
262.55 340.85 1776.6
264.28 337.19 1757.5
271.71 340.79 1776.3
277.72 342.52 1785.3
282.09 342.21 1783.7
286.91 342.44 1784.9
295.38 346.96 1808.5
303.33 350.73 1828.1
305.82 348.17 1814.8
308.58 345.98 1803.4
318.16 351.41 1831.7
331.65 360.91 1881.2
342.26 367.06 1913.3
353.56 373.77 1948.2
355.08 370.08 1929.0
348.38 358.05 1866.3
367.31 372.34 1940.8
-126.26 384.03 2029.1
-117.80 373.88 1975.5
-95.20 347.48 1836.0
-86.82 333.59 1762.6
-81.94 332.33 1756.0
-78.31 336.27 1776.8
-74.24 338.72 1789.7
-69.00 335.78 1774.2
-64.22 334.88 1769.4
-59.68 335.10 1770.6
-54.33 330.48 1746.2
-49.72 329.95 1743.4
-45.25 330.34 1745.4
-40.23 326.27 1723.9
-35.57 324.62 1715.2
-31.08 324.07 1712.3
-26.84 326.50 1725.2
-22.71 331.54 1751.8
-18.09 330.06 1743.9
-13.48 328.02 1733.2
-9.11 332.67 1757.8
-4.58 334.17 1765.7
0.00 329.15 1739.1
4.42 322.64 1704.7
8.78 320.40 1692.9
13.39 325.79 1721.4
18.09 330.06 1743.9
22.81 333.02 1759.6
27.37 333.01 1759.6
31.74 330.95 1748.7
36.63 334.28 1766.3
41.05 332.96 1759.3
44.69 326.25 1723.8
49.44 328.09 1733.5
55.33 336.61 1778.6
59.84 336.03 1775.5
62.80 327.45 1730.2
67.47 328.35 1734.9
72.90 332.59 1757.3
77.49 332.74 1758.1
82.36 334.00 1764.8
87.26 335.26 1771.4
92.10 336.15 1776.1
95.46 331.83 1753.3
99.54 330.30 1745.2
107.39 340.83 1800.9
118.40 345.74 1826.8
122.72 344.57 1820.6
126.74 342.66 1810.5
124.79 325.34 1719.0
132.81 323.18 1707.6
142.65 335.91 1774.9
147.30 336.03 1775.5
149.02 329.66 1741.8
153.42 329.40 1740.5
161.36 336.55 1778.3
168.76 342.21 1808.2
171.82 338.99 1791.1
174.49 335.20 1771.1
178.94 334.94 1769.7
183.28 334.48 1767.3
190.30 338.83 1790.3
197.45 343.18 1813.3
201.44 341.98 1806.9
205.95 341.70 1805.4
211.26 342.71 1810.8
212.75 337.62 1783.9
213.98 332.35 1756.1
217.01 330.04 1743.8
219.11 326.43 1724.8
227.93 332.78 1758.3
238.73 341.71 1805.5
240.97 338.28 1787.4
244.58 336.88 1780.0
249.52 337.31 1782.3
253.50 336.46 1777.8
259.57 338.37 1787.8
260.95 334.20 1765.8
263.67 331.87 1753.5
271.84 336.34 1777.1
275.89 335.66 1773.6
278.23 332.96 1759.3
288.45 339.63 1794.5
302.97 351.06 1854.9
308.14 351.47 1857.1
307.60 345.46 1825.3
310.21 343.11 1812.9
319.49 348.10 1839.3
332.65 357.11 1886.9
342.59 362.45 1915.1
348.64 363.58 1921.1
343.14 352.80 1864.1
344.75 349.54 1846.9
374.61 374.61 1979.3
-118.91 372.23 1994.1
-112.63 368.62 1974.7
-96.11 345.99 1853.5
-87.45 331.37 1775.2
-82.40 329.58 1765.6
-77.44 327.97 1757.0
-72.28 325.25 1742.4
-69.07 331.52 1776.0
-65.93 339.07 1816.4
-60.33 334.15 1790.1
-54.14 324.82 1740.1
-49.01 320.81 1718.6
-44.20 318.26 1705.0
-39.90 319.20 1710.0
-35.86 322.70 1728.8
-30.98 318.68 1707.2
-26.48 317.78 1702.4
-22.81 328.43 1759.5
-18.49 332.85 1783.1
-13.46 323.13 1731.0
-8.88 319.65 1712.4
-4.46 320.94 1719.3
0.00 315.25 1688.8
4.41 317.45 1700.6
9.01 324.42 1738.0
13.73 329.55 1765.5
18.52 333.40 1786.1
22.67 326.41 1748.7
26.39 316.68 1696.5
31.04 319.23 1710.2
36.30 326.74 1750.4
41.23 329.84 1767.0
45.45 327.25 1753.1
49.57 324.48 1738.3
54.72 328.31 1758.8
60.53 335.25 1796.0
64.90 333.75 1788.0
67.31 323.09 1730.8
70.24 316.09 1693.3
76.18 322.65 1728.5
82.44 329.76 1766.6
86.24 326.79 1750.7
89.85 323.45 1732.8
93.90 321.94 1724.7
98.69 323.00 1730.3
105.04 328.81 1761.5
110.93 332.79 1782.8
114.07 328.53 1760.0
118.09 327.01 1751.8
125.42 334.46 1791.7
126.91 326.35 1748.3
128.03 317.87 1702.9
137.83 330.80 1772.1
145.08 336.95 1805.1
147.04 330.85 1772.4
149.93 327.12 1752.4
155.56 329.43 1764.8
160.72 330.63 1771.3
165.00 330.01 1767.9
171.14 333.04 1784.1
177.17 335.70 1798.4
180.51 333.24 1785.2
183.57 330.42 1770.1
189.14 332.16 1779.4
194.56 333.53 1786.8
198.81 332.89 1783.3
203.71 333.34 1785.8
210.22 336.35 1801.9
212.85 333.15 1784.7
213.37 326.86 1751.0
215.17 322.75 1729.0
219.95 323.20 1731.4
231.83 333.83 1788.4
241.67 341.19 1827.8
243.18 336.71 1803.8
247.64 336.41 1802.2
253.32 337.75 1809.4
252.09 330.00 1767.9
253.05 325.35 1742.9
258.62 326.68 1750.1
265.84 330.01 1767.9
274.04 334.43 1791.6
278.43 334.12 1789.9
281.27 332.00 1778.5
292.33 339.48 1818.6
302.16 345.32 1849.9
301.84 339.57 1819.1
306.92 339.97 1821.3
315.83 344.54 1845.7
320.31 344.21 1844.0
328.03 347.32 1860.6
339.98 354.76 1900.5
347.74 357.68 1916.1
351.66 356.62 1910.4
364.22 364.22 1951.2
-113.25 365.47 1985.5
-91.50 341.93 1857.6
-85.64 337.81 1835.2
-80.11 334.60 1817.7
-73.21 324.86 1764.9
-68.56 324.54 1763.1
-65.21 330.72 1796.7
-59.43 324.59 1763.4
-53.58 317.02 1722.2
-48.76 314.69 1709.6
-44.40 315.26 1712.7
-40.47 319.26 1734.4
-36.65 325.25 1766.9
-31.93 323.82 1759.2
-26.91 318.40 1729.7
-22.86 324.57 1763.2
-18.34 325.48 1768.2
-13.22 312.82 1699.4
-8.66 307.39 1669.9
-4.31 306.13 1663.1
0.00 309.93 1683.7
4.53 321.51 1746.6
8.93 316.98 1722.0
13.11 310.28 1685.6
18.06 320.59 1741.6
22.58 320.58 1741.6
26.43 312.79 1699.2
31.27 317.12 1722.8
36.06 320.00 1738.4
40.40 318.71 1731.4
45.35 321.95 1749.0
50.21 324.10 1760.7
54.44 322.09 1749.8
59.17 323.15 1755.5
65.00 329.63 1790.8
68.95 326.34 1772.9
70.44 312.56 1698.0
74.83 312.53 1697.9
82.66 326.06 1771.3
88.16 329.46 1789.8
90.96 322.90 1754.2
94.16 318.34 1729.4
100.14 323.18 1755.7
107.78 332.71 1807.5
111.17 328.86 1786.6
111.71 317.25 1723.5
115.23 314.67 1709.5
121.98 320.75 1742.5
127.04 322.14 1750.1
132.00 323.17 1755.6
139.27 329.60 1790.6
143.88 329.54 1790.2
145.65 323.16 1755.6
148.41 319.30 1734.6
153.65 320.85 1743.1
158.13 320.78 1742.7
161.88 319.27 1734.4
167.75 321.89 1748.7
172.53 322.36 1751.2
174.45 317.59 1725.4
178.37 316.61 1720.0
184.76 319.95 1738.2
191.88 324.37 1762.2
198.14 327.16 1777.3
201.02 324.37 1762.2
205.53 324.27 1761.7
211.31 326.16 1771.9
214.77 324.44 1762.6
219.64 324.88 1765.0
227.62 329.81 1791.7
232.69 330.43 1795.1
235.72 328.16 1782.8
238.16 325.19 1766.6
243.73 326.51 1773.8
255.34 335.73 1823.9
259.84 335.43 1822.3
257.54 326.53 1773.9
259.75 323.55 1757.7
266.55 326.29 1772.6
274.17 329.93 1792.4
281.58 333.21 1810.2
287.55 334.69 1818.2
293.24 335.81 1824.3
297.06 334.78 1818.7
302.14 335.18 1820.9
313.11 342.01 1858.0
320.62 344.91 1873.7
323.32 342.62 1861.3
333.64 348.36 1892.5
348.97 359.08 1950.8
358.09 363.20 1973.1
363.40 363.40 1974.2
-117.11 372.61 2053.2
-109.23 364.11 2006.3
-102.31 358.09 1973.2
-92.61 341.19 1880.0
-84.63 329.11 1813.4
-80.15 330.03 1818.6
-74.02 323.83 1784.3
-67.45 314.76 1734.4
-62.64 313.18 1725.7
-58.47 314.82 1734.7
-53.85 314.13 1730.9
-49.17 312.90 1724.1
-44.96 314.71 1734.1
-39.98 310.98 1713.6
-35.30 308.85 1701.8
-31.51 315.12 1736.4
-27.23 317.63 1750.2
-22.82 319.43 1760.1
-18.08 316.40 1743.4
-13.32 310.87 1713.0
-8.93 312.66 1722.8
-4.43 309.99 1708.1
0.00 311.95 1718.9
4.60 322.31 1776.0
9.08 317.84 1751.4
12.93 301.77 1662.8
17.26 302.12 1664.7
22.20 310.86 1712.9
26.77 312.27 1720.7
30.90 309.05 1702.9
34.85 304.93 1680.2
39.11 304.19 1676.2
44.01 308.10 1697.7
49.39 314.33 1732.0
54.16 315.91 1740.7
58.60 315.53 1738.6
64.06 320.32 1765.0
69.32 323.50 1782.6
72.26 316.15 1742.1
74.78 307.91 1696.7
80.59 313.41 1726.9
87.19 321.22 1770.0
91.10 318.86 1757.0
94.04 313.47 1727.3
99.91 317.88 1751.6
108.06 328.89 1812.2
111.89 326.34 1798.2
113.67 318.27 1753.7
118.39 318.75 1756.4
123.20 319.41 1760.0
126.10 315.26 1737.1
129.77 313.24 1726.0
135.82 316.92 1746.3
141.98 320.59 1766.5
145.39 318.04 1752.5
148.73 315.48 1738.4
154.58 318.26 1753.7
157.49 314.99 1735.6
159.67 310.47 1710.7
167.17 316.26 1742.7
173.86 320.27 1764.8
177.30 318.24 1753.6
182.62 319.58 1760.9
187.65 320.38 1765.4
193.46 322.43 1776.6
199.32 324.47 1787.9
202.22 321.72 1772.7
209.15 325.35 1792.8
217.35 330.75 1822.5
220.58 328.53 1810.3
225.33 328.60 1810.7
230.45 329.21 1814.0
232.80 325.92 1795.9
235.70 323.51 1782.6
238.14 320.57 1766.4
241.83 319.40 1760.0
251.36 325.84 1795.4
260.65 331.74 1827.9
263.32 329.15 1813.7
265.48 326.02 1796.5
272.08 328.38 1809.4
275.78 327.20 1802.9
278.83 325.31 1792.5
286.45 328.71 1811.3
293.84 331.76 1828.0
298.78 331.98 1829.3
305.01 333.61 1838.2
314.89 339.11 1868.5
321.26 340.73 1877.5
321.27 335.66 1849.5
328.83 338.50 1865.2
346.00 351.02 1934.2
357.19 357.19 1968.2
-124.17 372.50 2082.3
-112.97 371.20 2075.0
-103.58 357.36 1997.6
-91.93 333.83 1866.1
-83.56 320.33 1790.7
-78.93 320.36 1790.9
-74.66 321.98 1799.9
-69.51 319.73 1787.3
-63.59 313.42 1752.1
-58.49 310.46 1735.5
-53.91 309.96 1732.7
-49.28 309.10 1727.9
-45.79 315.98 1766.4
-41.45 317.76 1776.3
-35.50 306.16 1711.5
-30.69 302.48 1690.9
-26.41 303.73 1697.8
-22.05 304.26 1700.9
-18.15 313.08 1750.1
-13.95 320.83 1793.5
-9.14 315.38 1763.0
-4.43 305.35 1706.9
0.00 305.87 1709.9
4.56 314.33 1757.1
9.21 317.67 1775.8
13.49 310.27 1734.4
17.40 300.22 1678.3
21.67 298.98 1671.3
26.30 302.49 1691.0
30.56 301.25 1684.0
35.03 302.11 1688.8
39.91 305.97 1710.4
43.83 302.43 1690.6
48.10 301.71 1686.6
52.41 301.33 1684.5
56.34 299.02 1671.5
61.52 303.22 1695.0
66.56 306.18 1711.6
71.89 310.02 1733.0
76.98 312.45 1746.6
80.81 309.77 1731.7
85.19 309.38 1729.5
89.56 308.99 1727.3
93.17 306.14 1711.3
98.27 308.21 1722.9
105.71 317.13 1772.8
111.39 320.24 1790.2
115.25 318.08 1778.1
119.37 316.80 1770.9
123.53 315.69 1764.7
126.80 312.47 1746.7
130.86 311.36 1740.5
137.26 315.69 1764.7
143.70 319.84 1787.9
148.06 319.25 1784.6
152.40 318.66 1781.3
155.60 315.78 1765.2
155.78 307.12 1716.8
163.76 305.40 1707.2
172.78 313.74 1753.8
178.67 316.11 1767.1
183.92 317.26 1773.5
188.78 317.70 1776.0
194.82 320.07 1789.2
201.04 322.60 1803.4
201.98 316.74 1770.6
206.85 317.17 1773.0
216.87 325.30 1818.4
221.99 325.90 1821.8
224.21 322.31 1801.7
226.70 319.24 1784.6
227.71 314.24 1756.6
229.35 310.30 1734.6
236.54 313.86 1754.5
245.02 318.99 1783.2
251.61 321.50 1797.2
257.99 323.66 1809.3
261.74 322.50 1802.8
264.73 320.46 1791.4
270.30 321.56 1797.6
273.07 319.36 1785.2
273.96 315.06 1761.2
279.50 316.15 1767.3
288.35 320.90 1793.9
294.31 322.34 1801.9
301.12 324.64 1814.8
312.57 331.80 1854.8
319.07 333.58 1864.7
318.88 328.40 1835.8
325.56 330.34 1846.6
342.34 342.34 1913.7
-122.99 363.63 2062.6
-114.80 354.84 2012.7
-109.60 354.89 2013.0
-91.72 328.27 1862.1
-84.93 320.86 1820.0
-80.09 320.37 1817.2
-75.68 321.62 1824.3
-69.77 316.28 1794.0
-63.23 307.11 1742.0
-58.58 306.44 1738.2
-54.39 308.20 1748.2
-49.05 303.19 1719.8
-45.02 306.16 1736.6
-41.63 314.51 1784.0
-36.39 309.32 1754.6
-31.20 303.09 1719.2
-26.62 301.71 1711.4
-22.05 299.82 1700.6
-17.99 305.90 1735.1
-13.74 311.46 1766.7
-8.95 304.35 1726.4
-4.40 299.49 1698.8
0.00 305.05 1730.3
4.55 309.21 1753.9
9.06 308.00 1747.0
13.57 307.64 1745.0
17.94 305.03 1730.2
22.43 305.02 1730.2
27.33 309.70 1756.7
31.34 304.48 1727.1
35.45 301.34 1709.3
40.39 305.14 1730.8
44.31 301.30 1709.1
48.51 299.90 1701.1
52.77 299.01 1696.0
56.03 293.08 1662.4
60.51 293.92 1667.2
65.14 295.28 1674.9
69.92 297.16 1685.6
76.15 304.59 1727.7
81.26 306.98 1741.3
84.84 303.65 1722.4
88.38 300.49 1704.5
93.70 303.40 1721.0
100.78 311.50 1766.9
105.40 311.63 1767.6
108.14 306.38 1737.9
113.51 308.76 1751.4
119.36 312.17 1770.7
123.66 311.43 1766.5
127.07 308.60 1750.5
130.92 306.99 1741.3
137.09 310.74 1762.6
142.50 312.58 1773.0
145.60 309.40 1755.0
149.70 308.47 1749.7
152.56 305.12 1730.7
156.03 303.15 1719.5
160.82 303.77 1723.1
165.34 303.87 1723.6
172.28 308.29 1748.7
178.85 311.84 1768.8
184.81 314.18 1782.1
188.65 312.89 1774.8
193.84 313.84 1780.2
201.46 318.59 1807.1
203.74 314.87 1786.0
205.80 310.99 1764.0
212.88 314.69 1785.0
218.28 315.80 1791.3
221.03 313.12 1776.1
222.71 309.06 1753.1
222.75 302.94 1718.3
245.53 315.02 1786.9
258.96 326.10 1849.7
257.40 318.25 1805.2
252.37 306.45 1738.2
258.08 307.88 1746.4
266.61 312.58 1773.0
269.47 310.57 1761.7
270.45 306.51 1738.6
279.16 311.19 1765.2
291.91 320.16 1816.0
295.55 319.00 1809.5
299.96 318.70 1807.8
313.85 328.34 1862.4
322.87 332.65 1886.9
328.80 333.71 1892.9
343.32 343.32 1947.4
-113.39 345.33 1988.0
-108.04 344.70 1984.4
-101.89 341.32 1965.0
-93.56 329.91 1899.3
-86.35 321.41 1850.3
-81.26 320.25 1843.6
-75.67 316.86 1824.1
-68.88 307.66 1771.2
-63.40 303.41 1746.7
-59.57 307.03 1767.5
-55.39 309.28 1780.5
-50.02 304.68 1754.0
-44.43 297.69 1713.8
-39.76 296.00 1704.0
-35.57 297.89 1715.0
-31.23 298.94 1721.0
-26.77 298.95 1721.0
-22.28 298.62 1719.1
-17.85 298.97 1721.1
-13.36 298.46 1718.2
-8.86 296.93 1709.4
-4.43 297.10 1710.4
0.00 298.81 1720.2
4.47 299.32 1723.2
8.96 300.18 1728.1
13.50 301.54 1736.0
18.12 303.59 1747.7
23.00 308.20 1774.3
27.77 310.07 1785.1
31.57 302.19 1739.7
35.43 296.70 1708.1
40.01 297.88 1714.9
44.56 298.54 1718.7
49.46 301.26 1734.3
54.75 305.69 1759.8
59.07 304.46 1752.8
62.51 299.13 1722.1
65.97 294.66 1696.3
70.03 293.26 1688.3
75.36 296.99 1709.8
80.65 300.21 1728.3
84.35 297.44 1712.3
88.83 297.57 1713.1
95.34 304.19 1751.2
100.99 307.57 1770.7
104.10 303.25 1745.8
108.06 301.67 1736.7
114.52 306.92 1766.9
118.82 306.18 1762.7
121.23 300.84 1731.9
126.13 301.81 1737.5
131.72 304.31 1751.9
138.22 308.69 1777.1
143.82 310.85 1789.5
146.40 306.52 1764.6
149.76 304.07 1750.5
155.22 305.88 1760.9
161.53 309.22 1780.1
165.83 308.63 1776.8
169.83 307.54 1770.5
175.35 309.17 1779.9
180.41 309.94 1784.3
183.57 307.48 1770.1
184.26 301.10 1733.4
191.26 305.10 1756.5
201.00 313.19 1803.0
202.94 309.02 1779.0
204.41 304.34 1752.1
210.99 307.31 1769.2
215.99 307.90 1772.5
219.91 306.95 1767.1
222.68 304.48 1752.9
243.90 308.32 1775.0
257.57 319.57 1839.8
255.43 311.16 1791.3
253.61 303.42 1746.8
263.23 309.41 1781.3
267.31 308.79 1777.7
264.81 300.72 1731.2
272.23 303.99 1750.1
288.67 317.06 1825.3
297.04 321.00 1848.0
295.36 314.11 1808.3
296.05 309.93 1784.2
306.29 315.71 1817.5
322.34 327.22 1883.8
-116.36 349.08 2040.1
-111.94 351.82 2056.1
-106.37 351.03 2051.5
-86.57 317.42 1855.0
-82.33 319.65 1868.1
-77.42 319.34 1866.3
-70.59 310.61 1815.3
-65.18 307.27 1795.7
-60.30 306.12 1789.0
-55.26 303.95 1776.3
-49.99 299.93 1752.8
-44.50 293.71 1716.5
-39.55 290.02 1694.9
-35.14 289.87 1694.0
-30.58 288.36 1685.2
-25.96 285.51 1668.6
-21.69 286.36 1673.5
-17.46 288.06 1683.4
-13.35 293.63 1716.0
-9.04 298.19 1742.6
-4.40 290.60 1698.3
0.00 284.19 1660.9
4.40 290.43 1697.3
9.02 297.51 1738.7
13.65 300.37 1755.4
18.38 303.23 1772.1
22.93 302.72 1769.1
27.18 299.00 1747.4
31.80 299.83 1752.2
36.65 302.34 1766.9
40.47 296.76 1734.3
44.12 291.18 1701.7
49.03 294.20 1719.3
54.31 298.72 1745.8
59.60 302.58 1768.3
64.07 302.05 1765.2
67.84 298.48 1744.3
72.19 297.77 1740.2
77.17 299.59 1750.9
82.11 301.08 1759.5
85.94 298.51 1744.6
90.60 298.98 1747.3
98.49 309.55 1809.1
108.55 311.48 1820.4
112.15 308.41 1802.4
116.23 306.84 1793.2
117.54 298.38 1743.8
121.35 296.64 1733.6
127.82 301.30 1760.8
133.10 302.93 1770.3
139.27 306.40 1790.6
145.62 310.04 1811.9
148.99 307.28 1795.8
152.27 304.53 1779.7
157.54 305.81 1787.2
159.55 300.87 1758.3
159.49 292.40 1708.8
166.14 296.36 1732.0
174.46 303.01 1770.8
178.31 301.76 1763.5
180.09 297.15 1736.6
187.50 294.64 1721.9
199.34 305.96 1788.1
203.02 304.54 1779.8
204.61 300.09 1753.8
211.31 303.19 1771.9
216.08 303.43 1773.3
219.39 301.66 1763.0
228.49 307.76 1798.6
232.45 306.83 1793.1
226.94 293.68 1716.3
242.12 301.51 1762.1
250.57 306.25 1789.8
255.96 307.15 1795.0
262.22 309.04 1806.1
272.28 315.27 1842.5
276.37 314.49 1837.9
279.09 312.20 1824.6
292.65 321.92 1881.4
297.42 321.80 1880.6
292.47 311.34 1819.5
294.85 308.89 1805.2
300.05 309.43 1808.3
308.38 313.13 1830.0
322.64 322.64 1885.6
-88.40 319.22 1894.3
-83.63 319.75 1897.4
-78.80 320.12 1899.6
-72.00 312.01 1851.5
-64.88 301.25 1787.6
-58.73 293.64 1742.5
-54.61 295.82 1755.4
-50.15 296.34 1758.5
-44.75 290.88 1726.1
-39.86 287.91 1708.5
-35.72 290.25 1722.3
-31.33 290.93 1726.4
-26.63 288.45 1711.7
-22.27 289.45 1717.6
-17.73 288.13 1709.8
-13.41 290.63 1724.6
-9.08 295.12 1751.3
-4.43 287.81 1707.9
0.00 282.50 1676.4
4.46 289.81 1719.7
9.06 294.29 1746.4
13.58 294.29 1746.3
18.25 296.61 1760.1
22.70 295.10 1751.2
26.79 290.27 1722.5
31.21 289.76 1719.5
36.70 298.22 1769.7
41.41 299.04 1774.5
44.93 292.04 1733.0
49.70 293.68 1742.7
54.83 296.98 1762.3
59.99 299.95 1779.9
63.95 296.93 1762.0
67.25 291.42 1729.3
72.75 295.55 1753.8
78.98 301.99 1792.0
82.33 297.31 1764.2
84.57 289.30 1716.7
89.46 290.76 1725.4
97.68 302.34 1794.1
112.26 304.03 1804.1
114.94 298.84 1773.3
116.93 292.32 1734.7
121.47 292.44 1735.3
128.38 298.02 1768.5
134.20 300.78 1784.9
139.03 301.22 1787.5
143.79 301.49 1789.1
148.15 300.94 1785.8
152.58 300.54 1783.4
156.22 298.65 1772.2
156.50 290.64 1724.7
159.56 288.09 1709.6
169.79 298.28 1770.0
177.24 303.17 1799.0
179.77 299.62 1778.0
183.93 298.89 1773.6
186.92 296.33 1758.4
190.25 294.43 1747.2
198.77 300.46 1783.0
203.78 301.04 1786.4
206.64 298.48 1771.2
213.15 301.19 1787.3
217.48 300.77 1784.8
221.31 299.69 1778.4
230.58 305.86 1815.0
240.40 312.53 1854.5
240.87 306.99 1821.7
239.97 299.97 1780.0
247.86 303.98 1803.9
259.84 312.77 1856.0
268.46 317.27 1882.7
268.14 311.23 1846.9
271.96 310.13 1840.3
282.50 316.59 1878.7
292.48 322.23 1912.1
299.60 324.57 1926.0
296.31 315.74 1873.6
292.59 306.75 1820.3
297.20 306.63 1819.6
307.93 312.74 1855.8
322.77 322.77 1915.4
-111.13 338.67 2041.1
-82.62 311.04 1874.6
-74.78 299.13 1802.8
-71.04 303.09 1826.7
-66.27 302.96 1825.9
-59.22 291.53 1757.0
-54.51 290.74 1752.2
-50.93 296.32 1785.9
-46.28 296.18 1785.0
-40.94 291.12 1754.5
-36.39 291.14 1754.6
-32.20 294.43 1774.5
-27.63 294.77 1776.5
-23.03 294.78 1776.6
-18.31 292.99 1765.8
-13.45 286.94 1729.3
-8.83 282.69 1703.7
-4.43 283.83 1710.6
0.00 287.11 1730.3
4.47 286.13 1724.4
8.81 281.87 1698.8
13.18 281.21 1694.8
17.67 282.67 1703.6
22.31 285.61 1721.3
26.78 285.60 1721.3
30.47 278.55 1678.8
35.04 280.34 1689.5
40.80 290.14 1748.6
45.72 292.58 1763.3
50.71 295.01 1778.0
56.08 299.08 1802.5
60.61 298.40 1798.4
63.80 291.67 1757.8
67.39 287.55 1733.0
73.11 292.43 1762.4
77.41 291.42 1756.3
78.64 279.61 1685.2
82.17 276.80 1668.2
88.53 283.30 1707.4
94.61 288.33 1737.7
100.62 292.70 1764.1
105.94 294.78 1776.6
109.98 293.27 1767.5
114.73 293.71 1770.1
118.84 292.52 1762.9
122.49 290.35 1749.9
128.57 293.89 1771.2
134.03 295.79 1782.7
138.24 294.92 1777.4
144.01 297.31 1791.8
149.36 298.71 1800.3
151.89 294.57 1775.3
153.43 288.80 1740.5
160.85 294.12 1772.6
171.64 305.13 1839.0
175.70 303.92 1831.7
176.06 296.51 1787.0
182.03 298.72 1800.3
189.81 303.69 1830.3
195.02 304.43 1834.7
200.47 305.48 1841.1
206.07 306.70 1848.4
207.89 302.39 1822.4
209.70 298.23 1797.4
215.23 299.45 1804.7
218.53 297.57 1793.4
221.04 294.72 1776.2
229.05 299.17 1803.1
237.33 303.79 1830.9
242.00 303.69 1830.3
245.74 302.45 1822.8
252.94 305.43 1840.8
264.05 312.95 1886.1
276.09 321.27 1936.2
279.02 318.88 1921.8
275.39 309.21 1863.6
278.95 307.80 1855.1
286.63 310.92 1873.9
291.08 310.48 1871.2
297.97 312.63 1884.1
305.40 315.25 1900.0
313.70 318.68 1920.6
-118.64 339.75 2080.1
-81.18 300.83 1841.8
-75.22 296.19 1813.4
-73.02 306.69 1877.7
-68.27 307.21 1880.9
-61.10 296.12 1813.0
-54.60 286.63 1754.9
-49.71 284.72 1743.2
-45.66 287.64 1761.1
-40.77 285.40 1747.4
-35.43 278.97 1708.0
-30.66 275.93 1689.3
-27.23 285.93 1750.6
-23.46 295.61 1809.9
-18.49 291.27 1783.3
-13.46 282.57 1730.0
-8.88 279.83 1713.3
-4.49 282.58 1730.1
0.00 286.13 1751.8
4.53 285.64 1748.8
8.91 280.80 1719.2
13.33 279.83 1713.2
17.75 279.50 1711.2
22.26 280.46 1717.1
27.43 288.03 1763.4
32.09 288.82 1768.3
35.04 275.91 1689.3
38.77 271.38 1661.5
44.38 279.59 1711.7
50.22 287.62 1761.0
54.97 288.57 1766.7
58.68 284.36 1741.0
63.61 286.26 1752.6
69.11 290.26 1777.1
73.96 291.20 1782.9
77.18 286.02 1751.1
79.69 278.90 1707.5
84.64 280.64 1718.2
89.85 283.01 1732.7
94.75 284.26 1740.4
100.77 288.57 1766.8
106.33 291.26 1783.2
109.16 286.55 1754.4
112.67 283.93 1738.4
117.16 283.89 1738.1
121.16 282.71 1730.9
129.20 290.70 1779.8
136.90 297.40 1820.8
139.68 293.32 1795.9
143.83 292.30 1789.6
150.07 295.45 1808.9
153.38 292.82 1792.8
155.66 288.42 1765.8
163.86 294.94 1805.7
171.52 300.17 1837.8
171.72 292.39 1790.2
176.61 292.80 1792.7
187.67 303.16 1856.1
193.86 305.32 1869.3
197.19 303.00 1855.1
198.42 297.63 1822.2
199.37 292.10 1788.4
205.74 294.58 1803.6
212.30 297.22 1819.7
218.36 299.05 1830.9
222.32 298.00 1824.5
220.52 289.43 1772.0
224.17 288.22 1764.6
233.88 294.68 1804.2
239.90 296.35 1814.4
245.97 298.01 1824.5
255.59 303.82 1860.1
266.07 310.42 1900.5
277.59 317.97 1946.8
280.84 315.94 1934.3
277.52 306.74 1878.0
280.38 304.55 1864.6
287.79 307.31 1881.5
295.60 310.38 1900.3
-110.84 327.25 2035.9
-89.02 306.61 1907.5
-82.60 301.25 1874.1
-78.90 305.72 1902.0
-74.51 307.98 1916.0
-67.90 300.71 1870.8
-61.96 295.50 1838.4
-56.40 291.40 1812.9
-50.02 281.90 1753.8
-44.76 277.48 1726.3
-40.83 281.31 1750.1
-36.26 281.01 1748.2
-30.56 270.70 1684.1
-26.40 272.78 1697.0
-23.19 287.55 1788.9
-18.58 288.03 1791.9
-13.62 281.53 1751.5
-9.06 280.90 1747.5
-4.52 279.95 1741.6
0.00 279.95 1741.6
4.55 282.17 1755.5
9.05 280.43 1744.6
13.50 278.99 1735.7
17.97 278.51 1732.7
22.05 273.42 1701.0
26.58 274.68 1708.9
31.78 281.49 1751.2
35.46 274.82 1709.7
38.83 267.50 1664.2
44.01 272.88 1697.6
49.71 280.16 1742.9
54.25 280.30 1743.8
57.77 275.52 1714.0
62.46 276.60 1720.8
68.52 283.24 1762.1
74.11 287.17 1786.6
78.21 285.24 1774.5
81.65 281.24 1749.7
85.16 277.88 1728.7
88.86 275.47 1713.7
93.61 276.38 1719.4
99.57 280.62 1745.8
106.44 286.92 1785.0
110.74 286.08 1779.8
113.61 281.76 1752.9
117.67 280.60 1745.7
121.42 278.81 1734.5
129.18 286.04 1779.5
137.03 292.95 1822.5
139.81 288.94 1797.6
146.50 293.00 1822.8
155.36 301.00 1872.6
158.24 297.30 1849.6
159.97 291.71 1814.8
163.92 290.38 1806.5
167.10 287.78 1790.3
167.64 280.92 1747.6
173.20 282.59 1758.0
184.47 293.25 1824.4
190.57 295.39 1837.7
194.14 293.58 1826.4
196.04 289.39 1800.4
199.01 286.95 1785.2
208.17 293.33 1824.9
212.73 293.09 1823.4
216.69 292.06 1817.0
226.35 298.59 1857.6
230.85 298.18 1855.1
231.23 292.58 1820.2
237.91 295.00 1835.3
248.93 302.62 1882.7
260.32 310.38 1931.0
265.78 310.91 1934.2
271.93 312.22 1942.4
285.92 316.55 1969.3
279.51 304.03 1891.4
279.61 298.90 1859.5
288.81 303.49 1888.1
298.75 308.71 1920.5
-112.55 326.94 2067.3
-84.98 304.94 1928.2
-79.09 301.54 1906.7
-72.97 296.73 1876.3
-67.46 293.95 1858.7
-62.32 292.41 1849.0
-57.77 293.69 1857.0
-52.18 289.34 1829.5
-45.41 277.02 1751.6
-40.39 273.76 1731.0
-36.99 282.05 1783.5
-32.19 280.50 1773.7
