ply
format ascii 1.0
element vertex 2120
property float x
property float y
property float z
end_header
-1082.00 791.82 1897.0
-1082.78 796.02 1907.0
-1090.46 805.34 1929.4
-1093.43 811.25 1943.6
-1082.11 806.57 1932.3
-1069.46 800.85 1918.6
-1057.32 795.46 1905.7
-1043.41 788.68 1889.5
-1034.54 785.66 1882.2
-1042.37 795.36 1905.5
-1046.95 802.66 1923.0
-1041.18 802.06 1921.5
-1042.53 806.96 1933.3
-1043.84 811.87 1945.0
-1052.60 822.66 1970.9
-1065.22 836.59 2004.2
-1045.67 825.26 1977.1
-1017.94 807.33 1934.1
-1007.78 803.23 1924.3
-1008.06 807.45 1934.5
-1016.93 818.63 1961.2
-1022.25 827.05 1981.4
-1018.48 828.16 1984.1
-1015.55 829.97 1988.4
-1020.67 838.41 2008.6
-1013.01 836.39 2003.8
-1010.01 838.20 2008.1
-1010.75 843.16 2020.0
-990.14 830.28 1989.1
-983.39 828.93 1985.9
-985.74 835.29 2001.1
-985.97 839.90 2012.2
-991.07 848.73 2033.3
-985.86 848.79 2033.5
-960.73 831.60 1992.3
-944.67 822.12 1969.6
-948.45 829.90 1988.2
-951.35 836.98 2005.2
-963.35 852.20 2041.6
-967.64 860.72 2062.1
-950.08 849.79 2035.9
-941.68 846.99 2029.2
-945.07 854.81 2047.9
-949.54 863.70 2069.2
-940.32 860.18 2060.8
-929.22 854.88 2048.1
-928.15 858.81 2057.5
-928.95 864.52 2071.2
-929.69 870.23 2084.9
-928.47 874.17 2094.3
-932.86 883.47 2116.6
-923.27 879.56 2107.2
-905.89 868.14 2079.8
-913.11 880.31 2109.0
-932.38 904.30 2166.5
-932.67 910.06 2180.3
-925.94 909.01 2177.7
-939.94 928.41 2224.2
-952.64 946.75 2268.2
-949.67 949.67 2275.2
-958.47 964.46 2310.6
-1231.98 828.22 1996.6
-1177.72 795.08 1916.7
-1153.29 781.89 1884.9
-1174.59 799.72 1927.9
-1195.72 817.59 1971.0
-1187.93 815.74 1966.5
-1161.21 800.83 1930.6
-1123.49 778.18 1876.0
-1101.91 766.55 1847.9
-1107.37 773.71 1865.2
-1127.61 791.30 1907.6
-1142.42 805.23 1941.2
-1131.86 801.32 1931.8
-1121.82 797.74 1923.1
-1115.11 796.51 1920.2
-1099.46 788.85 1901.7
-1082.48 780.16 1880.8
-1075.40 778.57 1876.9
-1079.98 785.44 1893.5
-1071.95 783.16 1888.0
-1070.42 785.63 1893.9
-1084.54 799.66 1927.8
-1084.27 803.17 1936.2
-1072.98 798.50 1925.0
-1061.74 793.82 1913.7
-1053.71 791.52 1908.1
-1051.59 793.65 1913.3
-1055.31 800.23 1929.1
-1056.26 804.77 1940.1
-1048.66 802.80 1935.3
-1049.10 807.00 1945.4
-1058.82 818.41 1973.0
-1075.06 835.00 2012.9
-1057.42 829.35 1999.3
-1025.69 808.42 1948.9
-1012.02 801.60 1932.4
-1008.82 803.04 1935.9
-1013.81 811.05 1955.2
-1004.95 808.00 1947.9
-986.26 796.98 1921.3
-990.29 804.30 1938.9
-1001.90 817.87 1971.7
-999.39 820.02 1976.8
-1001.92 826.33 1992.0
-1002.70 831.26 2003.9
-982.96 819.13 1974.7
-991.62 830.68 2002.5
-1010.51 850.96 2051.4
-999.92 846.49 2040.6
-994.29 846.20 2040.0
-998.47 854.30 2059.5
-982.62 845.27 2037.7
-960.79 830.95 2003.2
-958.06 833.09 2008.3
-961.32 840.50 2026.2
-973.68 855.99 2063.5
-977.14 863.77 2082.3
-959.92 853.26 2057.0
-956.20 854.71 2060.5
-964.63 867.08 2090.3
-954.57 862.89 2080.2
-929.80 845.27 2037.7
-915.64 837.16 2018.1
-910.80 837.52 2019.0
-921.26 852.03 2054.0
-932.33 867.28 2090.8
-922.76 863.40 2081.4
-918.51 864.48 2084.0
-927.75 878.34 2117.4
-930.86 886.54 2137.2
-918.29 879.80 2120.9
-916.87 883.73 2130.4
-930.47 902.27 2175.1
-938.01 915.14 2206.1
-943.96 926.59 2233.7
-947.61 935.91 2256.2
-933.89 928.09 2237.3
-932.05 932.05 2246.9
-1234.25 821.11 1991.9
-1225.89 818.98 1986.7
-1197.80 803.59 1949.4
-1148.67 773.89 1877.4
-1148.91 777.35 1885.7
-1163.29 790.44 1917.5
-1150.24 784.93 1904.1
-1130.92 775.07 1880.2
-1100.55 757.52 1837.6
-1101.41 764.74 1855.2
-1101.07 767.85 1862.7
-1094.00 766.28 1858.9
-1096.46 771.41 1871.3
-1099.83 777.21 1885.4
-1116.38 792.43 1922.3
-1123.82 801.29 1943.8
-1110.50 795.35 1929.4
-1107.06 796.48 1932.2
-1094.75 791.20 1919.4
-1070.86 777.47 1886.1
-1071.19 781.28 1895.3
-1086.70 796.25 1931.6
-1081.84 796.35 1931.9
-1066.43 788.66 1913.2
-1052.46 781.97 1897.0
-1041.29 777.30 1885.6
-1043.75 782.81 1899.0
-1052.47 793.09 1923.9
-1056.58 799.98 1940.7
-1052.11 800.41 1941.7
-1045.41 799.13 1938.6
-1047.15 804.34 1951.2
-1070.10 825.95 2003.6
-1065.23 830.25 2014.1
-1040.01 814.59 1976.1
-1016.69 800.26 1941.3
-1004.36 794.49 1927.3
-1018.02 809.33 1963.3
-1016.46 812.15 1970.2
-996.43 800.16 1941.1
-1000.00 807.11 1957.9
-1003.07 813.72 1974.0
-992.95 809.63 1964.1
-985.81 807.96 1960.0
-976.17 804.20 1950.9
-977.85 809.78 1964.4
-1006.94 838.24 2033.5
-1019.98 853.57 2070.6
-1003.57 844.27 2048.1
-986.42 834.26 2023.8
-978.78 832.22 2018.9
-985.00 842.02 2042.6
-985.04 846.60 2053.7
-974.13 841.77 2042.0
-967.68 840.77 2039.6
-972.43 849.54 2060.9
-968.34 850.64 2063.5
-949.57 838.79 2034.8
-945.51 839.87 2037.4
-956.35 854.27 2072.3
-948.67 852.20 2067.3
-931.30 841.34 2041.0
-924.09 839.60 2036.8
-913.44 834.69 2024.9
-916.62 842.44 2043.7
-938.39 867.47 2104.4
-940.55 874.55 2121.5
-917.72 858.34 2082.2
-908.96 855.17 2074.5
-923.75 874.27 2120.9
-920.87 876.76 2126.9
-915.38 876.78 2127.0
-925.69 892.03 2163.9
-928.15 899.85 2182.9
-929.43 906.62 2199.3
-946.19 928.67 2252.8
-946.51 934.75 2267.6
-929.57 923.76 2240.9
-950.85 950.85 2306.7
-1228.63 812.23 1982.8
-1211.36 804.18 1963.2
-1212.46 808.31 1973.3
-1189.87 796.61 1944.7
-1153.14 775.30 1892.7
-1134.72 766.18 1870.4
-1130.06 766.30 1870.7
-1119.06 762.12 1860.5
-1122.64 767.87 1874.5
-1142.11 784.58 1915.3
-1136.85 784.38 1914.8
-1117.20 774.20 1890.0
-1091.42 759.67 1854.5
-1076.27 752.43 1836.9
-1083.98 761.19 1858.3
-1106.28 780.32 1904.9
-1125.08 797.14 1946.0
-1122.57 798.94 1950.4
-1119.09 800.07 1953.2
-1106.26 794.50 1939.6
-1080.00 779.18 1902.1
-1077.52 780.95 1906.5
-1086.56 791.14 1931.3
-1075.25 786.53 1920.1
-1069.49 785.95 1918.7
-1063.73 785.37 1917.3
-1045.68 775.67 1893.6
-1040.88 775.75 1893.8
-1034.71 774.81 1891.5
-1024.05 770.48 1880.9
-1044.81 789.86 1928.2
-1064.92 808.93 1974.8
-1043.92 796.81 1945.2
-1042.97 799.95 1952.9
-1068.46 823.50 2010.3
-1060.74 821.55 2005.6
-1053.48 819.95 2001.7
-1048.40 820.04 2001.9
-1018.13 800.32 1953.8
-1013.15 800.39 1953.9
-1018.94 809.01 1975.0
-1005.32 802.23 1958.4
-1007.16 807.77 1972.0
-1009.35 813.66 1986.3
-1000.05 810.29 1978.1
-993.30 808.98 1974.9
-986.99 808.00 1972.5
-991.14 815.62 1991.1
-1009.37 834.97 2038.4
-1011.22 840.91 2052.8
-997.72 834.07 2036.2
-984.29 827.22 2019.4
-978.29 826.58 2017.9
-986.57 838.05 2045.9
-981.33 838.10 2046.0
-963.96 827.75 2020.7
-961.18 829.87 2025.9
-970.38 842.42 2056.5
-962.31 840.03 2050.7
-939.20 824.41 2012.6
-935.58 825.82 2016.0
-946.48 840.13 2051.0
-958.00 855.17 2087.7
-960.80 862.54 2105.7
-944.55 852.79 2081.9
-924.16 839.18 2048.6
-915.42 836.04 2041.0
-926.54 851.12 2077.8
-929.52 858.85 2096.7
-906.73 842.73 2057.3
-893.89 835.71 2040.1
-904.29 850.47 2076.2
-926.43 876.51 2139.8
-945.70 900.12 2197.4
-940.41 900.51 2198.4
-927.78 893.84 2182.1
-916.32 888.21 2168.3
-920.50 897.77 2191.7
-939.70 922.19 2251.3
-942.49 930.71 2272.1
-944.13 938.19 2290.3
-1232.45 809.60 1989.0
-1214.67 801.28 1968.6
-1214.78 804.73 1977.0
-1193.64 794.08 1950.9
-1158.36 773.88 1901.3
-1149.71 771.39 1895.1
-1154.27 777.77 1910.8
-1153.90 780.87 1918.4
-1169.02 794.53 1952.0
-1155.47 788.74 1937.8
-1116.92 765.75 1881.3
-1116.54 768.84 1888.9
-1111.33 768.63 1888.3
-1097.05 762.11 1872.3
-1107.08 772.50 1897.9
-1106.58 775.60 1905.5
-1101.80 775.71 1905.7
-1111.60 786.13 1931.4
-1120.82 796.24 1956.2
-1113.12 794.36 1951.6
-1092.40 783.14 1924.0
-1071.79 771.89 1896.4
-1062.38 768.64 1888.4
-1069.58 777.42 1910.0
-1081.73 789.91 1940.6
-1068.15 783.64 1925.2
-1040.97 767.29 1885.1
-1046.62 775.09 1904.2
-1050.38 781.56 1920.1
-1036.95 775.25 1904.6
-1055.89 793.18 1948.7
-1078.21 813.84 1999.4
-1059.36 803.48 1974.0
-1033.97 788.03 1936.0
-1035.68 793.18 1948.7
-1033.80 795.62 1954.7
-1031.90 798.07 1960.7
-1050.05 816.12 2005.0
-1042.35 814.18 2000.3
-1020.39 801.01 1967.9
-1009.34 796.32 1956.4
-1006.50 798.08 1960.7
-1019.02 812.11 1995.2
-1022.03 818.67 2011.3
-1013.94 816.35 2005.6
-999.11 808.56 1986.4
-984.36 800.75 1967.3
-983.50 804.22 1975.8
-995.95 818.66 2011.3
-995.79 822.83 2021.5
-980.70 814.65 2001.4
-984.21 821.92 2019.3
-995.42 835.73 2053.2
-995.06 839.92 2063.5
-980.45 832.05 2044.2
-964.70 823.14 2022.3
-963.93 826.97 2031.7
-969.12 836.00 2053.9
-957.86 830.85 2041.2
-939.12 819.12 2012.4
-939.06 823.65 2023.5
-952.71 840.31 2064.5
-967.74 858.39 2108.9
-974.39 869.20 2135.4
-963.49 864.39 2123.6
-935.67 844.25 2074.1
-918.81 833.83 2048.5
-932.98 851.62 2092.2
-937.84 861.05 2115.4
-918.40 848.17 2083.8
-908.12 843.64 2072.6
-912.85 853.08 2095.8
-929.02 873.39 2145.7
-943.85 892.67 2193.1
-935.25 889.90 2186.3
-920.82 881.51 2165.7
-906.84 873.46 2145.9
-918.69 890.33 2187.3
-946.57 923.05 2267.7
-937.14 919.57 2259.2
-925.97 914.32 2246.3
-939.68 933.73 2294.0
-1227.81 801.42 1981.5
-1219.97 799.64 1977.1
-1213.13 798.52 1974.4
-1186.57 784.34 1939.3
-1161.61 771.11 1906.6
-1161.78 774.52 1915.0
-1158.49 775.64 1917.8
-1151.78 774.47 1914.9
-1155.75 780.51 1929.8
-1133.05 768.50 1900.1
-1104.68 752.53 1860.7
-1113.95 762.17 1884.5
-1121.68 770.85 1905.9
-1120.73 773.60 1912.7
-1124.98 779.99 1928.5
-1117.31 778.13 1923.9
-1103.05 771.64 1907.9
-1103.91 775.72 1918.0
-1109.88 783.45 1937.1
-1099.88 779.92 1928.4
-1092.71 778.37 1924.5
-1086.01 777.15 1921.5
-1068.22 767.94 1898.8
-1066.65 770.36 1904.7
-1082.04 785.11 1941.2
-1071.20 780.87 1930.7
-1044.45 764.95 1891.4
-1049.64 772.38 1909.7
-1066.51 788.51 1949.6
-1065.19 791.28 1956.5
-1056.20 788.36 1949.2
-1052.16 789.12 1951.1
-1045.88 788.20 1948.8
-1033.84 782.90 1935.8
-1027.15 781.63 1932.6
-1017.83 778.34 1924.5
-1015.99 780.76 1930.5
-1032.91 797.69 1972.3
-1034.42 802.83 1985.0
-1022.87 797.84 1972.7
-1026.48 804.68 1989.6
-1037.75 817.62 2021.6
-1030.04 815.67 2016.8
-1013.41 806.59 1994.3
-1012.14 809.71 2002.0
-1004.92 808.08 1998.0
-979.62 791.82 1957.8
-968.32 786.76 1945.3
-980.01 800.42 1979.1
-979.92 804.56 1989.3
-977.71 807.00 1995.3
-993.59 824.47 2038.5
-989.20 825.21 2040.4
-972.55 815.69 2016.8
-962.50 811.62 2006.7
-950.87 806.17 1993.3
-957.81 816.49 2018.8
-971.05 832.33 2058.0
-964.97 831.69 2056.4
-952.15 825.19 2040.3
-947.68 825.91 2042.1
-957.37 839.04 2074.6
-973.17 857.71 2120.7
-971.21 865.76 2140.6
-943.72 846.09 2092.0
-919.52 829.16 2050.1
-925.30 839.22 2075.0
-939.70 857.27 2119.6
-928.19 851.75 2106.0
-915.60 845.17 2089.7
-918.43 852.83 2108.6
-911.12 851.10 2104.4
-902.34 847.98 2096.7
-919.02 868.89 2148.4
-929.24 883.91 2185.5
-912.29 873.11 2158.8
-920.86 886.75 2192.5
-943.70 914.40 2260.9
-931.42 908.14 2245.4
-922.77 905.36 2238.5
-939.00 927.12 2292.3
-1238.11 802.96 1998.1
-1205.89 785.35 1954.3
-1177.80 770.29 1916.9
-1173.06 770.44 1917.2
-1168.80 770.91 1918.4
-1156.19 765.86 1905.8
-1140.70 758.84 1888.3
-1139.89 761.57 1895.1
-1151.20 772.45 1922.2
-1143.03 770.30 1916.9
-1129.57 764.56 1902.6
-1140.21 775.14 1928.9
-1148.34 784.11 1951.2
-1126.76 772.78 1923.0
-1110.06 764.70 1903.0
-1109.55 767.77 1910.6
-1102.40 766.24 1906.8
-1093.85 763.72 1900.5
-1090.94 765.14 1904.0
-1088.96 767.22 1909.2
-1089.28 770.95 1918.5
-1081.21 768.75 1913.0
-1062.04 758.60 1887.8
-1063.72 763.32 1899.5
-1082.35 780.30 1941.8
-1085.69 786.37 1956.9
-1073.01 780.83 1943.1
-1067.65 780.60 1942.5
-1074.06 789.00 1963.4
-1054.23 778.12 1936.3
-1027.76 762.21 1896.8
-1047.10 780.29 1941.7
-1065.80 798.06 1986.0
-1052.79 792.15 1971.2
-1045.58 790.56 1967.3
-1033.54 785.29 1954.2
-1028.58 785.37 1954.4
-1046.33 802.88 1998.0
-1048.23 808.34 2011.5
-1034.46 801.71 1995.0
-1035.00 806.16 2006.1
-1041.52 815.33 2028.9
-1028.23 809.01 2013.2
-1011.17 799.65 1989.9
-1009.07 802.08 1996.0
-1012.01 808.56 2012.1
-995.93 799.84 1990.4
-971.13 783.99 1950.9
-969.46 786.73 1957.8
-982.31 801.36 1994.2
-993.34 814.64 2027.2
-999.28 823.87 2050.2
-984.60 816.12 2030.9
-974.50 812.08 2020.9
-970.13 812.81 2022.7
-951.58 801.60 1994.8
-951.28 805.73 2005.0
-971.79 827.62 2059.5
-973.29 833.48 2074.1
-967.97 833.53 2074.2
-972.13 841.79 2094.8
-964.40 839.78 2089.8
-963.34 843.60 2099.3
-964.96 849.83 2114.8
-947.12 838.87 2087.5
-939.42 836.84 2082.5
-935.98 838.59 2086.8
-923.33 832.07 2070.6
-919.50 833.47 2074.1
-927.01 845.21 2103.3
-933.25 855.94 2130.0
-919.52 848.36 2111.1
-895.79 831.43 2069.0
-887.09 828.31 2061.2
-903.50 848.75 2112.1
-916.38 866.09 2155.3
-901.69 857.43 2133.7
-905.24 866.12 2155.3
-922.77 888.38 2210.7
-929.28 900.24 2240.2
-939.93 916.28 2280.2
-941.52 923.64 2298.5
-935.25 923.33 2297.7
-940.92 934.89 2326.4
-1239.94 798.96 2001.1
-1211.68 784.03 1963.7
-1179.09 766.16 1919.0
-1171.38 764.37 1914.5
-1169.59 766.46 1919.7
-1160.42 763.69 1912.8
-1137.08 751.54 1882.3
-1129.46 749.73 1877.8
-1127.68 751.79 1883.0
-1107.48 741.53 1857.3
-1115.38 750.08 1878.7
-1147.73 775.22 1941.6
-1153.45 782.51 1959.9
-1128.50 768.98 1926.0
-1105.58 756.71 1895.3
-1099.41 755.84 1893.1
-1092.76 754.64 1890.1
-1085.18 752.78 1885.4
-1087.01 757.46 1897.2
-1089.26 762.48 1909.7
-1079.79 759.30 1901.8
-1062.44 750.53 1879.8
-1049.36 744.70 1865.2
-1057.09 753.66 1887.7
-1079.43 773.18 1936.5
-1087.38 782.50 1959.9
-1085.64 784.92 1965.9
-1091.60 792.95 1986.1
-1088.41 794.39 1989.7
-1059.49 776.96 1946.0
-1037.49 764.46 1914.7
-1062.18 786.42 1969.7
-1084.85 807.09 2021.5
-1074.43 803.21 2011.8
-1051.20 789.69 1977.9
-1022.83 772.13 1933.9
-1030.20 781.53 1957.5
-1060.65 808.61 2025.3
-1052.48 806.38 2019.7
-1028.70 792.10 1983.9
-1030.14 797.19 1996.7
-1036.25 805.97 2018.7
-1032.41 807.06 2021.4
-1023.43 804.13 2014.0
-1009.38 797.15 1996.6
-1000.06 793.86 1988.3
-995.40 794.25 1989.3
-981.08 786.91 1970.9
-981.04 791.00 1981.2
-996.76 807.90 2023.5
-988.28 805.26 2016.9
-974.87 798.56 2000.1
-972.61 800.97 2006.1
-974.82 807.11 2021.5
-981.84 817.32 2047.1
-973.76 815.00 2041.3
-962.07 809.61 2027.8
-969.71 820.52 2055.1
-966.03 821.93 2058.6
-955.97 817.89 2048.5
-963.76 829.16 2076.7
-959.61 830.23 2079.4
-951.91 828.22 2074.4
-947.36 828.94 2076.2
-934.63 822.48 2060.0
-930.87 823.87 2063.5
-934.77 832.11 2084.1
-930.54 833.16 2086.8
-928.20 835.92 2093.7
-936.81 848.64 2125.5
-942.26 858.63 2150.6
-926.97 849.73 2128.3
-906.93 836.33 2094.7
-900.76 835.65 2093.0
-896.82 837.03 2096.5
-889.91 835.65 2093.0
-886.68 837.72 2098.2
-901.58 857.06 2146.6
-923.13 882.99 2211.6
-933.60 898.59 2250.6
-931.01 901.73 2258.5
-918.79 895.53 2243.0
-919.01 901.44 2257.8
-930.40 918.48 2300.4
-939.16 933.10 2337.1
-1240.27 793.98 2001.6
-1226.92 788.73 1988.4
-1209.14 780.59 1967.9
-1198.86 777.23 1959.4
-1195.02 778.03 1961.4
-1166.11 762.46 1922.2
-1124.14 738.17 1860.9
-1124.85 741.82 1870.1
-1131.37 749.35 1889.1
-1099.02 731.09 1843.1
-1095.36 731.84 1845.0
-1122.51 753.26 1899.0
-1124.00 757.59 1909.9
-1118.27 757.06 1908.6
-1113.50 757.18 1908.8
-1107.77 756.64 1907.5
-1101.56 755.78 1905.3
-1093.01 753.29 1899.0
-1094.81 757.95 1910.8
-1091.89 759.36 1914.3
-1076.80 752.29 1896.5
-1064.58 747.16 1883.6
-1056.11 744.63 1877.2
-1053.21 746.02 1880.7
-1064.55 757.56 1909.8
-1086.31 776.66 1958.0
-1100.56 790.54 1993.0
-1096.92 791.64 1995.7
-1083.29 785.51 1980.3
-1073.79 782.33 1972.3
-1070.61 783.75 1975.8
-1064.73 783.19 1974.4
-1056.61 780.97 1968.8
-1054.30 783.05 1974.1
-1037.78 774.54 1952.6
-1041.65 781.24 1969.5
-1081.92 815.43 2055.7
-1044.08 794.75 2003.6
-1029.45 787.53 1985.4
-1038.24 798.24 2012.4
-1049.49 810.97 2044.5
-1049.89 815.40 2055.6
-1027.17 801.82 2021.4
-998.21 783.21 1974.5
-994.01 783.94 1976.3
-995.28 789.01 1989.1
-991.46 790.07 1991.8
-1003.50 803.85 2026.5
-1023.73 824.37 2078.2
-1021.34 826.80 2084.4
-993.75 808.74 2038.8
-976.21 798.71 2013.6
-971.45 799.10 2014.5
-970.76 802.85 2024.0
-970.03 806.60 2033.4
-966.42 807.99 2037.0
-971.64 816.82 2059.2
-964.35 815.17 2055.1
-951.12 808.45 2038.1
-954.98 816.27 2057.8
-959.94 825.12 2080.1
-962.44 831.94 2097.3
-956.27 831.31 2095.7
-941.17 822.85 2074.4
-930.80 818.46 2063.3
-927.78 820.52 2068.5
-924.36 822.25 2072.9
-922.05 824.99 2079.8
-920.09 828.08 2087.6
-915.07 828.44 2088.5
-922.05 839.73 2117.0
-922.19 844.88 2129.9
-916.69 844.90 2130.0
-913.77 847.31 2136.1
-906.77 845.95 2132.7
-904.18 848.71 2139.6
-904.46 854.21 2153.5
-911.18 865.91 2183.0
-910.22 870.39 2194.3
-895.95 862.14 2173.5
-903.85 875.24 2206.5
-925.38 901.81 2273.5
-918.81 901.14 2271.8
-907.70 895.99 2258.8
-934.22 928.15 2339.9
-1245.09 791.86 2009.4
-1217.78 777.74 1973.6
-1195.56 766.77 1945.8
-1181.36 760.88 1930.8
-1175.11 760.07 1928.8
-1143.30 742.66 1884.6
-1119.51 730.32 1853.3
-1136.85 744.83 1890.1
-1155.50 760.33 1929.4
-1134.21 749.57 1902.1
-1102.87 732.04 1857.6
-1103.52 735.68 1866.9
-1126.21 754.11 1913.6
-1141.53 767.76 1948.3
-1140.02 770.14 1954.3
-1137.05 771.57 1957.9
-1127.90 768.79 1950.9
-1116.89 764.72 1940.5
-1104.04 759.34 1926.9
-1086.08 750.38 1904.2
-1085.49 753.40 1911.8
-1087.20 758.04 1923.6
-1075.86 753.60 1912.3
-1067.81 751.42 1906.8
-1075.88 760.62 1930.2
-1096.24 778.64 1975.9
-1090.82 778.43 1975.3
-1067.64 765.48 1942.5
-1066.82 768.51 1950.2
-1070.03 774.50 1965.4
-1064.62 774.27 1964.8
-1057.41 772.72 1960.9
-1066.74 783.31 1987.7
-1079.97 796.87 2022.1
-1063.79 788.76 2001.6
-1068.44 796.09 2020.2
-1076.19 809.81 2055.0
-1040.91 787.15 1997.5
-1029.32 782.28 1985.1
-1023.41 781.70 1983.6
-1019.65 782.76 1986.3
-1034.34 798.07 2025.2
-1024.49 794.51 2016.1
-1009.57 786.95 1997.0
-1018.04 797.64 2024.1
-1017.95 801.70 2034.4
-1013.61 802.44 2036.3
-1008.42 802.51 2036.5
-1011.98 809.58 2054.4
-1026.65 825.67 2095.2
-1016.37 821.74 2085.2
-993.78 807.78 2049.8
-982.81 803.16 2038.1
-978.82 804.22 2040.8
-973.99 804.60 2041.8
-970.78 806.33 2046.1
-977.18 816.11 2071.0
-969.07 813.81 2065.1
-953.82 805.45 2043.9
-960.85 815.92 2070.5
-968.55 827.08 2098.8
-966.70 830.16 2106.6
-956.99 826.49 2097.3
-943.05 819.10 2078.5
-933.43 815.41 2069.2
-930.79 817.81 2075.3
-928.50 820.54 2082.2
-928.09 824.97 2093.4
-928.00 829.74 2105.5
-918.41 826.02 2096.1
-920.88 833.18 2114.3
-925.88 842.72 2138.5
-924.08 846.14 2147.2
-913.73 841.74 2136.0
-900.48 834.59 2117.9
-905.24 844.15 2142.1
-912.07 855.77 2171.6
-914.42 863.30 2190.7
-907.68 862.29 2188.2
-909.90 869.84 2207.3
-935.17 899.66 2283.0
-939.91 909.98 2309.2
-914.60 891.15 2261.4
-904.20 886.70 2250.1
-932.85 920.74 2336.5
-1245.92 787.17 2010.7
-1217.59 772.50 1973.3
-1193.38 760.34 1942.2
-1189.58 761.13 1944.2
-1193.66 766.99 1959.2
-1151.45 743.03 1898.0
-1119.77 725.68 1853.7
-1129.30 735.02 1877.5
-1139.23 744.69 1902.2
-1139.83 748.32 1911.5
-1128.78 744.30 1901.3
-1121.62 742.83 1897.5
-1136.10 755.73 1930.4
-1141.35 762.58 1947.9
-1129.34 757.91 1936.0
-1126.88 759.64 1940.4
-1118.24 757.20 1934.2
-1126.16 765.99 1956.6
-1132.57 773.84 1976.7
-1120.60 769.14 1964.7
-1125.03 775.71 1981.5
-1117.75 774.22 1977.7
-1096.10 762.72 1948.3
-1089.82 761.86 1946.1
-1100.59 772.97 1974.5
-1105.73 780.21 1993.0
-1084.27 768.66 1963.5
-1063.83 757.73 1935.5
-1066.20 763.02 1949.1
-1075.30 773.19 1975.0
-1077.08 778.18 1987.8
-1080.59 784.47 2003.8
-1100.13 802.51 2049.9
-1072.53 790.01 2018.0
-1044.02 772.78 1974.0
-1035.93 770.57 1968.3
-1053.29 787.36 2011.2
-1050.38 789.09 2015.7
-1041.36 786.23 2008.3
-1039.73 788.94 2015.3
-1016.07 774.88 1979.4
-1013.18 776.60 1983.7
-1021.38 786.88 2010.0
-1024.36 793.22 2026.2
-1018.36 792.64 2024.7
-1002.64 784.45 2003.8
-1002.15 788.15 2013.3
-1000.78 791.19 2021.0
-996.87 792.25 2023.7
-1004.15 802.26 2049.3
-1012.15 812.95 2076.6
-1006.86 813.02 2076.8
-984.35 799.13 2041.3
-967.30 789.53 2016.8
-976.33 801.23 2046.7
-987.66 814.95 2081.7
-998.02 828.03 2115.1
-994.62 829.76 2119.5
-968.87 812.78 2076.2
-965.13 814.16 2079.7
-967.69 820.91 2096.9
-960.74 819.61 2093.6
-945.19 810.93 2071.4
-924.68 797.87 2038.1
-939.17 815.03 2081.9
-960.78 838.60 2142.1
-941.09 826.19 2110.4
-924.21 816.11 2084.7
-943.50 838.05 2140.7
-951.59 850.24 2171.8
-937.74 842.85 2153.0
-926.96 838.15 2141.0
-927.01 843.25 2154.0
-917.01 839.21 2143.7
-906.69 834.82 2132.5
-913.99 846.70 2162.8
-915.68 853.51 2180.2
-910.77 854.20 2182.0
-902.61 851.84 2175.9
-902.71 857.29 2189.9
-931.97 890.68 2275.2
-941.35 905.37 2312.7
-914.95 885.63 2262.2
-903.50 880.18 2248.3
-908.14 890.45 2274.6
-927.90 915.77 2339.2
-1233.85 777.63 1999.6
-1210.07 765.87 1969.4
-1206.71 766.98 1972.2
-1209.76 772.19 1985.6
-1166.98 748.06 1923.6
-1121.00 721.68 1855.7
-1117.83 722.74 1858.5
-1129.76 733.61 1886.4
-1132.34 738.48 1899.0
-1131.96 741.46 1906.6
-1135.41 746.98 1920.8
-1131.58 747.74 1922.8
-1118.16 742.14 1908.4
-1103.83 735.89 1892.3
-1098.61 735.68 1891.7
-1104.30 742.80 1910.1
-1127.40 761.76 1958.8
-1130.48 774.30 1991.1
-1103.14 759.04 1951.8
-1099.18 759.80 1953.8
-1110.93 771.48 1983.8
-1107.34 772.56 1986.6
-1097.77 769.46 1978.6
-1078.61 759.59 1953.2
-1060.93 750.65 1930.3
-1066.04 757.85 1948.8
-1079.67 771.19 1983.1
-1074.68 771.30 1983.3
-1071.02 772.37 1986.1
-1094.64 793.22 2039.7
-1064.41 778.83 2002.7
-1027.07 755.20 1941.9
-1020.37 753.97 1938.8
-1039.12 771.63 1984.2
-1049.82 783.45 2014.6
-1054.29 790.72 2033.3
-1067.34 804.53 2068.8
-1059.53 802.67 2064.0
-1034.97 788.04 2026.4
-1022.97 782.89 2013.1
-1025.10 788.54 2027.7
-1018.24 787.30 2024.5
-1008.86 784.09 2016.2
-1014.66 792.70 2038.4
-1028.74 807.91 2077.5
-1038.90 820.19 2109.0
-1020.25 809.73 2082.2
-1002.55 799.90 2056.9
-996.47 799.31 2055.4
-971.55 783.50 2014.7
-968.83 785.53 2019.9
-992.89 809.42 2081.4
-992.83 813.80 2092.6
-992.31 817.84 2103.0
-994.15 823.88 2118.5
-973.98 811.65 2087.1
-963.86 807.71 2077.0
-961.69 810.41 2083.9
-961.45 814.79 2095.2
-952.94 812.17 2088.4
-931.21 798.18 2052.5
-944.91 814.58 2094.6
-969.60 840.69 2161.8
-951.39 829.70 2133.5
-934.45 819.69 2107.8
-953.33 841.18 2163.0
-950.42 843.57 2169.2
-924.15 825.14 2121.8
-921.29 827.51 2127.9
-929.57 839.98 2159.9
-921.78 837.98 2154.8
-912.17 834.30 2145.3
-913.22 840.38 2161.0
-908.36 841.07 2162.8
-901.68 840.07 2160.2
-891.76 836.03 2149.8
-878.66 828.92 2131.5
-893.45 848.21 2181.1
-912.63 871.94 2242.1
-898.72 864.16 2222.1
-892.62 863.83 2221.3
-901.52 878.10 2258.0
-915.44 897.49 2307.8
-1218.41 769.25 1991.4
-1200.68 761.28 1970.7
-1182.03 752.66 1948.4
-1157.58 740.26 1916.3
-1136.19 729.71 1889.0
-1130.51 729.20 1887.7
-1126.77 729.95 1889.6
-1120.60 729.13 1887.5
-1122.65 733.66 1899.2
-1118.39 734.09 1900.3
-1116.51 736.11 1905.6
-1116.05 739.07 1913.2
-1100.31 731.90 1894.7
-1096.03 732.32 1895.8
-1099.31 737.83 1910.0
-1097.82 740.16 1916.0
-1101.93 746.31 1932.0
-1092.41 743.24 1924.0
-1086.17 742.39 1921.8
-1102.72 757.16 1960.1
-1103.82 761.43 1971.1
-1091.03 756.11 1957.3
-1091.63 760.06 1967.6
-1083.02 757.61 1961.2
-1057.10 742.96 1923.3
-1054.05 744.33 1926.8
-1079.52 765.94 1982.8
-1087.60 775.37 2007.2
-1058.29 758.10 1962.5
-1056.01 760.12 1967.7
-1081.80 782.47 2025.6
-1063.82 773.22 2001.6
-1037.97 758.12 1962.5
-1042.68 765.32 1981.2
-1047.76 772.85 2000.7
-1044.44 774.24 2004.3
-1043.71 777.57 2012.9
-1052.05 787.72 2039.2
-1054.67 793.66 2054.5
-1037.85 784.98 2032.1
-1024.13 778.55 2015.4
-1024.12 782.53 2025.7
-1038.93 797.94 2065.6
-1049.34 810.11 2097.1
-1037.71 805.31 2084.7
-1034.94 807.36 2090.0
-1034.64 811.38 2100.4
-1005.20 792.46 2051.4
-998.72 791.54 2049.0
-1005.03 800.80 2073.0
-985.79 789.69 2044.3
-988.73 796.33 2061.4
-1006.63 815.15 2110.2
-1001.25 815.22 2110.4
-989.01 809.68 2096.0
-977.64 804.79 2083.4
-963.52 797.58 2064.7
-960.60 799.61 2069.9
-945.40 791.37 2048.6
-933.43 785.77 2034.1
-949.73 804.03 2081.4
-952.56 811.04 2099.5
-949.49 813.07 2104.8
-957.97 825.07 2135.9
-950.18 823.12 2130.8
-943.55 822.16 2128.3
-952.90 835.19 2162.1
-939.78 828.56 2144.9
-913.18 809.90 2096.6
-910.75 812.59 2103.5
-926.18 831.33 2152.0
-925.44 835.70 2163.4
-907.32 824.34 2134.0
-899.97 822.67 2129.6
-901.75 829.39 2147.0
-900.55 833.43 2157.5
-897.85 836.12 2164.5
-892.96 836.80 2166.2
-886.64 836.13 2164.5
-883.51 838.49 2170.6
-901.88 861.41 2229.9
-930.51 894.49 2315.6
-926.29 896.22 2320.0
-924.82 900.64 2331.5
-1212.84 763.83 1990.7
-1173.45 742.18 1934.3
-1156.38 734.53 1914.3
-1141.35 728.10 1897.6
-1144.92 733.54 1911.7
-1148.93 739.31 1926.8
-1131.05 730.98 1905.1
-1120.98 727.65 1896.4
-1109.50 723.38 1885.2
-1101.90 721.60 1880.6
-1120.62 737.12 1921.1
-1123.93 742.59 1935.3
-1111.02 737.36 1921.7
-1105.26 736.84 1920.3
-1106.11 740.74 1930.5
-1111.61 747.81 1948.9
-1102.99 745.40 1942.6
-1098.11 745.51 1942.9
-1115.56 760.84 1982.9
-1118.94 766.68 1998.1
-1091.32 751.23 1957.8
-1077.20 744.98 1941.5
-1085.14 753.99 1965.0
-1075.17 750.59 1956.2
-1068.42 749.42 1953.1
-1090.23 768.35 2002.5
-1106.41 783.49 2041.9
-1085.10 772.09 2012.2
-1042.41 745.30 1942.4
-1027.22 738.01 1923.4
-1038.34 749.63 1953.7
-1039.58 754.21 1965.6
-1050.47 765.86 1996.0
-1060.79 777.21 2025.6
-1040.36 766.04 1996.4
-1020.92 755.48 1968.9
-1038.91 772.66 2013.7
-1050.22 785.02 2045.9
-1033.42 776.38 2023.4
-1018.86 769.34 2005.0
-1022.72 776.22 2023.0
-1042.22 795.10 2072.2
-1037.39 795.51 2073.3
-1011.06 779.36 2031.1
-1008.82 781.70 2037.3
-1009.48 786.33 2049.3
-997.18 780.86 2035.1
-1009.38 794.62 2070.9
-1015.65 803.83 2094.9
-997.59 793.78 2068.7
-995.16 796.13 2074.9
-1008.58 811.25 2114.3
-1005.62 813.29 2119.6
-995.78 809.75 2110.4
-989.99 809.49 2109.7
-980.60 806.27 2101.3
-973.63 805.01 2098.0
-954.40 793.55 2068.1
-937.27 792.66 2065.8
-947.47 805.90 2100.3
-955.59 817.50 2130.5
-947.81 815.56 2125.5
-927.04 802.35 2091.1
-923.55 804.03 2095.5
-935.56 819.31 2135.3
-933.07 821.99 2142.3
-915.56 811.39 2114.6
-917.92 818.39 2132.9
-927.99 832.38 2169.3
-919.81 830.08 2163.3
-903.95 820.77 2139.1
-896.96 819.44 2135.6
-899.41 826.79 2154.8
-899.98 832.48 2169.6
-897.23 835.16 2176.6
-893.03 836.51 2180.1
-891.29 840.19 2189.7
-911.40 864.66 2253.5
-944.22 901.58 2349.7
-921.01 890.91 2321.9
-913.29 889.26 2317.6
-1236.39 770.12 2020.7
-1192.85 746.17 1957.9
-1164.85 731.76 1920.1
-1160.09 731.90 1920.4
-1150.43 728.94 1912.7
-1157.89 736.84 1933.4
-1172.56 749.42 1966.4
-1165.75 748.32 1963.5
-1150.73 741.92 1946.7
-1132.89 733.63 1925.0
-1100.23 715.64 1877.8
-1095.53 715.74 1878.0
-1123.25 737.13 1934.2
-1134.58 747.90 1962.4
-1114.05 737.68 1935.6
-1098.83 730.89 1917.8
-1102.01 736.34 1932.1
-1091.08 732.37 1921.7
-1101.66 742.86 1949.2
-1135.86 769.45 2019.0
-1115.62 762.77 2001.4
-1086.22 746.14 1957.8
-1078.09 744.03 1952.3
-1079.57 748.57 1964.2
-1083.72 755.01 1981.1
-1089.62 762.73 2001.3
-1089.11 766.02 2010.0
-1083.15 765.50 2008.6
-1056.58 750.32 1968.8
-1030.61 735.44 1929.7
-1030.61 739.02 1939.1
-1031.88 743.56 1951.0
-1041.94 754.51 1979.8
-1066.37 776.02 2036.2
-1058.60 774.20 2031.4
-1027.30 755.07 1981.2
-1033.56 763.48 2003.3
-1044.91 775.77 2035.5
-1029.41 768.14 2015.5
-1012.28 759.21 1992.1
-1014.04 764.43 2005.8
-1036.16 785.13 2060.1
-1035.17 788.44 2068.8
-1014.31 776.58 2037.7
-1017.94 783.44 2055.7
-1026.09 793.87 2083.0
-1022.04 794.92 2085.8
-1010.52 790.14 2073.3
-993.68 781.13 2049.6
-984.75 778.27 2042.1
-990.97 787.42 2066.1
-997.91 797.24 2091.9
-988.11 793.73 2082.7
-983.19 794.11 2083.7
-982.27 797.76 2093.2
-968.92 791.28 2076.3
-959.22 787.74 2067.0
-956.29 789.74 2072.2
-940.72 781.27 2050.0
-938.97 784.25 2057.8
-957.08 803.95 2109.5
-958.66 809.90 2125.1
-957.84 813.89 2135.6
-946.58 809.00 2122.7
-922.37 792.91 2080.5
-918.14 793.92 2083.2
-930.57 809.43 2123.9
-932.63 816.05 2141.2
-918.49 808.49 2121.4
-907.04 803.22 2107.6
-904.93 806.21 2115.4
-906.47 812.51 2131.9
-899.49 811.19 2128.5
-890.69 808.22 2120.7
-892.46 814.85 2138.1
-898.85 825.81 2166.9
-901.14 833.13 2186.1
-890.13 828.15 2173.0
-881.30 825.16 2165.1
-894.77 843.15 2212.3
-921.03 873.49 2292.0
-938.19 895.54 2349.8
-932.83 896.25 2351.7
-922.63 892.28 2341.3
-1224.28 757.39 2000.9
-1204.52 748.34 1977.0
-1199.66 748.50 1977.5
-1187.90 744.35 1966.5
-1169.81 736.18 1944.9
-1152.29 728.29 1924.1
-1145.08 726.88 1920.3
-1144.19 729.48 1927.2
-1134.56 726.52 1919.4
-1146.17 737.19 1947.6
-1142.77 738.25 1950.4
-1112.54 721.91 1907.2
-1115.40 727.00 1920.7
-1113.45 728.99 1925.9
-1079.72 710.09 1876.0
-1075.45 713.71 1885.5
-1077.27 718.18 1897.3
-1102.40 738.31 1950.5
-1117.53 751.89 1986.4
-1104.21 746.37 1971.8
-1108.98 753.08 1989.5
-1110.91 757.91 2002.3
-1097.17 752.05 1986.8
-1092.19 752.17 1987.1
-1083.55 749.76 1980.8
-1076.30 748.28 1976.9
-1078.55 753.44 1990.5
-1074.44 754.17 1992.4
-1067.18 752.69 1988.5
-1059.48 750.89 1983.8
-1043.34 743.06 1963.1
-1028.16 735.84 1944.0
-1038.68 747.03 1973.6
-1064.03 769.05 2031.7
-1069.85 777.11 2053.0
-1052.45 768.29 2029.7
-1044.28 766.15 2024.1
-1041.74 768.16 2029.4
-1029.27 762.81 2015.3
-1015.57 756.50 1998.6
-1019.89 763.61 2017.4
-1044.12 785.78 2075.9
-1050.31 794.53 2099.1
-1036.13 787.89 2081.5
-1027.49 785.41 2075.0
-1023.89 786.78 2078.6
-1016.94 785.57 2075.4
-1001.28 777.59 2054.3
-987.78 771.21 2037.4
-980.93 769.98 2034.2
-979.00 772.61 2041.2
-977.03 775.25 2048.1
-980.71 782.42 2067.1
-989.55 793.81 2097.2
-982.18 792.25 2093.0
-964.02 781.93 2065.8
-952.35 776.78 2052.1
-947.07 776.81 2052.2
-938.64 774.24 2045.5
-944.75 783.71 2070.5
-963.64 803.95 2123.9
-964.41 809.22 2137.9
-958.54 808.94 2137.1
-943.04 800.49 2114.8
-916.15 782.21 2066.5
-908.15 779.94 2060.5
-910.78 786.83 2078.7
-904.27 785.86 2076.1
-898.90 785.86 2076.2
-896.14 788.17 2082.2
-897.80 794.42 2098.7
-905.30 805.93 2129.2
-901.99 807.92 2134.4
-896.47 807.93 2134.5
-892.03 808.93 2137.1
-893.01 814.87 2152.8
-897.50 824.12 2177.2
-888.65 821.16 2169.4
-886.94 824.80 2179.0
-908.89 850.62 2247.2
-924.19 870.53 2299.8
-929.80 881.50 2328.8
-935.63 892.82 2358.7
-937.16 900.17 2378.1
-1214.71 749.50 1993.7
-1215.25 753.04 2003.2
-1208.85 752.29 2001.2
-1176.95 735.59 1956.8
-1146.69 719.78 1914.7
-1135.11 715.61 1903.6
-1129.88 715.43 1903.1
-1122.72 714.01 1899.3
-1136.79 726.15 1931.6
-1146.41 735.53 1956.6
-1128.61 727.32 1934.8
-1126.17 728.99 1939.2
-1118.47 727.26 1934.6
-1090.40 712.20 1894.5
-1084.22 711.37 1892.3
-1086.53 716.12 1905.0
-1084.56 718.09 1910.2
-1083.50 720.68 1917.1
-1072.15 716.42 1905.7
-1076.17 722.43 1921.7
-1100.01 741.87 1973.4
-1098.29 744.17 1979.6
-1079.09 734.59 1954.1
-1086.52 743.14 1976.8
-1089.30 748.57 1991.3
-1072.49 740.53 1969.9
-1067.07 740.31 1969.3
-1077.88 751.40 1998.8
-1084.51 759.68 2020.8
-1074.06 756.02 2011.1
-1053.85 745.41 1982.9
-1033.31 734.46 1953.7
-1038.07 741.48 1972.4
-1059.48 760.52 2023.1
-1060.51 765.04 2035.1
-1053.62 763.87 2032.0
-1055.00 768.72 2044.9
-1054.16 771.99 2053.6
-1042.07 767.00 2040.3
-1042.05 770.91 2050.7
-1059.10 787.53 2094.9
-1047.41 782.86 2082.5
-1016.27 763.52 2031.0
-1022.92 772.52 2055.0
-1034.52 785.37 2089.2
-1024.19 781.62 2079.2
-1010.15 774.98 2061.5
-997.84 769.61 2047.2
-987.25 765.51 2036.3
-984.92 767.81 2042.5
-986.25 773.00 2056.3
-986.29 777.24 2067.5
-992.77 786.62 2092.5
-996.72 794.09 2112.4
-985.29 789.32 2099.7
-965.91 778.10 2069.8
-953.04 772.01 2053.6
-952.52 775.93 2064.0
-950.37 778.55 2071.0
-935.62 770.82 2050.5
-933.07 773.11 2056.6
-937.10 780.92 2077.3
-934.08 782.90 2082.6
-931.02 784.87 2087.8
-915.67 776.45 2065.4
-909.95 776.14 2064.6
-916.38 786.24 2091.5
-923.06 796.69 2119.3
-930.73 808.12 2149.7
-908.38 793.46 2110.7
-892.14 784.00 2085.5
-908.18 802.97 2136.0
-913.70 812.80 2162.1
-903.72 808.89 2151.7
-894.15 805.29 2142.2
-882.45 799.72 2127.3
-875.13 798.08 2123.0
-878.21 805.95 2143.9
-889.38 821.40 2185.0
-906.38 842.47 2241.1
-917.14 857.97 2282.3
-924.90 870.85 2316.5
-932.85 884.07 2351.7
-1239.28 756.17 2025.5
-1195.66 732.66 1962.5
-1188.36 731.30 1958.8
-1192.89 737.24 1974.7
-1170.84 726.73 1946.6
-1150.37 717.11 1920.8
-1148.52 719.08 1926.1
-1148.11 721.96 1933.8
-1145.25 723.32 1937.5
-1145.26 726.51 1946.0
-1140.42 726.64 1946.4
-1116.40 714.50 1913.8
-1108.27 712.46 1908.4
-1128.26 728.56 1951.5
-1127.19 731.15 1958.4
-1114.74 726.35 1945.6
-1112.23 728.01 1950.0
-1106.88 727.81 1949.5
-1102.94 728.55 1951.5
-1083.13 718.76 1925.2
-1077.82 718.55 1924.7
-1097.51 735.08 1969.0
-1090.73 733.95 1965.9
-1069.71 723.18 1937.1
-1075.81 730.74 1957.3
-1090.04 743.91 1992.6
-1085.94 744.64 1994.6
-1083.64 746.62 1999.9
-1098.90 760.78 2037.8
-1096.93 763.08 2044.0
-1077.03 752.88 2016.6
-1079.09 757.99 2030.3
-1079.75 762.17 2041.5
-1058.69 750.99 2011.6
-1054.48 751.71 2013.5
-1071.77 767.83 2056.7
-1079.25 777.06 2081.4
-1071.40 775.28 2076.7
-1062.69 772.87 2070.2
-1056.60 772.34 2068.8
-1061.26 779.70 2088.5
-1064.54 786.12 2105.7
-1038.77 771.04 2065.3
-1010.61 754.03 2019.7
-1020.68 765.51 2050.5
-1028.93 775.74 2077.9
-1014.44 768.84 2059.4
-1011.28 770.50 2063.8
-1010.59 774.07 2073.4
-997.04 767.77 2056.5
-991.79 767.84 2056.7
-998.83 777.47 2082.5
-1004.94 786.48 2106.6
-996.32 783.99 2100.0
-984.90 779.26 2087.3
-980.77 780.28 2090.0
-969.01 775.21 2076.4
-964.88 776.22 2079.2
-974.23 788.14 2111.1
-960.14 781.13 2092.3
-933.54 763.80 2045.9
-934.13 768.66 2058.9
-940.90 778.67 2085.7
-933.20 776.77 2080.6
-924.37 773.89 2072.9
-917.11 772.30 2068.7
-920.54 779.75 2088.6
-938.69 799.83 2142.4
-957.36 820.59 2198.0
-950.21 819.34 2194.7
-913.16 792.14 2121.8
-898.75 784.36 2101.0
-915.51 803.87 2153.2
-915.84 809.09 2167.2
-899.99 800.00 2142.8
-903.55 808.15 2164.7
-904.48 814.03 2180.4
-884.79 801.32 2146.4
-875.64 798.05 2137.6
-886.48 813.08 2177.9
-902.80 833.36 2232.2
-905.84 841.56 2254.2
-905.27 846.49 2267.4
-923.45 869.13 2328.0
-1235.12 751.58 2027.2
-1196.04 730.91 1971.5
-1171.48 718.97 1939.3
-1176.51 725.17 1956.0
-1181.95 731.69 1973.6
-1166.35 725.16 1956.0
-1155.18 721.36 1945.7
-1152.29 722.71 1949.4
-1151.80 725.59 1957.1
-1160.91 734.56 1981.3
-1150.24 731.04 1971.8
-1125.26 718.36 1937.6
-1128.52 723.67 1952.0
-1130.78 728.39 1964.7
-1120.68 725.14 1955.9
-1102.59 716.68 1933.1
-1082.24 706.67 1906.1
-1099.92 721.51 1946.1
-1103.44 727.15 1961.3
-1089.69 721.42 1945.9
-1100.56 732.00 1974.4
-1100.22 735.19 1983.0
-1088.81 730.99 1971.7
-1076.99 726.46 1959.5
-1073.88 727.80 1963.1
-1084.39 738.42 1991.7
-1096.60 750.30 2023.8
-1094.68 752.59 2030.0
-1074.75 742.46 2002.6
-1080.90 750.33 2023.9
-1082.86 762.80 2057.5
-1057.41 748.56 2019.1
-1055.38 750.84 2025.2
-1082.62 774.07 2087.9
-1062.99 767.72 2070.8
-1034.01 750.57 2024.5
-1051.24 766.97 2068.8
-1065.71 781.52 2108.0
-1063.80 784.14 2115.1
-1059.73 785.19 2117.9
-1031.54 768.28 2072.3
-1001.85 750.08 2023.2
-999.21 752.04 2028.5
-1006.98 761.89 2055.1
-1016.70 773.34 2085.9
-1013.47 775.00 2090.4
-1004.02 771.91 2082.1
-1008.56 779.59 2102.8
-1012.19 786.64 2121.8
-1002.31 783.23 2112.6
-983.57 772.81 2084.5
-970.99 767.14 2069.2
-974.11 773.87 2087.4
-985.92 787.63 2124.5
-990.02 795.35 2145.3
-971.49 784.88 2117.1
-953.09 774.38 2088.8
-962.21 786.26 2120.8
-966.89 794.63 2143.4
-957.14 791.16 2134.0
-940.08 781.58 2108.2
-924.29 772.95 2084.9
-925.79 778.75 2100.5
-942.03 797.10 2150.0
-944.06 803.58 2167.5
-921.19 788.80 2127.6
-911.20 784.95 2117.3
-922.11 799.17 2155.6
-922.11 804.03 2168.7
-906.20 795.01 2144.4
-903.22 797.29 2150.5
-919.89 817.05 2203.8
-912.03 815.13 2198.6
-883.28 794.39 2142.7
-885.61 801.53 2162.0
-907.46 826.54 2229.4
-911.27 835.34 2253.2
-900.52 830.80 2240.9
-896.83 832.77 2246.2
-1222.53 741.88 2015.2
-1187.51 723.72 1965.8
-1182.66 723.87 1966.3
-1181.24 726.13 1972.4
-1160.26 716.33 1945.8
-1159.82 719.19 1953.5
-1167.59 727.18 1975.2
-1156.90 723.70 1965.8
-1155.88 726.26 1972.7
-1156.27 729.73 1982.2
-1141.30 723.50 1965.2
-1123.54 715.44 1943.3
-1103.48 705.83 1917.2
-1097.73 705.33 1915.9
-1083.02 699.04 1898.8
-1095.02 713.27 1937.5
-1111.17 727.13 1975.1
-1109.49 729.39 1981.2
-1113.80 735.63 1998.2
-1107.88 735.13 1996.8
-1099.20 732.80 1990.5
-1090.08 730.15 1983.3
-1083.73 729.34 1981.1
-1090.58 737.44 2003.1
-1083.28 736.01 1999.2
-1060.65 724.09 1966.9
-1048.03 718.94 1952.9
-1062.36 732.31 1989.2
-1080.99 748.79 2033.9
-1069.65 744.56 2022.5
-1061.90 742.80 2017.7
-1052.83 740.11 2010.4
-1044.24 737.72 2003.9
-1067.16 757.69 2058.1
-1076.35 768.05 2086.3
-1040.28 746.06 2026.5
-1032.99 744.59 2022.5
-1070.04 775.23 2105.8
-1031.41 762.81 2072.0
-1011.40 751.93 2042.5
-1017.95 760.78 2066.5
-1014.78 762.43 2071.0
-1012.42 764.70 2077.2
-1004.24 762.57 2071.4
-990.30 756.03 2053.6
-988.75 758.93 2061.5
-987.16 761.83 2069.3
-986.34 765.36 2078.9
-977.38 762.57 2071.4
-979.74 768.63 2087.8
-997.66 787.05 2137.8
-991.01 786.16 2135.5
-976.81 779.25 2116.7
-988.80 793.27 2154.8
-991.88 804.84 2186.2
-977.72 797.91 2167.4
-972.95 798.61 2169.3
-960.83 793.24 2154.7
-931.87 773.84 2102.0
-918.81 767.48 2084.7
-934.35 785.07 2132.5
-935.66 790.86 2148.2
-919.22 781.61 2123.1
-915.98 783.55 2128.4
-922.41 793.83 2156.3
-916.85 793.86 2156.4
-901.33 785.21 2132.9
-900.58 789.40 2144.2
-922.39 813.53 2209.8
-919.23 815.81 2216.0
-881.40 787.16 2138.2
-874.78 786.19 2135.5
-896.35 810.71 2202.1
-899.17 818.48 2223.2
-895.89 820.75 2229.4
-900.65 830.47 2255.8
-927.83 866.79 2354.5
-1224.30 737.72 2018.1
-1196.65 724.15 1981.0
-1173.09 712.95 1950.3
-1154.05 704.42 1927.0
-1152.69 706.65 1933.1
-1170.79 720.88 1972.0
-1174.16 726.13 1986.4
-1159.09 719.97 1969.5
-1135.89 708.68 1938.6
-1114.73 698.56 1911.0
-1113.31 700.79 1917.0
-1108.04 700.60 1916.5
-1097.54 697.09 1906.9
-1101.29 702.63 1922.1
-1101.67 706.07 1931.5
-1103.89 710.72 1944.2
-1110.27 718.11 1964.4
-1105.36 718.23 1964.8
-1100.44 718.34 1965.1
-1102.01 722.71 1977.0
-1116.00 735.31 2011.5
-1126.63 745.80 2040.2
-1099.52 731.28 2000.5
-1073.48 717.35 1962.4
-1081.74 726.31 1986.9
-1075.84 725.81 1985.5
-1064.97 721.93 1974.9
-1064.94 725.39 1984.4
-1056.79 723.34 1978.7
-1053.58 724.66 1982.4
-1036.56 716.45 1959.9
-1024.06 711.29 1945.8
-1038.98 725.23 1983.9
-1054.17 739.50 2022.9
-1058.26 746.07 2040.9
-1049.61 743.70 2034.4
-1039.69 740.38 2025.4
-1057.91 757.19 2071.3
-1071.20 770.61 2108.0
-1062.45 768.24 2101.6
-1063.98 773.31 2115.4
-1055.24 770.92 2108.9
-1027.88 754.85 2064.9
-1018.84 752.13 2057.5
-1019.91 756.88 2070.5
-1011.30 754.46 2063.9
-1011.04 758.28 2074.3
-1003.69 756.79 2070.3
-993.88 753.42 2061.0
-996.42 759.43 2077.5
-985.39 755.11 2065.7
-974.82 751.09 2054.7
-980.09 759.30 2077.1
-996.56 776.32 2123.7
-1004.79 787.08 2153.1
-987.71 778.03 2128.4
-960.00 760.45 2080.3
-959.81 764.60 2091.6
-975.72 781.68 2138.3
-968.28 780.16 2134.2
-952.67 771.99 2111.8
-947.24 772.03 2111.9
-945.29 774.92 2119.8
-924.85 762.60 2086.1
-920.24 763.25 2087.9
-943.01 786.77 2152.3
-949.97 797.29 2181.0
-939.47 793.20 2169.9
-931.64 791.33 2164.7
-933.14 797.41 2181.4
-931.23 800.63 2190.2
-918.95 794.92 2174.6
-904.90 787.60 2154.5
-915.39 801.68 2193.0
-927.88 817.70 2236.9
-905.87 803.32 2197.5
-880.09 785.39 2148.5
-881.65 791.80 2166.0
-886.34 801.11 2191.5
-885.25 805.29 2202.9
-899.21 823.30 2252.2
-925.04 858.10 2347.4
-937.63 875.53 2395.1
-1223.58 735.20 2025.5
-1211.73 731.21 2014.6
-1192.55 722.76 1991.3
-1191.07 725.00 1997.5
-1168.12 714.13 1967.5
-1133.14 695.79 1917.0
-1136.11 700.69 1930.5
-1131.79 701.11 1931.6
-1104.87 687.47 1894.1
-1098.69 686.68 1891.9
-1103.50 692.78 1908.7
-1103.48 695.89 1917.2
-1106.74 701.10 1931.6
-1106.16 703.92 1939.4
-1106.96 707.65 1949.6
-1112.40 714.39 1968.2
-1097.20 707.87 1950.3
-1082.99 701.94 1933.9
-1092.52 711.41 1960.0
-1114.89 729.36 2009.5
-1127.37 740.99 2041.5
-1101.62 727.48 2004.3
-1061.84 704.54 1941.1
-1057.86 705.24 1943.0
-1072.01 718.10 1978.4
-1081.50 727.93 2005.5
-1088.62 736.26 2028.5
-1087.56 739.12 2036.3
-1071.27 731.60 2015.6
-1041.26 714.59 1968.8
-1037.61 715.59 1971.5
-1060.88 735.26 2025.7
-1057.96 736.89 2030.2
-1045.39 731.77 2016.1
-1036.79 729.40 2009.6
-1026.49 725.80 1999.6
-1039.59 738.79 2035.4
-1046.93 747.81 2060.3
-1029.70 739.27 2036.8
-1022.39 737.81 2032.7
-1031.70 748.38 2061.9
-1022.23 745.38 2053.6
-1017.43 745.76 2054.7
-1022.29 753.27 2075.3
-1009.49 747.77 2060.2
-1004.66 748.15 2061.2
-1019.31 763.12 2102.5
-1031.72 776.56 2139.5
-1028.34 778.21 2144.0
-1011.85 769.89 2121.1
-1001.57 766.23 2111.0
-1005.91 773.78 2131.8
-992.01 767.30 2114.0
-970.54 754.87 2079.7
-971.21 759.61 2092.8
-961.87 756.53 2084.3
-945.83 748.12 2061.1
-946.84 753.17 2075.1
-952.49 761.99 2099.4
-950.61 764.86 2107.3
-935.48 757.04 2085.7
-924.31 752.35 2072.8
-919.35 752.69 2073.7
-929.31 765.31 2108.5
-951.30 788.06 2171.2
-955.95 796.63 2194.8
-945.79 792.88 2184.5
-937.55 790.71 2178.5
-937.17 795.17 2190.8
-934.13 797.43 2197.0
-932.17 800.63 2205.8
-927.96 801.94 2209.4
-924.09 803.56 2213.9
-923.47 808.03 2226.2
-918.45 808.70 2228.1
-911.63 807.77 2225.5
-905.17 807.16 2223.8
-900.84 808.45 2227.4
-904.62 817.08 2251.1
-924.43 845.88 2330.5
-926.57 859.08 2366.8
-1237.60 741.50 2057.6
-1201.61 726.19 2015.1
-1160.08 704.15 1954.0
-1119.28 682.37 1893.5
-1117.94 684.56 1899.6
-1123.34 690.90 1917.2
-1106.05 683.29 1896.1
-1104.19 685.19 1901.3
-1114.72 694.82 1928.1
-1112.28 696.43 1932.5
-1113.62 700.42 1943.6
-1104.04 697.55 1935.7
-1096.37 695.87 1931.0
-1107.02 705.85 1958.7
-1096.97 702.67 1949.9
-1081.37 695.88 1931.0
-1088.12 703.48 1952.1
-1110.98 721.62 2002.4
-1123.96 733.47 2035.3
-1108.77 726.98 2017.3
-1080.84 712.02 1975.8
-1073.60 710.62 1971.9
-1086.34 722.50 2004.9
-1089.45 728.05 2020.3
-1088.89 731.18 2029.0
-1085.14 732.20 2031.8
-1066.17 722.91 2006.0
-1056.65 719.97 1997.9
-1072.91 734.65 2038.6
-1073.52 738.71 2049.9
-1047.23 724.20 2009.6
-1047.84 728.25 2020.8
-1052.77 735.35 2040.6
-1032.39 724.76 2011.2
-1035.09 730.34 2026.6
-1042.89 739.60 2052.3
-1024.38 730.20 2026.2
-1013.25 725.99 2014.6
-1018.34 733.42 2035.2
-1020.38 738.71 2049.9
-1027.42 747.70 2074.8
-1031.82 754.86 2094.7
-1018.13 748.79 2077.8
-1014.93 750.40 2082.3
-1031.63 766.83 2127.9
-1037.80 775.56 2152.1
-1029.05 773.18 2145.5
-1013.37 765.54 2124.3
-1003.89 762.52 2115.9
-1010.67 771.88 2141.9
-999.16 767.31 2129.2
-966.79 746.58 2071.7
-957.08 743.21 2062.4
-964.53 753.20 2090.1
-964.72 757.61 2102.3
-959.73 757.97 2103.3
-959.05 761.76 2113.8
-968.08 773.35 2146.0
-963.74 774.34 2148.7
-948.18 766.26 2126.3
-938.48 762.86 2116.9
-942.99 771.03 2139.6
-958.07 788.00 2186.6
-960.42 794.63 2205.0
-946.84 788.09 2186.9
-929.97 778.71 2160.8
-921.04 775.91 2153.1
-924.03 783.17 2173.2
-928.77 792.02 2197.8
-922.37 791.42 2196.1
-916.71 791.45 2196.2
-921.59 800.63 2221.7
-922.37 806.35 2237.6
-909.77 800.37 2221.0
-896.88 794.05 2203.4
-908.96 809.91 2247.4
-1222.05 730.06 2040.5
-1191.59 714.96 1998.3
-1180.33 711.29 1988.1
-1167.16 706.44 1974.5
-1145.79 696.56 1946.9
-1132.26 691.38 1932.4
-1119.75 686.78 1919.6
-1123.12 691.92 1933.9
-1124.51 695.89 1945.0
-1114.42 692.75 1936.3
-1119.08 698.79 1953.1
-1113.73 698.62 1952.7
-1089.06 686.25 1918.1
-1082.36 685.17 1915.1
-1097.21 697.77 1950.3
-1104.45 705.62 1972.2
-1086.97 697.68 1950.0
-1083.00 698.38 1952.0
-1109.00 718.51 2008.3
-1105.36 719.52 2011.1
-1092.54 714.55 1997.2
-1101.67 723.95 2023.5
-1103.87 728.87 2037.2
-1096.50 727.49 2033.4
-1088.25 725.50 2027.8
-1077.76 722.00 2018.0
-1063.74 716.08 2001.5
-1059.58 716.78 2003.4
-1065.63 724.42 2024.8
-1056.54 721.79 2017.4
-1036.47 711.61 1989.0
-1042.84 719.56 2011.2
-1065.71 739.04 2065.6
-1061.81 740.05 2068.5
-1050.09 735.59 2056.0
-1044.02 735.08 2054.6
-1031.95 730.30 2041.2
-1027.63 730.99 2043.1
-1024.57 732.60 2047.6
-1018.95 732.37 2047.0
-1023.04 739.16 2066.0
-1024.53 744.13 2079.9
-1020.92 745.43 2083.5
-1028.14 754.70 2109.4
-1028.60 759.07 2121.6
-1018.67 755.78 2112.4
-1009.18 752.79 2104.1
-991.94 743.96 2079.4
-992.34 748.32 2091.6
-1008.52 764.70 2137.4
-1021.27 778.65 2176.3
-1014.13 777.50 2173.1
-976.16 752.57 2103.5
-953.65 739.34 2066.5
-959.84 748.35 2091.7
-959.21 752.11 2102.2
-964.43 760.52 2125.7
-978.53 776.07 2169.1
-971.03 774.58 2165.0
-951.17 763.14 2133.0
-949.93 766.61 2142.7
-963.20 781.89 2185.4
-958.74 782.88 2188.2
-941.75 773.58 2162.2
-941.10 777.67 2173.6
-936.63 778.65 2176.3
-925.06 773.68 2162.5
-925.80 779.03 2177.4
-924.63 782.81 2188.0
-912.37 777.20 2172.3
-913.34 782.87 2188.1
-925.16 797.95 2230.3
-908.92 788.87 2204.9
-876.96 765.95 2140.9
-874.62 768.78 2148.8
-896.81 793.33 2217.4
-1204.13 714.14 2010.6
-1172.74 698.55 1966.7
-1159.58 693.72 1953.1
-1164.48 699.71 1970.0
-1161.55 701.02 1973.7
-1155.69 700.58 1972.4
-1149.84 700.13 1971.2
-1145.43 700.55 1972.4
-1140.05 700.39 1971.9
-1118.94 690.52 1944.1
-1113.62 690.34 1943.6
-1119.18 696.94 1962.2
-1105.32 691.45 1946.7
-1104.68 694.22 1954.5
-1125.55 710.60 2000.6
-1124.30 713.09 2007.7
-1095.57 698.11 1965.5
-1085.55 694.95 1956.6
-1104.18 710.20 1999.5
-1109.75 717.15 2019.1
-1106.53 718.46 2022.8
-1107.41 722.45 2034.0
-1102.32 722.57 2034.3
-1097.67 722.99 2035.5
-1093.02 723.40 2036.7
-1095.10 728.30 2050.5
-1093.09 730.51 2056.7
-1076.34 722.83 2035.1
-1070.33 722.34 2033.7
-1065.65 722.74 2034.8
-1050.82 716.23 2016.5
-1038.26 711.21 2002.4
-1041.93 717.31 2019.5
-1053.80 729.15 2052.9
-1055.55 734.07 2066.7
-1056.38 738.39 2078.9
-1050.70 738.18 2078.3
-1031.31 728.30 2050.5
-1014.60 720.21 2027.7
-1014.11 723.61 2037.3
-1022.89 733.69 2065.7
-1033.64 745.31 2098.4
-1039.64 753.60 2121.7
-1029.25 750.04 2111.7
-1011.84 741.30 2087.1
-1019.77 751.12 2114.7
-1027.99 761.27 2143.3
-993.44 739.68 2082.5
-976.29 730.88 2057.8
-993.78 748.06 2106.1
-1009.03 763.74 2150.3
-1020.06 776.38 2185.8
-1000.88 766.03 2156.7
-959.49 738.48 2079.1
-945.82 732.08 2061.1
-961.46 748.41 2107.1
-982.39 769.07 2165.3
-990.16 779.61 2194.9
-975.99 772.89 2176.0
-952.22 758.45 2135.4
-947.50 759.11 2137.2
-950.45 765.95 2156.5
-936.52 759.19 2137.4
-925.70 754.89 2125.3
-931.56 764.21 2151.6
-935.79 772.31 2174.4
-932.44 774.21 2179.7
-934.27 780.45 2197.3
-935.27 786.09 2213.2
-920.74 778.65 2192.2
-919.85 782.73 2203.7
-919.99 787.74 2217.8
-890.38 767.18 2159.9
-876.50 760.00 2139.7
-894.59 780.63 2197.8
-911.69 800.65 2254.2
-1207.34 710.81 2016.0
-1176.41 695.62 1972.9
-1144.67 679.80 1928.0
-1132.58 675.57 1916.0
-1140.43 683.25 1937.8
-1144.81 688.91 1953.8
-1143.81 691.37 1960.8
-1145.19 695.29 1971.9
-1153.70 703.60 1995.5
-1146.84 702.57 1992.6
-1127.63 693.93 1968.1
-1119.41 692.00 1962.6
-1109.32 688.89 1953.8
-1111.50 693.41 1966.6
-1124.39 704.69 1998.6
-1112.87 700.70 1987.3
-1112.56 703.76 1996.0
-1130.29 718.31 2037.2
-1118.28 714.02 2025.1
-1092.52 700.86 1987.7
-1088.91 701.85 1990.6
-1091.22 706.69 2004.3
-1092.11 710.65 2015.5
-1092.94 714.62 2026.8
-1094.63 719.18 2039.7
-1103.46 728.50 2066.1
-1101.87 731.00 2073.2
-1083.73 722.49 2049.1
-1067.91 715.45 2029.1
-1053.06 708.99 2010.8
-1039.60 703.41 1995.0
-1029.72 700.21 1985.9
-1033.87 706.56 2003.9
-1045.78 718.32 2037.2
-1047.14 722.90 2050.2
-1045.85 725.69 2058.2
-1046.23 729.68 2069.5
-1032.43 723.76 2052.7
-1018.26 717.53 2035.0
-1019.89 722.42 2048.9
-1012.15 720.69 2044.0
-1008.63 721.97 2047.6
-1031.53 742.26 2105.2
-1037.88 750.81 2129.4
-1024.59 745.15 2113.4
-1035.78 757.34 2147.9
-1017.09 751.76 2132.1
-978.18 726.95 2061.7
-974.53 728.22 2065.3
-995.55 748.04 2121.5
-1013.91 766.06 2172.7
-1002.77 761.88 2160.8
-969.72 740.91 2101.3
-964.34 740.96 2101.5
-987.42 763.01 2164.0
-987.40 767.35 2176.3
-974.01 761.30 2159.1
-966.54 759.82 2155.0
-950.94 751.90 2132.5
-941.99 749.19 2124.8
-941.13 752.91 2135.3
-930.30 748.64 2123.2
-922.55 746.83 2118.1
-918.98 748.39 2122.5
-914.26 749.03 2124.3
-921.49 759.53 2154.1
-934.18 774.68 2197.1
-934.45 779.66 2211.2
-919.18 771.66 2188.5
-905.85 765.19 2170.2
-892.95 759.01 2152.7
-893.18 763.98 2166.7
-912.08 785.08 2226.6
-1217.92 711.77 2033.6
-1197.73 703.02 2008.6
-1176.17 693.38 1981.1
-1152.77 682.56 1950.2
-1150.85 684.43 1955.5
-1140.68 681.38 1946.8
-1126.68 676.01 1931.5
-1137.73 685.69 1959.1
-1156.81 700.31 2000.9
-1154.24 701.90 2005.4
-1139.76 696.23 1989.2
-1122.96 689.09 1968.8
-1103.41 680.18 1943.4
-1105.61 684.67 1956.2
-1118.54 695.86 1988.2
-1111.71 694.82 1985.2
-1114.66 699.90 1999.7
-1127.30 711.14 2031.8
-1108.83 702.78 2007.9
-1072.95 683.25 1952.1
-1060.70 678.65 1939.0
-1070.44 688.14 1966.1
-1078.69 696.76 1990.8
-1076.41 698.63 1996.1
-1074.55 700.80 2002.3
-1088.87 713.58 2038.8
-1092.72 719.60 2056.0
-1076.40 712.32 2035.2
-1062.83 706.81 2019.4
