ply
format ascii 1.0
element vertex 2287
property float x
property float y
property float z
end_header
-331.03 168.76 2503.6
-323.36 168.15 2494.5
-319.77 169.67 2517.1
-322.46 174.66 2591.2
-307.20 173.64 2575.9
-299.69 173.16 2568.8
-300.13 177.35 2631.0
-276.63 175.43 2602.5
-260.18 169.12 2508.9
-259.06 172.71 2562.2
-261.68 179.04 2656.1
-254.67 178.95 2654.8
-242.28 174.98 2595.9
-230.83 171.47 2543.8
-223.14 170.64 2531.5
-219.86 173.22 2569.8
-213.41 173.40 2572.3
-202.31 169.68 2517.2
-191.72 166.16 2465.0
-187.54 168.14 2494.3
-183.13 170.05 2522.7
-172.23 165.85 2460.4
-164.94 164.94 2446.9
-160.37 166.78 2474.2
-154.53 167.41 2483.6
-139.20 164.51 2440.5
-127.09 157.35 2334.3
-122.86 159.72 2369.4
-119.53 163.57 2426.6
-111.63 161.24 2392.0
-103.64 158.50 2351.4
-98.29 159.73 2369.6
-93.13 161.42 2394.8
-87.33 162.18 2406.0
-82.07 164.14 2435.1
-75.33 163.22 2421.3
-67.72 160.07 2374.6
-61.91 160.95 2387.8
-56.86 164.26 2436.8
-51.66 167.90 2490.8
-45.55 169.19 2509.9
-38.86 168.39 2498.0
-32.76 170.34 2527.1
-26.96 175.26 2600.0
-20.63 178.76 2651.9
-13.61 176.88 2624.0
-6.78 176.21 2614.1
0.00 178.83 2653.0
14.23 184.95 2743.7
21.51 186.42 2765.6
28.62 186.02 2759.6
-411.63 165.98 2560.8
-392.99 161.06 2485.0
-380.11 158.38 2443.5
-372.71 157.93 2436.6
-362.53 156.26 2410.9
-354.81 155.62 2400.9
-352.58 157.40 2428.5
-344.86 156.76 2418.5
-333.73 154.51 2383.8
-332.01 156.61 2416.3
-330.26 158.78 2449.7
-322.32 158.00 2437.7
-320.08 160.04 2469.2
-322.46 164.52 2538.3
-320.91 167.14 2578.7
-313.60 166.81 2573.6
-306.19 166.41 2567.5
-303.91 168.84 2604.9
-300.29 170.62 2632.4
-297.64 173.05 2669.9
-278.89 170.06 2623.7
-262.59 164.12 2532.1
-262.42 168.22 2595.3
-263.48 173.35 2674.5
-254.90 172.23 2657.3
-241.39 167.63 2586.4
-229.06 163.62 2524.4
-217.05 159.59 2462.3
-210.29 159.31 2457.9
-210.81 164.69 2541.0
-205.78 165.95 2560.4
-192.14 160.12 2470.4
-186.22 160.54 2476.8
-182.51 162.95 2514.1
-171.98 159.24 2456.8
-162.55 156.30 2411.5
-156.58 156.58 2415.9
-153.94 160.35 2474.0
-141.33 160.60 2477.8
-129.82 154.55 2384.5
-121.43 151.79 2341.9
-111.41 154.74 2387.4
-107.61 158.25 2441.5
-99.68 155.74 2402.9
-92.25 153.76 2372.2
-86.73 154.87 2389.4
-81.68 157.08 2423.5
-76.12 158.58 2446.7
-69.55 158.08 2438.9
-62.28 155.70 2402.2
-55.87 155.19 2394.3
-50.90 159.08 2454.3
-44.94 160.51 2476.4
-38.01 158.38 2443.6
-31.78 158.90 2451.7
-20.12 167.64 2586.5
-13.26 165.71 2556.6
0.00 168.81 2604.5
6.90 172.56 2662.4
14.28 178.45 2753.2
-431.74 159.41 2562.0
-421.36 158.01 2539.4
-414.46 157.89 2537.5
-403.62 156.24 2511.0
-389.94 153.42 2465.6
-380.78 152.31 2447.9
-375.79 152.86 2456.7
-368.08 152.31 2447.8
-356.47 150.09 2412.2
-350.06 150.02 2411.1
-348.16 151.92 2441.6
-342.64 152.29 2447.4
-334.51 151.48 2434.5
-326.58 150.73 2422.4
-324.73 152.81 2455.9
-328.60 157.73 2534.9
-320.63 157.04 2523.9
-308.39 154.19 2478.1
-310.03 158.31 2544.3
-312.98 163.29 2624.4
-306.38 163.40 2626.1
-297.97 162.53 2612.0
-288.40 160.97 2587.0
-278.21 158.98 2555.0
-279.78 163.78 2632.1
-269.79 166.03 2668.3
-260.59 164.58 2645.1
-253.80 164.63 2645.8
-241.71 161.14 2589.8
-230.09 157.78 2535.7
-218.75 154.41 2481.6
-208.96 151.97 2442.4
-206.80 155.10 2492.6
-203.33 157.42 2530.0
-190.70 152.56 2451.9
-186.33 154.20 2478.2
-184.49 158.13 2541.4
-170.33 151.41 2433.4
-154.93 148.73 2390.4
-154.77 154.77 2487.4
-149.06 155.54 2499.7
-136.18 148.56 2387.5
-128.54 146.90 2360.9
-123.57 148.29 2383.2
-116.48 147.13 2364.6
-112.87 150.50 2418.7
-108.99 153.86 2472.8
-100.97 151.46 2434.2
-92.89 148.62 2388.6
-86.78 148.76 2390.8
-82.33 152.00 2442.9
-77.19 154.37 2481.0
-71.19 155.32 2496.2
-64.41 154.58 2484.4
-56.76 151.36 2432.6
-50.69 152.06 2443.7
-45.62 156.41 2513.7
-39.38 157.53 2531.8
-32.37 155.37 2497.0
-26.22 157.30 2528.0
-20.38 163.01 2619.9
-13.61 163.33 2624.9
-6.79 162.96 2618.9
0.00 166.87 2681.8
6.96 166.99 2683.8
21.53 172.20 2767.6
28.78 172.70 2775.5
-428.45 153.97 2582.2
-421.29 153.80 2579.3
-411.92 152.81 2562.6
-399.82 150.75 2528.1
-384.83 147.52 2473.9
-374.94 146.16 2451.2
-375.56 148.93 2497.5
-371.99 150.10 2517.2
-361.87 148.63 2492.5
-356.10 148.92 2497.3
-347.26 147.91 2480.4
-335.52 145.60 2441.8
-329.97 145.95 2447.5
-330.40 149.01 2498.9
-332.12 152.77 2562.1
-321.68 150.99 2532.2
-307.33 147.26 2469.6
-306.69 150.08 2516.9
-306.41 153.20 2569.3
-296.71 151.65 2543.3
-289.64 151.40 2539.1
-281.48 150.56 2524.9
-273.07 149.54 2507.7
-275.61 154.61 2592.8
-275.13 158.20 2653.1
-262.70 154.93 2598.2
-252.70 152.95 2565.0
-245.07 152.34 2554.8
-234.33 149.71 2510.6
-223.36 146.78 2461.5
-218.52 147.82 2479.0
-214.18 149.28 2503.4
-205.10 147.41 2472.1
-195.45 145.01 2431.9
-190.58 146.11 2450.3
-192.64 152.78 2562.2
-174.06 148.27 2486.5
-163.21 144.38 2421.2
-161.09 148.20 2485.4
-154.80 148.35 2487.8
-143.50 143.50 2406.5
-128.18 140.39 2354.3
-124.73 143.44 2405.5
-118.90 143.93 2413.8
-111.82 142.88 2396.1
-104.70 141.65 2375.5
-99.75 143.39 2404.7
-94.38 144.71 2426.9
-86.18 141.57 2374.2
-79.86 141.29 2369.4
-74.68 143.15 2400.6
-68.67 143.57 2407.7
-63.98 147.15 2467.8
-58.21 148.77 2494.9
-51.23 147.29 2470.1
-45.41 149.20 2502.1
-40.06 153.55 2575.1
-33.68 154.93 2598.2
-26.47 152.19 2552.3
-19.97 153.09 2567.4
-13.86 159.40 2673.2
7.15 164.52 2759.1
21.49 164.76 2763.0
28.90 166.18 2786.9
-424.08 148.09 2596.4
-405.32 143.82 2521.6
-405.34 146.19 2563.0
-400.08 146.70 2571.9
-383.30 142.93 2505.8
-378.43 143.54 2516.7
-375.70 145.01 2542.3
-366.80 144.10 2526.4
-359.12 143.65 2518.5
-348.14 141.84 2486.7
-333.66 138.50 2428.3
-325.21 137.59 2412.3
-324.04 139.78 2450.7
-323.82 142.48 2498.1
-322.48 144.79 2538.5
-317.48 145.51 2551.2
-304.32 142.45 2497.5
-291.08 139.21 2440.8
-293.63 143.55 2516.9
-299.41 149.71 2624.7
-292.47 149.64 2623.5
-284.99 149.28 2617.3
-281.45 151.02 2647.8
-275.18 151.35 2653.5
-265.76 149.91 2628.3
-258.32 149.55 2622.1
-245.29 145.85 2557.1
-229.72 140.39 2461.3
-223.21 140.31 2459.9
-222.15 143.74 2520.1
-216.77 144.51 2533.6
-206.78 142.16 2492.4
-197.40 140.09 2456.1
-192.85 141.42 2479.5
-189.60 143.84 2521.8
-182.09 143.07 2508.3
-174.08 141.84 2486.9
-169.07 143.06 2508.2
-162.79 143.26 2511.7
-152.77 140.04 2455.3
-143.70 137.45 2409.8
-135.65 135.65 2378.3
-129.61 135.78 2380.6
-125.37 137.91 2417.8
-119.56 138.44 2427.1
-112.53 137.54 2411.5
-105.24 136.19 2387.8
-99.97 137.46 2410.0
-95.36 139.86 2452.2
-88.00 138.28 2424.5
-80.61 136.42 2391.8
-74.54 136.66 2395.9
-68.93 137.86 2417.1
-64.71 142.37 2496.1
-58.08 141.98 2489.3
-50.35 138.46 2427.5
-44.51 139.89 2452.6
-39.21 143.77 2520.6
-33.63 147.99 2594.6
-27.00 148.50 2603.6
-19.86 145.66 2553.8
-13.45 147.94 2593.7
-6.95 152.90 2680.6
0.00 153.47 2690.6
7.09 156.08 2736.5
-421.25 140.42 2579.1
-400.94 135.80 2494.3
-400.25 137.79 2530.8
-397.37 139.08 2554.5
-381.84 135.91 2496.3
-378.04 136.88 2514.1
-376.04 138.54 2544.6
-363.84 136.44 2506.1
-353.11 134.82 2476.3
-351.38 136.65 2509.8
-346.08 137.13 2518.6
-333.40 134.64 2473.0
-328.27 135.17 2482.7
-325.67 136.78 2512.3
-321.65 137.85 2531.9
-313.58 137.19 2519.9
-297.48 132.92 2441.4
-291.72 133.17 2446.1
-301.20 140.56 2581.7
-287.95 143.98 2644.5
-279.38 143.10 2628.3
-259.14 143.21 2630.4
-242.09 137.40 2523.7
-232.63 135.70 2492.5
-231.28 138.77 2548.8
-226.65 139.99 2571.2
-218.25 138.88 2550.9
-207.22 135.99 2497.7
-197.03 133.47 2451.5
-192.80 134.96 2478.9
-189.63 137.32 2522.2
-180.09 135.07 2480.8
-170.48 132.60 2435.4
-164.33 132.73 2437.9
-157.20 132.05 2425.3
-151.24 132.34 2430.7
-145.74 133.06 2444.0
-137.83 131.56 2416.5
-131.80 131.80 2420.8
-126.47 132.80 2439.1
-119.67 132.27 2429.5
-115.20 134.40 2468.7
-101.60 133.35 2449.3
-94.02 131.62 2417.6
-87.87 131.80 2420.8
-81.67 131.92 2423.0
-75.82 132.69 2437.2
-70.45 134.50 2470.3
-64.54 135.54 2489.5
-56.53 131.91 2422.8
-43.96 131.87 2422.0
-38.47 134.64 2473.0
-32.77 137.64 2528.0
-27.05 141.99 2608.0
-20.49 143.46 2635.0
-13.59 142.70 2621.1
-6.87 144.23 2649.1
0.00 143.36 2633.1
6.87 144.34 2651.1
14.31 150.26 2759.9
21.83 152.81 2806.8
28.98 152.16 2794.7
35.98 151.12 2775.7
42.91 150.19 2758.6
50.33 151.00 2773.4
-425.00 134.92 2602.1
-408.44 131.76 2541.0
-398.43 130.63 2519.3
-388.06 129.35 2494.7
-375.25 127.20 2453.2
-373.34 128.74 2482.8
-369.81 129.76 2502.5
-356.57 127.35 2456.0
-348.08 126.57 2441.1
-347.83 128.82 2484.5
-345.72 130.46 2516.0
-336.64 129.48 2497.1
-327.01 128.24 2473.2
-319.81 127.92 2467.1
-317.54 129.61 2499.6
-311.41 129.75 2502.4
-301.15 128.15 2471.4
-301.45 131.07 2527.7
-299.27 133.01 2565.2
-292.37 132.89 2563.0
-289.46 134.63 2596.4
-280.97 133.79 2580.3
-265.38 129.45 2496.6
-255.37 127.69 2462.5
-252.57 129.52 2497.9
-243.90 128.37 2475.7
-232.87 125.88 2427.6
-228.67 127.04 2450.1
-228.69 130.68 2520.3
-225.45 132.62 2557.7
-218.45 132.39 2553.3
-208.65 130.41 2515.0
-200.97 129.66 2500.6
-198.71 132.47 2554.9
-184.60 131.85 2542.9
-172.95 128.11 2470.6
-165.36 127.20 2453.1
-157.86 126.29 2435.6
-151.70 126.42 2438.0
-146.23 127.16 2452.4
-138.30 125.73 2424.8
-129.27 123.11 2374.3
-121.27 121.27 2338.7
-116.10 122.21 2357.0
-113.17 125.75 2425.1
-102.40 128.00 2468.6
-92.05 122.74 2367.0
-74.69 124.48 2400.6
-69.29 125.99 2429.7
-63.44 126.88 2446.9
-57.42 127.61 2461.0
-51.90 129.74 2502.1
-45.25 129.28 2493.2
-38.74 129.13 2490.4
-32.71 130.84 2523.4
-26.70 133.49 2574.4
-20.62 137.48 2651.4
-13.93 139.29 2686.4
-6.94 138.83 2677.4
0.00 135.88 2620.5
13.69 136.91 2640.4
21.25 141.67 2732.2
28.69 143.43 2766.1
36.30 145.19 2800.0
44.21 147.35 2841.8
50.59 144.55 2787.8
58.05 145.11 2798.6
-413.25 126.64 2570.9
-406.13 126.50 2568.0
-396.10 125.43 2546.3
-383.60 123.53 2507.8
-377.54 123.68 2510.8
-370.15 123.38 2504.8
-356.33 120.90 2454.3
-347.56 120.07 2437.4
-345.52 121.57 2468.0
-341.96 122.59 2488.6
-332.55 121.51 2466.7
-322.47 120.14 2438.8
-318.43 121.01 2456.5
-319.22 123.78 2512.8
-313.67 124.16 2520.5
-304.45 123.07 2498.5
-301.02 124.33 2524.1
-295.61 124.81 2533.8
-287.54 124.16 2520.6
-282.74 124.93 2536.2
-276.03 124.87 2535.0
-262.77 121.77 2472.1
-252.11 119.75 2431.0
-247.58 120.61 2448.6
-243.35 121.67 2470.1
-237.10 121.75 2471.7
-231.12 121.98 2476.2
-229.44 124.55 2528.6
-226.10 126.35 2565.0
-219.24 126.23 2562.5
-211.32 125.47 2547.2
-205.00 125.65 2550.7
-199.51 126.36 2565.2
-192.90 126.38 2565.7
-184.76 125.38 2545.2
-174.92 123.09 2498.9
-167.46 122.38 2484.4
-160.21 121.76 2471.8
-151.53 119.96 2435.3
-143.58 118.61 2407.8
-137.30 118.58 2407.2
-129.88 117.51 2385.6
-121.75 115.66 2348.0
-116.36 116.36 2362.3
-111.98 118.20 2399.5
-107.39 120.03 2436.7
-101.83 120.93 2454.9
-93.03 117.84 2392.3
-85.68 116.28 2360.6
-82.16 120.08 2437.7
-76.12 120.53 2446.9
-69.27 119.65 2429.1
-62.93 119.56 2427.2
-56.48 119.23 2420.4
-52.13 123.81 2513.4
-46.43 126.03 2558.5
-39.66 125.59 2549.6
-33.39 126.88 2575.7
-26.78 127.22 2582.7
-20.31 128.60 2610.8
-13.92 132.20 2683.7
-7.03 133.58 2711.7
0.00 132.84 2696.7
7.02 133.38 2707.7
13.94 132.44 2688.7
21.00 132.98 2699.6
28.58 135.73 2755.5
36.53 138.83 2818.3
44.38 140.55 2853.2
50.67 137.54 2792.2
57.83 137.34 2788.0
-417.11 121.10 2594.9
-411.64 121.47 2602.9
-402.44 120.73 2587.1
-389.99 118.98 2549.6
-384.13 119.21 2554.5
-378.81 119.63 2563.4
-366.56 117.82 2524.8
-352.68 115.42 2473.3
-346.25 115.42 2473.2
-343.77 116.75 2501.8
-335.66 116.19 2489.8
-326.31 115.17 2467.9
-322.58 116.13 2488.5
-316.86 116.40 2494.3
-305.07 114.40 2451.4
-298.32 114.25 2448.2
-297.27 116.32 2492.6
-290.43 116.17 2489.4
-280.89 114.91 2462.4
-278.68 116.66 2499.8
-274.87 117.80 2524.3
-267.77 117.56 2519.1
-262.85 118.28 2534.7
-259.46 119.75 2566.1
-246.86 120.09 2573.4
-238.29 119.15 2553.1
-230.01 118.29 2534.8
-221.04 117.02 2507.6
-219.44 119.69 2564.8
-207.27 120.35 2578.9
-199.61 119.77 2566.5
-190.30 118.12 2531.1
-179.87 115.63 2477.8
-174.38 116.26 2491.2
-170.51 118.04 2529.5
-161.39 116.20 2490.1
-151.12 113.34 2428.7
-144.78 113.31 2428.0
-139.70 114.30 2449.4
-132.40 113.48 2431.8
-124.40 111.96 2399.2
-118.59 112.35 2407.5
-113.81 113.81 2438.7
-106.92 113.21 2426.0
-99.28 111.69 2393.3
-93.67 112.40 2408.6
-89.13 114.60 2455.7
-83.88 116.15 2488.9
-76.41 114.62 2456.1
-69.08 113.04 2422.4
-62.21 111.98 2399.6
-45.22 116.29 2491.9
-40.35 121.05 2593.9
-34.43 123.94 2655.9
-20.82 124.93 2677.0
-13.97 125.77 2695.0
13.78 124.04 2658.1
20.84 125.02 2679.0
28.48 128.14 2745.9
36.37 130.93 2805.7
44.11 132.33 2835.6
50.46 129.76 2780.5
57.65 129.70 2779.4
66.55 133.10 2852.1
-414.93 113.77 2581.4
-408.41 113.82 2582.4
-405.40 114.86 2606.2
-397.44 114.52 2598.3
-388.92 113.99 2586.4
-381.34 113.73 2580.5
-375.65 114.04 2587.4
-367.38 113.56 2576.5
-351.00 110.50 2507.1
-339.45 108.88 2470.4
-333.56 109.05 2474.2
-326.47 108.82 2469.1
-324.42 110.30 2502.7
-320.55 111.21 2523.3
-308.56 109.28 2479.5
-301.50 109.05 2474.3
-297.42 109.92 2493.9
-287.92 108.77 2467.9
-276.74 106.92 2425.9
-272.18 107.61 2441.5
-272.85 110.44 2505.8
-269.81 111.87 2538.3
-262.88 111.73 2535.0
-257.59 112.28 2547.6
-252.61 113.01 2564.1
-242.31 111.33 2526.0
-234.51 110.74 2512.7
-226.88 110.20 2500.3
-215.10 107.55 2440.2
-210.69 108.54 2462.6
-210.88 112.03 2541.8
-205.45 112.67 2556.3
-199.09 112.82 2559.8
-191.22 112.10 2543.4
-182.42 110.76 2513.0
-178.17 112.18 2545.3
-171.27 111.98 2540.8
-159.67 108.57 2463.4
-151.82 107.54 2439.9
-147.60 109.09 2475.2
-140.80 108.80 2468.6
-131.81 106.71 2421.1
-123.59 105.05 2383.5
-117.57 105.20 2386.8
-113.45 107.14 2431.0
-107.02 107.02 2428.3
-99.42 105.63 2396.6
-93.95 106.48 2415.8
-87.55 106.31 2412.1
-80.63 105.44 2392.3
-76.45 108.31 2457.4
-71.91 111.13 2521.5
-65.87 111.98 2540.7
-58.47 110.44 2505.9
-50.13 106.53 2417.1
-44.49 108.04 2451.2
-39.30 111.34 2526.2
-33.21 112.93 2562.3
-27.42 116.54 2644.3
-20.63 116.90 2652.3
-13.85 117.69 2670.4
0.00 120.60 2736.3
6.87 116.73 2648.4
20.66 117.08 2656.3
28.33 120.42 2732.2
36.19 123.06 2792.1
44.36 125.69 2851.9
51.43 124.90 2833.8
58.44 124.19 2817.7
-411.02 106.07 2557.0
-401.58 105.33 2539.3
-396.38 105.70 2548.2
-389.33 105.58 2545.2
-380.94 105.09 2533.4
-369.26 103.65 2498.7
-360.47 102.99 2482.9
-364.04 105.90 2553.0
-357.96 106.06 2556.9
-337.31 101.83 2454.8
-323.37 101.45 2445.6
-328.82 105.22 2536.6
-305.88 104.13 2510.3
-296.75 103.22 2488.2
-292.35 103.95 2505.9
-286.50 104.18 2511.6
-277.86 103.39 2492.4
-273.85 104.33 2515.0
-270.36 105.51 2543.5
-263.33 105.33 2539.2
-252.09 103.42 2493.2
-241.37 101.63 2450.0
-234.03 101.20 2439.7
-229.15 101.85 2455.2
-227.45 103.98 2506.6
-221.26 104.12 2510.1
-212.76 103.16 2486.8
-209.25 104.62 2522.2
-204.35 105.47 2542.6
-198.42 105.82 2551.1
-191.32 105.56 2544.6
-183.53 104.87 2528.2
-175.47 103.98 2506.7
-165.31 101.73 2452.3
-156.39 100.09 2412.9
-151.03 100.68 2427.2
-142.62 99.21 2391.7
-123.50 98.80 2381.8
-118.37 99.68 2403.0
-115.00 102.22 2464.2
-108.66 102.27 2465.5
-101.17 101.17 2438.8
-94.50 100.80 2430.1
-86.98 99.40 2396.4
-80.61 99.21 2391.6
-76.93 102.57 2472.7
-72.43 105.35 2539.8
-66.27 106.02 2555.9
-59.71 106.16 2559.1
-52.07 104.13 2510.3
-45.36 103.68 2499.4
-39.22 104.60 2521.5
-32.35 103.52 2495.6
-26.11 104.44 2517.7
-20.03 106.80 2574.7
-13.71 109.71 2644.7
-7.00 112.03 2700.7
0.00 111.07 2677.7
6.80 108.88 2624.7
35.30 112.97 2723.4
44.01 117.36 2829.2
50.89 116.32 2804.1
57.74 115.48 2784.0
-425.73 101.36 2606.5
-417.88 101.10 2599.7
-397.96 99.49 2558.3
-379.24 96.42 2479.3
-375.78 97.18 2499.0
-368.71 97.03 2495.0
-353.76 94.76 2436.6
-351.80 95.95 2467.2
-355.78 98.83 2541.3
-344.42 97.48 2506.6
-322.22 94.77 2437.0
-322.69 96.81 2489.3
-316.09 96.76 2488.1
-312.45 97.64 2510.8
-306.16 97.71 2512.5
-292.63 95.42 2453.8
-283.35 94.45 2428.7
-283.25 96.56 2483.0
-280.55 97.86 2516.5
-272.48 97.31 2502.3
-265.32 97.07 2496.1
-260.57 97.71 2512.6
-252.01 96.93 2492.4
-241.40 95.29 2450.3
-234.06 94.89 2440.0
-226.49 94.37 2426.6
-222.14 95.20 2448.1
-222.60 98.21 2525.3
-220.19 100.09 2573.7
-212.90 99.80 2566.3
-204.53 98.97 2544.9
-198.36 99.18 2550.4
-191.04 98.81 2540.9
-181.88 97.44 2505.5
-172.49 95.83 2464.1
-164.72 95.03 2443.6
-157.83 94.70 2435.1
-150.36 93.98 2416.5
-122.89 92.17 2370.0
-119.32 94.20 2422.2
-115.43 96.19 2473.4
-108.72 95.93 2466.7
-100.55 94.27 2424.1
-93.31 93.31 2399.4
-86.77 92.97 2390.6
-81.25 93.75 2410.8
-75.54 94.42 2428.0
-69.31 94.51 2430.2
-63.53 95.29 2450.3
-57.29 95.49 2455.5
-52.07 97.63 2510.6
-47.38 101.52 2610.6
-41.28 103.20 2653.7
-34.27 102.81 2643.8
-27.08 101.53 2610.9
-20.37 101.85 2618.9
-13.65 102.39 2633.0
-6.83 102.43 2634.0
0.00 104.92 2698.0
7.09 106.36 2734.9
13.92 104.41 2684.9
20.59 102.94 2646.9
27.78 104.18 2678.8
36.38 109.15 2806.6
44.40 111.01 2854.5
50.17 107.51 2764.5
65.62 109.36 2812.1
-426.95 93.40 2573.1
-414.82 92.18 2539.7
-412.36 93.11 2565.4
-405.56 93.08 2564.5
-378.05 91.25 2514.1
-373.57 91.75 2527.9
-361.12 90.28 2487.3
-352.26 89.67 2470.4
-350.28 90.81 2502.0
-345.95 91.38 2517.7
-334.33 90.01 2479.9
-326.71 89.68 2470.9
-323.23 90.51 2493.5
-310.45 88.70 2443.8
-304.37 90.66 2497.9
-301.07 91.63 2524.5
-284.88 88.63 2441.8
-277.05 88.15 2428.7
-277.69 90.41 2490.9
-273.26 91.09 2509.5
-263.34 89.92 2477.4
-255.85 89.55 2467.2
-249.12 89.43 2463.8
-240.54 88.62 2441.6
-235.80 89.22 2458.1
-230.78 89.75 2472.6
-221.98 88.79 2446.3
-218.06 89.79 2473.8
-214.93 91.18 2512.2
-206.89 90.52 2493.8
-198.95 89.85 2475.4
-193.03 90.08 2481.9
-188.66 91.08 2509.3
-182.04 91.02 2507.8
-173.34 89.88 2476.3
-166.01 89.39 2462.8
-159.26 89.19 2457.2
-152.11 88.73 2444.7
-144.43 87.91 2422.1
-136.24 86.70 2388.5
-130.22 86.82 2391.9
-126.16 88.31 2433.1
-120.66 88.90 2449.4
-114.83 89.31 2460.7
-107.19 88.27 2432.0
-98.12 85.86 2365.4
-92.35 86.19 2374.6
-87.21 87.21 2402.8
-81.33 87.58 2413.0
-75.17 87.70 2416.2
-69.68 88.69 2443.4
-64.57 90.40 2490.5
-58.44 90.91 2504.7
-53.32 93.31 2570.8
-48.00 96.00 2644.8
-41.35 96.47 2657.9
-34.15 95.61 2634.0
-26.83 93.90 2587.2
-20.22 94.34 2599.2
-13.58 95.07 2619.2
-6.80 95.18 2622.3
0.00 97.68 2691.2
7.14 99.89 2752.2
14.12 98.84 2723.2
21.15 98.69 2719.1
28.91 101.19 2788.0
51.10 102.20 2815.7
58.81 102.92 2835.5
65.67 102.15 2814.4
72.18 101.06 2784.2
81.36 103.55 2853.0
-429.12 87.16 2586.2
-420.17 86.70 2572.5
-412.88 86.57 2568.6
-402.01 85.67 2542.0
-385.74 83.58 2479.8
-381.73 84.11 2495.6
-379.86 85.14 2526.2
-370.09 84.41 2504.4
-354.98 82.41 2445.0
-344.90 83.03 2463.6
-343.67 84.30 2501.1
-334.63 83.66 2482.1
-329.75 84.05 2493.9
-327.37 85.12 2525.4
-315.89 83.81 2486.6
-302.02 81.80 2426.9
-301.26 83.33 2472.3
-299.67 84.69 2512.8
-285.72 82.54 2449.0
-278.88 82.40 2444.8
-280.15 84.70 2513.0
-275.45 85.26 2529.6
-265.48 84.18 2497.5
-254.33 82.66 2452.5
-244.01 81.34 2413.3
-238.11 81.46 2416.9
-235.72 82.82 2457.3
-231.82 83.71 2483.8
-224.44 83.36 2473.4
-219.40 83.89 2488.9
-215.12 84.74 2514.4
-207.24 84.19 2498.0
-198.97 83.44 2475.6
-190.73 82.65 2452.2
-183.88 82.43 2445.7
-179.09 83.15 2467.1
-172.24 82.93 2460.6
-163.47 81.74 2425.1
-155.47 80.84 2398.6
-151.32 81.96 2431.9
-146.23 82.65 2452.3
-135.17 79.87 2369.8
-124.93 81.21 2409.4
-121.70 83.27 2470.6
-114.94 83.01 2462.9
-106.41 81.37 2414.3
-86.71 80.52 2389.1
-81.47 81.47 2417.3
-76.39 82.76 2455.4
-71.83 84.88 2518.5
-65.90 85.66 2541.7
-58.94 85.13 2525.9
-52.27 84.93 2520.0
-45.72 84.90 2519.2
-39.90 86.46 2565.2
-33.38 86.80 2575.3
-26.27 85.39 2533.4
-13.62 88.56 2627.5
-6.97 90.58 2687.5
0.00 90.34 2680.5
6.89 89.53 2656.5
13.77 89.53 2656.5
20.85 90.34 2680.4
28.19 91.62 2718.3
35.78 93.03 2760.2
44.04 95.42 2831.1
72.45 94.18 2794.5
80.14 94.72 2810.3
-399.14 79.83 2565.9
-390.98 79.52 2556.0
-385.84 79.83 2565.9
-378.01 79.58 2558.0
-364.48 78.10 2510.5
-352.18 76.84 2469.8
-352.41 78.31 2517.2
-344.65 78.03 2508.2
-329.85 76.12 2446.7
-322.31 75.84 2437.6
-317.38 76.17 2448.3
-315.16 77.18 2480.9
-309.94 77.49 2490.6
-301.16 76.89 2471.5
-291.65 76.08 2445.5
-282.38 75.30 2420.4
-280.27 76.44 2456.9
-276.52 77.17 2480.4
-267.25 76.36 2454.3
-258.53 75.67 2432.1
-244.54 75.24 2418.5
-244.21 77.12 2478.8
-237.94 77.17 2480.4
-230.35 76.78 2468.1
-224.10 76.83 2469.7
-219.85 77.60 2494.1
-216.76 78.82 2533.5
-209.99 78.74 2531.1
-201.30 77.92 2504.7
-192.45 76.98 2474.3
-183.82 76.06 2444.9
-177.23 75.95 2441.4
-170.44 75.75 2434.9
-161.87 74.71 2401.4
-154.25 74.04 2379.9
-150.28 75.14 2415.2
-146.36 76.36 2454.5
-136.15 74.26 2387.0
-124.06 74.44 2392.6
-120.48 76.09 2445.9
-113.59 75.73 2434.2
-108.09 76.30 2452.4
-101.62 76.21 2449.7
-94.23 75.38 2423.0
-88.43 75.79 2436.2
-83.13 76.73 2466.4
-78.04 78.04 2508.6
-72.46 79.05 2540.7
-65.62 78.74 2530.9
-58.87 78.50 2523.1
-52.40 78.59 2526.2
-45.96 78.78 2532.4
-40.23 80.47 2586.4
-34.06 81.74 2627.5
-27.11 81.34 2614.6
-20.49 81.97 2634.6
-14.08 84.49 2715.6
0.00 83.83 2694.7
6.89 82.72 2658.7
13.72 82.31 2645.7
20.70 82.81 2661.6
27.94 83.83 2694.6
35.07 84.17 2705.5
42.64 85.29 2741.3
50.09 85.87 2760.2
57.10 85.65 2753.1
65.91 87.88 2824.9
74.01 88.81 2854.7
80.86 88.21 2835.5
-450.82 76.29 2675.2
-438.51 75.37 2642.8
-436.67 76.24 2673.5
-412.53 74.39 2608.5
-399.33 73.21 2567.1
-398.42 74.28 2604.7
-388.84 73.75 2585.9
-377.75 72.90 2556.2
-370.97 72.87 2555.2
-364.34 72.87 2555.1
-356.88 72.70 2549.1
-342.09 71.00 2489.6
-331.08 70.04 2455.8
-327.44 70.62 2476.4
-322.41 70.93 2487.2
-319.60 71.75 2515.8
-312.80 71.68 2513.6
-302.39 70.77 2481.6
-295.81 70.74 2480.4
-289.35 70.73 2480.2
-282.89 70.72 2479.9
-274.88 70.32 2465.7
-267.81 70.14 2459.5
-260.87 69.99 2454.2
-256.12 70.43 2469.8
-256.82 72.44 2540.0
-250.89 72.63 2546.6
-240.05 71.37 2502.5
-232.51 71.04 2491.2
-226.28 71.12 2493.7
-219.43 70.99 2489.3
-213.54 71.18 2495.9
-208.02 71.51 2507.4
-200.92 71.29 2499.9
-191.30 70.14 2459.6
-181.89 68.99 2419.2
-176.37 69.29 2429.6
-170.66 69.53 2438.0
-162.83 68.89 2415.5
-155.75 68.53 2403.0
-149.48 68.51 2402.4
-143.16 68.47 2400.8
-138.60 69.30 2430.1
-134.12 70.25 2463.4
-128.52 70.69 2478.7
-122.06 70.67 2478.0
-113.42 69.31 2430.4
-106.07 68.64 2406.7
-100.30 68.96 2417.9
-93.61 68.65 2407.2
-87.56 68.80 2412.4
-82.19 69.55 2438.6
-77.18 70.75 2480.8
-71.67 71.67 2513.0
-65.18 71.70 2514.1
-58.78 71.85 2519.3
-53.52 73.59 2580.4
-48.16 75.67 2653.5
-41.45 75.99 2664.6
-34.43 75.74 2655.7
-27.83 76.54 2683.8
-7.11 78.19 2741.9
0.00 76.88 2695.9
6.90 75.89 2660.9
13.85 76.17 2670.9
21.09 77.34 2711.8
28.39 78.08 2737.7
35.54 78.19 2741.7
42.49 77.90 2731.6
48.95 76.93 2697.5
72.69 79.96 2803.9
82.55 82.55 2894.6
98.35 83.22 2918.2
-443.21 68.19 2630.0
-436.90 68.27 2633.1
-427.03 67.78 2614.5
-415.67 67.04 2585.9
-406.79 66.69 2572.2
-402.58 67.10 2588.0
-393.77 67.89 2618.7
-375.29 65.84 2539.6
-362.10 64.66 2494.0
-357.45 64.99 2506.8
-351.50 65.09 2510.7
-343.34 64.78 2498.7
-338.58 65.11 2511.4
-329.82 64.67 2494.5
-320.12 64.02 2469.5
-319.37 65.18 2514.0
-314.43 65.51 2526.7
-302.53 64.37 2482.8
-294.18 63.95 2466.7
-289.61 64.36 2482.3
-284.61 64.68 2495.0
-279.11 64.91 2503.7
-274.00 65.24 2516.3
-265.75 64.82 2500.1
-259.75 64.94 2504.7
-255.33 65.47 2525.3
-245.32 64.56 2490.1
-240.74 65.06 2509.6
-229.19 65.48 2525.8
-218.48 64.26 2478.6
-211.76 64.17 2475.1
-205.47 64.21 2476.7
-198.69 64.09 2472.2
-189.69 63.23 2438.8
-181.38 62.54 2412.4
-176.75 63.12 2434.8
-171.65 63.57 2452.2
-164.11 63.12 2434.7
-155.82 62.33 2404.1
-148.44 61.85 2385.6
-142.39 61.91 2388.0
-137.82 62.64 2416.3
-133.04 63.35 2443.6
-127.34 63.67 2455.9
-121.88 64.15 2474.2
-114.17 63.43 2446.5
-106.21 62.48 2409.9
-99.69 62.30 2403.1
-91.87 61.25 2362.4
-80.41 61.86 2385.8
-76.50 63.75 2459.0
-70.53 64.12 2473.2
-63.50 63.50 2449.4
-58.20 64.67 2494.5
-53.90 67.37 2598.6
-34.31 68.62 2646.9
-26.90 67.25 2594.0
-20.67 68.89 2657.0
-13.91 69.53 2682.1
-6.96 69.61 2685.1
0.00 69.30 2673.1
6.97 69.74 2690.1
14.31 71.53 2759.0
21.62 72.07 2780.0
28.86 72.15 2782.9
35.94 71.89 2772.8
42.74 71.24 2747.7
50.05 71.49 2757.6
57.23 71.54 2759.5
81.50 74.09 2857.9
90.33 75.28 2903.6
121.89 76.18 2938.5
-469.17 62.10 2661.2
-463.84 62.31 2670.3
-456.95 62.31 2670.5
-450.38 62.36 2672.6
-437.42 61.51 2636.2
-421.90 60.27 2583.1
-414.27 60.14 2577.2
-408.84 60.32 2585.2
-401.38 60.21 2580.3
-398.17 60.74 2603.0
-384.82 60.76 2604.0
-365.85 58.80 2519.9
-355.64 58.20 2494.1
-348.74 58.12 2491.0
-339.69 57.68 2472.1
-336.06 58.16 2492.8
-328.27 57.93 2482.7
-314.10 56.54 2423.1
-309.31 56.81 2434.8
-308.15 57.78 2476.2
-300.01 57.45 2462.1
-291.59 57.05 2445.0
-287.08 57.42 2460.6
-282.36 57.76 2475.3
-277.25 58.03 2486.9
-274.23 58.76 2518.4
-267.99 58.83 2521.1
-255.02 57.38 2459.1
-244.39 56.40 2417.0
-239.55 56.74 2431.6
-239.70 58.31 2498.9
-228.48 58.75 2518.0
-216.48 57.30 2455.8
-208.20 56.78 2433.5
-203.58 57.26 2453.9
-198.30 57.57 2467.4
-190.32 57.10 2446.9
-183.34 56.90 2438.5
-178.21 57.28 2454.9
-172.22 57.41 2460.3
-165.94 57.44 2461.7
-158.81 57.17 2450.2
-151.36 56.76 2432.6
-145.26 56.84 2436.0
-140.16 57.34 2457.3
-134.79 57.77 2475.7
-127.14 57.21 2452.0
-119.92 56.80 2434.4
-114.32 57.16 2449.7
-108.42 57.40 2459.9
-101.31 56.99 2442.2
-92.69 55.62 2383.6
-86.23 55.44 2375.8
-82.67 57.24 2452.9
-77.84 58.38 2502.1
-70.93 58.04 2487.3
-64.90 58.41 2503.5
-60.40 60.40 2588.6
-54.52 61.34 2628.7
-48.22 61.99 2656.8
-41.87 62.81 2691.9
-33.81 60.85 2608.1
-20.02 60.07 2574.2
-13.61 61.23 2624.3
-6.88 61.89 2652.3
0.00 62.21 2666.3
7.03 63.29 2712.3
14.36 64.64 2770.2
21.61 64.82 2778.2
28.92 65.08 2789.1
36.11 65.01 2786.0
43.20 64.79 2776.9
51.05 65.63 2812.8
58.52 65.84 2821.6
65.16 65.16 2792.5
72.19 64.97 2784.3
80.51 65.87 2823.1
98.37 68.10 2918.5
106.25 68.30 2927.3
113.40 68.04 2916.0
122.31 68.80 2948.7
129.15 68.38 2930.4
-455.65 54.41 2623.2
-456.30 55.31 2666.7
-452.40 55.68 2684.6
-441.54 55.19 2661.1
-423.70 53.80 2594.1
-413.34 53.33 2571.4
-412.14 54.05 2606.1
-408.62 54.48 2626.9
-395.47 53.62 2585.4
-384.75 53.07 2558.7
-380.75 53.44 2576.5
-368.89 52.70 2540.8
-360.32 52.41 2526.9
-354.31 52.49 2530.8
-340.66 51.42 2479.2
-332.88 51.21 2469.1
-331.04 51.93 2503.7
-322.47 51.60 2487.7
-312.22 50.97 2457.7
-305.70 50.95 2456.5
-299.79 51.03 2460.3
-293.97 51.13 2465.0
-290.80 51.70 2492.6
-287.14 52.21 2517.1
-278.15 51.75 2495.0
-271.32 51.68 2491.7
-266.42 51.98 2506.3
-254.93 50.99 2458.3
-246.92 50.65 2442.0
-244.57 51.49 2482.5
-238.86 51.65 2490.0
-231.90 51.53 2484.7
-225.24 51.48 2482.3
-216.49 50.94 2456.0
-205.82 49.90 2405.7
-198.64 49.66 2394.3
-195.27 50.39 2429.6
-189.17 50.44 2432.1
-183.20 50.54 2436.6
-178.94 51.13 2465.0
-170.91 50.64 2441.5
-162.65 50.05 2413.0
-157.46 50.39 2429.4
-151.87 50.62 2440.8
-146.40 50.92 2455.1
-142.05 51.65 2490.4
-135.50 51.62 2488.8
-126.63 50.65 2442.2
-119.87 50.47 2433.5
-114.70 50.98 2457.8
-107.11 50.40 2430.1
-98.29 49.14 2369.5
-93.59 49.92 2406.7
-90.73 51.85 2499.8
-84.09 51.75 2495.0
-76.42 50.95 2456.3
-71.25 51.82 2498.4
-66.70 53.36 2572.6
-60.50 53.78 2592.7
-53.18 53.18 2563.9
-47.09 53.82 2595.0
-41.02 54.70 2637.1
-34.52 55.24 2663.2
-28.02 56.05 2702.3
-20.90 55.74 2687.3
-13.88 55.53 2677.4
-6.92 55.32 2667.4
0.00 54.81 2642.4
6.91 55.26 2664.4
13.98 55.92 2696.4
20.85 55.59 2680.3
27.64 55.28 2665.3
35.31 56.50 2724.2
43.31 57.74 2784.1
51.12 58.43 2816.9
58.59 58.59 2824.8
66.16 58.81 2835.6
82.48 59.99 2892.2
105.24 60.14 2899.5
113.99 60.79 2931.2
-466.44 48.02 2645.8
-458.58 47.91 2640.0
-458.85 48.67 2681.6
-454.25 48.92 2695.6
-430.01 47.78 2632.7
-418.28 47.22 2602.2
-415.76 47.71 2628.9
-405.87 47.35 2609.2
-386.57 45.86 2527.2
-376.30 45.41 2502.5
-372.72 45.77 2522.2
-367.33 45.92 2530.1
-364.00 46.33 2552.8
-356.82 46.25 2548.7
-342.17 45.19 2490.2
-332.63 44.78 2467.3
-329.35 45.21 2490.9
-322.75 45.18 2489.8
-313.88 44.84 2470.7
-305.59 44.57 2455.7
-297.87 44.36 2444.5
-293.75 44.70 2463.1
-292.09 45.44 2503.6
-270.69 45.11 2485.9
-259.77 44.35 2443.8
-251.96 44.09 2429.6
-247.33 44.39 2446.1
-245.56 45.23 2492.5
-240.59 45.52 2508.1
-232.56 45.22 2491.8
-224.98 45.00 2479.4
-217.03 44.68 2462.0
-206.94 43.90 2418.8
-200.05 43.76 2411.3
-196.96 44.48 2450.7
-187.86 43.83 2415.3
-179.16 43.24 2382.9
-176.56 44.14 2432.2
-169.80 44.02 2425.7
-161.92 43.59 2402.2
-157.21 44.02 2425.5
-150.32 43.84 2415.9
-143.61 43.71 2408.3
-139.78 44.47 2450.6
-133.77 44.59 2457.0
-125.24 43.83 2415.4
-118.75 43.75 2410.7
-114.47 44.52 2452.9
-107.64 44.32 2442.2
-98.50 43.09 2374.6
-93.44 43.61 2402.8
-89.98 44.99 2479.0
-82.55 44.45 2449.2
-75.58 44.09 2429.4
-70.97 45.16 2488.6
-66.36 46.45 2559.7
-60.10 46.75 2575.9
-53.35 46.68 2572.0
-47.77 47.77 2632.1
-41.85 48.82 2690.2
-14.11 49.39 2721.5
-6.99 48.90 2694.5
0.00 47.89 2638.6
6.82 47.76 2631.6
13.97 48.90 2694.5
21.04 49.10 2705.5
28.11 49.19 2710.4
36.24 50.73 2795.3
43.03 50.20 2766.2
49.00 49.00 2700.1
58.32 51.03 2811.9
83.23 52.96 2918.3
105.50 52.75 2906.6
113.30 52.87 2913.3
-460.14 41.21 2649.0
-452.12 41.10 2642.3
-448.79 41.43 2663.1
-441.91 41.43 2663.3
-422.93 40.28 2589.4
-408.45 39.53 2541.1
-400.78 39.42 2534.2
-386.22 38.62 2482.8
-378.87 38.53 2476.9
-378.54 39.16 2517.4
-372.30 39.19 2519.3
-364.47 39.05 2510.4
-361.76 39.46 2537.0
-354.76 39.42 2534.0
-343.27 38.86 2498.2
-336.51 38.83 2496.1
-327.80 38.56 2479.1
-315.95 37.91 2437.3
-312.38 38.25 2458.9
-308.82 38.60 2481.6
-300.18 38.32 2463.5
-294.95 38.47 2473.2
-285.96 38.13 2451.1
-277.08 37.78 2429.0
-275.18 38.40 2468.4
-267.34 38.19 2455.2
-257.14 37.63 2419.1
-249.49 37.42 2405.8
-244.63 37.63 2419.4
-242.83 38.34 2464.8
-238.59 38.69 2487.3
-231.18 38.53 2476.9
-227.88 39.07 2511.4
-212.83 38.70 2487.6
-205.10 38.46 2472.2
-201.14 38.93 2502.6
-191.43 38.29 2461.3
-178.57 36.94 2375.0
-172.01 36.86 2369.5
-168.69 37.49 2409.8
-163.75 37.79 2429.2
-158.38 38.01 2443.6
-150.83 37.71 2424.0
-143.14 37.34 2400.4
-138.36 37.73 2425.8
-132.58 37.88 2435.1
-124.21 37.26 2395.5
-117.18 37.00 2378.8
-112.47 37.49 2410.1
-108.96 38.46 2472.3
-102.77 38.54 2477.6
-94.38 37.75 2426.9
-87.73 37.60 2417.1
-81.57 37.65 2420.3
-75.99 37.99 2442.5
-71.40 38.95 2503.7
-66.81 40.08 2576.8
-60.85 40.57 2608.0
-54.34 40.76 2620.1
-48.06 41.19 2648.2
-41.54 41.54 2670.4
-34.89 41.87 2691.4
-28.09 42.13 2708.5
-21.04 42.07 2704.6
-13.93 41.79 2686.6
-6.94 41.64 2676.7
0.00 41.03 2637.7
6.92 41.50 2667.7
14.37 43.10 2770.6
21.40 42.80 2751.6
28.24 42.37 2723.5
43.68 43.68 2808.3
49.82 42.70 2745.2
72.87 43.72 2810.7
81.18 44.28 2846.5
91.54 45.77 2942.2
105.69 45.29 2911.7
113.03 45.21 2906.5
-473.94 34.85 2688.3
-457.94 34.17 2636.3
-446.91 33.86 2611.8
-440.99 33.92 2616.9
-432.59 33.80 2607.1
-411.99 32.70 2522.4
-381.46 32.33 2493.8
-380.49 32.80 2530.3
-373.63 32.77 2528.3
-359.74 32.12 2477.8
-351.33 31.94 2463.9
-345.90 32.03 2470.7
-335.12 31.62 2438.9
-334.25 32.14 2479.4
-331.22 32.47 2505.0
-316.60 31.66 2442.4
-310.25 31.66 2442.2
-309.45 32.23 2486.6
-303.58 32.30 2491.4
-298.99 32.50 2507.0
-290.03 32.23 2485.9
-275.96 31.36 2419.1
-269.10 31.29 2413.8
-266.70 31.75 2449.3
-261.27 31.86 2457.9
-250.43 31.30 2414.8
-241.92 31.02 2392.6
-238.91 31.44 2425.1
-233.64 31.57 2435.6
-228.22 31.70 2445.2
-226.45 32.35 2495.5
-208.00 32.50 2507.2
-195.86 32.64 2518.2
-185.32 31.95 2464.8
-175.13 31.27 2412.4
-168.34 31.17 2404.9
-163.68 31.48 2428.3
-158.45 31.69 2444.7
-149.90 31.23 2409.1
-141.24 30.70 2368.6
-136.66 31.06 2395.9
-130.95 31.18 2405.2
-123.59 30.90 2383.6
-117.58 30.94 2386.9
-112.57 31.27 2412.2
-108.79 32.00 2468.4
-102.16 31.92 2462.7
-93.26 31.09 2398.0
-74.78 31.16 2403.6
-70.63 32.11 2476.8
-65.38 32.69 2521.9
-58.87 32.71 2523.1
-53.39 33.37 2574.2
-48.03 34.30 2646.3
-40.27 33.55 2588.5
-27.27 34.09 2629.6
-21.13 35.22 2716.7
-13.63 34.06 2627.7
0.00 33.77 2604.8
7.12 35.61 2746.8
21.37 35.62 2747.7
27.61 34.52 2662.6
35.14 35.14 2710.5
43.62 36.35 2804.4
65.82 36.57 2821.0
80.70 36.68 2829.6
89.21 37.17 2867.4
95.12 36.58 2822.2
114.78 38.26 2951.5
-476.48 27.62 2663.6
-457.46 26.91 2594.8
-448.19 26.76 2580.2
-442.20 26.80 2584.3
-429.71 26.44 2549.9
-415.58 25.97 2504.6
-405.23 25.73 2481.0
-395.63 25.52 2461.3
-388.93 25.50 2459.3
-389.17 25.94 2501.8
-389.63 26.42 2547.2
-387.49 26.72 2576.9
-373.93 26.24 2530.4
-353.43 25.25 2434.3
-345.98 25.16 2426.3
-341.47 25.29 2439.1
-325.06 25.50 2458.5
-316.23 25.30 2439.5
-305.34 24.93 2403.6
-300.44 25.04 2414.2
-295.24 25.13 2422.9
-291.30 25.33 2442.6
-289.22 25.71 2479.1
-281.86 25.62 2470.8
-273.32 25.42 2451.7
-269.63 25.68 2476.2
-265.72 25.92 2499.8
-255.70 25.57 2465.6
-245.14 25.14 2424.5
-240.19 25.28 2438.1
-233.26 25.22 2431.7
-226.09 25.12 2422.3
-219.50 25.09 2418.9
-213.62 25.13 2423.5
-209.35 25.38 2446.9
-204.70 25.59 2467.4
-200.27 25.84 2491.8
-193.15 25.75 2483.4
-183.90 25.37 2446.0
-174.77 24.97 2407.5
-167.30 24.79 2390.0
-162.01 24.92 2403.4
-157.81 25.25 2434.8
-150.22 25.04 2414.2
-142.14 24.72 2383.6
-138.08 25.11 2420.9
-132.64 25.26 2436.3
-125.46 25.09 2419.6
-120.14 25.29 2438.9
-115.83 25.74 2482.2
-108.97 25.64 2472.5
-99.30 24.82 2393.8
-92.75 24.73 2385.1
-88.10 25.17 2427.3
-81.28 25.01 2411.5
-75.53 25.18 2427.7
-70.64 25.69 2476.9
-64.66 25.86 2494.0
-58.43 25.97 2504.2
-53.23 26.61 2566.3
-48.19 27.54 2655.4
-40.58 27.05 2608.5
-32.78 26.22 2528.7
-27.22 27.22 2624.7
-21.11 28.15 2714.8
-13.59 27.19 2621.8
-6.71 26.84 2587.9
0.00 28.22 2720.9
7.12 28.50 2747.8
13.93 27.85 2685.8
20.85 27.80 2680.8
27.59 27.59 2660.7
34.45 27.56 2657.6
41.91 27.94 2694.5
50.42 28.81 2778.4
58.74 29.37 2832.2
64.80 28.80 2777.1
106.71 30.49 2939.9
113.85 30.36 2927.6
120.35 30.09 2901.3
-511.74 21.03 2703.9
-504.42 21.02 2702.2
-483.18 20.71 2662.4
-462.94 20.13 2587.8
-453.31 20.00 2571.3
-451.80 20.23 2601.0
-447.78 20.35 2616.9
-437.36 20.19 2595.3
-421.32 19.75 2539.2
-409.59 19.50 2507.7
-408.33 19.76 2540.3
-408.78 20.10 2584.8
-395.32 19.77 2541.4
-382.84 19.47 2502.8
-384.08 19.87 2554.2
-373.65 19.67 2528.5
-353.30 18.93 2433.4
-345.42 18.84 2422.4
-344.39 19.13 2459.9
-333.23 18.86 2425.1
-325.59 18.78 2415.1
-325.86 19.17 2464.5
-318.42 19.11 2456.4
-308.88 18.91 2431.4
-300.57 18.79 2415.3
-291.62 18.61 2393.2
-288.70 18.83 2420.8
-288.19 19.21 2470.2
-282.89 19.29 2479.8
-276.20 19.27 2477.6
-267.04 19.07 2452.4
-258.01 18.88 2427.3
-255.39 19.15 2462.7
-252.29 19.41 2495.2
-245.69 19.40 2493.9
-237.57 19.26 2476.6
-229.25 19.10 2456.3
-221.49 18.98 2440.9
-215.65 19.03 2446.4
-211.65 19.24 2473.9
-201.48 18.89 2428.6
-191.86 18.57 2387.2
-187.11 18.71 2405.7
-179.93 18.61 2393.2
-174.92 18.74 2409.6
-171.22 19.02 2445.9
-164.57 18.99 2441.4
-159.30 19.12 2457.8
-151.90 18.99 2441.2
-143.92 18.77 2413.6
-137.23 18.71 2406.0
-129.33 18.48 2375.4
-126.86 19.03 2446.6
-117.66 19.61 2521.2
-106.77 18.84 2422.6
-100.67 18.88 2426.8
-97.69 19.54 2512.0
-92.60 19.84 2551.2
-85.12 19.64 2525.5
-78.55 19.64 2524.7
-72.86 19.87 2554.9
-66.37 19.91 2560.1
-59.69 19.90 2558.2
-53.00 19.88 2555.4
-46.70 20.02 2573.5
-40.97 20.48 2633.6
-34.61 20.76 2669.7
-27.72 20.79 2672.8
-20.76 20.76 2668.8
-13.65 20.47 2631.9
-6.90 20.69 2659.9
0.00 20.97 2695.9
6.78 20.34 2614.9
41.74 20.87 2683.6
50.62 21.70 2789.5
66.57 22.19 2853.1
97.45 22.49 2891.3
-511.35 13.82 2665.4
-500.96 13.73 2647.0
-505.16 14.03 2706.2
-498.20 14.03 2706.5
-478.90 13.68 2638.9
-465.06 13.48 2599.7
-460.43 13.54 2611.7
-459.17 13.71 2643.4
-455.54 13.80 2662.3
-441.19 13.58 2618.1
-421.98 13.19 2543.2
-411.05 13.05 2516.6
-410.08 13.23 2551.2
-405.98 13.31 2567.1
-388.26 12.94 2495.9
-378.61 12.83 2475.2
-381.85 13.17 2539.4
-377.31 13.24 2553.2
-362.35 12.94 2495.8
-350.37 12.74 2457.1
-345.23 12.79 2465.9
-341.54 12.89 2485.6
-341.23 13.12 2531.1
-324.85 12.99 2506.0
-315.81 12.89 2486.0
-307.86 12.83 2473.9
-296.58 12.62 2434.0
-291.31 12.67 2442.7
-289.81 12.88 2484.1
-283.68 12.89 2486.8
-277.87 12.92 2492.5
-269.32 12.82 2473.3
-258.86 12.63 2435.2
-254.88 12.74 2457.8
-250.49 12.85 2477.3
-243.15 12.80 2468.0
-236.33 12.77 2463.7
-229.53 12.75 2459.3
-223.39 12.77 2461.9
-219.17 12.89 2486.3
-214.73 13.01 2509.8
-203.97 12.75 2458.5
-193.15 12.46 2403.2
-187.34 12.49 2408.7
-181.36 12.51 2412.2
-177.60 12.69 2446.5
-175.20 12.98 2502.8
-169.61 13.05 2516.3
-161.76 12.94 2495.7
-151.65 12.64 2437.3
-143.69 12.49 2409.7
-137.01 12.46 2402.1
-126.71 12.67 2443.7
-116.45 12.94 2495.3
-106.42 12.52 2414.6
-101.50 12.69 2446.9
-96.99 12.93 2494.1
-90.32 12.90 2488.3
-84.08 12.93 2494.6
-78.77 13.13 2531.7
-74.20 13.49 2601.9
-60.63 13.47 2598.3
-52.75 13.19 2543.4
-45.76 13.07 2521.6
-39.55 13.18 2542.7
-33.87 13.55 2612.7
-27.52 13.76 2653.8
-20.46 13.64 2630.9
-13.33 13.33 2570.9
-6.77 13.54 2611.0
0.00 13.80 2661.0
6.78 13.55 2614.0
13.58 13.58 2619.9
20.80 13.87 2674.9
27.85 13.93 2685.8
35.44 14.17 2733.7
43.95 14.65 2825.6
51.53 14.72 2839.5
58.93 14.73 2841.4
80.25 14.59 2813.8
87.41 14.57 2809.6
113.35 15.11 2914.8
127.87 15.04 2901.1
-506.36 6.94 2675.5
-506.63 7.04 2714.1
-496.93 7.00 2699.6
-472.30 6.75 2602.5
-450.02 6.62 2552.6
-450.10 6.72 2591.2
-445.26 6.75 2602.2
-429.56 6.61 2549.1
-417.73 6.53 2517.6
-413.15 6.56 2529.5
-408.50 6.59 2541.4
-400.83 6.57 2534.5
-383.19 6.39 2463.4
-373.78 6.34 2443.6
-376.06 6.48 2500.9
-370.15 6.49 2504.8
-359.20 6.41 2474.1
-350.79 6.38 2460.1
-344.82 6.39 2463.0
-340.32 6.42 2476.7
-336.42 6.47 2495.4
-328.62 6.44 2485.4
-319.46 6.39 2464.4
-312.79 6.38 2462.2
-307.49 6.41 2470.9
-298.76 6.36 2451.9
-287.64 6.25 2411.9
-280.78 6.24 2406.7
-276.43 6.28 2423.3
-272.22 6.33 2441.9
-265.97 6.33 2442.6
-257.49 6.28 2422.3
-252.10 6.30 2431.0
-245.96 6.31 2432.6
-236.78 6.23 2403.4
-228.41 6.17 2381.1
-225.82 6.27 2419.5
-223.48 6.39 2462.9
-215.83 6.35 2448.5
-207.91 6.30 2430.1
-204.38 6.39 2463.5
-200.36 6.46 2493.0
-193.01 6.43 2481.5
-185.33 6.39 2465.0
-178.76 6.38 2462.5
-173.73 6.43 2481.9
-166.86 6.42 2475.4
-157.49 6.30 2429.9
-151.34 6.31 2432.3
-147.32 6.41 2470.6
-141.22 6.42 2476.0
-133.84 6.37 2458.4
-127.23 6.36 2453.7
-121.97 6.42 2476.0
-115.56 6.42 2476.3
-107.96 6.35 2449.6
-101.67 6.35 2450.9
-95.79 6.39 2463.1
-89.08 6.36 2454.4
-82.76 6.37 2455.6
-75.75 6.31 2434.8
-69.90 6.35 2451.0
-66.27 6.63 2556.1
-59.83 6.65 2564.3
-52.19 6.52 2516.5
-45.44 6.49 2503.6
-39.23 6.54 2521.7
-33.61 6.72 2592.8
-27.04 6.76 2607.9
-19.82 6.61 2547.9
-13.36 6.68 2577.0
-7.06 7.06 2722.0
14.05 7.03 2710.0
21.02 7.01 2702.9
27.60 6.90 2661.8
34.44 6.89 2656.8
42.34 7.06 2721.7
49.05 7.01 2702.5
55.88 6.99 2694.4
64.59 7.18 2768.2
98.93 7.61 2935.3
143.27 7.54 2908.5
153.12 7.66 2953.0
-513.62 -0.00 2677.2
-506.74 -0.00 2677.5
-499.11 -0.00 2673.8
-490.60 -0.00 2665.2
-466.59 -0.00 2571.0
-451.93 -0.00 2563.5
-450.44 -0.00 2593.2
-444.25 -0.00 2596.3
-427.07 -0.00 2534.3
-413.48 -0.00 2491.9
-404.28 -0.00 2475.2
-394.70 -0.00 2455.5
-396.61 -0.00 2507.8
-387.96 -0.00 2494.0
-373.93 -0.00 2444.6
-372.49 -0.00 2477.2
-371.47 -0.00 2513.7
-364.80 -0.00 2512.7
-355.31 -0.00 2491.8
-348.14 -0.00 2486.7
-337.73 -0.00 2457.9
-327.74 -0.00 2431.0
-322.59 -0.00 2439.8
-315.86 -0.00 2436.6
-310.78 -0.00 2446.3
-306.88 -0.00 2466.0
-299.73 -0.00 2459.8
-290.37 -0.00 2434.7
-284.83 -0.00 2441.4
-281.42 -0.00 2467.0
-269.12 -0.00 2414.0
-240.03 -0.00 2373.9
-238.25 -0.00 2418.3
-231.37 -0.00 2411.9
-230.09 -0.00 2465.3
-225.92 -0.00 2489.8
-216.27 -0.00 2453.5
-208.59 -0.00 2438.1
-205.54 -0.00 2477.5
-201.08 -0.00 2501.9
-193.01 -0.00 2481.5
-181.81 -0.00 2418.2
-170.10 -0.00 2430.1
-166.39 -0.00 2468.4
-158.01 -0.00 2437.9
-153.27 -0.00 2463.2
-149.58 -0.00 2508.5
-143.90 -0.00 2522.9
-135.26 -0.00 2484.3
-127.59 -0.00 2460.7
-121.57 -0.00 2468.0
-114.35 -0.00 2450.3
-107.61 -0.00 2441.6
-102.21 -0.00 2463.9
-97.54 -0.00 2508.1
-91.52 -0.00 2521.3
-83.91 -0.00 2489.6
-75.72 -0.00 2433.8
-69.19 -0.00 2426.0
-65.08 -0.00 2510.2
-59.58 -0.00 2553.3
-52.61 -0.00 2536.5
-45.38 -0.00 2500.6
-33.53 -0.00 2586.8
-27.16 -0.00 2618.9
-20.14 -0.00 2589.9
-13.76 -0.00 2653.0
6.95 -0.00 2679.0
21.00 -0.00 2699.9
34.83 -0.00 2686.8
48.99 -0.00 2699.6
57.75 -0.00 2784.4
65.48 -0.00 2806.2
137.10 -0.00 2937.8
145.29 -0.00 2949.4
151.41 -0.00 2920.1
159.18 -0.00 2923.7
-504.32 -6.91 2664.7
-492.32 -6.84 2637.4
-480.10 -6.76 2608.2
-463.20 -6.62 2552.3
-455.55 -6.60 2546.6
-458.87 -6.75 2602.9
-460.03 -6.87 2648.3
-449.65 -6.81 2627.8
-428.23 -6.59 2541.2
-412.33 -6.44 2485.0
-401.06 -6.37 2455.5
-392.63 -6.33 2442.6
-395.51 -6.48 2500.9
-392.41 -6.54 2522.7
-383.45 -6.50 2506.8
-376.80 -6.50 2505.8
-371.18 -6.51 2511.7
-368.53 -6.58 2538.4
-363.07 -6.60 2546.2
-352.58 -6.53 2518.4
-338.41 -6.39 2462.9
-327.07 -6.29 2426.0
-320.62 -6.29 2424.9
-315.47 -6.31 2433.6
-311.78 -6.36 2454.3
-306.14 -6.38 2460.0
-297.55 -6.33 2441.9
-294.75 -6.41 2471.5
-282.44 -6.42 2475.9
-246.77 -6.33 2440.5
-244.13 -6.42 2478.0
-236.24 -6.38 2462.7
-231.95 -6.44 2485.2
-224.75 -6.42 2476.8
-212.93 -6.26 2415.6
-203.82 -6.18 2382.3
-200.66 -6.27 2418.7
-195.87 -6.32 2437.1
-189.28 -6.31 2433.6
-179.56 -6.19 2388.3
-165.38 -6.36 2453.4
-161.12 -6.44 2485.8
-154.20 -6.42 2478.2
-148.51 -6.46 2490.6
-144.58 -6.57 2534.9
-137.70 -6.56 2529.2
-128.68 -6.43 2481.7
-121.52 -6.40 2467.0
-114.40 -6.36 2451.3
-107.74 -6.34 2444.6
-104.77 -6.55 2525.8
-85.26 -6.56 2529.6
-77.90 -6.49 2503.8
-71.92 -6.54 2522.0
-66.32 -6.63 2558.1
-59.39 -6.60 2545.3
-53.87 -6.73 2597.4
-47.78 -6.83 2632.6
-40.08 -6.68 2576.7
-33.77 -6.75 2604.8
-27.77 -6.94 2677.8
-20.92 -6.97 2689.9
-13.57 -6.79 2618.0
-6.69 -6.69 2581.0
0.00 -6.96 2684.0
6.92 -6.92 2670.0
21.14 -7.05 2717.9
65.34 -7.26 2800.2
71.63 -7.16 2763.1
77.71 -7.06 2724.9
106.31 -7.59 2929.1
114.60 -7.64 2946.8
121.73 -7.61 2934.5
129.10 -7.59 2929.1
134.53 -7.47 2882.9
174.82 -7.60 2931.8
-507.66 -13.91 2682.3
-501.86 -13.94 2688.5
-484.98 -13.86 2672.3
-464.18 -13.45 2594.8
-456.96 -13.44 2592.0
-460.19 -13.74 2649.3
-451.33 -13.68 2637.6
-429.39 -13.21 2548.0
-412.98 -12.91 2488.9
-410.56 -13.03 2513.7
-410.24 -13.23 2552.2
-405.20 -13.29 2562.1
-394.41 -13.15 2535.5
-376.49 -12.76 2461.3
-361.18 -12.45 2402.0
-368.83 -12.94 2495.9
-361.94 -13.16 2538.3
-339.41 -12.57 2424.3
-334.05 -12.61 2431.1
-331.34 -12.74 2457.7
-321.01 -12.59 2427.8
-311.87 -12.47 2405.8
-308.25 -12.58 2426.5
-302.55 -12.61 2431.2
-297.79 -12.67 2443.9
-298.89 -13.00 2506.2
-292.59 -13.00 2508.0
-272.12 -12.37 2385.5
-259.04 -12.34 2378.9
-255.05 -12.44 2399.5
-254.06 -12.70 2449.8
-254.01 -13.03 2512.2
-245.20 -12.91 2488.9
-233.37 -12.61 2432.8
-225.44 -12.52 2415.5
-220.41 -12.59 2429.0
-210.82 -12.40 2391.7
-193.39 -12.48 2406.2
-188.89 -12.59 2428.6
-185.03 -12.76 2461.0
-178.76 -12.77 2462.5
-168.77 -12.50 2411.1
-162.82 -12.52 2415.5
-159.43 -12.75 2459.8
-153.14 -12.76 2461.2
-146.55 -12.74 2457.6
-141.90 -12.90 2487.9
-136.45 -13.00 2506.3
-128.73 -12.87 2482.6
-122.60 -12.91 2488.9
-116.54 -12.95 2497.2
-109.81 -12.92 2491.5
-106.93 -13.37 2577.7
-92.60 -13.23 2551.3
-84.88 -13.06 2518.5
-79.11 -13.18 2542.7
-72.01 -13.09 2524.9
-65.31 -13.06 2519.1
-59.11 -13.14 2533.3
-54.29 -13.57 2617.4
-48.34 -13.81 2663.5
-40.66 -13.55 2613.6
-33.75 -13.50 2603.7
-27.36 -13.68 2637.8
-20.73 -13.82 2664.9
-13.52 -13.52 2606.9
-6.64 -13.28 2561.0
0.00 -13.84 2669.0
21.37 -14.25 2747.9
28.53 -14.26 2750.8
56.48 -14.12 2723.4
62.98 -14.00 2699.2
128.92 -15.17 2925.1
160.37 -15.27 2945.6
-492.21 -20.80 2674.0
-486.22 -20.84 2679.2
-469.28 -20.40 2623.3
-453.65 -20.01 2573.2
-450.26 -20.16 2592.1
-449.13 -20.41 2624.8
-433.04 -19.99 2569.7
-409.04 -19.17 2465.2
-399.92 -19.04 2448.5
-395.79 -19.15 2462.3
-386.91 -19.03 2446.5
-384.26 -19.21 2470.2
-373.31 -18.98 2440.5
-368.68 -19.40 2494.8
-358.12 -19.53 2511.5
-341.48 -18.97 2439.1
-342.90 -19.41 2495.5
-335.21 -19.34 2486.4
-319.30 -18.78 2414.9
-317.90 -19.07 2452.4
-311.19 -19.45 2500.6
-301.30 -19.23 2472.6
-296.99 -19.37 2490.3
-284.83 -18.99 2441.4
-274.05 -18.68 2402.3
-271.55 -18.95 2435.8
-267.80 -19.13 2459.4
-260.33 -19.05 2449.1
-252.09 -18.91 2430.9
-244.65 -18.82 2419.6
-238.34 -18.82 2419.2
-228.78 -18.55 2385.0
-216.34 -18.54 2384.1
-215.30 -19.00 2442.5
-212.85 -19.35 2487.8
-204.05 -19.13 2459.5
-196.67 -19.03 2447.0
-189.12 -18.91 2431.6
-182.56 -18.89 2428.1
-180.13 -19.30 2481.4
-173.66 -19.30 2480.9
-166.25 -19.18 2466.3
-161.50 -19.38 2491.7
-155.69 -19.46 2502.1
-149.58 -19.51 2508.5
-140.88 -19.21 2469.9
-127.23 -19.08 2453.6
-124.42 -19.65 2525.9
-118.17 -19.69 2532.2
-111.44 -19.67 2528.5
-106.14 -19.90 2558.7
-99.36 -19.87 2555.0
-89.77 -19.24 2473.3
-82.83 -19.11 2457.5
-79.32 -19.83 2549.7
-74.12 -20.21 2598.9
-67.05 -20.11 2586.1
-60.51 -20.17 2593.2
-53.58 -20.09 2583.4
-45.82 -19.64 2524.5
-39.47 -19.74 2537.6
-33.74 -20.24 2602.7
-27.67 -20.75 2667.8
-13.93 -20.90 2686.9
-6.93 -20.78 2671.9
0.00 -20.97 2695.9
7.03 -21.08 2710.9
14.23 -21.35 2744.9
21.23 -21.23 2729.8
27.79 -20.84 2679.8
35.33 -21.20 2725.7
56.82 -21.31 2739.3
64.17 -21.39 2750.2
122.26 -22.92 2947.4
134.95 -22.49 2891.8
149.18 -22.38 2877.0
161.24 -23.03 2961.5
183.13 -22.89 2943.2
-475.25 -27.55 2656.7
-456.25 -26.84 2588.0
-444.94 -26.56 2561.5
-436.30 -26.44 2549.8
-435.02 -26.77 2581.5
-424.09 -26.51 2555.9
-402.00 -25.52 2461.3
-385.03 -25.25 2434.6
-389.93 -26.00 2506.7
-383.89 -26.03 2509.7
-373.51 -25.76 2483.9
-360.05 -25.27 2436.4
-347.11 -24.79 2390.8
-345.98 -25.16 2426.3
-347.99 -25.78 2485.6
-342.34 -25.84 2491.5
-327.45 -25.19 2428.9
-315.89 -24.78 2389.1
-319.95 -25.60 2468.2
-313.16 -26.10 2516.5
-296.57 -25.24 2433.9
-285.38 -24.82 2392.9
-278.79 -24.78 2389.7
-273.59 -24.87 2398.3
-270.33 -25.15 2424.8
-265.85 -25.32 2441.4
-256.52 -25.03 2413.3
-246.41 -24.64 2376.1
-215.29 -25.33 2442.4
-215.57 -26.13 2519.7
-208.34 -26.04 2511.2
-199.39 -25.73 2480.9
-190.13 -25.35 2444.5
-179.55 -24.77 2388.1
-173.76 -24.82 2393.6
-171.70 -25.44 2452.9
-168.46 -25.92 2499.2
-162.47 -25.99 2506.6
-155.43 -25.91 2498.0
-151.06 -26.27 2533.4
-143.78 -26.14 2520.8
-133.51 -25.43 2452.2
-129.14 -25.83 2490.5
-126.09 -26.55 2559.8
-119.00 -26.45 2550.1
-111.00 -26.12 2518.4
-104.81 -26.20 2526.7
-98.93 -26.38 2543.9
-90.06 -25.73 2481.2
-72.57 -26.39 2544.8
-66.79 -26.71 2576.0
-60.09 -26.71 2575.2
-53.06 -26.53 2558.3
-45.72 -26.13 2519.4
-39.89 -26.60 2564.6
-34.50 -27.60 2661.6
-14.01 -28.03 2702.8
-6.93 -27.74 2674.8
0.00 -27.86 2686.9
7.04 -28.15 2714.8
35.20 -28.16 2715.6
42.05 -28.04 2703.5
49.42 -28.24 2723.4
55.76 -27.88 2688.3
130.02 -30.59 2950.0
136.30 -30.29 2920.7
150.47 -30.09 2901.9
158.79 -30.25 2916.5
167.18 -30.40 2931.1
175.82 -30.58 2948.6
-479.99 -34.78 2683.2
-461.79 -33.96 2619.4
-451.43 -33.69 2598.9
-434.09 -32.89 2536.9
-426.04 -32.77 2528.1
-426.37 -33.31 2569.7
-414.08 -32.86 2535.2
-405.30 -32.69 2521.4
-380.34 -32.79 2529.4
-362.52 -31.80 2453.2
-337.30 -31.23 2409.3
-334.03 -31.51 2431.0
-321.30 -30.89 2383.2
-309.40 -30.94 2386.8
-307.60 -31.39 2421.3
-306.98 -31.98 2466.8
-299.59 -31.87 2458.6
-292.00 -31.74 2448.4
-289.79 -32.20 2483.9
-281.96 -32.04 2471.8
-276.19 -32.12 2477.4
-269.19 -32.05 2472.2
-257.25 -31.37 2420.2
-253.11 -31.64 2440.7
-248.16 -31.81 2454.3
-233.72 -30.75 2372.3
-217.23 -31.03 2394.0
-212.30 -31.22 2408.5
-206.96 -31.36 2419.0
-206.43 -32.26 2488.2
-194.31 -32.38 2498.2
-183.52 -31.64 2440.9
-176.65 -31.54 2433.4
-174.28 -32.27 2489.7
-169.40 -32.58 2513.1
-161.75 -32.35 2495.6
-153.88 -32.06 2473.0
-149.04 -32.40 2499.4
-129.08 -32.27 2489.4
-117.37 -32.60 2515.1
-105.97 -33.12 2554.6
-97.30 -32.43 2501.9
-89.22 -31.87 2458.2
-72.17 -32.81 2530.8
-66.86 -33.43 2578.9
-60.83 -33.80 2607.1
-53.97 -33.73 2602.2
-46.67 -33.33 2571.4
-40.39 -33.66 2596.5
-34.71 -34.71 2677.6
-20.53 -34.22 2639.7
-13.38 -33.45 2580.7
-6.67 -33.36 2573.8
0.00 -33.80 2607.8
6.88 -34.41 2654.8
13.88 -34.70 2676.7
20.78 -34.63 2671.7
42.97 -35.81 2762.4
49.06 -35.04 2703.3
56.98 -35.61 2747.2
129.53 -38.10 2938.9
136.85 -38.01 2932.6
142.91 -37.61 2901.2
149.79 -37.45 2888.9
-473.28 -41.16 2645.7
-451.36 -39.83 2560.2
-446.11 -39.95 2568.2
-432.56 -39.32 2528.0
-414.56 -38.27 2460.0
-406.39 -38.10 2449.2
-410.52 -39.10 2513.4
-417.66 -40.42 2598.3
-399.28 -39.93 2566.8
-388.40 -39.50 2539.2
-376.16 -38.91 2501.6
-364.12 -38.33 2463.9
-348.81 -37.37 2402.5
-337.29 -37.48 2409.2
-337.56 -38.21 2456.6
-327.83 -37.83 2431.7
