ply
format ascii 1.0
element vertex 2253
property float x
property float y
property float z
end_header
-585.11 30.62 1312.1
-578.22 30.43 1304.2
-577.40 30.57 1310.1
-582.58 31.02 1329.6
-591.26 31.67 1357.5
-592.27 31.92 1367.9
-579.00 31.39 1345.4
-573.30 31.27 1340.2
-578.58 31.75 1360.8
-577.92 31.91 1367.6
-569.10 31.62 1355.0
-554.94 31.02 1329.5
-542.81 30.53 1308.6
-538.39 30.47 1306.1
-532.08 30.31 1298.9
-534.84 30.66 1314.0
-541.66 31.25 1339.3
-530.84 30.82 1321.0
-515.66 30.14 1291.5
-506.50 29.79 1276.9
-504.73 29.89 1280.8
-503.68 30.02 1286.6
-500.06 30.00 1285.9
-498.60 30.12 1290.7
-488.16 29.69 1272.2
-476.38 29.17 1250.0
-467.18 28.80 1234.2
-461.91 28.67 1228.7
-463.66 28.98 1242.0
-463.96 29.20 1251.4
-465.94 29.53 1265.6
-466.82 29.80 1277.0
-458.78 29.49 1264.0
-452.15 29.28 1254.7
-461.73 30.11 1290.6
-469.14 30.82 1320.8
-460.11 30.45 1304.9
-454.12 30.27 1297.5
-451.78 30.34 1300.4
-446.48 30.21 1294.9
-445.75 30.39 1302.5
-444.33 30.53 1308.3
-437.13 30.26 1297.0
-434.11 30.29 1298.0
-428.87 30.16 1292.4
-417.10 29.56 1266.8
-411.34 29.38 1259.2
-414.24 29.83 1278.2
-413.38 30.00 1285.9
-403.37 29.51 1264.9
-397.97 29.36 1258.2
-405.78 30.18 1293.5
-411.63 30.87 1323.1
-413.81 31.30 1341.3
-410.92 31.34 1343.2
-403.67 31.05 1330.8
-404.54 31.39 1345.1
-406.48 31.81 1363.3
-399.83 31.57 1352.8
-391.54 31.18 1336.5
-389.46 31.30 1341.2
-387.35 31.41 1346.0
-372.89 30.51 1307.5
-362.14 29.90 1281.5
-372.00 31.00 1328.6
-381.89 32.12 1376.7
-370.36 31.45 1347.7
-354.24 30.36 1301.3
-350.32 30.32 1299.3
-354.14 30.94 1326.2
-359.36 31.71 1358.9
-356.83 31.80 1362.7
-354.52 31.91 1367.4
-354.92 32.27 1382.8
-349.09 32.06 1374.0
-341.36 31.67 1357.4
-336.11 31.51 1350.4
-332.09 31.46 1348.3
-329.03 31.50 1350.1
-330.41 31.98 1370.4
-329.14 32.20 1379.9
-318.17 31.47 1348.6
-315.54 31.55 1352.3
-314.69 31.82 1363.8
-306.43 31.34 1343.1
-302.68 31.31 1341.9
-299.15 31.31 1341.7
-297.34 31.48 1349.3
-295.70 31.68 1357.8
-291.29 31.59 1353.7
-288.14 31.62 1355.3
-288.06 32.01 1371.7
-285.67 32.14 1377.3
-281.04 32.02 1372.1
-284.16 32.79 1405.2
-288.68 33.74 1446.1
-289.71 34.31 1470.3
-288.14 34.58 1481.9
-288.20 35.05 1502.2
-294.67 36.33 1556.9
-290.77 36.35 1557.7
-280.53 35.56 1524.0
-282.95 36.38 1559.1
-295.76 38.58 1653.3
-306.18 40.52 1736.8
-724.05 30.98 1493.5
-710.48 30.56 1473.4
-695.71 30.08 1450.5
-681.88 29.65 1429.4
-668.57 29.23 1409.2
-661.75 29.09 1402.4
-651.12 28.78 1387.6
-643.10 28.58 1378.1
-634.26 28.35 1366.7
-628.41 28.24 1361.7
-619.24 27.99 1349.4
-593.93 27.00 1301.6
-587.42 26.85 1294.7
-597.79 27.48 1325.1
-596.97 27.61 1331.0
-590.03 27.44 1323.1
-585.94 27.41 1321.7
-587.91 27.67 1333.9
-588.63 27.86 1343.4
-592.89 28.23 1361.2
-596.67 28.58 1378.1
-586.54 28.27 1362.9
-579.62 28.10 1355.0
-583.69 28.47 1372.8
-573.67 28.16 1357.5
-555.96 27.46 1323.7
-556.89 27.67 1334.2
-559.69 27.98 1349.3
-555.94 27.97 1348.6
-550.67 27.88 1344.3
-539.01 27.47 1324.2
-531.19 27.24 1313.4
-529.01 27.30 1316.4
-522.73 27.15 1309.2
-511.32 26.74 1289.0
-507.69 26.72 1288.3
-514.27 27.25 1313.7
-518.20 27.64 1332.5
-514.84 27.64 1332.7
-502.15 27.14 1308.7
-492.78 26.82 1293.0
-486.67 26.67 1285.7
-475.66 26.24 1265.3
-471.73 26.21 1263.6
-473.37 26.48 1276.8
-475.29 26.78 1291.0
-469.59 26.64 1284.6
-456.08 26.06 1256.5
-448.79 25.83 1245.4
-457.71 26.53 1279.3
-469.49 27.42 1321.8
-464.12 27.30 1316.3
-454.48 26.93 1298.5
-448.85 26.80 1292.0
-442.60 26.62 1283.6
-440.91 26.72 1288.4
-445.96 27.23 1313.1
-445.78 27.43 1322.6
-434.13 26.92 1298.1
-420.39 26.27 1266.8
-415.87 26.20 1263.0
-416.95 26.47 1276.4
-423.20 27.08 1305.9
-425.33 27.44 1323.0
-414.63 26.97 1300.2
-408.85 26.81 1292.6
-414.48 27.40 1321.2
-418.19 27.88 1344.2
-413.53 27.80 1340.4
-404.21 27.40 1321.3
-397.60 27.19 1310.8
-399.38 27.54 1328.0
-403.36 28.06 1352.9
-399.00 28.00 1350.0
-391.84 27.74 1337.5
-390.32 27.88 1344.2
-392.91 28.32 1365.3
-383.33 27.88 1344.1
-369.22 27.10 1306.6
-375.52 27.82 1341.1
-384.05 28.71 1384.4
-371.18 28.01 1350.6
-357.68 27.25 1313.9
-355.80 27.37 1319.6
-356.74 27.71 1335.9
-358.36 28.11 1355.1
-352.03 27.88 1344.4
-346.01 27.68 1334.6
-348.98 28.20 1359.6
-345.17 28.18 1358.6
-336.98 27.79 1340.0
-331.54 27.63 1332.1
-330.92 27.87 1343.6
-331.18 28.19 1358.9
-322.93 27.78 1339.3
-313.15 27.23 1312.9
-310.62 27.31 1316.6
-315.78 28.07 1353.4
-320.32 28.79 1388.2
-318.01 28.91 1393.9
-306.88 28.22 1360.5
-296.34 27.57 1329.1
-299.51 28.19 1359.1
-302.74 28.83 1390.1
-296.98 28.62 1380.1
-292.31 28.52 1375.0
-289.31 28.57 1377.7
-283.45 28.34 1366.6
-277.64 28.12 1355.6
-279.42 28.66 1381.7
-288.89 30.01 1447.1
-295.72 31.13 1500.8
-292.73 31.22 1505.5
-290.85 31.44 1516.0
-293.75 32.19 1552.1
-286.20 31.80 1533.2
-282.35 31.81 1533.9
-292.25 33.40 1610.4
-298.06 34.56 1666.2
-300.12 35.31 1702.4
-732.80 27.43 1511.5
-716.59 26.97 1486.0
-700.06 26.49 1459.6
-684.06 26.02 1434.0
-669.46 25.61 1411.0
-663.91 25.53 1407.0
-654.97 25.33 1395.8
-653.27 25.40 1399.9
-650.28 25.43 1401.3
-627.60 24.68 1360.0
-603.00 23.85 1314.1
-598.53 23.80 1311.7
-612.23 24.49 1349.4
-606.04 24.38 1343.4
-589.23 23.84 1313.7
-592.90 24.13 1329.6
-598.53 24.50 1350.1
-589.55 24.28 1337.6
-579.42 24.00 1322.4
-578.94 24.12 1329.2
-577.63 24.21 1334.1
-572.34 24.13 1329.9
-570.21 24.19 1333.0
-572.37 24.43 1346.2
-560.85 24.09 1327.2
-538.95 23.29 1283.2
-534.58 23.24 1280.7
-544.77 23.83 1313.3
-549.10 24.17 1332.1
-546.91 24.23 1335.1
-538.66 24.02 1323.4
-528.22 23.70 1306.0
-522.69 23.61 1300.7
-521.27 23.69 1305.6
-515.76 23.60 1300.2
-509.18 23.45 1292.1
-513.57 23.81 1311.9
-516.05 24.08 1327.0
-511.26 24.02 1323.5
-501.82 23.73 1307.8
-495.30 23.59 1299.6
-509.34 24.42 1345.6
-516.49 24.93 1373.9
-494.48 24.04 1324.5
-478.95 23.45 1291.9
-477.04 23.52 1295.8
-467.21 23.19 1278.1
-455.41 22.77 1254.7
-450.16 22.67 1249.2
-446.96 22.67 1249.3
-446.76 22.83 1257.8
-450.18 23.17 1276.8
-448.88 23.28 1282.5
-449.20 23.47 1293.0
-449.46 23.66 1303.5
-442.55 23.47 1293.2
-441.80 23.61 1300.8
-444.84 23.95 1319.8
-437.00 23.71 1306.7
-419.78 22.96 1265.0
-411.51 22.68 1249.8
-412.31 22.91 1262.2
-417.98 23.41 1289.8
-420.15 23.72 1306.9
-409.48 23.30 1284.1
-404.65 23.22 1279.3
-411.50 23.81 1311.8
-408.11 23.81 1311.8
-397.05 23.36 1286.9
-399.55 23.70 1306.0
-404.58 24.21 1333.8
-398.24 24.03 1324.2
-395.09 24.05 1325.1
-393.63 24.17 1331.8
-388.49 24.07 1326.1
-386.15 24.13 1329.9
-388.50 24.50 1350.0
-380.88 24.24 1335.5
-368.43 23.66 1303.7
-370.68 24.03 1323.9
-374.45 24.50 1349.8
-369.08 24.37 1343.0
-362.95 24.20 1333.3
-359.46 24.19 1333.2
-359.59 24.44 1346.6
-361.95 24.84 1368.7
-356.35 24.70 1360.9
-344.27 24.10 1327.9
-341.04 24.11 1328.7
-339.03 24.22 1334.4
-332.86 24.02 1323.6
-329.62 24.04 1324.4
-331.17 24.40 1344.6
-336.17 25.03 1379.4
-332.32 25.01 1378.3
-322.44 24.53 1351.9
-320.50 24.65 1358.5
-318.07 24.74 1363.2
-315.62 24.82 1367.8
-312.69 24.87 1370.6
-300.73 24.20 1333.3
-296.79 24.16 1331.1
-306.41 25.23 1390.4
-306.16 25.51 1405.8
-296.57 25.01 1378.2
-292.12 24.94 1374.1
-288.91 24.97 1375.8
-285.90 25.02 1378.4
-282.67 25.05 1380.1
-282.01 25.31 1394.5
-288.91 26.26 1447.2
-288.97 26.62 1466.6
-279.20 26.06 1435.9
-273.72 25.89 1426.7
-272.20 26.10 1438.2
-276.12 26.84 1479.2
-285.44 28.14 1550.7
-293.16 29.32 1615.4
-296.49 30.08 1657.4
-301.88 31.08 1712.3
-738.06 23.68 1522.4
-700.55 22.60 1452.8
-685.81 22.24 1429.9
-672.03 21.91 1408.8
-651.05 21.35 1372.2
-640.46 21.11 1357.3
-642.25 21.29 1368.7
-650.76 21.69 1394.5
-646.10 21.66 1392.2
-622.59 20.99 1349.1
-616.37 20.89 1343.2
-630.09 21.48 1380.9
-619.28 21.23 1364.9
-589.20 20.32 1306.1
-576.97 20.01 1286.4
-584.78 20.40 1311.4
-590.45 20.72 1331.8
-581.11 20.51 1318.5
-571.42 20.29 1304.2
-571.37 20.41 1311.8
-566.52 20.35 1308.5
-556.55 20.12 1293.2
-554.11 20.15 1295.3
-555.18 20.31 1305.7
-555.42 20.44 1314.3
-545.17 20.19 1298.0
-535.37 19.95 1282.6
-539.81 20.24 1301.3
-539.22 20.35 1308.1
-532.52 20.22 1300.0
-525.49 20.08 1291.0
-515.49 19.83 1274.6
-511.90 19.82 1273.9
-513.13 19.99 1285.2
-515.05 20.20 1298.4
-516.53 20.39 1310.7
-513.22 20.39 1311.0
-508.46 20.34 1307.5
-496.86 20.01 1286.2
-481.42 19.52 1254.7
-479.65 19.58 1258.6
-498.03 20.47 1315.7
-508.07 21.02 1351.5
-488.90 20.37 1309.6
-472.02 19.80 1273.2
-469.11 19.82 1274.2
-468.60 19.94 1281.9
-465.33 19.94 1282.0
-455.27 19.65 1263.3
-446.97 19.43 1249.3
-450.12 19.71 1267.3
-457.51 20.18 1297.6
-451.54 20.07 1290.1
-447.24 20.03 1287.4
-457.95 20.66 1328.1
-461.35 20.97 1348.1
-443.10 20.29 1304.7
-428.89 19.79 1272.5
-435.12 20.24 1301.0
-431.77 20.24 1301.1
-421.53 19.91 1280.2
-421.64 20.08 1290.7
-419.23 20.12 1293.6
-412.82 19.98 1284.1
-407.37 19.87 1277.5
-408.58 20.09 1291.8
-410.02 20.33 1307.0
-401.00 20.05 1288.9
-392.34 19.78 1271.7
-397.23 20.20 1298.4
-410.11 21.03 1352.0
-411.22 21.27 1367.3
-399.68 20.85 1340.5
-389.68 20.51 1318.5
-387.94 20.60 1324.2
-388.40 20.81 1337.6
-388.24 20.99 1349.1
-377.88 20.61 1325.0
-363.55 20.01 1286.5
-364.23 20.23 1300.8
-373.93 20.97 1347.9
-374.92 21.22 1364.3
-366.11 20.92 1344.9
-360.26 20.78 1336.1
-353.93 20.62 1325.4
-349.95 20.59 1323.4
-348.77 20.72 1331.9
-340.77 20.45 1314.4
-335.09 20.31 1305.5
-330.18 20.22 1299.6
-330.67 20.45 1314.9
-334.71 20.92 1344.8
-332.14 20.98 1348.5
-333.34 21.28 1367.8
-335.61 21.65 1391.9
-331.50 21.62 1389.8
-322.58 21.27 1367.3
-313.54 20.90 1343.7
-309.56 20.87 1341.6
-305.59 20.84 1339.4
-303.82 20.95 1347.0
-310.07 21.63 1390.7
-315.24 22.25 1430.5
-310.00 22.14 1423.5
-296.17 21.41 1376.3
-287.35 21.03 1351.6
-288.72 21.39 1374.8
-290.18 21.76 1399.1
-288.30 21.90 1407.6
-289.15 22.24 1429.9
-288.14 22.45 1443.3
-279.89 22.10 1420.5
-276.54 22.12 1422.2
-278.45 22.58 1451.4
-276.86 22.76 1462.9
-279.98 23.33 1499.9
-283.83 23.99 1541.9
-284.96 24.42 1570.2
-291.05 25.31 1627.0
-300.33 26.50 1703.5
-747.24 19.98 1541.3
-700.14 18.82 1451.9
-678.48 18.34 1414.6
-674.64 18.33 1414.2
-662.64 18.11 1396.7
-647.31 17.78 1371.8
-644.40 17.80 1373.2
-640.20 17.78 1371.9
-625.49 17.47 1347.8
-616.75 17.32 1336.5
-623.48 17.61 1358.7
-627.21 17.82 1374.6
-605.66 17.30 1334.9
-586.75 16.86 1300.7
-585.58 16.92 1305.6
-588.87 17.12 1320.6
-589.66 17.24 1330.1
-581.12 17.09 1318.5
-572.64 16.94 1307.0
-572.99 17.05 1315.5
-567.33 16.99 1310.4
-564.86 17.01 1312.5
-569.46 17.26 1331.2
-559.11 17.05 1315.0
-548.43 16.82 1297.8
-550.61 16.99 1311.0
-552.72 17.17 1324.2
-544.43 17.01 1312.5
-530.85 16.69 1287.8
-526.48 16.66 1285.2
-520.98 16.59 1279.9
-519.25 16.64 1283.9
-524.22 16.91 1304.5
-525.01 17.05 1315.0
-526.49 17.21 1327.3
-524.25 17.24 1330.3
-518.34 17.16 1324.1
-512.82 17.09 1318.7
-500.84 16.81 1296.5
-486.81 16.45 1268.7
-487.14 16.57 1278.2
-489.56 16.77 1293.3
-483.80 16.68 1287.0
-478.78 16.62 1282.4
-475.16 16.61 1281.7
-468.78 16.51 1273.4
-464.84 16.48 1271.6
-470.12 16.79 1295.2
-467.82 16.83 1298.2
-459.11 16.63 1283.2
-462.52 16.88 1302.2
-465.84 17.13 1321.2
-455.19 16.86 1300.5
-449.88 16.79 1295.0
-459.27 17.27 1331.9
-457.15 17.32 1335.8
-433.47 16.54 1276.3
-423.79 16.30 1257.4
-434.50 16.84 1299.2
-443.75 17.33 1337.2
-445.31 17.53 1352.5
-433.14 17.19 1325.9
-418.63 16.75 1291.8
-417.43 16.83 1298.4
-418.02 16.99 1310.9
-406.79 16.67 1286.1
-395.67 16.35 1261.3
-401.01 16.71 1289.0
-406.80 17.09 1318.6
-399.58 16.93 1306.1
-400.26 17.10 1319.5
-408.64 17.61 1358.8
-402.83 17.51 1351.1
-393.94 17.28 1332.9
-393.01 17.39 1341.5
-385.07 17.19 1326.1
-375.81 16.93 1305.9
-375.97 17.09 1318.3
-371.17 17.03 1313.5
-366.40 16.96 1308.6
-372.07 17.39 1341.2
-375.73 17.72 1367.2
-369.54 17.60 1357.5
-361.83 17.40 1342.0
-353.43 17.16 1323.5
-346.13 16.97 1308.9
-342.45 16.95 1307.8
-341.78 17.09 1318.3
-343.05 17.33 1336.6
-338.07 17.25 1330.6
-338.73 17.46 1347.0
-342.69 17.85 1376.9
-340.28 17.91 1381.6
-334.54 17.79 1372.7
-330.47 17.77 1370.6
-328.50 17.85 1377.3
-321.67 17.67 1363.5
-310.14 17.23 1329.2
-303.50 17.05 1315.3
-303.37 17.24 1329.7
-305.37 17.55 1353.9
-308.12 17.91 1382.0
-309.66 18.22 1405.2
-307.88 18.33 1413.7
-297.23 17.91 1381.3
-288.40 17.59 1356.6
-289.55 17.87 1378.8
-289.37 18.09 1395.2
-286.10 18.11 1396.9
-283.22 18.16 1400.5
-278.36 18.08 1394.4
-282.80 18.61 1435.3
-293.34 19.56 1508.6
-292.21 19.74 1523.1
-287.10 19.66 1516.9
-282.56 19.62 1513.7
-277.32 19.53 1506.6
-282.82 20.20 1558.4
-293.88 21.30 1642.8
-299.99 22.06 1701.6
-722.30 15.53 1497.9
-692.34 14.97 1443.5
-682.40 14.83 1430.5
-665.23 14.54 1402.1
-644.76 14.17 1366.5
-637.61 14.09 1358.8
-630.07 14.00 1350.2
-625.93 13.99 1348.8
-627.24 14.10 1359.2
-620.58 14.02 1352.3
-611.03 13.89 1339.1
-590.80 13.50 1302.2
-573.61 13.19 1271.5
-588.46 13.61 1312.0
-606.80 14.11 1360.8
-609.93 14.27 1375.8
-602.51 14.18 1367.0
-582.69 13.79 1329.9
-571.80 13.61 1312.8
-569.73 13.65 1315.9
-570.81 13.75 1326.3
-579.70 14.05 1355.1
-574.38 14.01 1350.9
-557.01 13.67 1318.1
-552.94 13.65 1316.5
-553.89 13.76 1327.0
-544.44 13.61 1312.5
-532.77 13.40 1292.4
-530.66 13.43 1295.5
-524.39 13.36 1288.3
-522.27 13.39 1291.3
-527.96 13.62 1313.8
-529.85 13.76 1327.1
-520.97 13.62 1313.4
-507.40 13.35 1287.6
-503.77 13.35 1286.8
-499.07 13.31 1283.3
-500.13 13.43 1294.7
-499.72 13.51 1302.4
-494.99 13.47 1298.8
-492.75 13.50 1301.8
-491.56 13.56 1307.6
-491.03 13.64 1315.3
-483.17 13.52 1303.3
-472.59 13.31 1283.7
-465.20 13.20 1272.6
-467.40 13.35 1287.7
-472.24 13.59 1310.4
-470.24 13.63 1314.3
-459.19 13.41 1292.8
-448.56 13.19 1272.2
-450.91 13.36 1288.3
-458.76 13.69 1320.5
-460.59 13.85 1335.8
-451.34 13.68 1318.8
-437.98 13.37 1289.6
-438.17 13.48 1300.1
-437.36 13.56 1307.7
-435.26 13.60 1311.6
-438.13 13.80 1330.7
-426.94 13.55 1307.0
-413.09 13.22 1274.7
-413.46 13.34 1286.1
-415.90 13.53 1304.2
-404.99 13.28 1280.4
-398.08 13.16 1269.0
-407.26 13.58 1309.0
-410.35 13.79 1330.1
-400.76 13.59 1310.0
-397.36 13.59 1310.0
-401.16 13.83 1333.9
-397.42 13.82 1332.9
-390.55 13.70 1321.4
-385.99 13.66 1317.6
-375.04 13.39 1291.6
-364.76 13.14 1267.5
-363.36 13.21 1274.1
-363.30 13.33 1285.6
-363.44 13.46 1298.0
-367.80 13.75 1325.9
-369.91 13.96 1346.0
-362.98 13.83 1333.4
-354.82 13.65 1315.9
-357.31 13.88 1338.0
-360.97 14.16 1365.0
-352.85 13.97 1347.5
-349.07 13.96 1346.4
-354.50 14.32 1381.2
-353.60 14.43 1391.7
-347.77 14.34 1382.9
-345.36 14.39 1387.6
-341.01 14.36 1384.6
-333.12 14.18 1366.9
-326.73 14.05 1355.1
-322.01 14.00 1350.1
-318.70 14.01 1350.8
-310.15 13.78 1329.2
-304.63 13.69 1320.2
-304.94 13.86 1336.6
-304.50 14.00 1350.0
-304.43 14.16 1365.4
-300.63 14.15 1364.2
-293.64 13.98 1348.3
-292.61 14.10 1359.8
-292.98 14.29 1378.1
-293.46 14.49 1397.4
-293.04 14.65 1412.9
-289.72 14.67 1414.6
-286.80 14.71 1418.2
-282.48 14.67 1415.0
-287.65 15.14 1459.9
-295.26 15.75 1518.5
-291.09 15.73 1517.2
-286.17 15.68 1512.1
-281.65 15.65 1508.9
-278.59 15.70 1513.5
-286.58 16.38 1579.1
-287.19 16.65 1605.4
-280.03 16.47 1588.4
-289.04 17.26 1664.0
-296.32 17.96 1731.7
-746.64 12.04 1548.3
-724.35 11.75 1510.2
-694.90 11.33 1456.7
-661.39 10.84 1394.0
-638.38 10.52 1352.9
-629.56 10.43 1341.6
-629.24 10.49 1348.4
-631.84 10.59 1361.5
-633.54 10.68 1372.8
-627.68 10.64 1367.8
-619.35 10.56 1357.3
-600.73 10.30 1324.1
-582.25 10.04 1290.7
-595.43 10.33 1327.5
-608.44 10.61 1364.4
-606.30 10.64 1367.6
-606.56 10.70 1376.2
-592.73 10.52 1352.8
-575.81 10.28 1322.0
-568.55 10.21 1313.2
-570.03 10.30 1324.5
-579.71 10.54 1355.2
-582.61 10.66 1370.2
-573.76 10.56 1357.7
-567.28 10.51 1350.7
-565.84 10.54 1355.6
-550.97 10.33 1328.2
-535.83 10.11 1299.9
-534.46 10.15 1304.7
-530.05 10.13 1302.2
-522.28 10.04 1291.3
-522.38 10.11 1299.9
-522.44 10.18 1308.5
-511.40 10.03 1289.2
-505.57 9.98 1282.9
-507.79 10.09 1297.1
-499.44 9.99 1284.3
-497.26 10.01 1287.3
-499.01 10.12 1300.5
-497.14 10.15 1304.4
-495.24 10.18 1308.4
-495.44 10.25 1317.9
-487.89 10.16 1306.9
-472.75 9.92 1275.2
-473.64 10.01 1286.5
-476.54 10.14 1303.6
-469.12 10.05 1292.5
-466.15 10.06 1293.5
-467.56 10.16 1306.8
-460.20 10.08 1295.7
-447.57 9.87 1269.4
-447.61 9.95 1278.9
-449.91 10.07 1295.0
-446.25 10.07 1294.2
-447.78 10.18 1308.5
-445.39 10.20 1311.4
-434.67 10.03 1289.7
-423.74 9.85 1267.0
-423.93 9.94 1277.5
-427.82 10.11 1299.3
-422.29 10.05 1292.7
-415.56 9.97 1282.3
-411.02 9.94 1278.5
-408.32 9.96 1280.4
-411.63 10.12 1301.4
-417.54 10.35 1331.0
-417.07 10.43 1340.6
-411.24 10.37 1333.0
-401.94 10.22 1313.9
-399.99 10.26 1318.6
-402.61 10.41 1338.7
-396.85 10.35 1331.1
-387.45 10.20 1310.9
-381.50 10.13 1302.2
-376.44 10.08 1296.4
-371.95 10.05 1292.5
-374.07 10.20 1311.7
-378.53 10.42 1339.5
-372.62 10.35 1330.8
-370.48 10.39 1335.5
-368.06 10.42 1339.3
-356.42 10.18 1309.3
-348.32 10.05 1291.8
-350.61 10.21 1313.0
-361.49 10.63 1367.0
-360.71 10.71 1377.5
-350.08 10.50 1350.3
-349.04 10.58 1359.9
-349.67 10.70 1376.2
-345.09 10.67 1372.2
-343.19 10.72 1378.9
-338.87 10.70 1375.8
-335.97 10.72 1378.6
-334.00 10.77 1385.3
-327.59 10.68 1373.4
-322.38 10.63 1366.4
-314.48 10.48 1347.8
-309.14 10.42 1339.8
-309.84 10.56 1358.1
-310.01 10.69 1374.4
-307.05 10.71 1377.1
-300.85 10.62 1365.2
-299.39 10.69 1374.7
-304.19 10.99 1413.6
-302.55 11.07 1423.2
-301.07 11.15 1433.7
-303.60 11.39 1463.8
-303.17 11.51 1480.2
-292.95 11.27 1448.6
-281.50 10.97 1410.1
-282.63 11.16 1434.4
-285.53 11.42 1468.5
-283.18 11.48 1476.0
-280.60 11.53 1482.6
-281.29 11.72 1506.9
-284.21 12.01 1544.0
-286.41 12.27 1578.2
-280.51 12.20 1568.1
-272.05 12.00 1543.2
-279.46 12.51 1608.9
-297.84 13.54 1740.6
-733.88 7.93 1530.1
-694.05 7.54 1454.9
-664.40 7.26 1400.4
-645.64 7.09 1368.3
-635.09 7.02 1353.4
-633.05 7.03 1356.5
-636.05 7.11 1370.6
-638.99 7.18 1384.7
-632.27 7.14 1377.8
-622.68 7.08 1364.6
-610.24 6.97 1345.0
-597.07 6.86 1323.5
-589.30 6.81 1313.9
-581.57 6.76 1304.2
-586.45 6.86 1322.8
-592.85 6.97 1345.1
-583.91 6.91 1332.7
-571.82 6.81 1312.9
-570.15 6.83 1316.9
-577.55 6.96 1342.0
-580.11 7.03 1356.1
-575.96 7.02 1354.6
-569.48 6.99 1347.6
-564.97 6.97 1345.2
-561.23 6.97 1344.6
-544.84 6.81 1313.5
-528.98 6.65 1283.2
-528.40 6.69 1290.0
-530.44 6.76 1303.2
-528.66 6.78 1307.1
-521.64 6.73 1298.1
-514.66 6.68 1289.0
-511.77 6.69 1290.2
-514.75 6.77 1306.2
-515.82 6.83 1317.6
-506.33 6.75 1302.0
-496.55 6.67 1285.4
-492.57 6.66 1283.7
-497.50 6.77 1305.4
-501.98 6.88 1326.2
-492.63 6.79 1310.4
-475.31 6.60 1273.2
-469.98 6.57 1267.7
-480.56 6.77 1305.3
-475.86 6.75 1301.7
-460.93 6.58 1269.9
-457.00 6.58 1268.2
-457.46 6.63 1278.6
-457.19 6.67 1287.2
-452.23 6.65 1282.6
-447.62 6.63 1278.9
-445.65 6.65 1282.8
-443.98 6.68 1287.6
-448.12 6.79 1309.4
-438.64 6.70 1291.5
-421.58 6.49 1250.9
-418.98 6.50 1252.8
-426.14 6.66 1284.1
-434.08 6.84 1318.4
-432.24 6.86 1323.2
-423.58 6.78 1307.1
-417.15 6.73 1297.6
-411.36 6.69 1290.0
-411.64 6.75 1301.4
-413.96 6.84 1319.6
-410.54 6.84 1319.6
-411.55 6.92 1333.9
-409.55 6.94 1338.7
-401.15 6.86 1322.5
-397.43 6.85 1321.5
-391.43 6.81 1312.9
-380.93 6.68 1288.9
-379.54 6.72 1295.5
-380.35 6.79 1309.9
-378.32 6.82 1314.6
-382.85 6.96 1342.5
-386.70 7.10 1368.4
-380.44 7.05 1358.7
-371.03 6.94 1337.5
-361.71 6.82 1316.2
-357.48 6.81 1313.2
-355.61 6.84 1318.9
-350.10 6.80 1311.0
-352.80 6.92 1334.1
-355.64 7.04 1358.2
-348.08 6.96 1342.6
-342.08 6.91 1332.8
-337.60 6.89 1328.8
-337.54 6.96 1342.2
-340.30 7.09 1367.3
-335.52 7.06 1362.3
-332.19 7.07 1363.1
-334.94 7.20 1389.2
-333.16 7.24 1396.8
-327.90 7.21 1389.8
-320.39 7.12 1373.1
-315.89 7.10 1369.0
-317.41 7.21 1391.2
-312.66 7.19 1386.2
-305.32 7.10 1369.4
-304.51 7.17 1381.8
-308.54 7.35 1416.8
-305.45 7.36 1419.5
-295.49 7.21 1389.9
-292.65 7.23 1393.6
-294.06 7.35 1417.8
-295.95 7.49 1445.0
-288.00 7.38 1424.2
-276.62 7.18 1385.6
-277.60 7.31 1408.9
-281.91 7.52 1449.8
-280.92 7.59 1464.3
-277.26 7.60 1465.0
-276.53 7.68 1481.4
-280.23 7.89 1522.4
-283.20 8.09 1560.5
-288.26 8.36 1611.4
-292.89 8.61 1661.4
-757.95 4.08 1571.8
-728.69 3.94 1519.3
-696.21 3.78 1459.4
-671.69 3.67 1415.7
-658.45 3.62 1395.5
-653.36 3.61 1392.3
-641.09 3.56 1373.8
-635.64 3.55 1369.7
-633.13 3.56 1372.0
-622.27 3.52 1356.0
-605.66 3.44 1327.3
-585.87 3.35 1291.3
-581.86 3.34 1289.8
-582.35 3.37 1298.4
-581.17 3.38 1303.3
-592.94 3.47 1337.5
-596.09 3.51 1352.5
-583.11 3.45 1330.9
-569.43 3.39 1307.4
-566.98 3.40 1309.5
-576.76 3.47 1340.2
-581.30 3.52 1358.9
-575.97 3.51 1354.6
-569.10 3.49 1346.7
-559.94 3.46 1333.2
-551.99 3.43 1322.4
-542.55 3.39 1307.9
-533.94 3.36 1295.3
-523.48 3.31 1277.9
-515.74 3.28 1267.1
-528.29 3.39 1306.2
-534.70 3.45 1330.6
-527.27 3.42 1320.6
-523.95 3.42 1320.9
-513.28 3.38 1302.5
-501.24 3.32 1280.4
-505.25 3.37 1299.2
-508.44 3.41 1316.2
-500.10 3.38 1303.3
-501.42 3.41 1315.7
-498.44 3.41 1316.8
-481.02 3.32 1279.6
-486.51 3.38 1303.1
-503.70 3.52 1358.6
-503.02 3.54 1366.3
-488.22 3.46 1335.6
-467.42 3.34 1287.8
-457.01 3.29 1268.2
-461.84 3.35 1290.9
-465.23 3.40 1309.8
-464.21 3.41 1316.6
-464.80 3.44 1328.0
-462.72 3.45 1331.9
-461.59 3.47 1338.6
-455.24 3.45 1330.3
-435.43 3.32 1282.1
-427.97 3.29 1269.8
-435.48 3.38 1302.1
-428.35 3.35 1290.8
-420.95 3.31 1278.5
-428.20 3.40 1310.8
-427.60 3.42 1319.4
-421.13 3.40 1310.0
-415.01 3.37 1301.4
-409.53 3.36 1294.8
-406.18 3.36 1294.8
-409.65 3.41 1316.7
-417.45 3.51 1353.1
-412.78 3.50 1349.3
-401.74 3.43 1324.4
-391.10 3.37 1300.5
-377.43 3.28 1265.9
-374.13 3.28 1265.9
-379.55 3.36 1295.5
-383.70 3.43 1321.4
-385.24 3.47 1338.7
-376.82 3.43 1321.3
-367.67 3.37 1301.0
-370.74 3.43 1324.1
-370.23 3.46 1334.6
-363.57 3.43 1322.9
-362.47 3.45 1331.5
-362.90 3.49 1345.9
-359.39 3.49 1345.8
-351.78 3.45 1330.3
-343.74 3.40 1312.7
-341.06 3.41 1315.5
-339.35 3.43 1322.1
-335.88 3.43 1322.0
-337.05 3.47 1340.3
-338.13 3.52 1358.5
-331.94 3.49 1347.7
-328.40 3.49 1347.6
-331.20 3.56 1373.6
-332.24 3.61 1392.9
-329.97 3.63 1398.6
-324.71 3.61 1391.6
-321.96 3.62 1395.3
-319.19 3.63 1399.0
-310.46 3.57 1376.4
-302.93 3.52 1358.6
-301.07 3.54 1366.2
-301.52 3.59 1384.5
-294.52 3.55 1368.7
-287.38 3.50 1351.8
-287.11 3.54 1367.2
-286.96 3.59 1383.6
-286.93 3.63 1400.9
-288.99 3.70 1429.1
-287.58 3.73 1440.6
-281.09 3.70 1426.6
-277.14 3.70 1425.3
-283.00 3.82 1475.1
-286.37 3.92 1513.1
-282.22 3.92 1511.9
-282.41 3.98 1534.2
-283.56 4.05 1562.5
-285.97 4.14 1598.6
-295.67 4.35 1677.1
-301.04 4.49 1733.0
-297.68 4.51 1739.7
-743.83 -0.00 1550.8
-710.42 -0.00 1489.2
-676.83 -0.00 1426.6
-655.46 -0.00 1389.1
-652.09 -0.00 1389.6
-641.09 -0.00 1373.8
-632.27 -0.00 1362.4
-627.27 -0.00 1359.2
-622.27 -0.00 1356.0
-611.06 -0.00 1339.2
-594.13 -0.00 1309.5
-592.96 -0.00 1314.4
-603.22 -0.00 1344.9
-611.72 -0.00 1371.8
-605.91 -0.00 1366.7
-591.65 -0.00 1342.4
-587.53 -0.00 1340.9
-583.41 -0.00 1339.5
-571.75 -0.00 1320.5
-572.81 -0.00 1331.0
-579.33 -0.00 1354.3
-575.97 -0.00 1354.6
-562.87 -0.00 1332.0
-547.55 -0.00 1303.7
-549.68 -0.00 1316.9
-550.21 -0.00 1326.4
-546.89 -0.00 1326.7
-542.06 -0.00 1323.3
-522.15 -0.00 1282.8
-522.29 -0.00 1291.4
-530.22 -0.00 1319.4
-523.57 -0.00 1311.3
-530.22 -0.00 1336.7
-529.05 -0.00 1342.5
-509.63 -0.00 1301.8
-505.61 -0.00 1300.1
-516.73 -0.00 1337.7
-516.58 -0.00 1346.3
-505.70 -0.00 1326.9
-491.36 -0.00 1298.1
-479.97 -0.00 1276.8
-491.40 -0.00 1316.3
-501.62 -0.00 1353.0
-495.07 -0.00 1344.8
-491.31 -0.00 1344.0
-481.41 -0.00 1326.3
-465.82 -0.00 1292.6
-464.88 -0.00 1299.3
-462.89 -0.00 1303.2
-455.56 -0.00 1292.0
-465.46 -0.00 1329.9
-472.56 -0.00 1360.3
-464.20 -0.00 1346.2
-450.71 -0.00 1317.0
-436.40 -0.00 1284.9
-434.36 -0.00 1288.8
-435.48 -0.00 1302.1
-422.36 -0.00 1272.7
-412.51 -0.00 1252.8
-415.78 -0.00 1272.8
-426.36 -0.00 1315.6
-430.62 -0.00 1339.5
-420.48 -0.00 1318.6
-411.34 -0.00 1300.5
-412.76 -0.00 1315.8
-421.24 -0.00 1354.0
-422.75 -0.00 1370.3
-411.90 -0.00 1346.4
-402.61 -0.00 1327.3
-393.41 -0.00 1308.1
-388.29 -0.00 1302.3
-393.41 -0.00 1331.1
-394.45 -0.00 1346.4
-393.46 -0.00 1355.0
-394.64 -0.00 1371.3
-385.87 -0.00 1353.1
-371.47 -0.00 1314.5
-368.85 -0.00 1317.3
-370.76 -0.00 1336.5
-366.48 -0.00 1333.6
-360.64 -0.00 1324.8
-357.18 -0.00 1324.7
-359.13 -0.00 1344.9
-356.64 -0.00 1348.6
-348.05 -0.00 1329.2
-344.57 -0.00 1329.1
-344.32 -0.00 1341.5
-342.29 -0.00 1347.2
-339.98 -0.00 1351.9
-336.92 -0.00 1353.7
-333.61 -0.00 1354.5
-333.14 -0.00 1367.0
-334.01 -0.00 1385.3
-333.40 -0.00 1397.8
-329.28 -0.00 1395.7
-321.76 -0.00 1379.0
-313.87 -0.00 1360.3
-305.62 -0.00 1339.6
-302.54 -0.00 1341.3
-300.31 -0.00 1346.9
-297.20 -0.00 1348.6
-296.20 -0.00 1360.1
-296.20 -0.00 1376.5
-295.91 -0.00 1391.9
-294.10 -0.00 1400.5
-292.24 -0.00 1409.0
-290.94 -0.00 1420.5
-291.77 -0.00 1442.8
-287.58 -0.00 1440.6
-277.80 -0.00 1409.9
-275.62 -0.00 1417.5
-283.19 -0.00 1476.1
-287.31 -0.00 1518.1
-284.05 -0.00 1521.7
-287.30 -0.00 1560.8
-292.13 -0.00 1609.7
-290.91 -0.00 1626.2
-295.50 -0.00 1676.2
-303.95 -0.00 1749.8
-733.88 -3.97 1530.1
-704.39 -3.83 1476.6
-673.83 -3.68 1420.3
-656.74 -3.61 1391.8
-656.33 -3.63 1398.7
-641.09 -3.56 1373.8
-629.32 -3.52 1356.1
-623.07 -3.50 1350.2
-616.85 -3.49 1344.2
-616.04 -3.50 1350.1
-608.59 -3.48 1341.4
-605.71 -3.48 1342.7
-613.86 -3.55 1368.6
-619.86 -3.60 1390.1
-611.18 -3.57 1378.6
-592.46 -3.49 1344.2
-584.32 -3.46 1333.6
-580.21 -3.45 1332.1
-568.96 -3.41 1314.1
-565.30 -3.41 1313.5
-566.35 -3.43 1323.9
-570.49 -3.48 1341.7
-564.43 -3.46 1335.6
-548.71 -3.39 1306.4
-549.68 -3.41 1316.9
-554.04 -3.46 1335.6
-553.75 -3.48 1343.3
-566.31 -3.58 1382.5
-563.24 -3.59 1383.8
-535.04 -3.43 1322.9
-515.31 -3.32 1282.3
-518.74 -3.37 1299.3
-535.01 -3.50 1348.8
-539.68 -3.55 1369.5
-525.67 -3.48 1342.8
-509.96 -3.40 1311.3
-510.25 -3.42 1320.9
-516.22 -3.49 1345.4
-511.75 -3.48 1342.8
-499.86 -3.42 1320.6
-492.28 -3.40 1309.5
-483.71 -3.36 1295.6
-474.50 -3.32 1279.9
-470.89 -3.32 1279.1
-470.02 -3.33 1285.8
-475.27 -3.39 1309.4
-474.64 -3.41 1317.1
-469.93 -3.41 1313.5
-464.23 -3.39 1307.0
-447.25 -3.29 1268.5
-447.29 -3.31 1278.0
-460.42 -3.44 1325.3
-458.98 -3.45 1331.1
-446.82 -3.39 1305.7
-433.82 -3.31 1277.3
-432.13 -3.32 1282.1
-433.58 -3.36 1296.4
-428.98 -3.35 1292.7
-427.21 -3.36 1297.5
-423.55 -3.36 1296.6
-426.67 -3.41 1316.6
-433.37 -3.49 1348.0
-425.64 -3.46 1334.8
-414.06 -3.39 1309.1
-413.06 -3.41 1316.7
-423.02 -3.53 1359.7
-425.41 -3.57 1378.9
-419.21 -3.55 1370.3
-414.22 -3.54 1365.6
-406.94 -3.51 1353.1
-403.43 -3.51 1353.1
-401.91 -3.53 1359.8
-396.42 -3.51 1353.1
-395.69 -3.53 1362.7
-397.13 -3.58 1380.0
-394.65 -3.59 1383.8
-386.16 -3.54 1366.5
-374.25 -3.47 1336.6
-367.29 -3.43 1324.0
-368.87 -3.48 1342.2
-369.04 -3.51 1355.7
-364.46 -3.50 1351.7
-365.32 -3.55 1368.1
-364.05 -3.57 1376.7
-356.91 -3.53 1363.0
-351.85 -3.52 1357.1
-349.54 -3.53 1361.9
-348.44 -3.56 1371.4
-346.56 -3.57 1378.1
-343.92 -3.58 1381.8
-340.79 -3.59 1383.6
-332.90 -3.54 1366.0
-326.51 -3.51 1354.2
-325.28 -3.54 1363.7
-320.78 -3.53 1359.7
-310.17 -3.45 1329.3
-299.25 -3.36 1296.9
-300.73 -3.42 1318.1
-307.60 -3.54 1363.7
-304.45 -3.54 1365.5
-300.00 -3.53 1361.3
-300.88 -3.58 1381.6
-302.72 -3.65 1406.8
-300.48 -3.66 1413.4
-296.56 -3.66 1412.2
-291.63 -3.65 1406.1
-287.33 -3.64 1402.9
-293.35 -3.76 1450.6
-294.82 -3.83 1476.9
-281.09 -3.70 1426.6
-275.04 -3.67 1414.5
-279.80 -3.78 1458.4
-280.42 -3.84 1481.7
-277.81 -3.86 1488.3
-281.69 -3.97 1530.3
-287.67 -4.11 1585.1
-287.74 -4.17 1608.5
-290.64 -4.27 1648.6
-296.42 -4.42 1706.4
-757.95 -8.15 1571.8
-734.74 -7.94 1531.9
-715.15 -7.77 1499.1
-692.26 -7.57 1459.1
-681.91 -7.49 1445.2
-676.29 -7.47 1441.2
-657.58 -7.31 1409.1
-633.11 -7.07 1364.2
-615.95 -6.92 1334.7
-609.34 -6.89 1327.8
-608.15 -6.91 1332.8
-616.44 -7.05 1358.7
-627.91 -7.22 1391.9
-619.58 -7.16 1381.4
-608.45 -7.08 1364.5
-600.63 -7.02 1354.8
-582.77 -6.86 1322.3
-576.69 -6.82 1316.2
-574.22 -6.84 1318.4
-566.18 -6.78 1307.7
-565.69 -6.82 1314.4
-565.56 -6.86 1322.1
-567.36 -6.92 1334.4
-571.82 -7.02 1353.1
-566.13 -6.99 1347.9
-555.45 -6.90 1330.7
-547.53 -6.84 1319.9
-544.98 -6.86 1322.1
-554.18 -7.01 1352.9
-558.71 -7.12 1372.6
-537.28 -6.89 1328.4
-523.13 -6.75 1301.8
-532.09 -6.91 1332.7
-538.69 -7.04 1358.0
-533.81 -7.02 1354.6
-526.03 -6.97 1343.7
-516.48 -6.89 1328.1
-507.72 -6.82 1314.3
-505.11 -6.83 1316.4
-502.49 -6.84 1318.5
-492.42 -6.75 1300.9
-485.94 -6.70 1292.7
-479.16 -6.65 1283.5
-474.50 -6.64 1279.9
-475.37 -6.70 1291.3
-474.83 -6.74 1298.9
-480.04 -6.86 1322.6
-480.06 -6.91 1332.1
-476.32 -6.90 1331.3
-468.57 -6.84 1319.2
-449.24 -6.61 1274.1
-450.26 -6.67 1286.5
-465.66 -6.95 1340.4
-459.95 -6.92 1333.9
-443.91 -6.73 1297.1
-436.39 -6.66 1284.9
-440.43 -6.78 1306.8
-445.94 -6.91 1333.4
-444.72 -6.95 1340.1
-443.78 -6.99 1347.8
-440.93 -7.00 1349.8
-429.75 -6.88 1326.1
-422.66 -6.82 1314.7
-423.51 -6.89 1328.1
-419.78 -6.88 1327.2
-416.65 -6.89 1328.2
-423.91 -7.07 1362.6
-423.34 -7.11 1372.2
-413.65 -7.01 1352.1
-413.34 -7.07 1362.7
-409.82 -7.07 1362.7
-403.43 -7.02 1353.1
-398.79 -7.00 1349.3
-387.41 -6.86 1322.4
-381.19 -6.81 1312.8
-385.79 -6.95 1340.6
-386.14 -7.02 1354.0
-380.99 -6.99 1348.2
-372.62 -6.90 1330.8
-363.01 -6.79 1308.6
-362.50 -6.84 1319.1
-370.35 -7.05 1360.5
-372.79 -7.17 1382.6
-365.83 -7.10 1370.0
-356.89 -7.00 1349.6
-352.10 -6.97 1344.6
-349.33 -6.99 1347.4
-349.29 -7.06 1360.9
-350.41 -7.15 1379.2
-346.80 -7.15 1379.0
-342.47 -7.13 1376.0
-339.11 -7.14 1376.8
-331.01 -7.04 1358.2
-327.44 -7.04 1358.1
-328.99 -7.15 1379.3
-323.30 -7.11 1370.4
-311.07 -6.91 1333.2
-300.37 -6.75 1301.8
-302.73 -6.88 1326.9
-306.72 -7.05 1359.8
-300.31 -6.98 1346.9
-300.21 -7.06 1362.3
-304.92 -7.26 1400.2
-306.50 -7.39 1424.4
-303.80 -7.41 1429.0
-301.08 -7.43 1433.7
-297.31 -7.43 1433.5
-288.93 -7.31 1410.7
-291.56 -7.48 1441.8
-296.19 -7.69 1483.7
-285.72 -7.52 1450.1
-277.14 -7.39 1425.3
-279.04 -7.54 1454.5
-281.91 -7.72 1489.5
-281.48 -7.82 1507.9
-281.68 -7.93 1530.3
-283.91 -8.11 1564.4
-283.86 -8.23 1586.8
-286.99 -8.44 1627.9
-296.24 -8.84 1705.4
-760.11 -12.26 1576.3
-745.97 -12.10 1555.3
-721.59 -11.77 1512.7
-694.82 -11.39 1464.5
-670.38 -11.05 1420.7
-654.19 -10.84 1394.1
-640.23 -10.67 1371.9
-620.05 -10.39 1336.1
-613.84 -10.35 1330.2
-616.83 -10.45 1344.2
-618.52 -10.54 1355.5
-629.65 -10.79 1387.8
-637.35 -10.99 1412.9
-624.08 -10.82 1391.4
-611.29 -10.66 1370.8
-602.65 -10.57 1359.4
-585.59 -10.33 1328.6
-578.68 -10.27 1320.8
-574.61 -10.26 1319.3
-566.17 -10.17 1307.7
-566.08 -10.23 1315.3
-566.34 -10.30 1323.9
-556.78 -10.19 1309.5
-550.01 -10.12 1301.5
-556.05 -10.30 1323.9
-556.98 -10.38 1334.4
-544.84 -10.22 1313.4
-537.73 -10.15 1304.5
-538.63 -10.23 1314.9
-534.20 -10.21 1312.4
-526.78 -10.13 1302.5
-525.36 -10.17 1307.4
-527.63 -10.28 1321.5
-527.99 -10.35 1331.1
-526.47 -10.39 1336.0
-522.74 -10.39 1335.3
-519.73 -10.39 1336.5
-517.80 -10.43 1340.4
-505.46 -10.25 1317.3
-493.22 -10.07 1294.2
-491.35 -10.10 1298.1
-492.62 -10.19 1310.4
-488.94 -10.19 1309.7
-487.70 -10.23 1315.5
-488.15 -10.31 1326.0
-487.18 -10.37 1332.7
-487.88 -10.45 1344.2
-483.44 -10.43 1341.5
-480.36 -10.44 1342.6
-473.59 -10.37 1333.4
-457.21 -10.09 1296.7
-460.83 -10.24 1316.6
-467.63 -10.47 1346.0
-453.43 -10.23 1315.0
-447.46 -10.17 1307.5
-448.93 -10.28 1321.8
-444.89 -10.27 1320.0
-442.77 -10.30 1323.9
-441.56 -10.35 1330.6
-440.64 -10.41 1338.3
-444.65 -10.59 1361.2
-440.84 -10.58 1360.3
-433.06 -10.48 1347.1
-433.23 -10.57 1358.6
-429.12 -10.55 1356.7
-424.72 -10.53 1353.9
-424.20 -10.60 1363.5
-415.96 -10.49 1348.3
-407.21 -10.35 1331.1
-407.24 -10.44 1342.6
-406.64 -10.52 1352.1
-402.57 -10.50 1350.2
-392.55 -10.33 1328.2
-375.60 -9.97 1282.1
-374.21 -10.02 1288.7
-383.85 -10.37 1333.8
-383.12 -10.45 1343.4
-376.90 -10.37 1333.7
-372.62 -10.35 1330.8
-366.74 -10.28 1322.0
-362.76 -10.27 1320.0
-366.93 -10.48 1347.9
-366.28 -10.57 1358.4
-356.28 -10.38 1334.2
-352.03 -10.35 1331.2
-351.59 -10.44 1342.7
-346.32 -10.39 1335.8
-344.31 -10.43 1341.5
-346.96 -10.62 1365.6
-344.85 -10.67 1371.3
-339.57 -10.61 1364.3
-335.28 -10.59 1361.3
-331.71 -10.59 1361.1
-332.60 -10.73 1379.4
-331.53 -10.81 1390.0
-322.61 -10.64 1367.4
-320.16 -10.67 1372.1
-318.80 -10.75 1381.7
-312.73 -10.66 1370.7
-307.59 -10.61 1363.7
-305.09 -10.64 1368.4
-308.81 -10.90 1401.3
-309.39 -11.05 1420.7
-306.50 -11.08 1424.4
-304.84 -11.15 1433.9
-303.95 -11.26 1447.4
-304.82 -11.43 1469.7
-300.97 -11.43 1469.5
-295.32 -11.36 1460.4
-291.88 -11.37 1462.1
-282.63 -11.16 1434.4
-275.04 -11.00 1414.5
-279.41 -11.33 1456.4
-284.69 -11.70 1504.3
-283.49 -11.81 1518.7
-283.13 -11.96 1538.1
-285.34 -12.23 1572.3
-285.97 -12.43 1598.6
-286.98 -12.66 1627.8
-755.31 -16.24 1566.3
-735.58 -15.90 1533.6
-707.37 -15.38 1482.8
-701.66 -15.34 1478.9
-692.56 -15.22 1467.7
-655.46 -14.49 1396.8
-624.57 -13.88 1338.4
-619.62 -13.85 1335.2
-626.40 -14.08 1357.4
-623.49 -14.09 1358.7
-618.09 -14.05 1354.6
-614.77 -14.05 1355.0
-608.15 -13.98 1348.1
-604.83 -13.98 1348.5
-601.92 -14.00 1349.8
-603.04 -14.11 1360.3
-595.66 -14.02 1351.5
-580.68 -13.74 1325.3
-567.81 -13.52 1303.6
-564.57 -13.52 1304.0
-570.02 -13.74 1324.5
-572.62 -13.88 1338.6
-564.99 -13.78 1328.8
-551.95 -13.54 1306.1
-552.17 -13.63 1314.7
-557.36 -13.85 1335.3
-549.81 -13.75 1325.4
-548.01 -13.79 1329.4
-554.16 -14.03 1352.8
-551.15 -14.04 1354.1
-544.39 -13.96 1346.0
-539.52 -13.92 1342.6
-539.11 -14.00 1350.3
-536.09 -14.02 1351.5
-531.23 -13.98 1348.0
-527.10 -13.96 1346.4
-524.07 -13.98 1347.6
-521.03 -13.99 1348.8
-507.96 -13.73 1323.8
-496.77 -13.52 1303.5
-496.29 -13.60 1311.1
-503.17 -13.88 1338.5
-505.02 -14.03 1352.7
-496.73 -13.89 1339.8
-490.21 -13.81 1331.6
-477.21 -13.54 1305.4
-467.40 -13.35 1287.7
-478.35 -13.77 1327.4
-491.13 -14.24 1372.7
-487.30 -14.23 1372.0
-473.83 -13.94 1343.8
-465.77 -13.80 1330.8
-461.71 -13.78 1329.0
-447.87 -13.47 1298.9
-441.30 -13.37 1289.5
-446.99 -13.65 1316.1
-447.44 -13.77 1327.6
-442.44 -13.72 1322.9
-438.72 -13.71 1322.0
-435.63 -13.72 1323.1
-437.81 -13.90 1340.2
-435.59 -13.94 1344.1
-429.37 -13.85 1335.6
-427.75 -13.91 1341.4
-421.88 -13.83 1333.8
-422.92 -13.98 1348.2
-427.75 -14.26 1374.9
-417.13 -14.02 1352.0
-406.03 -13.76 1327.2
-405.49 -13.86 1336.8
-403.18 -13.90 1340.6
-395.70 -13.76 1327.2
-382.90 -13.44 1295.5
-376.72 -13.34 1285.9
-385.91 -13.78 1329.0
-391.58 -14.11 1360.7
-386.67 -14.06 1355.9
-381.52 -14.00 1350.1
-378.54 -14.02 1351.9
-374.49 -14.00 1350.0
-372.29 -14.05 1354.7
-371.91 -14.17 1366.2
-367.05 -14.12 1361.3
-360.66 -14.01 1350.6
-360.20 -14.13 1362.1
-355.63 -14.08 1358.1
-346.06 -13.84 1334.8
-338.34 -13.67 1318.2
-335.13 -13.68 1319.0
-346.06 -14.27 1376.1
-352.84 -14.70 1417.7
-345.08 -14.53 1401.1
-338.33 -14.40 1388.3
-329.07 -14.15 1364.8
-317.84 -13.82 1332.5
-318.70 -14.01 1350.8
-325.83 -14.48 1396.4
-326.89 -14.69 1416.7
-323.18 -14.69 1416.5
-317.92 -14.62 1409.5
-315.31 -14.67 1414.2
-310.53 -14.61 1409.1
-302.36 -14.40 1388.4
-301.23 -14.52 1399.9
-302.13 -14.74 1421.2
-297.37 -14.68 1416.0
-294.86 -14.74 1421.7
-298.55 -15.12 1457.7
-300.27 -15.40 1484.9
-294.22 -15.28 1473.8
-282.62 -14.87 1434.3
-274.84 -14.66 1413.5
-278.84 -15.07 1453.4
-284.87 -15.61 1505.2
-284.59 -15.81 1524.6
-286.56 -16.14 1556.8
-291.76 -16.67 1607.7
-287.72 -16.68 1608.4
-282.98 -16.65 1605.2
-284.76 -17.00 1639.4
-748.35 -20.12 1551.9
-705.73 -19.07 1471.4
-708.22 -19.25 1484.6
-727.36 -19.87 1533.1
-721.13 -19.81 1528.3
-684.75 -18.92 1459.2
-655.43 -18.21 1404.5
-651.17 -18.19 1403.2
-646.92 -18.17 1401.8
-633.49 -17.90 1380.5
-625.96 -17.78 1371.8
-620.12 -17.72 1366.8
-608.54 -17.49 1349.0
-600.31 -17.35 1338.4
-600.27 -17.45 1346.1
-604.25 -17.67 1363.0
-608.14 -17.89 1379.8
-604.34 -17.88 1379.3
-587.76 -17.49 1349.5
-579.65 -17.35 1338.8
-583.05 -17.56 1354.8
-582.83 -17.66 1362.5
-575.54 -17.55 1353.6
-562.83 -17.26 1331.9
-564.16 -17.41 1343.2
-571.98 -17.76 1370.3
-566.65 -17.71 1366.0
-567.43 -17.84 1376.5
-569.31 -18.02 1389.8
-562.07 -17.90 1380.9
-549.62 -17.62 1359.0
-539.88 -17.42 1343.5
-532.06 -17.27 1332.6
-522.80 -17.09 1318.0
-523.88 -17.23 1329.4
-525.63 -17.41 1342.7
-519.35 -17.31 1335.5
-512.73 -17.21 1327.3
-500.42 -16.91 1304.2
-491.42 -16.71 1289.4
-496.99 -17.02 1313.0
-510.19 -17.59 1357.2
-517.60 -17.97 1386.4
-515.13 -18.01 1389.5
-499.53 -17.59 1356.9
-477.89 -16.95 1307.3
-463.29 -16.55 1276.4
-469.18 -16.88 1301.9
-486.06 -17.61 1358.6
-486.28 -17.75 1369.1
-476.81 -17.53 1352.3
-473.36 -17.53 1352.4
-471.21 -17.58 1356.4
-459.60 -17.28 1332.9
-445.82 -16.89 1302.7
-444.72 -16.97 1309.4
-446.79 -17.18 1325.6
-443.38 -17.19 1325.7
-445.32 -17.40 1341.9
-448.44 -17.66 1362.0
-439.97 -17.46 1346.9
-426.95 -17.08 1317.4
-418.96 -16.89 1303.2
-415.28 -16.88 1302.3
-413.42 -16.94 1307.1
-418.72 -17.30 1334.8
-426.55 -17.77 1371.1
-418.59 -17.59 1356.8
-401.63 -17.02 1312.8
-395.61 -16.91 1304.2
-398.85 -17.19 1326.2
-396.83 -17.25 1331.0
-393.66 -17.27 1331.9
-397.51 -17.59 1356.9
-390.92 -17.45 1346.3
-380.51 -17.14 1322.2
-379.26 -17.24 1329.9
-378.79 -17.38 1340.4
-378.53 -17.52 1351.9
-377.68 -17.65 1361.5
-370.96 -17.50 1349.8
-366.91 -17.47 1347.8
-367.04 -17.65 1361.3
-365.55 -17.75 1368.9
-362.49 -17.77 1370.8
-354.86 -17.57 1355.2
-345.05 -17.25 1330.9
-336.59 -17.00 1311.4
-330.20 -16.85 1299.6
-336.78 -17.36 1339.2
-351.14 -18.29 1410.8
-350.33 -18.44 1422.4
-341.16 -18.15 1399.9
-329.53 -17.72 1366.7
-319.45 -17.36 1339.3
-321.90 -17.69 1364.4
-324.46 -18.03 1390.5
-320.81 -18.02 1390.4
-315.83 -17.94 1384.3
-309.77 -17.80 1373.4
-305.95 -17.79 1372.2
-300.19 -17.66 1362.2
-295.97 -17.62 1359.0
-299.54 -18.04 1392.0
-296.51 -18.08 1394.7
-287.91 -17.77 1371.0
-287.55 -17.97 1386.4
-293.53 -18.58 1433.1
-294.91 -18.90 1458.4
-288.54 -18.74 1445.4
-283.38 -18.64 1438.2
-282.27 -18.82 1451.7
-275.25 -18.60 1434.7
-269.43 -18.45 1423.6
-275.41 -19.13 1475.4
-283.84 -19.99 1542.0
-289.61 -20.69 1595.8
-286.66 -20.77 1602.4
-286.97 -21.10 1627.8
-294.00 -21.94 1692.5
-288.46 -22.19 1711.7
-757.88 -24.45 1571.6
-729.92 -23.67 1521.8
-745.65 -24.31 1563.1
-732.06 -24.00 1543.0
-698.92 -23.04 1481.2
-680.48 -22.56 1450.1
-664.71 -22.16 1424.4
-649.47 -21.77 1399.5
-634.75 -21.40 1375.5
-624.71 -21.18 1361.4
-620.55 -21.15 1360.0
-623.82 -21.39 1375.0
-620.45 -21.39 1375.4
-610.52 -21.17 1361.2
-609.62 -21.27 1367.1
-607.87 -21.33 1371.1
-606.11 -21.39 1375.2
-609.54 -21.64 1391.2
-600.92 -21.46 1379.7
-584.00 -20.98 1348.9
-577.89 -20.89 1342.8
-574.16 -20.88 1342.2
-563.39 -20.61 1325.1
-563.98 -20.76 1334.6
-579.24 -21.45 1379.1
-582.36 -21.70 1395.2
-573.53 -21.51 1382.6
-569.32 -21.48 1381.1
-565.88 -21.49 1381.4
-557.15 -21.29 1368.8
-543.23 -20.89 1343.2
-533.52 -20.65 1327.7
-526.85 -20.53 1319.6
-519.10 -20.36 1308.7
-522.76 -20.64 1326.6
-522.33 -20.76 1334.3
-514.62 -20.58 1323.3
-510.91 -20.57 1322.6
-502.20 -20.36 1308.8
-494.61 -20.19 1297.8
-501.57 -20.61 1325.1
-505.95 -20.94 1345.9
-504.64 -21.03 1351.7
-502.95 -21.10 1356.6
-488.46 -20.64 1326.8
-484.74 -20.63 1326.0
-487.16 -20.88 1342.2
-474.93 -20.50 1317.9
-473.58 -20.59 1323.7
-470.20 -20.59 1323.8
-457.84 -20.20 1298.5
-461.45 -20.51 1318.4
-466.28 -20.88 1342.2
-462.52 -20.87 1341.3
-456.17 -20.73 1333.0
-447.92 -20.52 1318.9
-442.62 -20.43 1313.3
-437.97 -20.37 1309.6
-437.75 -20.52 1319.1
-449.36 -21.23 1364.8
-449.89 -21.42 1377.2
-433.72 -20.82 1338.3
-422.62 -20.45 1314.6
-424.69 -20.72 1331.8
-428.48 -21.07 1354.7
-423.49 -21.00 1350.0
-420.60 -21.03 1351.9
-419.17 -21.13 1358.7
-408.64 -20.78 1335.7
-401.11 -20.57 1322.4
-403.44 -20.87 1341.5
-401.39 -20.94 1346.3
-397.90 -20.94 1346.3
-399.75 -21.23 1364.5
-391.47 -20.97 1348.2
-386.03 -20.87 1341.4
-390.49 -21.30 1369.2
-386.39 -21.27 1367.3
-382.83 -21.27 1367.3
-379.54 -21.28 1368.2
-370.94 -21.00 1349.8
-361.91 -20.68 1329.5
-357.40 -20.62 1325.5
-358.06 -20.86 1340.9
-356.34 -20.96 1347.5
-352.32 -20.93 1345.5
-345.54 -20.73 1332.8
-342.05 -20.73 1332.6
-339.79 -20.80 1337.4
-335.31 -20.74 1333.3
-338.09 -21.13 1358.4
-343.14 -21.67 1393.2
-339.50 -21.67 1393.1
-332.57 -21.46 1379.3
-327.79 -21.38 1374.3
-324.65 -21.41 1376.1
-321.72 -21.45 1378.8
-314.73 -21.22 1364.0
-306.92 -20.93 1345.3
-301.18 -20.77 1335.3
-298.10 -20.80 1337.0
-301.47 -21.28 1368.0
-306.60 -21.90 1407.8
-304.58 -22.02 1415.4
-296.08 -21.66 1392.7
-290.16 -21.49 1381.7
-292.61 -21.95 1410.8
-294.92 -22.40 1439.9
-292.33 -22.49 1445.6
-289.70 -22.57 1451.2
-287.82 -22.72 1460.7
-283.41 -22.67 1457.5
-273.17 -22.15 1423.9
-266.82 -21.93 1409.8
-271.54 -22.63 1454.7
-278.40 -23.53 1512.4
-282.46 -24.21 1556.4
-291.22 -25.32 1628.0
-287.87 -26.17 1682.3
-751.95 -28.45 1567.8
-746.92 -28.42 1565.7
-716.60 -27.41 1510.4
-698.47 -26.86 1480.3
-691.08 -26.73 1472.7
-671.03 -26.10 1437.9
-651.13 -25.46 1403.1
-638.49 -25.11 1383.6
-630.53 -24.94 1374.0
-613.05 -24.38 1343.5
-603.56 -24.14 1330.3
-620.01 -24.94 1374.4
-629.33 -25.46 1403.1
-611.23 -24.88 1370.7
-593.26 -24.29 1338.2
-590.36 -24.31 1339.5
-592.66 -24.55 1352.7
-588.52 -24.52 1351.2
-576.43 -24.16 1331.4
-565.62 -23.85 1314.3
-557.23 -23.64 1302.6
-560.63 -23.93 1318.6
-576.81 -24.77 1364.9
-580.38 -25.08 1381.9
-571.94 -24.87 1370.2
-568.91 -24.89 1371.5
-570.44 -25.11 1383.8
-568.89 -25.20 1388.8
-561.65 -25.04 1379.9
-554.08 -24.86 1370.0
-549.91 -24.83 1368.4
-539.43 -24.52 1351.1
-528.30 -24.17 1331.8
-531.18 -24.46 1347.9
-530.70 -24.60 1355.6
-518.59 -24.20 1333.5
-510.54 -23.98 1321.6
-499.31 -23.62 1301.3
-489.25 -23.30 1283.7
-503.68 -24.15 1330.7
-514.38 -24.83 1368.3
-501.13 -24.36 1342.3
-487.29 -23.85 1314.4
-479.46 -23.64 1302.3
-483.00 -23.98 1321.3
-491.57 -24.58 1354.3
-485.76 -24.46 1347.9
-474.24 -24.06 1325.5
-461.82 -23.60 1300.2
-457.16 -23.53 1296.6
-469.03 -24.32 1340.1
-468.23 -24.46 1347.8
-458.91 -24.15 1330.9
-458.41 -24.31 1339.5
-455.62 -24.35 1341.5
-448.03 -24.12 1329.3
-439.86 -23.87 1315.2
-433.64 -23.71 1306.7
-438.40 -24.16 1331.5
-444.91 -24.72 1362.0
-434.93 -24.36 1342.1
-420.46 -23.74 1307.9
-420.11 -23.91 1317.4
-427.56 -24.53 1351.8
-426.47 -24.67 1359.5
-419.39 -24.46 1348.1
-413.85 -24.34 1341.4
-410.38 -24.34 1341.4
-409.22 -24.48 1349.1
-407.46 -24.59 1354.8
-401.95 -24.47 1348.1
-394.48 -24.22 1334.7
-392.14 -24.29 1338.5
-391.73 -24.48 1349.1
-394.31 -24.87 1370.2
-398.70 -25.37 1398.0
-393.98 -25.30 1394.2
-382.01 -24.76 1364.3
-370.71 -24.25 1336.3
-371.19 -24.51 1350.7
-371.35 -24.76 1364.1
-363.11 -24.44 1346.7
-359.33 -24.42 1345.6
-359.65 -24.68 1360.0
-357.37 -24.77 1364.8
-353.55 -24.75 1363.7
-352.47 -24.92 1373.3
-347.90 -24.85 1369.3
-340.41 -24.57 1353.6
-336.87 -24.56 1353.5
-335.00 -24.68 1360.1
-335.93 -25.02 1378.4
-333.96 -25.14 1385.1
-331.03 -25.19 1387.8
-330.37 -25.41 1400.3
-327.61 -25.48 1404.1
-320.79 -25.23 1390.2
-313.14 -24.91 1372.5
-307.77 -24.76 1364.5
-304.62 -24.79 1366.2
-307.48 -25.32 1395.3
-309.77 -25.81 1422.4
-304.57 -25.69 1415.4
-300.85 -25.68 1415.1
-299.60 -25.89 1426.7
-295.44 -25.85 1424.5
-291.50 -25.83 1423.2
-288.94 -25.93 1428.8
-285.97 -26.00 1432.5
-286.45 -26.38 1453.8
-284.16 -26.52 1461.4
-280.69 -26.55 1463.1
-281.31 -26.97 1486.4
-279.79 -27.20 1498.9
-279.47 -27.55 1518.2
-278.16 -27.82 1532.7
-281.18 -28.53 1571.8
-292.15 -30.07 1657.2
-286.62 -29.94 1650.0
-277.91 -29.47 1624.1
-753.65 -32.59 1571.3
-730.10 -31.74 1530.5
-713.14 -31.18 1503.1
-706.12 -31.04 1496.5
-692.32 -30.60 1475.3
-665.93 -29.60 1427.0
-661.20 -29.55 1424.8
-661.93 -29.75 1434.4
-652.18 -29.48 1421.2
-633.36 -28.79 1388.1
-618.81 -28.29 1363.9
-631.09 -29.02 1399.0
-635.85 -29.40 1417.7
-612.83 -28.50 1374.3
-593.64 -27.77 1339.0
-589.12 -27.72 1336.7
-590.23 -27.94 1347.1
-584.90 -27.85 1342.9
-577.20 -27.65 1333.1
-571.52 -27.54 1328.0
-566.65 -27.47 1324.6
-573.91 -28.00 1349.8
-578.73 -28.40 1369.5
-571.45 -28.22 1360.6
-565.75 -28.11 1355.4
-566.20 -28.31 1365.0
-568.13 -28.59 1378.2
-566.21 -28.67 1382.3
-564.65 -28.77 1387.2
-562.31 -28.84 1390.3
-553.61 -28.57 1377.7
-537.56 -27.93 1346.4
-530.49 -27.74 1337.4
-537.75 -28.30 1364.6
-544.89 -28.87 1391.9
-540.67 -28.84 1390.3
-520.60 -27.95 1347.7
-497.86 -26.91 1297.5
-486.73 -26.49 1277.1
-500.47 -27.42 1322.2
-516.12 -28.48 1372.9
-507.75 -28.21 1360.0
-495.96 -27.75 1337.8
-489.45 -27.57 1329.5
-478.17 -27.13 1308.1
-472.79 -27.02 1302.6
-478.96 -27.57 1329.1
-479.94 -27.82 1341.5
-475.52 -27.77 1338.8
-479.75 -28.22 1360.6
-483.87 -28.67 1382.5
-475.10 -28.36 1367.5
-462.15 -27.80 1340.3
-458.07 -27.76 1338.5
-456.57 -27.88 1344.3
-450.25 -27.71 1335.9
-444.28 -27.55 1328.4
-440.23 -27.51 1326.6
-438.38 -27.61 1331.4
-438.06 -27.81 1341.0
-433.99 -27.78 1339.2
-425.33 -27.44 1323.0
-418.88 -27.24 1313.6
-421.21 -27.62 1331.7
-424.35 -28.06 1352.7
-422.05 -28.14 1356.6
-415.30 -27.92 1346.1
-410.06 -27.80 1340.4
-404.27 -27.64 1332.8
-397.94 -27.44 1323.2
-399.07 -27.76 1338.5
-397.86 -27.92 1346.2
-395.21 -27.98 1349.0
-393.94 -28.14 1356.7
-386.27 -27.84 1342.2
-380.31 -27.66 1333.6
-377.11 -27.68 1334.5
-366.62 -27.16 1309.4
-363.21 -27.16 1309.3
-371.18 -28.01 1350.6
-373.70 -28.47 1372.8
-367.26 -28.25 1362.1
-360.09 -27.97 1348.5
-356.31 -27.95 1347.4
-358.11 -28.37 1367.6
-357.80 -28.62 1380.1
-355.69 -28.74 1385.8
-349.60 -28.54 1376.0
-340.89 -28.11 1355.5
-335.65 -27.97 1348.6
-339.05 -28.55 1376.6
-345.62 -29.41 1418.2
-341.21 -29.35 1415.2
-336.11 -29.23 1409.2
-335.18 -29.47 1420.7
-332.14 -29.52 1423.5
-329.76 -29.64 1429.1
-326.69 -29.70 1431.9
-322.50 -29.65 1429.8
-320.71 -29.83 1438.4
-314.14 -29.57 1425.5
-307.21 -29.26 1410.6
-308.34 -29.72 1432.9
-311.02 -30.34 1463.0
-309.24 -30.54 1472.6
-304.36 -30.44 1467.5
-294.49 -29.82 1437.8
-285.96 -29.33 1414.1
-283.02 -29.40 1417.7
-283.54 -29.85 1439.0
-280.52 -29.92 1442.7
-276.35 -29.88 1440.4
-281.67 -30.87 1488.3
-284.91 -31.66 1526.3
-281.45 -31.71 1529.0
-276.90 -31.65 1525.8
-271.13 -31.44 1515.6
-271.66 -31.96 1540.9
-280.61 -33.51 1615.5
-720.82 -35.45 1519.3
-700.54 -34.64 1484.7
-675.72 -33.60 1440.0
-658.71 -32.94 1411.5
-662.85 -33.33 1428.3
-658.54 -33.30 1427.0
-644.65 -32.78 1404.8
-632.09 -32.32 1385.3
-622.92 -32.04 1373.0
-628.18 -32.49 1392.5
-626.40 -32.59 1396.6
-613.21 -32.09 1375.1
-602.93 -31.73 1360.0
-590.71 -31.27 1340.3
-584.59 -31.13 1334.2
-586.87 -31.44 1347.4
-586.71 -31.62 1355.1
-582.56 -31.58 1353.6
-579.99 -31.64 1355.8
-578.19 -31.73 1359.8
-574.81 -31.74 1360.2
-575.68 -31.98 1370.7
-578.43 -32.33 1385.8
-574.99 -32.34 1386.1
-572.68 -32.42 1389.2
-566.94 -32.29 1384.0
-560.47 -32.13 1377.0
-560.40 -32.33 1385.6
-553.58 -32.14 1377.6
-543.83 -31.78 1362.1
-542.63 -31.92 1368.0
-539.56 -31.95 1369.2
-537.21 -32.02 1372.2
-533.03 -31.98 1370.7
-513.01 -30.99 1328.0
-506.43 -30.80 1319.8
-510.56 -31.26 1339.7
-505.05 -31.13 1334.3
-502.72 -31.20 1337.3
-502.48 -31.40 1345.9
-498.37 -31.37 1344.2
-497.72 -31.55 1351.9
-491.19 -31.35 1343.7
-482.66 -31.03 1329.8
-486.73 -31.51 1350.6
-482.28 -31.45 1348.0
-472.48 -31.04 1330.2
-474.73 -31.42 1346.4
-476.58 -31.77 1361.7
-471.79 -31.69 1358.0
-463.10 -31.34 1343.1
-459.34 -31.32 1342.2
-458.47 -31.50 1349.9
-454.37 -31.46 1348.1
-451.55 -31.50 1350.1
-446.82 -31.42 1346.4
-445.55 -31.57 1353.2
-443.31 -31.67 1357.1
-436.74 -31.45 1347.6
-431.12 -31.29 1341.1
-427.67 -31.29 1341.1
-425.41 -31.38 1345.0
-424.33 -31.56 1352.7
-421.14 -31.59 1353.7
-413.51 -31.27 1340.3
-408.00 -31.12 1333.6
-401.35 -30.87 1323.1
-390.43 -30.29 1298.2
-387.34 -30.31 1299.1
-397.56 -31.39 1345.1
-406.15 -32.35 1386.4
-401.17 -32.24 1381.6
-390.12 -31.63 1355.6
-380.29 -31.11 1333.5
-372.74 -30.78 1319.0
-369.84 -30.82 1320.9
-373.88 -31.45 1347.7
-374.34 -31.78 1362.1
-367.90 -31.53 1351.5
-360.21 -31.17 1335.9
-352.08 -30.76 1318.5
-352.97 -31.14 1334.8
-358.60 -31.95 1369.5
-361.54 -32.54 1394.5
-362.63 -32.97 1412.8
-354.02 -32.51 1393.4
-342.09 -31.74 1360.3
-335.63 -31.47 1348.5
-338.31 -32.05 1373.6
-343.71 -32.91 1410.3
-338.14 -32.72 1402.4
-331.92 -32.47 1391.6
-330.34 -32.67 1400.2
-330.99 -33.10 1418.5
-332.67 -33.64 1441.7
-331.12 -33.86 1451.3
-327.98 -33.93 1454.1
-326.34 -34.15 1463.7
-320.14 -33.90 1452.8
-312.08 -33.44 1433.0
-312.74 -33.91 1453.3
-313.92 -34.45 1476.6
-310.66 -34.52 1479.3
-309.22 -34.79 1490.9
-302.30 -34.44 1476.0
-292.28 -33.73 1445.4
-287.70 -33.63 1441.2
-286.23 -33.90 1452.7
-281.65 -33.80 1448.5
-275.39 -33.49 1435.4
-278.68 -34.36 1472.5
