ply
format ascii 1.0
element vertex 2280
property float x
property float y
property float z
end_header
617.94 499.97 2166.8
621.26 498.13 2158.8
627.26 498.45 2160.2
632.72 498.33 2159.7
628.48 490.65 2126.4
630.22 487.73 2113.8
642.01 492.58 2134.8
646.82 492.03 2132.4
654.76 493.84 2140.3
682.88 510.73 2213.4
697.13 517.04 2240.8
685.20 503.99 2184.2
694.50 506.64 2195.7
719.87 520.88 2257.4
724.30 519.86 2253.0
725.10 516.27 2237.4
736.74 520.39 2255.3
753.04 527.72 2287.1
459.62 561.76 2462.2
460.71 555.38 2434.3
457.07 543.54 2382.4
456.89 536.08 2349.7
461.06 533.86 2340.0
468.82 535.80 2348.5
481.07 542.74 2378.9
484.45 539.64 2365.3
483.21 531.53 2329.8
485.80 527.78 2313.3
486.68 522.29 2289.3
492.37 522.03 2288.1
501.37 525.24 2302.2
509.60 527.58 2312.5
505.98 517.74 2269.3
497.63 503.35 2206.2
507.42 507.42 2224.1
519.94 514.09 2253.3
521.50 509.91 2235.0
515.12 498.14 2183.4
508.72 486.60 2132.8
513.96 486.33 2131.6
527.28 493.63 2163.6
537.26 497.67 2181.3
533.88 489.39 2145.0
529.84 480.68 2106.9
537.87 482.98 2117.0
543.28 482.91 2116.7
549.66 483.70 2120.1
555.07 483.63 2119.8
554.98 478.81 2098.7
562.85 480.88 2107.8
578.14 489.19 2144.2
591.28 495.55 2172.1
597.31 495.88 2173.5
606.74 499.00 2187.2
620.45 505.55 2215.9
621.54 501.80 2199.4
620.94 496.75 2177.3
612.94 485.94 2129.9
607.43 477.27 2091.9
633.87 493.63 2163.7
652.34 503.56 2207.2
643.66 492.54 2158.9
644.60 489.01 2143.4
657.65 494.64 2168.1
675.39 503.68 2207.7
691.01 511.00 2239.8
690.82 506.60 2220.5
691.70 503.05 2204.9
715.19 515.87 2261.1
728.55 521.24 2284.7
719.29 510.46 2237.4
725.17 510.52 2237.7
742.58 518.63 2273.2
452.52 546.80 2424.2
448.98 535.09 2372.3
462.83 544.14 2412.5
478.94 555.57 2463.1
470.75 538.89 2389.1
466.59 527.19 2337.3
474.55 529.31 2346.7
473.55 521.50 2312.1
467.61 508.52 2254.5
465.79 500.30 2218.1
471.10 499.83 2216.0
481.13 504.31 2235.9
490.62 508.15 2252.9
498.73 510.46 2263.1
509.01 514.93 2282.9
515.52 515.52 2285.5
521.60 515.67 2286.2
526.66 509.10 2257.1
514.05 491.46 2178.9
515.56 487.54 2161.5
529.80 495.62 2197.3
536.58 496.62 2201.8
539.64 494.20 2191.0
540.76 490.07 2172.7
541.08 485.29 2151.6
555.47 493.12 2186.3
567.61 498.81 2211.5
560.50 487.63 2161.9
552.15 475.61 2108.6
561.52 478.94 2123.4
579.28 489.30 2169.3
594.72 497.50 2205.7
607.50 503.36 2231.6
610.57 501.13 2221.8
616.46 501.24 2222.2
625.52 503.89 2234.0
623.19 497.41 2205.3
620.73 490.94 2176.6
609.75 477.91 2118.8
616.34 474.53 2103.8
648.80 495.14 2195.2
654.33 495.01 2194.6
666.89 500.17 2217.5
692.04 514.59 2281.4
694.61 512.13 2270.5
694.25 507.56 2250.3
686.81 497.94 2207.6
679.47 488.54 2165.9
690.79 492.61 2184.0
692.98 490.16 2173.1
690.93 484.77 2149.2
703.84 489.87 2171.8
727.17 502.09 2226.0
761.15 521.41 2311.7
447.21 549.42 2464.2
458.35 555.18 2490.0
466.93 557.72 2501.4
454.67 535.64 2402.4
460.87 535.61 2402.2
469.50 538.36 2414.6
454.38 514.17 2306.1
447.71 500.04 2242.7
453.31 499.80 2241.6
460.08 500.84 2246.3
461.90 496.55 2227.0
466.64 495.45 2222.1
479.28 502.66 2254.4
484.26 501.76 2250.4
488.60 500.23 2243.6
493.53 499.33 2239.5
500.99 500.99 2246.9
507.83 502.00 2251.5
514.70 503.00 2256.0
521.15 503.58 2258.6
513.39 490.57 2200.3
511.63 483.52 2168.6
524.22 490.03 2197.8
541.30 500.56 2245.0
551.21 504.30 2261.8
555.35 502.74 2254.8
557.33 499.28 2239.3
548.75 486.52 2182.1
555.04 487.08 2184.6
572.52 497.34 2230.6
570.84 490.93 2201.8
560.36 477.14 2140.0
567.31 478.32 2145.3
586.39 489.61 2195.9
602.66 498.35 2235.1
610.39 499.94 2242.2
607.26 492.68 2209.7
604.50 485.86 2179.1
604.22 481.14 2157.9
615.80 485.86 2179.1
628.29 491.21 2203.1
623.85 483.34 2167.8
617.33 474.02 2126.0
614.45 467.64 2097.4
623.08 470.04 2108.2
627.84 469.51 2105.8
639.35 474.00 2125.9
678.76 498.92 2237.7
695.54 506.92 2273.5
687.68 496.98 2229.0
672.34 481.85 2161.1
672.49 477.97 2143.7
693.50 488.86 2192.6
702.84 491.42 2204.0
708.64 491.48 2204.3
709.62 488.22 2189.7
717.81 489.93 2197.4
749.29 507.39 2275.7
448.49 544.59 2471.3
459.12 549.65 2494.2
471.48 556.61 2525.8
462.73 538.79 2444.9
453.01 520.35 2361.3
446.24 505.74 2294.9
447.63 500.64 2271.8
456.75 504.21 2288.0
454.33 495.10 2246.7
453.26 487.68 2213.0
467.11 496.30 2252.1
483.76 507.65 2303.6
487.25 505.08 2292.0
483.28 494.93 2245.9
486.77 492.57 2235.2
490.21 490.21 2224.5
499.33 493.53 2239.5
508.31 496.63 2253.6
509.10 491.74 2231.4
508.89 486.02 2205.5
504.33 476.31 2161.4
505.39 472.06 2142.1
514.51 475.36 2157.1
529.44 483.89 2195.8
541.77 489.90 2223.1
548.39 490.67 2226.6
563.05 498.54 2262.3
566.92 496.78 2254.3
555.33 481.66 2185.7
554.83 476.37 2161.7
560.58 476.50 2162.3
557.92 469.54 2130.7
556.60 463.83 2104.8
567.77 468.55 2126.2
580.31 474.29 2152.2
583.21 472.12 2142.4
592.80 475.36 2157.1
602.19 478.38 2170.8
603.74 475.16 2156.2
616.38 480.67 2181.2
634.24 490.10 2224.0
635.80 486.87 2209.3
624.19 473.72 2149.6
615.86 463.26 2102.2
622.01 463.78 2104.5
648.43 471.08 2137.7
669.84 482.51 2189.5
665.81 475.58 2158.1
673.26 476.89 2164.1
699.19 491.17 2228.8
721.88 502.95 2282.3
732.33 506.08 2296.5
733.56 502.84 2281.8
728.98 495.71 2249.4
730.02 492.47 2234.8
753.03 504.00 2287.0
460.60 544.94 2502.3
455.94 531.92 2442.5
459.88 529.17 2429.9
462.10 524.54 2408.6
459.91 515.10 2365.3
465.64 514.65 2363.2
472.69 515.66 2367.8
467.74 503.72 2313.0
460.95 490.13 2250.6
469.54 493.01 2263.8
481.60 499.44 2293.3
480.19 491.90 2258.7
474.68 480.40 2205.9
476.20 476.20 2186.6
488.57 482.82 2217.0
507.25 495.46 2275.1
518.48 500.60 2298.7
521.54 497.84 2286.0
519.05 489.89 2249.5
512.15 478.00 2194.9
515.75 476.08 2186.1
528.39 482.45 2215.3
528.10 477.00 2190.3
523.98 468.24 2150.1
528.08 466.94 2144.1
540.89 473.28 2173.2
553.85 479.62 2202.3
550.31 471.69 2165.9
551.22 467.70 2147.6
558.17 468.86 2152.9
560.68 466.31 2141.2
565.14 465.41 2137.1
567.80 463.06 2126.3
572.19 462.16 2122.2
578.62 462.90 2125.5
591.02 468.36 2150.6
606.42 476.07 2186.0
614.07 477.61 2193.1
614.56 473.61 2174.7
618.99 472.69 2170.5
628.27 475.45 2183.2
624.23 468.17 2149.8
621.95 462.34 2123.0
634.80 467.75 2147.8
645.25 471.31 2164.2
653.24 473.03 2172.1
659.84 473.73 2175.3
659.86 469.73 2156.9
677.98 478.57 2197.5
709.08 496.36 2279.2
713.02 494.99 2272.9
713.08 490.98 2254.5
724.07 494.48 2270.6
724.33 490.68 2253.1
736.58 494.99 2272.9
757.75 505.16 2319.6
769.94 509.25 2338.4
462.43 540.59 2512.2
458.33 528.35 2455.3
462.85 526.25 2445.6
468.97 526.01 2444.4
471.35 521.63 2424.1
467.96 511.06 2375.0
465.65 501.94 2332.6
472.83 503.14 2338.2
477.09 501.25 2329.4
472.16 489.87 2276.5
471.59 483.24 2245.7
480.03 485.88 2258.0
483.78 483.78 2248.2
477.07 471.39 2190.6
481.45 470.12 2184.7
494.74 477.48 2218.9
501.73 478.66 2224.4
510.49 481.49 2237.5
514.03 479.38 2227.7
510.41 470.71 2187.5
517.59 472.09 2193.9
530.71 478.79 2225.0
529.52 472.58 2196.2
530.74 468.63 2177.8
540.06 471.84 2192.7
534.78 462.37 2148.7
529.53 453.11 2105.7
545.29 461.82 2146.2
565.37 473.99 2202.7
573.93 476.36 2213.7
578.08 475.05 2207.6
571.18 464.78 2159.9
563.29 453.91 2109.4
577.83 461.16 2143.1
594.85 470.22 2185.2
602.99 472.16 2194.2
613.79 476.12 2212.6
626.52 481.49 2237.6
632.98 481.99 2239.9
635.95 479.85 2230.0
642.94 480.75 2234.1
637.37 472.34 2195.0
633.55 465.35 2162.6
651.22 474.13 2203.4
666.28 480.88 2234.7
663.43 474.70 2206.0
657.89 466.71 2168.9
667.64 469.61 2182.3
697.37 486.40 2260.4
723.10 500.15 2324.3
720.70 494.36 2297.4
723.77 492.40 2288.3
737.22 497.47 2311.8
737.88 493.90 2295.2
750.23 498.15 2315.0
781.03 510.44 2372.1
458.63 537.25 2527.1
465.86 538.04 2530.8
474.37 532.85 2506.4
474.01 525.25 2470.7
475.71 520.11 2446.5
471.41 508.63 2392.5
473.75 504.51 2373.1
485.49 510.39 2400.8
490.89 509.53 2396.7
487.12 499.29 2348.6
483.91 489.88 2304.3
490.45 490.45 2307.0
497.00 491.01 2309.6
492.11 480.39 2259.7
480.64 463.67 2181.0
494.66 466.23 2193.1
513.80 478.77 2252.0
523.32 482.16 2268.0
526.02 479.26 2254.4
520.32 468.86 2205.5
519.84 463.34 2179.5
527.26 464.90 2186.8
536.80 468.27 2202.7
545.95 471.24 2216.6
540.26 461.47 2170.7
539.05 451.04 2121.6
558.83 462.87 2177.3
566.84 464.81 2186.4
573.15 465.33 2188.8
569.46 457.80 2153.4
560.54 446.25 2099.1
574.04 452.61 2129.0
594.63 464.38 2184.4
607.19 469.71 2209.4
619.07 474.43 2231.6
632.38 480.14 2258.5
643.15 483.84 2275.9
650.77 485.12 2281.9
656.53 485.00 2281.4
650.26 476.08 2239.4
633.31 459.57 2161.7
637.93 458.86 2158.4
655.13 467.13 2197.3
653.88 462.23 2174.2
657.92 461.11 2169.0
678.85 471.75 2219.0
698.57 481.37 2264.3
713.85 487.80 2294.5
712.54 482.88 2271.4
715.85 481.14 2263.2
750.68 500.45 2354.0
456.41 528.13 2514.9
467.34 533.16 2538.9
476.43 528.64 2517.3
478.49 523.75 2494.1
483.05 521.69 2484.3
483.58 515.40 2454.3
491.44 516.97 2461.7
489.62 508.45 2421.2
482.69 494.91 2356.7
491.34 497.48 2369.0
501.26 501.26 2387.0
502.71 496.58 2364.7
504.26 492.11 2343.4
507.36 489.24 2329.7
503.01 479.34 2282.6
494.17 465.44 2216.4
505.25 470.41 2240.0
518.41 477.18 2272.3
521.38 474.51 2259.6
522.94 470.65 2241.2
516.76 459.97 2190.3
519.42 457.31 2177.7
529.82 461.46 2197.4
536.14 461.99 2200.0
542.00 462.13 2200.6
543.60 458.66 2184.1
539.14 450.21 2143.9
542.21 448.15 2134.1
555.21 454.26 2163.2
566.87 459.17 2186.5
577.41 463.07 2205.1
576.75 458.01 2181.0
571.18 449.18 2138.9
580.19 451.88 2151.8
596.21 459.94 2190.2
606.18 463.22 2205.8
615.70 466.09 2219.5
621.85 466.39 2220.9
625.07 464.50 2211.9
630.12 464.00 2209.5
634.08 462.70 2203.4
642.10 464.37 2211.3
641.06 459.52 2188.2
631.85 448.94 2137.8
634.71 447.06 2128.9
649.68 453.65 2160.3
671.05 464.57 2212.2
676.31 464.25 2210.7
679.26 462.35 2201.7
711.86 480.51 2288.1
726.38 486.26 2315.5
710.28 471.58 2245.6
726.01 478.10 2276.7
758.39 495.40 2359.1
768.49 497.98 2371.3
465.09 524.05 2526.6
461.36 512.62 2471.6
469.02 513.99 2478.2
480.95 519.94 2506.9
485.16 517.51 2495.1
485.91 511.48 2466.1
490.34 509.44 2456.3
485.20 497.65 2399.4
481.75 487.85 2352.1
494.77 494.77 2385.5
502.52 496.31 2392.9
502.15 489.90 2362.0
504.10 485.88 2342.6
507.61 483.44 2330.9
513.39 483.19 2329.7
513.82 477.97 2304.5
514.99 473.56 2283.2
518.67 471.52 2273.4
518.99 466.51 2249.2
518.52 460.91 2222.2
512.06 450.16 2170.4
514.90 447.74 2158.7
526.17 452.62 2182.3
532.69 453.35 2185.8
551.64 464.54 2239.8
566.12 471.77 2274.6
556.14 458.68 2211.5
553.82 452.10 2179.8
570.10 460.69 2221.2
585.60 468.48 2258.8
585.64 463.87 2236.5
574.28 450.41 2171.6
580.06 450.53 2172.2
601.40 462.62 2230.5
609.38 464.29 2238.5
610.64 460.86 2222.0
616.26 460.76 2221.5
618.98 458.50 2210.6
616.84 452.72 2182.8
616.17 448.12 2160.6
627.60 452.32 2180.9
644.32 460.23 2219.0
647.43 458.36 2209.9
642.99 451.22 2175.5
652.11 453.64 2187.2
674.00 464.83 2241.1
680.76 465.48 2244.3
668.60 453.29 2185.5
660.20 443.83 2139.9
681.60 454.40 2190.9
724.08 478.73 2308.2
739.01 484.60 2336.5
732.91 476.69 2298.3
744.64 480.41 2316.3
751.00 480.64 2317.4
754.02 478.74 2308.2
470.11 523.08 2553.9
470.77 516.53 2522.0
482.74 522.42 2550.7
483.96 516.66 2522.5
478.48 504.00 2460.8
480.08 499.03 2436.5
484.63 497.22 2427.7
483.89 490.09 2392.9
484.54 484.54 2365.8
492.23 486.07 2373.2
494.30 482.10 2353.8
491.18 473.21 2310.4
490.94 467.28 2281.5
503.69 473.71 2312.9
518.28 481.70 2351.9
511.94 470.27 2296.1
507.26 460.62 2248.9
519.80 466.63 2278.3
528.72 469.32 2291.4
533.93 468.67 2288.3
533.48 463.13 2261.2
536.76 460.92 2250.4
549.65 466.90 2279.6
548.74 461.17 2251.7
559.89 465.59 2273.2
576.35 474.29 2315.7
568.13 462.71 2259.1
557.47 449.39 2194.1
565.50 451.26 2203.3
578.01 456.63 2229.5
575.98 450.52 2199.6
580.57 449.66 2195.4
603.36 462.77 2259.5
622.38 472.77 2308.3
630.69 470.04 2294.9
637.54 470.71 2298.2
638.06 466.73 2278.8
633.41 459.07 2241.4
631.26 453.36 2213.5
640.92 456.15 2227.1
653.11 460.67 2249.2
651.32 455.35 2223.2
656.64 455.04 2221.7
676.81 464.94 2270.1
687.32 468.09 2285.4
680.23 459.30 2242.5
686.14 459.37 2242.8
697.26 462.88 2260.0
678.13 446.44 2179.7
680.36 444.20 2168.8
733.14 474.74 2317.9
766.95 492.59 2405.1
763.91 486.69 2376.2
755.59 477.53 2331.5
765.04 479.67 2342.0
461.47 514.21 2542.8
464.13 509.89 2521.4
469.56 508.69 2515.5
480.60 513.52 2539.4
480.68 506.66 2505.5
481.15 500.39 2474.5
487.71 500.55 2475.2
491.97 498.36 2464.4
490.74 490.74 2426.7
481.63 475.53 2351.5
479.91 467.92 2313.9
488.49 470.40 2326.2
491.83 467.84 2313.5
487.46 458.09 2265.3
496.63 461.15 2280.4
511.35 469.24 2320.4
505.36 458.35 2266.5
511.82 458.88 2269.2
535.54 474.68 2347.3
537.58 471.14 2329.8
534.85 463.54 2292.2
538.92 461.93 2284.3
546.35 463.21 2290.6
567.66 466.08 2304.8
570.46 463.50 2292.0
571.04 459.19 2270.7
569.57 453.34 2241.8
566.75 446.53 2208.1
568.19 443.19 2191.6
574.76 443.88 2195.0
588.88 450.32 2226.8
609.98 461.93 2284.3
626.20 465.18 2300.3
622.40 457.99 2264.8
640.99 467.26 2310.6
637.44 456.15 2255.7
623.22 441.92 2185.3
642.31 451.35 2232.0
663.82 462.30 2286.1
661.29 456.46 2257.2
665.58 455.39 2252.0
684.98 464.60 2297.5
693.58 466.37 2306.2
709.33 472.89 2338.5
734.34 481.33 2380.2
698.28 453.88 2244.5
689.49 444.46 2197.9
730.22 466.86 2308.7
755.07 478.83 2367.8
739.92 465.43 2301.6
749.28 467.55 2312.1
463.59 517.34 2591.5
455.56 487.19 2440.5
477.37 503.53 2522.3
480.54 500.03 2504.8
483.44 496.33 2486.3
491.36 497.83 2493.8
497.40 497.40 2491.6
502.84 496.39 2486.6
500.17 487.51 2442.1
490.11 471.73 2363.0
490.95 466.70 2337.8
497.78 467.43 2341.5
496.36 460.48 2306.7
501.25 459.48 2301.7
512.44 464.21 2325.4
509.66 456.32 2285.8
520.06 460.28 2305.7
536.22 458.77 2298.1
524.30 443.64 2222.3
530.22 443.77 2223.0
547.18 453.04 2269.4
559.02 457.92 2293.9
562.53 455.95 2284.0
569.54 456.82 2288.3
575.86 457.12 2289.9
576.13 452.67 2267.6
574.83 447.09 2239.6
573.14 441.31 2210.7
576.03 439.15 2199.8
576.60 435.28 2180.4
583.67 436.33 2185.7
603.79 447.04 2239.3
606.12 444.49 2226.6
600.57 436.26 2185.4
616.61 443.73 2222.8
636.54 453.83 2273.3
627.59 443.34 2220.8
626.74 438.72 2197.6
659.45 457.45 2291.5
667.14 458.66 2297.5
649.72 442.73 2217.8
657.25 443.94 2223.8
680.53 455.66 2282.5
702.10 466.05 2334.6
729.59 476.09 2384.9
690.66 446.90 2238.6
687.22 440.96 2208.9
712.74 453.56 2272.0
730.56 461.09 2309.7
730.94 457.58 2292.1
729.13 452.77 2268.0
752.95 463.82 2323.4
455.78 494.85 2511.5
470.91 497.07 2522.7
485.63 505.59 2566.0
482.44 495.48 2514.6
483.67 490.12 2487.4
490.46 490.46 2489.2
493.60 487.19 2472.6
496.46 483.73 2455.0
499.43 480.46 2438.4
495.33 470.56 2388.2
493.40 462.94 2349.5
497.20 460.82 2338.7
502.38 460.01 2334.7
514.02 465.07 2360.3
526.21 470.50 2387.9
524.43 463.45 2352.1
514.47 449.42 2280.9
523.38 452.01 2294.0
542.29 463.08 2350.2
536.25 452.83 2298.2
525.67 439.02 2228.1
533.88 441.03 2238.3
545.13 445.49 2260.9
551.15 445.61 2261.5
560.92 448.73 2277.4
574.08 454.48 2306.6
586.67 459.66 2332.8
593.33 460.13 2335.3
590.72 453.48 2301.5
587.95 446.84 2267.8
582.02 437.95 2222.7
573.60 427.39 2169.1
577.09 425.82 2161.1
593.33 433.59 2200.5
601.24 435.18 2208.6
601.37 431.17 2188.3
610.07 433.32 2199.2
622.26 437.89 2222.4
627.08 437.23 2219.0
640.50 442.53 2245.9
656.22 449.30 2280.3
643.88 436.92 2217.4
644.49 433.46 2199.9
671.20 447.47 2271.0
687.58 454.40 2306.2
701.29 459.46 2331.9
718.25 466.56 2367.9
701.75 451.97 2293.9
674.46 430.75 2186.1
682.27 432.11 2193.0
702.47 441.22 2239.3
715.18 445.52 2261.1
734.55 453.87 2303.5
752.32 461.10 2340.2
778.74 473.47 2403.0
849.36 508.28 2579.6
472.13 505.86 2601.6
492.25 505.74 2600.9
486.74 493.32 2537.1
485.59 485.59 2497.3
485.94 479.55 2466.2
482.87 470.33 2418.8
486.57 467.85 2406.1
490.40 465.57 2394.3
493.37 462.53 2378.7
498.68 461.74 2374.7
499.06 456.46 2347.5
500.76 452.49 2327.1
504.86 450.77 2318.2
509.54 449.60 2312.2
514.84 448.99 2309.1
511.25 440.73 2266.6
508.54 433.42 2229.0
516.25 435.04 2237.4
529.80 441.50 2270.6
538.32 443.67 2281.7
537.32 438.03 2252.7
539.40 435.00 2237.1
550.47 439.21 2258.8
565.64 446.56 2296.6
571.97 446.85 2298.1
576.87 446.03 2293.9
595.05 455.40 2342.1
596.11 447.08 2299.3
586.02 435.16 2238.0
584.67 429.91 2210.9
595.62 433.70 2230.5
608.95 439.15 2258.5
614.16 438.69 2256.1
618.31 437.49 2249.9
631.36 442.55 2275.9
634.20 440.42 2265.0
629.77 433.33 2228.5
631.89 430.84 2215.7
634.22 428.53 2203.9
654.31 438.15 2253.4
688.45 456.94 2350.0
695.47 457.54 2353.1
690.41 450.27 2315.7
688.29 445.02 2288.7
688.89 441.60 2271.1
698.04 443.67 2281.7
696.79 439.15 2258.5
696.89 435.56 2240.0
710.14 440.17 2263.7
713.13 438.40 2254.6
721.44 439.90 2262.4
756.87 457.78 2354.3
832.99 495.82 2550.0
838.97 495.46 2548.1
859.64 499.79 2570.4
473.06 500.09 2606.6
480.67 500.98 2611.3
484.15 497.60 2593.7
487.73 494.41 2577.1
483.63 483.63 2520.9
482.81 476.37 2483.0
482.94 470.23 2451.0
477.52 458.91 2392.0
479.00 454.44 2368.7
484.51 453.85 2365.6
489.01 452.33 2357.7
492.04 449.52 2343.1
490.71 442.84 2308.2
500.58 446.30 2326.3
512.83 451.78 2354.8
512.95 446.57 2327.7
514.01 442.28 2305.3
517.76 440.39 2295.5
522.11 439.05 2288.5
519.58 432.01 2251.8
523.12 430.12 2241.9
535.41 435.39 2269.4
537.80 432.57 2254.7
536.42 426.83 2224.8
543.97 428.23 2232.1
555.79 432.93 2256.6
558.46 430.48 2243.8
563.23 429.68 2239.6
582.01 439.48 2290.7
584.91 437.20 2278.9
571.95 423.24 2206.1
578.56 423.90 2209.5
594.24 431.11 2247.1
608.82 437.41 2279.9
625.61 445.15 2320.3
617.02 434.85 2266.6
607.13 423.84 2209.2
629.81 435.57 2270.3
642.18 440.01 2293.5
638.07 433.19 2257.9
640.27 430.72 2245.1
642.12 428.08 2231.3
660.64 436.49 2275.2
687.38 450.14 2346.3
688.25 446.76 2328.7
680.89 438.14 2283.7
678.12 432.59 2254.8
688.91 435.72 2271.1
706.98 443.36 2310.9
703.48 437.46 2280.2
701.29 432.46 2254.1
731.36 447.28 2331.4
752.89 456.67 2380.3
742.68 446.81 2329.0
758.41 452.60 2359.1
851.20 492.10 2565.0
475.21 495.57 2618.5
468.97 482.18 2547.7
479.15 485.80 2566.9
489.05 489.05 2584.0
486.26 479.69 2534.6
486.22 473.26 2500.6
488.67 469.38 2480.1
484.86 459.67 2428.8
479.81 449.05 2372.7
479.01 442.63 2338.8
473.65 432.21 2283.7
488.60 429.73 2270.6
513.27 446.06 2356.9
524.82 450.73 2381.6
531.36 451.04 2383.2
542.01 454.79 2403.0
539.41 447.47 2364.3
528.66 433.62 2291.2
530.28 430.12 2272.6
541.07 434.05 2293.4
542.15 430.18 2273.0
539.43 423.42 2237.3
541.66 420.65 2222.6
548.04 421.13 2225.1
562.04 427.38 2258.2
578.35 435.25 2299.8
581.54 433.19 2288.9
569.52 419.95 2218.9
568.75 415.19 2193.8
588.29 425.20 2246.7
594.50 425.48 2248.1
598.69 424.31 2242.0
626.91 440.04 2325.1
630.99 438.69 2317.9
607.40 418.30 2210.2
616.15 420.36 2221.1
635.30 429.42 2268.9
637.28 426.81 2255.1
647.56 429.75 2270.7
658.19 432.86 2287.1
658.73 429.35 2268.6
666.38 430.49 2274.6
675.17 432.34 2284.4
676.69 429.55 2269.6
691.45 435.14 2299.2
720.64 449.63 2375.7
739.24 457.33 2416.4
735.70 451.31 2384.6
721.47 438.90 2319.0
736.39 444.27 2347.4
764.80 457.62 2418.0
760.94 451.61 2386.2
767.17 451.64 2386.4
848.32 487.62 2576.5
850.02 484.78 2561.4
474.19 487.74 2612.9
471.67 478.32 2562.4
485.14 485.14 2599.0
489.83 483.12 2588.1
482.41 469.37 2514.5
484.75 465.36 2493.0
489.27 463.52 2483.2
487.58 455.92 2442.4
484.70 447.42 2396.9
486.53 443.42 2375.5
484.26 435.83 2334.8
508.48 435.84 2334.9
521.46 441.71 2366.3
529.67 443.45 2375.6
535.54 443.21 2374.3
527.18 431.33 2310.7
532.44 430.74 2307.5
549.97 439.98 2357.0
558.48 441.88 2367.2
556.31 435.38 2332.4
547.05 423.52 2268.9
543.76 416.50 2231.2
549.70 416.61 2231.9
562.76 422.07 2261.1
586.53 435.36 2332.3
596.34 438.13 2347.1
585.92 426.12 2282.8
587.77 423.20 2267.1
596.28 425.07 2277.2
590.24 416.64 2232.0
587.02 410.34 2198.3
607.72 420.73 2253.9
629.97 431.98 2314.2
626.44 425.51 2279.5
618.00 415.85 2227.8
619.12 412.75 2211.2
618.83 408.77 2189.8
627.06 410.44 2198.8
647.04 419.70 2248.4
656.28 421.89 2260.1
670.54 427.25 2288.8
684.95 432.60 2317.5
678.95 425.08 2277.2
685.51 425.49 2279.4
717.52 441.55 2365.4
741.00 452.14 2422.2
749.36 453.40 2428.9
746.94 448.16 2400.9
747.32 444.68 2382.2
760.67 448.92 2404.9
754.68 441.77 2366.6
759.66 441.09 2363.0
833.59 472.59 2531.7
849.45 477.82 2559.7
860.44 480.25 2572.7
469.49 476.19 2587.0
473.84 473.84 2574.2
488.43 481.64 2616.6
494.07 480.53 2610.6
487.63 467.86 2541.7
491.55 465.33 2528.0
495.01 462.44 2512.3
492.81 454.41 2468.6
487.46 443.71 2410.5
487.14 437.81 2378.5
492.47 437.06 2374.4
485.23 425.32 2310.6
494.84 423.29 2299.6
506.61 428.21 2326.3
507.08 423.56 2301.0
517.91 427.58 2322.9
525.39 428.76 2329.3
523.25 422.17 2293.5
534.22 426.18 2315.2
546.86 431.41 2343.7
549.91 429.05 2330.9
552.22 426.17 2315.2
547.75 418.18 2271.8
557.98 421.46 2289.6
577.72 431.77 2345.6
575.85 425.89 2313.7
584.14 427.57 2322.8
603.15 436.97 2373.9
601.35 431.27 2342.9
590.25 419.08 2276.7
585.81 411.81 2237.2
591.75 411.91 2237.7
600.74 414.10 2249.6
606.44 414.01 2249.2
612.66 414.28 2250.6
628.54 421.00 2287.1
641.17 425.45 2311.3
642.49 422.38 2294.6
642.66 418.61 2274.1
638.94 412.41 2240.5
645.68 413.01 2243.7
659.30 417.95 2270.6
677.48 425.67 2312.5
689.70 429.55 2333.6
681.49 420.75 2285.7
686.66 420.28 2283.2
717.25 435.26 2364.6
732.38 440.67 2394.0
732.55 437.07 2374.4
747.25 442.12 2401.9
767.09 450.11 2445.3
774.75 447.22 2429.5
843.80 471.73 2562.7
465.83 465.83 2566.8
476.36 463.13 2551.9
496.84 463.71 2555.2
481.91 443.86 2445.8
487.82 443.47 2443.6
490.21 439.93 2424.1
487.75 432.19 2381.4
491.08 429.70 2367.7
486.86 420.74 2318.4
496.50 418.74 2307.3
505.79 421.49 2322.5
507.51 417.95 2303.0
520.28 423.48 2333.5
538.40 433.19 2387.0
546.26 434.53 2394.3
544.42 428.19 2359.4
543.07 422.39 2327.4
549.02 422.33 2327.1
553.60 421.22 2321.0
548.22 412.64 2273.7
559.39 416.57 2295.4
589.20 425.20 2342.9
584.73 417.67 2301.4
588.14 415.86 2291.5
581.85 407.30 2244.3
580.08 402.03 2215.3
589.24 404.38 2228.2
600.99 408.44 2250.6
609.52 410.26 2260.6
616.81 411.20 2265.8
633.51 418.35 2305.2
656.18 429.28 2365.4
658.74 423.04 2331.0
643.81 409.70 2257.5
647.05 408.05 2248.4
657.66 411.04 2264.9
683.86 423.63 2334.3
703.68 432.08 2380.9
695.57 423.39 2333.0
700.57 422.76 2329.5
725.56 434.10 2392.0
733.56 435.16 2397.8
730.83 429.90 2368.8
741.42 432.49 2383.1
753.55 435.94 2402.1
759.23 435.62 2400.4
828.46 467.68 2577.0
469.81 469.81 2626.3
470.25 463.54 2591.2
477.83 464.37 2595.9
474.94 455.15 2544.3
488.28 461.52 2579.9
503.07 462.82 2587.2
488.21 443.24 2477.8
495.55 444.07 2482.4
493.55 436.60 2440.6
487.18 425.51 2378.6
495.50 427.37 2389.0
495.37 421.98 2358.9
493.19 410.01 2292.0
512.29 420.81 2352.4
524.05 425.41 2378.1
527.15 422.95 2364.3
536.03 425.13 2376.5
546.28 428.33 2394.4
545.76 423.12 2365.3
550.24 421.85 2358.2
562.38 426.42 2383.7
567.10 425.32 2377.6
561.16 416.34 2327.4
555.43 407.71 2279.1
573.74 416.72 2329.5
579.91 416.81 2330.0
559.17 397.76 2223.5
566.54 398.89 2229.8
580.31 404.46 2260.9
587.54 405.40 2266.2
599.29 409.42 2288.7
600.57 406.27 2271.1
604.55 404.99 2263.9
614.91 407.97 2280.6
623.02 409.41 2288.6
627.77 408.64 2284.3
638.55 411.77 2301.8
664.29 424.41 2372.5
666.79 422.09 2359.5
637.86 400.11 2236.7
645.02 397.38 2221.4
678.60 414.37 2316.3
703.97 426.09 2381.9
702.06 421.23 2354.7
701.71 417.40 2333.3
721.29 425.37 2377.9
732.42 428.28 2394.1
732.58 424.77 2374.5
746.12 429.02 2398.2
762.12 434.60 2429.4
758.95 429.24 2399.5
773.90 434.14 2426.9
797.72 443.89 2481.4
799.31 441.22 2466.4
826.54 452.63 2530.2
486.54 459.51 2606.5
487.39 454.01 2575.3
498.48 458.06 2598.3
507.80 460.41 2611.5
508.04 454.56 2578.4
501.75 443.10 2513.4
487.70 425.18 2411.7
484.62 417.14 2366.1
496.31 421.86 2392.9
510.57 428.62 2431.3
514.97 427.05 2422.3
502.94 412.05 2337.3
503.49 407.59 2312.0
514.52 411.62 2334.8
516.87 408.69 2318.2
531.05 415.08 2354.4
546.07 421.96 2393.5
537.79 410.90 2330.7
535.02 404.24 2293.0
562.39 420.25 2383.8
577.10 421.97 2393.5
570.37 412.61 2340.4
572.57 409.84 2324.7
561.59 397.79 2256.4
572.61 397.32 2253.7
595.01 408.69 2318.2
609.31 414.33 2350.2
608.03 409.37 2322.1
596.54 397.69 2255.8
602.01 397.44 2254.4
613.89 401.39 2276.8
625.35 404.99 2297.2
632.47 405.73 2301.4
639.08 406.14 2303.7
661.91 416.76 2364.0
675.91 421.67 2391.8
657.59 406.51 2305.8
647.86 396.89 2251.3
667.00 404.97 2297.1
677.77 407.86 2313.5
680.79 406.08 2303.4
698.96 413.30 2344.4
721.59 423.00 2399.4
738.47 429.20 2434.5
747.14 430.56 2442.2
744.22 425.27 2412.2
756.09 428.45 2430.3
789.89 440.27 2497.3
802.98 443.92 2518.0
825.51 452.70 2567.8
822.13 447.24 2536.9
843.71 455.34 2582.8
488.19 454.29 2615.3
493.83 453.24 2609.3
494.98 448.15 2580.0
494.85 442.06 2544.9
494.54 435.97 2509.9
487.87 424.51 2443.9
488.89 419.94 2417.6
500.45 424.43 2443.4
508.73 426.06 2452.8
519.29 429.54 2472.8
525.43 429.32 2471.6
514.15 415.03 2389.3
512.10 408.46 2351.5
520.89 410.58 2363.7
528.24 411.54 2369.2
547.98 422.01 2429.5
556.42 418.88 2411.4
547.79 407.80 2347.7
570.10 419.74 2416.4
582.67 424.34 2442.9
566.02 407.78 2347.5
564.54 402.38 2316.5
571.86 403.31 2321.8
581.83 406.07 2337.7
594.51 410.64 2364.0
605.87 414.22 2384.6
619.04 418.94 2411.8
611.05 409.40 2356.9
587.05 389.43 2241.9
594.51 390.51 2248.2
620.58 403.68 2323.9
628.26 404.74 2330.1
635.19 405.31 2333.4
644.75 407.53 2346.1
653.58 409.25 2356.0
660.32 409.64 2358.3
657.68 404.26 2327.3
659.21 401.52 2311.5
669.95 404.38 2328.0
676.35 404.60 2329.3
673.61 399.40 2299.3
674.35 396.33 2281.6
689.67 401.80 2313.2
719.90 415.80 2393.7
743.92 426.01 2452.5
741.96 421.28 2425.3
727.65 409.69 2358.5
744.38 415.61 2392.6
775.73 429.54 2472.8
791.70 434.78 2503.0
814.69 443.77 2554.8
840.41 450.46 2593.3
829.34 441.00 2538.8
824.50 434.97 2504.1
844.35 441.97 2544.4
486.95 446.37 2608.7
493.30 446.00 2606.5
496.11 442.48 2585.9
492.42 433.33 2532.4
487.88 423.68 2476.1
487.30 417.69 2441.0
495.15 418.97 2448.5
503.23 420.42 2457.0
507.74 418.89 2448.1
510.99 416.37 2433.3
509.04 409.72 2394.4
512.28 407.36 2380.7
525.95 413.25 2415.1
531.72 412.87 2412.8
536.83 411.99 2407.7
548.21 415.88 2430.5
556.40 417.30 2438.8
554.21 410.99 2401.9
550.49 403.69 2359.2
562.18 407.73 2382.9
563.00 403.89 2360.4
557.46 395.62 2312.1
568.74 399.33 2333.7
576.34 400.41 2340.0
586.59 403.28 2356.8
595.96 405.50 2369.8
604.66 407.22 2379.8
617.33 411.55 2405.2
607.34 400.84 2342.6
597.04 390.14 2280.1
620.99 401.81 2348.3
635.85 407.43 2381.1
631.60 400.82 2342.5
648.41 407.57 2381.9
668.02 415.94 2430.8
660.17 407.21 2379.8
649.41 396.86 2319.3
653.11 395.46 2311.1
662.46 397.47 2322.9
674.04 400.78 2342.2
680.75 401.16 2344.4
678.60 396.35 2316.3
679.66 393.49 2299.6
688.81 395.32 2310.3
712.23 405.23 2368.2
722.16 407.37 2380.8
704.44 394.01 2302.6
732.95 403.12 2355.9
775.16 422.81 2471.0
803.62 434.74 2540.7
800.32 429.44 2509.7
797.17 424.30 2479.7
807.27 426.24 2491.0
833.16 432.98 2530.4
482.75 441.95 2622.6
483.53 436.52 2590.3
488.92 435.34 2583.3
491.86 432.04 2563.7
488.29 423.18 2511.2
486.94 416.46 2471.3
490.01 413.65 2454.6
500.44 417.03 2474.7
510.17 419.76 2490.9
500.74 406.85 2414.3
499.19 395.70 2348.1
514.36 402.81 2390.3
524.28 405.69 2407.4
525.99 402.23 2386.9
533.61 403.31 2393.3
548.00 409.42 2429.5
549.38 405.79 2408.0
540.46 394.71 2342.3
556.36 393.08 2332.6
571.57 399.48 2370.6
582.76 402.97 2391.2
590.03 403.70 2395.6
602.56 407.98 2421.0
614.97 412.10 2445.4
607.33 402.82 2390.4
603.10 395.97 2349.7
615.75 400.24 2375.0
628.53 404.50 2400.3
624.01 397.65 2359.7
610.13 385.03 2284.8
616.43 385.27 2286.2
645.55 399.63 2371.4
665.41 408.03 2421.3
656.21 398.63 2365.5
644.61 387.96 2302.2
648.81 386.90 2295.9
675.44 399.13 2368.4
704.88 412.77 2449.4
707.17 410.41 2435.4
699.96 402.63 2389.2
707.07 403.15 2392.3
723.50 408.93 2426.6
732.12 410.24 2434.4
725.31 402.95 2391.1
723.20 398.37 2364.0
738.41 403.33 2393.4
754.35 408.61 2424.7
781.07 419.58 2489.8
810.78 431.97 2563.4
808.73 427.38 2536.1
804.73 421.84 2503.2
812.45 422.47 2507.0
811.29 418.52 2483.5
835.65 427.69 2538.0
502.29 434.41 2618.1
500.17 426.81 2572.3
500.87 421.79 2542.0
507.02 421.42 2539.8
520.79 427.32 2575.3
519.68 421.01 2537.3
498.34 398.67 2402.7
507.20 395.86 2385.8
520.59 401.42 2419.3
528.27 402.49 2425.7
522.59 393.48 2371.4
521.80 388.32 2340.3
546.70 402.17 2423.8
557.73 405.62 2444.6
552.21 397.10 2393.2
546.67 388.74 2342.9
553.56 389.32 2346.4
574.45 399.62 2408.4
574.11 395.09 2381.1
568.03 386.74 2330.8
583.18 392.88 2367.8
606.38 404.25 2436.3
622.40 406.47 2449.7
618.06 399.56 2408.0
632.35 404.70 2439.1
635.03 402.39 2425.1
618.70 388.21 2339.6
618.26 384.16 2315.3
639.81 393.73 2372.9
659.30 401.86 2421.9
669.07 403.97 2434.6
655.94 392.34 2364.5
642.47 380.72 2294.5
654.97 384.57 2317.7
689.79 401.33 2418.7
706.25 407.21 2454.1
696.16 397.80 2397.5
698.56 395.65 2384.5
716.86 402.45 2425.5
728.01 405.15 2441.8
729.85 402.67 2426.8
729.89 399.26 2406.2
734.17 398.19 2399.8
749.76 403.23 2430.2
767.55 409.36 2467.1
775.46 410.16 2472.0
783.09 410.80 2475.8
798.84 415.65 2505.1
813.81 420.03 2531.4
824.03 421.90 2542.7
826.32 419.72 2529.6
839.05 422.83 2548.3
521.29 437.88 2680.9
513.86 425.96 2607.9
513.03 419.75 2569.9
517.48 417.96 2559.0
506.62 404.01 2473.5
500.74 394.33 2414.3
511.21 397.61 2434.3
523.21 401.98 2461.1
534.09 405.40 2482.0
532.05 399.04 2443.1
515.79 382.29 2340.5
518.35 379.72 2324.8
547.56 396.51 2427.6
562.78 402.90 2466.7
561.31 397.33 2432.7
557.43 390.20 2389.0
566.94 392.49 2403.0
588.88 403.25 2468.9
587.99 398.32 2438.7
566.15 379.44 2323.1
591.11 387.92 2375.0
613.77 398.64 2440.6
622.65 400.27 2450.7
631.07 401.59 2458.7
630.37 397.13 2431.4
616.51 384.56 2354.4
627.53 387.59 2373.0
655.20 400.75 2453.6
654.72 396.61 2428.2
651.77 391.06 2394.2
676.14 401.85 2460.3
676.79 398.48 2439.7
655.50 382.38 2341.1
661.13 382.12 2339.5
677.86 388.23 2376.9
676.19 383.78 2349.7
672.18 378.10 2314.9
683.28 380.94 2332.3
693.61 383.31 2346.8
696.96 381.81 2337.6
710.49 385.87 2362.5
722.43 389.00 2381.6
732.42 391.04 2394.1
754.42 399.40 2445.3
761.39 399.73 2447.3
757.42 394.36 2414.4
767.00 396.07 2424.9
785.63 402.40 2463.6
818.35 415.77 2545.6
841.36 420.68 2575.6
843.39 418.37 2561.5
495.67 432.84 2692.8
506.62 413.29 2571.2
500.66 403.13 2507.9
500.65 397.95 2475.7
503.25 394.95 2457.1
511.17 396.16 2464.6
511.61 391.60 2436.2
513.76 388.45 2416.6
529.11 395.24 2458.9
531.84 392.55 2442.1
527.26 384.59 2392.6
543.49 391.82 2437.6
565.20 398.21 2477.3
567.53 395.36 2459.6
568.87 391.89 2438.0
567.16 386.41 2404.0
578.11 389.59 2423.7
588.22 392.15 2439.6
576.19 380.04 2364.3
573.00 373.96 2326.5
597.54 385.91 2400.8
629.62 390.36 2428.5
614.75 377.37 2347.7
626.76 380.97 2370.1
664.63 400.07 2488.9
671.43 400.28 2490.2
656.95 387.91 2413.3
669.32 391.49 2435.5
696.07 403.33 2509.2
699.45 401.54 2498.0
681.54 387.67 2411.7
677.31 381.76 2375.0
686.56 383.48 2385.7
693.38 383.84 2387.9
698.26 383.12 2383.4
703.68 382.70 2380.9
698.91 376.80 2344.2
705.07 376.85 2344.4
712.08 377.34 2347.5
717.37 376.92 2344.9
749.75 390.62 2430.1
768.13 396.87 2469.0
769.24 394.16 2452.1
784.28 398.57 2479.6
795.83 401.15 2495.6
820.47 410.23 2552.2
501.35 424.75 2685.8
495.03 413.66 2615.6
506.81 406.78 2572.2
519.45 406.24 2568.7
514.35 397.15 2511.3
524.21 399.71 2527.4
525.21 395.53 2501.0
518.48 385.70 2438.8
525.57 386.26 2442.4
532.47 386.67 2445.0
532.99 382.50 2418.6
543.92 385.80 2439.5
555.60 389.56 2463.2
564.32 391.17 2473.5
571.75 391.87 2477.9
575.38 389.98 2465.9
576.00 386.11 2441.4
593.00 393.19 2486.2
606.37 393.49 2488.1
637.95 393.08 2485.5
629.36 383.91 2427.5
617.73 373.09 2359.1
629.02 376.18 2378.6
667.69 395.43 2500.4
676.57 396.84 2509.3
663.43 385.42 2437.1
659.88 379.74 2401.2
670.43 382.21 2416.8
695.98 393.10 2485.6
699.27 391.34 2474.5
689.22 382.20 2416.7
694.20 381.50 2412.3
701.63 382.14 2416.3
706.86 381.58 2412.8
718.79 384.62 2432.0
721.49 382.70 2419.9
711.02 373.90 2364.2
728.45 373.41 2361.1
767.83 390.31 2468.0
791.43 398.98 2522.8
801.56 400.78 2534.2
806.34 399.89 2528.6
824.40 405.55 2564.4
510.11 419.27 2695.3
496.99 397.59 2555.9
523.76 402.89 2590.0
519.31 394.41 2535.5
530.03 397.52 2555.5
541.47 401.09 2578.4
545.81 399.38 2567.4
539.29 389.85 2506.2
533.30 380.93 2448.8
528.72 373.22 2399.2
534.44 372.87 2397.0
555.37 383.02 2462.2
573.33 390.90 2513.0
633.32 379.99 2442.8
648.27 385.11 2475.7
665.75 384.09 2469.1
663.67 379.24 2438.0
671.92 380.33 2445.0
663.28 371.93 2391.0
669.57 371.98 2391.3
689.85 379.73 2441.1
693.27 378.15 2430.9
703.48 380.26 2444.5
717.06 384.14 2469.5
712.96 378.56 2433.6
715.13 376.38 2419.6
721.75 376.57 2420.8
714.42 369.53 2375.5
721.22 369.86 2377.6
737.29 374.89 2410.0
734.26 370.21 2379.9
744.30 372.15 2392.4
789.94 391.70 2518.1
820.76 400.37 2573.8
827.12 400.22 2572.8
522.46 416.55 2723.2
527.08 409.18 2675.0
522.00 394.85 2581.3
525.25 392.28 2564.5
533.24 393.27 2571.0
541.26 394.25 2577.4
552.60 397.60 2599.3
554.05 393.85 2574.8
545.28 383.00 2503.8
536.58 372.45 2434.9
536.36 367.97 2405.6
552.97 375.00 2451.6
583.00 390.87 2555.4
636.20 379.15 2478.7
666.14 381.57 2494.5
661.62 375.34 2453.8
678.21 381.09 2491.4
715.62 394.59 2579.7
699.42 382.09 2497.9
697.36 377.47 2467.7
702.75 376.93 2464.2
715.50 380.31 2486.3
730.56 384.85 2516.0
727.12 379.65 2482.0
719.87 372.57 2435.7
717.77 368.25 2407.4
712.68 362.48 2369.7
720.90 363.53 2376.6
738.13 369.06 2412.8
737.14 365.48 2389.3
743.39 365.50 2389.5
784.89 382.71 2502.0
522.10 403.76 2685.1
529.19 403.85 2685.7
513.76 382.03 2540.6
515.72 378.63 2518.0
522.59 378.88 2519.6
533.94 382.33 2542.6
548.69 388.10 2580.9
554.47 387.46 2576.7
548.85 378.97 2520.2
547.43 373.54 2484.1
556.37 375.23 2495.3
564.27 376.18 2501.7
585.19 385.70 2565.0
668.92 380.37 2529.5
667.65 375.96 2500.2
709.28 380.91 2533.1
710.26 377.94 2513.4
720.37 379.83 2526.0
717.94 375.14 2494.8
718.68 372.17 2475.0
729.61 374.49 2490.4
736.68 374.80 2492.5
723.40 364.84 2426.3
724.78 356.25 2369.1
736.24 358.84 2386.4
755.71 365.26 2429.1
771.24 369.68 2458.5
789.58 375.37 2496.3
816.52 385.03 2560.5
507.00 395.88 2678.9
520.23 400.72 2711.6
523.99 398.23 2694.8
530.91 398.18 2694.5
514.54 376.01 2544.4
515.31 371.81 2516.0
521.57 371.62 2514.7
531.49 374.01 2530.9
548.89 381.54 2581.9
558.00 383.20 2593.1
556.84 377.86 2556.9
560.19 375.66 2542.0
569.71 377.60 2555.2
577.76 378.53 2561.5
591.57 383.17 2592.9
704.74 375.42 2540.5
691.91 365.17 2471.1
707.55 370.00 2503.8
728.77 377.63 2555.4
736.27 378.08 2558.5
729.42 371.22 2512.0
734.04 370.27 2505.6
719.54 359.77 2434.5
727.44 354.40 2398.2
747.04 360.86 2441.9
763.93 365.92 2476.1
762.15 362.02 2449.8
756.68 356.45 2412.1
767.46 358.57 2426.4
784.91 363.74 2461.4
816.17 375.17 2538.8
510.16 408.13 2811.1
519.54 409.78 2822.5
522.26 406.20 2797.8
517.67 397.12 2735.3
520.04 393.55 2710.6
546.90 392.65 2704.5
543.11 384.99 2651.7
543.48 380.43 2620.3
542.46 375.03 2583.1
549.08 374.98 2582.8
566.14 372.99 2569.0
565.82 368.44 2537.7
577.10 371.46 2558.5
692.22 372.74 2567.3
696.35 371.39 2558.0
681.01 359.78 2478.1
682.22 357.05 2459.3
700.96 363.46 2503.4
712.10 365.85 2519.9
728.47 370.86 2554.4
750.76 378.76 2608.8
738.75 366.10 2521.6
699.85 343.79 2367.9
733.68 354.19 2439.6
764.21 365.77 2519.4
779.46 369.91 2547.9
776.46 365.39 2516.7
754.76 352.22 2426.0
763.46 353.34 2433.7
790.12 362.68 2498.0
531.98 395.39 2772.9
535.51 392.71 2754.1
544.69 394.18 2764.4
543.64 388.32 2723.2
545.72 384.80 2698.6
550.26 383.09 2686.6
541.45 372.25 2610.6
529.62 359.62 2522.0
542.27 363.72 2550.8
563.36 364.52 2556.4
564.07 360.74 2529.9
578.17 365.51 2563.3
682.03 353.88 2481.8
712.64 366.31 2568.9
725.51 369.47 2591.1
729.58 368.14 2581.8
728.99 364.50 2556.2
734.30 363.84 2551.6
740.42 363.60 2549.9
719.50 350.20 2455.9
714.41 344.67 2417.2
741.13 354.45 2485.8
766.45 363.40 2548.5
780.28 366.80 2572.4
785.52 366.13 2567.7
772.63 357.10 2504.3
767.67 351.85 2467.5
795.75 361.70 2536.6
812.80 366.42 2569.7
803.80 359.42 2520.6
820.35 363.87 2551.8
514.71 391.47 2796.2
520.81 390.61 2790.1
533.81 384.34 2745.3
524.58 372.73 2662.3
539.91 369.05 2636.1
535.40 361.40 2581.4
546.70 355.69 2540.6
579.67 359.80 2570.0
704.56 365.83 2613.1
694.48 357.16 2551.1
715.87 364.69 2604.9
743.10 364.79 2605.7
732.35 356.28 2544.9
723.25 348.71 2490.8
714.16 341.28 2437.7
719.98 341.05 2436.0
731.74 343.60 2454.3
742.16 345.49 2467.8
742.85 342.85 2448.9
735.04 336.37 2402.7
787.35 354.31 2530.8
798.38 356.30 2545.0
797.22 352.87 2520.5
807.98 354.72 2533.7
506.80 383.72 2792.6
510.22 380.87 2771.8
519.17 382.17 2781.3
533.99 377.35 2746.2
527.56 353.94 2575.8
534.38 354.02 2576.5
533.45 349.05 2540.2
539.96 349.00 2539.9
550.02 351.21 2556.0
712.85 353.09 2569.7
713.42 350.11 2547.9
717.39 348.83 2538.6
736.27 354.75 2581.7
746.30 356.34 2593.3
746.98 353.48 2572.5
746.45 350.10 2547.9
738.48 343.33 2498.6
736.51 339.44 2470.3
766.10 350.03 2547.4
787.70 356.82 2596.8
756.74 339.89 2473.6
753.84 335.74 2443.4
782.89 345.78 2516.4
792.41 347.09 2526.0
813.02 353.20 2570.4
506.61 376.34 2791.6
532.03 378.98 2811.1
539.44 379.06 2811.7
533.03 369.57 2741.3
528.19 361.39 2680.7
531.77 359.12 2663.8
543.13 362.09 2685.8
549.02 361.38 2680.6
565.00 362.72 2690.5
714.76 350.64 2600.9
712.02 346.03 2566.7
720.34 346.83 2572.6
714.39 340.81 2528.0
725.90 343.15 2545.4
742.15 347.68 2578.9
748.61 347.57 2578.1
761.46 350.41 2599.2
767.39 350.04 2596.4
761.40 344.29 2553.8
786.05 352.37 2613.7
801.74 350.34 2598.7
812.90 352.26 2612.9
806.02 346.39 2569.4
808.79 344.73 2557.1
534.42 373.36 2823.7
546.46 371.59 2810.4
536.80 360.22 2724.4
552.35 361.15 2731.4
564.73 364.57 2757.2
560.91 357.58 2704.4
736.58 357.77 2705.8
717.09 345.01 2609.4
715.16 340.87 2578.0
736.08 347.59 2628.9
740.78 346.60 2621.4
733.75 340.19 2572.9
733.06 336.81 2547.3
746.90 340.11 2572.2
767.56 346.42 2620.0
774.10 346.31 2619.1
767.31 340.28 2573.6
774.58 340.55 2575.6
806.96 345.84 2615.6
817.87 347.59 2628.9
808.64 340.83 2577.7
808.74 335.33 2536.1
828.38 340.70 2576.8
820.37 334.71 2531.4
519.32 360.64 2782.1
529.98 363.00 2800.3
532.87 360.05 2777.5
532.62 355.08 2739.2
573.98 358.74 2767.4
575.15 350.70 2705.4
597.51 359.95 2776.7
709.42 334.63 2581.5
719.89 336.40 2595.1
747.22 342.76 2644.2
730.16 331.89 2560.3
727.25 327.59 2527.1
739.39 330.08 2546.4
764.73 338.37 2610.3
776.59 340.61 2627.6
758.75 329.89 2544.9
752.81 324.49 2503.2
781.52 333.98 2576.4
793.74 336.33 2594.5
799.89 336.09 2592.7
821.65 342.36 2641.0
820.18 338.92 2614.5
808.69 331.43 2556.8
803.26 326.53 2518.9
823.06 329.23 2539.7
518.03 352.55 2775.1
527.93 354.36 2789.5
535.85 354.82 2793.0
539.61 352.54 2775.1
578.63 345.77 2721.8
706.79 329.84 2596.4
704.91 325.85 2565.0
732.05 335.24 2638.9
744.81 331.78 2611.7
727.74 321.26 2528.8
753.47 323.86 2549.3
746.50 318.07 2503.8
779.45 323.67 2547.9
809.20 333.20 2622.9
832.31 337.05 2653.2
821.81 330.07 2598.2
815.56 324.90 2557.5
821.28 324.54 2554.7
543.00 347.52 2792.6
556.41 342.41 2751.5
564.66 343.08 2756.9
585.23 351.14 2821.6
580.25 339.66 2729.4
611.52 349.44 2808.0
604.59 341.41 2743.5
752.17 337.42 2711.4
759.51 337.56 2712.5
751.84 328.08 2636.3
748.83 323.82 2602.1
755.89 323.95 2603.2
731.41 310.69 2496.6
748.14 312.27 2509.3
766.99 317.37 2550.3
767.57 314.90 2530.5
784.62 319.17 2564.7
793.63 320.12 2572.4
794.12 317.65 2552.5
819.77 325.20 2613.2
837.32 329.44 2647.3
835.41 326.01 2619.8
845.53 327.30 2630.1
860.29 330.35 2654.6
866.21 329.98 2651.7
543.92 340.86 2797.3
563.08 339.29 2784.4
571.01 339.71 2787.9
589.84 346.53 2843.9
759.83 333.76 2739.0
753.84 328.06 2692.3
754.10 325.16 2668.5
739.26 315.86 2592.2
742.18 314.26 2579.0
758.32 318.23 2611.6
743.35 309.18 2537.3
754.60 308.40 2531.0
785.80 318.38 2612.9
799.51 321.17 2635.7
805.48 320.83 2632.9
802.94 317.13 2602.6
792.87 310.54 2548.5
806.92 313.43 2572.2
842.05 324.40 2662.2
861.14 323.79 2657.2
862.14 321.59 2639.2
547.75 340.49 2855.1
549.58 337.07 2826.4
552.03 334.12 2801.7
564.08 336.98 2825.6
576.43 339.95 2850.5
567.99 330.73 2773.2
570.45 328.01 2750.4
593.82 337.23 2827.7
632.05 338.07 2834.8
725.53 314.85 2640.1
733.76 315.45 2645.0
754.59 321.40 2695.0
754.58 318.45 2670.2
739.47 309.23 2592.9
737.69 300.30 2518.0
760.60 306.91 2573.5
764.75 305.90 2565.0
776.58 307.95 2582.2
796.85 313.29 2627.0
810.36 315.90 2648.9
806.09 311.60 2612.8
795.45 304.92 2556.8
803.58 305.49 2561.6
831.20 313.40 2627.9
542.61 334.48 2867.0
543.79 330.68 2834.4
554.67 332.80 2852.6
566.21 335.26 2873.6
580.71 330.78 2835.3
573.84 322.79 2766.7
587.05 326.14 2795.5
613.46 332.60 2850.8
629.85 329.58 2824.9
735.80 315.34 2702.9
742.74 309.48 2652.6
745.61 307.82 2638.4
734.50 300.48 2575.5
739.29 294.41 2523.5
764.47 301.77 2586.6
770.92 301.67 2585.7
769.93 298.68 2560.1
778.03 299.24 2564.9
782.67 298.48 2558.4
785.63 294.61 2525.3
819.57 304.80 2612.6
822.44 303.36 2600.2
834.91 305.45 2618.2
543.94 323.43 2835.2
559.00 327.95 2874.9
575.88 329.07 2884.7
563.37 317.80 2785.9
570.31 317.64 2784.5
583.69 321.03 2814.2
593.55 322.42 2826.4
624.50 327.12 2867.6
629.89 326.06 2858.3
738.62 309.51 2713.3
751.75 312.05 2735.5
746.65 307.03 2691.5
757.15 308.47 2704.1
753.11 304.01 2665.0
737.42 294.97 2585.8
744.72 295.21 2587.8
762.01 299.36 2624.3
755.98 294.37 2580.5
752.85 290.57 2547.2
780.22 298.52 2616.9
800.77 303.74 2662.7
782.28 294.19 2579.0
800.91 293.67 2574.3
829.91 301.78 2645.5
826.86 298.21 2614.2
820.33 293.45 2572.5
848.29 301.01 2638.7
536.09 320.16 2871.9
548.53 314.49 2821.0
550.96 311.73 2796.2
575.58 309.37 2775.1
590.85 313.66 2813.6
601.56 315.45 2829.6
604.60 313.23 2809.7
769.80 303.68 2724.1
755.62 295.38 2649.6
766.65 296.99 2664.0
773.86 297.11 2665.1
757.02 288.07 2584.0
748.26 282.24 2531.7
770.49 288.09 2584.2
803.27 295.22 2648.1
790.65 288.12 2584.5
808.50 292.15 2620.6
821.80 294.48 2641.5
827.44 294.05 2637.7
828.57 292.04 2619.6
828.40 289.60 2597.8
842.12 292.03 2619.5
566.88 313.27 2877.0
567.82 309.72 2844.4
578.66 311.59 2861.5
577.80 307.19 2821.1
578.16 303.53 2787.5
590.19 306.03 2810.4
598.00 306.29 2812.9
757.42 297.30 2730.3
755.94 293.98 2699.8
767.84 295.87 2717.1
771.64 294.62 2705.7
771.25 291.82 2680.0
766.29 287.36 2639.0
772.83 279.82 2569.8
789.33 283.35 2602.2
795.80 283.25 2601.3
806.07 284.50 2612.7
811.37 283.98 2608.0
824.98 286.36 2629.8
835.08 287.49 2640.2
846.14 288.93 2653.4
597.30 306.11 2879.8
605.88 306.68 2885.2
623.12 300.56 2827.6
750.76 290.39 2731.9
749.90 287.34 2703.2
747.82 283.89 2670.8
758.30 285.23 2683.4
761.74 283.92 2671.0
760.71 280.98 2643.4
769.82 281.81 2651.1
758.81 275.32 2590.1
767.19 273.52 2573.2
793.08 280.31 2637.1
804.84 282.04 2653.3
792.22 275.26 2589.6
782.52 269.61 2536.4
800.05 273.35 2571.6
824.89 279.51 2629.5
836.79 281.22 2645.6
849.98 283.33 2665.4
549.03 296.77 2861.7
567.33 290.94 2805.5
577.91 292.61 2821.6
582.10 291.05 2806.5
596.43 294.53 2840.1
611.34 298.22 2875.6
762.85 285.18 2749.9
763.30 282.70 2726.1
761.73 279.54 2695.5
753.74 274.09 2643.0
757.05 272.81 2630.7
770.56 275.20 2653.7
785.30 277.98 2680.5
798.47 280.16 2701.6
782.45 272.15 2624.4
771.50 266.03 2565.3
787.13 269.10 2594.9
778.15 263.78 2543.6
815.03 271.68 2619.7
828.96 274.04 2642.5
828.30 271.57 2618.7
836.58 272.06 2623.4
866.21 279.42 2694.4
554.23 288.20 2850.3
554.04 284.31 2811.9
562.62 284.96 2818.3
600.06 288.92 2857.4
778.49 276.01 2729.8
773.20 271.66 2686.8
774.63 269.74 2667.7
779.05 268.88 2659.2
789.91 270.23 2672.6
770.97 261.46 2585.9
787.95 260.42 2575.6
817.82 268.02 2650.8
830.01 269.75 2667.9
822.90 265.23 2623.2
823.99 263.41 2605.1
834.06 264.46 2615.5
855.14 268.96 2660.0
568.41 280.51 2847.3
574.71 279.99 2842.0
581.99 279.94 2841.5
766.62 269.74 2737.9
771.30 266.45 2704.6
767.60 262.78 2667.3
769.82 261.19 2651.2
771.40 259.41 2633.1
780.22 260.07 2639.9
774.57 255.94 2597.9
775.88 254.17 2579.9
803.40 260.93 2648.6
832.69 268.15 2721.9
831.38 263.27 2672.3
820.41 257.65 2615.3
818.18 254.84 2586.7
846.36 261.48 2654.1
576.23 273.34 2849.5
759.55 260.22 2712.7
749.28 254.34 2651.4
765.47 257.48 2684.1
784.30 261.43 2725.4
794.71 262.54 2736.9
803.21 263.00 2741.7
795.64 258.24 2692.0
775.60 249.54 2601.4
789.71 249.74 2603.4
825.31 258.78 2697.7
845.18 260.60 2716.7
849.22 259.68 2707.1
847.20 256.94 2678.5
873.78 262.84 2740.1
574.72 268.70 2878.9
587.06 267.52 2866.3
764.82 254.94 2731.5
758.27 248.16 2658.9
786.68 255.14 2733.6
799.49 252.47 2705.0
787.44 246.50 2641.1
790.00 245.17 2626.8
812.21 245.71 2632.6
836.79 251.04 2689.7
843.44 250.94 2688.7
843.18 248.81 2665.8
847.34 248.00 2657.2
854.81 248.17 2659.0
764.00 249.91 2754.1
761.50 246.78 2719.6
764.24 245.40 2704.4
765.27 243.49 2683.4
784.10 247.24 2724.7
792.01 247.50 2727.6
786.20 243.51 2683.6
795.71 244.30 2692.3
805.83 245.25 2702.8
806.81 243.43 2682.7
787.45 235.56 2596.0
816.25 238.07 2623.7
841.83 243.51 2683.5
841.26 241.34 2659.7
844.19 240.22 2647.3
843.41 238.06 2623.5
875.68 245.19 2702.1
771.60 242.91 2755.7
773.89 241.40 2738.5
775.00 239.54 2717.5
782.06 239.55 2717.6
774.95 235.25 2668.8
767.60 230.96 2620.1
779.50 232.48 2637.4
801.73 237.03 2689.0
814.16 238.63 2707.2
814.23 236.61 2684.3
805.15 231.99 2631.8
828.56 234.76 2663.2
857.82 241.04 2734.5
861.87 240.19 2724.9
867.98 239.93 2721.9
872.56 239.25 2714.2
878.32 238.90 2710.2
793.73 233.87 2733.5
782.61 228.55 2671.4
791.81 229.21 2679.1
811.58 232.89 2722.1
820.93 233.54 2729.7
816.71 230.35 2692.4
806.77 225.62 2637.1
811.56 223.18 2608.6
824.58 224.89 2628.5
841.90 227.73 2661.8
864.22 231.86 2710.1
883.41 235.10 2747.9
803.62 229.60 2767.6
804.62 227.86 2746.5
820.00 228.17 2750.3
804.72 221.99 2675.8
809.93 221.52 2670.1
811.30 220.01 2652.0
806.13 216.77 2612.9
819.71 218.59 2634.8
831.31 219.85 2650.0
848.08 222.45 2681.3
865.91 225.28 2715.4
879.92 227.08 2737.1
890.96 228.09 2749.2
895.86 227.52 2742.4
901.97 227.27 2739.4
778.20 219.31 2728.7
773.71 216.08 2688.6
777.64 215.24 2678.1
796.09 218.40 2717.4
805.68 219.09 2726.0
789.11 212.72 2646.7
793.39 212.03 2638.1
817.32 216.55 2694.5
820.79 215.63 2683.0
820.39 213.72 2659.1
827.87 213.87 2661.0
832.36 213.25 2653.3
841.63 213.86 2660.9
851.53 214.61 2670.3
870.02 217.50 2706.3
887.13 220.01 2737.4
783.45 215.63 2772.4
778.07 212.20 2728.3
777.16 210.04 2700.6
785.01 210.27 2703.5
794.00 210.80 2710.2
793.68 208.86 2685.4
786.12 205.07 2636.7
797.28 206.19 2651.0
818.92 209.98 2699.7
820.66 208.64 2682.5
816.72 205.90 2647.2
821.21 205.30 2639.6
828.34 205.37 2640.5
839.38 206.40 2653.8
839.27 204.70 2631.8
845.15 204.47 2628.9
876.84 210.44 2705.7
795.26 211.58 2814.1
798.45 210.50 2799.8
807.64 211.01 2806.5
803.24 207.98 2766.2
799.47 205.17 2728.9
807.11 205.32 2730.8
805.64 203.16 2702.1
799.43 199.86 2658.2
803.14 199.07 2647.7
813.51 199.93 2659.2
817.16 199.14 2648.7
831.13 200.86 2671.5
848.19 203.29 2703.8
862.99 205.14 2728.4
866.09 204.20 2715.9
854.77 199.91 2658.8
865.62 200.82 2671.1
788.47 200.70 2764.8
801.72 202.24 2785.9
801.99 200.50 2761.9
804.66 199.38 2746.6
819.13 201.19 2771.5
813.48 198.06 2728.4
803.02 193.83 2670.1
809.07 193.62 2667.3
820.95 194.80 2683.5
813.78 191.48 2637.7
817.05 190.65 2626.2
840.58 194.51 2679.5
862.84 198.03 2728.0
871.39 198.36 2732.6
867.13 195.80 2697.3
873.15 195.59 2694.3
773.83 189.94 2713.4
780.88 189.94 2713.5
795.72 191.83 2740.4
812.09 194.04 2772.0
822.98 191.56 2736.5
824.27 190.22 2717.4
835.97 191.28 2732.6
829.80 188.27 2689.6
820.15 184.53 2636.2
829.96 185.20 2645.7
845.83 187.19 2674.2
847.89 186.12 2658.9
847.42 184.52 2636.0
856.69 185.04 2643.5
881.17 188.82 2697.4
782.37 186.62 2768.5
780.18 182.75 2711.1
806.15 187.14 2776.3
819.80 188.63 2798.3
834.04 186.94 2773.3
820.64 182.36 2705.4
818.59 180.37 2675.8
829.34 181.20 2688.1
838.07 181.58 2693.8
845.93 181.77 2696.6
858.01 182.85 2712.7
869.55 183.81 2726.8
880.54 184.63 2739.0
882.67 183.60 2723.7
898.97 185.50 2752.0
897.61 183.76 2726.2
792.17 178.42 2752.7
816.02 182.15 2810.3
826.10 182.77 2819.8
829.43 181.89 2806.3
820.43 178.36 2751.8
812.61 175.13 2702.0
805.99 172.22 2657.1
807.04 170.98 2638.0
821.82 172.65 2663.8
824.86 171.85 2651.3
827.84 171.04 2638.9
857.84 175.79 2712.1
