ply
format ascii 1.0
element vertex 2170
property float x
property float y
property float z
end_header
-796.51 1014.55 1716.3
-751.32 962.37 1628.1
-737.07 954.84 1615.3
-771.63 1005.33 1700.7
-791.70 1037.40 1755.0
-763.97 1006.84 1703.3
-768.36 1018.52 1723.1
-817.59 1090.12 1844.2
-853.85 1145.17 1937.3
-923.21 1032.36 1754.2
-863.90 970.82 1649.6
-853.38 963.77 1637.6
-879.22 997.91 1695.6
-888.96 1014.04 1723.0
-872.28 1000.03 1699.2
-866.57 998.54 1696.7
-860.48 996.57 1693.4
-822.04 956.93 1626.0
-803.38 940.03 1597.3
-826.81 972.47 1652.4
-811.37 959.27 1630.0
-766.58 911.07 1548.1
-771.00 921.14 1565.2
-793.62 953.18 1619.6
-797.02 962.36 1635.2
-787.25 955.64 1623.8
-785.96 959.21 1629.9
-801.45 983.41 1671.0
-791.67 976.67 1659.5
-766.03 950.21 1614.6
-758.67 946.26 1607.9
-761.84 955.46 1623.5
-781.35 985.37 1674.3
-790.61 1002.62 1703.6
-752.43 959.56 1630.5
-730.02 936.24 1590.8
-773.29 997.37 1694.7
-839.40 1088.82 1850.1
-827.09 1085.26 1844.1
-820.06 1082.29 1839.0
-858.02 1139.01 1935.4
-898.07 1004.77 1714.8
-880.43 989.93 1689.5
-899.65 1016.60 1735.0
-901.18 1023.45 1746.7
-877.56 1001.65 1709.5
-858.12 984.44 1680.1
-836.80 964.88 1646.8
-833.21 965.67 1648.1
-848.33 988.26 1686.7
-839.10 982.57 1677.0
-791.62 931.81 1590.3
-780.73 928.66 1584.9
-797.89 954.09 1628.3
-797.01 958.11 1635.2
-782.22 945.35 1613.4
-774.04 940.50 1605.2
-789.99 965.07 1647.1
-781.78 960.22 1638.8
-754.65 931.97 1590.6
-746.59 927.08 1582.3
-736.31 919.37 1569.1
-742.52 932.28 1591.1
-769.08 971.01 1657.2
-752.79 955.79 1631.3
-744.72 950.89 1622.9
-800.79 1028.29 1755.0
-835.85 1079.44 1842.3
-819.37 1064.24 1816.3
-812.39 1061.27 1811.3
-829.13 1089.44 1859.3
-849.22 1122.36 1915.5
-917.05 1021.46 1751.1
-902.60 1010.37 1732.1
-900.09 1012.60 1735.9
-881.27 996.41 1708.1
-853.25 969.61 1662.2
-829.87 947.82 1624.8
-824.73 946.76 1623.0
-838.01 966.93 1657.6
-837.18 970.96 1664.5
-813.31 948.16 1625.4
-790.80 926.72 1588.7
-786.93 927.01 1589.2
-800.27 947.69 1624.6
-810.74 965.16 1654.6
-799.33 956.65 1640.0
-771.38 928.13 1591.1
-777.48 940.50 1612.3
-807.21 981.75 1683.0
-799.67 977.86 1676.3
-774.72 952.52 1632.9
-760.90 940.67 1612.6
-745.29 926.47 1588.2
-732.03 915.04 1568.6
-737.08 926.50 1588.3
-747.23 944.54 1619.2
-766.82 974.77 1671.0
-789.47 1009.27 1730.2
-790.33 1016.14 1742.0
-797.30 1030.99 1767.4
-814.63 1059.50 1816.3
-807.30 1056.06 1810.4
-805.71 1060.15 1817.4
-835.75 1106.15 1896.2
-921.11 1026.51 1767.6
-891.52 998.51 1719.4
-876.40 986.50 1698.7
-852.43 964.37 1660.6
-856.51 973.90 1677.0
-879.42 1005.05 1730.6
-861.23 989.31 1703.5
-829.20 957.43 1648.6
-809.72 939.78 1618.2
-793.13 925.32 1593.3
-779.02 913.61 1573.2
-782.23 922.20 1588.0
-803.71 952.54 1640.2
-803.21 957.01 1647.9
-777.53 931.38 1603.8
-784.39 944.64 1626.6
-805.31 975.08 1679.0
-791.67 963.78 1659.6
-782.68 958.03 1649.7
-785.81 967.16 1665.4
-791.89 980.01 1687.5
-801.97 998.01 1718.5
-788.82 987.13 1699.8
-779.83 981.37 1689.9
-772.36 977.45 1683.1
-765.65 974.47 1678.0
-777.22 994.85 1713.1
-795.54 1024.14 1763.5
-790.48 1023.51 1762.4
-765.64 997.11 1717.0
-775.00 1015.21 1748.1
-813.07 1071.34 1844.8
-835.11 1106.89 1906.0
-844.18 1125.57 1938.2
-912.10 1011.94 1750.3
-871.47 971.69 1680.7
-845.41 947.37 1638.6
-834.55 939.93 1625.8
-853.27 965.89 1670.7
-877.43 998.30 1726.7
-860.04 983.53 1701.2
-833.98 958.65 1658.1
-820.03 947.49 1638.8
-803.78 933.56 1614.7
-790.79 923.28 1597.0
-790.03 927.25 1603.8
-807.21 952.42 1647.4
-817.58 969.79 1677.4
-803.43 958.11 1657.2
-796.69 955.18 1652.1
-803.01 967.96 1674.2
-790.91 958.55 1658.0
-785.33 956.99 1655.3
-796.03 975.35 1687.0
-809.96 997.91 1726.0
-813.61 1007.97 1743.4
-794.43 989.71 1711.9
-786.53 985.37 1704.4
-780.87 983.80 1701.6
-775.58 982.70 1699.7
-786.76 1002.55 1734.1
-772.67 990.26 1712.8
-747.30 968.88 1675.8
-790.45 1030.83 1783.0
-808.17 1060.12 1833.7
-810.40 1069.34 1849.6
-824.19 1094.02 1892.3
-931.19 1023.39 1778.1
-910.07 1005.16 1746.4
-885.81 983.25 1708.4
-856.81 955.84 1660.7
-843.47 945.70 1643.1
-828.57 933.72 1622.3
-821.02 929.93 1615.7
-825.94 940.30 1633.7
-823.18 941.99 1636.7
-816.82 939.56 1632.4
-807.71 933.91 1622.6
-797.45 926.88 1610.4
-799.81 934.52 1623.7
-811.10 952.72 1655.3
-814.86 962.22 1671.8
-808.46 959.78 1667.6
-809.80 966.53 1679.3
-830.27 996.32 1731.1
-833.31 1005.41 1746.9
-805.48 977.14 1697.7
-792.63 966.83 1679.8
-802.83 984.69 1710.9
-803.15 990.55 1721.0
-793.71 984.38 1710.3
-793.60 989.77 1719.7
-785.69 985.44 1712.2
-777.81 981.10 1704.6
-786.06 997.17 1732.5
-769.78 982.14 1706.4
-745.29 956.38 1661.7
-767.14 990.14 1720.3
-813.47 1056.08 1834.9
-832.51 1087.16 1888.9
-814.03 1069.32 1857.9
-806.99 1066.38 1852.8
-922.46 1014.24 1770.2
-915.36 1011.47 1765.3
-901.74 1001.43 1747.8
-877.21 979.11 1708.9
-852.04 955.84 1668.2
-835.10 941.62 1643.4
-833.54 944.68 1648.8
-829.95 945.46 1650.1
-822.77 942.13 1644.3
-808.47 930.59 1624.2
-793.47 918.10 1602.4
-808.82 940.79 1642.0
-833.39 974.49 1700.8
-824.20 968.87 1691.0
-803.03 949.03 1656.4
-804.01 955.30 1667.3
-821.84 981.76 1713.5
-832.96 1000.46 1746.1
-815.01 984.25 1717.8
-801.35 973.06 1698.3
-810.39 989.48 1727.0
-794.16 975.05 1701.8
-768.33 948.61 1655.6
-781.73 970.57 1694.0
-786.45 981.95 1713.8
-772.67 970.23 1693.4
-773.27 976.52 1704.3
-775.63 985.14 1719.4
-772.49 986.82 1722.3
-780.51 1002.87 1750.3
-810.31 1047.24 1827.8
-829.04 1077.75 1881.0
-813.41 1063.69 1856.5
-811.67 1067.73 1863.5
-833.46 1102.97 1925.0
-915.80 1007.38 1766.2
-903.81 999.18 1751.8
-881.29 979.21 1716.8
-867.03 968.25 1697.6
-858.90 964.07 1690.3
-844.37 952.63 1670.2
-829.93 941.16 1650.1
-824.74 940.12 1648.3
-811.22 929.52 1629.7
-814.37 938.02 1644.6
-847.75 981.60 1721.0
-844.36 982.86 1723.2
-806.66 943.96 1655.0
-780.89 918.70 1610.7
-776.18 918.06 1609.6
-790.32 939.84 1647.8
-796.24 952.03 1669.1
-798.26 959.66 1682.5
-804.77 972.80 1705.6
-799.47 971.73 1703.7
-769.75 940.81 1649.5
-737.29 906.16 1588.7
-741.55 916.53 1606.9
-776.10 964.64 1691.3
-793.68 992.10 1739.4
-779.88 980.42 1718.9
-766.17 968.72 1698.4
-778.32 989.77 1735.3
-802.58 1026.56 1799.8
-820.44 1055.54 1850.6
-826.63 1069.75 1875.5
-821.67 1069.63 1875.3
-828.39 1084.79 1901.9
-914.88 1006.83 1773.3
-885.37 979.27 1724.7
-862.56 958.88 1688.8
-858.09 958.78 1688.7
-846.77 950.99 1674.9
-835.11 942.73 1660.4
-831.90 943.96 1662.6
-830.25 947.01 1667.9
-843.22 966.83 1702.8
-856.03 986.68 1737.8
-831.44 963.41 1696.8
-799.22 931.01 1639.7
-781.24 914.93 1611.4
-773.82 911.11 1604.7
-784.52 928.71 1635.7
-795.47 946.78 1667.5
-803.60 961.68 1693.8
-811.99 977.06 1720.9
-808.54 978.29 1723.0
-793.43 965.34 1700.2
-775.79 949.15 1671.7
-769.83 947.15 1668.2
-792.04 979.98 1726.0
-808.09 1005.53 1771.0
-795.31 995.28 1752.9
-780.06 981.79 1729.2
-789.25 999.11 1759.7
-794.68 1011.84 1782.1
-794.26 1017.21 1791.6
-809.18 1042.41 1836.0
-811.79 1051.96 1852.8
-811.13 1057.37 1862.3
-820.65 1076.18 1895.4
-924.74 1013.03 1792.4
-887.82 977.50 1729.5
-860.92 952.69 1685.6
-852.82 948.54 1678.3
-843.53 943.03 1668.5
-833.89 937.05 1658.0
-827.88 935.12 1654.5
-821.09 932.28 1649.5
-828.57 945.70 1673.3
-835.94 959.13 1697.0
-831.83 959.47 1697.6
-820.68 951.64 1683.8
-797.14 929.29 1644.2
-785.39 920.51 1628.7
-789.89 930.79 1646.9
-796.61 943.81 1669.9
-801.31 954.56 1688.9
-805.54 964.88 1707.2
-810.07 975.67 1726.3
-805.10 975.07 1725.2
-804.25 979.48 1733.0
-814.93 998.06 1765.9
-820.63 1010.71 1788.3
-821.05 1016.99 1799.4
-807.83 1006.33 1780.5
-792.87 993.37 1757.6
-784.92 989.09 1750.0
-772.65 979.29 1732.7
-771.98 984.17 1741.3
-786.68 1008.80 1784.9
-802.24 1034.85 1831.0
-815.11 1057.70 1871.4
-824.97 1076.91 1905.4
-930.69 1009.80 1794.9
-903.45 985.17 1751.1
-879.25 963.62 1712.8
-864.16 951.89 1692.0
-844.70 935.20 1662.3
-825.77 918.93 1633.4
-818.20 915.21 1626.8
-814.26 915.52 1627.3
-820.27 927.07 1647.9
-840.44 954.85 1697.2
-829.63 947.52 1684.2
-807.87 927.55 1648.7
-816.37 942.30 1674.9
-813.08 943.51 1677.1
-787.68 918.96 1633.4
-780.61 915.63 1627.5
-779.70 919.54 1634.5
-778.38 922.99 1640.6
-789.57 941.41 1673.3
-800.62 959.86 1706.1
-797.96 961.98 1709.9
-799.77 969.56 1723.4
-814.59 993.06 1765.2
-825.87 1012.50 1799.7
-806.32 994.16 1767.1
-775.15 961.18 1708.5
-781.92 975.16 1733.3
-795.14 997.37 1772.8
-784.99 990.36 1760.4
-787.15 998.89 1775.5
-801.78 1023.45 1819.2
-818.00 1050.33 1867.0
-818.39 1057.08 1879.0
-813.77 1057.42 1879.5
-914.13 992.22 1771.8
-894.78 976.12 1743.1
-886.12 971.59 1735.0
-872.64 961.68 1717.3
-853.98 945.95 1689.2
-847.50 943.60 1685.0
-834.63 934.09 1668.0
-833.38 937.55 1674.2
-851.93 963.44 1720.4
-838.69 953.46 1702.6
-804.69 919.65 1642.2
-801.09 920.40 1643.6
-809.94 935.55 1670.6
-797.34 925.95 1653.5
-786.36 918.13 1639.5
-783.89 920.22 1643.3
-768.02 906.52 1618.8
-764.05 906.79 1619.3
-804.03 959.51 1713.4
-831.52 997.83 1781.8
-803.54 969.63 1731.5
-788.47 956.79 1708.6
-805.10 982.49 1754.4
-792.66 972.82 1737.2
-770.37 950.86 1698.0
-785.97 975.69 1742.3
-797.00 995.09 1777.0
-785.38 986.29 1761.2
-791.51 999.81 1785.4
-807.94 1026.56 1833.1
-806.29 1030.53 1840.2
-789.34 1014.86 1812.3
-793.71 1026.60 1833.2
-916.20 989.87 1775.8
-909.10 987.15 1771.0
-910.98 994.21 1783.6
-878.31 963.45 1728.5
-841.44 927.74 1664.4
-837.42 928.07 1665.0
-826.59 920.81 1652.0
-824.98 923.81 1657.3
-844.79 950.94 1706.0
-836.71 946.80 1698.6
-807.41 918.48 1647.8
-809.28 925.51 1660.4
-821.62 944.64 1694.7
-812.46 939.13 1684.8
-805.26 935.85 1678.9
-798.86 933.45 1674.6
-779.85 916.21 1643.7
-769.73 909.29 1631.3
-802.90 953.72 1711.0
-838.73 1001.81 1797.3
-819.32 984.11 1765.5
-779.12 941.08 1688.3
-771.26 936.84 1680.7
-788.98 963.81 1729.1
-796.89 979.04 1756.4
-794.05 981.16 1760.2
-785.72 976.47 1751.8
-770.89 963.61 1728.7
-771.69 970.25 1740.7
-790.39 999.62 1793.3
-791.70 1007.20 1806.9
-782.28 1001.13 1796.0
-795.54 1024.20 1837.4
-828.31 1072.81 1924.7
-905.94 974.23 1756.0
-889.05 960.89 1731.9
-880.01 955.95 1723.0
-836.89 913.75 1646.9
-812.70 891.88 1607.5
-821.28 905.95 1632.9
-810.92 899.15 1620.6
-810.18 903.01 1627.6
-820.14 918.90 1656.2
-803.07 904.51 1630.3
-786.50 890.54 1605.1
-800.23 910.90 1641.8
-838.00 958.99 1728.5
-823.81 952.95 1717.6
-796.15 925.96 1668.9
-794.37 928.94 1674.3
-800.20 940.90 1695.9
-796.82 942.10 1698.0
-794.18 944.19 1701.8
-796.03 951.68 1715.3
-779.11 936.69 1688.3
-774.60 936.52 1688.0
-796.40 968.35 1745.4
-803.55 982.63 1771.1
-798.48 982.04 1770.0
-795.60 984.15 1773.8
-786.16 978.13 1763.0
-777.13 972.55 1752.9
-785.04 988.23 1781.2
-799.62 1012.53 1825.0
-805.45 1025.99 1849.3
-820.03 1050.81 1894.0
-907.59 971.44 1759.1
-877.97 944.49 1710.3
-857.14 926.75 1678.2
-830.34 902.36 1634.1
-821.13 896.93 1624.2
-835.74 917.59 1661.6
-832.93 919.25 1664.6
-810.93 899.63 1629.1
-801.01 893.28 1617.6
-807.77 905.56 1639.8
-814.43 917.85 1662.1
-794.31 899.93 1629.7
-799.71 910.90 1649.5
-832.64 953.51 1726.7
-821.09 945.37 1711.9
-794.97 920.26 1666.5
-796.27 926.81 1678.3
-797.90 933.81 1691.0
-788.45 927.84 1680.2
-780.94 924.11 1673.4
-779.47 927.53 1679.6
-779.48 932.74 1689.1
-792.48 953.66 1727.0
-794.56 961.59 1741.3
-781.80 951.56 1723.1
-784.18 959.94 1738.3
-788.68 971.04 1758.4
-790.55 978.99 1772.8
-791.98 986.50 1786.4
-789.03 988.61 1790.2
-792.51 998.84 1808.8
-803.38 1018.57 1844.5
-822.59 1049.17 1899.9
-931.90 992.78 1806.3
-917.34 982.20 1787.0
-887.74 955.34 1738.2
-853.88 923.59 1680.4
-838.49 911.59 1658.6
-847.40 926.02 1684.8
-839.32 921.95 1677.4
-812.88 897.55 1633.0
-824.04 914.65 1664.1
-850.13 948.57 1725.8
-842.81 945.37 1720.0
-811.15 914.70 1664.2
-787.94 893.28 1625.2
-793.32 904.22 1645.1
-797.84 914.28 1663.4
-788.38 908.35 1652.7
-787.03 911.75 1658.9
-787.56 917.38 1669.1
-791.85 927.47 1687.5
-798.33 940.25 1710.7
-804.69 953.04 1734.0
-812.08 967.19 1759.7
-798.45 956.34 1740.0
-773.77 932.04 1695.8
-777.74 942.17 1714.2
-797.06 971.13 1766.9
-798.94 979.05 1781.3
-797.49 982.95 1788.4
-786.94 975.62 1775.1
-772.13 962.89 1751.9
-776.42 973.97 1772.0
-785.96 991.80 1804.5
-795.71 1010.12 1837.8
-810.24 1034.76 1882.7
-932.55 993.77 1816.6
-880.37 942.94 1723.7
-870.13 936.73 1712.4
-878.18 950.24 1737.1
-875.22 951.92 1740.1
-855.77 935.58 1710.3
-833.23 915.69 1673.9
-847.91 936.70 1712.3
-854.88 949.37 1735.5
-828.97 925.47 1691.8
-820.15 920.49 1682.7
-820.77 926.11 1692.9
-810.03 918.91 1679.8
-798.19 910.37 1664.2
-789.50 905.35 1655.0
-789.30 910.07 1663.6
-785.24 910.36 1664.2
-784.60 914.64 1672.0
-806.27 945.13 1727.7
-828.83 977.00 1786.0
-820.72 972.88 1778.5
-791.73 943.82 1725.3
-773.76 927.63 1695.7
-784.39 945.75 1728.9
-800.39 970.58 1774.3
-799.33 974.91 1782.2
-797.15 977.90 1787.6
-785.51 969.26 1771.8
-775.03 961.95 1758.5
-782.90 977.46 1786.8
-792.42 995.24 1819.3
-801.08 1012.15 1850.2
-809.96 1029.52 1882.0
-829.92 1061.30 1940.1
-925.99 982.11 1803.9
-881.99 940.20 1726.9
-879.48 942.30 1730.8
-879.79 947.47 1740.3
-868.75 940.40 1727.3
-854.54 929.81 1707.8
-837.60 916.13 1682.7
-839.92 923.47 1696.2
-835.02 922.92 1695.2
-833.29 925.88 1700.6
-847.67 946.87 1739.1
-845.03 948.96 1743.0
-832.23 939.62 1725.8
-821.06 932.01 1711.9
-811.49 926.15 1701.1
-814.65 934.85 1717.1
-814.68 940.02 1726.6
-786.09 912.04 1675.2
-777.82 907.46 1666.8
-794.50 932.10 1712.0
-782.43 923.09 1695.5
-775.66 920.27 1690.3
-779.69 930.32 1708.7
-782.16 938.60 1724.0
-788.62 951.78 1748.2
-794.59 964.53 1771.6
-800.82 977.75 1795.9
-795.33 976.72 1794.0
-790.92 977.02 1794.5
-788.67 980.00 1800.0
-787.46 984.32 1807.9
-804.33 1011.44 1857.7
-821.34 1039.04 1908.4
-830.01 1056.38 1940.3
-939.17 991.35 1829.6
-913.11 968.73 1787.8
-881.10 939.54 1733.9
-854.19 915.52 1689.6
-834.76 899.30 1659.7
-811.02 878.25 1620.8
-801.88 872.88 1610.9
-811.54 888.03 1638.9
-819.49 901.44 1663.6
-830.50 918.38 1694.9
-829.94 922.64 1702.8
-813.65 909.38 1678.3
-812.31 912.76 1684.5
-812.10 917.45 1693.2
-810.30 920.40 1698.6
-820.41 936.97 1729.2
-818.89 940.37 1735.5
-787.59 909.42 1678.4
-768.30 892.08 1646.4
-773.33 902.94 1666.4
-777.14 912.49 1684.0
-785.36 927.35 1711.4
-782.66 929.41 1715.2
-778.08 929.25 1715.0
-795.26 955.22 1762.9
-811.85 980.79 1810.1
-805.96 979.33 1807.4
-788.45 963.66 1778.5
-783.36 963.07 1777.4
-780.07 964.70 1780.4
-778.19 968.11 1786.7
-793.36 992.89 1832.4
-820.70 1033.29 1907.0
-924.18 975.78 1809.5
-890.06 944.55 1751.6
-860.66 918.04 1702.4
-838.35 898.85 1666.8
-814.17 877.45 1627.1
-805.02 872.10 1617.2
-819.48 892.41 1654.9
-830.98 909.71 1687.0
-831.65 915.26 1697.3
-822.81 910.35 1688.1
-811.65 902.80 1674.2
-817.35 914.03 1695.0
-813.24 914.34 1695.6
-807.18 912.46 1692.1
-806.53 916.71 1699.9
-794.33 907.81 1683.4
-780.68 897.14 1663.6
-778.51 899.61 1668.2
-784.64 911.76 1690.8
-788.03 920.84 1707.6
-795.08 934.33 1732.6
-791.22 935.07 1734.0
-785.12 933.17 1730.5
-800.80 957.28 1775.2
-816.28 981.42 1820.0
-807.81 976.89 1811.5
-792.10 963.49 1786.7
-788.80 965.12 1789.7
-787.64 969.41 1797.7
-787.16 974.58 1807.3
-782.36 974.43 1807.0
-788.89 988.49 1833.0
-817.15 1030.10 1910.2
-934.04 981.45 1828.8
-906.60 962.39 1793.3
-865.85 923.87 1721.5
-824.59 884.41 1648.0
-805.75 868.70 1618.7
-809.82 877.66 1635.4
-834.53 909.19 1694.2
-846.68 927.32 1727.9
-835.40 919.83 1714.0
-823.40 911.46 1698.4
-823.58 916.56 1707.9
-814.76 911.65 1698.7
-800.56 900.63 1678.2
-791.84 895.69 1669.0
-794.30 903.40 1683.4
-794.78 908.94 1693.7
-784.94 902.68 1682.0
-783.47 906.03 1688.2
-793.28 922.52 1719.0
-805.94 942.54 1756.3
-800.91 941.97 1755.2
-794.39 939.64 1750.9
-795.64 946.54 1763.7
-797.20 953.87 1777.4
-802.72 966.06 1800.1
-801.58 970.33 1808.1
-798.96 972.85 1812.8
-797.75 977.12 1820.7
-792.92 976.99 1820.5
-783.10 970.67 1808.7
-786.80 981.13 1828.2
-810.52 1016.83 1894.7
-819.19 1033.98 1926.7
-811.32 1030.32 1919.9
-805.55 1029.31 1918.0
-814.63 1047.39 1951.7
-917.19 968.93 1814.2
-865.41 918.94 1720.6
-825.34 880.93 1649.5
-808.49 867.44 1624.2
-811.36 875.08 1638.5
-833.29 903.46 1691.6
-848.24 924.54 1731.1
-838.93 919.25 1721.2
-813.53 896.19 1678.0
-801.24 887.39 1661.6
-816.29 908.95 1701.9
-826.12 924.89 1731.8
-814.19 916.52 1716.1
-813.09 920.31 1723.2
-810.42 922.36 1727.0
-797.46 912.65 1708.8
-786.85 905.54 1695.5
-787.98 911.93 1707.5
-786.05 914.84 1713.0
-766.18 896.78 1679.1
-770.97 907.55 1699.3
-783.44 927.52 1736.7
-782.86 932.19 1745.4
-787.36 943.00 1765.7
-784.48 945.05 1769.5
-779.78 944.90 1769.2
-785.52 957.50 1792.8
-787.21 965.27 1807.4
-784.91 968.21 1812.9
-795.00 986.56 1847.2
-814.46 1016.84 1903.9
-818.21 1027.75 1924.4
-810.34 1024.11 1917.5
-804.23 1022.66 1914.8
-813.34 1040.67 1948.5
-879.18 929.03 1748.0
-828.91 880.45 1656.6
-836.18 892.79 1679.8
-862.17 925.37 1741.1
-869.94 938.62 1766.1
-871.25 945.01 1778.1
-867.76 946.23 1780.4
-847.33 928.89 1747.7
-828.22 912.82 1717.5
-838.09 928.70 1747.4
-854.82 952.38 1791.9
-847.39 949.27 1786.1
-828.45 933.14 1755.7
-809.25 916.56 1724.5
-784.86 893.87 1681.8
-762.17 872.87 1642.3
-772.48 889.66 1673.9
-779.65 902.98 1699.0
-764.65 890.64 1675.8
-773.55 906.16 1705.0
-794.53 936.08 1761.3
-802.00 950.35 1788.1
-792.12 944.10 1776.4
-775.37 929.54 1749.0
-765.63 923.27 1737.2
-767.13 930.54 1750.8
-777.54 948.78 1785.2
-783.86 962.22 1810.4
-787.93 973.04 1830.8
-801.09 995.29 1872.7
-803.87 1004.83 1890.6
-793.97 998.55 1878.8
-791.43 1001.50 1884.4
-804.08 1023.83 1926.4
-910.84 957.79 1811.0
-864.85 914.14 1728.4
-878.82 933.74 1765.5
-892.22 952.95 1801.8
-887.10 952.46 1800.9
-873.63 942.96 1782.9
-855.88 928.72 1756.0
-847.71 924.77 1748.5
-839.17 920.37 1740.2
-836.51 922.43 1744.1
-839.28 930.51 1759.4
-836.56 932.56 1763.3
-822.28 921.67 1742.7
-806.93 909.47 1719.6
-784.82 889.46 1681.8
-771.98 879.80 1663.5
-791.70 907.34 1715.6
-807.81 931.03 1760.4
-801.64 929.17 1756.8
-791.76 922.97 1745.1
-794.15 931.08 1760.4
-802.74 946.59 1789.8
-794.33 942.11 1781.3
-780.84 931.53 1761.3
-774.70 929.64 1757.7
-780.13 941.69 1780.5
-794.79 965.11 1824.8
-794.60 970.65 1835.3
-792.58 974.01 1841.6
-791.94 979.13 1851.3
-781.40 971.99 1837.8
-772.32 966.59 1827.6
-770.25 969.94 1833.9
-781.99 990.84 1873.4
-807.66 1029.77 1947.0
-921.50 969.24 1841.6
-908.63 960.69 1825.4
-895.83 952.11 1809.1
-878.71 938.83 1783.8
-854.92 918.25 1744.7
-836.06 902.77 1715.3
-825.60 896.24 1702.9
-822.26 897.42 1705.2
-823.99 904.16 1718.0
-832.27 918.21 1744.7
-834.62 925.83 1759.1
-823.03 917.99 1744.3
-809.20 907.56 1724.4
-808.44 911.74 1732.4
-815.99 925.40 1758.3
-795.83 907.60 1724.5
-772.80 886.32 1684.1
-791.89 913.37 1735.5
-804.04 932.69 1772.2
-798.60 931.69 1770.3
-799.43 938.06 1782.4
-809.38 955.26 1815.1
-812.97 965.11 1833.8
-788.14 941.13 1788.2
-775.07 931.00 1769.0
-782.23 945.19 1795.9
-774.95 942.00 1789.9
-768.76 940.11 1786.3
-764.00 939.96 1786.0
-766.99 949.39 1803.9
-771.30 960.57 1825.2
-762.61 955.62 1815.7
-767.48 967.69 1838.7
-787.40 999.02 1898.2
-799.51 1020.76 1939.5
-911.46 958.93 1831.1
-904.67 956.77 1826.9
-893.89 950.35 1814.7
-868.83 928.59 1773.1
-849.10 912.33 1742.1
-832.27 899.03 1716.7
-824.58 895.51 1710.0
-829.43 905.64 1729.3
-840.03 922.20 1760.9
-846.22 934.08 1783.6
-839.20 931.42 1778.5
-827.60 923.61 1763.6
-829.04 930.37 1776.5
-822.06 927.69 1771.4
-788.61 894.94 1708.9
-778.00 892.93 1705.0
-795.46 918.18 1753.2
-794.88 922.79 1762.0
-803.49 938.18 1791.4
-819.68 962.65 1838.2
-815.19 962.97 1838.8
-782.68 930.01 1775.8
-759.87 908.24 1734.3
-757.04 910.24 1738.1
-763.14 923.07 1762.6
-769.83 936.79 1788.8
-765.43 937.07 1789.3
-767.71 945.59 1805.6
-779.73 966.30 1845.1
-779.72 972.24 1856.5
-775.49 972.97 1857.9
-785.04 991.11 1892.5
-792.38 1006.67 1922.2
-804.01 1027.91 1962.8
-901.09 958.31 1839.0
-875.26 935.78 1795.7
-853.16 917.03 1759.8
-850.09 918.65 1762.9
-859.53 933.87 1792.1
-857.15 936.34 1796.8
-851.25 934.98 1794.2
-831.47 918.27 1762.1
-808.75 898.12 1723.5
-826.74 923.19 1771.6
-835.37 938.04 1800.1
-810.16 914.85 1755.6
-792.69 900.17 1727.4
-790.72 903.04 1732.9
-792.45 910.19 1746.6
-799.69 923.78 1772.7
-814.94 946.84 1817.0
-811.24 948.02 1819.2
-788.13 926.40 1777.7
-778.67 920.67 1766.7
-777.59 924.83 1774.7
-778.63 931.58 1787.7
-788.58 949.12 1821.3
-789.09 955.47 1833.5
-778.55 948.42 1820.0
-781.13 957.36 1837.1
-793.09 977.99 1876.7
-789.87 980.02 1880.6
-782.46 976.86 1874.6
-790.61 993.20 1905.9
-796.55 1006.96 1932.3
-797.59 1014.66 1947.1
-801.62 1026.27 1969.4
-925.03 978.87 1887.8
-900.66 958.15 1847.9
-873.69 934.43 1802.1
-865.02 930.13 1793.8
-874.41 945.30 1823.1
-872.35 948.21 1828.7
-855.52 934.99 1803.2
-825.65 907.31 1749.8
-816.02 901.68 1739.0
-847.00 941.12 1815.0
-848.32 947.84 1828.0
-815.45 916.23 1767.0
-794.54 897.79 1731.4
-789.94 897.66 1731.2
-799.15 913.32 1761.4
-811.95 933.27 1799.9
-818.28 945.99 1824.4
-806.83 938.18 1809.3
-792.15 926.49 1786.8
-791.05 930.65 1794.8
-784.83 928.80 1791.3
-781.52 930.38 1794.3
-780.70 934.96 1803.1
-771.62 929.66 1792.9
-768.62 931.67 1796.8
-778.32 949.17 1830.5
-783.30 961.10 1853.5
-773.14 954.49 1840.8
-755.39 938.38 1809.7
-751.95 939.94 1812.7
-770.49 969.17 1869.1
-785.01 993.68 1916.4
-794.21 1011.73 1951.2
-794.80 1018.98 1965.2
-967.10 1007.61 1953.0
-964.86 1010.56 1958.7
-954.20 1004.69 1947.4
-938.03 992.92 1924.5
-919.18 978.17 1895.9
-874.07 935.16 1812.6
-850.09 914.43 1772.4
-857.91 927.85 1798.4
-851.23 925.66 1794.2
-838.77 917.12 1777.6
-844.85 928.87 1800.4
-842.41 931.33 1805.2
-812.48 903.26 1750.8
-812.77 908.66 1761.2
-822.45 924.68 1792.3
-805.31 910.55 1764.9
-801.38 911.28 1766.3
-795.57 909.88 1763.6
-785.33 903.36 1751.0
-795.04 919.85 1782.9
-800.94 932.09 1806.6
-796.15 931.97 1806.4
-786.64 926.29 1795.4
-772.13 914.61 1772.7
-761.31 907.18 1758.4
-764.83 916.88 1777.1
-774.31 933.87 1810.1
-773.74 938.87 1819.8
-768.90 938.72 1819.5
-771.06 947.17 1835.9
-766.53 947.45 1836.4
-761.30 946.87 1835.3
-776.37 971.69 1883.4
-790.88 996.10 1930.7
-800.06 1014.09 1965.6
-960.25 1005.97 1959.7
-924.75 979.15 1907.4
-887.46 944.72 1840.4
-848.89 908.54 1769.9
-843.44 907.62 1768.1
-848.50 918.04 1788.4
-847.27 921.75 1795.6
-831.74 909.86 1772.5
-810.19 891.21 1736.1
-801.38 886.45 1726.8
-818.82 910.83 1774.3
-829.62 928.05 1807.9
-813.94 915.68 1783.8
-802.10 907.52 1767.9
-790.34 899.35 1752.0
-776.41 888.61 1731.1
-782.86 901.20 1755.6
-784.43 908.29 1769.4
-776.07 903.90 1760.8
-781.19 915.24 1782.9
-780.79 920.21 1792.6
-771.71 914.96 1782.4
-775.55 925.05 1802.0
-776.09 931.31 1814.2
-767.38 926.47 1804.8
-774.54 940.85 1832.8
-789.62 965.10 1880.1
-785.34 965.82 1881.5
-780.01 965.27 1880.4
-784.32 976.71 1902.7
-787.50 986.87 1922.5
-790.59 997.05 1942.3
-792.90 1006.38 1960.5
-794.12 1014.43 1976.2
-971.89 1013.03 1983.5
-938.90 983.85 1926.3
-918.84 967.97 1895.2
-905.22 958.75 1877.2
-888.14 945.75 1851.7
-866.09 927.28 1815.6
-856.65 922.18 1805.6
-857.71 928.40 1817.7
-845.21 919.93 1801.2
-837.40 916.48 1794.4
-840.68 925.22 1811.5
-818.42 905.78 1773.5
-791.40 880.83 1724.6
-798.11 893.34 1749.1
-808.07 909.66 1781.1
-792.54 897.31 1756.9
-776.38 884.08 1731.0
-783.94 897.89 1758.0
-788.45 908.33 1778.5
-787.38 912.43 1786.5
-798.99 931.37 1823.6
-782.59 917.68 1796.8
-758.03 894.20 1750.8
-771.25 915.28 1792.1
-781.08 932.56 1825.9
-767.73 922.21 1805.6
-770.68 931.43 1823.7
-781.24 950.03 1860.1
-771.43 943.93 1848.2
-766.53 943.79 1847.9
-771.27 955.59 1871.0
-776.24 967.84 1895.0
-781.10 980.11 1919.0
-779.07 983.83 1926.3
-775.32 985.41 1929.4
-774.23 990.41 1939.2
-780.42 1004.86 1967.4
-951.28 991.77 1951.7
-947.82 993.43 1955.0
-949.86 1000.93 1969.8
-882.51 940.07 1850.0
-875.33 937.51 1845.0
-878.64 946.22 1862.1
-864.49 936.14 1842.3
-854.28 930.21 1830.6
-844.88 925.12 1820.6
-811.16 893.19 1757.7
-795.90 881.34 1734.4
-813.15 905.55 1782.1
-823.43 922.24 1814.9
-808.18 910.37 1791.5
-790.82 895.95 1763.2
-797.21 908.45 1787.8
-803.13 920.55 1811.6
-803.45 926.33 1823.0
-809.18 938.45 1846.8
-788.01 919.34 1809.2
-760.88 893.01 1757.4
-770.52 909.77 1790.4
-791.06 939.68 1849.2
-788.99 942.94 1855.6
-769.97 925.86 1822.0
-758.47 917.65 1805.9
-751.92 915.38 1801.4
-750.59 919.47 1809.4
-765.43 943.54 1856.8
-781.76 969.78 1908.5
-783.19 977.74 1924.1
-777.42 976.76 1922.2
-767.27 970.23 1909.3
-759.19 966.24 1901.5
-775.48 993.43 1955.0
-962.09 997.92 1973.9
-967.32 1008.70 1995.2
-955.82 1007.49 1992.8
-907.97 962.25 1903.4
-889.75 948.10 1875.4
-885.24 948.47 1876.1
-863.33 930.11 1839.8
-843.51 913.80 1807.5
-824.59 898.29 1776.8
-817.22 895.27 1770.9
-825.80 909.78 1799.6
-821.04 909.68 1799.4
-811.03 903.72 1787.6
-815.63 914.07 1808.1
-816.80 920.67 1821.1
-808.66 916.79 1813.4
-801.65 914.16 1808.2
-791.00 907.33 1794.7
-786.60 907.62 1795.3
-791.26 918.42 1816.7
-789.32 921.67 1823.1
-776.60 912.27 1804.5
-775.73 916.77 1813.4
-778.01 925.07 1829.8
-764.33 914.38 1808.7
-764.43 920.15 1820.1
-770.06 932.68 1844.9
-752.66 917.31 1814.5
-751.28 921.39 1822.5
-772.18 953.01 1885.1
-778.11 966.44 1911.6
-773.05 966.31 1911.4
-764.27 961.50 1901.9
-757.88 959.66 1898.2
-774.20 986.73 1951.8
-976.51 1013.06 2014.2
-957.86 999.06 1986.4
-957.78 1009.83 2007.8
-882.53 940.71 1870.3
-855.21 916.63 1822.5
-829.63 894.16 1777.8
-821.87 890.74 1771.0
-824.05 898.12 1785.7
-821.22 900.10 1789.6
-805.92 888.35 1766.2
-796.73 883.23 1756.1
-801.79 893.95 1777.4
-805.63 903.42 1796.2
-800.87 903.31 1796.0
-792.06 898.60 1786.6
-781.46 891.78 1773.1
-778.93 894.16 1777.8
-785.81 907.42 1804.2
-781.74 908.13 1805.6
-766.54 895.84 1781.1
-756.09 888.98 1767.5
-748.89 885.88 1761.3
-757.26 901.27 1791.9
-779.88 933.93 1856.9
-787.19 948.54 1885.9
-770.38 934.09 1857.2
-756.47 922.99 1835.1
-763.96 938.02 1865.0
-779.51 963.22 1915.1
-784.63 975.76 1940.0
-782.21 979.02 1946.5
-781.76 984.82 1958.0
-774.92 982.58 1953.6
-775.06 989.22 1966.8
-956.72 992.73 1984.0
-948.44 989.45 1977.4
-869.06 916.55 1831.7
-860.76 912.78 1824.2
-852.87 909.41 1817.5
-831.52 891.58 1781.8
-826.82 891.48 1781.7
-821.35 890.56 1779.8
-811.70 885.08 1768.8
-816.46 895.33 1789.3
-826.77 911.81 1822.3
-816.35 905.49 1809.6
-805.61 898.74 1796.2
-796.40 893.64 1786.0
-784.67 885.62 1769.9
-778.86 884.24 1767.2
-781.09 892.02 1782.7
-783.98 900.64 1800.0
-774.51 895.09 1788.9
-760.77 884.51 1767.7
-749.98 877.25 1753.2
-750.99 883.79 1766.3
-767.84 909.16 1817.0
-780.95 930.39 1859.4
-777.42 931.93 1862.5
-764.83 922.57 1843.8
-755.43 916.97 1832.6
-764.66 934.04 1866.7
-782.28 961.65 1921.9
-789.78 977.10 1952.7
-789.69 983.29 1965.1
-785.85 984.86 1968.3
-774.96 977.57 1953.7
-763.81 969.84 1938.2
-770.57 984.90 1968.4
-955.58 991.74 1992.3
-906.84 946.26 1901.0
-867.87 910.55 1829.2
-872.80 920.75 1849.7
-869.88 922.75 1853.7
-853.07 909.94 1828.0
-836.76 897.53 1803.1
-819.78 884.26 1776.4
-820.40 889.93 1787.8
-835.34 911.28 1830.7
-837.67 919.04 1846.3
-820.07 904.91 1817.9
-822.72 913.08 1834.3
-824.92 920.84 1849.9
-797.17 895.07 1798.1
-776.62 877.13 1762.1
-781.43 887.78 1783.5
-786.86 899.27 1806.6
-784.60 902.06 1812.2
-775.48 896.94 1801.9
-759.96 884.32 1776.5
-756.30 885.42 1778.7
-760.05 895.27 1798.5
-759.13 899.71 1807.5
-763.07 910.00 1828.1
-757.86 909.44 1827.0
-745.73 900.51 1809.1
-751.93 913.74 1835.6
-772.04 944.15 1896.7
-782.33 962.87 1934.3
-771.46 955.62 1919.8
-755.94 942.47 1893.4
-754.60 946.94 1902.3
-754.20 952.68 1913.9
-756.07 961.36 1931.3
-778.57 996.57 2002.0
-954.44 985.40 1990.0
-927.28 962.56 1943.8
-906.97 946.62 1911.7
-905.11 949.87 1918.2
-897.01 946.57 1911.5
-868.87 921.97 1861.9
-840.95 897.33 1812.1
-824.71 884.94 1787.1
-825.31 890.59 1798.5
-820.56 890.50 1798.3
-804.51 878.07 1773.2
-800.56 878.78 1774.6
-814.50 899.25 1816.0
-818.61 909.04 1835.7
-791.24 883.78 1784.7
-774.01 869.63 1756.2
-781.03 882.71 1782.6
-785.02 892.50 1802.4
-780.60 892.78 1802.9
-773.30 889.76 1796.8
-759.57 879.26 1775.6
-754.49 878.70 1774.5
-756.48 886.43 1790.1
-761.58 897.91 1813.3
-770.42 913.98 1845.7
-768.31 917.17 1852.2
-758.89 911.62 1841.0
-749.51 906.06 1829.7
-753.89 917.16 1852.2
-761.58 932.44 1883.0
-746.75 920.19 1858.3
-749.22 929.23 1876.5
-767.01 957.51 1933.6
-758.56 953.19 1924.9
-751.47 950.53 1919.6
-767.44 977.20 1973.4
-980.27 1001.35 2032.8
-948.95 974.59 1978.5
-920.61 950.63 1929.9
-894.84 929.07 1886.1
-887.19 926.19 1880.2
-885.38 929.40 1886.8
-864.23 912.24 1851.9
-845.92 897.90 1822.8
-837.29 893.74 1814.4
-828.70 889.57 1805.9
-815.98 880.89 1788.3
-798.06 866.46 1759.0
-792.64 865.53 1757.1
-802.53 881.39 1789.3
-802.99 887.03 1800.7
-787.14 874.60 1775.5
-779.11 870.77 1767.7
-779.90 876.81 1780.0
-776.99 878.74 1783.9
-782.75 890.55 1807.9
-785.51 899.08 1825.2
-771.00 887.82 1802.3
-765.14 886.45 1799.6
-763.55 890.02 1806.8
-764.38 896.50 1820.0
-773.22 912.49 1852.4
-771.10 915.68 1858.9
-761.31 909.74 1846.8
-751.57 903.79 1834.8
-750.12 907.79 1842.9
-752.04 915.95 1859.4
-742.69 910.39 1848.2
-747.88 922.71 1873.2
-762.35 946.71 1921.9
-751.92 939.90 1908.1
-747.85 941.00 1910.3
-765.18 969.22 1967.6
-777.98 992.05 2013.9
-983.90 999.77 2040.3
-963.61 984.45 2009.1
-936.38 961.82 1962.9
-910.12 939.96 1918.3
-907.86 942.78 1924.0
-911.39 951.67 1942.2
-875.80 919.59 1876.7
-845.50 892.74 1821.9
-838.79 890.63 1817.6
-832.48 888.92 1814.1
-823.90 884.76 1805.6
-810.84 875.70 1787.1
-805.73 875.19 1786.1
-816.32 891.82 1820.0
-811.14 891.31 1819.0
-789.68 872.81 1781.2
-777.23 864.10 1763.5
-774.74 866.42 1768.2
-778.41 875.71 1787.2
-790.69 894.86 1826.2
-793.07 902.95 1842.8
-778.15 891.33 1819.0
-770.11 887.50 1811.2
-766.71 889.01 1814.3
-756.25 882.29 1800.6
-753.56 884.61 1805.3
-761.67 899.72 1836.2
-763.38 907.42 1851.9
-762.61 912.23 1861.7
-770.02 926.97 1891.8
-769.11 931.80 1901.6
-756.60 922.56 1882.8
-754.64 926.15 1890.1
-760.36 939.27 1916.9
-753.94 937.47 1913.2
-753.84 943.55 1925.6
-774.12 975.39 1990.6
-983.85 999.80 2051.3
-960.04 980.91 2012.5
-943.86 969.65 1989.4
-950.43 981.76 2014.2
-879.66 918.76 1885.0
-850.47 893.23 1832.6
-845.27 892.76 1831.6
-834.35 886.20 1818.2
-821.97 878.01 1801.4
-812.30 872.64 1790.4
-810.95 876.20 1797.7
-812.92 883.41 1812.5
-800.32 874.77 1794.7
-789.27 867.74 1780.3
-787.13 870.47 1785.9
-781.29 869.12 1783.2
-782.38 875.52 1796.3
-790.67 890.10 1826.2
-789.08 893.66 1833.5
-772.38 880.04 1805.6
-763.30 875.00 1795.2
-773.08 891.65 1829.4
-776.00 900.54 1847.6
-759.86 887.28 1820.4
-754.32 886.32 1818.4
-755.04 892.75 1831.6
-752.93 895.89 1838.1
-762.13 912.61 1872.4
-763.65 920.30 1888.2
-763.06 925.52 1898.9
-773.23 943.94 1936.7
-767.09 942.57 1933.9
-748.62 925.92 1899.7
-745.23 927.84 1903.6
-760.97 953.74 1956.8
-780.39 984.65 2020.2
-778.97 989.50 2030.1
-777.82 994.77 2040.9
-952.14 972.95 2006.8
-939.91 965.74 1992.0
-905.58 935.60 1929.8
-873.84 907.82 1872.5
-863.54 902.14 1860.8
-850.23 893.21 1842.4
-832.02 879.03 1813.1
-820.03 871.28 1797.1
-811.50 867.15 1788.6
-803.38 863.41 1780.9
-799.79 864.51 1783.2
-799.16 868.85 1792.1
-800.34 875.23 1805.3
-791.51 870.66 1795.9
-779.41 862.42 1778.9
-791.10 880.57 1816.3
-809.52 906.47 1869.7
-802.42 903.93 1864.5
-780.97 885.10 1825.6
-764.69 871.94 1798.5
-767.73 880.77 1816.7
-784.11 905.12 1866.9
-781.63 907.86 1872.6
-756.04 883.62 1822.6
-736.59 866.30 1786.9
-735.62 870.64 1795.8
-746.65 889.32 1834.4
-761.26 912.54 1882.2
-774.97 934.96 1928.5
-775.62 941.82 1942.6
-760.73 929.78 1917.8
-743.95 915.25 1887.8
-742.92 920.04 1897.7
-754.72 940.89 1940.7
-768.95 965.06 1990.6
-771.19 974.41 2009.9
-774.32 985.02 2031.7
-947.45 962.99 1997.0
-927.03 947.41 1964.7
-896.63 921.40 1910.7
-868.39 897.34 1860.8
-860.05 893.68 1853.3
-847.89 886.00 1837.3
-831.22 873.48 1811.4
-821.50 868.18 1800.4
-824.31 876.13 1816.9
-827.05 884.09 1833.4
-809.48 870.31 1804.8
-796.13 860.93 1785.3
-796.96 866.87 1797.7
-787.77 861.92 1787.4
-778.63 856.95 1777.1
-793.26 878.25 1821.3
-806.24 897.97 1862.1
-793.37 888.96 1843.5
-785.62 885.60 1836.5
-782.54 887.51 1840.5
-766.63 874.81 1814.1
-764.64 877.92 1820.6
-764.38 883.07 1831.3
-742.71 863.41 1790.5
-728.89 852.66 1768.2
-734.20 864.31 1792.4
-741.47 878.43 1821.6
-753.05 897.86 1861.9
-755.25 906.29 1879.4
-744.50 899.20 1864.7
-738.54 897.83 1861.9
-731.57 895.22 1856.4
-742.26 914.31 1896.0
-766.97 951.05 1972.2
-767.02 957.48 1985.6
-755.89 949.97 1970.0
-761.38 963.38 1997.8
-963.70 968.94 2020.2
-929.39 944.71 1969.7
-906.36 926.39 1931.5
-878.84 903.25 1883.2
-870.05 899.22 1874.8
-856.31 889.98 1855.6
-837.67 875.53 1825.4
-826.02 868.26 1810.3
-826.54 873.77 1821.8
-821.36 873.29 1820.8
-795.94 851.15 1774.6
-796.08 856.25 1785.2
-809.17 875.41 1825.2
-808.40 879.73 1834.2
-807.60 884.06 1843.2
-796.52 877.12 1828.7
-782.95 867.34 1808.3
-785.39 875.28 1824.9
-792.07 888.07 1851.6
-788.60 889.58 1854.7
-771.58 875.72 1825.8
-765.67 874.38 1823.0
-762.24 875.87 1826.1
-746.18 862.77 1798.8
-739.29 860.18 1793.4
-737.63 863.68 1800.7
-737.31 868.80 1811.4
-739.33 876.77 1828.0
-731.39 872.95 1820.1
-727.90 874.42 1823.1
-728.76 881.18 1837.2
-724.53 881.83 1838.6
-738.27 904.50 1885.8
-748.14 922.71 1923.8
-734.16 911.54 1900.5
-738.26 922.83 1924.0
-760.45 957.03 1995.3
-905.90 915.85 1919.9
-895.83 910.68 1909.0
-880.37 899.93 1886.5
-867.32 891.55 1868.9
-850.12 878.78 1842.2
-846.81 880.30 1845.4
-850.34 888.99 1863.6
-839.00 882.15 1849.2
-822.07 869.32 1822.3
-796.25 846.88 1775.3
-796.40 851.96 1785.9
-815.07 877.04 1838.5
-819.09 886.54 1858.4
-816.40 888.86 1863.3
-803.80 880.35 1845.5
-793.83 874.63 1833.5
-799.47 886.16 1857.6
-798.88 890.88 1867.5
-787.50 883.54 1852.1
-782.24 883.02 1851.1
-788.33 895.38 1877.0
-785.12 897.28 1881.0
-768.93 884.27 1853.7
-761.92 881.72 1848.3
-760.13 885.22 1855.7
-754.51 884.27 1853.7
-750.28 884.94 1855.1
-749.10 889.25 1864.1
-750.92 897.21 1880.8
-749.64 901.52 1889.8
-742.61 898.94 1884.4
-742.60 904.88 1896.9
-737.89 905.14 1897.4
-733.83 906.21 1899.7
-747.76 929.65 1948.8
-756.58 947.01 1985.2
-761.35 959.51 2011.4
-765.03 970.80 2035.1
-749.44 957.61 2007.4
-751.42 966.86 2026.8
-910.20 915.20 1929.0
-899.32 909.26 1916.5
-874.52 889.09 1874.0
-853.37 872.44 1838.9
-845.85 869.61 1832.9
-852.52 881.42 1857.8
-854.12 888.09 1871.9
-842.38 880.89 1856.7
-836.75 880.03 1854.9
-822.48 870.02 1833.8
-807.55 859.20 1811.0
-810.94 867.85 1829.2
-810.92 872.93 1839.9
-804.22 870.85 1835.5
-801.94 873.54 1841.2
-801.80 878.62 1851.9
-802.71 884.91 1865.2
-796.70 883.61 1862.4
-780.30 870.70 1835.2
-770.09 864.58 1822.3
-779.80 880.88 1856.7
-779.82 886.38 1868.2
-767.15 877.43 1849.4
-763.64 878.90 1852.5
-770.18 892.04 1880.2
-772.44 900.36 1897.7
-754.03 884.54 1864.4
-737.82 871.10 1836.0
-741.41 881.03 1857.0
-742.21 887.74 1871.1
-731.19 880.32 1855.5
-726.92 880.97 1856.8
-740.21 903.05 1903.4
-754.59 926.78 1953.4
-755.97 934.74 1970.2
-751.40 935.42 1971.6
-756.54 948.26 1998.7
-759.93 959.09 2021.5
-747.24 949.61 2001.5
-751.47 961.67 2026.9
-916.86 916.86 1943.1
-912.20 917.24 1943.9
-891.20 901.10 1909.7
-864.94 879.43 1863.8
-853.50 872.68 1849.5
-857.85 882.08 1869.4
-857.14 886.36 1878.5
-850.32 884.33 1874.2
-849.93 889.01 1884.1
-831.83 875.11 1854.6
-813.11 860.38 1823.4
-816.11 868.61 1840.9
-815.33 872.88 1849.9
-803.45 865.25 1833.7
-795.67 861.97 1826.8
-790.10 861.07 1824.9
-785.27 860.96 1824.6
-789.46 870.80 1845.5
-782.78 868.69 1841.0
-765.76 855.02 1812.1
-767.34 862.07 1827.0
-767.43 867.53 1838.6
-754.83 858.62 1819.7
-758.37 868.07 1839.7
-771.55 888.75 1883.5
-771.40 894.23 1895.1
-749.89 874.87 1854.1
-734.37 862.29 1827.5
-739.35 873.78 1851.8
-743.54 884.47 1874.5
-737.55 883.12 1871.6
-717.22 864.47 1832.1
-714.99 867.52 1838.5
-742.40 906.83 1921.8
-758.61 932.89 1977.1
-747.51 925.49 1961.4
-745.88 929.79 1970.5
-759.65 953.49 2020.7
-758.79 959.02 2032.5
-752.14 957.27 2028.8
-752.46 964.43 2043.9
-910.62 910.62 1940.6
-898.57 903.57 1925.5
-880.39 890.23 1897.1
-855.00 869.41 1852.7
-846.30 865.43 1844.2
-868.18 892.85 1902.7
-882.20 912.45 1944.4
-869.19 904.15 1926.8
-838.56 877.34 1869.6
-817.18 859.94 1832.5
-817.56 865.37 1844.1
-820.48 873.57 1861.6
-813.36 871.11 1856.4
-806.26 868.65 1851.1
-801.01 868.16 1850.1
-781.96 852.62 1816.9
-773.17 848.14 1807.4
-787.77 869.43 1852.8
-791.09 878.44 1872.0
-770.50 860.87 1834.5
-749.37 842.46 1795.3
-738.61 835.56 1780.6
-743.65 846.55 1804.0
-765.62 877.07 1869.1
-772.77 890.90 1898.5
-756.39 877.61 1870.2
-745.96 871.09 1856.3
-745.44 876.14 1867.1
-744.88 881.19 1877.8
-741.57 883.05 1881.8
-725.54 869.69 1853.3
-722.60 871.93 1858.1
-750.00 911.07 1941.5
-761.58 931.40 1984.8
-746.55 919.22 1958.9
-735.52 911.85 1943.2
-739.71 923.36 1967.7
-748.90 941.33 2006.0
-753.77 954.08 2033.2
-908.29 908.29 1946.3
-890.05 895.02 1917.9
-864.60 874.31 1873.5
-842.80 857.08 1836.6
-852.11 871.47 1867.4
-865.08 889.80 1906.7
-851.76 881.14 1888.1
-833.63 867.36 1858.6
-823.50 861.80 1846.7
-832.80 876.63 1878.5
-845.29 895.01 1917.9
-831.03 885.12 1896.7
-818.34 876.79 1878.8
-807.54 870.40 1865.2
-782.27 848.25 1817.7
-764.08 833.54 1786.2
-770.84 846.04 1812.9
-784.62 866.45 1856.7
-773.66 859.62 1842.0
-755.33 844.47 1809.6
-747.70 841.17 1802.5
-738.36 835.87 1791.2
-745.76 849.60 1820.6
-756.14 866.91 1857.7
-743.29 857.65 1837.8
-738.75 857.90 1838.4
-742.70 868.09 1860.2
-728.96 857.60 1837.7
-713.30 844.70 1810.1
-717.16 854.89 1831.9
-734.54 881.45 1888.8
-748.68 904.44 1938.1
-746.83 908.30 1946.4
-734.81 899.77 1928.1
-727.10 896.42 1920.9
-728.76 904.67 1938.6
-735.79 919.74 1970.9
-754.45 949.66 2035.0
-916.47 906.34 1953.0
-886.18 891.16 1920.3
-863.88 873.64 1882.5
-854.36 868.92 1872.4
-849.07 868.48 1871.4
-846.05 870.36 1875.5
-838.11 867.18 1868.6
-829.82 863.60 1860.9
-841.34 880.71 1897.8
-839.50 889.18 1916.0
-813.53 866.79 1867.8
-789.59 846.33 1823.7
-765.85 825.83 1779.5
-749.18 812.75 1751.3
-757.11 826.36 1780.7
-772.41 848.23 1827.8
-776.11 857.55 1847.9
-771.57 857.83 1848.5
-761.74 852.19 1836.3
-750.56 844.97 1820.8
-733.17 830.62 1789.8
-719.05 819.81 1766.5
-728.79 836.24 1802.0
-746.58 862.19 1857.9
-747.78 869.17 1872.9
-730.61 854.77 1841.9
-721.00 849.07 1829.6
-730.50 865.96 1866.0
-732.19 873.75 1882.8
-730.16 877.17 1890.2
-735.98 890.14 1918.1
-732.85 892.38 1922.9
-729.69 894.62 1927.8
-735.86 908.41 1957.5
-734.84 913.45 1968.3
-744.60 932.05 2008.4
-908.99 879.35 1905.5
-903.63 878.94 1904.6
-897.89 878.15 1902.9
-887.84 873.12 1892.0
-887.58 877.72 1902.0
-890.77 885.80 1919.5
-875.72 875.72 1897.6
-864.99 869.88 1885.0
-866.18 876.02 1898.3
-865.02 879.85 1906.6
-865.72 885.62 1919.1
-858.43 883.25 1913.9
-851.17 880.86 1908.8
-837.21 871.48 1888.4
-824.81 863.63 1871.4
-821.73 865.50 1875.5
-806.87 854.89 1852.5
-789.54 841.54 1823.6
-772.33 828.17 1794.6
-757.07 816.72 1769.8
-766.40 831.83 1802.5
-767.35 837.96 1815.8
-758.25 833.14 1805.4
-762.31 842.80 1826.3
-761.69 847.38 1836.2
-751.56 841.37 1823.2
-734.86 827.88 1794.0
-727.99 825.37 1788.5
-745.28 850.38 1842.7
-748.61 859.69 1862.9
-735.48 850.10 1842.1
-732.61 852.32 1846.9
-736.79 862.82 1869.7
-746.55 880.04 1907.0
-748.48 888.20 1924.7
-738.09 881.74 1910.7
-734.99 883.97 1915.5
-732.84 887.39 1922.9
-730.66 890.80 1930.3
-746.85 916.83 1986.7
-756.36 934.95 2026.0
-753.88 938.39 2033.4
-904.31 865.20 1885.4
-876.72 843.37 1837.9
-869.54 841.03 1832.8
-863.95 840.22 1831.0
-854.44 835.56 1820.8
-851.23 837.04 1824.1
-848.77 839.28 1828.9
-852.47 847.68 1847.3
-864.56 864.56 1884.0
-866.14 871.06 1898.2
-866.51 876.42 1909.9
-865.69 880.62 1919.0
-856.90 876.71 1910.5
-847.01 871.63 1899.4
-830.81 859.97 1874.0
-818.45 852.15 1857.0
-816.14 854.78 1862.7
-807.55 850.82 1854.1
-796.80 844.51 1840.3
-787.57 839.75 1830.0
-780.91 837.70 1825.5
-772.83 834.09 1817.6
-757.61 822.68 1792.8
-747.13 816.31 1778.9
-751.62 826.31 1800.7
-750.00 829.69 1808.0
-738.87 822.52 1792.4
-732.35 820.42 1787.8
-735.91 829.66 1808.0
-743.17 843.21 1837.5
-737.94 842.68 1836.3
-735.44 845.28 1842.0
-742.40 858.86 1871.6
-735.75 856.76 1867.0
-735.14 861.72 1877.8
-741.48 874.94 1906.7
-735.09 873.23 1902.9
-730.36 873.47 1903.5
-725.96 874.11 1904.8
-722.52 875.93 1908.8
-736.20 898.67 1958.4
-746.42 917.48 1999.4
-744.33 921.30 2007.7
-751.07 936.19 2040.1
-752.30 944.37 2058.0
-749.37 947.42 2064.6
-894.65 851.13 1865.3
-879.84 841.58 1844.4
-860.35 827.44 1813.4
-844.16 816.33 1789.0
-843.77 820.46 1798.1
-848.03 829.18 1817.2
-840.53 826.44 1811.2
-836.54 827.14 1812.7
-844.10 839.33 1839.4
-845.01 845.01 1851.9
-854.27 859.15 1882.9
-866.04 875.99 1919.8
-856.48 871.33 1909.6
-845.84 865.51 1896.8
-830.77 855.06 1873.9
-819.88 848.82 1860.2
-808.32 841.80 1844.9
-790.92 828.59 1815.9
-786.48 828.87 1816.5
-783.86 831.08 1821.4
-777.22 829.04 1816.9
-769.52 825.83 1809.8
-763.28 824.16 1806.2
-761.69 827.52 1813.6
-756.52 827.00 1812.4
-746.05 820.66 1798.5
-738.11 817.02 1790.6
-734.03 817.65 1791.9
-732.73 821.40 1800.1
-736.21 830.60 1820.3
-740.98 841.37 1843.9
-748.71 855.66 1875.2
-745.09 857.09 1878.4
-728.29 843.28 1848.1
-720.34 839.61 1840.0
-719.11 843.75 1849.1
-722.80 853.78 1871.1
-728.69 866.56 1899.1
-726.92 870.33 1907.4
-726.73 876.06 1919.9
-736.84 894.37 1960.1
-742.90 907.99 1989.9
-732.52 901.56 1975.8
-730.45 905.35 1984.1
-738.13 921.36 2019.2
-743.13 934.22 2047.4
-905.88 852.31 1878.6
-896.19 847.75 1868.5
-878.17 835.22 1840.9
-857.09 819.63 1806.5
-838.14 805.90 1776.3
-832.68 805.07 1774.4
-836.21 812.98 1791.9
-830.33 811.77 1789.2
-822.51 808.65 1782.3
-820.51 811.24 1788.0
-826.53 821.84 1811.4
-844.29 844.29 1860.9
-858.78 863.72 1903.7
-857.58 867.49 1912.0
-846.93 861.70 1899.3
-831.84 851.30 1876.3
-817.22 841.26 1854.2
-802.70 831.20 1832.0
-782.38 814.97 1796.3
-774.68 811.79 1789.2
-786.35 828.98 1827.1
-793.13 841.20 1854.1
-783.17 835.70 1842.0
-775.06 832.12 1834.1
-765.20 826.61 1821.9
-751.48 816.83 1800.4
-749.87 820.17 1807.7
-749.98 825.45 1819.4
-745.15 825.32 1819.1
-743.09 828.28 1825.6
-739.96 830.08 1829.6
-738.53 833.82 1837.8
-734.66 834.84 1840.1
-720.59 824.20 1816.6
-713.04 820.94 1809.4
-714.25 827.78 1824.5
-706.38 824.11 1816.4
-703.52 826.28 1821.2
-707.89 837.03 1844.9
-705.92 840.38 1852.3
-718.25 860.91 1897.5
-742.35 895.93 1974.7
-750.96 912.62 2011.5
-743.72 910.14 2006.0
-730.14 899.82 1983.3
-725.20 900.07 1983.8
-733.75 917.18 2021.5
-892.54 834.95 1850.9
-880.10 827.77 1835.0
-860.94 814.15 1804.8
-850.26 808.44 1792.1
-839.62 802.71 1779.4
-827.46 795.46 1763.3
-823.20 795.76 1764.0
-820.49 797.57 1768.0
-814.66 796.35 1765.3
-813.47 799.68 1772.7
-816.47 807.19 1789.3
-818.62 813.94 1804.3
-816.52 816.52 1810.0
-830.29 835.09 1851.2
-843.87 853.68 1892.4
-839.28 854.01 1893.1
-834.68 854.32 1893.8
-818.95 843.18 1869.1
-797.43 825.90 1830.8
-785.61 818.54 1814.5
-792.49 830.68 1841.4
-795.25 838.63 1859.0
-781.31 828.95 1837.6
-769.25 821.16 1820.3
-755.84 811.83 1799.6
-735.05 794.40 1761.0
-727.52 791.18 1753.9
-744.64 814.89 1806.4
-755.93 832.48 1845.4
-738.51 818.47 1814.3
-720.53 803.67 1781.5
-729.18 818.57 1814.6
-734.95 830.40 1840.8
-718.83 817.49 1812.2
-708.92 811.53 1799.0
-711.17 819.50 1816.6
-704.32 817.01 1811.1
-702.47 820.33 1818.5
-707.51 831.80 1843.9
-695.70 823.48 1825.5
-697.67 831.47 1843.2
-716.74 860.08 1906.6
-720.36 870.44 1929.5
-723.88 880.80 1952.5
-720.60 882.99 1957.4
-717.93 885.96 1963.9
-728.74 905.71 2007.7
-884.40 822.59 1834.0
-865.98 809.81 1805.5
-850.07 799.25 1782.0
-840.62 794.69 1771.8
-836.75 795.37 1773.3
-830.90 794.17 1770.7
-820.74 788.83 1758.7
-812.20 784.98 1750.2
-806.02 783.38 1746.6
-802.94 784.80 1749.7
-804.07 790.37 1762.2
-801.70 792.54 1767.0
-801.21 796.61 1776.1
-820.75 820.75 1829.9
-839.30 844.18 1882.1
-844.11 853.98 1904.0
-840.60 855.44 1907.3
-824.46 843.98 1881.7
-813.61 837.82 1868.0
-811.62 840.78 1874.6
-805.22 839.17 1871.0
-794.83 833.37 1858.0
-774.73 817.25 1822.1
-756.23 802.62 1789.5
-750.75 801.73 1787.5
-739.23 794.33 1771.0
-734.87 794.57 1771.6
-754.43 820.86 1830.2
-756.22 828.01 1846.1
-729.73 804.10 1792.8
-715.61 793.59 1769.4
-727.05 811.49 1809.3
-739.35 830.56 1851.8
-728.98 824.27 1837.8
-710.21 808.33 1802.2
-703.71 806.24 1797.6
-705.93 814.17 1815.2
-713.05 827.90 1845.9
-719.36 840.87 1874.8
-708.46 833.76 1858.9
-704.15 834.37 1860.3
-716.71 855.11 1906.5
-707.77 850.30 1895.8
-697.91 844.33 1882.5
-708.81 863.55 1925.3
-721.41 885.13 1973.5
-732.20 904.79 2017.3
-890.36 823.34 1846.4
-873.90 812.49 1822.0
-858.75 802.75 1800.2
-842.10 791.48 1774.9
-831.10 785.43 1761.4
-821.33 780.49 1750.3
-808.08 772.17 1731.6
-801.16 769.83 1726.4
-797.36 770.48 1727.8
-797.42 774.89 1737.7
-800.89 782.69 1755.2
-797.01 783.34 1756.7
-794.26 785.13 1760.7
-808.92 804.25 1803.5
-836.60 836.60 1876.1
-838.80 843.71 1892.0
-832.72 842.51 1889.4
-816.98 831.48 1864.6
-805.78 824.97 1850.0
-814.51 838.89 1881.2
-818.70 848.29 1902.3
-804.96 839.11 1881.7
-780.81 818.90 1836.4
-760.47 802.46 1799.5
-753.18 799.67 1793.3
-755.53 807.15 1810.1
-764.54 821.88 1843.1
-768.81 831.67 1865.0
-755.11 822.02 1843.4
-740.46 811.20 1819.1
-738.04 813.74 1824.8
-730.43 810.54 1817.7
-723.53 808.10 1812.2
-727.21 817.52 1833.3
-722.33 817.37 1833.0
-716.77 816.46 1830.9
-719.92 825.51 1851.2
-721.31 832.65 1867.2
-721.30 838.27 1879.8
-716.63 838.50 1880.4
-719.79 847.97 1901.6
-735.51 872.47 1956.5
-730.00 871.95 1955.4
-708.14 851.75 1910.1
-706.24 855.45 1918.4
-718.23 876.14 1964.8
-728.12 894.55 2006.0
-730.93 904.46 2028.3
-906.74 820.38 1850.5
-890.12 809.63 1826.2
-881.30 805.90 1817.8
-876.55 805.86 1817.7
-866.98 801.37 1807.6
-851.85 791.67 1785.7
-834.83 780.08 1759.6
-827.81 777.78 1754.4
-821.21 775.84 1750.0
-804.82 764.58 1724.6
-793.61 758.14 1710.1
-791.79 760.65 1715.8
-793.81 766.91 1729.9
-794.23 771.67 1740.6
-788.08 770.07 1737.0
-789.57 775.96 1750.3
-806.56 797.23 1798.3
-824.45 819.66 1848.9
-831.98 831.98 1876.7
-828.55 833.42 1879.9
-816.17 825.83 1862.8
-804.97 819.35 1848.2
-814.45 833.96 1881.1
-811.69 836.14 1886.0
-792.16 820.96 1851.8
-782.55 815.95 1840.5
-775.52 813.58 1835.1
-768.86 811.58 1830.6
-771.85 819.80 1849.2
-762.70 815.14 1838.7
-749.36 805.91 1817.9
-745.58 806.92 1820.1
-740.74 806.79 1819.8
-740.75 811.98 1831.5
-734.84 810.70 1828.6
-726.55 806.75 1819.7
-728.17 813.84 1835.7
-722.27 812.55 1832.8
-716.04 810.88 1829.0
-725.90 827.52 1866.6
-733.58 841.90 1899.0
-720.60 832.58 1878.0
-703.42 818.27 1845.7
-705.69 826.53 1864.4
-720.22 849.36 1915.9
-733.54 871.08 1964.8
-731.86 875.16 1974.0
-718.33 865.04 1951.2
-716.95 869.50 1961.3
-723.08 883.19 1992.2
-721.87 888.05 2003.1
-720.60 892.91 2014.1
-895.60 805.57 1827.8
-879.02 794.86 1803.5
-862.14 783.76 1778.3
-849.40 776.33 1761.4
-845.98 777.38 1763.8
-836.94 773.26 1754.4
-826.34 767.64 1741.7
-823.72 769.41 1745.7
-821.09 771.19 1749.8
-810.18 765.17 1736.1
-799.73 759.52 1723.3
-797.11 761.28 1727.3
-792.53 761.18 1727.1
-785.63 758.85 1721.8
-785.66 763.21 1731.7
-792.89 774.66 1757.6
-801.14 787.25 1786.2
-805.49 796.12 1806.3
-822.52 817.71 1855.3
-847.56 847.56 1923.0
-820.19 825.05 1872.0
-793.05 802.49 1820.8
-799.29 813.64 1846.1
-794.04 813.18 1845.0
-784.43 808.20 1833.7
-785.38 814.11 1847.1
-771.12 804.23 1824.7
-757.67 795.08 1804.0
-763.58 806.26 1829.3
-756.95 804.26 1824.8
-735.52 786.40 1784.3
-723.74 778.71 1766.8
-716.93 776.29 1761.3
-715.34 779.54 1768.7
-722.69 792.63 1798.4
-726.82 802.33 1820.4
-727.09 807.87 1833.0
-720.51 805.83 1828.4
-708.55 797.71 1809.9
-713.10 808.19 1833.7
-718.55 819.82 1860.1
-702.66 807.11 1831.3
-693.82 802.37 1820.5
-704.99 820.88 1862.5
-709.78 832.15 1888.1
-712.83 841.54 1909.4
-720.92 857.04 1944.6
-717.99 859.57 1950.3
-718.52 866.31 1965.6
-726.54 882.23 2001.7
-739.09 903.92 2050.9
-890.99 796.70 1818.3
-878.50 789.71 1802.4
-864.45 781.24 1783.1
-846.04 768.71 1754.5
-836.20 763.88 1743.4
-835.60 767.49 1751.7
-832.58 768.89 1754.9
-822.40 763.66 1742.9
-813.85 759.90 1734.3
-804.94 755.75 1724.9
-796.46 751.97 1716.2
-794.64 754.46 1721.9
-790.46 754.73 1722.5
-786.27 755.00 1723.2
-788.22 761.19 1737.3
-789.72 767.03 1750.6
-788.88 770.64 1758.9
-789.13 775.37 1769.6
