ply
format ascii 1.0
element vertex 1975
property float x
property float y
property float z
end_header
-1015.22 -1096.85 1967.8
-989.29 -1074.23 1927.2
-982.27 -1072.02 1923.2
-1012.59 -1110.75 1992.7
-1021.64 -1132.23 2031.2
-1026.03 -1142.98 2050.5
-1025.63 -1160.58 2082.1
-961.90 -1111.88 1994.7
-1258.44 -963.91 1721.3
-1229.52 -945.11 1687.7
-1191.62 -919.25 1641.5
-1143.21 -885.07 1580.5
-1137.08 -883.49 1577.7
-1158.57 -903.43 1613.3
-1166.15 -912.64 1629.7
-1152.54 -905.27 1616.6
-1113.17 -877.53 1567.0
-1092.36 -864.29 1543.4
-1105.71 -878.06 1568.0
-1111.64 -886.03 1582.2
-1086.76 -869.41 1552.5
-1060.43 -851.50 1520.5
-1059.11 -853.61 1524.3
-1073.27 -868.27 1550.5
-1085.28 -881.28 1573.7
-1087.93 -886.77 1583.5
-1087.47 -889.75 1588.8
-1099.26 -902.81 1612.2
-1112.48 -917.16 1637.8
-1092.05 -903.76 1613.9
-1070.69 -889.50 1588.4
-1085.32 -905.13 1616.3
-1089.25 -911.93 1628.4
-1064.99 -895.09 1598.4
-1052.87 -888.36 1586.3
-1057.28 -895.57 1599.2
-1073.09 -912.55 1629.6
-1078.85 -921.07 1644.8
-1060.28 -908.81 1622.9
-1054.14 -907.15 1619.9
-1057.36 -913.56 1631.4
-1063.96 -922.96 1648.1
-1066.10 -928.54 1658.1
-1061.36 -928.15 1657.4
-1065.37 -935.45 1670.4
-1058.67 -933.36 1666.7
-1039.41 -920.14 1643.1
-1035.66 -920.59 1643.9
-1043.91 -931.75 1663.8
-1052.07 -942.93 1683.8
-1060.15 -954.14 1703.8
-1064.34 -961.92 1717.7
-1068.95 -970.14 1732.4
-1054.13 -960.72 1715.6
-1034.18 -946.54 1690.3
-1042.03 -957.78 1710.3
-1066.17 -984.16 1757.4
-1086.85 -1007.56 1799.2
-1099.93 -1024.07 1828.7
-1087.87 -1017.23 1816.5
-1055.55 -991.30 1770.2
-1033.07 -974.43 1740.0
-1029.05 -974.89 1740.9
-1051.98 -1001.00 1787.5
-1075.62 -1028.02 1835.8
-1075.01 -1032.01 1842.9
-1063.08 -1025.11 1830.6
-1058.39 -1025.17 1830.7
-1072.56 -1043.57 1863.5
-1067.80 -1043.64 1863.6
-1036.75 -1017.90 1817.7
-1021.43 -1007.43 1799.0
-1046.87 -1037.26 1852.3
-1081.78 -1076.79 1922.8
-1070.29 -1070.29 1911.2
-1033.48 -1038.29 1854.1
-1024.80 -1034.37 1847.1
-1044.79 -1059.50 1892.0
-1047.72 -1067.49 1906.2
-1026.46 -1050.79 1876.4
-1029.79 -1059.21 1891.5
-1045.45 -1080.46 1929.4
-1051.14 -1091.57 1949.2
-1026.22 -1070.84 1912.2
-981.60 -1029.25 1838.0
-980.63 -1033.25 1845.1
-1013.14 -1072.73 1915.6
-1021.97 -1087.42 1941.8
-999.94 -1069.24 1909.4
-983.01 -1056.37 1886.4
-990.08 -1069.29 1909.4
-1006.08 -1092.03 1950.0
-1000.24 -1091.17 1948.5
-972.01 -1065.75 1903.1
-969.10 -1067.99 1907.1
-999.27 -1106.88 1976.6
-1035.08 -1158.43 2068.6
-1007.85 -1164.15 2078.8
-1009.48 -1172.30 2093.4
-999.07 -1166.48 2083.0
-1012.53 -1188.62 2122.5
-983.25 -1173.38 2095.3
-1227.40 -934.55 1661.1
-1235.69 -944.17 1678.3
-1261.70 -967.45 1719.6
-1242.41 -956.04 1699.3
-1212.47 -936.32 1664.3
-1188.00 -920.70 1636.5
-1150.30 -894.68 1590.3
-1129.80 -881.89 1567.5
-1138.02 -891.52 1584.7
-1129.24 -887.85 1578.1
-1100.96 -868.76 1544.2
-1085.96 -860.05 1528.7
-1088.34 -865.09 1537.7
-1094.35 -873.06 1551.9
-1093.51 -875.62 1556.4
-1085.89 -872.73 1551.3
-1074.64 -866.90 1540.9
-1057.73 -856.45 1522.3
-1056.39 -858.56 1526.1
-1081.30 -882.12 1567.9
-1096.29 -897.72 1595.7
-1092.22 -897.77 1595.8
-1100.40 -907.94 1613.8
-1100.36 -911.37 1619.9
-1066.77 -886.93 1576.5
-1049.04 -875.55 1556.3
-1068.26 -895.03 1590.9
-1102.96 -927.68 1648.9
-1111.31 -938.34 1667.9
-1085.04 -919.74 1634.8
-1073.37 -913.42 1623.6
-1072.70 -916.44 1629.0
-1063.56 -912.22 1621.5
-1069.79 -921.21 1637.4
-1088.78 -941.29 1673.1
-1077.13 -934.95 1661.9
-1069.94 -932.43 1657.4
-1071.07 -937.18 1665.8
-1065.34 -935.94 1663.6
-1065.93 -940.27 1671.3
-1056.80 -936.03 1663.8
-1041.43 -926.19 1646.3
-1040.56 -929.22 1651.7
-1050.22 -941.72 1673.9
-1060.74 -955.10 1697.7
-1074.02 -971.10 1726.1
-1084.82 -984.96 1750.7
-1092.19 -995.82 1770.1
-1081.07 -989.84 1759.4
-1060.58 -975.20 1733.4
-1067.87 -986.07 1752.7
-1068.52 -990.90 1761.3
-1065.88 -992.69 1764.5
-1080.40 -1010.55 1796.2
-1070.27 -1005.40 1787.1
-1051.86 -992.41 1764.0
-1043.66 -988.97 1757.9
-1029.07 -979.42 1740.9
-1041.47 -995.59 1769.6
-1054.21 -1012.22 1799.2
-1045.52 -1008.34 1792.3
-1049.04 -1016.26 1806.4
-1058.81 -1030.32 1831.4
-1076.54 -1052.29 1870.4
-1077.13 -1057.63 1879.9
-1049.63 -1035.32 1840.3
-1037.82 -1028.34 1827.9
-1029.59 -1024.86 1821.7
-1031.94 -1031.94 1834.3
-1053.54 -1058.42 1881.3
-1051.35 -1061.13 1886.1
-1037.37 -1051.92 1869.8
-1049.92 -1069.64 1901.3
-1051.53 -1076.33 1913.2
-1030.70 -1060.01 1884.2
-1020.72 -1054.74 1874.8
-1022.72 -1061.87 1887.5
-1028.50 -1073.00 1907.2
-1005.80 -1054.39 1874.2
-963.83 -1015.30 1804.7
-962.92 -1019.29 1811.8
-974.12 -1036.20 1841.8
-964.34 -1030.85 1832.3
-979.51 -1052.25 1870.4
-999.48 -1079.04 1918.0
-994.94 -1079.51 1918.8
-998.18 -1088.47 1934.7
-1002.99 -1099.24 1953.9
-989.82 -1090.31 1938.0
-974.28 -1078.67 1917.3
-983.83 -1094.82 1946.0
-1002.08 -1120.88 1992.4
-1017.33 -1143.84 2033.2
-1035.58 -1170.42 2080.4
-1026.68 -1166.43 2073.3
-1029.64 -1175.95 2090.2
-999.67 -1172.59 2084.3
-975.49 -1150.44 2044.9
-972.49 -1153.17 2049.7
-985.06 -1174.50 2087.7
-1236.72 -945.98 1673.8
-1224.47 -939.91 1663.0
-1239.71 -954.97 1689.7
-1214.58 -938.93 1661.3
-1195.44 -927.42 1640.9
-1180.12 -918.80 1625.7
-1157.38 -904.34 1600.1
-1148.56 -900.67 1593.6
-1154.08 -908.26 1607.0
-1144.20 -903.75 1599.0
-1119.06 -887.11 1569.6
-1107.18 -880.89 1558.6
-1110.02 -886.39 1568.3
-1115.96 -894.41 1582.5
-1110.89 -893.63 1581.1
-1098.54 -886.97 1569.3
-1087.78 -881.55 1559.8
-1071.37 -871.48 1541.9
-1067.40 -871.51 1542.0
-1090.20 -893.47 1580.9
-1107.20 -910.83 1611.6
-1103.61 -911.31 1612.4
-1094.91 -907.56 1605.8
-1076.55 -895.76 1584.9
-1070.46 -894.10 1582.0
-1080.57 -906.01 1603.0
-1077.98 -907.33 1605.4
-1092.48 -923.11 1633.3
-1102.36 -935.08 1654.5
-1079.14 -918.95 1625.9
-1064.50 -910.04 1610.2
-1062.35 -911.78 1613.2
-1067.63 -919.93 1627.7
-1089.66 -942.64 1667.8
-1105.61 -960.25 1699.0
-1089.98 -950.47 1681.7
-1075.40 -941.52 1665.9
-1069.19 -939.85 1662.9
-1047.39 -924.42 1635.6
-1032.02 -914.55 1618.1
-1046.23 -930.93 1647.1
-1054.05 -941.73 1666.2
-1047.36 -939.61 1662.5
-1050.76 -946.55 1674.8
-1054.10 -953.50 1687.1
-1061.20 -963.92 1705.5
-1069.64 -975.66 1726.3
-1076.58 -986.11 1744.8
-1084.86 -997.89 1765.6
-1083.17 -1000.56 1770.3
-1089.43 -1010.62 1788.1
-1087.21 -1012.87 1792.1
-1076.59 -1007.28 1782.2
-1083.17 -1017.81 1800.8
-1068.87 -1008.72 1784.8
-1045.88 -991.31 1754.0
-1050.09 -999.65 1768.7
-1049.22 -1003.20 1775.0
-1046.48 -1004.99 1778.2
-1044.19 -1007.23 1782.1
-1037.80 -1005.52 1779.1
-1044.51 -1016.53 1798.6
-1056.53 -1032.84 1827.4
-1077.38 -1057.97 1871.9
-1089.56 -1074.77 1901.6
-1073.16 -1063.40 1881.5
-1047.08 -1042.30 1844.2
-1022.49 -1022.49 1809.1
-1016.95 -1021.63 1807.6
-1029.81 -1039.35 1839.0
-1037.31 -1051.78 1860.9
-1035.14 -1054.48 1865.7
-1043.34 -1067.83 1889.3
-1041.51 -1070.99 1894.9
-1024.18 -1058.16 1872.2
-1016.79 -1055.53 1867.6
-1003.88 -1047.11 1852.7
-994.84 -1042.67 1844.8
-1001.50 -1054.72 1866.2
-990.36 -1048.05 1854.3
-958.26 -1019.03 1803.0
-950.96 -1021.23 1806.9
-989.81 -1068.21 1890.0
-1008.89 -1094.21 1936.0
-1003.48 -1093.80 1935.3
-995.21 -1090.23 1929.0
-988.19 -1088.01 1925.0
-989.71 -1095.22 1937.8
-989.96 -1101.08 1948.2
-982.51 -1098.40 1943.4
-979.49 -1100.66 1947.4
-974.85 -1101.12 1948.3
-967.42 -1098.42 1943.5
-979.00 -1117.40 1977.0
-1002.66 -1150.42 2035.5
-1015.85 -1171.72 2073.2
-1220.27 -940.98 1657.3
-1199.47 -928.21 1634.8
-1185.72 -920.82 1621.8
-1174.69 -915.51 1612.4
-1167.97 -913.52 1608.9
-1152.74 -904.84 1593.6
-1137.56 -896.13 1578.3
-1136.73 -898.72 1582.9
-1137.47 -902.56 1589.6
-1123.43 -894.66 1575.7
-1110.49 -887.58 1563.3
-1111.75 -891.84 1570.8
-1105.65 -890.21 1567.9
-1088.62 -879.73 1549.4
-1086.21 -881.04 1551.7
-1085.34 -883.61 1556.3
-1069.98 -874.35 1539.9
-1068.08 -876.06 1543.0
-1066.68 -878.21 1546.7
-1059.62 -875.69 1542.3
-1082.76 -898.20 1582.0
-1099.11 -915.22 1611.9
-1084.82 -906.78 1597.1
-1083.27 -908.95 1600.9
-1094.34 -921.77 1623.5
-1092.21 -923.53 1626.6
-1087.05 -922.73 1625.2
-1077.38 -918.08 1617.0
-1077.74 -921.97 1623.8
-1088.03 -934.43 1645.8
-1069.91 -922.48 1624.7
-1058.81 -916.52 1614.2
-1064.54 -925.13 1629.4
-1064.29 -928.61 1635.5
-1077.28 -943.70 1662.1
-1090.65 -959.25 1689.5
-1090.24 -962.75 1695.7
-1074.72 -952.89 1678.3
-1042.30 -927.90 1634.3
-1038.57 -928.35 1635.1
-1060.86 -952.17 1677.0
-1068.57 -963.03 1696.1
-1078.59 -976.08 1719.1
-1089.00 -989.59 1742.9
-1052.19 -960.13 1691.0
-1017.49 -932.34 1642.1
-1043.03 -959.76 1690.4
-1070.25 -988.97 1741.8
-1064.39 -987.71 1739.6
-1064.61 -992.13 1747.4
-1089.07 -1019.25 1795.2
-1104.95 -1038.56 1829.2
-1094.28 -1032.96 1819.3
-1063.32 -1008.08 1775.5
-1032.07 -982.71 1730.8
-1027.61 -982.74 1730.8
-1045.09 -1003.84 1768.0
-1061.05 -1023.66 1802.9
-1072.78 -1039.55 1830.9
-1079.41 -1050.63 1850.4
-1061.62 -1037.92 1828.0
-1048.40 -1029.60 1813.4
-1066.57 -1052.16 1853.1
-1076.11 -1066.37 1878.1
-1059.76 -1054.94 1858.0
-1031.54 -1031.54 1816.8
-1031.27 -1036.01 1824.7
-1046.80 -1056.44 1860.7
-1038.96 -1053.39 1855.3
-1028.09 -1047.21 1844.4
-1021.60 -1045.47 1841.3
-1026.38 -1055.29 1858.6
-1037.99 -1072.26 1888.5
-1035.71 -1074.98 1893.3
-1018.01 -1061.64 1869.8
-994.86 -1042.47 1836.0
-976.95 -1028.62 1811.7
-973.94 -1030.40 1814.8
-989.03 -1051.45 1851.9
-984.66 -1051.90 1852.7
-974.84 -1046.52 1843.2
-998.78 -1077.50 1897.7
-995.95 -1079.76 1901.7
-972.87 -1059.99 1866.9
-980.36 -1073.49 1890.7
-986.11 -1085.21 1911.3
-975.86 -1079.36 1901.0
-972.56 -1081.17 1904.2
-986.62 -1102.39 1941.6
-992.87 -1115.06 1963.9
-980.58 -1106.94 1949.6
-965.96 -1096.09 1930.5
-966.51 -1102.43 1941.7
-982.44 -1126.46 1984.0
-987.15 -1137.82 2004.0
-979.62 -1135.11 1999.2
-984.20 -1146.49 2019.3
-1003.84 -1175.62 2070.6
-970.77 -1187.70 2091.8
-935.99 -1178.06 2074.9
-936.05 -1184.94 2087.0
-923.70 -1189.95 2095.8
-919.67 -1191.76 2099.0
-926.96 -1208.36 2128.2
-1258.00 -971.08 1702.6
-1230.62 -953.30 1671.4
-1188.31 -923.77 1619.6
-1156.90 -902.55 1582.4
-1158.25 -906.82 1589.9
-1161.17 -912.35 1599.6
-1131.07 -891.88 1563.7
-1101.09 -871.37 1527.7
-1114.65 -885.28 1552.1
-1130.23 -900.90 1579.5
-1115.16 -892.13 1564.1
-1101.72 -884.59 1550.9
-1085.19 -874.51 1533.2
-1061.40 -858.49 1505.1
-1060.12 -860.62 1508.9
-1072.86 -874.18 1532.7
-1079.28 -882.68 1547.6
-1071.17 -879.32 1541.7
-1053.29 -867.88 1521.6
-1036.00 -856.84 1502.3
-1029.54 -854.72 1498.5
-1054.27 -878.56 1540.3
-1075.27 -899.46 1577.0
-1065.63 -894.80 1568.8
-1064.13 -896.97 1572.6
-1073.73 -908.54 1592.9
-1059.56 -900.01 1577.9
-1043.44 -889.76 1560.0
-1065.96 -912.50 1599.8
-1097.81 -943.43 1654.1
-1105.05 -953.37 1671.5
-1084.41 -939.25 1646.7
-1057.92 -919.93 1612.9
-1048.83 -915.65 1605.4
-1035.35 -907.47 1591.0
-1036.63 -912.23 1599.4
-1070.65 -945.96 1658.5
-1092.24 -968.92 1698.8
-1095.20 -975.48 1710.3
-1082.12 -967.75 1696.7
-1070.05 -960.86 1684.6
-1084.03 -977.41 1713.6
-1087.34 -984.42 1725.9
-1093.46 -994.05 1742.8
-1085.20 -990.64 1736.8
-1030.84 -944.94 1656.7
-1029.84 -951.96 1669.0
-1058.50 -982.57 1722.7
-1056.42 -984.80 1726.6
-1057.14 -989.66 1735.1
-1081.12 -1016.44 1782.1
-1096.55 -1035.37 1815.3
-1087.76 -1031.50 1808.5
-1072.54 -1021.46 1790.9
-1057.38 -1011.41 1773.2
-1039.54 -998.69 1750.9
-1043.26 -1006.65 1764.9
-1053.29 -1020.81 1789.7
-1058.22 -1030.13 1806.1
-1070.32 -1046.53 1834.8
-1056.17 -1037.31 1818.7
-1030.42 -1016.55 1782.3
-1036.56 -1027.22 1801.0
-1061.33 -1056.53 1852.4
-1060.14 -1060.14 1858.7
-1035.48 -1040.21 1823.7
-1037.40 -1046.92 1835.5
-1048.05 -1062.54 1862.9
-1036.71 -1055.91 1851.3
-1020.19 -1043.91 1830.2
-1008.52 -1036.80 1817.8
-1009.02 -1042.18 1827.2
-1015.50 -1053.82 1847.6
-1007.73 -1050.72 1842.2
-986.73 -1033.72 1812.4
-985.01 -1036.86 1817.9
-988.36 -1045.38 1832.8
-963.34 -1023.83 1795.0
-956.56 -1021.57 1791.1
-979.14 -1050.79 1842.3
-998.16 -1076.45 1887.3
-1004.09 -1088.18 1907.8
-985.92 -1073.77 1882.6
-968.26 -1059.79 1858.1
-978.63 -1076.49 1887.4
-979.06 -1082.37 1897.7
-963.96 -1071.07 1877.8
-949.75 -1060.64 1859.6
-949.36 -1065.60 1868.3
-972.64 -1097.34 1923.9
-979.66 -1110.96 1947.8
-951.90 -1085.06 1902.4
-937.03 -1073.68 1882.4
-973.22 -1120.98 1965.4
-1002.74 -1161.07 2035.6
-986.13 -1147.88 2012.5
-978.59 -1145.16 2007.8
-982.71 -1156.13 2027.0
-997.17 -1179.45 2067.9
-979.19 -1203.47 2110.0
-942.02 -1191.06 2088.2
-934.42 -1188.28 2083.3
-1241.35 -962.59 1680.0
-1230.72 -957.71 1671.5
-1204.01 -940.23 1641.0
-1175.26 -921.04 1607.5
-1179.77 -927.86 1619.4
-1171.43 -924.60 1613.7
-1132.82 -897.32 1566.1
-1086.42 -863.67 1507.4
-1083.08 -864.12 1508.2
-1114.55 -892.44 1557.6
-1114.26 -895.46 1562.9
-1099.25 -886.62 1547.4
-1081.69 -875.65 1528.3
-1065.76 -865.93 1511.3
-1073.84 -875.71 1528.4
-1072.50 -877.86 1532.1
-1064.42 -874.48 1526.2
-1067.20 -880.04 1535.9
-1059.64 -877.08 1530.8
-1060.82 -881.36 1538.3
-1073.76 -895.47 1562.9
-1065.14 -891.66 1556.2
-1053.50 -885.26 1545.1
-1062.21 -895.98 1563.8
-1078.94 -913.59 1594.5
-1076.37 -914.91 1596.8
-1050.62 -896.48 1564.6
-1031.03 -883.17 1541.4
-1051.06 -903.83 1577.5
-1085.91 -937.45 1636.1
-1095.66 -949.57 1657.3
-1089.94 -948.34 1655.1
-1078.79 -942.34 1644.7
-1067.18 -935.90 1633.4
-1051.68 -925.98 1616.1
-1044.57 -923.40 1611.6
-1069.74 -949.45 1657.1
-1087.90 -969.46 1692.0
-1087.95 -973.43 1698.9
-1086.03 -975.66 1702.8
-1086.03 -979.64 1709.8
-1103.79 -999.75 1744.9
-1109.43 -1008.98 1761.0
-1095.86 -1000.77 1746.7
-1068.06 -979.42 1709.4
-1050.85 -967.66 1688.9
-1057.88 -978.20 1707.3
-1061.52 -985.69 1720.3
-1066.98 -994.95 1736.5
-1072.38 -1004.22 1752.7
-1080.98 -1016.59 1774.3
-1088.10 -1027.65 1793.6
-1087.24 -1031.24 1799.8
-1069.69 -1018.97 1778.4
-1045.77 -1000.50 1746.2
-1049.10 -1008.05 1759.4
-1049.16 -1012.51 1767.1
-1035.95 -1004.14 1752.5
-1028.71 -1001.52 1748.0
-1026.92 -1004.20 1752.6
-1031.43 -1013.10 1768.2
-1040.38 -1026.45 1791.5
-1036.22 -1026.93 1792.3
-1030.27 -1025.63 1790.0
-1044.80 -1044.80 1823.5
-1060.52 -1065.34 1859.4
-1052.23 -1061.84 1853.2
-1031.18 -1045.37 1824.5
-1019.03 -1037.81 1811.3
-1024.41 -1048.12 1829.3
-1023.62 -1052.18 1836.4
-1008.04 -1041.01 1816.9
-1005.08 -1042.83 1820.1
-1005.97 -1048.68 1830.3
-993.09 -1040.16 1815.4
-985.40 -1037.02 1809.9
-997.30 -1054.57 1840.5
-1001.44 -1064.03 1857.1
-978.49 -1044.67 1823.3
-964.51 -1034.74 1806.0
-979.50 -1055.95 1843.0
-992.65 -1075.37 1876.9
-993.61 -1081.72 1887.9
-997.83 -1091.69 1905.3
-1002.80 -1102.58 1924.3
-1002.75 -1108.04 1933.9
-992.45 -1102.16 1923.6
-980.56 -1094.46 1910.2
-968.72 -1086.74 1896.7
-962.59 -1085.37 1894.3
-977.35 -1107.67 1933.2
-980.74 -1117.24 1949.9
-952.99 -1091.25 1904.6
-945.27 -1088.04 1899.0
-984.14 -1138.72 1987.4
-1008.87 -1173.47 2048.1
-993.81 -1162.07 2028.2
-963.64 -1132.79 1977.1
-939.51 -1110.34 1937.9
-958.79 -1139.20 1988.3
-991.66 -1184.64 2067.6
-988.62 -1187.42 2072.4
-936.01 -1188.84 2074.9
-1263.16 -973.69 1691.7
-1240.56 -959.59 1667.2
-1221.82 -948.41 1647.8
-1196.68 -932.15 1619.6
-1190.47 -930.58 1616.8
-1192.32 -935.32 1625.1
-1187.17 -934.58 1623.8
-1162.81 -918.66 1596.1
-1130.56 -896.37 1557.4
-1141.47 -908.27 1578.1
-1142.24 -912.15 1584.8
-1126.07 -902.48 1568.0
-1140.52 -917.38 1593.9
-1117.56 -902.18 1567.5
-1082.63 -877.17 1524.0
-1086.04 -883.15 1534.4
-1091.49 -890.85 1547.8
-1089.60 -892.59 1550.8
-1079.92 -887.94 1542.7
-1078.03 -889.67 1545.8
-1086.44 -899.96 1563.6
-1077.29 -895.72 1556.3
-1076.37 -898.32 1560.8
-1080.03 -904.78 1572.0
-1062.73 -893.66 1552.7
-1054.15 -889.82 1546.0
-1066.91 -904.02 1570.7
-1079.05 -917.82 1594.7
-1072.44 -915.70 1591.0
-1078.42 -924.36 1606.0
-1092.86 -940.36 1633.8
-1093.18 -944.30 1640.7
-1108.93 -961.65 1670.8
-1108.66 -965.18 1677.0
-1092.00 -954.42 1658.3
-1100.61 -965.75 1677.9
-1109.14 -977.10 1697.7
-1087.14 -961.53 1670.6
-1072.09 -952.02 1654.1
-1082.50 -965.12 1676.9
-1085.51 -971.71 1688.3
-1079.74 -970.46 1686.1
-1072.04 -967.45 1680.9
-1066.77 -966.62 1679.5
-1079.77 -982.41 1706.9
-1082.11 -988.60 1717.6
-1065.30 -977.26 1697.9
-1058.09 -974.67 1693.4
-1063.23 -983.49 1708.8
-1083.93 -1006.83 1749.3
-1101.62 -1027.56 1785.3
-1074.04 -1006.07 1748.0
-1049.43 -987.17 1715.2
-1059.96 -1001.32 1739.8
-1069.92 -1015.06 1763.6
-1064.95 -1014.67 1762.9
-1042.86 -997.91 1733.8
-1037.48 -997.06 1732.3
-1058.27 -1021.46 1774.7
-1065.62 -1033.04 1794.9
-1061.02 -1033.10 1795.0
-1049.15 -1026.04 1782.7
-1043.67 -1025.19 1781.2
-1041.79 -1027.90 1785.9
-1044.85 -1035.52 1799.2
-1034.40 -1029.76 1789.2
-1020.42 -1020.42 1772.9
-1028.30 -1032.95 1794.7
-1036.53 -1045.95 1817.3
-1033.18 -1047.33 1819.7
-1016.62 -1035.27 1798.7
-1017.67 -1041.12 1808.9
-1035.27 -1064.03 1848.7
-1030.08 -1063.62 1848.0
-1011.03 -1048.82 1822.3
-1005.02 -1047.49 1820.0
-1003.33 -1050.66 1825.5
-997.76 -1049.77 1823.9
-996.88 -1053.84 1831.0
-994.26 -1056.11 1834.9
-985.28 -1051.60 1827.1
-977.17 -1047.98 1820.8
-976.22 -1052.05 1827.9
-992.82 -1075.15 1868.0
-1005.90 -1094.66 1901.9
-1003.90 -1097.86 1907.5
-1004.76 -1104.24 1918.6
-991.98 -1095.62 1903.6
-973.12 -1080.17 1876.7
-977.23 -1090.18 1894.1
-979.64 -1098.38 1908.4
-984.41 -1109.34 1927.4
-993.93 -1125.78 1956.0
-986.47 -1123.06 1951.3
-965.83 -1105.23 1920.3
-964.03 -1108.89 1926.6
-982.80 -1136.36 1974.4
-995.04 -1156.54 2009.4
-991.82 -1158.86 2013.5
-985.05 -1157.04 2010.3
-967.40 -1142.35 1984.8
-952.95 -1131.31 1965.6
-976.77 -1165.82 2025.6
-961.32 -1212.57 2106.8
-910.75 -1217.99 2116.2
-901.44 -1220.24 2120.1
-856.15 -1202.95 2090.1
-837.58 -1191.94 2070.9
-1242.94 -959.08 1658.9
-1192.68 -923.50 1597.3
-1190.29 -924.86 1599.7
-1173.31 -914.86 1582.4
-1149.39 -899.35 1555.6
-1150.82 -903.64 1563.0
-1158.66 -913.01 1579.2
-1148.25 -908.01 1570.6
-1118.67 -887.77 1535.5
-1089.21 -867.48 1500.4
-1102.87 -881.50 1524.7
-1136.55 -911.69 1576.9
-1151.03 -926.64 1602.8
-1142.23 -922.89 1596.3
-1098.27 -890.60 1540.4
-1078.61 -877.85 1518.4
-1096.13 -895.37 1548.7
-1082.26 -887.29 1534.7
-1060.65 -872.78 1509.6
-1069.71 -883.50 1528.2
-1086.96 -901.09 1558.6
-1092.76 -909.27 1572.7
-1079.48 -901.59 1559.4
-1064.20 -892.17 1543.1
-1053.58 -886.59 1533.5
-1058.79 -894.36 1546.9
-1073.10 -909.89 1573.8
-1062.98 -904.75 1564.9
-1052.88 -899.59 1556.0
-1059.45 -908.68 1571.7
-1079.02 -929.04 1606.9
-1101.96 -952.47 1647.4
-1109.75 -962.93 1665.5
-1112.98 -969.51 1676.9
-1098.28 -960.46 1661.3
-1073.74 -942.69 1630.5
-1074.99 -947.52 1638.9
-1097.37 -971.08 1679.6
-1089.16 -967.66 1673.7
-1066.28 -951.13 1645.1
-1068.89 -957.28 1655.8
-1091.39 -981.37 1697.4
-1106.94 -999.38 1728.6
-1083.69 -982.37 1699.2
-1062.96 -967.51 1673.5
-1073.55 -981.16 1697.1
-1075.43 -986.92 1707.0
-1053.40 -970.69 1679.0
-1040.99 -963.24 1666.1
-1042.39 -968.55 1675.3
-1059.82 -988.87 1710.4
-1079.93 -1011.87 1750.2
-1055.73 -993.37 1718.2
-1041.95 -984.56 1703.0
-1064.63 -1010.26 1747.4
-1074.10 -1023.61 1770.5
-1068.64 -1022.78 1769.1
-1053.49 -1012.62 1751.5
-1054.98 -1018.44 1761.6
-1083.48 -1050.51 1817.0
-1098.96 -1070.16 1851.0
-1084.22 -1060.44 1834.2
-1063.20 -1044.46 1806.6
-1053.59 -1039.61 1798.2
-1048.53 -1039.21 1797.5
-1047.95 -1043.27 1804.5
-1033.02 -1033.02 1786.8
-1031.54 -1036.19 1792.3
-1051.81 -1061.33 1835.7
-1047.99 -1062.28 1837.4
-1032.24 -1051.10 1818.0
-1017.45 -1040.79 1800.2
-1020.25 -1048.46 1813.5
-1020.37 -1053.44 1822.1
-999.59 -1036.79 1793.3
-995.82 -1037.70 1794.9
-1003.24 -1050.35 1816.7
-1000.70 -1052.62 1820.7
-993.42 -1049.91 1816.0
-991.27 -1052.64 1820.7
-987.83 -1054.00 1823.1
-984.37 -1055.36 1825.4
-982.17 -1058.08 1830.1
-980.36 -1061.26 1835.6
-993.99 -1081.27 1870.2
-999.97 -1093.11 1890.7
-990.94 -1088.57 1882.9
-987.31 -1089.95 1885.2
-970.09 -1076.27 1861.6
-955.42 -1065.30 1842.6
-961.23 -1077.16 1863.1
-965.73 -1087.66 1881.3
-970.55 -1098.64 1900.3
-979.71 -1114.67 1928.0
-971.91 -1111.46 1922.5
-959.73 -1103.20 1908.2
-966.30 -1116.51 1931.2
-971.58 -1128.45 1951.8
-968.88 -1131.21 1956.6
-968.91 -1137.19 1967.0
-966.15 -1139.95 1971.7
-965.31 -1145.02 1980.5
-970.24 -1157.02 2001.2
-980.84 -1175.96 2034.0
-963.52 -1174.13 2030.8
-898.51 -1199.81 2075.3
-897.09 -1219.83 2109.9
-848.16 -1204.71 2083.7
-1267.51 -982.43 1691.7
-1244.89 -968.25 1667.3
-1210.99 -945.16 1627.5
-1170.22 -916.54 1578.2
-1170.01 -919.59 1583.5
-1192.33 -940.43 1619.4
-1164.16 -921.45 1586.7
-1122.21 -891.40 1534.9
-1129.49 -900.38 1550.4
-1134.05 -907.24 1562.2
-1099.33 -882.61 1519.8
-1088.56 -877.11 1510.3
-1102.09 -891.22 1534.6
-1092.37 -886.56 1526.6
-1077.96 -878.04 1511.9
-1087.15 -888.77 1530.4
-1085.83 -890.94 1534.1
-1052.22 -866.53 1492.1
-1046.80 -865.25 1489.9
-1072.45 -889.74 1532.1
-1072.64 -893.20 1538.0
-1061.47 -887.20 1527.7
-1055.99 -885.92 1525.5
-1047.95 -882.48 1519.6
-1064.96 -900.19 1550.1
-1097.64 -931.33 1603.7
-1099.13 -936.14 1612.0
-1076.27 -920.17 1584.5
-1063.11 -912.40 1571.1
-1065.61 -918.06 1580.9
-1064.05 -920.26 1584.6
-1065.48 -925.07 1592.9
-1079.36 -940.76 1619.9
-1087.15 -951.26 1638.0
-1085.94 -953.92 1642.6
-1075.80 -948.73 1633.7
-1059.27 -937.85 1614.9
-1063.48 -945.31 1627.8
-1083.81 -967.23 1665.5
-1089.82 -976.48 1681.4
-1076.26 -968.20 1667.2
-1083.65 -978.78 1685.4
-1103.56 -1000.80 1723.3
-1083.72 -986.80 1699.2
-1050.49 -960.45 1653.8
-1049.11 -963.12 1658.4
-1083.11 -998.42 1719.2
-1094.45 -1013.05 1744.4
-1064.33 -989.25 1703.4
-1046.22 -976.47 1681.4
-1037.64 -972.52 1674.6
-1032.38 -971.65 1673.1
-1053.40 -995.62 1714.4
-1083.60 -1028.50 1771.0
-1089.79 -1038.78 1788.7
-1082.44 -1036.18 1784.2
-1091.77 -1049.60 1807.4
-1091.32 -1053.69 1814.4
-1065.08 -1032.80 1778.4
-1066.02 -1038.21 1787.7
-1083.82 -1060.16 1825.5
-1071.88 -1053.07 1813.3
-1035.49 -1021.80 1759.5
-1011.07 -1002.12 1725.6
-1018.31 -1013.79 1745.7
-1028.61 -1028.61 1771.2
-1029.41 -1034.03 1780.5
-1043.54 -1052.94 1813.1
-1052.20 -1066.48 1836.4
-1038.64 -1057.52 1821.0
-1023.37 -1046.74 1802.4
-1010.38 -1038.19 1787.7
-1014.95 -1047.69 1804.1
-1016.39 -1054.04 1815.0
-1020.83 -1063.56 1831.4
-1040.76 -1089.39 1875.9
-1024.30 -1077.20 1854.9
-999.78 -1056.37 1819.0
-990.37 -1051.38 1810.4
-985.67 -1051.39 1810.4
-975.04 -1045.02 1799.5
-966.14 -1040.45 1791.6
-977.47 -1057.75 1821.4
-989.51 -1075.98 1852.8
-993.48 -1085.56 1869.3
-990.73 -1087.86 1873.2
-982.98 -1084.66 1867.7
-981.02 -1087.87 1873.2
-970.00 -1081.00 1861.4
-960.26 -1075.49 1851.9
-961.55 -1082.35 1863.7
-959.95 -1086.01 1870.0
-964.38 -1096.56 1888.2
-972.75 -1111.72 1914.3
-976.20 -1121.38 1930.9
-977.17 -1128.28 1942.8
-965.39 -1120.45 1929.3
-951.29 -1109.83 1911.1
-946.31 -1109.81 1911.0
-942.90 -1111.63 1914.2
-933.63 -1106.52 1905.4
-925.16 -1102.32 1898.1
-943.40 -1130.07 1945.9
-958.17 -1160.16 1997.7
-934.68 -1137.87 1959.3
-936.79 -1146.67 1974.5
-962.25 -1184.30 2039.3
-940.91 -1218.29 2097.8
-917.11 -1194.38 2056.6
-888.84 -1164.32 2004.9
-906.02 -1193.82 2055.7
-911.50 -1215.33 2092.7
-869.58 -1166.38 2008.4
-892.91 -1204.89 2074.7
-1237.17 -963.19 1651.2
-1244.98 -972.64 1667.4
-1238.14 -970.67 1664.0
-1204.88 -947.90 1625.0
-1213.19 -957.78 1641.9
-1201.03 -951.52 1631.2
-1143.95 -909.50 1559.1
-1118.10 -892.10 1529.3
-1137.10 -910.49 1560.8
-1153.86 -927.21 1589.5
-1132.35 -913.18 1565.5
-1091.37 -883.30 1514.2
-1075.36 -873.49 1497.4
-1070.45 -872.65 1496.0
-1061.35 -868.37 1488.6
-1072.66 -880.84 1510.0
-1073.99 -885.16 1517.4
-1057.07 -874.42 1499.0
-1067.72 -886.49 1519.7
-1084.50 -903.75 1549.3
-1076.40 -900.33 1543.4
-1077.57 -904.68 1550.9
-1084.88 -914.22 1567.2
-1086.49 -919.02 1575.5
-1113.58 -945.49 1620.8
-1102.32 -939.48 1610.5
-1059.13 -906.10 1553.3
-1063.22 -913.07 1565.3
-1076.35 -927.88 1590.7
-1063.20 -920.08 1577.3
-1045.60 -908.34 1557.1
-1059.08 -923.62 1583.3
-1087.42 -952.02 1632.0
-1104.63 -970.87 1664.3
-1112.79 -981.87 1683.2
-1097.62 -972.30 1666.8
-1077.10 -957.90 1642.1
-1070.43 -955.74 1638.4
-1079.46 -967.64 1658.8
-1092.30 -983.07 1685.3
-1086.05 -981.37 1682.4
-1071.07 -971.73 1665.8
-1067.28 -972.22 1666.7
-1061.07 -970.49 1663.7
-1041.88 -956.83 1640.3
-1040.05 -959.06 1644.1
-1072.61 -993.16 1702.6
-1085.40 -1009.15 1730.0
-1057.23 -987.04 1692.1
-1049.09 -983.52 1686.0
-1049.94 -988.44 1694.5
-1033.35 -976.91 1674.7
-1044.03 -991.17 1699.1
-1061.15 -1011.69 1734.3
-1052.04 -1007.27 1726.8
-1053.64 -1013.11 1736.8
-1071.84 -1035.04 1774.4
-1088.05 -1055.22 1808.9
-1077.00 -1049.02 1798.3
-1063.70 -1040.57 1783.8
-1068.25 -1049.59 1799.3
-1059.10 -1045.16 1791.7
-1027.31 -1018.26 1745.6
-1011.06 -1006.59 1725.6
-1026.40 -1026.40 1759.5
-1050.55 -1055.24 1809.0
-1063.78 -1073.32 1840.0
-1053.72 -1067.96 1830.8
-1038.38 -1057.17 1812.3
-1019.58 -1042.75 1787.6
-1000.43 -1027.84 1762.0
-1003.76 -1035.99 1776.0
-1022.33 -1060.02 1817.2
-1024.17 -1066.85 1828.9
-1029.44 -1077.32 1846.8
-1046.29 -1100.07 1885.8
-1026.81 -1084.66 1859.4
-997.14 -1058.29 1814.2
-982.19 -1047.36 1795.5
-984.34 -1054.65 1808.0
-980.92 -1056.01 1810.3
-968.62 -1047.79 1796.2
-976.56 -1061.48 1819.7
-975.61 -1065.59 1826.7
-967.53 -1061.92 1820.4
-974.01 -1074.28 1841.6
-975.02 -1080.69 1852.6
-981.75 -1093.54 1874.6
-978.95 -1095.83 1878.6
-965.49 -1086.18 1862.0
-962.28 -1088.00 1865.1
-960.26 -1091.21 1870.6
-963.88 -1100.87 1887.2
-971.03 -1114.70 1910.9
-972.47 -1122.08 1923.6
-978.24 -1134.56 1945.0
-972.80 -1134.10 1944.2
-959.47 -1124.37 1927.5
-953.67 -1123.43 1925.9
-958.06 -1134.54 1944.9
-956.12 -1138.24 1951.3
-947.95 -1134.51 1944.9
-962.20 -1157.73 1984.7
-942.54 -1152.56 1975.8
-952.57 -1171.19 2007.8
-963.96 -1191.71 2042.9
-968.80 -1204.31 2064.5
-956.72 -1195.90 2050.1
-942.10 -1184.20 2030.1
-935.34 -1182.31 2026.8
-917.53 -1166.35 1999.5
-922.95 -1179.90 2022.7
-944.33 -1228.17 2105.4
-934.18 -1222.04 2094.9
-920.15 -1210.72 2075.5
-886.63 -1173.48 2011.7
-874.99 -1164.93 1997.0
-906.73 -1214.37 2081.8
-832.76 -1201.09 2059.0
-1263.68 -984.80 1680.8
-1220.98 -954.81 1629.6
-1252.66 -982.99 1677.7
-1231.75 -969.95 1655.4
-1189.90 -940.27 1604.8
-1186.95 -941.23 1606.4
-1164.68 -926.82 1581.8
-1138.75 -909.39 1552.1
-1138.54 -912.45 1557.3
-1147.89 -923.21 1575.7
-1155.04 -932.28 1591.1
-1132.49 -917.35 1565.6
-1092.07 -887.80 1515.2
-1072.38 -874.93 1493.3
-1063.27 -870.65 1485.9
-1048.95 -862.05 1471.3
-1057.15 -871.96 1488.2
-1086.13 -899.14 1534.6
-1095.71 -910.40 1553.8
-1088.10 -907.42 1548.7
-1085.67 -908.75 1551.0
-1078.08 -905.75 1545.8
-1078.74 -909.68 1552.6
-1095.26 -927.07 1582.2
-1107.57 -941.02 1606.0
-1115.20 -951.07 1623.2
-1084.11 -928.06 1583.9
-1045.06 -898.04 1532.7
-1053.73 -908.95 1551.3
-1066.36 -923.37 1575.9
-1051.25 -913.78 1559.5
-1044.71 -911.60 1555.8
-1069.18 -936.57 1598.4
-1085.50 -954.57 1629.2
-1090.77 -962.95 1643.5
-1101.93 -976.61 1666.8
-1089.77 -969.64 1654.9
-1074.70 -960.01 1638.5
-1073.44 -962.69 1643.0
-1073.63 -966.70 1649.9
-1076.23 -972.92 1660.5
-1066.62 -968.10 1652.3
-1047.83 -954.87 1629.7
-1075.54 -984.10 1679.6
-1102.09 -1012.49 1728.0
-1069.33 -986.40 1683.5
-1054.95 -977.13 1667.7
-1075.97 -1000.70 1707.9
-1076.36 -1005.19 1715.6
-1064.37 -998.12 1703.5
-1072.30 -1009.75 1723.3
-1079.67 -1020.94 1742.4
-1069.57 -1015.64 1733.4
-1052.95 -1004.08 1713.7
-1042.94 -998.75 1704.6
-1040.41 -1000.56 1707.7
-1047.60 -1011.79 1726.8
-1067.19 -1035.13 1766.7
-1083.39 -1055.37 1801.2
-1067.77 -1044.66 1782.9
-1049.94 -1031.68 1760.8
-1055.44 -1041.62 1777.7
-1047.70 -1038.51 1772.4
-1036.35 -1031.78 1760.9
-1041.29 -1041.29 1777.2
-1038.06 -1042.67 1779.5
-1043.33 -1052.65 1796.6
-1059.25 -1073.50 1832.1
-1051.44 -1070.38 1826.8
-1033.01 -1056.38 1802.9
-1011.58 -1039.17 1773.6
-1008.32 -1040.55 1775.9
-1026.51 -1064.18 1816.2
-1035.81 -1078.77 1841.1
-1028.46 -1076.07 1836.5
-997.29 -1048.31 1789.2
-979.70 -1034.63 1765.8
-995.75 -1056.53 1803.2
-998.37 -1064.30 1816.4
-991.96 -1062.47 1813.3
-1002.99 -1079.41 1842.2
-1000.76 -1082.17 1846.9
-988.39 -1073.93 1832.9
-983.22 -1073.47 1832.1
-968.42 -1062.44 1813.3
-945.37 -1042.21 1778.7
-935.74 -1036.65 1769.3
-952.61 -1060.54 1810.0
-973.42 -1089.08 1858.7
-961.62 -1081.23 1845.3
-938.85 -1060.90 1810.6
-943.07 -1071.02 1827.9
-949.23 -1083.47 1849.2
-953.29 -1093.62 1866.5
-959.27 -1106.09 1887.8
-960.36 -1113.03 1899.6
-965.37 -1124.60 1919.4
-976.63 -1143.62 1951.8
-980.65 -1154.31 1970.1
-963.76 -1140.37 1946.3
-954.79 -1135.70 1938.3
-968.06 -1157.57 1975.6
-974.95 -1172.01 2000.3
-979.03 -1183.21 2019.4
-980.71 -1191.62 2033.7
-967.80 -1182.28 2017.8
-969.36 -1210.36 2065.7
-948.32 -1190.67 2032.1
-937.84 -1184.08 2020.9
-934.43 -1186.41 2024.8
-911.85 -1164.28 1987.1
-905.19 -1162.35 1983.8
-926.98 -1197.13 2043.1
-937.62 -1217.82 2078.5
-928.60 -1213.09 2070.4
-929.67 -1221.55 2084.8
-932.10 -1231.90 2102.5
-915.97 -1217.70 2078.3
-879.43 -1176.05 2007.2
-882.61 -1187.33 2026.4
-846.47 -1195.64 2040.6
-848.82 -1206.49 2059.1
-838.62 -1222.77 2086.9
-1246.91 -976.03 1658.4
-1229.77 -965.94 1641.3
-1235.42 -973.75 1654.6
-1195.14 -945.28 1606.2
-1162.03 -922.31 1567.2
-1164.51 -927.52 1576.0
-1156.24 -924.18 1570.3
-1141.57 -915.68 1555.9
-1144.02 -920.89 1564.8
-1155.47 -933.42 1586.0
-1150.92 -933.07 1585.5
-1118.34 -909.90 1546.1
-1095.40 -894.44 1519.8
-1091.50 -894.48 1519.9
-1082.34 -890.19 1512.6
-1068.51 -882.00 1498.7
-1073.51 -889.37 1511.2
-1098.78 -913.64 1552.4
-1118.69 -933.61 1586.4
-1121.38 -939.31 1596.1
-1110.09 -933.29 1585.8
-1092.13 -921.61 1566.0
-1090.17 -923.39 1569.0
-1103.56 -938.24 1594.2
-1090.29 -930.44 1581.0
-1073.50 -919.57 1562.5
-1080.66 -929.20 1578.9
-1079.65 -931.86 1583.4
-1075.58 -931.89 1583.5
-1074.53 -934.55 1588.0
-1080.50 -943.36 1602.9
-1093.91 -958.76 1629.1
-1090.25 -959.25 1629.9
-1078.11 -952.26 1618.1
-1086.37 -963.30 1636.8
-1100.00 -979.21 1663.9
-1083.41 -968.24 1645.2
-1064.92 -955.48 1623.5
-1069.09 -963.03 1636.4
-1073.69 -971.02 1649.9
-1079.70 -980.36 1665.8
-1073.00 -978.19 1662.1
-1057.58 -968.03 1644.9
-1088.62 -1000.47 1700.0
-1109.32 -1023.64 1739.4
-1070.80 -992.13 1685.8
-1054.51 -981.04 1667.0
-1073.60 -1002.91 1704.1
-1077.32 -1010.54 1717.1
-1068.18 -1006.13 1709.6
-1072.77 -1014.66 1724.1
-1077.78 -1023.66 1739.4
-1075.67 -1025.95 1743.3
-1066.53 -1021.52 1735.8
-1049.95 -1009.91 1716.0
-1040.42 -1005.00 1707.7
-1047.14 -1015.81 1726.0
-1065.32 -1037.89 1763.6
-1080.13 -1056.85 1795.8
-1062.23 -1043.84 1773.7
-1028.43 -1015.02 1724.7
-1018.51 -1009.62 1715.5
-1031.78 -1027.25 1745.5
-1041.75 -1041.75 1770.1
-1043.50 -1048.12 1780.9
-1038.47 -1047.70 1780.2
-1024.04 -1037.76 1763.3
-1019.93 -1038.23 1764.1
-1021.60 -1044.61 1775.0
-1014.36 -1041.90 1770.4
-1015.51 -1047.83 1780.4
-1032.89 -1070.62 1819.2
-1031.71 -1074.30 1825.4
-1022.20 -1069.31 1817.0
-1022.73 -1074.82 1826.3
-999.40 -1055.18 1792.9
-974.48 -1033.68 1756.4
-982.37 -1046.94 1778.9
-995.30 -1065.73 1810.9
-999.14 -1074.90 1826.5
-999.51 -1080.42 1835.8
-986.72 -1071.70 1821.0
-973.56 -1062.50 1805.4
-967.61 -1061.10 1803.0
-970.86 -1069.84 1817.8
-964.47 -1067.98 1814.7
-942.33 -1048.57 1781.7
-945.93 -1057.77 1797.3
-956.87 -1075.30 1827.1
-936.14 -1057.23 1796.4
-916.75 -1040.51 1768.0
-924.71 -1054.82 1792.3
-933.37 -1070.07 1818.2
-939.49 -1082.56 1839.5
-937.50 -1085.77 1844.9
-929.88 -1082.48 1839.3
-945.36 -1106.17 1879.6
-967.78 -1138.27 1934.1
-958.42 -1133.14 1925.4
-928.69 -1103.73 1875.4
-930.82 -1112.09 1889.6
-954.29 -1146.16 1947.5
-945.35 -1141.46 1939.6
-933.36 -1133.01 1925.2
-945.99 -1154.52 1961.7
-945.85 -1160.59 1972.0
-939.20 -1158.69 1968.8
-946.18 -1173.68 1994.3
-949.66 -1184.46 2012.6
-941.05 -1180.21 2005.4
-936.18 -1187.22 2017.3
-923.90 -1178.24 2002.0
-894.78 -1147.54 1949.9
-883.08 -1138.97 1935.3
-890.38 -1154.95 1962.5
-914.95 -1193.65 2028.2
-897.99 -1206.18 2049.5
-900.36 -1216.56 2067.2
-861.74 -1178.40 2002.3
-840.22 -1155.94 1964.1
-853.37 -1210.71 2057.2
-863.36 -1232.60 2094.4
-1241.02 -975.70 1650.6
-1209.27 -954.03 1614.0
-1199.82 -949.86 1606.9
-1176.91 -934.97 1581.7
-1157.32 -922.62 1560.8
-1146.39 -917.11 1551.5
-1125.86 -903.86 1529.1
-1124.09 -905.63 1532.1
-1137.76 -919.89 1556.2
-1122.65 -910.90 1541.0
-1094.87 -891.54 1508.2
-1091.52 -892.00 1509.0
-1095.03 -898.08 1519.3
-1101.64 -906.77 1534.0
-1103.48 -911.57 1542.1
-1094.83 -907.71 1535.6
-1102.89 -917.73 1552.6
-1100.47 -919.08 1554.8
-1091.82 -915.20 1548.3
-1097.16 -923.07 1561.6
-1087.48 -918.32 1553.5
-1083.50 -918.35 1553.6
-1095.42 -931.92 1576.6
-1124.14 -959.94 1624.0
-1126.64 -965.69 1633.7
-1089.40 -937.30 1585.6
-1078.23 -931.20 1575.3
-1100.50 -954.05 1614.0
-1118.59 -973.43 1646.8
-1107.85 -967.78 1637.2
-1103.67 -967.84 1637.3
-1111.50 -978.46 1655.3
-1103.29 -975.00 1649.4
-1082.66 -960.49 1624.9
-1083.45 -964.95 1632.4
-1096.09 -980.03 1657.9
-1079.52 -969.02 1639.3
-1064.50 -959.31 1622.9
-1073.07 -970.87 1642.5
-1075.69 -977.12 1653.0
-1079.25 -984.28 1665.1
-1086.64 -994.99 1683.3
-1085.72 -998.16 1688.6
-1084.30 -1000.89 1693.2
-1072.74 -994.25 1682.0
-1052.60 -979.56 1657.1
-1053.59 -984.50 1665.5
-1064.56 -998.84 1689.8
-1059.74 -998.43 1689.1
-1058.71 -1001.60 1694.4
-1071.83 -1018.24 1722.6
-1067.88 -1018.73 1723.4
-1058.77 -1014.28 1715.9
-1062.31 -1021.97 1728.9
-1056.94 -1021.11 1727.4
-1048.32 -1017.09 1720.6
-1055.00 -1027.95 1739.0
-1067.14 -1044.24 1766.6
-1075.94 -1057.39 1788.8
-1065.86 -1052.02 1779.7
-1040.29 -1031.25 1744.6
-1029.88 -1025.39 1734.7
-1043.09 -1043.09 1764.6
-1056.63 -1061.28 1795.4
-1061.02 -1070.41 1810.9
-1055.03 -1069.10 1808.6
-1041.00 -1059.59 1792.5
-1038.61 -1061.90 1796.4
-1041.09 -1069.23 1808.8
-1031.57 -1064.24 1800.4
-1030.01 -1067.47 1805.9
-1033.26 -1075.72 1819.8
-1017.64 -1064.32 1800.5
-1010.37 -1061.59 1795.9
-1013.54 -1069.85 1809.9
-1007.13 -1068.03 1806.8
-996.86 -1062.07 1796.7
-996.49 -1066.67 1804.5
-1001.22 -1076.79 1821.6
-994.38 -1074.49 1817.8
-984.15 -1068.51 1807.6
-971.43 -1059.74 1792.8
-958.34 -1050.49 1777.1
-951.19 -1047.69 1772.4
-954.08 -1055.97 1786.4
-964.82 -1073.06 1815.3
-960.50 -1073.50 1816.1
-947.93 -1064.67 1801.1
-942.41 -1063.71 1799.5
-947.12 -1074.35 1817.5
-954.20 -1087.79 1840.2
-946.16 -1084.04 1833.9
-938.95 -1081.21 1829.1
-939.00 -1086.76 1838.5
-931.39 -1083.46 1832.9
-924.61 -1081.08 1828.9
-940.48 -1105.31 1869.9
-945.49 -1116.96 1889.6
-918.91 -1091.20 1846.0
-907.02 -1082.72 1831.7
-925.63 -1110.76 1879.1
-955.70 -1152.91 1950.4
-956.05 -1159.46 1961.5
-924.76 -1127.51 1907.4
-915.56 -1122.29 1898.6
-922.80 -1137.29 1924.0
-924.23 -1145.25 1937.4
-927.49 -1155.56 1954.9
-927.66 -1162.12 1966.0
-933.77 -1176.24 1989.9
-943.86 -1195.56 2022.6
-927.84 -1181.83 1999.3
-896.42 -1148.22 1942.5
-896.10 -1154.30 1952.8
-914.39 -1184.55 2003.9
-919.34 -1197.77 2026.3
-936.13 -1226.66 2075.2
-896.78 -1202.73 2034.7
-908.39 -1225.52 2073.3
-905.69 -1243.96 2104.5
-878.43 -1213.83 2053.5
-835.69 -1190.86 2014.6
-838.29 -1217.38 2059.5
-834.51 -1219.67 2063.4
-1277.13 -1001.59 1687.0
-1263.17 -994.04 1674.3
-1246.00 -983.91 1657.2
-1231.05 -975.47 1643.0
-1200.48 -954.55 1607.8
-1159.80 -925.41 1558.7
-1163.38 -931.52 1569.0
-1172.81 -942.37 1587.3
-1122.81 -905.36 1524.9
-1095.43 -886.41 1493.0
-1108.63 -900.27 1516.4
-1094.66 -892.09 1502.6
-1067.50 -873.06 1470.5
-1065.81 -874.80 1473.5
-1079.38 -889.13 1497.6
-1095.48 -905.65 1525.4
-1103.10 -915.25 1541.6
-1099.15 -915.29 1541.7
-1083.73 -905.74 1525.6
-1057.45 -887.02 1494.0
-1056.17 -889.20 1497.7
-1069.88 -904.07 1522.8
-1068.01 -905.83 1525.7
-1073.33 -913.73 1539.0
-1072.45 -916.38 1543.5
-1087.39 -932.63 1570.9
-1102.74 -949.36 1599.0
-1080.85 -934.02 1573.2
-1075.80 -933.17 1571.8
-1104.12 -961.39 1619.3
-1120.66 -979.51 1649.8
-1108.92 -972.96 1638.8
-1088.19 -958.45 1614.3
-1080.05 -954.95 1608.5
-1083.40 -961.62 1619.7
-1075.27 -958.12 1613.8
-1081.04 -967.02 1628.8
-1100.09 -987.92 1664.0
-1096.82 -988.87 1665.6
-1095.51 -991.59 1670.2
-1083.41 -984.53 1658.3
-1064.51 -971.21 1635.8
-1061.76 -972.57 1638.1
-1063.86 -978.40 1648.0
-1069.29 -987.37 1663.1
-1074.67 -996.35 1678.2
-1063.63 -990.13 1667.7
-1044.96 -976.72 1645.1
-1042.15 -978.09 1647.4
-1048.85 -988.43 1664.8
-1072.10 -1014.51 1708.8
-1100.38 -1045.58 1761.1
-1094.94 -1044.76 1759.7
-1072.11 -1027.25 1730.2
-1078.92 -1038.12 1748.6
-1099.20 -1062.10 1788.9
-1086.73 -1054.49 1776.1
-1069.66 -1042.35 1755.7
-1066.54 -1043.75 1758.0
-1069.41 -1051.05 1770.3
-1070.38 -1056.54 1779.6
-1053.92 -1044.79 1759.8
-1053.96 -1049.38 1767.5
-1067.60 -1067.60 1798.2
-1052.12 -1056.73 1779.9
-1036.71 -1045.84 1761.6
-1047.46 -1061.37 1787.7
-1046.00 -1064.60 1793.2
-1037.37 -1060.53 1786.3
-1041.67 -1069.70 1801.7
-1049.01 -1082.09 1822.6
-1042.56 -1080.30 1819.6
-1035.23 -1077.58 1815.0
-1031.87 -1078.99 1817.4
-1026.75 -1078.56 1816.7
-1029.47 -1086.40 1829.9
-1028.66 -1090.57 1836.9
-1017.87 -1084.15 1826.1
-998.95 -1068.97 1800.5
-989.56 -1063.90 1792.0
-1000.29 -1080.51 1819.9
-999.41 -1084.67 1827.0
-1001.04 -1091.61 1838.6
-999.24 -1094.86 1844.1
-975.11 -1073.56 1808.2
-956.58 -1058.25 1782.5
-954.44 -1061.00 1787.1
-960.17 -1072.58 1806.6
-954.63 -1071.62 1805.0
-940.85 -1061.36 1787.7
-944.39 -1070.62 1803.3
-958.09 -1091.55 1838.5
-968.77 -1109.24 1868.3
-964.72 -1110.16 1869.9
-955.42 -1105.01 1861.2
-952.58 -1107.32 1865.1
-943.72 -1102.61 1857.2
-935.68 -1098.83 1850.8
-932.44 -1100.66 1853.9
-918.11 -1089.36 1834.9
-921.96 -1099.63 1852.1
-940.23 -1127.29 1898.7
-936.05 -1128.19 1900.3
-941.97 -1141.33 1922.4
-945.85 -1152.12 1940.6
-918.86 -1125.23 1895.3
-911.22 -1121.88 1889.6
-918.86 -1137.39 1915.8
-906.26 -1127.90 1899.8
-895.24 -1120.27 1886.9
-916.23 -1152.84 1941.8
-944.45 -1194.92 2012.6
-946.29 -1203.89 2027.8
-925.45 -1183.96 1994.2
-903.65 -1162.56 1958.2
-911.74 -1179.60 1986.8
-914.95 -1190.47 2005.2
-905.35 -1184.71 1995.5
-909.90 -1197.51 2017.0
-892.03 -1180.78 1988.8
-884.67 -1177.85 1983.9
-899.06 -1204.01 2028.0
-906.16 -1220.65 2056.0
-863.11 -1220.08 2055.0
-831.71 -1182.98 1992.6
-838.76 -1223.41 2060.6
-826.44 -1213.17 2043.4
-1262.24 -990.84 1661.7
-1236.86 -974.24 1633.8
-1228.44 -970.94 1628.3
-1215.16 -963.75 1616.2
-1210.03 -963.00 1615.0
-1187.63 -948.46 1590.6
-1157.24 -927.41 1555.3
-1168.88 -940.01 1576.4
-1194.37 -963.88 1616.4
-1160.91 -940.17 1576.7
-1100.41 -894.32 1499.8
-1083.79 -883.94 1482.4
-1085.28 -888.30 1489.7
-1073.50 -881.80 1478.8
-1087.10 -896.17 1502.9
-1116.39 -923.63 1548.9
-1107.70 -919.76 1542.4
-1089.10 -907.58 1522.0
-1075.78 -899.75 1508.9
-1051.06 -882.28 1479.6
-1056.05 -889.71 1492.1
-1087.93 -919.94 1542.8
-1092.75 -927.43 1555.3
-1084.12 -923.51 1548.7
-1086.31 -928.81 1557.6
-1082.31 -928.85 1557.7
-1073.19 -924.47 1550.4
-1063.59 -919.65 1542.3
-1058.60 -918.78 1540.8
-1072.35 -934.25 1566.7
-1083.48 -947.53 1589.0
-1082.42 -950.22 1593.5
-1101.45 -970.62 1627.8
-1111.81 -983.53 1649.4
-1084.63 -963.18 1615.3
-1069.03 -953.01 1598.2
-1069.88 -957.48 1605.7
-1086.55 -976.20 1637.1
-1103.58 -995.39 1669.3
-1097.85 -994.11 1667.1
-1098.00 -998.18 1674.0
-1086.87 -991.99 1663.6
-1060.17 -971.47 1629.2
-1048.19 -964.34 1617.2
-1059.05 -978.24 1640.5
-1076.10 -997.99 1673.7
-1069.39 -995.79 1670.0
-1047.81 -979.66 1642.9
-1036.86 -973.38 1632.4
-1041.24 -981.49 1646.0
-1064.59 -1007.63 1689.8
-1104.84 -1050.05 1761.0
-1107.91 -1057.35 1773.2
-1076.53 -1031.68 1730.1
-1067.40 -1027.20 1722.6
-1088.26 -1051.68 1763.7
-1117.83 -1084.81 1819.2
-1112.27 -1083.99 1817.9
-1062.67 -1040.06 1744.2
-1028.62 -1011.04 1695.5
-1044.50 -1031.05 1729.1
-1059.32 -1050.19 1761.2
-1050.23 -1045.68 1753.6
-1057.57 -1057.57 1773.6
-1075.27 -1079.96 1811.1
-1062.03 -1071.35 1796.7
-1024.94 -1038.49 1741.6
-1015.49 -1033.47 1733.1
-1039.23 -1062.32 1781.5
-1055.17 -1083.44 1816.9
-1043.39 -1076.14 1804.7
-1034.76 -1072.04 1797.8
-1024.38 -1066.10 1787.9
-1012.29 -1058.30 1774.8
-1019.09 -1070.28 1794.9
-1024.06 -1080.43 1811.9
-1037.22 -1099.36 1843.6
-1044.61 -1112.32 1865.4
-1014.77 -1085.57 1820.5
-977.80 -1050.91 1762.4
-972.36 -1049.96 1760.8
-986.56 -1070.32 1794.9
-992.10 -1081.44 1813.6
-999.26 -1094.43 1835.4
-997.88 -1098.15 1841.6
-973.36 -1076.31 1805.0
-959.87 -1066.52 1788.6
-961.88 -1073.94 1801.0
-963.42 -1080.91 1812.7
-953.32 -1074.82 1802.5
-942.85 -1068.25 1791.5
-948.83 -1080.35 1811.8
-951.05 -1088.26 1825.0
-949.54 -1091.97 1831.3
-958.14 -1107.39 1857.1
-962.17 -1117.68 1874.4
-961.72 -1122.82 1883.0
-954.02 -1119.51 1877.4
-930.41 -1097.40 1840.4
-911.32 -1080.43 1811.9
-910.51 -1085.07 1819.7
-929.33 -1113.26 1867.0
-939.32 -1131.12 1896.9
-926.97 -1122.12 1881.8
-917.78 -1116.88 1873.0
-904.38 -1106.43 1855.5
-889.52 -1094.06 1834.8
-893.50 -1104.86 1852.9
-896.63 -1114.73 1869.4
-879.97 -1099.96 1844.7
-867.57 -1090.39 1828.6
-884.91 -1118.29 1875.4
-928.95 -1180.43 1979.6
-947.22 -1210.34 2029.8
-916.03 -1177.02 1973.9
-883.23 -1141.26 1913.9
-877.47 -1140.22 1912.2
-867.34 -1133.45 1900.8
-861.97 -1132.88 1899.9
-870.70 -1150.92 1930.1
-873.17 -1160.87 1946.8
-886.30 -1185.17 1987.5
-917.74 -1234.39 2070.1
-818.71 -1207.07 2024.3
-1253.59 -988.32 1650.3
-1202.65 -951.41 1588.6
-1173.12 -931.24 1554.9
-1189.25 -947.30 1581.8
-1207.98 -965.54 1612.2
-1194.76 -958.30 1600.1
-1172.45 -943.68 1575.7
-1162.56 -938.99 1567.9
-1168.77 -947.32 1581.8
-1158.36 -942.19 1573.2
-1119.75 -914.00 1526.2
-1096.19 -897.94 1499.3
-1091.80 -897.53 1498.7
-1087.42 -897.12 1498.0
-1107.82 -917.23 1531.5
-1130.72 -939.55 1568.8
-1116.23 -930.86 1554.3
-1095.52 -916.90 1531.0
-1079.59 -906.85 1514.2
-1065.28 -898.10 1499.6
-1081.64 -915.23 1528.2
-1096.86 -931.52 1555.4
-1084.61 -924.52 1543.7
-1078.07 -922.35 1540.1
-1082.83 -929.86 1552.6
-1100.34 -948.43 1583.6
-1111.09 -961.28 1605.1
-1096.81 -952.49 1590.4
-1087.66 -948.11 1583.1
-1100.81 -963.21 1608.3
-1111.34 -976.12 1629.9
-1102.65 -972.18 1623.3
-1114.06 -986.01 1646.4
-1123.38 -998.08 1666.6
-1093.18 -975.00 1628.0
-1074.08 -961.68 1605.8
-1070.94 -962.60 1607.3
-1069.28 -964.86 1611.1
-1068.10 -967.57 1615.6
-1060.99 -964.92 1611.2
-1058.80 -966.73 1614.2
-1077.13 -987.37 1648.7
-1079.72 -993.69 1659.2
-1081.78 -999.57 1669.0
-1108.03 -1027.93 1716.4
-1109.93 -1033.85 1726.3
-1090.12 -1019.51 1702.3
-1071.37 -1006.04 1679.8
-1063.70 -1002.92 1674.6
-1053.20 -997.08 1664.9
-1061.27 -1008.86 1684.6
-1091.54 -1041.92 1739.8
-1085.20 -1040.17 1736.8
-1064.74 -1024.82 1711.2
-1067.86 -1032.11 1723.4
-1073.73 -1042.15 1740.1
-1087.92 -1060.38 1770.6
-1113.60 -1090.01 1820.1
-1094.61 -1075.98 1796.6
-1055.86 -1042.32 1740.4
-1069.33 -1060.15 1770.2
-1058.37 -1053.81 1759.6
-1023.69 -1023.69 1709.3
-1046.59 -1051.14 1755.2
-1079.74 -1089.17 1818.7
-1086.40 -1100.69 1837.9
-1068.18 -1087.00 1815.0
-1037.48 -1060.43 1770.7
-1041.86 -1069.64 1786.0
-1059.56 -1092.67 1824.5
-1049.99 -1087.66 1816.1
-1029.38 -1071.11 1788.5
-1008.88 -1054.53 1760.8
-995.53 -1045.31 1745.4
-999.32 -1054.08 1760.1
-1012.64 -1073.03 1791.7
-1033.65 -1100.34 1837.3
-1034.98 -1106.86 1848.2
-999.59 -1073.98 1793.3
-967.01 -1043.83 1742.9
-965.03 -1046.58 1747.5
-983.93 -1072.11 1790.2
-992.87 -1086.98 1815.0
-991.55 -1090.71 1821.2
-980.50 -1083.72 1809.5
-962.79 -1069.25 1785.4
-954.37 -1065.02 1778.3
-947.64 -1062.65 1774.4
-940.93 -1060.27 1770.4
-953.24 -1079.41 1802.3
-963.77 -1096.70 1831.2
-962.28 -1100.42 1837.4
-955.45 -1098.05 1833.5
-948.64 -1095.68 1829.5
-953.58 -1106.92 1848.3
-944.73 -1102.18 1840.4
-931.50 -1092.26 1823.8
-938.72 -1106.34 1847.3
-930.31 -1102.06 1840.2
-919.55 -1094.93 1828.3
-928.57 -1111.40 1855.8
-933.14 -1122.69 1874.6
-927.85 -1122.17 1873.8
-911.67 -1108.40 1850.8
-898.29 -1097.91 1833.2
-901.58 -1107.79 1849.7
-903.25 -1115.78 1863.1
-899.89 -1117.61 1866.1
-895.76 -1118.48 1867.6
-888.20 -1115.08 1861.9
-885.19 -1117.37 1865.7
-883.67 -1121.58 1872.8
-906.38 -1156.76 1931.5
-925.48 -1187.70 1983.2
-897.74 -1158.54 1934.5
-865.06 -1122.63 1874.5
-859.76 -1122.05 1873.6
-870.49 -1142.52 1907.7
-889.41 -1174.02 1960.3
-888.24 -1179.22 1969.0
-879.85 -1174.82 1961.7
-879.70 -1181.46 1972.7
-893.72 -1207.30 2015.9
-910.72 -1237.51 2066.3
-891.25 -1218.22 2034.1
-869.47 -1195.53 1996.2
-831.97 -1231.96 2057.1
-811.89 -1209.97 2020.4
-1240.27 -978.71 1627.2
-1212.21 -959.84 1595.8
-1181.54 -938.76 1560.7
-1173.80 -935.82 1555.9
-1207.24 -965.79 1605.7
-1196.19 -960.27 1596.5
-1159.84 -934.32 1553.4
-1145.15 -925.70 1539.0
-1142.31 -926.63 1540.6
-1146.95 -933.66 1552.3
-1135.54 -927.62 1542.2
-1114.57 -913.71 1519.1
-1108.03 -911.57 1515.5
-1108.38 -915.11 1521.4
-1108.18 -918.21 1526.6
-1083.72 -901.16 1498.2
-1061.99 -886.27 1473.5
-1096.44 -918.32 1526.8
-1124.40 -945.15 1571.4
-1106.84 -933.77 1552.5
-1090.91 -923.69 1535.7
-1085.92 -922.84 1534.3
-1079.39 -920.66 1530.6
-1086.79 -930.39 1546.8
-1100.31 -945.45 1571.9
-1083.46 -934.43 1553.5
-1079.97 -934.90 1554.3
-1098.42 -954.43 1586.8
-1089.78 -950.48 1580.2
-1075.57 -941.63 1565.5
-1083.18 -951.88 1582.6
-1107.87 -977.28 1624.8
-1112.77 -985.36 1638.2
-1111.10 -987.65 1642.0
-1108.41 -989.04 1644.3
-1081.27 -968.55 1610.3
-1063.21 -956.07 1589.5
-1066.55 -962.80 1600.7
-1073.30 -972.68 1617.1
-1088.86 -990.65 1647.0
-1098.40 -1003.27 1668.0
-1073.56 -984.45 1636.7
-1068.86 -984.03 1636.0
-1084.62 -1002.52 1666.8
-1099.77 -1020.59 1696.8
-1121.10 -1044.55 1736.6
-1117.16 -1045.09 1737.5
-1093.01 -1026.64 1706.8
-1070.42 -1009.51 1678.4
-1067.07 -1010.45 1679.9
-1061.32 -1009.13 1677.7
-1046.08 -998.73 1660.4
-1053.16 -1009.64 1678.6
-1077.63 -1037.38 1724.7
-1089.20 -1052.90 1750.5
-1086.60 -1054.78 1753.6
-1087.73 -1060.30 1762.8
-1093.93 -1070.85 1780.4
-1109.35 -1090.55 1813.1
-1119.08 -1104.80 1836.8
-1107.95 -1098.49 1826.3
-1087.67 -1083.00 1800.6
-1042.75 -1042.75 1733.6
-1014.08 -1018.47 1693.3
-1043.37 -1052.44 1749.7
-1059.72 -1073.60 1784.9
-1051.97 -1070.42 1779.6
-1062.70 -1086.11 1805.7
-1058.52 -1086.62 1806.6
-1032.86 -1064.99 1770.6
-1023.84 -1060.40 1763.0
-1033.93 -1075.66 1788.3
-1032.86 -1079.38 1794.5
-1025.58 -1076.63 1790.0
-1024.04 -1079.89 1795.4
-1015.02 -1075.28 1787.7
-1016.50 -1081.78 1798.5
-1016.19 -1086.44 1806.3
-998.11 -1072.05 1782.3
-996.07 -1074.83 1787.0
-994.44 -1078.09 1792.4
-981.67 -1069.23 1777.7
-990.25 -1083.67 1801.7
-995.34 -1094.40 1819.5
-990.20 -1093.93 1818.7
-984.22 -1092.53 1816.4
-969.85 -1081.75 1798.5
-955.14 -1070.49 1779.8
-941.34 -1060.15 1762.6
-940.46 -1064.32 1769.5
-958.53 -1090.09 1812.3
-970.66 -1109.33 1844.3
-972.01 -1116.36 1856.0
-961.88 -1110.23 1845.8
-952.20 -1104.55 1836.4
-944.98 -1101.69 1831.6
-924.90 -1083.72 1801.8
-916.17 -1078.94 1793.8
-926.64 -1096.83 1823.6
-927.03 -1102.93 1833.7
-925.79 -1107.13 1840.7
-930.04 -1117.97 1858.7
-928.71 -1122.19 1865.7
-924.22 -1122.61 1866.4
-909.23 -1110.21 1845.8
-905.16 -1111.10 1847.3
-918.81 -1133.85 1885.1
-915.80 -1136.18 1889.0
-908.56 -1133.26 1884.1
-910.85 -1142.25 1899.1
-910.41 -1147.91 1908.5
-899.77 -1140.69 1896.5
-891.04 -1135.84 1888.4
-884.59 -1133.84 1885.1
-875.55 -1128.49 1876.2
-878.01 -1137.98 1892.0
-880.39 -1147.47 1907.7
-875.74 -1147.86 1908.4
-886.38 -1168.41 1942.6
-884.90 -1173.13 1950.4
-863.56 -1151.41 1914.3
-875.02 -1173.44 1950.9
-895.60 -1208.02 2008.4
-880.40 -1194.46 1985.9
-863.53 -1178.46 1959.3
-865.05 -1187.53 1974.3
-868.25 -1199.02 1993.4
-863.89 -1237.17 2056.9
-845.69 -1218.63 2026.0
-1228.89 -973.91 1612.2
-1204.15 -957.56 1585.2
-1184.94 -945.52 1565.2
-1185.33 -949.08 1571.1
-1189.49 -955.69 1582.1
-1154.73 -930.98 1541.2
-1124.43 -909.70 1505.9
-1114.67 -904.94 1498.1
-1125.30 -916.77 1517.6
-1141.74 -933.42 1545.2
-1134.60 -930.86 1541.0
-1117.91 -920.40 1523.7
-1106.06 -913.87 1512.8
-1102.71 -914.34 1513.6
-1105.15 -919.65 1522.4
-1082.83 -904.29 1497.0
-1068.46 -895.51 1482.5
-1109.14 -932.96 1544.4
-1126.08 -950.64 1573.7
-1098.10 -930.39 1540.2
-1100.38 -935.73 1549.0
-1114.55 -951.24 1574.7
-1090.89 -934.47 1546.9
-1081.24 -929.63 1538.9
-1099.89 -949.17 1571.3
-1088.69 -942.99 1561.1
-1080.08 -939.02 1554.5
-1092.90 -953.73 1578.8
-1085.80 -951.10 1574.5
-1072.12 -942.66 1560.5
-1079.22 -952.50 1576.8
-1103.90 -977.98 1619.0
-1099.26 -977.58 1618.3
-1088.60 -971.81 1608.8
-1106.96 -992.01 1642.2
-1101.27 -990.72 1640.1
-1080.18 -975.51 1614.9
-1082.47 -981.39 1624.6
-1092.13 -994.01 1645.5
-1112.54 -1016.56 1682.8
-1133.29 -1039.60 1721.0
-1117.66 -1029.31 1703.9
