ply
format ascii 1.0
element vertex 1996
property float x
property float y
property float z
end_header
-1095.60 -832.16 1612.9
-1080.68 -823.97 1597.1
-1076.09 -823.63 1596.4
-1095.08 -841.39 1630.8
-1104.73 -852.10 1651.6
-1091.88 -845.46 1638.7
-1080.60 -840.00 1628.1
-1051.63 -820.68 1590.7
-1029.87 -806.87 1563.9
-1045.48 -822.33 1593.9
-1054.44 -832.67 1613.9
-1042.80 -826.76 1602.5
-1029.20 -819.24 1587.9
-1035.56 -827.61 1604.1
-1057.23 -848.34 1644.3
-1062.91 -856.36 1659.8
-1040.43 -841.65 1631.3
-1038.20 -843.28 1634.5
-1056.06 -861.29 1669.4
-1049.35 -859.34 1665.6
-1060.66 -872.20 1690.5
-1093.72 -903.12 1750.5
-1082.02 -897.18 1739.0
-1058.79 -881.58 1708.7
-1053.46 -880.83 1707.3
-1041.43 -874.45 1694.9
-1038.04 -875.29 1696.5
-1055.11 -893.48 1731.8
-1068.72 -908.87 1761.6
-1064.23 -908.93 1761.7
-1065.39 -913.85 1771.3
-1062.28 -915.13 1773.8
-1057.29 -914.79 1773.1
-1077.03 -935.93 1814.1
-1088.69 -950.22 1841.8
-1081.70 -948.27 1838.0
-1072.41 -944.29 1830.3
-1055.33 -933.38 1809.1
-1050.71 -933.44 1809.3
-1056.14 -942.47 1826.8
-1056.94 -947.44 1836.4
-1054.52 -949.55 1840.5
-1051.18 -950.84 1843.0
-1040.61 -945.58 1832.8
-1027.84 -938.26 1818.6
-1031.68 -946.10 1833.8
-1045.24 -962.98 1866.5
-1049.79 -971.67 1883.4
-1046.75 -973.38 1886.7
-1039.29 -970.98 1882.0
-1036.67 -973.10 1886.1
-1035.34 -976.46 1892.6
-1037.90 -983.53 1906.3
-1033.89 -984.42 1908.1
-1016.90 -972.90 1885.7
-1028.85 -989.08 1917.1
-1054.81 -1018.96 1975.0
-1035.67 -1005.36 1948.7
-1001.34 -976.79 1893.3
-1011.71 -991.78 1922.3
-1048.55 -1032.98 2002.2
-1056.04 -1045.54 2026.5
-1041.67 -1036.46 2008.9
-1037.37 -1037.37 2010.7
-1026.83 -1032.01 2000.3
-991.12 -1001.18 1940.5
-971.71 -986.59 1912.3
-982.75 -1002.91 1943.9
-989.57 -1015.08 1967.5
-990.60 -1021.39 1979.7
-996.42 -1032.75 2001.7
-1008.19 -1050.41 2036.0
-1005.36 -1052.98 2041.0
-1006.51 -1059.76 2054.1
-922.18 -1098.89 2129.9
-835.59 -1123.53 2177.7
-743.40 -1104.00 2139.8
-660.35 -1086.04 2105.0
-632.82 -1104.66 2141.1
-620.57 -1092.85 2118.2
-607.31 -1098.68 2129.5
-609.91 -1113.51 2158.3
-579.76 -1109.35 2150.2
-550.85 -1107.27 2146.2
-555.47 -1127.94 2186.2
-542.22 -1112.39 2156.1
-426.05 -1101.09 2134.2
-407.07 -1094.69 2121.8
-308.29 -1136.12 2202.1
-269.47 -1140.96 2211.5
-178.68 -1111.14 2153.7
-163.00 -1118.54 2168.0
-118.65 -1124.30 2179.2
-1252.28 -920.79 1775.8
-1206.63 -890.50 1717.4
-1190.22 -881.65 1700.3
-1162.30 -864.16 1666.6
-1135.02 -847.03 1633.6
-1125.14 -842.80 1625.4
-1119.99 -842.10 1624.0
-1112.24 -839.42 1618.9
-1108.13 -839.49 1619.0
-1101.44 -837.60 1615.4
-1087.52 -830.17 1601.0
-1073.15 -822.33 1585.9
-1069.09 -822.38 1586.0
-1073.74 -829.14 1599.1
-1070.17 -829.59 1599.9
-1061.50 -826.07 1593.1
-1054.88 -824.12 1589.4
-1049.28 -822.97 1587.2
-1052.28 -828.56 1597.9
-1064.28 -841.33 1622.6
-1069.66 -848.94 1637.2
-1065.48 -848.99 1637.3
-1059.30 -847.44 1634.4
-1048.65 -842.29 1624.4
-1050.93 -847.53 1634.5
-1072.44 -868.37 1674.7
-1065.71 -866.43 1671.0
-1048.67 -856.06 1651.0
-1050.80 -861.31 1661.1
-1041.67 -857.34 1653.4
-1051.53 -869.04 1676.0
-1087.50 -902.49 1740.5
-1079.70 -899.75 1735.2
-1052.14 -880.46 1698.0
-1042.03 -875.66 1688.8
-1039.62 -877.32 1692.0
-1045.30 -885.85 1708.4
-1041.40 -886.30 1709.3
-1034.65 -884.32 1705.5
-1046.81 -898.55 1732.9
-1063.57 -916.87 1768.3
-1058.59 -916.53 1767.6
-1051.27 -914.15 1763.0
-1064.95 -930.08 1793.7
-1070.13 -938.71 1810.4
-1070.61 -943.27 1819.2
-1070.13 -947.02 1826.4
-1051.69 -934.83 1802.9
-1044.79 -932.85 1799.1
-1047.49 -939.45 1811.8
-1043.77 -940.33 1813.5
-1053.63 -953.52 1838.9
-1063.39 -966.72 1864.4
-1045.59 -954.88 1841.5
-1025.18 -940.53 1813.9
-1034.38 -953.34 1838.6
-1052.82 -974.83 1880.0
-1040.03 -967.47 1865.8
-1020.68 -953.90 1839.7
-1033.56 -970.48 1871.6
-1050.69 -991.22 1911.6
-1025.71 -972.24 1875.0
-1004.80 -956.96 1845.6
-1030.83 -986.44 1902.4
-1044.09 -1003.93 1936.2
-1025.38 -990.70 1910.6
-1018.77 -989.09 1907.5
-1021.12 -996.22 1921.3
-1011.94 -992.10 1913.3
-986.71 -972.13 1874.8
-987.77 -977.99 1886.1
-1012.72 -1007.68 1943.4
-1017.76 -1017.76 1962.8
-999.40 -1004.42 1937.1
-974.92 -984.77 1899.2
-965.47 -980.17 1890.3
-971.27 -991.09 1911.4
-979.43 -1004.54 1937.3
-983.40 -1013.81 1955.2
-988.50 -1024.36 1975.5
-997.56 -1039.12 2004.0
-999.24 -1046.33 2017.9
-988.44 -1040.47 2006.6
-987.26 -1044.72 2014.8
-984.66 -1058.77 2041.9
-984.88 -1064.74 2053.4
-1020.87 -1115.71 2151.7
-1026.95 -1128.51 2176.4
-861.37 -1104.32 2129.8
-801.74 -1098.27 2118.1
-745.92 -1113.32 2147.1
-752.84 -1132.08 2183.3
-746.20 -1130.61 2180.5
-742.46 -1133.53 2186.1
-729.81 -1122.79 2165.4
-620.52 -1088.63 2099.5
-631.03 -1126.84 2173.2
-550.96 -1113.06 2146.6
-542.11 -1117.75 2155.7
-394.65 -1096.26 2114.2
-263.32 -1144.85 2207.9
-185.93 -1126.83 2173.2
-1266.32 -932.35 1789.2
-1247.08 -921.56 1768.4
-1217.34 -902.90 1732.6
-1195.11 -889.70 1707.3
-1163.51 -869.39 1668.3
-1147.79 -860.84 1651.9
-1148.86 -864.87 1659.7
-1130.08 -853.93 1638.7
-1109.81 -841.78 1615.4
-1090.67 -830.40 1593.5
-1069.54 -817.40 1568.6
-1074.29 -824.17 1581.6
-1075.91 -828.58 1590.0
-1056.46 -816.72 1567.3
-1046.30 -811.99 1558.2
-1066.78 -831.09 1594.9
-1083.55 -847.45 1626.2
-1066.22 -837.15 1606.5
-1050.99 -828.42 1589.7
-1038.33 -821.67 1576.8
-1034.78 -822.09 1577.6
-1057.28 -843.31 1618.3
-1071.13 -857.76 1646.0
-1059.45 -851.80 1634.6
-1042.85 -841.82 1615.4
-1038.70 -841.85 1615.5
-1054.30 -857.95 1646.4
-1075.19 -878.51 1685.8
-1085.12 -890.24 1708.4
-1064.14 -876.61 1682.2
-1032.05 -853.67 1638.2
-1015.19 -843.20 1618.1
-1022.16 -852.51 1635.9
-1059.49 -887.33 1702.8
-1077.77 -906.41 1739.4
-1067.11 -901.21 1729.4
-1065.09 -903.30 1733.4
-1065.91 -907.83 1742.1
-1058.14 -905.04 1736.8
-1041.85 -894.92 1717.3
-1044.06 -900.67 1728.4
-1055.63 -914.58 1755.1
-1044.11 -908.51 1743.4
-1029.83 -899.98 1727.0
-1035.64 -909.02 1744.4
-1055.78 -930.75 1786.1
-1072.03 -949.25 1821.6
-1058.17 -941.12 1806.0
-1027.37 -917.79 1761.2
-1033.84 -927.69 1780.2
-1048.89 -945.41 1814.2
-1049.71 -950.41 1823.8
-1064.07 -967.78 1857.1
-1067.46 -975.27 1871.5
-1044.70 -958.84 1840.0
-1037.76 -956.83 1836.1
-1058.05 -980.04 1880.7
-1063.04 -989.22 1898.3
-1039.59 -971.90 1865.0
-1022.01 -959.93 1842.1
-1034.88 -976.57 1874.0
-1044.97 -990.75 1901.2
-1016.10 -967.95 1857.5
-996.98 -954.26 1831.2
-1019.98 -980.94 1882.4
-1047.07 -1011.84 1941.7
-1043.40 -1013.16 1944.2
-1024.30 -999.44 1917.9
-1013.84 -994.06 1907.6
-1020.83 -1005.82 1930.1
-1013.34 -1003.36 1925.4
-1000.81 -995.86 1911.0
-1009.74 -1009.74 1937.7
-1009.77 -1014.82 1947.4
-988.95 -998.89 1916.9
-966.61 -981.25 1883.0
-958.02 -977.47 1875.7
-956.45 -980.84 1882.2
-957.29 -986.75 1893.5
-958.09 -992.66 1904.9
-959.24 -999.00 1917.1
-972.44 -1018.03 1953.6
-980.66 -1032.01 1980.4
-976.35 -1032.88 1982.1
-981.60 -1043.92 2003.3
-970.80 -1049.09 2013.2
-959.34 -1042.31 2000.2
-976.37 -1066.58 2046.7
-987.38 -1084.50 2081.1
-1025.44 -1138.75 2185.2
-948.64 -1095.84 2102.9
-920.65 -1069.65 2052.6
-937.01 -1094.99 2101.3
-945.10 -1110.90 2131.8
-912.47 -1104.85 2120.2
-913.43 -1119.51 2148.3
-904.01 -1121.64 2152.4
-897.71 -1120.75 2150.7
-873.12 -1096.86 2104.9
-827.39 -1116.14 2141.8
-386.50 -1094.16 2099.7
-270.30 -1155.98 2218.3
-262.62 -1147.53 2202.1
-252.03 -1125.74 2160.3
-246.69 -1126.92 2162.5
-196.52 -1128.57 2165.7
-1249.42 -924.48 1765.3
-1220.70 -906.55 1731.0
-1189.99 -887.00 1693.7
-1166.27 -872.54 1666.1
-1157.89 -869.49 1660.3
-1161.58 -875.52 1671.8
-1152.16 -871.67 1664.4
-1123.47 -853.16 1629.1
-1113.11 -848.49 1620.2
-1102.78 -843.80 1611.2
-1066.12 -818.84 1563.6
-1055.41 -813.71 1553.8
-1075.58 -832.44 1589.5
-1072.55 -833.29 1591.1
-1058.26 -825.36 1576.0
-1075.11 -841.76 1607.3
-1099.47 -864.18 1650.1
-1090.72 -860.65 1643.4
-1068.35 -846.30 1616.0
-1049.60 -834.72 1593.9
-1036.47 -827.53 1580.2
-1050.43 -842.01 1607.8
-1065.78 -857.72 1637.8
-1055.62 -852.94 1628.7
-1047.97 -850.16 1623.4
-1053.21 -857.85 1638.1
-1051.97 -860.32 1642.8
-1057.11 -868.03 1657.5
-1074.93 -886.27 1692.3
-1061.82 -879.04 1678.5
-1042.42 -866.54 1654.6
-1038.17 -866.57 1654.7
-1036.82 -869.04 1659.4
-1065.39 -896.70 1712.2
-1073.04 -906.92 1731.8
-1050.88 -891.93 1703.1
-1052.26 -896.86 1712.5
-1056.45 -904.25 1726.7
-1049.19 -901.86 1722.1
-1034.84 -893.32 1705.8
-1035.18 -897.45 1713.7
-1043.47 -908.54 1734.8
-1051.21 -919.24 1755.3
-1055.60 -927.09 1770.3
-1044.09 -920.99 1758.6
-1046.55 -927.20 1770.5
-1053.11 -937.13 1789.4
-1030.11 -920.72 1758.1
-1021.00 -916.63 1750.3
-1047.15 -944.31 1803.1
-1046.64 -948.08 1810.3
-1033.38 -940.28 1795.4
-1029.68 -941.15 1797.1
-1016.05 -932.92 1781.4
-1025.84 -946.21 1806.8
-1051.20 -974.05 1859.9
-1042.88 -970.79 1853.7
-1019.91 -953.81 1821.3
-1014.35 -953.02 1819.8
-1014.52 -957.63 1828.6
-1019.49 -966.84 1846.2
-1020.87 -972.72 1857.4
-1023.95 -980.28 1871.8
-1034.35 -994.95 1899.8
-1030.35 -995.84 1901.5
-1028.49 -998.83 1907.2
-1020.60 -995.95 1901.7
-998.18 -978.80 1869.0
-1003.16 -988.48 1887.5
-1023.76 -1013.72 1935.7
-1034.43 -1029.33 1965.5
-1039.50 -1039.50 1984.9
-1013.04 -1018.08 1944.0
-978.83 -988.62 1887.7
-966.05 -980.62 1872.5
-951.27 -970.49 1853.1
-951.82 -975.97 1863.6
-959.29 -988.66 1887.8
-948.27 -982.31 1875.7
-937.30 -975.95 1863.5
-947.85 -992.05 1894.3
-970.37 -1020.91 1949.4
-966.13 -1021.77 1951.1
-949.49 -1009.45 1927.5
-960.01 -1026.05 1959.2
-983.09 -1056.30 2017.0
-992.49 -1072.10 2047.1
-976.21 -1060.19 2024.4
-958.47 -1046.55 1998.4
-961.87 -1055.96 2016.3
-967.50 -1067.95 2039.2
-983.05 -1091.08 2083.4
-933.83 -1090.37 2082.0
-940.92 -1105.04 2110.0
-938.74 -1108.93 2117.5
-944.17 -1121.89 2142.2
-904.20 -1120.54 2139.6
-900.02 -1122.25 2142.9
-882.59 -1121.28 2141.1
-878.37 -1122.98 2144.3
-832.88 -1106.85 2113.5
-824.06 -1102.38 2105.0
-832.75 -1128.96 2155.7
-685.71 -1108.11 2115.9
-655.77 -1122.59 2143.6
-654.74 -1130.40 2158.5
-536.13 -1139.97 2176.8
-266.48 -1145.29 2186.9
-252.28 -1132.46 2162.4
-193.34 -1115.87 2130.7
-174.21 -1135.16 2167.6
-138.84 -1121.80 2142.0
-128.55 -1129.03 2155.9
-1283.83 -947.70 1800.7
-1238.44 -917.53 1743.4
-1213.43 -902.29 1714.4
-1191.17 -889.00 1689.2
-1164.26 -872.12 1657.1
-1153.78 -867.47 1648.3
-1158.04 -873.91 1660.5
-1142.87 -865.68 1644.9
-1117.83 -849.89 1614.8
-1098.12 -838.04 1592.3
-1093.54 -837.70 1591.7
-1121.61 -862.45 1638.7
-1121.60 -865.72 1644.9
-1087.04 -842.25 1600.3
-1081.93 -841.50 1598.9
-1082.46 -845.15 1605.9
-1071.21 -839.60 1595.3
-1062.55 -836.04 1588.5
-1061.53 -838.48 1593.2
-1063.02 -842.94 1601.6
-1052.35 -837.75 1591.8
-1042.72 -833.36 1583.4
-1038.65 -833.38 1583.5
-1049.09 -845.10 1605.7
-1061.43 -858.45 1631.1
-1050.79 -853.24 1621.2
-1042.17 -849.64 1614.4
-1043.46 -854.12 1622.9
-1038.80 -853.75 1622.2
-1040.52 -858.64 1631.5
-1054.95 -874.10 1660.9
-1053.14 -876.18 1664.8
-1044.49 -872.56 1657.9
-1048.97 -879.92 1671.9
-1056.30 -889.75 1690.6
-1072.23 -906.93 1723.2
-1064.95 -904.54 1718.7
-1030.37 -878.85 1669.9
-1017.48 -871.51 1655.9
-1039.87 -894.46 1699.5
-1052.59 -909.26 1727.7
-1034.46 -897.41 1705.1
-1031.02 -898.27 1706.8
-1039.32 -909.40 1727.9
-1048.00 -920.97 1749.9
-1064.99 -939.97 1786.0
-1066.01 -944.98 1795.5
-1051.23 -935.97 1778.4
-1041.14 -931.06 1769.1
-1028.78 -924.08 1755.8
-1029.32 -928.67 1764.5
-1043.98 -946.11 1797.7
-1032.09 -939.53 1785.2
-1003.46 -917.58 1743.5
-989.50 -913.04 1734.8
-1016.89 -942.60 1791.0
-1048.96 -976.79 1856.0
-1049.12 -981.43 1864.8
-1018.60 -957.29 1818.9
-1004.63 -948.56 1802.3
-1012.33 -960.29 1824.6
-1023.44 -975.39 1853.3
-1020.43 -977.11 1856.6
-1020.02 -981.34 1864.6
-1033.02 -998.59 1897.4
-1032.05 -1002.42 1904.7
-1005.21 -981.04 1864.0
-974.24 -955.41 1815.3
-978.51 -964.26 1832.2
-1006.12 -996.30 1893.0
-1011.42 -1006.46 1912.3
-1008.61 -1008.61 1916.4
-1017.56 -1022.60 1943.0
-997.08 -1007.00 1913.4
-974.63 -989.25 1879.6
-971.84 -991.38 1883.7
-959.11 -983.33 1868.4
-960.03 -989.27 1879.7
-958.85 -993.10 1887.0
-940.08 -978.64 1859.5
-927.52 -970.54 1844.1
-934.45 -982.87 1867.5
-954.59 -1009.28 1917.7
-951.22 -1010.98 1920.9
-947.44 -1012.26 1923.4
-968.30 -1040.03 1976.1
-963.99 -1040.90 1977.8
-945.46 -1026.36 1950.2
-952.96 -1040.06 1976.2
-963.08 -1056.78 2008.0
-959.83 -1058.94 2012.1
-959.27 -1064.10 2021.9
-970.66 -1088.64 2068.5
-952.34 -1074.02 2040.7
-955.41 -1083.51 2058.7
-890.15 -1143.67 2173.1
-873.98 -1130.05 2147.2
-843.24 -1133.63 2154.0
-787.43 -1117.82 2123.9
-786.79 -1124.78 2137.2
-776.24 -1117.56 2123.4
-766.35 -1111.21 2111.4
-641.44 -1142.21 2170.3
-605.84 -1138.75 2163.7
-571.24 -1136.88 2160.1
-298.40 -1164.92 2213.4
-287.40 -1143.95 2173.6
-157.45 -1141.49 2168.9
-148.88 -1119.34 2126.8
-137.72 -1118.25 2124.8
-1272.28 -940.38 1778.0
-1252.99 -929.49 1757.4
-1236.43 -920.55 1740.5
-1215.68 -908.42 1717.6
-1196.61 -897.45 1696.9
-1166.52 -878.12 1660.3
-1151.84 -870.28 1645.5
-1148.22 -870.77 1646.4
-1127.85 -858.52 1623.2
-1104.96 -844.24 1596.3
-1086.33 -833.12 1575.2
-1069.33 -823.18 1556.4
-1084.50 -838.02 1584.5
-1110.91 -861.69 1629.3
-1101.11 -857.36 1621.1
-1073.38 -838.96 1586.3
-1050.38 -824.15 1558.3
-1050.97 -827.79 1565.2
-1055.09 -834.26 1577.4
-1047.49 -831.47 1572.1
-1043.45 -831.50 1572.2
-1045.46 -836.36 1581.4
-1048.93 -842.45 1592.9
-1040.33 -838.84 1586.0
-1044.75 -845.75 1599.1
-1066.07 -866.45 1638.2
-1064.86 -868.93 1642.9
-1047.27 -858.01 1622.3
-1039.65 -855.20 1617.0
-1035.49 -855.22 1617.0
-1038.21 -860.95 1627.8
-1057.52 -880.55 1664.9
-1061.55 -887.53 1678.1
-1046.56 -878.59 1661.2
-1045.21 -881.08 1665.9
-1047.70 -886.85 1676.8
-1056.41 -897.95 1697.8
-1069.84 -913.17 1726.6
-1053.94 -903.38 1708.1
-1026.66 -883.71 1670.9
-1034.73 -894.43 1691.1
-1055.04 -915.86 1731.7
-1046.36 -912.21 1724.8
-1028.28 -900.29 1702.2
-1022.96 -899.50 1700.7
-1028.88 -908.62 1718.0
-1042.64 -924.78 1748.5
-1050.24 -935.59 1769.0
-1041.55 -931.91 1762.0
-1031.96 -927.40 1753.5
-1020.09 -920.79 1741.0
-1004.61 -910.85 1722.2
-1002.00 -912.53 1725.4
-1017.11 -930.45 1759.3
-1016.21 -933.81 1765.6
-1011.21 -933.43 1764.9
-1028.28 -953.49 1802.8
-1036.65 -965.65 1825.8
-1049.41 -982.01 1856.7
-1050.89 -987.93 1867.9
-1020.83 -964.12 1822.9
-1004.65 -953.25 1802.4
-1009.25 -962.09 1819.1
-1014.66 -971.79 1837.4
-1007.75 -969.72 1833.5
-1009.56 -976.06 1845.5
-1023.89 -994.63 1880.6
-1029.43 -1004.80 1899.8
-1009.92 -990.50 1872.8
-987.10 -972.80 1839.3
-997.72 -988.03 1868.1
-1004.39 -999.49 1889.8
-991.90 -991.90 1875.4
-970.18 -974.96 1843.4
-960.37 -969.88 1833.8
-974.02 -988.56 1869.1
-986.68 -1006.42 1902.9
-988.83 -1013.67 1916.6
-980.99 -1010.72 1911.0
-969.06 -1003.49 1897.4
-953.08 -991.98 1875.6
-934.75 -977.89 1849.0
-923.44 -971.04 1836.0
-923.10 -975.71 1844.8
-933.59 -991.94 1875.5
-948.36 -1012.91 1915.2
-964.15 -1035.19 1957.3
-966.64 -1043.35 1972.7
-944.52 -1024.90 1937.8
-930.43 -1015.01 1919.1
-940.34 -1031.34 1950.0
-955.57 -1053.71 1992.3
-959.73 -1064.05 2011.9
-952.21 -1061.48 2007.0
-953.17 -1068.38 2020.1
-945.25 -1065.36 2014.3
-919.05 -1041.59 1969.4
-930.62 -1060.60 2005.3
-962.43 -1103.01 2085.5
-876.54 -1138.94 2153.5
-838.81 -1118.42 2114.7
-827.35 -1110.39 2099.5
-837.20 -1131.06 2138.6
-768.41 -1111.74 2102.0
-773.55 -1127.18 2131.2
-659.72 -1103.13 2085.8
-662.18 -1116.40 2110.8
-671.41 -1141.40 2158.1
-624.11 -1116.84 2111.7
-629.01 -1135.56 2147.1
-553.16 -1139.85 2155.2
-391.06 -1108.02 2095.0
-385.93 -1108.88 2096.6
-264.20 -1146.75 2168.2
-259.48 -1150.75 2175.8
-184.84 -1142.64 2160.5
-168.88 -1111.31 2101.2
-153.24 -1116.49 2111.0
-111.13 -1133.50 2143.2
-1276.11 -947.84 1783.4
-1249.36 -931.34 1752.3
-1251.42 -936.28 1761.6
-1246.54 -936.05 1761.2
-1208.90 -911.12 1714.3
-1163.51 -880.15 1656.0
-1137.27 -863.49 1624.7
-1121.64 -854.78 1608.3
-1109.19 -848.45 1596.4
-1093.14 -839.31 1579.2
-1076.12 -829.34 1560.4
-1059.68 -819.75 1542.4
-1052.61 -817.37 1537.9
-1059.49 -825.83 1553.8
-1071.44 -838.34 1577.4
-1064.33 -835.96 1572.9
-1033.18 -814.63 1532.7
-1042.05 -827.98 1557.9
-1048.18 -836.09 1573.1
-1056.77 -846.24 1592.2
-1071.34 -861.27 1620.5
-1075.24 -867.81 1632.8
-1066.06 -863.80 1625.3
-1057.90 -860.59 1619.2
-1065.71 -870.40 1637.7
-1069.46 -876.96 1650.0
-1057.32 -870.49 1637.8
-1049.67 -867.67 1632.6
-1044.99 -867.30 1631.8
-1048.16 -873.46 1643.4
-1069.38 -894.78 1683.6
-1072.39 -900.98 1695.2
-1056.40 -891.20 1676.8
-1052.59 -891.65 1677.7
-1051.67 -894.57 1683.2
-1065.17 -909.84 1711.9
-1082.88 -928.83 1747.6
-1060.73 -913.65 1719.1
-1026.76 -888.13 1671.0
-1020.56 -886.50 1668.0
-1026.68 -895.62 1685.1
-1034.62 -906.40 1705.4
-1032.60 -908.51 1709.4
-1022.10 -903.15 1699.3
-1021.94 -906.91 1706.4
-1046.43 -932.69 1754.9
-1063.76 -952.27 1791.7
-1049.00 -943.18 1774.6
-1032.93 -932.82 1755.1
-1026.13 -930.78 1751.3
-1014.75 -924.55 1739.6
-1010.73 -925.00 1740.4
-1023.52 -940.90 1770.3
-1028.03 -949.31 1786.2
-1028.86 -954.37 1795.7
-1046.29 -974.95 1834.4
-1055.94 -988.43 1859.8
-1037.34 -975.48 1835.4
-1009.06 -953.26 1793.6
-1017.73 -965.90 1817.4
-1040.00 -991.62 1865.8
-1025.10 -981.99 1847.6
-1011.15 -973.17 1831.1
-999.89 -966.87 1819.2
-997.80 -969.43 1824.0
-1008.26 -984.26 1851.9
-1010.40 -991.06 1864.7
-1014.20 -999.57 1880.7
-1014.07 -1004.28 1889.6
-1002.39 -997.52 1876.9
-988.21 -988.21 1859.3
-987.64 -992.48 1867.4
-978.60 -988.24 1859.4
-955.74 -969.94 1825.0
-956.02 -975.05 1834.6
-968.33 -992.53 1867.5
-970.54 -999.80 1881.2
-973.10 -1007.50 1895.6
-971.89 -1011.36 1902.9
-967.38 -1011.80 1903.7
-960.41 -1009.66 1899.7
-946.96 -1000.66 1882.8
-943.69 -1002.37 1886.0
-956.09 -1020.83 1920.7
-971.95 -1043.19 1962.8
-959.29 -1035.03 1947.4
-930.42 -1009.19 1898.8
-931.01 -1015.20 1910.1
-941.00 -1031.57 1940.9
-937.52 -1033.29 1944.2
-937.15 -1038.46 1953.9
-949.54 -1057.92 1990.5
-950.95 -1065.27 2004.3
-934.22 -1052.28 1979.9
-907.25 -1027.55 1933.4
-901.06 -1026.21 1930.9
-926.74 -1061.35 1997.0
-946.07 -1089.58 2050.1
-945.64 -1095.23 2060.7
-936.19 -1090.45 2051.7
-931.98 -1091.74 2054.2
-842.31 -1128.58 2123.5
-830.17 -1119.64 2106.6
-837.05 -1136.40 2138.2
-830.80 -1135.42 2136.3
-796.19 -1133.46 2132.6
-752.65 -1126.23 2119.0
-667.13 -1121.00 2109.2
-655.38 -1110.35 2089.2
-643.98 -1128.35 2123.0
-645.77 -1141.24 2147.3
-636.87 -1145.25 2154.8
-607.10 -1121.23 2109.6
-589.49 -1118.94 2105.3
-424.42 -1144.82 2154.0
-400.74 -1140.99 2146.8
-393.71 -1136.78 2138.9
-267.99 -1168.89 2199.3
-261.20 -1164.03 2190.2
-216.90 -1140.12 2145.2
-167.67 -1145.71 2155.7
-157.66 -1114.52 2097.0
-1287.41 -960.89 1799.2
-1244.14 -931.97 1745.0
-1230.27 -924.95 1731.9
-1214.33 -916.31 1715.7
-1168.87 -885.25 1657.5
-1132.58 -860.93 1612.0
-1113.27 -849.38 1590.4
-1090.37 -835.01 1563.5
-1072.27 -824.21 1543.2
-1078.74 -832.29 1558.4
-1082.55 -838.36 1569.8
-1069.21 -831.16 1556.3
-1064.18 -830.39 1554.8
-1062.26 -832.03 1557.9
-1067.00 -838.94 1570.8
-1071.17 -845.44 1583.0
-1049.23 -831.31 1556.5
-1031.97 -820.80 1536.9
-1038.17 -828.92 1552.1
-1043.28 -836.25 1565.8
-1050.87 -845.62 1583.3
-1060.41 -856.64 1604.0
-1059.31 -859.12 1608.6
-1062.69 -865.28 1620.1
-1067.03 -872.26 1633.2
-1060.86 -870.67 1630.2
-1051.23 -866.21 1621.9
-1050.53 -869.11 1627.3
-1054.74 -876.11 1640.4
-1051.51 -876.97 1642.0
-1057.11 -885.22 1657.5
-1072.90 -902.11 1689.1
-1069.07 -902.58 1690.0
-1053.10 -892.75 1671.6
-1049.30 -893.21 1672.4
-1044.53 -892.83 1671.7
-1053.71 -904.43 1693.5
-1081.02 -931.76 1744.6
-1068.45 -924.79 1731.6
-1041.16 -904.97 1694.5
-1041.56 -909.16 1702.3
-1037.66 -909.61 1703.2
-1033.76 -910.06 1704.0
-1037.84 -917.58 1718.1
-1032.96 -917.20 1717.4
-1034.16 -922.23 1726.8
-1058.12 -947.70 1774.5
-1078.63 -970.30 1816.8
-1066.15 -963.27 1803.6
-1041.73 -945.36 1770.1
-1027.09 -936.20 1752.9
-1014.35 -928.69 1738.9
-1008.50 -927.46 1736.6
-1017.65 -940.07 1760.2
-1017.64 -944.30 1768.1
-1017.15 -948.11 1775.2
-1034.15 -968.34 1813.1
-1038.91 -977.24 1829.8
-1017.26 -961.27 1799.9
-1001.96 -951.17 1781.0
-1023.50 -976.11 1827.7
-1045.27 -1001.52 1875.2
-1029.92 -991.42 1856.3
-1011.58 -978.34 1831.8
-996.40 -968.20 1812.9
-991.72 -968.22 1812.9
-1000.46 -981.40 1837.6
-988.39 -974.20 1824.1
-978.09 -968.68 1813.8
-980.24 -975.50 1826.5
-970.82 -970.82 1817.8
-973.33 -978.08 1831.4
-988.46 -998.15 1868.9
-1003.00 -1017.82 1905.8
-1003.96 -1023.84 1917.0
-982.74 -1007.18 1885.8
-972.87 -1002.06 1876.3
-964.29 -998.21 1869.0
-956.56 -995.20 1863.4
-955.01 -998.64 1869.8
-950.97 -999.49 1871.4
-949.37 -1002.92 1877.9
-941.65 -999.90 1872.2
-940.82 -1004.19 1880.3
-955.63 -1025.31 1919.8
-964.26 -1039.99 1947.3
-944.48 -1024.01 1917.4
-925.61 -1008.87 1889.0
-935.30 -1024.85 1918.9
-952.72 -1049.53 1965.1
-958.20 -1061.23 1987.0
-948.76 -1056.46 1978.1
-949.84 -1063.41 1991.1
-949.70 -1069.06 2001.7
-934.13 -1057.31 1979.7
-935.87 -1065.13 1994.4
-957.71 -1096.05 2052.2
-947.86 -1090.83 2042.5
-928.99 -1075.12 2013.1
-928.63 -1080.78 2023.7
-920.76 -1077.71 2017.9
-905.48 -1065.87 1995.7
-909.51 -1076.78 2016.2
-834.63 -1131.14 2117.9
-837.23 -1142.18 2138.6
-824.81 -1132.74 2120.9
-612.11 -1125.85 2108.0
-598.67 -1121.14 2099.2
-604.19 -1141.86 2138.0
-572.21 -1133.41 2122.2
-573.18 -1146.37 2146.5
-363.79 -1118.52 2094.3
-299.97 -1165.91 2183.1
-292.14 -1157.34 2167.0
-275.50 -1158.24 2168.7
-274.86 -1179.61 2208.7
-267.17 -1171.00 2192.6
-264.06 -1182.52 2214.2
-159.21 -1130.97 2117.6
-142.21 -1126.76 2109.7
-1304.32 -971.20 1809.7
-1269.42 -948.63 1767.6
-1266.15 -949.61 1769.5
-1255.41 -944.98 1760.8
-1225.61 -925.91 1725.3
-1196.46 -907.20 1690.4
-1170.07 -890.46 1659.2
-1150.65 -878.91 1637.7
-1116.60 -856.06 1595.1
-1081.14 -831.96 1550.2
-1081.87 -835.63 1557.1
-1104.97 -856.66 1596.3
-1087.41 -846.22 1576.8
-1054.90 -824.02 1535.4
-1061.79 -832.54 1551.3
-1070.69 -842.71 1570.3
-1070.26 -845.58 1575.6
-1069.29 -848.06 1580.2
-1053.50 -838.75 1562.9
-1040.32 -831.45 1549.3
-1045.46 -838.80 1563.0
-1050.04 -845.75 1575.9
-1037.41 -838.84 1563.1
-1026.83 -833.55 1553.2
-1025.33 -835.60 1557.0
-1028.81 -841.75 1568.5
-1047.21 -860.21 1602.9
-1055.03 -870.08 1621.3
-1045.91 -866.01 1613.7
-1046.21 -869.74 1620.6
-1051.90 -878.00 1636.0
-1049.67 -879.68 1639.2
-1047.42 -881.37 1642.3
-1056.39 -892.54 1663.1
-1059.43 -898.78 1674.7
-1051.75 -895.93 1669.4
-1048.92 -897.21 1671.8
-1045.11 -897.67 1672.7
-1045.14 -901.44 1679.7
-1063.35 -920.98 1716.1
-1072.82 -933.08 1738.7
-1066.00 -931.06 1734.9
-1063.47 -932.79 1738.1
-1056.19 -930.34 1733.6
-1044.68 -924.14 1722.0
-1041.67 -925.43 1724.4
-1036.78 -925.06 1723.7
-1037.95 -930.11 1733.1
-1046.99 -942.29 1755.8
-1050.37 -949.46 1769.2
-1069.40 -970.90 1809.1
-1076.29 -981.46 1828.8
-1045.48 -957.59 1784.3
-1017.60 -936.19 1744.5
-1008.55 -932.01 1736.7
-1015.42 -942.56 1756.3
-1029.89 -960.30 1789.4
-1044.67 -978.49 1823.3
-1043.59 -981.93 1829.7
-1031.30 -974.79 1816.4
-1023.07 -971.45 1810.2
-1020.19 -973.18 1813.4
-1026.15 -983.39 1832.4
-1032.02 -993.62 1851.5
-1002.24 -969.45 1806.4
-981.58 -958.43 1785.9
-1002.14 -983.14 1831.9
-1018.61 -1004.06 1870.9
-1013.37 -1003.67 1870.2
-983.24 -978.51 1823.3
-966.55 -966.55 1801.0
-963.58 -968.26 1804.2
-971.62 -981.10 1828.1
-983.78 -998.25 1860.1
-997.06 -1016.71 1894.5
-1000.97 -1025.75 1911.3
-983.53 -1012.89 1887.4
-964.11 -997.85 1859.4
-946.87 -984.94 1835.3
-941.69 -984.49 1834.5
-943.07 -990.94 1846.5
-943.99 -996.97 1857.7
-946.48 -1004.73 1872.2
-945.67 -1009.04 1880.2
-952.88 -1022.00 1904.4
-955.17 -1029.79 1918.9
-950.19 -1029.79 1918.9
-937.65 -1021.54 1903.5
-927.54 -1015.88 1892.9
-928.14 -1021.94 1904.2
-934.96 -1034.96 1928.5
-947.94 -1054.96 1965.8
-947.90 -1060.62 1976.3
-945.09 -1063.23 1981.2
-941.50 -1064.97 1984.4
-931.74 -1059.72 1974.6
-938.06 -1072.81 1999.0
-958.35 -1102.11 2053.6
-952.28 -1101.24 2052.0
-933.03 -1085.03 2021.8
-929.65 -1087.21 2025.9
-931.47 -1095.53 2041.4
-927.65 -1097.28 2044.6
-911.99 -1084.96 2021.7
-918.12 -1098.56 2047.0
-911.10 -1102.91 2055.1
-897.06 -1092.30 2035.3
-830.87 -1131.52 2108.4
-804.79 -1103.26 2055.8
-814.29 -1123.72 2093.9
-832.95 -1157.18 2156.2
-820.36 -1155.20 2152.5
-666.87 -1131.50 2108.4
-615.12 -1126.80 2099.6
-611.00 -1129.26 2104.2
-614.23 -1145.46 2134.4
-591.89 -1134.45 2113.9
-579.15 -1141.76 2127.5
-569.62 -1144.77 2133.1
-400.21 -1134.83 2114.6
-390.16 -1121.72 2090.2
-299.89 -1171.27 2182.5
-294.43 -1172.05 2183.9
-281.90 -1144.18 2132.0
-276.33 -1144.01 2131.7
-266.14 -1172.14 2184.1
-205.67 -1150.65 2144.1
-191.44 -1132.23 2109.7
-153.71 -1136.36 2117.4
-1302.36 -970.93 1800.5
-1261.00 -943.48 1749.6
-1235.32 -927.60 1720.1
-1237.99 -932.98 1730.1
-1222.55 -924.69 1714.7
-1192.31 -905.11 1678.4
-1182.84 -901.21 1671.2
-1173.91 -897.69 1664.7
-1149.75 -882.46 1636.4
-1112.06 -856.69 1588.7
-1099.65 -850.29 1576.8
-1119.11 -868.56 1610.7
-1116.07 -869.44 1612.3
-1075.13 -840.71 1559.0
-1051.48 -825.31 1530.5
-1065.60 -839.56 1556.9
-1082.70 -856.28 1587.9
-1090.44 -865.70 1605.3
-1082.77 -862.90 1600.2
-1060.82 -848.66 1573.7
-1050.17 -843.38 1564.0
-1058.32 -853.22 1582.2
-1059.82 -857.75 1590.6
-1044.64 -848.77 1574.0
-1046.12 -853.31 1582.4
-1057.60 -866.06 1606.0
-1041.97 -856.64 1588.6
-1041.37 -859.55 1593.9
-1060.63 -878.93 1629.9
-1062.40 -883.92 1639.1
-1054.74 -881.07 1633.8
-1051.53 -881.93 1635.5
-1040.95 -876.59 1625.5
-1031.88 -872.48 1617.9
-1042.34 -884.93 1641.0
-1047.86 -893.25 1656.4
-1038.27 -888.72 1648.0
-1033.06 -887.92 1646.6
-1037.01 -895.02 1659.7
-1044.75 -905.45 1679.1
-1061.51 -923.82 1713.1
-1068.58 -933.89 1731.8
-1063.68 -933.53 1731.1
-1063.05 -936.92 1737.4
-1058.13 -936.56 1736.8
-1049.45 -932.85 1729.9
-1045.49 -933.31 1730.7
-1041.05 -933.35 1730.8
-1042.67 -938.85 1741.0
-1050.28 -949.82 1761.3
-1058.28 -961.23 1782.5
-1080.49 -985.71 1827.9
-1089.63 -998.43 1851.5
-1060.63 -976.16 1810.2
-1040.02 -961.44 1782.9
-1039.54 -965.29 1790.0
-1042.21 -972.11 1802.7
-1053.41 -986.97 1830.2
-1055.03 -992.97 1841.4
-1040.90 -984.12 1824.9
-1045.61 -993.09 1841.6
-1053.36 -1005.04 1863.7
-1044.60 -1001.28 1856.8
-1044.27 -1005.59 1864.8
-1054.47 -1020.14 1891.7
-1030.32 -1001.44 1857.1
-984.46 -961.35 1782.7
-980.72 -962.22 1784.3
-983.04 -969.06 1797.0
-981.41 -972.07 1802.6
-1003.87 -999.06 1852.7
-1000.38 -1000.38 1855.1
-971.25 -975.94 1809.8
-957.20 -966.49 1792.3
-963.98 -978.09 1813.8
-974.04 -993.14 1841.7
-973.06 -997.02 1848.9
-963.66 -992.29 1840.1
-955.14 -988.40 1832.9
-945.39 -983.21 1823.3
-941.06 -983.62 1824.0
-948.67 -996.58 1848.0
-951.24 -1004.36 1862.5
-952.53 -1010.84 1874.5
-949.69 -1013.00 1878.5
-942.79 -1010.82 1874.5
-939.93 -1012.98 1878.5
-931.03 -1008.61 1870.4
-942.94 -1026.86 1904.2
-948.73 -1038.61 1926.0
-931.05 -1024.65 1900.1
-922.95 -1021.14 1893.6
-916.05 -1018.93 1889.5
-912.69 -1020.64 1892.7
-915.91 -1029.78 1909.6
-917.13 -1036.75 1922.5
-923.67 -1049.86 1946.9
-924.74 -1056.85 1959.8
-926.13 -1064.28 1973.6
-939.23 -1085.33 2012.6
-926.44 -1076.53 1996.3
-902.43 -1054.52 1955.5
-918.67 -1079.57 2001.9
-939.92 -1110.81 2059.9
-933.46 -1109.48 2057.4
-917.05 -1096.24 2032.9
-911.02 -1095.33 2031.2
-913.76 -1105.02 2049.1
-902.98 -1098.36 2036.8
-903.81 -1105.84 2050.7
-841.83 -1108.23 2055.1
-855.32 -1133.17 2101.3
-806.15 -1103.15 2045.7
-806.30 -1110.66 2059.6
-793.54 -1154.24 2140.4
-767.56 -1124.31 2084.9
-771.85 -1138.62 2111.4
-653.91 -1162.50 2155.7
-647.66 -1161.33 2153.6
-634.44 -1157.58 2146.6
-615.74 -1133.40 2101.8
-616.57 -1145.06 2123.4
-297.89 -1169.07 2167.9
-296.24 -1184.94 2197.4
-178.94 -1163.10 2156.9
-171.75 -1152.40 2137.0
-132.88 -1151.66 2135.6
-1294.91 -970.02 1790.2
-1287.32 -967.81 1786.1
-1287.22 -971.22 1792.4
-1237.03 -936.73 1728.8
-1177.51 -894.91 1651.6
-1149.53 -876.83 1618.2
-1141.76 -874.09 1613.2
-1142.43 -877.82 1620.0
-1127.30 -869.39 1604.5
-1100.70 -852.02 1572.4
-1097.74 -852.89 1574.0
-1099.98 -857.82 1583.1
-1082.95 -847.70 1564.5
-1075.84 -845.30 1560.0
-1082.18 -853.49 1575.1
-1081.25 -855.99 1579.7
-1084.92 -862.16 1591.1
-1080.34 -861.80 1590.5
-1060.43 -849.15 1567.1
-1058.95 -851.23 1571.0
-1069.15 -862.75 1592.2
-1066.59 -864.02 1594.6
-1056.94 -859.54 1586.3
-1052.37 -859.16 1585.6
-1063.87 -871.96 1609.2
-1070.77 -881.06 1626.0
-1052.12 -869.14 1604.0
-1042.52 -864.63 1595.7
-1053.31 -877.06 1618.6
-1071.43 -895.72 1653.1
-1080.04 -906.54 1673.0
-1067.89 -899.96 1660.9
-1049.91 -888.38 1639.5
-1029.07 -874.29 1613.5
-1028.81 -877.64 1619.7
-1049.90 -899.30 1659.7
-1056.30 -908.51 1676.7
-1048.63 -905.63 1671.4
-1049.63 -910.26 1679.9
-1050.12 -914.48 1687.7
-1059.67 -926.65 1710.2
-1062.92 -933.40 1722.6
-1054.23 -929.68 1715.8
-1055.52 -934.76 1725.1
-1052.99 -936.49 1728.3
-1044.80 -933.18 1722.2
-1040.38 -933.22 1722.3
-1041.10 -937.89 1730.9
-1047.37 -947.62 1748.9
-1054.03 -957.80 1767.6
-1061.08 -968.41 1787.2
-1054.20 -966.35 1783.4
-1032.64 -950.75 1754.6
-1030.42 -952.91 1758.6
-1038.22 -964.39 1779.8
-1039.56 -969.95 1790.1
-1044.48 -978.91 1806.6
-1057.46 -995.54 1837.3
-1060.41 -1002.83 1850.8
-1052.10 -999.49 1844.6
-1063.46 -1014.90 1873.0
-1066.24 -1022.22 1886.5
-1051.67 -1012.90 1869.3
-1038.50 -1004.84 1854.5
-1035.50 -1006.60 1857.7
-1042.57 -1018.21 1879.1
-1027.71 -1008.41 1861.1
-1011.62 -997.31 1840.6
-999.95 -990.47 1827.9
-981.84 -977.17 1803.4
-987.50 -987.50 1822.4
-1002.49 -1007.31 1859.0
-990.87 -1000.44 1846.3
-967.40 -981.49 1811.4
-965.24 -984.07 1816.1
-966.01 -989.68 1826.5
-955.39 -983.63 1815.3
-954.44 -987.51 1822.5
-954.28 -992.26 1831.2
-954.91 -997.89 1841.6
-961.70 -1010.02 1864.0
-956.45 -1009.59 1863.2
-946.70 -1004.36 1853.6
-945.55 -1008.26 1860.8
-939.08 -1006.51 1857.5
-924.95 -996.46 1839.0
-915.32 -991.20 1829.3
-918.96 -1000.32 1846.1
-942.08 -1030.86 1902.5
-947.86 -1042.65 1924.2
-930.99 -1029.51 1900.0
-924.47 -1027.74 1896.7
-919.53 -1027.71 1896.7
-922.00 -1036.01 1912.0
-930.61 -1051.34 1940.3
-914.73 -1039.02 1917.5
-903.19 -1031.51 1903.7
-921.20 -1057.86 1952.3
-939.00 -1084.26 2001.0
-947.09 -1099.67 2029.5
-930.87 -1086.88 2005.9
-895.57 -1051.54 1940.7
-896.86 -1059.01 1954.4
-923.40 -1096.54 2023.7
-924.81 -1104.48 2038.3
-909.55 -1092.51 2016.2
-903.19 -1091.14 2013.7
-891.37 -1083.12 1998.9
-867.99 -1060.87 1957.9
-872.97 -1073.24 1980.7
-893.66 -1105.18 2039.6
-882.26 -1097.57 2025.6
-860.24 -1076.59 1986.9
-850.43 -1070.72 1976.0
-854.04 -1081.78 1996.5
-880.31 -1121.86 2070.4
-865.15 -1137.21 2098.8
-848.14 -1121.91 2070.5
-789.66 -1146.10 2115.2
-643.97 -1150.34 2123.0
-634.74 -1143.62 2110.6
-635.20 -1154.40 2130.5
-632.04 -1158.73 2138.5
-628.83 -1163.06 2146.5
-607.65 -1165.13 2150.3
-405.62 -1130.32 2086.0
-373.83 -1132.32 2089.7
-262.80 -1168.61 2156.7
-261.13 -1186.42 2189.6
-245.40 -1165.64 2151.2
-175.33 -1145.10 2113.3
-173.33 -1168.58 2156.6
-144.30 -1159.93 2140.7
-132.69 -1155.47 2132.4
-1310.65 -982.99 1805.5
-1262.81 -950.50 1745.8
-1255.30 -948.25 1741.7
-1271.28 -963.78 1770.2
-1236.06 -940.48 1727.4
-1189.33 -908.21 1668.1
-1169.81 -896.57 1646.8
-1146.67 -882.05 1620.1
-1133.10 -874.82 1606.8
-1136.39 -880.60 1617.4
-1127.59 -877.01 1610.8
-1099.48 -858.33 1576.5
-1080.88 -846.96 1555.6
-1087.80 -855.58 1571.5
-1101.92 -869.94 1597.8
-1109.74 -879.41 1615.2
-1112.33 -884.81 1625.2
-1098.95 -877.49 1611.7
-1076.92 -863.18 1585.4
-1065.71 -857.46 1574.9
-1073.89 -867.37 1593.1
-1072.35 -869.48 1597.0
-1057.63 -860.86 1581.2
-1074.27 -877.81 1612.3
-1095.83 -898.92 1651.1
-1078.07 -887.82 1630.7
-1054.37 -871.73 1601.1
-1045.77 -868.03 1594.3
-1047.14 -872.62 1602.8
-1052.44 -880.53 1617.3
-1065.11 -894.69 1643.3
-1071.75 -903.89 1660.2
-1058.16 -896.03 1645.8
-1058.36 -899.82 1652.7
-1057.54 -902.78 1658.2
-1048.42 -898.64 1650.6
-1060.20 -912.47 1676.0
-1073.34 -927.58 1703.7
-1071.40 -929.73 1707.7
-1065.59 -928.53 1705.5
-1061.23 -928.58 1705.6
-1068.34 -938.71 1724.2
-1069.65 -943.81 1733.5
-1047.65 -928.30 1705.0
-1035.23 -921.18 1692.0
-1041.73 -930.90 1709.8
-1043.45 -936.43 1720.0
-1038.56 -936.04 1719.3
-1037.41 -939.04 1724.8
-1038.57 -944.15 1734.2
-1039.22 -948.85 1742.8
-1048.15 -961.19 1765.4
-1043.16 -960.81 1764.8
-1024.86 -948.11 1741.4
-1025.41 -952.82 1750.1
-1040.51 -971.15 1783.7
-1050.02 -984.40 1808.1
-1032.26 -972.09 1785.5
-1022.26 -967.00 1776.1
-1051.40 -999.07 1835.0
-1070.44 -1021.79 1876.8
-1060.75 -1017.16 1868.2
-1043.08 -1004.80 1845.6
-1021.52 -988.56 1815.7
-1001.84 -974.01 1789.0
-1007.77 -984.34 1808.0
-1024.57 -1005.42 1846.7
-1028.99 -1014.50 1863.4
-1031.60 -1021.86 1876.9
-1025.91 -1021.05 1875.4
-1012.47 -1012.47 1859.6
-1006.39 -1011.20 1857.3
-1008.88 -1018.58 1870.9
-1001.93 -1016.45 1866.9
-982.25 -1001.32 1839.2
-973.26 -997.00 1831.2
-967.25 -995.70 1828.8
-956.63 -989.62 1817.7
-955.25 -993.08 1824.0
-957.58 -1000.46 1837.6
-961.52 -1009.59 1854.4
-974.45 -1028.31 1888.7
-975.73 -1034.86 1900.8
-947.89 -1010.44 1855.9
-930.02 -996.45 1830.2
-932.14 -1003.85 1843.8
-926.93 -1003.38 1842.9
-919.31 -1000.29 1837.3
-924.53 -1011.20 1857.3
-939.62 -1033.09 1897.5
-937.86 -1036.58 1903.9
-933.70 -1037.44 1905.5
-939.76 -1049.73 1928.1
-929.26 -1043.55 1916.7
-925.83 -1045.29 1919.9
-945.28 -1073.02 1970.9
-941.71 -1074.78 1974.1
-907.73 -1041.66 1913.3
-901.21 -1039.85 1909.9
-924.79 -1072.96 1970.7
-937.48 -1093.73 2008.9
-936.04 -1098.15 2017.0
-917.28 -1082.18 1987.7
-898.27 -1065.74 1957.5
-900.96 -1075.01 1974.5
-905.80 -1086.96 1996.5
-893.59 -1078.48 1980.9
-881.82 -1070.42 1966.1
-863.18 -1053.88 1935.7
-855.92 -1051.13 1930.6
-875.03 -1080.92 1985.4
-883.12 -1097.37 2015.6
-862.84 -1078.56 1981.0
-846.99 -1065.07 1956.3
-842.90 -1066.32 1958.6
-836.70 -1064.89 1955.9
-846.59 -1084.05 1991.1
-846.58 -1090.68 2003.3
-840.62 -1089.70 2001.5
-852.75 -1126.27 2068.7
-856.13 -1137.89 2090.0
-823.38 -1115.55 2049.0
-850.09 -1159.21 2129.2
-775.41 -1115.32 2048.5
-754.31 -1156.25 2123.7
-641.77 -1151.90 2115.7
-632.02 -1154.12 2119.8
-622.71 -1157.25 2125.6
-590.41 -1137.48 2089.2
-590.79 -1148.76 2110.0
-594.63 -1167.02 2143.5
-548.44 -1163.36 2136.8
-440.86 -1157.25 2125.6
-402.16 -1126.04 2068.2
-408.08 -1158.06 2127.0
-377.16 -1147.87 2108.3
-265.54 -1161.73 2133.8
-243.44 -1161.87 2134.0
-232.67 -1163.34 2136.7
-1308.02 -985.69 1801.9
-1263.44 -955.50 1746.7
-1224.40 -929.31 1698.8
-1213.78 -924.58 1690.2
-1204.79 -921.05 1683.7
-1180.97 -906.13 1656.4
-1184.76 -912.35 1667.8
-1182.17 -913.69 1670.3
-1152.20 -893.81 1633.9
-1139.69 -887.36 1622.1
-1134.02 -886.22 1620.0
-1112.18 -872.38 1594.7
-1095.63 -862.61 1576.9
-1103.03 -871.68 1593.5
-1102.08 -874.20 1598.1
-1095.94 -872.62 1595.2
-1099.08 -878.43 1605.8
-1087.29 -872.31 1594.6
-1081.17 -870.71 1591.7
-1086.80 -878.60 1606.1
-1085.24 -880.72 1610.0
-1074.02 -874.98 1599.5
-1056.26 -863.84 1579.1
-1068.86 -877.54 1604.2
-1092.42 -900.39 1645.9
-1075.18 -889.66 1626.3
-1056.01 -877.24 1603.6
-1051.90 -877.27 1603.7
-1052.75 -881.47 1611.3
-1057.03 -888.58 1624.4
-1051.38 -887.37 1622.1
-1038.84 -880.30 1609.2
-1037.64 -882.83 1613.8
-1050.62 -897.49 1640.6
-1061.06 -910.09 1663.7
-1063.12 -915.59 1673.7
-1053.01 -910.60 1664.6
-1044.87 -907.27 1658.5
-1049.29 -914.87 1672.4
-1050.28 -919.54 1680.9
-1038.30 -912.84 1668.7
-1039.74 -917.93 1678.0
-1052.09 -932.73 1705.1
-1041.54 -927.28 1695.1
-1031.04 -921.82 1685.1
-1039.90 -933.70 1706.8
-1042.09 -939.66 1717.7
-1038.15 -940.12 1718.6
-1036.06 -942.28 1722.5
-1035.36 -945.72 1728.8
-1037.40 -951.70 1739.7
-1047.25 -964.94 1763.9
-1062.06 -982.88 1796.7
-1063.44 -988.48 1807.0
-1040.99 -971.89 1776.7
-1031.42 -967.24 1768.1
-1052.75 -991.65 1812.8
-1046.75 -990.42 1810.5
-1029.04 -978.05 1787.9
-1050.04 -1002.53 1832.6
-1051.16 -1008.16 1843.0
-1024.15 -986.74 1803.8
-1020.84 -988.07 1806.2
-1013.98 -985.95 1802.3
-997.43 -974.34 1781.1
-1007.33 -988.59 1807.2
-1027.17 -1012.77 1851.4
-1034.19 -1024.48 1872.8
-1029.38 -1024.53 1872.9
-1015.92 -1015.92 1857.1
-1000.36 -1005.13 1837.4
-991.76 -1001.25 1830.3
-998.57 -1012.97 1851.7
-995.92 -1015.17 1855.8
-980.95 -1004.76 1836.7
-977.46 -1006.07 1839.1
-982.80 -1016.52 1858.2
-983.44 -1022.20 1868.6
-973.18 -1016.54 1858.3
-966.70 -1014.80 1855.1
-961.89 -1014.79 1855.1
-965.32 -1023.53 1871.0
-978.54 -1042.78 1906.2
-964.20 -1032.72 1887.8
-936.91 -1008.61 1843.8
-929.67 -1005.95 1838.9
-932.55 -1014.27 1854.1
-932.54 -1019.51 1863.7
-918.88 -1009.81 1846.0
-913.26 -1008.89 1844.3
-925.50 -1027.79 1878.8
-936.00 -1044.95 1910.2
-935.35 -1049.78 1919.0
-916.66 -1034.31 1890.7
-912.50 -1035.15 1892.3
-931.22 -1062.09 1941.5
-940.07 -1078.01 1970.6
-921.88 -1062.93 1943.1
-893.48 -1035.85 1893.6
-892.71 -1040.68 1902.4
-913.50 -1070.82 1957.5
-919.33 -1083.68 1981.0
-915.67 -1085.43 1984.2
-911.99 -1087.17 1987.4
-897.52 -1076.00 1967.0
-883.87 -1065.69 1948.1
-876.93 -1063.40 1943.9
-868.17 -1058.87 1935.6
-880.94 -1080.69 1975.5
-904.77 -1116.41 2040.8
-884.66 -1098.02 2007.2
-852.14 -1063.92 1944.9
-854.53 -1073.25 1961.9
-862.87 -1090.21 1992.9
-858.70 -1091.48 1995.3
-852.76 -1090.50 1993.5
-868.50 -1117.40 2042.6
-875.66 -1133.53 2072.1
-863.67 -1124.91 2056.4
-843.08 -1118.81 2045.2
-826.55 -1103.81 2017.8
-817.21 -1098.28 2007.7
-817.94 -1106.31 2022.4
-837.21 -1139.69 2083.4
-793.70 -1139.25 2082.6
-790.10 -1141.85 2087.3
-791.22 -1159.36 2119.3
-683.79 -1173.00 2144.3
-667.75 -1174.13 2146.3
-654.27 -1169.92 2138.6
-628.59 -1153.32 2108.3
-623.22 -1153.50 2108.6
-541.06 -1153.17 2108.0
-543.69 -1170.60 2139.9
-496.41 -1176.89 2151.4
-439.86 -1160.12 2120.7
-408.46 -1149.13 2100.6
-408.97 -1166.12 2131.7
-376.74 -1135.59 2075.9
-313.35 -1180.67 2158.3
-307.47 -1179.57 2156.3
-268.72 -1181.27 2159.4
-1285.00 -972.93 1770.1
-1265.13 -961.32 1749.0
-1245.33 -949.68 1727.9
-1204.84 -922.12 1677.7
-1171.44 -899.80 1637.1
-1157.26 -892.14 1623.2
-1168.50 -904.09 1644.9
-1174.38 -911.97 1659.3
-1153.92 -899.38 1636.3
-1124.11 -879.38 1599.9
-1103.84 -866.72 1576.9
-1105.56 -871.29 1585.2
-1110.36 -878.35 1598.1
-1090.22 -865.64 1575.0
-1062.92 -847.14 1541.3
-1069.27 -855.42 1556.4
-1084.31 -870.73 1584.2
-1068.98 -861.68 1567.8
-1059.84 -857.58 1560.3
-1072.66 -871.28 1585.2
-1079.28 -880.03 1601.1
-1068.59 -874.67 1591.4
-1051.36 -863.91 1571.8
-1050.84 -866.84 1577.1
-1060.86 -878.53 1598.4
-1065.78 -886.06 1612.1
-1068.65 -891.94 1622.8
-1054.02 -883.21 1606.9
-1044.92 -879.06 1599.4
-1045.76 -883.27 1607.0
-1037.18 -879.53 1600.2
-1031.08 -877.87 1597.2
-1035.79 -885.44 1611.0
-1052.20 -903.10 1643.1
-1066.03 -918.69 1671.5
-1065.15 -921.68 1676.9
-1051.65 -913.73 1662.4
-1037.23 -904.91 1646.4
-1036.36 -907.89 1651.8
-1039.79 -914.67 1664.2
-1030.24 -910.05 1655.8
-1024.07 -908.38 1652.7
-1030.27 -917.72 1669.7
-1030.23 -921.56 1676.7
-1029.22 -924.55 1682.1
-1033.36 -932.23 1696.1
-1031.81 -934.81 1700.8
-1026.50 -933.98 1699.3
-1023.05 -934.86 1700.9
-1030.75 -945.97 1721.1
-1038.83 -957.53 1742.1
-1046.81 -969.10 1763.2
-1061.15 -986.68 1795.2
-1052.89 -983.32 1789.1
-1021.36 -958.09 1743.2
-1004.12 -946.11 1721.4
-1016.91 -962.43 1751.1
-1041.32 -989.95 1801.1
-1053.36 -1005.91 1830.2
-1045.53 -1002.96 1824.8
-1018.95 -981.90 1786.5
-1009.89 -977.61 1778.7
-1022.17 -994.04 1808.6
-1026.80 -1003.14 1825.1
-1022.55 -1003.61 1826.0
-1018.29 -1004.08 1826.8
-1024.95 -1015.38 1847.4
-1025.00 -1020.18 1856.1
-1012.41 -1012.41 1842.0
-1007.67 -1012.44 1842.0
-999.90 -1009.43 1836.6
-981.01 -995.09 1810.5
-977.60 -996.40 1812.9
-994.60 -1018.63 1853.3
-999.14 -1028.24 1870.8
-984.60 -1018.22 1852.6
-979.81 -1018.24 1852.6
-985.07 -1028.74 1871.7
-978.97 -1027.44 1869.3
-970.40 -1023.50 1862.2
-961.85 -1019.56 1855.0
-964.86 -1027.89 1870.1
-977.24 -1046.34 1903.7
-975.99 -1050.30 1910.9
-961.68 -1040.19 1892.5
-943.81 -1026.09 1866.9
-936.54 -1023.43 1862.0
-940.52 -1033.11 1879.6
-930.43 -1027.35 1869.2
-917.99 -1018.92 1853.8
-922.66 -1029.50 1873.1
-917.38 -1029.02 1872.2
-898.74 -1013.48 1843.9
-902.52 -1023.17 1861.6
-922.17 -1051.07 1912.3
-917.57 -1051.48 1913.1
-904.09 -1041.67 1895.2
-907.58 -1051.41 1912.9
-901.44 -1050.03 1910.4
-891.88 -1044.63 1900.6
-902.42 -1062.85 1933.8
-900.01 -1065.93 1939.4
-888.94 -1058.73 1926.3
-897.33 -1074.76 1955.4
-896.67 -1080.08 1965.1
-886.73 -1074.21 1954.4
-882.35 -1075.05 1955.9
-875.76 -1073.19 1952.6
-888.48 -1095.11 1992.4
-905.36 -1122.44 2042.2
-880.22 -1097.68 1997.1
-855.99 -1073.79 1953.7
-864.41 -1090.81 1984.6
-859.56 -1091.18 1985.3
-842.00 -1075.32 1956.5
-835.10 -1072.97 1952.2
-846.72 -1094.53 1991.4
-853.98 -1110.70 2020.8
-842.46 -1102.48 2005.9
-849.56 -1118.67 2035.3
-848.66 -1124.47 2045.9
-833.78 -1111.70 2022.6
-825.42 -1107.52 2015.0
-824.48 -1113.31 2025.6
-832.84 -1131.81 2059.2
-834.07 -1140.80 2075.6
-813.87 -1142.65 2078.9
-815.17 -1152.11 2096.2
-672.78 -1150.24 2092.8
-670.44 -1155.56 2102.4
-683.55 -1187.81 2161.1
-645.50 -1140.39 2074.8
-662.42 -1180.10 2147.1
-654.89 -1176.59 2140.7
-639.18 -1158.17 2107.2
-499.68 -1139.05 2072.4
-468.49 -1154.88 2101.2
-434.42 -1165.80 2121.1
-429.79 -1168.15 2125.3
-420.29 -1172.37 2133.0
-406.85 -1150.03 2092.4
-400.08 -1146.18 2085.4
-284.65 -1183.25 2152.8
-271.47 -1198.99 2181.5
-1318.44 -999.39 1809.8
-1292.04 -982.87 1779.9
-1280.19 -977.35 1769.8
-1265.17 -969.36 1755.4
-1228.38 -944.57 1710.5
-1174.77 -906.61 1641.8
-1144.17 -886.21 1604.8
-1146.98 -891.63 1614.6
-1147.12 -895.00 1620.7
-1145.13 -896.74 1623.9
-1133.69 -891.06 1613.6
-1098.26 -866.40 1568.9
-1085.92 -859.85 1557.1
-1106.36 -879.31 1592.3
-1101.27 -878.54 1590.9
-1071.37 -857.90 1553.5
-1074.08 -863.32 1563.4
-1090.63 -879.94 1593.5
-1076.31 -871.69 1578.5
-1061.54 -863.00 1562.8
-1067.71 -871.35 1577.9
-1078.40 -883.46 1599.8
-1072.79 -882.25 1597.6
-1051.51 -868.11 1572.0
-1047.97 -868.55 1572.8
-1064.01 -885.29 1603.1
-1076.43 -899.13 1628.2
-1075.76 -902.11 1633.6
-1058.13 -890.84 1613.2
-1053.49 -890.45 1612.5
-1059.74 -899.30 1628.5
-1060.01 -903.13 1635.4
-1062.70 -909.05 1646.2
-1058.97 -909.52 1647.0
-1067.94 -920.94 1667.7
-1072.94 -929.01 1682.3
-1060.86 -922.30 1670.2
-1047.86 -914.73 1656.5
-1033.94 -906.30 1641.2
-1044.16 -919.03 1664.2
-1057.63 -934.75 1692.7
-1053.29 -934.80 1692.8
-1053.24 -938.66 1699.8
-1048.88 -938.70 1699.9
-1037.88 -932.78 1689.1
-1033.07 -932.39 1688.4
-1033.42 -936.68 1696.2
-1031.87 -939.27 1700.9
-1027.96 -939.72 1701.7
-1022.18 -938.46 1699.4
-1027.55 -947.48 1715.8
-1043.02 -965.93 1749.2
-1056.06 -982.27 1778.8
-1055.18 -985.76 1785.1
-1030.91 -967.33 1751.7
-1024.58 -965.65 1748.7
-1030.99 -976.01 1767.4
-1029.17 -978.63 1772.2
-1038.60 -992.03 1796.4
-1045.69 -1003.30 1816.8
-1032.96 -995.57 1802.8
-1019.84 -987.39 1788.0
-1024.14 -996.08 1803.8
-1028.36 -1004.78 1819.5
-1024.13 -1005.25 1820.4
-1025.61 -1011.36 1831.4
-1027.04 -1017.48 1842.5
-1018.37 -1013.61 1835.5
-1003.63 -1003.63 1817.4
-1000.24 -1004.96 1819.8
-1004.18 -1013.70 1835.7
-1007.62 -1022.01 1850.7
-998.13 -1017.23 1842.1
-986.11 -1009.82 1828.6
-994.99 -1023.83 1854.0
-993.59 -1027.35 1860.4
-973.17 -1011.15 1831.1
-970.10 -1012.90 1834.2
-976.64 -1024.76 1855.7
-975.17 -1028.27 1862.1
-970.35 -1028.28 1862.1
-960.97 -1023.44 1853.3
-961.51 -1029.16 1863.7
-972.25 -1045.90 1894.0
-969.79 -1048.56 1898.8
-958.77 -1041.93 1886.8
-943.35 -1030.43 1866.0
-930.84 -1022.01 1850.7
-930.43 -1026.84 1859.5
-922.38 -1023.27 1853.0
-912.77 -1017.91 1843.3
-912.70 -1023.19 1852.9
-902.74 -1017.37 1842.3
-899.48 -1019.09 1845.4
-918.87 -1046.63 1895.3
-925.59 -1059.95 1919.4
-908.97 -1046.55 1895.2
-890.53 -1030.89 1866.8
-889.09 -1034.84 1874.0
-892.20 -1044.16 1890.8
-892.56 -1050.36 1902.1
-904.98 -1070.89 1939.2
-905.56 -1077.56 1951.3
-891.47 -1066.76 1931.8
-895.36 -1077.47 1951.2
-888.03 -1074.72 1946.2
-871.86 -1061.18 1921.7
-878.58 -1075.50 1947.6
-882.24 -1086.23 1967.0
-872.36 -1080.31 1956.3
-865.06 -1077.54 1951.3
-864.98 -1083.77 1962.6
-866.99 -1092.72 1978.8
-864.30 -1095.81 1984.4
-848.81 -1082.62 1960.5
-835.20 -1071.67 1940.7
-831.14 -1072.92 1942.9
-825.67 -1072.36 1941.9
-815.69 -1065.90 1930.2
-804.04 -1057.16 1914.4
-807.90 -1068.83 1935.5
-817.46 -1088.24 1970.7
-814.98 -1091.76 1977.0
-813.48 -1096.65 1985.9
-819.98 -1112.46 2014.5
-818.68 -1117.82 2024.2
-809.04 -1111.77 2013.3
-811.98 -1123.06 2033.7
-813.83 -1132.98 2051.7
-747.91 -1162.80 2105.7
-693.22 -1162.65 2105.4
-672.18 -1164.03 2107.9
-646.10 -1156.46 2094.2
-576.37 -1180.44 2137.6
-509.62 -1142.63 2069.2
-492.80 -1179.39 2135.7
-483.32 -1197.06 2167.7
-444.20 -1197.65 2168.8
-435.96 -1190.50 2155.8
-427.78 -1183.34 2142.9
-415.59 -1164.74 2109.2
-396.85 -1127.06 2040.9
-394.02 -1134.15 2053.8
-368.04 -1152.82 2087.6
-295.22 -1186.44 2148.5
-295.23 -1209.32 2189.9
-277.37 -1181.61 2139.7
-272.45 -1184.31 2144.6
-201.58 -1160.45 2101.4
-1328.28 -1007.99 1816.8
-1320.10 -1005.34 1812.0
-1304.43 -996.96 1796.9
-1271.70 -975.43 1758.1
-1238.58 -953.44 1718.5
-1229.01 -949.49 1711.4
-1196.65 -927.83 1672.3
-1137.98 -885.55 1596.1
-1116.52 -872.03 1571.7
-1120.95 -878.69 1583.8
-1124.27 -884.54 1594.3
-1122.84 -886.67 1598.1
-1096.34 -868.95 1566.2
-1065.26 -847.46 1527.5
-1068.60 -853.29 1538.0
-1101.93 -883.20 1591.9
-1109.75 -892.81 1609.2
-1086.61 -877.49 1581.6
-1076.91 -872.95 1573.4
-1066.74 -867.99 1564.5
-1056.08 -862.60 1554.7
-1065.32 -873.48 1574.4
-1079.55 -888.55 1601.5
-1083.05 -894.87 1612.9
-1070.85 -888.22 1600.9
-1051.64 -875.68 1578.3
-1053.10 -880.32 1586.7
-1072.54 -900.09 1622.3
-1079.86 -909.80 1639.8
-1075.67 -909.85 1639.9
-1084.87 -921.27 1660.5
-1079.14 -920.07 1658.3
-1067.51 -913.79 1647.0
-1084.92 -932.42 1680.6
-1096.80 -946.43 1705.9
-1090.99 -945.23 1703.7
-1079.34 -938.94 1692.4
-1067.25 -932.21 1680.2
-1054.24 -924.62 1666.5
-1034.52 -911.06 1642.1
-1038.95 -918.74 1655.9
-1056.26 -937.92 1690.5
-1056.70 -942.22 1698.3
-1057.11 -946.53 1706.0
-1053.21 -947.00 1706.9
-1050.72 -948.76 1710.0
-1055.30 -956.92 1724.8
-1049.94 -956.11 1723.3
-1043.64 -954.44 1720.3
-1041.56 -956.62 1724.2
-1038.99 -958.38 1727.4
-1031.76 -955.83 1722.8
-1035.19 -963.18 1736.0
-1044.09 -975.70 1758.6
-1037.27 -973.58 1754.8
-1035.05 -975.78 1758.7
-1049.23 -993.51 1790.7
-1054.18 -1002.64 1807.2
-1049.10 -1002.26 1806.5
-1046.27 -1004.04 1809.7
-1041.18 -1003.66 1809.0
-1036.09 -1003.27 1808.3
-1030.55 -1002.44 1806.8
-1038.80 -1015.08 1829.6
-1047.40 -1028.18 1853.2
-1024.55 -1010.38 1821.1
-1007.11 -997.78 1798.4
-996.77 -992.13 1788.2
-976.87 -976.87 1760.7
-986.65 -991.28 1786.7
-1006.28 -1015.77 1830.8
-1002.42 -1016.67 1832.4
-998.55 -1017.57 1834.1
-1000.23 -1024.16 1845.9
-997.60 -1026.37 1849.9
-1000.04 -1033.86 1863.4
-992.27 -1030.80 1857.9
-972.71 -1015.42 1830.2
-969.65 -1017.18 1833.4
-982.45 -1035.68 1866.7
-986.78 -1045.40 1884.2
-978.59 -1041.88 1877.9
-965.88 -1033.49 1862.8
-952.41 -1024.20 1846.0
-948.43 -1025.07 1847.6
-945.66 -1027.26 1851.5
-935.16 -1021.04 1840.3
-931.57 -1022.34 1842.7
-930.39 -1026.30 1849.8
-917.95 -1017.83 1834.5
-898.38 -1001.32 1804.8
-899.61 -1007.94 1816.7
-911.86 -1027.04 1851.1
-901.50 -1020.75 1839.8
-898.65 -1022.93 1843.7
-924.26 -1057.71 1906.4
-937.16 -1078.24 1943.4
-919.73 -1063.90 1917.6
-900.48 -1047.30 1887.7
-898.61 -1050.83 1894.0
-902.04 -1060.64 1911.7
-898.56 -1062.38 1914.8
-906.02 -1077.15 1941.5
-910.34 -1088.35 1961.6
-900.73 -1082.90 1951.8
-894.52 -1081.50 1949.3
-876.82 -1066.13 1921.6
-848.54 -1037.65 1870.3
-842.15 -1035.74 1866.8
-855.11 -1057.77 1906.5
-855.19 -1064.01 1917.8
-849.42 -1063.02 1916.0
-850.85 -1071.07 1930.5
-851.85 -1078.68 1944.2
-847.45 -1079.49 1945.7
-844.46 -1082.12 1950.4
-843.20 -1087.02 1959.2
-837.35 -1086.01 1957.4
-831.15 -1084.54 1954.8
-819.76 -1076.24 1939.8
-807.05 -1066.11 1921.6
-805.06 -1070.08 1928.7
-808.14 -1080.89 1948.2
-810.12 -1090.35 1965.2
-814.03 -1102.55 1987.2
-824.22 -1123.45 2024.9
-829.22 -1137.52 2050.3
-809.90 -1118.19 2015.4
-799.32 -1110.74 2002.0
-812.05 -1135.81 2047.2
-712.72 -1121.48 2021.4
-691.41 -1165.06 2099.9
-662.96 -1162.90 2096.0
-653.64 -1165.65 2101.0
-652.99 -1174.28 2116.5
-551.07 -1156.16 2083.9
-521.53 -1200.07 2163.0
-519.62 -1208.69 2178.6
-512.39 -1204.96 2171.8
-491.59 -1168.90 2106.8
-483.38 -1202.84 2168.0
-472.29 -1189.05 2143.2
-463.00 -1179.54 2126.0
-458.42 -1181.94 2130.3
-408.83 -1166.53 2102.6
-380.39 -1162.90 2096.0
-373.69 -1158.99 2089.0
