ply
format ascii 1.0
element vertex 2304
property float x
property float y
property float z
end_header
-179.26 401.98 2095.3
-172.16 398.12 2075.2
-166.74 398.01 2074.6
-159.18 392.64 2046.6
-151.55 386.71 2015.7
-146.56 387.34 2019.0
-140.80 385.91 2011.5
-134.75 383.53 1999.1
-126.73 375.13 1955.3
-119.61 368.80 1922.3
-116.16 373.74 1948.1
-113.25 380.94 1985.6
-109.83 387.02 2017.3
-104.21 385.56 2009.7
-98.28 382.79 1995.2
-91.43 375.87 1959.2
-83.46 363.30 1893.7
-78.48 362.96 1891.9
-75.07 370.34 1930.4
-70.43 372.26 1940.4
-65.20 371.16 1934.6
-59.92 369.50 1926.0
-54.51 366.70 1911.4
-48.69 360.32 1878.1
-43.57 358.27 1867.4
-39.49 365.26 1903.9
-34.73 367.16 1913.8
-29.62 365.30 1904.0
-24.73 366.06 1908.0
-19.96 369.28 1924.8
-15.18 374.37 1951.4
-10.23 378.33 1972.0
-5.12 379.09 1976.0
0.00 371.18 1934.7
4.85 359.12 1871.9
9.56 353.84 1844.3
14.50 357.60 1864.0
19.88 367.77 1916.9
25.10 371.53 1936.5
29.47 363.41 1894.2
34.25 362.08 1887.3
39.63 366.58 1910.7
45.34 372.78 1943.0
50.73 375.39 1956.7
54.26 365.01 1902.5
58.21 358.95 1871.0
62.95 358.36 1867.9
68.18 360.40 1878.5
74.38 366.95 1912.7
80.88 374.07 1949.8
87.44 380.62 1983.9
97.03 377.90 1969.7
99.12 366.75 1911.6
104.06 366.70 1911.4
111.86 376.24 1961.1
117.68 378.63 1973.6
118.02 363.91 1896.8
121.46 359.52 1874.0
132.24 376.38 1961.8
145.00 383.21 1997.4
146.54 373.93 1949.1
149.43 368.60 1921.3
154.15 367.96 1917.9
156.81 362.63 1890.2
162.85 365.18 1903.5
171.37 372.99 1944.1
176.55 373.28 1945.7
179.73 369.44 1925.7
183.27 366.54 1910.5
190.88 371.70 1937.5
198.42 376.49 1962.4
203.05 375.64 1958.0
208.07 375.54 1957.5
212.98 375.26 1956.0
217.34 374.03 1949.6
221.78 372.99 1944.2
226.87 373.07 1944.6
229.63 369.41 1925.5
233.37 367.43 1915.2
238.50 367.69 1916.5
245.99 371.50 1936.4
260.91 386.15 2012.8
270.42 392.38 2045.2
271.43 386.27 2013.4
281.91 393.61 2051.6
-189.66 407.21 2151.6
-176.42 390.25 2062.0
-167.69 382.55 2021.3
-161.23 379.66 2006.0
-157.73 383.81 2028.0
-153.31 385.93 2039.1
-146.49 381.92 2018.0
-139.09 376.05 1987.0
-132.50 372.03 1965.7
-124.06 362.26 1914.1
-116.25 353.59 1868.3
-112.18 356.06 1881.3
-109.11 362.05 1913.0
-105.61 367.11 1939.7
-102.27 373.29 1972.4
-98.43 378.17 1998.1
-92.48 375.06 1981.7
-85.32 366.37 1935.8
-78.84 359.72 1900.7
-74.04 360.31 1903.8
-69.68 363.32 1919.7
-64.74 363.53 1920.8
-59.79 363.75 1922.0
-54.65 362.66 1916.2
-49.15 358.78 1895.7
-44.21 358.62 1894.9
-39.93 364.40 1925.4
-35.02 365.16 1929.4
-29.36 357.18 1887.3
-24.11 351.99 1859.8
-19.46 355.16 1876.6
-14.79 360.00 1902.2
-10.02 365.59 1931.7
-5.04 368.01 1944.5
0.00 369.87 1954.3
5.03 367.27 1940.5
9.77 356.66 1884.5
14.60 355.17 1876.6
19.79 361.11 1908.0
24.71 360.73 1906.0
29.66 360.90 1906.9
35.28 367.95 1944.2
40.26 367.38 1941.1
45.36 367.91 1944.0
51.11 373.10 1971.4
55.10 365.64 1931.9
59.55 362.26 1914.1
64.90 364.46 1925.7
69.11 360.34 1904.0
74.19 361.05 1907.7
80.19 365.85 1933.1
86.14 369.90 1954.4
92.07 373.38 1972.9
95.24 365.91 1933.4
97.95 357.51 1889.0
103.47 359.69 1900.5
108.78 360.94 1907.1
112.07 355.69 1879.4
116.55 354.52 1873.2
124.25 362.81 1917.0
130.72 367.02 1939.3
135.52 366.40 1936.0
140.44 366.15 1934.7
143.15 360.33 1903.9
147.22 358.23 1892.8
153.20 360.75 1906.1
156.40 356.79 1885.2
163.01 360.60 1905.3
171.54 368.31 1946.0
176.63 368.41 1946.6
180.82 366.66 1937.3
185.23 365.46 1931.0
190.97 366.85 1938.4
196.63 368.06 1944.7
200.81 366.49 1936.4
205.37 365.65 1932.0
211.28 367.22 1940.3
216.57 367.67 1942.7
219.32 363.87 1922.6
222.87 361.55 1910.4
228.58 362.74 1916.6
235.38 365.59 1931.7
245.29 373.04 1971.1
258.62 385.29 2035.8
267.35 390.33 2062.4
269.52 385.78 2038.4
274.45 385.29 2035.8
-178.76 390.02 2089.4
-171.10 384.98 2062.4
-161.06 374.09 2004.0
-154.83 371.60 1990.7
-147.34 365.81 1959.7
-137.73 354.17 1897.3
-133.80 356.79 1911.4
-130.12 360.33 1930.4
-124.88 359.66 1926.7
-119.66 358.98 1923.1
-113.99 356.84 1911.6
-109.33 357.81 1916.8
-105.28 360.97 1933.8
-101.40 365.05 1955.6
-98.13 371.88 1992.2
-92.71 370.82 1986.6
-86.31 365.55 1958.3
-80.51 362.29 1940.8
-74.26 356.46 1909.6
-68.68 353.19 1892.1
-65.00 360.01 1928.6
-61.20 367.19 1967.1
-55.74 364.83 1954.5
-49.94 359.54 1926.1
-44.00 352.04 1885.9
-38.95 350.59 1878.2
-35.01 360.15 1929.4
-30.12 361.45 1936.3
-24.25 349.17 1870.5
-19.14 344.59 1846.0
-14.59 350.10 1875.5
-9.89 355.98 1907.0
-5.05 363.51 1947.4
0.00 370.66 1985.7
5.22 375.62 2012.2
10.36 372.86 1997.5
15.18 364.41 1952.2
20.20 363.67 1948.2
24.99 359.81 1927.5
29.66 355.94 1906.8
35.21 362.17 1940.2
40.10 360.86 1933.2
44.72 357.73 1916.4
49.83 358.80 1922.2
54.31 355.48 1904.3
59.39 356.37 1909.1
65.53 362.94 1944.3
70.78 364.01 1950.1
74.41 357.19 1913.5
78.68 354.04 1896.6
84.71 358.77 1922.0
90.69 362.76 1943.4
94.22 357.03 1912.7
97.38 350.57 1878.1
104.96 359.87 1927.9
112.30 367.52 1968.8
115.45 361.42 1936.2
119.84 359.53 1926.1
126.47 364.24 1951.3
131.77 364.91 1954.9
138.19 368.51 1974.2
144.85 372.47 1995.4
147.49 366.18 1961.7
151.48 363.55 1947.6
155.55 361.28 1935.4
156.96 353.16 1891.9
162.84 355.28 1903.3
170.41 360.87 1933.2
173.34 356.59 1910.3
175.42 350.84 1879.5
184.57 359.16 1924.1
195.01 369.49 1979.4
199.99 369.21 1977.9
203.75 366.74 1964.7
209.51 367.93 1971.0
216.59 371.30 1989.1
221.58 371.01 1987.6
223.99 366.53 1963.6
229.24 366.79 1965.0
237.07 371.06 1987.8
240.96 369.13 1977.5
247.71 371.56 1990.5
259.11 380.74 2039.7
265.58 382.43 2048.8
270.55 381.95 2046.1
279.04 386.37 2069.8
-190.01 396.78 2155.6
-184.13 396.15 2152.1
-169.41 388.01 2107.9
-161.69 382.67 2078.9
-152.94 374.44 2034.2
-142.78 362.05 1966.9
-138.39 363.92 1977.0
-133.88 365.61 1986.2
-127.87 363.14 1972.8
-121.73 360.12 1956.4
-115.21 355.66 1932.2
-110.28 355.89 1933.4
-105.81 357.75 1943.5
-100.23 355.81 1933.0
-95.47 356.76 1938.1
-91.01 358.97 1950.1
-85.40 356.66 1937.6
-81.89 363.39 1974.2
-77.74 367.95 1998.9
-71.06 360.39 1957.8
-66.36 362.41 1968.8
-51.18 363.40 1974.2
-45.06 355.45 1931.0
-39.12 347.15 1885.9
-34.53 350.24 1902.7
-30.26 358.04 1945.1
-24.81 352.26 1913.7
-19.65 348.83 1895.1
-15.02 355.54 1931.5
-10.04 356.45 1936.4
-5.06 358.99 1950.2
0.00 364.96 1982.7
5.20 369.12 2005.3
15.60 369.11 2005.3
20.57 365.12 1983.6
25.16 357.33 1941.2
29.17 345.19 1875.3
33.80 342.82 1862.4
39.36 349.32 1897.7
44.99 354.91 1928.1
50.34 357.42 1941.7
55.09 355.59 1931.8
59.36 351.22 1908.0
64.63 353.00 1917.7
71.38 362.02 1966.7
76.67 362.89 1971.4
80.10 355.43 1930.9
85.18 355.76 1932.7
91.79 362.05 1966.9
95.91 358.39 1947.0
98.34 349.12 1896.6
105.17 355.58 1931.7
112.97 364.57 1980.6
116.68 360.18 1956.7
119.29 352.90 1917.1
123.92 351.94 1911.9
132.76 362.54 1969.5
150.95 369.56 2007.7
152.54 361.01 1961.2
153.97 352.64 1915.7
156.38 346.97 1885.0
163.00 350.69 1905.1
170.32 355.66 1932.2
173.07 351.08 1907.3
174.50 344.14 1869.6
182.68 350.55 1904.4
193.84 362.18 1967.6
199.88 363.89 1976.9
202.32 359.12 1950.9
206.70 357.94 1944.6
211.05 356.77 1938.2
213.07 351.81 1911.2
222.65 359.27 1951.8
235.73 371.94 2020.6
241.72 373.09 2026.8
243.45 367.76 1997.9
248.31 367.29 1995.3
257.25 372.74 2025.0
266.59 378.55 2056.5
275.05 382.92 2080.2
283.12 386.56 2100.0
-175.82 384.60 2119.2
-168.94 381.47 2102.0
-162.91 380.12 2094.6
-155.74 375.92 2071.4
-146.91 367.26 2023.7
-140.86 365.19 2012.3
-134.94 363.30 2001.8
-127.99 358.37 1974.7
-121.05 353.08 1945.5
-114.39 348.14 1918.3
-109.43 348.19 1918.6
-105.92 353.05 1945.4
-101.14 353.99 1950.6
-94.64 348.68 1921.3
-88.66 344.80 1899.9
-83.66 344.48 1898.2
-80.79 353.44 1947.5
-76.74 358.12 1973.3
-70.24 351.19 1935.1
-64.56 347.65 1915.6
-59.97 349.82 1927.6
-55.54 353.42 1947.4
-50.34 352.37 1941.6
-45.19 351.50 1936.8
-40.09 350.81 1933.0
-34.83 348.32 1919.3
-30.00 349.95 1928.3
-24.60 344.42 1897.8
-19.50 341.22 1880.2
-15.14 353.19 1946.2
-10.26 359.09 1978.7
-5.04 353.02 1945.2
0.00 350.34 1930.5
5.03 352.31 1941.3
10.07 352.48 1942.2
15.13 353.01 1945.2
20.12 352.11 1940.2
25.56 357.81 1971.6
30.76 358.87 1977.5
35.28 352.79 1943.9
40.70 356.16 1962.5
45.15 351.14 1934.9
49.01 343.09 1890.5
54.78 348.60 1920.9
60.31 351.79 1938.4
64.63 348.01 1917.6
70.20 351.01 1934.2
76.74 358.12 1973.3
81.68 357.37 1969.2
86.09 354.47 1953.2
91.83 357.11 1967.8
96.48 355.46 1958.7
99.51 348.28 1919.1
104.79 349.31 1924.8
111.00 353.18 1946.1
116.09 353.31 1946.8
120.08 350.22 1929.8
124.04 347.32 1913.8
132.22 355.99 1961.6
140.38 363.95 2005.4
144.63 361.57 1992.3
150.35 362.92 1999.8
155.89 363.74 2004.3
157.19 354.95 1955.8
158.98 347.76 1916.2
166.09 352.31 1941.3
173.85 357.93 1972.3
178.04 356.07 1962.0
181.16 352.25 1941.0
183.80 347.73 1916.0
189.01 348.18 1918.5
196.51 352.71 1943.5
200.79 351.38 1936.2
203.78 347.91 1917.1
206.45 344.09 1896.0
210.22 342.22 1885.7
222.08 353.30 1946.8
235.27 365.98 2016.6
240.66 366.22 2018.0
244.03 363.45 2002.7
251.09 366.18 2017.7
256.00 365.71 2015.1
260.38 364.53 2008.7
271.95 373.27 2056.8
-178.17 384.19 2147.6
-167.36 372.51 2082.3
-161.15 370.65 2071.9
-153.96 366.33 2047.8
-144.98 357.26 1997.1
-139.00 355.22 1985.7
-133.61 354.58 1982.1
-127.03 350.59 1959.8
-121.23 348.54 1948.4
-115.61 346.84 1938.8
-110.88 347.77 1944.0
-107.57 353.44 1975.8
-102.51 353.66 1977.0
-95.75 347.73 1943.8
-88.66 339.85 1899.8
-82.79 336.02 1878.4
-78.62 339.05 1895.3
-73.52 338.20 1890.6
-68.27 336.48 1880.9
-63.76 338.44 1891.9
-59.29 340.93 1905.8
-55.00 345.01 1928.6
-50.13 345.91 1933.7
-45.28 347.16 1940.7
-40.58 350.00 1956.5
-35.54 350.37 1958.6
-30.42 349.86 1955.7
-24.78 341.95 1911.5
-19.53 336.85 1883.0
-15.03 345.66 1932.3
-10.22 352.53 1970.7
-5.04 347.61 1943.1
0.00 344.44 1925.4
5.00 345.14 1929.4
9.91 341.79 1910.6
14.71 338.44 1891.9
19.59 337.91 1888.9
24.93 344.06 1923.3
30.93 355.67 1988.2
36.49 359.70 2010.8
41.66 359.33 2008.7
45.79 351.04 1962.3
49.55 341.86 1911.0
55.17 346.06 1934.5
61.44 353.25 1974.7
66.58 353.40 1975.5
71.09 350.38 1958.6
76.39 351.40 1964.4
81.48 351.37 1964.2
86.00 349.04 1951.2
90.72 347.77 1944.1
94.20 342.10 1912.4
99.81 344.34 1924.9
107.84 354.32 1980.7
111.11 348.47 1948.0
112.97 338.92 1894.6
118.17 339.75 1899.2
123.46 340.75 1904.8
129.90 344.74 1927.1
136.46 348.72 1949.4
141.27 348.13 1946.1
148.06 352.28 1969.3
153.98 354.14 1979.7
155.61 346.35 1936.1
159.13 343.12 1918.1
167.68 350.59 1959.8
173.50 352.10 1968.2
175.80 346.58 1937.4
181.61 348.08 1945.8
187.08 348.87 1950.2
190.74 346.34 1936.0
196.60 347.83 1944.4
203.01 350.19 1957.6
208.34 350.62 1960.0
210.81 346.33 1936.0
214.02 343.43 1919.8
224.30 351.74 1966.2
235.60 361.26 2019.5
246.25 369.37 2064.8
258.75 371.95 2079.2
259.34 365.19 2041.4
265.31 366.12 2046.7
-172.09 377.48 2141.2
-164.97 373.92 2121.0
-157.72 369.84 2097.8
-148.75 361.25 2049.1
-141.54 356.46 2021.9
-135.06 353.23 2003.6
-128.23 348.78 1978.4
-122.26 346.41 1965.0
-116.19 343.52 1948.5
-111.21 343.74 1949.8
-109.38 354.19 2009.1
-105.51 358.75 2034.9
-97.54 349.08 1980.1
-89.25 337.16 1912.5
-82.43 329.74 1870.4
-77.47 329.25 1867.6
-74.36 337.09 1912.1
-70.77 343.72 1949.7
-64.95 339.76 1927.2
-59.41 336.66 1909.6
-55.00 339.99 1928.5
-50.10 340.70 1932.6
-44.59 336.91 1911.0
-39.29 333.97 1894.4
-34.76 337.63 1915.2
-30.02 340.25 1930.0
-24.85 338.01 1917.3
-19.87 337.84 1916.3
-15.18 344.10 1951.8
-10.24 348.27 1975.5
-5.06 344.11 1951.9
0.00 341.51 1937.1
5.03 342.03 1940.1
9.95 338.38 1919.4
14.65 332.12 1883.9
19.33 328.64 1864.2
24.55 333.84 1893.6
30.39 344.42 1953.6
35.83 348.05 1974.2
40.78 346.64 1966.3
46.20 349.06 1979.9
51.56 350.60 1988.7
56.68 350.40 1987.6
62.29 352.98 2002.2
67.11 351.04 1991.2
71.16 345.63 1960.5
76.58 347.16 1969.2
81.72 347.30 1970.0
86.12 344.48 1954.0
90.81 343.06 1945.9
94.92 339.72 1927.0
101.03 343.49 1948.4
108.85 352.46 1999.3
111.88 345.82 1961.6
113.32 335.03 1900.4
117.92 334.11 1895.2
123.77 336.66 1909.6
130.95 342.49 1942.7
138.44 348.67 1977.7
144.40 350.68 1989.2
147.09 344.90 1956.4
148.85 337.39 1913.8
153.39 336.46 1908.5
159.77 339.51 1925.8
165.48 340.99 1934.2
168.30 336.60 1909.3
172.50 335.14 1901.0
180.22 340.42 1931.0
186.88 343.45 1948.1
191.69 343.02 1945.7
197.48 344.32 1953.1
203.81 346.48 1965.3
209.48 347.42 1970.7
212.07 343.36 1947.6
214.88 339.81 1927.5
224.84 347.48 1971.0
233.42 352.73 2000.8
240.76 355.90 2018.8
-171.06 369.71 2128.4
-166.79 372.51 2144.5
-161.86 373.95 2152.8
-151.24 361.89 2083.4
-142.42 353.42 2034.6
-135.78 349.90 2014.3
-128.86 345.34 1988.1
-123.79 345.57 1989.4
-118.65 345.62 1989.7
-112.05 341.23 1964.4
-108.90 347.43 2000.1
-105.56 353.63 2035.8
-97.87 345.13 1986.9
-90.07 335.25 1930.0
-83.64 329.65 1897.8
-79.06 331.05 1905.8
-76.19 340.32 1959.2
-72.05 344.80 1985.0
-65.81 339.19 1952.7
-59.96 334.77 1927.2
-55.30 336.84 1939.2
-50.92 341.14 1963.9
-45.81 340.99 1963.1
-40.17 336.39 1936.6
-35.34 338.29 1947.5
-30.30 338.31 1947.6
-24.88 333.36 1919.1
-20.04 335.59 1932.0
-15.41 344.15 1981.3
-10.26 343.82 1979.3
-5.00 335.26 1930.1
0.00 328.25 1889.7
4.84 323.97 1865.1
10.05 336.63 1938.0
15.52 346.55 1995.1
20.03 335.42 1931.0
24.83 332.67 1915.2
30.34 338.82 1950.6
35.27 337.61 1943.6
40.53 339.47 1954.3
46.31 344.76 1984.7
51.94 347.99 2003.3
57.35 349.33 2011.1
61.64 344.17 1981.4
64.75 333.71 1921.2
69.15 330.95 1905.2
74.97 334.85 1927.7
81.71 342.17 1969.8
88.02 346.92 1997.2
91.31 339.87 1956.6
93.99 331.45 1908.1
98.78 330.90 1905.0
105.04 335.13 1929.3
109.75 334.22 1924.1
112.90 328.88 1893.3
120.36 336.00 1934.3
129.24 346.37 1994.0
134.79 347.34 1999.6
140.36 348.30 2005.1
144.11 344.82 1985.1
144.50 333.84 1921.9
148.92 332.58 1914.6
156.22 337.63 1943.7
161.96 339.10 1952.2
167.07 339.20 1952.7
168.89 332.81 1916.0
172.04 329.33 1895.9
179.39 333.86 1922.0
185.45 335.82 1933.3
190.52 335.91 1933.8
196.57 337.70 1944.1
204.00 341.70 1967.1
210.92 344.68 1984.3
215.79 344.24 1981.8
220.98 344.32 1982.2
226.28 344.56 1983.6
229.64 341.91 1968.4
237.24 345.55 1989.3
253.42 361.25 2079.7
-168.53 358.80 2096.9
-168.01 369.63 2160.2
-162.30 369.36 2158.6
-150.81 355.47 2077.4
-140.15 342.58 2002.1
-131.86 334.73 1956.2
-127.90 337.64 1973.2
-125.43 344.94 2015.9
-120.46 345.66 2020.1
-114.06 342.18 1999.7
-108.73 341.72 1997.1
-103.57 341.76 1997.3
-97.09 337.26 1971.0
-90.43 331.57 1937.8
-85.50 331.95 1939.9
-82.20 339.06 1981.5
-77.34 340.27 1988.6
-71.51 337.10 1970.1
-65.91 334.61 1955.5
-60.57 333.12 1946.8
-55.13 330.78 1933.1
-50.10 330.63 1932.3
-45.55 334.03 1952.1
-40.37 333.03 1946.3
-35.56 335.24 1959.2
-30.52 335.76 1962.2
-24.98 329.70 1926.8
-20.04 330.72 1932.8
-15.12 332.59 1943.7
-9.87 325.68 1903.3
-4.97 327.87 1916.1
0.00 331.92 1939.8
4.91 324.33 1895.4
10.09 332.93 1945.7
15.75 346.59 2025.5
20.60 339.83 1986.0
24.99 329.87 1927.8
29.83 328.17 1917.9
35.29 332.71 1944.4
41.21 339.95 1986.7
46.56 341.45 1995.5
51.65 340.92 1992.4
56.70 340.22 1988.3
60.60 333.28 1947.8
65.48 332.41 1942.7
71.83 338.62 1979.0
75.34 331.51 1937.4
79.34 327.26 1912.6
84.76 329.08 1923.2
87.30 320.12 1870.8
92.43 321.09 1876.5
99.79 329.30 1924.5
105.19 330.60 1932.1
108.89 326.68 1909.2
113.07 324.45 1896.1
121.64 334.50 1954.9
128.53 339.33 1983.1
131.73 334.39 1954.2
136.15 332.82 1945.0
138.67 326.87 1910.3
140.12 318.90 1863.7
145.54 320.19 1871.2
154.47 328.87 1922.0
162.11 334.35 1954.0
166.72 333.44 1948.7
168.18 326.48 1908.0
172.83 325.90 1904.6
181.94 333.55 1949.3
187.23 333.97 1951.8
191.28 332.22 1941.5
195.17 330.29 1930.2
200.33 330.54 1931.7
209.55 337.33 1971.4
217.06 341.10 1993.4
222.93 342.18 1999.7
228.72 343.08 2005.0
233.63 342.65 2002.5
244.00 350.09 2046.0
253.76 356.35 2082.5
256.77 353.06 2063.3
-177.91 361.39 2144.5
-171.92 360.47 2139.0
-164.34 356.07 2112.9
-152.75 342.38 2031.7
-148.44 344.60 2044.9
-143.65 345.82 2052.1
-132.12 330.29 1960.0
-125.53 326.37 1936.7
-123.77 335.21 1989.2
-119.28 337.09 2000.3
-114.28 337.63 2003.5
-110.33 341.50 2026.5
-104.48 339.55 2014.9
-97.52 333.62 1979.7
-91.25 329.51 1955.3
-86.67 331.37 1966.4
-82.35 334.56 1985.3
-76.60 331.94 1969.8
-70.39 326.82 1939.4
-64.41 322.04 1911.0
-58.81 318.57 1890.4
-53.21 314.45 1865.9
-48.15 312.97 1857.2
-43.59 314.82 1868.2
-39.18 318.33 1889.0
-35.07 325.65 1932.4
-30.40 329.32 1954.2
-25.06 325.84 1933.6
-19.72 320.37 1901.1
-14.57 315.72 1873.5
-9.78 317.89 1886.4
-5.07 329.52 1955.4
0.00 336.01 1993.9
5.09 330.85 1963.3
10.08 327.69 1944.6
15.22 329.68 1956.4
20.74 336.99 1999.7
26.25 341.30 2025.3
30.72 332.81 1974.9
35.59 330.47 1961.0
41.14 334.28 1983.6
46.05 332.60 1973.6
51.22 332.91 1975.5
56.33 332.88 1975.4
61.24 331.70 1968.3
67.33 336.65 1997.7
73.11 339.45 2014.3
75.91 328.95 1952.0
79.17 321.61 1908.5
83.63 319.75 1897.4
92.47 316.36 1877.3
100.49 326.61 1938.1
106.52 329.72 1956.6
112.54 332.49 1973.0
119.10 336.59 1997.3
124.26 336.54 1997.0
127.63 331.84 1969.2
130.59 326.48 1937.3
134.70 324.27 1924.2
141.23 327.86 1945.5
146.69 328.79 1951.1
148.81 322.43 1913.3
154.30 323.53 1919.8
161.36 327.77 1945.0
165.44 325.88 1933.8
167.56 320.34 1900.9
172.99 321.26 1906.4
185.86 335.59 1991.4
195.50 343.45 2038.0
196.58 336.25 1995.3
196.94 328.23 1947.7
203.16 330.13 1959.0
213.92 339.13 2012.4
219.61 339.87 2016.8
223.46 337.79 2004.5
230.94 341.17 2024.5
237.84 343.55 2038.6
243.87 344.60 2044.9
248.74 344.00 2041.3
255.42 345.88 2052.4
-169.23 361.02 2175.8
-154.74 341.50 2058.1
-148.65 339.76 2047.7
-147.36 349.30 2105.1
-138.41 340.70 2053.3
-128.71 329.49 1985.7
-124.43 331.83 1999.8
-120.56 335.47 2021.8
-116.18 337.97 2036.9
-110.97 338.18 2038.2
-103.96 332.67 2004.9
-97.22 327.48 1973.7
-91.20 324.25 1954.2
-85.83 323.14 1947.5
-80.79 323.18 1947.7
-76.48 326.32 1966.6
-71.50 326.84 1969.8
-64.14 315.74 1902.9
-53.15 309.25 1863.8
-49.22 315.00 1898.4
-44.39 315.67 1902.5
-39.77 318.14 1917.4
-35.25 322.25 1942.1
-30.21 322.26 1942.2
-24.97 319.66 1926.5
-19.68 314.92 1898.0
-14.55 310.34 1870.4
-9.78 312.80 1885.2
-5.04 322.63 1944.4
0.00 327.70 1975.0
5.11 326.88 1970.1
10.24 327.70 1975.0
15.51 330.80 1993.7
26.34 337.17 2032.0
30.29 323.08 1947.1
34.87 318.81 1921.4
40.07 320.60 1932.2
44.87 319.11 1923.2
49.93 319.58 1926.0
55.54 323.16 1947.6
60.99 325.26 1960.3
65.73 323.60 1950.2
69.99 319.97 1928.4
75.79 323.37 1948.9
82.39 329.56 1986.2
87.75 330.34 1990.9
91.75 326.21 1966.0
94.60 318.65 1920.4
99.51 318.45 1919.2
104.42 318.24 1918.0
109.21 317.71 1914.8
115.98 322.73 1945.0
121.37 323.66 1950.6
127.56 326.55 1968.0
133.57 328.78 1981.5
137.58 326.11 1965.4
143.93 328.99 1982.7
149.79 330.56 1992.2
152.24 324.78 1957.4
156.18 322.44 1943.2
161.59 323.19 1947.8
166.86 323.61 1950.3
170.15 320.27 1930.2
174.84 319.71 1926.8
187.13 332.68 2005.0
197.37 341.40 2057.6
199.18 335.45 2021.7
201.79 331.13 1995.7
210.57 336.91 2030.5
216.51 337.96 2036.8
216.71 330.22 1990.2
220.93 328.83 1981.8
229.14 333.29 2008.7
238.74 339.54 2046.3
248.41 345.62 2083.0
255.65 348.11 2098.0
-160.13 347.87 2129.8
-149.28 335.88 2056.4
-144.25 336.58 2060.7
-139.73 338.57 2072.9
-133.61 336.70 2061.4
-128.16 336.43 2059.8
-123.37 337.93 2069.0
-117.01 335.08 2051.5
-110.10 330.30 2022.2
-102.67 323.42 1980.1
-95.51 316.70 1939.0
-91.37 319.80 1958.0
-87.70 324.99 1989.7
-80.34 316.33 1936.7
-74.02 310.88 1903.4
-70.92 319.13 1953.8
-65.16 315.77 1933.3
-58.28 305.97 1873.3
-53.91 308.73 1890.2
-50.42 317.62 1944.6
-45.91 321.34 1967.4
-40.58 319.59 1956.7
-35.48 319.28 1954.8
-30.47 319.94 1958.8
-25.25 318.18 1948.0
-19.89 313.19 1917.5
-14.68 308.36 1887.9
-9.77 307.72 1884.0
-5.00 314.82 1927.5
0.00 324.33 1985.7
5.21 328.04 2008.4
10.40 327.71 2006.4
15.67 329.16 2015.2
20.94 329.79 2019.1
25.46 320.76 1963.8
30.16 316.72 1939.1
35.85 322.67 1975.5
40.77 321.04 1965.5
45.12 315.86 1933.9
50.29 316.81 1939.7
56.07 321.14 1966.2
61.96 325.30 1991.7
67.29 326.08 1996.4
71.24 320.58 1962.7
76.70 322.16 1972.4
82.55 325.02 1989.9
87.04 322.57 1974.9
93.26 326.40 1998.4
98.48 326.52 1999.1
103.29 325.35 1992.0
108.11 324.34 1985.8
110.10 315.29 1930.3
113.85 311.86 1909.4
119.28 313.10 1916.9
125.38 315.95 1934.4
133.55 323.61 1981.3
139.84 326.29 1997.7
141.78 319.00 1953.0
142.89 310.42 1900.5
148.25 311.32 1906.1
155.37 315.76 1933.2
159.54 314.09 1923.0
163.23 311.61 1907.8
169.52 314.12 1923.2
177.41 319.34 1955.2
185.74 325.05 1990.1
191.80 326.58 1999.4
201.19 333.56 2042.2
215.14 338.84 2074.5
213.47 328.01 2008.2
216.16 324.24 1985.1
223.76 327.83 2007.1
229.57 328.70 2012.5
236.78 331.49 2029.5
252.72 346.12 2119.1
-148.86 341.83 2126.6
-141.11 336.50 2093.4
-135.33 335.61 2087.9
-130.24 336.45 2093.1
-125.89 339.36 2111.2
-119.93 337.98 2102.6
-110.57 326.46 2031.0
-101.03 313.19 1948.4
-94.48 308.31 1918.1
-90.90 313.11 1947.9
-87.21 318.06 1978.7
-79.96 309.85 1927.6
-73.17 302.42 1881.4
-69.59 308.16 1917.1
-65.59 312.79 1945.9
-60.21 311.07 1935.2
-54.80 308.87 1921.6
-50.44 312.70 1945.4
-46.27 318.75 1983.0
-41.27 319.88 1990.0
-35.74 316.56 1969.4
-30.41 314.20 1954.7
-25.04 310.56 1932.0
-19.61 303.90 1890.6
-14.80 305.81 1902.5
-10.06 312.01 1941.1
-5.11 316.93 1971.7
0.00 324.07 2016.1
5.19 321.69 2001.3
10.17 315.34 1961.8
15.30 316.13 1966.7
20.38 315.96 1965.7
25.43 315.32 1961.7
30.96 319.91 1990.2
36.53 323.54 2012.8
41.21 319.40 1987.1
45.65 314.47 1956.4
50.92 315.72 1964.1
56.66 319.34 1986.7
62.54 323.13 2010.2
68.58 327.07 2034.7
73.31 324.66 2019.8
76.70 317.01 1972.2
80.12 310.48 1931.6
84.86 309.50 1925.4
91.27 314.38 1955.8
98.18 320.36 1993.0
104.91 325.23 2023.3
109.93 324.56 2019.1
112.06 315.80 1964.6
114.37 308.30 1918.0
118.16 305.25 1899.0
123.13 305.36 1899.7
130.16 310.37 1930.9
137.97 316.81 1970.9
141.48 313.27 1948.9
143.91 307.67 1914.1
150.84 311.73 1939.3
155.67 311.35 1937.0
157.23 304.64 1895.2
160.94 302.36 1881.1
167.25 304.99 1897.4
174.45 309.03 1922.5
182.06 313.54 1950.6
190.46 319.15 1985.5
202.82 330.92 2058.7
218.46 330.35 2055.2
221.38 326.79 2033.0
229.87 331.43 2061.9
236.94 333.86 2077.0
242.37 333.93 2077.4
-151.47 342.21 2163.9
-141.44 331.83 2098.2
-133.91 326.74 2066.0
-129.06 328.04 2074.3
-125.00 331.52 2096.3
-118.91 329.70 2084.7
-109.28 317.42 2007.1
-100.86 307.64 1945.2
-95.44 306.43 1937.6
-90.71 307.40 1943.8
-86.07 308.84 1952.9
-80.65 307.47 1944.2
-75.42 306.72 1939.4
-71.48 311.43 1969.2
-67.18 315.21 1993.1
-62.01 315.23 1993.3
-56.79 314.94 1991.5
-50.43 307.63 1945.2
-44.65 302.65 1913.7
-40.35 307.66 1945.4
-35.40 308.46 1950.4
-30.03 305.35 1930.8
-24.70 301.30 1905.2
-19.71 300.53 1900.3
-15.15 308.03 1947.7
-10.16 309.75 1958.6
-5.09 310.23 1961.6
0.00 313.82 1984.3
5.05 308.04 1947.8
9.92 302.41 1912.2
14.95 303.97 1922.1
19.87 303.03 1916.1
24.73 301.77 1908.1
30.73 312.38 1975.2
36.94 321.89 2035.4
41.60 317.19 2005.6
45.99 311.71 1971.0
50.76 309.66 1958.0
55.86 309.79 1958.9
60.85 309.30 1955.8
65.84 308.96 1953.6
71.83 312.99 1979.1
76.54 311.25 1968.1
80.24 305.91 1934.3
85.24 305.88 1934.1
89.79 304.28 1924.0
94.72 304.09 1922.8
100.86 307.64 1945.2
105.30 305.88 1934.1
109.46 303.50 1919.1
113.89 302.05 1909.9
117.90 299.66 1894.8
123.11 300.40 1899.5
128.81 302.22 1911.0
135.40 305.90 1934.3
141.18 307.56 1944.8
145.82 306.73 1939.5
151.97 309.00 1953.9
155.90 306.76 1939.7
161.71 308.26 1949.2
170.35 314.88 1991.1
172.61 309.68 1958.2
175.24 305.41 1931.2
182.50 309.23 1955.3
190.82 314.60 1989.3
196.61 315.61 1995.7
201.83 315.69 1996.1
215.31 328.35 2076.2
228.31 331.59 2096.7
-158.55 339.74 2184.1
-151.26 336.12 2160.8
-143.82 331.89 2133.6
-134.41 322.58 2073.8
-128.20 320.49 2060.3
-121.81 317.78 2042.8
-113.72 310.15 1993.8
-107.65 307.58 1977.3
-102.29 306.86 1972.7
-96.60 305.05 1961.1
-91.62 305.40 1963.3
-86.84 306.51 1970.4
-81.38 305.16 1961.7
-75.84 303.35 1950.1
-71.58 306.76 1972.0
-67.14 309.86 1991.9
-61.85 309.27 1988.1
-56.87 310.21 1994.2
-50.73 304.39 1956.8
-44.49 296.58 1906.6
-39.85 298.90 1921.5
-35.25 302.14 1942.3
-30.15 301.54 1938.5
-25.00 300.01 1928.6
-20.13 302.02 1941.5
-15.30 306.02 1967.3
-10.14 304.18 1955.5
-4.97 298.50 1918.9
0.00 295.58 1900.1
4.95 297.11 1910.0
9.98 299.26 1923.8
14.93 298.64 1919.9
19.70 295.56 1900.0
24.73 296.78 1907.9
30.91 309.07 1986.9
36.95 316.74 2036.2
41.45 310.88 1998.5
46.10 307.33 1975.7
51.12 306.70 1971.6
56.31 307.14 1974.5
61.33 306.65 1971.3
65.80 303.71 1952.4
71.22 305.22 1962.1
77.03 308.11 1980.7
81.99 307.46 1976.5
85.84 302.98 1947.7
89.04 296.80 1908.0
93.15 294.15 1891.0
98.45 295.34 1898.6
104.27 297.91 1915.2
109.90 299.71 1926.7
114.34 298.29 1917.6
118.44 296.10 1903.5
125.33 300.80 1933.7
132.98 306.89 1972.8
137.73 306.07 1967.6
141.59 303.41 1950.5
145.88 301.82 1940.3
151.57 303.14 1948.7
158.65 307.06 1974.0
168.14 315.27 2026.7
175.55 319.19 2051.9
176.32 311.15 2000.3
177.27 303.89 1953.6
182.57 304.28 1956.1
190.42 308.80 1985.1
195.72 309.03 1986.6
200.32 308.19 1981.2
213.46 320.19 2058.3
-151.66 331.40 2166.6
-147.93 335.69 2194.6
-131.07 322.21 2106.5
-121.04 310.49 2029.8
-114.05 305.85 1999.5
-108.99 306.20 2001.8
-102.63 302.77 1979.3
-96.05 298.28 1950.0
-91.42 299.67 1959.1
-86.83 301.37 1970.2
-81.57 300.79 1966.5
-76.21 299.77 1959.7
-70.39 296.62 1939.2
-64.66 293.48 1918.6
-60.06 295.31 1930.6
-55.68 298.66 1952.5
-51.14 301.70 1972.4
-46.21 302.93 1980.4
-41.24 304.16 1988.4
-36.38 306.59 2004.4
-30.55 300.41 1963.9
-24.83 293.01 1915.6
-19.83 292.56 1912.7
-14.95 294.08 1922.6
-10.11 298.17 1949.3
-5.05 297.87 1947.3
0.00 292.73 1913.7
4.95 292.13 1909.8
9.97 294.24 1923.6
14.95 294.08 1922.6
20.19 297.86 1947.2
25.88 305.41 1996.6
31.36 308.42 2016.3
36.38 306.59 2004.4
41.04 302.65 1978.6
45.84 300.51 1964.6
51.09 301.40 1970.4
56.44 302.74 1979.2
61.97 304.68 1991.9
67.09 304.51 1990.7
72.00 303.42 1983.6
77.21 303.70 1985.4
82.19 303.06 1981.3
86.01 298.50 1951.4
91.15 298.76 1953.2
97.22 301.90 1973.7
101.15 298.39 1950.7
105.49 296.39 1937.6
110.28 295.74 1933.4
113.86 292.07 1909.4
118.91 292.33 1911.1
126.79 299.22 1956.2
133.63 303.25 1982.5
137.72 300.93 1967.4
141.86 298.92 1954.2
146.68 298.41 1950.9
150.71 296.39 1937.7
156.10 297.09 1942.2
163.47 301.40 1970.4
168.29 300.88 1967.0
175.43 304.43 1990.2
183.68 309.63 2024.2
186.50 305.65 1998.2
191.44 305.27 1995.7
201.41 312.72 2044.4
211.64 320.17 2093.1
-152.27 327.10 2175.3
-144.59 322.56 2145.1
-140.33 325.58 2165.2
-131.24 317.17 2109.3
-123.56 311.58 2072.1
-118.54 312.51 2078.3
-110.32 304.69 2026.3
-101.34 293.89 1954.4
-96.68 295.11 1962.6
-93.58 301.54 2005.3
-88.70 302.61 2012.4
-83.08 301.16 2002.8
-76.05 294.06 1955.6
-68.76 284.87 1894.5
-64.69 288.61 1919.3
-61.56 297.55 1978.8
-56.66 298.77 1986.9
-51.64 299.53 1991.9
-46.85 301.93 2007.9
-41.98 304.32 2023.8
-36.55 302.85 2014.0
-30.28 292.75 1946.9
-24.65 285.92 1901.5
-19.70 285.64 1899.5
-14.89 287.87 1914.4
-10.08 292.34 1944.1
-5.09 295.31 1963.9
0.00 293.68 1953.0
5.08 294.87 1960.9
10.30 298.73 1986.6
15.23 294.41 1957.9
20.28 294.11 1955.9
25.56 296.48 1971.7
30.45 294.39 1957.8
35.99 298.24 1983.4
41.30 299.42 1991.2
46.23 297.91 1981.2
51.49 298.64 1986.0
57.06 300.85 2000.7
62.73 303.20 2016.4
67.55 301.39 2004.3
72.13 298.84 1987.4
77.82 300.89 2001.0
83.32 302.05 2008.7
87.83 299.64 1992.7
93.67 301.83 2007.3
98.72 301.35 2004.1
101.55 294.48 1958.4
106.07 292.96 1948.2
110.99 292.62 1946.0
116.08 292.73 1946.7
122.77 296.69 1973.0
127.61 296.05 1968.8
130.96 292.14 1942.8
136.39 292.98 1948.4
141.91 293.96 1954.9
146.73 293.46 1951.6
150.61 291.18 1936.4
154.89 289.79 1927.2
161.08 291.96 1941.6
168.02 295.30 1963.8
177.76 303.24 2016.6
185.00 306.57 2038.8
186.29 300.14 1996.0
191.99 300.95 2001.4
203.24 310.20 2062.9
-147.91 324.26 2194.2
-141.28 322.13 2179.8
-130.06 308.90 2090.3
-120.54 298.73 2021.5
-116.89 302.86 2049.4
-109.88 298.23 2018.1
-101.48 289.22 1957.1
-97.25 291.74 1974.2
-93.15 294.99 1996.2
-87.38 292.98 1982.6
-82.86 295.20 1997.6
-76.65 291.29 1971.1
-69.79 284.16 1922.9
-66.15 290.03 1962.6
-62.29 295.89 2002.3
-56.80 294.31 1991.6
-50.71 289.07 1956.1
-45.02 285.14 1929.5
-40.58 289.10 1956.3
-35.51 289.12 1956.4
-29.65 281.68 1906.1
-24.34 277.45 1877.5
-19.79 281.99 1908.2
-15.23 289.30 1957.7
-10.16 289.60 1959.7
-5.06 288.58 1952.8
0.00 290.04 1962.7
5.17 294.43 1992.4
10.40 296.47 2006.2
15.29 290.47 1965.6
19.92 283.89 1921.0
24.58 280.22 1896.2
29.79 282.99 1915.0
35.79 291.46 1972.3
41.64 296.70 2007.8
47.19 298.88 2022.5
52.15 297.25 2011.5
57.19 296.36 2005.4
62.97 299.11 2024.0
67.98 298.06 2017.0
72.27 294.24 1991.1
77.69 295.23 1997.8
83.23 296.52 2006.5
87.82 294.44 1992.4
93.11 294.84 1995.2
97.64 292.91 1982.1
100.92 287.62 1946.3
106.00 287.72 1947.0
111.54 289.00 1955.6
117.24 290.56 1966.2
123.98 294.45 1992.5
128.74 293.53 1986.3
131.87 289.11 1956.4
136.99 289.20 1957.0
143.97 293.09 1983.3
150.13 295.07 1996.7
153.89 292.39 1978.6
158.04 290.59 1966.4
162.12 288.78 1954.1
166.48 287.55 1945.8
175.39 294.04 1989.8
181.76 296.01 2003.1
186.36 295.07 1996.7
196.59 302.86 2049.4
205.45 308.17 2085.4
214.09 312.89 2117.3
-140.18 314.01 2162.8
-125.99 293.98 2024.9
-117.82 286.86 1975.8
-115.47 293.93 2024.5
-110.45 294.55 2028.8
-103.72 290.42 2000.4
-98.74 291.03 2004.6
-94.02 292.51 2014.7
-87.15 287.08 1977.4
-81.66 285.82 1968.7
-77.26 288.44 1986.7
-71.90 287.60 1980.9
-66.70 287.34 1979.1
-61.61 287.51 1980.3
-55.86 284.37 1958.7
-49.60 277.78 1913.3
-44.46 276.65 1905.5
-40.51 283.56 1953.1
-35.61 284.87 1962.1
-29.86 278.70 1919.6
-24.64 275.98 1900.9
-20.14 282.03 1942.5
-15.24 284.48 1959.4
-9.99 279.74 1926.8
-5.01 280.46 1931.7
0.00 283.62 1953.5
5.09 284.91 1962.4
10.14 284.05 1956.5
15.00 280.02 1928.7
19.70 275.85 1900.0
24.65 276.13 1901.9
30.26 282.44 1945.4
35.81 286.45 1973.0
41.04 287.30 1978.8
46.59 289.87 1996.5
51.58 288.84 1989.5
55.91 284.66 1960.7
60.90 284.21 1957.5
66.64 287.05 1977.2
71.90 287.60 1980.9
77.11 287.86 1982.7
82.44 288.55 1987.5
87.54 288.38 1986.3
93.33 290.35 1999.9
97.67 287.88 1982.8
100.80 282.24 1944.0
105.88 282.35 1944.8
111.36 283.46 1952.4
116.82 284.42 1959.0
123.29 287.67 1981.4
128.02 286.77 1975.2
130.92 281.99 1942.3
138.84 287.96 1983.4
148.83 297.65 2050.2
155.67 300.61 2070.5
160.32 299.26 2061.2
160.16 289.32 1992.7
158.91 278.09 1915.4
164.85 279.75 1926.8
175.89 289.71 1995.4
185.41 296.65 2043.3
193.88 301.59 2077.3
198.56 300.52 2069.9
201.06 296.30 2040.8
214.46 307.95 2121.1
-149.75 316.77 2221.5
-138.89 305.56 2142.9
-128.19 293.77 2060.2
-123.05 294.24 2063.5
-119.69 299.22 2098.4
-113.83 298.13 2090.8
-106.07 291.69 2045.6
-100.24 290.17 2035.0
-95.44 291.62 2045.1
-88.45 286.15 2006.8
-81.69 280.82 1969.4
-76.25 279.58 1960.7
-71.60 281.30 1972.8
-66.96 283.30 1986.8
-62.25 285.30 2000.8
-56.87 284.33 1994.0
-50.96 280.26 1965.5
-46.14 281.97 1977.5
-41.08 282.41 1980.5
-35.24 276.92 1942.0
-29.98 274.82 1927.3
-25.11 276.24 1937.2
-20.51 282.03 1977.9
-15.50 284.16 1992.8
-9.98 274.42 1924.5
-4.90 269.76 1891.9
0.00 275.55 1932.5
5.08 279.22 1958.2
10.16 279.50 1960.1
15.11 276.96 1942.3
20.04 275.54 1932.4
25.33 278.64 1954.1
30.33 278.06 1950.0
35.05 275.37 1931.2
40.05 275.35 1931.1
45.36 277.17 1943.8
51.14 281.25 1972.4
56.47 282.36 1980.2
60.62 277.82 1948.4
65.36 276.53 1939.3
70.92 278.62 1954.0
76.52 280.57 1967.6
81.90 281.53 1974.3
87.10 281.78 1976.1
91.70 280.20 1965.0
94.74 274.24 1923.2
99.81 274.49 1925.0
106.94 280.09 1964.3
112.41 281.03 1970.9
117.80 281.70 1975.5
123.64 283.35 1987.1
127.62 280.76 1969.0
130.90 276.91 1942.0
139.23 283.63 1989.1
148.88 292.44 2050.9
155.36 294.64 2066.3
161.99 296.98 2082.7
164.10 291.15 2041.8
161.99 278.43 1952.6
166.94 278.23 1951.2
178.30 288.43 2022.8
188.16 295.68 2073.6
194.69 297.44 2085.9
196.83 292.59 2051.9
199.58 288.86 2025.8
214.24 302.14 2118.9
-142.98 308.83 2205.9
-135.74 305.42 2181.5
-127.33 298.96 2135.4
-121.48 298.17 2129.8
-115.92 298.08 2129.1
-108.52 292.99 2092.8
-99.94 284.03 2028.8
-92.89 278.66 1990.4
-88.65 281.60 2011.4
-84.23 284.27 2030.5
-77.70 279.72 1998.0
-72.13 278.23 1987.3
-67.09 278.67 1990.5
-61.99 278.97 1992.6
-56.89 279.26 1994.7
-51.18 276.37 1974.1
-46.32 277.91 1985.1
-41.22 278.21 1987.2
-35.67 275.17 1965.5
-30.58 275.18 1965.6
-25.65 277.00 1978.5
-20.97 283.10 2022.2
-10.18 274.80 1962.8
-4.96 267.59 1911.4
0.00 270.36 1931.2
5.07 273.69 1954.9
10.14 273.69 1954.9
15.26 274.65 1961.8
20.52 277.00 1978.6
25.61 276.58 1975.6
30.28 272.55 1946.8
35.38 272.95 1949.7
40.93 276.27 1973.3
46.00 275.97 1971.2
51.41 277.62 1983.0
57.03 279.96 1999.7
61.53 276.89 1977.8
65.58 272.43 1945.9
70.41 271.57 1939.8
75.78 272.80 1948.5
81.07 273.60 1954.3
86.08 273.43 1953.1
90.58 271.74 1941.0
95.01 270.04 1928.9
101.59 274.30 1959.3
108.06 277.86 1984.7
112.68 276.58 1975.6
117.02 274.74 1962.4
121.59 273.59 1954.2
126.90 274.10 1957.8
131.55 273.22 1951.6
136.66 273.31 1952.2
142.77 275.34 1966.7
149.47 278.33 1988.1
156.44 281.59 2011.4
162.89 283.75 2026.8
165.98 280.10 2000.7
167.92 274.79 1962.8
175.67 279.01 1992.9
189.48 292.34 2088.1
200.28 300.42 2145.8
201.44 294.00 2100.0
202.85 288.27 2059.0
216.51 299.78 2141.3
-145.79 297.19 2162.8
-138.86 294.38 2142.4
-135.48 299.19 2177.4
-130.27 300.18 2184.6
-120.84 291.12 2118.7
-112.40 283.69 2064.6
-105.94 280.73 2043.1
-98.17 273.84 1992.9
-93.75 276.05 2009.0
-91.74 286.01 2081.4
-86.93 287.94 2095.5
-80.08 282.94 2059.1
-73.45 278.07 2023.7
-67.51 275.23 2003.1
-61.68 272.40 1982.4
-56.00 269.83 1963.8
-50.02 265.09 1929.2
-44.95 264.70 1926.4
-40.68 269.48 1961.2
-35.79 270.99 1972.1
-30.51 269.50 1961.3
-25.45 269.78 1963.4
-20.40 270.34 1967.4
-15.06 266.12 1936.7
-10.00 264.90 1927.9
-5.03 266.67 1940.8
0.00 265.45 1931.8
4.99 264.63 1925.9
10.04 265.99 1935.8
15.19 268.30 1952.6
20.48 271.43 1975.3
25.62 271.55 1976.3
30.45 268.96 1957.4
35.74 270.58 1969.2
41.48 274.79 1999.8
46.77 275.45 2004.6
51.40 272.44 1982.7
56.09 270.24 1966.7
61.31 270.77 1970.5
66.21 269.93 1964.4
70.22 265.82 1934.6
74.73 264.03 1921.5
80.19 265.63 1933.2
85.54 266.69 1940.9
89.92 264.76 1926.8
94.22 262.82 1912.7
101.68 269.45 1961.0
109.01 275.12 2002.2
112.38 270.74 1970.3
115.17 265.40 1931.5
119.73 264.40 1924.2
124.89 264.77 1926.9
131.00 267.03 1943.4
137.81 270.52 1968.7
143.75 272.10 1980.2
150.12 274.36 1996.7
155.80 275.25 2003.2
160.81 274.93 2000.8
164.24 272.02 1979.7
166.72 267.76 1948.6
175.65 273.80 1992.6
190.71 288.79 2101.7
201.73 296.99 2161.4
202.55 290.14 2111.6
207.98 290.07 2111.0
-141.54 294.40 2183.7
-129.43 292.62 2170.5
-117.27 277.19 2056.1
-111.15 275.23 2041.5
-106.44 276.73 2052.7
-99.47 272.23 2019.3
-95.63 276.27 2049.3
-92.12 281.77 2090.1
-86.01 279.54 2073.5
-79.91 277.03 2054.9
-73.91 274.52 2036.3
-68.03 272.14 2018.6
-62.34 270.16 2003.9
-56.45 266.84 1979.3
-50.24 261.25 1937.8
-44.27 255.79 1897.3
-39.31 255.53 1895.4
-35.39 262.89 1950.0
-30.84 267.31 1982.8
-25.50 265.19 1967.0
-20.28 263.59 1955.2
-15.04 260.66 1933.5
-10.04 260.93 1935.5
-5.08 264.00 1958.3
0.00 264.01 1958.3
5.08 264.27 1960.3
10.24 266.27 1975.1
15.27 264.67 1963.2
20.29 263.72 1956.2
25.88 269.19 1996.8
31.34 271.59 2014.5
36.00 267.44 1983.7
40.92 265.95 1972.7
46.31 267.54 1984.5
51.16 266.06 1973.5
55.77 263.63 1955.5
60.86 263.75 1956.4
65.20 260.79 1934.4
74.79 259.27 1923.2
82.27 267.39 1983.4
87.14 266.56 1977.2
91.01 262.92 1950.3
94.15 257.69 1911.4
100.33 260.86 1934.9
108.19 267.89 1987.1
112.02 264.79 1964.1
115.57 261.28 1938.1
121.06 262.31 1945.7
127.31 264.80 1964.1
134.64 269.28 1997.4
141.66 272.84 2023.8
147.89 274.65 2037.3
153.14 274.60 2036.9
157.39 272.82 2023.6
163.24 273.83 2031.1
167.82 272.71 2022.8
171.25 269.85 2001.6
181.80 278.04 2062.4
192.12 285.43 2117.2
197.01 284.57 2110.8
203.66 286.23 2123.1
216.89 296.80 2201.5
-121.04 280.59 2122.1
-115.88 281.42 2128.4
-110.37 281.45 2128.6
-102.67 275.60 2084.4
-97.37 275.89 2086.6
-92.59 277.76 2100.7
-84.97 270.85 2048.4
-77.51 263.54 1993.2
-72.96 265.79 2010.2
-68.39 268.30 2029.2
-62.33 264.92 2003.6
-56.04 259.83 1965.1
-51.08 260.50 1970.2
-46.11 261.31 1976.3
-40.33 257.13 1944.7
-35.73 260.29 1968.5
-31.44 267.24 2021.2
-26.24 267.65 2024.2
-20.87 266.08 2012.4
-15.49 263.33 1991.6
-10.33 263.47 1992.6
-5.23 266.49 2015.5
0.00 261.38 1976.8
5.03 256.39 1939.1
10.23 260.85 1972.8
15.37 261.37 1976.7
20.17 257.17 1945.0
25.47 259.78 1964.7
31.21 265.28 2006.3
36.27 264.22 1998.3
40.77 259.88 1965.5
45.72 259.08 1959.4
50.59 258.01 1951.4
55.28 256.29 1938.3
60.76 258.24 1953.1
65.55 257.17 1945.0
74.51 253.32 1915.9
82.22 262.07 1982.1
87.35 262.04 1981.8
93.08 263.72 1994.5
98.43 264.21 1998.2
101.24 258.15 1952.4
105.47 256.15 1937.3
110.31 255.72 1934.1
115.07 255.16 1929.8
121.84 258.92 1958.2
129.79 264.76 2002.4
136.02 266.81 2017.9
141.64 267.55 2023.5
145.28 264.62 2001.4
147.47 259.35 1961.4
155.22 263.87 1995.7
165.28 271.92 2056.5
174.02 277.35 2097.6
182.63 282.25 2134.7
190.22 285.33 2157.9
196.75 286.70 2168.3
203.34 288.07 2178.7
212.06 292.30 2210.7
-135.99 283.31 2185.5
-128.81 280.02 2160.1
-120.23 273.25 2108.0
-114.14 271.75 2096.4
-108.00 269.99 2082.8
-100.95 265.66 2049.4
-96.20 267.23 2061.5
-91.13 268.04 2067.7
-83.27 260.23 2007.5
-77.23 257.43 1985.9
-73.99 264.26 2038.6
-68.48 263.39 2031.9
-61.61 256.73 1980.5
-55.69 253.15 1952.9
-51.04 255.22 1968.9
-47.42 263.47 2032.4
-42.63 266.44 2055.4
-35.76 255.40 1970.2
-29.78 248.21 1914.7
-25.18 251.82 1942.6
-20.26 253.24 1953.6
-15.19 253.12 1952.6
-10.23 255.82 1973.5
-5.19 259.55 2002.2
0.00 255.18 1968.5
4.94 247.21 1907.0
9.94 248.62 1917.9
15.28 254.66 1964.5
20.48 255.94 1974.4
25.62 256.19 1976.3
31.11 259.26 2000.0
36.12 257.97 1990.0
40.61 253.84 1958.2
45.55 253.06 1952.1
50.43 252.14 1945.1
55.30 251.35 1939.0
61.06 254.42 1962.6
66.61 256.19 1976.4
70.50 251.80 1942.5
74.96 249.85 1927.4
80.97 253.04 1952.0
85.11 250.31 1931.0
89.82 249.51 1924.8
97.05 255.39 1970.1
101.99 254.97 1966.9
106.05 252.50 1947.8
110.74 251.69 1941.6
115.53 251.14 1937.4
122.56 255.34 1969.7
129.96 259.91 2005.1
135.53 260.64 2010.7
139.54 258.41 1993.5
141.24 252.21 1945.6
152.12 253.53 1955.8
165.10 266.29 2054.2
176.95 276.49 2132.9
183.79 278.48 2148.2
189.50 278.67 2149.7
196.64 280.91 2167.0
203.96 283.28 2185.3
212.23 286.79 2212.4
-142.96 280.20 2205.7
-133.69 272.95 2148.6
-126.96 270.48 2129.1
-118.92 264.86 2084.9
-113.36 264.52 2082.2
-108.55 265.94 2093.4
-102.60 264.59 2082.8
-95.31 259.46 2042.4
-88.15 254.07 2000.0
-81.94 250.95 1975.4
-77.41 252.87 1990.5
-74.49 260.70 2052.2
-69.14 260.60 2051.4
-62.78 256.34 2017.8
-57.35 255.47 2011.0
-51.42 251.97 1983.4
-46.77 254.63 2004.4
-42.62 261.07 2055.0
-36.20 253.39 1994.6
-29.79 243.32 1915.4
-24.96 244.59 1925.4
-20.08 245.99 1936.3
-15.05 245.74 1934.4
-10.12 248.01 1952.3
-5.12 251.04 1976.1
0.00 251.67 1981.1
5.07 248.27 1954.3
10.19 249.65 1965.2
15.62 255.07 2007.8
20.88 255.82 2013.7
26.06 255.43 2010.7
31.23 255.04 2007.6
35.79 250.50 1971.8
39.87 244.18 1922.1
44.32 241.27 1899.2
49.78 243.90 1919.9
55.34 246.53 1940.6
60.40 246.64 1941.5
65.13 245.48 1932.4
70.67 247.35 1947.1
77.10 251.86 1982.6
82.27 251.96 1983.4
85.40 246.14 1937.6
88.88 241.96 1904.6
94.69 244.20 1922.2
100.84 247.06 1944.8
106.19 247.78 1950.5
111.91 249.26 1962.1
117.63 250.60 1972.7
120.88 246.79 1942.7
123.84 242.73 1910.7
132.11 248.97 1959.8
139.31 252.83 1990.2
144.52 252.91 1990.8
151.14 255.37 2010.2
157.70 257.58 2027.6
168.57 266.45 2097.4
180.13 275.82 2171.2
186.90 277.52 2184.5
191.30 275.70 2170.2
197.24 276.14 2173.7
202.83 276.07 2173.2
209.36 277.26 2182.5
-142.81 274.20 2203.4
-137.19 274.37 2204.8
-125.51 273.84 2200.5
-118.31 270.42 2173.0
-112.13 269.10 2162.4
-105.22 265.81 2136.0
-97.19 259.18 2082.7
-90.58 255.75 2055.2
-84.89 254.67 2046.5
-78.51 251.24 2018.9
-74.11 254.11 2041.9
-69.53 256.72 2062.9
-63.78 255.14 2050.2
-58.93 257.13 2066.2
-53.47 256.65 2062.4
-46.57 248.40 1996.1
-40.66 243.97 1960.5
-35.83 245.71 1974.4
-30.62 244.98 1968.6
-25.42 244.00 1960.7
-20.29 243.51 1956.8
-15.11 241.79 1943.0
-10.11 242.53 1948.9
-5.12 245.62 1973.8
0.00 246.24 1978.7
5.10 244.88 1967.8
10.31 247.47 1988.6
15.81 253.03 2033.3
21.14 253.64 2038.2
26.18 251.29 2019.3
31.12 248.93 2000.3
35.78 245.34 1971.5
40.02 240.14 1929.7
44.31 236.30 1898.8
49.53 237.77 1910.6
55.56 242.44 1948.2
61.13 244.52 1964.9
66.39 245.12 1969.7
72.49 248.55 1997.3
77.28 247.29 1987.2
80.49 241.47 1940.4
86.52 244.28 1963.0
93.26 248.69 1998.4
95.99 242.50 1948.6
98.56 236.54 1900.8
105.58 241.32 1939.2
113.08 246.71 1982.5
119.26 248.89 2000.0
122.83 245.65 1974.0
125.16 240.31 1931.1
132.88 245.32 1971.4
142.13 252.67 2030.4
149.59 256.45 2060.7
156.39 258.86 2080.1
163.14 261.03 2097.5
171.88 266.14 2138.7
181.41 272.12 2186.7
185.86 270.34 2172.4
187.35 264.50 2125.4
199.01 272.92 2193.1
-112.47 264.30 2169.1
-103.73 256.61 2105.9
-97.32 254.10 2085.3
-92.14 254.73 2090.5
-86.32 253.55 2080.8
-79.85 250.20 2053.3
-73.81 247.80 2033.6
-67.91 245.53 2015.0
-62.04 243.01 1994.3
-57.08 243.87 2001.4
-53.44 251.14 2061.1
-47.96 250.44 2055.2
-40.96 240.65 1975.0
-35.29 236.92 1944.3
-30.40 238.14 1954.3
-25.44 239.11 1962.3
-20.30 238.51 1957.4
-15.12 236.83 1943.6
-10.02 235.38 1931.7
-5.03 236.47 1940.6
0.00 237.32 1947.6
5.02 235.74 1934.7
10.14 238.40 1956.5
15.56 243.84 2001.1
20.88 245.29 2013.0
25.91 243.59 1999.0
30.91 242.13 1987.1
35.66 239.46 1965.1
40.10 235.57 1933.3
44.60 232.90 1911.3
49.81 234.10 1921.1
55.83 238.55 1957.7
62.88 246.27 2021.1
77.15 241.73 1983.8
80.97 237.84 1951.9
87.55 242.05 1986.4
95.05 248.18 2036.7
98.70 244.16 2003.8
101.37 238.21 1954.9
108.53 242.89 1993.3
115.60 246.96 2026.7
121.31 247.89 2034.4
128.35 251.35 2062.8
134.70 253.24 2078.3
137.87 249.22 2045.3
141.76 246.76 2025.1
148.85 249.85 2050.5
155.33 251.74 2065.9
160.81 251.93 2067.5
168.12 254.89 2091.8
178.02 261.47 2145.8
182.87 260.45 2137.4
184.10 254.49 2088.5
195.48 262.50 2154.3
-119.46 261.68 2194.2
-110.14 253.32 2124.1
-103.33 250.16 2097.6
-98.50 251.73 2110.8
-91.29 247.02 2071.3
-83.67 240.54 2017.0
-78.41 240.45 2016.2
-73.30 240.83 2019.4
-67.73 239.67 2009.6
-62.09 238.03 1995.9
-56.78 237.46 1991.1
-52.86 243.15 2038.9
-47.35 241.99 2029.1
-40.25 231.46 1940.8
-35.12 230.76 1935.0
-30.64 234.92 1969.8
-25.83 237.65 1992.7
-20.76 238.72 2001.7
-15.35 235.29 1973.0
-10.10 232.22 1947.2
-5.05 232.46 1949.2
0.00 232.46 1949.2
5.01 230.68 1934.3
10.14 233.28 1956.1
15.50 237.66 1992.8
20.69 237.89 1994.8
25.41 233.74 1959.9
29.99 229.94 1928.1
35.49 233.25 1955.8
40.87 235.01 1970.6
45.28 231.45 1940.7
50.44 232.03 1945.6
56.19 234.97 1970.2
62.99 241.46 2024.7
68.74 243.22 2039.4
71.85 236.09 1979.7
75.36 231.10 1937.8
79.88 229.66 1925.7
85.78 232.12 1946.3
92.58 236.59 1983.8
98.98 239.63 2009.3
104.89 241.26 2023.0
110.39 241.82 2027.6
115.58 241.66 2026.4
120.93 241.86 2028.1
127.65 244.66 2051.5
133.65 245.92 2062.1
136.31 241.16 2022.1
138.96 236.74 1985.1
144.87 238.00 1995.6
154.33 244.80 2052.7
163.47 250.66 2101.8
169.05 250.85 2103.4
176.85 254.22 2131.6
187.58 261.48 2192.5
195.58 264.60 2218.7
200.21 263.13 2206.4
-129.36 253.10 2169.5
-123.64 252.91 2167.8
-116.31 249.24 2136.4
-109.14 245.57 2104.9
-104.04 246.42 2112.1
-99.92 249.80 2141.2
-93.29 246.94 2116.6
-85.92 241.64 2071.2
-80.90 242.70 2080.3
-76.34 245.39 2103.4
-71.10 246.11 2109.5
-64.99 243.70 2088.8
-59.29 242.56 2079.1
-53.52 240.84 2064.3
-46.41 232.05 1989.0
-34.78 223.61 1916.7
-30.54 229.07 1963.4
-25.92 233.25 1999.3
-20.78 233.72 2003.3
-15.31 229.67 1968.6
-10.22 230.02 1971.6
-5.19 233.73 2003.4
0.00 232.92 1996.5
5.12 230.49 1975.6
10.23 230.14 1972.6
15.44 231.64 1985.5
21.13 237.66 2037.1
26.53 238.81 2046.9
30.82 231.15 1981.3
35.87 230.57 1976.3
40.97 230.44 1975.2
45.11 225.56 1933.4
50.76 228.44 1958.1
57.14 233.75 2003.6
62.48 234.31 2008.4
66.58 230.47 1975.5
70.47 226.52 1941.6
74.88 224.64 1925.5
80.56 226.59 1942.2
87.78 232.35 1991.6
92.88 232.21 1990.3
97.35 230.56 1976.2
102.66 230.99 1979.9
107.57 230.50 1975.7
113.97 233.13 1998.2
120.73 236.21 2024.7
126.08 236.41 2026.4
130.67 235.21 2016.1
136.28 235.87 2021.7
142.40 237.33 2034.3
146.57 235.55 2019.0
154.30 239.44 2052.3
165.14 247.71 2123.2
172.60 250.55 2147.6
178.46 250.96 2151.1
186.96 254.95 2185.2
195.55 258.81 2218.4
200.63 257.95 2211.0
207.05 258.81 2218.4
-131.24 251.06 2200.8
-122.95 245.89 2155.5
-116.24 243.55 2135.0
-109.43 240.75 2110.5
-103.05 238.63 2091.9
-97.91 239.34 2098.1
-93.23 241.29 2115.2
-87.59 240.87 2111.5
-82.05 240.67 2109.7
-77.09 242.27 2123.8
-72.26 244.56 2143.9
-66.43 243.56 2135.1
-59.22 236.90 2076.7
-52.22 229.78 2014.3
-46.77 228.66 2004.5
-41.33 227.31 1992.7
-36.13 227.09 1990.8
-31.62 231.86 2032.6
-26.12 229.83 2014.8
-20.37 224.06 1964.2
-15.18 222.59 1951.3
-10.26 225.65 1978.1
-5.29 232.91 2041.8
0.00 235.07 2060.6
5.17 227.36 1993.1
10.09 222.03 1946.4
15.26 223.84 1962.2
20.93 230.18 2017.8
36.49 229.36 2010.6
40.38 222.10 1947.0
44.55 217.78 1909.1
50.26 221.16 1938.8
56.53 226.13 1982.3
61.76 226.46 1985.2
67.04 226.89 1989.0
72.22 226.98 1989.8
75.91 222.66 1951.9
80.71 221.96 1945.7
87.98 227.71 1996.1
93.14 227.68 1995.9
98.16 227.31 1992.7
104.13 229.09 2008.3
109.27 228.95 2007.0
116.04 232.09 2034.5
121.65 232.73 2040.2
125.88 230.77 2023.0
130.65 229.94 2015.7
136.32 230.69 2022.3
142.02 231.45 2028.9
145.75 229.03 2007.7
151.00 229.10 2008.3
158.87 233.01 2042.6
170.10 241.44 2116.5
180.24 247.83 2172.5
186.59 248.79 2180.9
192.47 249.07 2183.4
198.53 249.58 2187.9
206.37 252.23 2211.1
-124.06 242.47 2175.0
-115.35 236.20 2118.8
-108.80 233.91 2098.2
-102.73 232.50 2085.6
-97.89 233.86 2097.7
-93.65 236.87 2124.8
-87.16 234.24 2101.2
-80.95 232.05 2081.5
-76.35 234.51 2103.6
-71.91 237.85 2133.6
-65.98 236.43 2120.8
-58.70 229.48 2058.4
-52.88 227.39 2039.7
-48.41 231.28 2074.6
-42.27 227.19 2037.9
-36.48 224.10 2010.2
-32.04 229.65 2060.0
-26.54 228.22 2047.1
-20.78 223.35 2003.5
-15.54 222.69 1997.6
-10.38 223.14 2001.6
-5.30 227.79 2043.3
0.00 229.35 2057.3
5.14 220.92 1981.7
9.99 214.83 1927.0
15.09 216.27 1939.9
20.14 216.48 1941.9
25.49 219.25 1966.7
31.57 226.22 2029.2
36.66 225.21 2020.2
41.77 224.53 2014.1
47.41 226.52 2031.9
51.52 221.52 1987.0
55.90 218.51 1960.1
61.32 219.71 1970.8
66.85 221.13 1983.6
72.96 224.10 2010.2
77.55 222.31 1994.1
80.61 216.64 1943.3
85.90 217.28 1949.0
91.83 219.36 1967.7
97.75 221.21 1984.3
105.71 227.27 2038.6
113.03 231.44 2076.1
119.53 233.62 2095.6
124.82 233.37 2093.3
128.87 230.90 2071.2
133.51 229.65 2059.9
138.36 228.83 2052.7
142.97 227.69 2042.4
147.08 225.88 2026.1
152.83 226.61 2032.7
158.92 227.78 2043.2
168.24 233.37 2093.3
182.10 244.69 2194.9
196.01 247.90 2223.7
199.22 244.75 2195.4
-126.70 241.87 2221.3
-117.39 234.77 2156.1
-110.63 232.32 2133.5
-103.94 229.75 2110.0
-98.66 230.21 2114.2
-94.90 234.46 2153.2
-88.67 232.75 2137.5
-82.29 230.40 2115.9
-77.64 232.91 2139.0
-71.26 230.22 2114.3
-63.68 222.89 2046.9
-58.69 224.09 2058.0
-54.88 230.49 2116.8
-49.42 230.62 2117.9
-42.40 222.62 2044.5
-35.81 214.84 1973.0
-30.80 215.61 1980.1
-25.78 216.59 1989.1
-20.39 214.11 1966.3
-15.47 216.60 1989.2
-10.48 220.07 2021.0
-5.25 220.61 2026.0
0.00 218.12 2003.2
5.07 213.03 1956.4
10.02 210.43 1932.6
15.28 213.89 1964.3
20.57 215.95 1983.2
25.48 213.99 1965.2
30.89 216.26 1986.0
36.15 216.90 1991.9
41.41 217.43 1996.8
47.56 221.96 2038.4
52.17 219.13 2012.4
56.06 214.03 1965.6
61.02 213.58 1961.5
65.97 213.13 1957.3
71.47 214.41 1969.1
77.46 216.88 1991.7
81.91 215.02 1974.6
85.88 212.18 1948.6
90.41 210.97 1937.5
95.96 212.13 1948.1
103.32 216.97 1992.6
111.87 223.75 2054.8
119.85 228.80 2101.2
123.14 224.87 2065.1
125.02 218.79 2009.3
133.75 224.69 2063.5
143.22 231.35 2124.6
147.80 229.91 2111.4
151.73 227.60 2090.2
158.31 229.28 2105.6
165.05 231.07 2122.1
169.32 229.41 2106.8
177.63 233.13 2141.0
190.00 241.82 2220.8
195.72 241.77 2220.3
199.27 239.13 2196.0
-119.74 233.78 2199.4
-112.67 230.97 2172.9
-105.68 228.04 2145.3
-99.39 226.38 2129.7
-94.79 228.62 2150.8
-87.87 225.16 2118.3
-80.80 220.86 2077.7
-76.47 223.94 2106.8
-70.24 221.53 2084.1
-63.24 216.05 2032.6
-58.91 219.56 2065.5
-54.10 221.79 2086.5
-47.69 217.26 2043.9
-41.84 214.42 2017.2
-36.20 212.00 1994.4
-30.64 209.37 1969.7
