ply
format ascii 1.0
element vertex 2154
property float x
property float y
property float z
end_header
-865.14 808.72 1813.6
-858.00 806.43 1808.4
-836.64 790.67 1773.1
-822.52 781.62 1752.8
-689.67 806.96 1809.6
-695.94 819.87 1838.6
-706.61 838.19 1879.7
-711.93 850.36 1907.0
-708.46 852.13 1910.9
-701.14 849.27 1904.5
-700.82 854.90 1917.1
-703.58 864.39 1938.4
-696.54 861.91 1932.9
-686.43 855.55 1918.6
-692.73 869.70 1950.3
-704.39 890.85 1997.8
-703.04 895.73 2008.7
-693.78 890.52 1997.0
-677.66 876.37 1965.3
-668.24 870.74 1952.7
-674.29 885.33 1985.4
-672.83 890.20 1996.3
-671.31 895.08 2007.2
-687.14 923.34 2070.6
-706.12 956.32 2144.6
-704.73 962.01 2157.3
-689.94 949.36 2129.0
-691.34 958.96 2150.5
-1194.09 949.72 2142.2
-1186.51 948.10 2138.6
-1154.60 926.93 2090.8
-1119.29 902.83 2036.5
-1100.31 891.72 2011.4
-1087.67 885.67 1997.8
-1084.40 887.24 2001.3
-1094.38 899.70 2029.4
-1088.82 899.46 2028.9
-1057.37 877.72 1979.8
-1045.35 871.98 1966.9
-1062.12 890.30 2008.2
-1062.23 894.78 2018.3
-1044.58 884.28 1994.6
-1037.36 882.53 1990.7
-1027.15 878.21 1980.9
-1011.01 868.76 1959.6
-994.53 858.91 1937.4
-976.44 847.57 1911.8
-974.47 850.18 1917.7
-970.80 851.32 1920.3
-954.58 841.40 1897.9
-960.08 850.64 1918.7
-963.83 858.41 1936.3
-944.40 845.51 1907.2
-923.46 831.11 1874.7
-910.01 823.34 1857.2
-908.44 826.29 1863.8
-902.78 825.54 1862.1
-895.11 822.92 1856.2
-891.48 824.01 1858.7
-872.24 810.61 1828.5
-854.72 798.67 1801.5
-849.20 797.88 1799.7
-837.38 791.11 1784.5
-819.34 778.37 1755.7
-702.44 817.12 1843.1
-707.33 828.44 1868.7
-714.05 842.08 1899.4
-710.28 843.46 1902.5
-696.55 832.94 1878.8
-704.94 848.90 1914.8
-722.66 876.42 1976.9
-717.41 876.27 1976.6
-700.90 862.26 1945.0
-685.78 849.77 1916.8
-687.15 857.69 1934.6
-692.74 871.01 1964.7
-684.46 866.98 1955.6
-689.85 880.32 1985.7
-689.67 886.72 2000.1
-673.61 872.63 1968.3
-672.81 878.25 1981.0
-674.30 886.97 2000.7
-675.41 895.31 2019.5
-682.52 911.80 2056.7
-692.33 932.19 2102.7
-703.06 954.16 2152.2
-701.35 959.44 2164.2
-1195.56 949.74 2154.9
-1170.82 934.45 2120.2
-1142.62 916.25 2078.9
-1120.85 903.06 2049.0
-1106.34 895.61 2032.1
-1093.67 889.59 2018.4
-1095.22 895.13 2031.0
-1090.98 895.97 2032.9
-1059.51 874.35 1983.8
-1046.60 867.91 1969.2
-1063.38 886.15 2010.6
-1054.81 883.34 2004.2
-1029.41 866.33 1965.6
-1015.79 859.13 1949.3
-999.66 849.71 1927.9
-998.14 852.68 1934.7
-996.58 855.65 1941.4
-970.86 837.80 1900.9
-963.02 835.27 1895.1
-974.09 849.20 1926.8
-972.89 852.53 1934.3
-965.42 850.37 1929.4
-958.37 848.56 1925.3
-936.08 833.16 1890.4
-912.28 816.25 1852.0
-899.28 808.88 1835.3
-898.17 812.17 1842.7
-905.94 823.58 1868.6
-909.96 831.68 1887.0
-907.87 834.26 1892.8
-888.94 821.31 1863.5
-867.36 805.74 1828.2
-856.63 800.15 1815.5
-836.48 785.64 1782.5
-699.09 808.47 1834.3
-709.90 826.59 1875.5
-710.10 832.54 1888.9
-697.96 823.98 1869.5
-689.12 819.23 1858.8
-702.67 841.23 1908.7
-720.75 868.98 1971.6
-715.51 868.84 1971.3
-704.64 861.79 1955.3
-695.40 856.65 1943.7
-681.88 846.12 1919.8
-672.46 840.57 1907.2
-659.74 830.78 1885.0
-660.45 837.89 1901.1
-680.95 870.38 1974.8
-687.34 885.21 2008.5
-683.19 886.58 2011.6
-681.08 890.65 2020.8
-685.66 903.58 2050.1
-696.48 925.02 2098.8
-698.71 935.28 2122.1
-699.96 944.39 2142.7
-1166.42 929.84 2122.2
-1130.67 905.61 2066.9
-1113.88 896.41 2045.9
-1099.40 888.99 2029.0
-1094.29 889.11 2029.2
-1084.32 885.27 2020.5
-1073.50 880.69 2010.0
-1081.55 891.62 2035.0
-1079.02 893.90 2040.2
-1050.85 874.84 1996.7
-1021.13 854.31 1949.8
-1004.09 844.23 1926.8
-997.87 843.20 1924.5
-1006.18 854.50 1950.2
-1002.47 855.64 1952.9
-973.32 834.98 1905.7
-961.66 829.19 1892.5
-969.39 840.14 1917.5
-969.89 844.91 1928.4
-964.93 844.94 1928.4
-949.18 835.47 1906.8
-919.47 813.56 1856.8
-918.76 817.21 1865.2
-926.61 828.56 1891.0
-909.07 817.20 1865.1
-902.20 815.35 1860.9
-903.82 821.21 1874.3
-899.74 821.93 1875.9
-888.46 816.03 1862.4
-871.64 804.96 1837.2
-855.33 794.24 1812.7
-831.23 776.12 1771.4
-704.30 809.70 1848.0
-710.83 822.81 1877.9
-704.53 821.14 1874.1
-705.68 828.19 1890.2
-711.90 841.33 1920.2
-707.43 841.94 1921.6
-704.54 844.44 1927.3
-706.35 852.66 1946.1
-702.43 854.03 1949.2
-702.23 859.97 1962.7
-697.63 860.57 1964.1
-688.41 855.45 1952.4
-675.27 845.34 1929.3
-674.67 850.89 1942.0
-695.69 884.00 2017.6
-690.93 884.60 2019.0
-675.17 871.02 1988.0
-681.09 885.41 2020.8
-693.58 908.64 2073.8
-699.71 923.84 2108.5
-696.72 927.13 2116.0
-706.59 947.73 2163.0
-1198.79 945.53 2170.9
-1150.21 911.48 2092.7
-1117.18 889.51 2042.2
-1104.01 883.21 2027.8
-1093.57 879.04 2018.2
-1092.47 882.38 2025.9
-1084.27 879.99 2020.4
-1075.65 877.23 2014.0
-1073.18 879.49 2019.2
-1060.66 873.48 2005.4
-1056.44 874.30 2007.3
-1050.48 873.67 2005.9
-1031.59 862.23 1979.6
-1022.26 858.70 1971.5
-1017.23 858.76 1971.7
-1000.27 848.71 1948.6
-989.34 843.70 1937.1
-994.93 852.80 1958.0
-986.55 849.95 1951.4
-971.07 840.93 1930.7
-962.77 838.06 1924.1
-943.28 825.37 1895.0
-921.85 810.84 1861.6
-928.95 821.39 1885.8
-935.95 831.96 1910.1
-918.36 820.66 1884.2
-912.25 819.56 1881.7
-915.05 826.50 1897.6
-900.86 818.08 1878.3
-879.55 803.07 1843.8
-871.94 800.47 1837.8
-863.16 796.77 1829.3
-840.19 779.85 1790.5
-817.39 762.90 1751.6
-690.58 783.90 1799.8
-707.86 808.98 1857.4
-712.74 820.14 1883.0
-703.17 814.71 1870.5
-700.45 817.19 1876.2
-709.61 833.66 1914.0
-708.67 838.43 1925.0
-695.92 829.19 1903.7
-687.38 824.85 1893.8
-692.36 836.81 1921.3
-701.27 853.72 1960.1
-707.20 867.23 1991.1
-709.30 876.19 2011.7
-699.68 870.72 1999.1
-702.57 880.83 2022.3
-714.68 902.76 2072.7
-700.51 891.56 2046.9
-683.78 876.91 2013.3
-688.76 890.09 2043.6
-690.08 898.71 2063.4
-684.31 898.16 2062.1
-682.30 902.57 2072.2
-693.73 924.97 2123.7
-709.74 953.90 2190.1
-1185.68 929.62 2147.1
-1163.68 916.68 2117.2
-1153.92 913.29 2109.4
-1131.67 899.94 2078.6
-1114.44 890.48 2056.7
-1083.99 870.32 2010.1
-1048.43 845.83 1953.6
-1052.71 853.41 1971.1
-1062.61 865.64 1999.3
-1048.81 858.58 1983.0
-1043.77 858.67 1983.2
-1049.56 867.70 2004.1
-1041.88 865.64 1999.3
-1044.96 872.54 2015.3
-1051.82 882.68 2038.7
-1018.94 859.41 1985.0
-993.08 841.85 1944.4
-1001.62 853.42 1971.1
-996.16 853.12 1970.4
-973.51 838.02 1935.5
-957.68 828.67 1913.9
-956.90 832.30 1922.3
-951.95 832.33 1922.4
-934.63 821.49 1897.4
-920.28 813.16 1878.1
-909.70 808.08 1866.4
-911.35 813.88 1879.8
-910.11 817.14 1887.3
-891.91 805.13 1859.6
-875.84 794.92 1836.0
-873.03 796.70 1840.1
-866.24 794.84 1835.8
-842.84 777.65 1796.1
-825.92 766.27 1769.8
-692.82 781.76 1805.6
-704.50 800.35 1848.5
-709.41 811.45 1874.2
-700.83 807.16 1864.3
-693.26 803.99 1857.0
-697.33 814.36 1880.9
-714.72 840.55 1941.4
-721.96 855.09 1975.0
-702.18 837.61 1934.6
-697.04 837.45 1934.2
-703.43 851.25 1966.1
-706.57 861.29 1989.3
-710.22 872.10 2014.3
-702.73 869.31 2007.8
-693.15 863.85 1995.2
-692.07 868.99 2007.1
-697.52 882.47 2038.2
-700.74 893.31 2063.2
-697.63 896.19 2069.9
-690.09 893.37 2063.4
-683.74 892.06 2060.4
-681.16 895.70 2068.8
-682.56 904.66 2089.5
-688.70 920.10 2125.1
-702.87 946.61 2186.4
-1188.90 930.93 2163.1
-1174.09 923.70 2146.3
-1146.39 906.19 2105.6
-1134.88 901.39 2094.5
-1110.55 886.31 2059.4
-1065.14 854.17 1984.7
-1061.43 855.33 1987.4
-1074.38 869.99 2021.5
-1063.15 865.12 2010.2
-1049.36 858.09 1993.9
-1046.89 860.32 1999.0
-1034.05 853.99 1984.3
-1032.00 856.56 1990.3
-1051.35 877.00 2037.8
-1031.25 864.58 2008.9
-995.97 839.25 1950.1
-994.36 842.16 1956.8
-998.61 850.10 1975.3
-985.59 843.34 1959.6
-956.34 822.55 1911.3
-941.85 814.31 1892.1
-957.24 831.95 1933.1
-959.27 838.10 1947.4
-932.50 819.02 1903.1
-911.64 804.96 1870.4
-911.25 808.92 1879.6
-907.99 810.36 1882.9
-882.54 791.90 1840.0
-859.67 775.58 1802.1
-863.34 783.14 1819.7
-860.96 785.27 1824.6
-843.51 773.61 1797.5
-828.15 763.74 1774.6
-824.26 764.40 1776.1
-698.72 783.70 1821.0
-707.07 798.46 1855.3
-701.14 797.19 1852.3
-701.09 802.63 1865.0
-704.88 812.57 1888.1
-703.07 816.16 1896.4
-715.00 835.85 1942.2
-729.26 858.56 1994.9
-716.70 849.80 1974.6
-707.06 844.40 1962.0
-709.96 854.01 1984.4
-702.21 850.85 1977.0
-694.18 847.31 1968.8
-689.25 847.53 1969.3
-683.10 846.23 1966.3
-675.15 842.67 1958.0
-672.63 845.88 1965.5
-680.50 862.31 2003.6
-682.85 871.95 2026.1
-678.06 872.54 2027.4
-674.42 874.63 2032.3
-677.41 885.43 2057.4
-684.87 902.29 2096.5
-684.45 908.94 2112.0
-693.00 927.73 2155.7
-1209.64 937.05 2190.5
-1176.71 915.83 2140.9
-1151.61 900.55 2105.2
-1143.22 898.24 2099.8
-1150.45 908.25 2123.2
-1129.16 895.73 2093.9
-1086.74 866.24 2025.0
-1068.41 855.76 2000.5
-1067.74 859.40 2009.0
-1065.71 861.97 2015.0
-1061.92 863.13 2017.7
-1052.90 860.04 2010.5
-1033.54 848.43 1983.3
-1009.56 832.88 1947.0
-1008.44 836.14 1954.6
-1004.30 836.91 1956.4
-983.99 824.15 1926.6
-987.51 831.32 1943.4
-996.01 842.78 1970.1
-998.94 849.62 1986.1
-983.83 841.10 1966.2
-946.74 813.61 1901.9
-939.76 811.83 1897.8
-949.70 824.74 1928.0
-930.35 812.21 1898.7
-913.17 801.45 1873.5
-916.45 808.63 1890.3
-916.81 813.30 1901.2
-892.92 796.38 1861.7
-870.79 780.88 1825.4
-875.62 789.49 1845.6
-880.75 798.48 1866.6
-865.58 789.06 1844.6
-845.77 775.29 1812.4
-835.51 770.17 1800.4
-821.01 761.05 1779.1
-711.28 792.98 1853.7
-707.99 794.69 1857.7
-710.93 803.45 1878.2
-722.26 821.89 1921.3
-716.51 821.00 1919.2
-703.99 812.29 1898.9
-707.27 821.82 1921.1
-712.03 833.23 1947.8
-710.02 836.81 1956.2
-711.74 844.88 1975.0
-710.88 849.96 1986.9
-698.77 841.59 1967.3
-692.00 839.56 1962.6
-688.31 841.27 1966.6
-684.29 842.60 1969.7
-678.45 841.68 1967.6
-672.30 840.38 1964.5
-676.01 851.46 1990.4
-682.55 866.32 2025.2
-682.75 873.29 2041.5
-687.54 886.29 2071.8
-699.14 908.33 2123.4
-704.16 922.11 2155.6
-702.45 927.24 2167.6
-691.90 920.68 2152.2
-696.89 934.86 2185.4
-1191.12 921.44 2167.1
-1174.50 912.88 2147.0
-1174.09 916.91 2156.5
-1162.03 911.83 2144.5
-1122.45 885.01 2081.5
-1084.90 859.54 2021.6
-1072.74 854.03 2008.6
-1061.51 849.21 1997.3
-1050.33 844.38 1985.9
-1064.47 859.96 2022.6
-1073.24 871.34 2049.3
-1046.87 854.16 2008.9
-1015.92 833.06 1959.3
-993.34 818.63 1925.4
-968.33 802.05 1886.4
-956.67 796.41 1873.1
-967.51 809.55 1904.0
-987.08 830.16 1952.5
-999.29 844.76 1986.8
-995.05 845.53 1988.6
-968.71 827.44 1946.1
-944.22 810.74 1906.8
-938.05 809.69 1904.3
-938.48 814.34 1915.3
-940.07 820.06 1928.7
-929.79 815.43 1917.8
-917.53 809.00 1902.7
-907.75 804.71 1892.6
-898.41 800.76 1883.3
-895.91 802.89 1888.3
-894.18 805.75 1895.1
-882.12 799.27 1879.8
-860.64 784.14 1844.2
-847.57 776.54 1826.4
-823.23 758.48 1783.9
-708.44 779.76 1833.9
-709.54 786.25 1849.2
-710.57 792.75 1864.5
-720.08 808.85 1902.4
-734.31 830.53 1953.3
-730.76 832.25 1957.4
-718.46 823.97 1937.9
-721.98 833.84 1961.1
-718.69 835.92 1966.0
-708.40 829.84 1951.7
-706.05 833.04 1959.2
-700.84 832.89 1958.9
-696.26 833.47 1960.3
-696.60 840.02 1975.6
-689.20 837.25 1969.1
-680.92 833.36 1960.0
-687.79 848.11 1994.7
-694.81 863.24 2030.3
-693.59 868.31 2042.2
-694.39 876.00 2060.3
-700.69 890.80 2095.1
-711.79 911.98 2144.9
-709.02 915.58 2153.4
-698.43 909.07 2138.1
-704.77 924.66 2174.7
-702.71 929.39 2185.9
-696.65 928.87 2184.6
-1212.33 932.13 2205.7
-1183.03 913.90 2162.6
-1166.89 905.73 2143.3
-1140.56 889.53 2104.9
-1117.50 875.74 2072.3
-1095.02 862.26 2040.4
-1085.91 859.24 2033.3
-1076.82 856.20 2026.1
-1058.56 845.81 2001.5
-1067.89 857.46 2029.1
-1077.52 869.49 2057.5
-1052.42 853.45 2019.6
-1032.64 841.60 1991.5
-1021.56 836.76 1980.1
-994.72 818.88 1937.8
-980.81 811.54 1920.4
-991.99 824.97 1952.2
-1011.48 845.49 2000.7
-1001.32 841.32 1990.8
-976.56 824.76 1951.7
-966.12 820.20 1940.9
-957.40 817.05 1933.4
-949.52 814.59 1927.6
-948.66 818.16 1936.0
-938.75 813.92 1926.0
-918.28 800.43 1894.1
-920.68 806.83 1909.2
-924.62 814.67 1927.8
-901.93 798.99 1890.7
-887.40 790.42 1870.4
-886.51 793.97 1878.8
-874.87 787.87 1864.4
-871.59 789.27 1867.7
-869.85 792.10 1874.4
-857.91 785.62 1859.0
-702.46 763.33 1806.3
-704.00 770.15 1822.4
-705.80 777.33 1839.4
-707.85 784.89 1857.3
-710.47 793.20 1877.0
-717.25 806.29 1908.0
-732.34 828.97 1961.6
-740.39 843.94 1997.1
-734.47 843.08 1995.0
-720.57 833.00 1971.2
-710.58 827.32 1957.7
-708.53 830.87 1966.1
-702.06 829.24 1962.3
-696.22 828.35 1960.2
-693.17 830.78 1965.9
-681.80 823.21 1948.0
-668.69 813.41 1924.8
-670.52 821.76 1944.6
-686.38 847.57 2005.6
-693.88 863.38 2043.1
-693.80 869.91 2058.5
-699.52 883.89 2091.6
-706.26 899.38 2128.2
-698.30 896.25 2120.8
-687.21 889.01 2103.7
-692.79 903.40 2137.8
-1170.84 898.94 2140.3
-1142.64 881.46 2098.7
-1131.13 876.76 2087.5
-1121.90 873.79 2080.4
-1103.82 863.86 2056.8
-1098.20 863.64 2056.3
-1111.95 878.71 2092.2
-1113.27 884.06 2104.9
-1083.97 865.04 2059.6
-1057.46 848.07 2019.2
-1043.69 841.18 2002.8
-1036.01 839.17 1998.0
-1044.67 850.44 2024.9
-1036.97 848.43 2020.1
-1010.53 830.99 1978.6
-1011.84 836.32 1991.2
-1018.58 846.21 2014.8
-995.36 831.17 1979.0
-976.88 819.98 1952.3
-972.71 820.72 1954.1
-958.96 813.36 1936.6
-945.29 805.99 1919.0
-946.51 811.30 1931.7
-937.43 807.79 1923.3
-912.87 790.83 1882.9
-912.45 794.72 1892.2
-928.57 813.13 1936.0
-916.72 807.11 1921.7
-883.28 781.92 1861.7
-865.66 770.54 1834.6
-862.85 772.28 1838.8
-868.32 781.48 1860.7
-886.27 802.10 1909.8
-885.60 806.00 1919.0
-861.12 788.15 1876.5
-708.77 765.47 1822.6
-712.97 775.17 1845.6
-710.05 777.22 1850.5
-711.08 783.64 1865.8
-712.71 790.81 1882.9
-717.52 801.64 1908.7
-730.35 821.64 1956.3
-736.80 834.70 1987.4
-728.65 831.28 1979.2
-714.78 821.24 1955.3
-703.88 814.49 1939.3
-705.03 821.68 1956.4
-702.02 824.11 1962.2
-697.74 825.06 1964.4
-695.92 828.96 1973.7
-688.52 826.22 1967.2
-678.40 820.16 1952.8
-664.72 809.66 1927.8
-664.99 816.12 1943.2
-676.24 836.27 1991.1
-679.55 846.82 2016.2
-686.27 861.82 2052.0
-695.74 880.55 2096.5
-697.74 890.03 2119.1
-696.16 895.06 2131.1
-700.25 907.53 2160.8
-1190.63 908.49 2176.5
-1166.82 894.57 2143.1
-1159.25 893.01 2139.4
-1153.47 892.83 2139.0
-1138.81 885.74 2122.0
-1116.70 872.76 2090.9
-1114.10 874.97 2096.2
-1125.06 887.92 2127.2
-1102.25 874.20 2094.4
-1068.26 851.44 2039.8
-1047.94 839.39 2011.0
-1033.34 831.84 1992.9
-1035.57 837.83 2007.2
-1045.03 849.74 2035.8
-1035.59 846.35 2027.6
-1025.77 842.59 2018.6
-1021.05 843.02 2019.7
-1008.74 837.15 2005.6
-999.43 833.72 1997.4
-983.88 825.03 1976.6
-959.70 808.96 1938.1
-948.50 803.73 1925.5
-951.77 810.77 1942.4
-950.87 814.31 1950.9
-933.18 803.43 1924.8
-923.73 799.57 1915.6
-932.93 811.91 1945.1
-931.94 815.44 1953.6
-907.63 798.52 1913.0
-885.90 783.68 1877.5
-880.61 783.31 1876.6
-875.32 782.93 1875.7
-884.99 796.00 1907.0
-896.09 810.51 1941.8
-875.06 795.95 1906.9
-849.51 777.11 1861.8
-717.12 769.71 1844.0
-715.90 773.56 1853.2
-717.31 780.32 1869.4
-724.61 793.62 1901.3
-730.44 805.49 1929.7
-739.09 820.64 1966.0
-735.18 821.98 1969.2
-723.49 814.56 1951.5
-733.11 831.21 1991.4
-737.11 841.66 2016.4
-713.04 819.99 1964.5
-701.19 812.17 1945.8
-699.47 816.05 1955.0
-695.52 817.36 1958.2
-700.21 828.93 1985.9
-698.62 833.17 1996.1
-695.15 835.22 2001.0
-688.62 833.60 1997.1
-672.47 820.22 1965.0
-667.24 820.04 1964.6
-673.88 834.58 1999.4
-683.60 853.18 2044.0
-697.21 876.95 2101.0
-704.72 893.39 2140.3
-699.06 893.24 2140.0
-699.13 900.48 2157.3
-1185.20 903.01 2176.9
-1179.35 902.85 2176.5
-1174.83 903.72 2178.6
-1140.10 881.23 2124.4
-1099.39 853.90 2058.5
-1105.23 862.62 2079.5
-1124.14 881.68 2125.5
-1101.32 868.04 2092.6
-1066.88 845.06 2037.2
-1048.72 834.80 2012.5
-1037.57 830.05 2001.0
-1035.06 832.21 2006.2
-1039.38 839.91 2024.8
-1036.37 841.72 2029.2
-1032.06 842.50 2031.0
-1027.74 843.28 2032.9
-1014.56 836.75 2017.2
-999.77 828.82 1998.1
-977.95 814.96 1964.6
-958.76 803.15 1936.2
-953.36 802.83 1935.4
-952.91 806.70 1944.7
-948.72 807.42 1946.5
-937.57 802.20 1933.9
-933.80 803.27 1936.4
-938.51 811.69 1956.7
-934.27 812.41 1958.5
-911.95 797.33 1922.1
-891.38 783.63 1889.1
-888.45 785.37 1893.3
-885.10 786.76 1896.7
-885.68 791.67 1908.5
-888.16 798.35 1924.6
-872.23 788.45 1900.7
-847.07 770.06 1856.4
-841.05 768.96 1853.7
-717.86 760.64 1833.7
-715.68 763.39 1840.3
-719.17 772.27 1861.7
-726.58 785.49 1893.6
-730.18 794.76 1915.9
-731.37 801.50 1932.2
-733.13 808.97 1950.2
-720.79 800.88 1930.7
-725.06 811.26 1955.7
-751.75 847.04 2042.0
-737.47 842.82 2031.8
-708.72 815.80 1966.7
-690.01 800.01 1928.6
-685.18 800.21 1929.1
-688.72 810.25 1953.3
-695.51 824.31 1987.2
-701.54 837.66 2019.4
-695.27 836.41 2016.4
-678.46 822.38 1982.5
-676.48 826.23 1991.8
-686.04 844.36 2035.5
-677.68 840.54 2026.3
-671.42 839.27 2023.2
-691.93 871.72 2101.5
-700.52 889.54 2144.4
-699.43 895.27 2158.2
-1229.83 926.75 2248.2
-1163.60 893.78 2168.2
-1115.25 860.80 2088.2
-1116.63 866.07 2101.0
-1110.92 865.86 2100.5
-1064.08 833.44 2021.8
-1057.65 832.51 2019.6
-1067.29 844.28 2048.1
-1054.33 838.19 2033.4
-1050.04 838.98 2035.3
-1049.59 842.86 2044.7
-1043.13 841.91 2042.4
-1023.06 829.93 2013.3
-1003.96 818.61 1985.8
-989.61 811.07 1967.6
-973.23 801.78 1945.0
-958.20 793.51 1925.0
-945.75 787.30 1909.9
-941.24 787.67 1910.8
-942.08 792.54 1922.6
-940.82 795.69 1930.2
-931.74 792.23 1921.9
-919.04 785.63 1905.8
-915.72 787.02 1909.2
-917.23 792.60 1922.8
-899.39 781.44 1895.7
-883.67 772.00 1872.8
-885.95 778.27 1888.0
-878.66 776.15 1882.8
-874.93 777.17 1885.3
-880.22 786.26 1907.4
-864.70 776.77 1884.3
-842.68 761.28 1846.8
-839.77 762.99 1850.9
-843.38 770.67 1869.6
-733.59 767.38 1861.6
-735.45 774.42 1878.6
-732.50 776.45 1883.6
-733.55 782.78 1898.9
-743.22 798.46 1937.0
-746.73 807.69 1959.3
-733.29 798.58 1937.3
-718.30 787.66 1910.8
-724.32 799.77 1940.1
-748.03 831.72 2017.7
-750.11 839.91 2037.5
-730.96 824.28 1999.6
-729.48 828.49 2009.8
-723.22 827.28 2006.9
-693.40 798.92 1938.1
-683.40 798.97 1938.2
-693.01 816.21 1980.0
-701.82 832.75 2020.2
-698.58 835.15 2026.0
-685.66 825.91 2003.6
-688.43 835.57 2027.0
-689.59 843.42 2046.0
-670.57 826.51 2005.0
-655.55 814.32 1975.4
-667.18 835.28 2026.3
-689.54 870.13 2110.8
-703.46 894.80 2170.7
-1239.31 928.01 2265.5
-1208.08 908.94 2218.9
-1184.47 904.09 2207.1
-1154.18 885.24 2161.1
-1124.51 866.70 2115.8
-1091.07 845.05 2063.0
-1060.92 825.74 2015.8
-1073.70 839.82 2050.2
-1085.89 853.59 2083.8
-1075.01 849.26 2073.2
-1061.16 842.53 2056.8
-1052.52 839.89 2050.4
-1052.45 844.10 2060.6
-1039.57 838.02 2045.8
-1014.03 821.62 2005.8
-993.72 809.32 1975.7
-976.48 799.40 1951.5
-960.59 790.49 1929.8
-939.38 777.08 1897.0
-927.43 771.23 1882.8
-926.28 774.35 1890.4
-924.26 776.77 1896.3
-925.49 781.97 1909.0
-921.37 782.67 1910.7
-927.78 792.37 1934.4
-939.33 806.60 1969.1
-925.40 798.98 1950.5
-913.56 793.09 1936.1
-904.56 789.61 1927.6
-886.07 777.78 1898.7
-877.97 774.97 1891.9
-878.93 780.18 1904.6
-873.19 779.45 1902.8
-857.72 770.00 1879.7
-850.10 767.51 1873.7
-851.35 773.07 1887.2
-844.88 771.63 1883.7
-737.75 761.86 1859.9
-738.98 768.15 1875.2
-744.90 779.43 1902.8
-743.58 783.24 1912.1
-739.19 783.84 1913.5
-743.15 793.36 1936.8
-753.32 809.69 1976.6
-745.12 806.37 1968.5
-729.73 795.15 1941.2
-735.68 807.21 1970.6
-742.15 820.00 2001.8
-724.92 806.60 1969.1
-716.18 802.53 1959.1
-727.54 821.08 2004.4
-730.77 830.66 2027.8
-711.26 814.34 1988.0
-691.62 797.64 1947.2
-694.20 806.49 1968.8
-696.05 814.63 1988.7
-697.50 822.42 2007.7
-704.63 837.08 2043.5
-702.53 840.91 2052.9
-701.59 846.19 2065.8
-698.50 848.94 2072.5
-687.39 841.92 2055.3
-681.05 840.67 2052.3
-679.10 844.86 2062.5
-686.93 861.39 2102.9
-696.01 879.75 2147.7
-698.02 889.42 2171.3
-1218.71 915.49 2249.2
-1197.51 903.89 2220.7
-1167.97 885.85 2176.3
-1165.66 888.39 2182.6
-1161.11 889.24 2184.7
-1138.06 875.86 2151.8
-1120.85 866.86 2129.7
-1105.47 859.20 2110.9
-1091.47 852.54 2094.5
-1081.87 849.27 2086.5
-1067.98 842.58 2070.0
-1052.87 834.85 2051.0
-1047.24 834.61 2050.4
-1038.21 831.63 2043.1
-1016.91 818.74 2011.5
-996.58 806.51 1981.4
-980.15 797.33 1958.9
-969.69 792.92 1948.0
-955.09 785.08 1928.8
-950.13 785.11 1928.8
-956.31 794.40 1951.7
-949.23 792.71 1947.5
-945.03 793.42 1949.3
-938.78 792.41 1946.8
-943.50 800.70 1967.1
-958.64 817.97 2009.6
-947.03 812.48 1996.1
-929.07 801.45 1969.0
-915.21 793.86 1950.3
-893.50 779.33 1914.6
-881.80 773.43 1900.1
-884.32 779.99 1916.3
-879.33 779.97 1916.2
-859.16 766.41 1882.9
-848.43 761.16 1870.0
-848.54 765.64 1881.0
-840.93 763.16 1874.9
-749.18 763.78 1876.4
-743.86 763.31 1875.3
-740.94 765.32 1880.2
-740.39 769.81 1891.2
-742.15 776.78 1908.4
-741.47 781.28 1919.4
-742.08 787.20 1934.0
-748.27 799.17 1963.4
-754.33 811.16 1992.8
-753.67 816.04 2004.8
-736.93 803.46 1973.9
-719.04 789.44 1939.5
-715.83 791.45 1944.4
-721.25 803.10 1973.0
-719.84 807.25 1983.2
-711.10 803.19 1973.3
-712.16 810.21 1990.5
-714.06 818.31 2010.4
-706.87 816.02 2004.8
-699.09 813.01 1997.4
-692.56 811.43 1993.5
-690.91 815.59 2003.7
-692.84 824.06 2024.5
-696.77 835.06 2051.6
-701.76 847.51 2082.1
-700.68 852.77 2095.1
-695.43 852.98 2095.6
-695.12 859.33 2111.2
-706.62 880.47 2163.1
-705.17 892.83 2193.5
-1213.75 905.96 2240.0
-1178.26 883.69 2185.0
-1166.59 879.17 2173.8
-1182.03 895.13 2213.2
-1147.26 877.31 2169.2
-1127.81 866.69 2142.9
-1111.09 858.07 2121.6
-1087.49 844.02 2086.9
-1067.50 832.65 2058.7
-1056.68 828.36 2048.1
-1044.19 822.70 2034.1
-1026.62 812.96 2010.1
-1007.02 801.50 1981.7
-996.44 797.15 1971.0
-986.33 793.13 1961.0
-975.41 788.42 1949.4
-970.41 788.46 1949.5
-962.48 786.11 1943.7
-965.38 792.63 1959.8
-981.85 810.41 2003.8
-983.30 815.93 2017.4
-969.11 808.46 1998.9
-952.55 798.91 1975.3
-944.62 796.54 1969.5
-946.01 802.05 1983.1
-951.77 811.35 2006.1
-949.81 814.13 2012.9
-925.88 798.00 1973.1
-894.97 775.64 1917.8
-887.61 773.56 1912.7
-894.83 784.23 1939.0
-892.93 786.98 1945.8
-875.40 775.92 1918.5
-854.51 761.73 1883.4
-846.11 758.58 1875.6
-843.88 760.96 1881.5
-757.89 762.78 1886.0
-753.25 763.03 1886.6
-750.32 765.03 1891.6
-749.77 769.50 1902.6
-747.46 772.21 1909.3
-746.81 776.68 1920.4
-747.80 782.93 1935.8
-749.04 789.53 1952.1
-751.20 797.20 1971.1
-752.62 804.16 1988.3
-766.78 824.95 2039.7
-764.35 828.04 2047.4
-736.20 803.13 1985.8
-723.19 794.49 1964.4
-726.65 803.95 1987.8
-722.66 805.25 1991.0
-706.93 793.39 1961.7
-701.40 792.89 1960.4
-710.58 809.13 2000.6
-711.18 815.76 2017.0
-713.86 824.90 2039.6
-717.65 835.47 2065.7
-693.31 813.20 2010.7
-672.54 794.82 1965.2
-680.82 810.75 2004.6
-692.20 830.63 2053.8
-695.33 840.87 2079.1
-694.82 846.82 2093.8
-687.52 844.52 2088.1
-691.84 856.57 2117.9
-703.49 877.96 2170.8
-690.04 868.12 2146.5
-691.17 876.60 2167.4
-1232.79 909.91 2264.3
-1210.88 902.33 2245.4
-1208.20 909.08 2262.2
-1157.93 875.50 2178.7
-1147.21 871.65 2169.1
-1141.79 871.81 2169.5
-1118.01 857.88 2134.8
-1087.85 838.89 2087.5
-1053.10 816.16 2031.0
-1028.96 801.45 1994.4
-1027.33 804.22 2001.3
-1018.81 801.60 1994.8
-1017.57 804.71 2002.5
-1023.08 813.22 2023.7
-1017.08 812.62 2022.2
-1008.98 810.32 2016.5
-984.13 794.48 1977.0
-957.77 777.25 1934.2
-970.67 791.86 1970.5
-995.82 816.68 2032.3
-992.27 818.10 2035.8
-971.48 805.23 2003.8
-962.25 801.87 1995.4
-961.59 805.66 2004.9
-957.25 806.38 2006.7
-956.92 810.51 2016.9
-957.35 815.32 2028.9
-933.77 799.63 1989.9
-903.99 778.44 1937.1
-898.57 778.09 1936.3
-904.57 787.68 1960.1
-901.83 789.74 1965.3
-898.29 791.11 1968.7
-889.30 787.67 1960.1
-880.35 784.22 1951.5
-877.96 786.61 1957.5
-864.07 778.67 1937.7
-848.74 769.33 1914.5
-773.32 768.37 1912.1
-768.27 768.27 1911.8
-763.92 768.88 1913.3
-760.93 770.88 1918.3
-760.67 775.68 1930.3
-757.96 778.03 1936.1
-754.87 780.04 1941.1
-752.78 783.09 1948.7
-754.00 789.66 1965.1
-756.47 797.64 1984.9
-745.93 791.91 1970.7
-747.63 799.19 1988.8
-753.51 811.06 2018.3
-733.21 794.74 1977.7
-725.07 791.45 1969.5
-735.27 808.27 2011.4
-728.67 806.74 2007.6
-709.72 791.41 1969.4
-698.19 784.20 1951.5
-701.45 793.62 1974.9
-713.31 812.96 2023.0
-728.95 836.95 2082.7
-730.51 844.99 2102.7
-702.40 818.59 2037.0
-690.04 810.28 2016.4
-709.33 839.29 2088.6
-716.34 854.10 2125.4
-712.80 856.46 2131.3
-699.51 847.07 2107.9
-677.86 827.31 2058.8
-685.45 843.21 2098.3
-700.91 869.13 2162.8
-707.48 884.35 2200.7
-1236.17 910.86 2281.4
-1138.78 859.66 2153.1
-1137.79 863.15 2161.9
-1117.51 851.96 2133.9
-1105.62 847.10 2121.7
-1087.71 837.54 2097.7
-1050.02 812.58 2035.2
-1034.96 804.97 2016.2
-1039.70 812.76 2035.7
-1050.32 825.25 2067.0
-1058.68 836.09 2094.1
-1055.92 838.20 2099.4
-1034.17 825.19 2066.8
-996.18 799.02 2001.3
-979.79 789.99 1978.6
-1003.00 812.96 2036.2
-1003.60 817.75 2048.2
-976.52 799.91 2003.5
-966.86 796.24 1994.3
-969.10 802.37 2009.6
-954.17 794.28 1989.4
-937.31 784.48 1964.9
-921.35 775.34 1942.0
-905.49 766.18 1919.0
-910.90 775.02 1941.1
-909.05 777.74 1948.0
-909.14 782.17 1959.1
-921.79 797.51 1997.5
-905.26 787.63 1972.7
-888.44 777.39 1947.1
-894.64 787.28 1971.9
-899.57 796.17 1994.1
-887.47 790.00 1978.7
-863.96 773.55 1937.5
-845.96 761.86 1908.2
-787.82 772.77 1935.5
-779.56 769.56 1927.5
-773.42 768.43 1924.6
-767.30 767.30 1921.8
-755.66 760.59 1905.0
-745.80 755.62 1892.5
-754.80 769.79 1928.1
-764.30 784.69 1965.4
-760.80 786.33 1969.5
-760.97 791.82 1983.2
-767.75 804.31 2014.5
-762.44 804.22 2014.3
-742.30 788.37 1974.6
-725.94 776.35 1944.5
-730.87 787.09 1971.4
-749.27 812.58 2035.2
-745.50 814.24 2039.4
-724.46 796.91 1996.0
-709.97 786.59 1970.1
-703.48 785.05 1966.3
-710.79 798.99 2001.2
-728.51 824.93 2066.2
-731.09 833.98 2088.8
-717.59 824.69 2065.6
-704.50 815.74 2043.1
-708.47 826.55 2070.2
-717.43 843.39 2112.4
-712.74 844.33 2114.7
-717.24 856.24 2144.6
-711.57 856.11 2144.2
-691.58 838.60 2100.4
-701.11 856.91 2146.2
-1213.05 892.29 2249.5
-1207.94 892.82 2250.8
-1194.14 891.23 2246.8
-1134.30 850.72 2144.7
-1111.80 837.96 2112.5
-1095.12 829.47 2091.1
-1087.68 827.93 2087.2
-1086.33 831.04 2095.1
-1062.02 816.53 2058.5
-1049.49 810.97 2044.5
-1059.32 822.72 2074.1
-1049.80 819.49 2065.9
-1040.74 816.58 2058.6
-1038.90 819.34 2065.6
-1017.63 806.73 2033.8
-991.46 790.07 1991.8
-987.62 791.13 1994.4
-996.25 802.24 2022.5
-982.37 795.26 2004.8
-958.67 780.19 1966.9
-954.02 780.56 1967.8
-955.91 786.31 1982.3
-940.63 777.93 1961.2
-927.87 771.54 1945.1
-916.39 766.16 1931.5
-896.93 754.01 1900.9
-899.18 760.08 1916.2
-903.36 767.86 1935.8
-909.83 777.67 1960.5
-917.76 788.86 1988.7
-896.53 774.96 1953.7
-874.27 760.02 1916.0
-875.50 765.44 1929.7
-879.37 773.24 1949.3
-865.83 765.73 1930.4
-847.77 754.12 1901.2
-834.04 746.24 1881.3
-836.31 752.68 1897.5
-850.57 770.04 1941.3
-850.38 774.45 1952.4
-831.46 761.76 1920.4
-802.21 771.94 1946.1
-798.87 773.59 1950.2
-783.48 763.52 1924.8
-775.94 761.02 1918.5
-771.58 761.62 1920.1
-757.46 752.54 1897.2
-741.23 746.11 1880.9
-766.33 776.48 1957.5
-769.33 784.71 1978.3
-758.36 778.72 1963.2
-755.19 780.71 1968.2
-759.34 790.34 1992.4
-770.02 806.93 2034.3
-766.31 808.59 2038.5
-738.64 784.81 1978.5
-733.08 784.35 1977.3
-744.36 802.02 2021.9
-732.26 794.58 2003.1
-729.84 797.61 2010.8
-735.00 809.03 2039.6
-725.82 804.72 2028.7
-730.80 816.15 2057.5
-735.02 826.89 2084.6
-721.47 817.67 2061.3
-719.09 821.05 2069.9
-717.28 825.14 2080.2
-715.72 829.58 2091.4
-719.22 840.00 2117.7
-701.96 826.16 2082.7
-693.77 822.85 2074.4
-702.72 839.97 2117.6
-698.29 841.24 2120.8
-683.37 829.81 2092.0
-677.25 828.95 2089.8
-700.05 863.77 2177.6
-1253.37 915.93 2324.3
-1222.20 897.46 2277.4
-1225.47 904.23 2294.6
-1201.64 890.97 2260.9
-1118.75 837.68 2125.7
-1092.84 822.33 2086.7
-1076.68 814.20 2066.1
-1068.42 812.00 2060.5
-1064.09 812.77 2062.5
-1070.08 821.47 2084.6
-1063.95 820.92 2083.2
-1039.45 806.11 2045.6
-1010.85 787.95 1999.5
-991.34 776.72 1971.0
-997.27 785.42 1993.1
-997.22 789.47 2003.4
-990.85 788.53 2001.0
-996.56 797.25 2023.1
-1000.10 804.32 2041.0
-991.59 801.71 2034.4
-961.71 781.71 1983.7
-939.42 767.70 1948.1
-937.25 770.07 1954.1
-937.89 774.78 1966.1
-928.78 771.44 1957.6
-912.06 761.72 1932.9
-907.86 762.40 1934.7
-906.03 765.09 1941.5
-906.54 769.80 1953.4
-907.79 775.19 1967.1
-897.98 771.15 1956.9
-887.04 766.08 1944.0
-875.77 760.67 1930.3
-867.26 757.60 1922.5
-860.70 756.23 1919.0
-848.80 750.10 1903.4
-840.01 746.67 1894.8
-846.80 757.14 1921.3
-848.95 763.55 1937.6
-836.38 756.72 1920.3
-833.96 759.06 1926.2
-807.48 771.93 1958.9
-795.22 765.02 1941.3
-776.65 751.92 1908.1
-767.04 747.37 1896.5
-767.98 753.11 1911.1
-758.75 748.90 1900.4
-748.69 748.69 1899.9
-776.17 781.31 1982.7
-780.14 790.54 2006.1
-771.13 786.66 1996.2
-769.91 790.72 2006.5
-767.63 793.74 2014.2
-771.62 803.33 2038.5
-774.51 811.90 2060.3
-753.01 794.84 2017.0
-736.92 783.30 1987.7
-738.47 790.47 2005.9
-731.23 788.28 2000.3
-732.66 795.46 2018.6
-739.40 808.55 2051.8
-731.46 805.66 2044.4
-729.50 809.38 2053.9
-725.32 810.65 2057.1
-722.36 813.32 2063.9
-730.43 828.55 2102.5
-717.55 820.06 2081.0
-703.85 810.50 2056.7
-715.88 830.64 2107.8
-708.51 828.41 2102.2
-685.72 807.98 2050.3
-680.57 808.18 2050.8
-684.21 818.89 2078.0
-678.70 818.74 2077.6
-670.58 815.43 2069.2
-691.16 847.23 2149.9
-1228.57 900.55 2300.4
-1128.85 835.57 2134.4
-1099.30 817.71 2088.8
-1085.73 811.61 2073.2
-1080.94 812.05 2074.3
-1077.45 813.48 2077.9
-1076.11 816.54 2085.8
-1069.55 815.67 2083.5
-1052.69 806.89 2061.1
-1041.49 802.37 2049.6
-1026.06 794.54 2029.6
-996.30 775.47 1980.9
-994.62 778.17 1987.8
-1011.83 795.76 2032.7
-1021.30 807.42 2062.5
-1016.05 807.49 2062.7
-1009.55 806.57 2060.3
-1002.23 804.98 2056.2
-971.47 784.45 2003.8
-939.29 762.55 1947.8
-928.15 757.57 1935.1
-925.99 759.92 1941.1
-913.30 753.60 1925.0
-893.03 740.92 1892.6
-887.31 740.24 1890.9
-901.12 755.94 1931.0
-916.74 773.34 1975.4
-919.13 779.71 1991.7
-910.05 776.37 1983.2
-899.05 771.34 1970.3
-887.71 765.97 1956.6
-876.43 760.58 1942.8
-868.29 757.87 1935.9
-865.93 760.20 1941.9
-866.21 764.90 1953.8
-850.86 755.77 1930.5
-831.84 743.24 1898.5
-834.76 750.29 1916.5
-848.81 767.48 1960.5
-844.80 768.46 1963.0
-840.78 769.44 1965.5
-840.79 774.15 1977.5
-829.03 768.00 1961.8
-813.33 758.11 1936.5
-805.71 755.67 1930.3
-804.24 759.00 1938.8
-800.22 759.96 1941.2
-800.82 765.34 1955.0
-793.91 763.57 1950.5
-780.67 755.65 1930.2
-778.03 757.96 1936.1
-778.50 763.34 1949.9
-770.59 760.52 1942.7
-758.58 753.59 1925.0
-765.13 765.13 1954.5
-780.40 785.61 2006.8
-782.57 793.07 2025.8
-780.27 796.08 2033.5
-776.26 797.38 2036.8
-768.24 794.55 2029.6
-759.26 790.67 2019.7
-753.27 789.89 2017.7
-754.15 796.34 2034.2
-756.89 804.86 2055.9
-750.83 804.08 2053.9
-737.40 795.34 2031.6
-728.53 791.43 2021.6
-717.50 785.09 2005.4
-712.18 784.96 2005.1
-715.92 794.88 2030.4
-721.38 806.88 2061.1
-723.01 814.74 2081.2
-704.06 799.35 2041.9
-693.79 793.65 2027.3
-708.31 816.45 2085.5
-709.68 824.32 2105.6
-696.08 814.79 2081.3
-691.75 816.05 2084.5
-697.66 829.50 2118.9
-694.38 832.15 2125.6
-688.46 831.66 2124.4
-697.75 849.68 2170.4
-1249.87 905.70 2328.9
-1214.73 884.51 2274.5
-1186.91 868.47 2233.2
-1162.80 855.00 2198.6
-1116.38 824.91 2121.2
-1087.81 807.78 2077.2
-1083.89 808.88 2080.0
-1080.83 810.62 2084.5
-1093.78 824.45 2120.0
-1103.12 835.69 2148.9
-1088.26 828.62 2130.7
-1078.61 825.47 2122.6
-1064.31 818.70 2105.2
-1037.77 802.40 2063.3
-1014.36 788.36 2027.2
-1011.72 790.40 2032.5
-1023.72 803.97 2067.3
-1020.96 806.02 2072.6
-1000.32 793.90 2041.5
-980.21 782.08 2011.1
-970.53 778.50 2001.9
-957.61 772.26 1985.8
-938.63 761.05 1957.0
-927.89 756.43 1945.1
-932.57 764.40 1965.6
-928.31 765.09 1967.4
-903.19 748.50 1924.7
-899.39 749.49 1927.3
-918.61 769.78 1979.4
-924.95 779.45 2004.3
-909.94 771.13 1982.9
-893.45 761.47 1958.1
-889.93 762.80 1961.5
-887.16 764.79 1966.6
-877.81 761.11 1957.1
-874.63 762.76 1961.4
-871.06 764.08 1964.8
-852.26 752.00 1933.7
-832.84 739.21 1900.8
-835.76 746.22 1918.8
-847.58 761.30 1957.6
-840.60 759.58 1953.2
-827.71 752.47 1934.9
-819.70 749.72 1927.9
-822.33 756.75 1945.9
-821.61 760.75 1956.2
-806.33 751.24 1931.8
-797.64 747.79 1922.9
-792.94 748.06 1923.6
-792.16 752.05 1933.8
-799.84 764.18 1965.0
-801.73 770.89 1982.3
-796.17 770.49 1981.3
-793.40 772.80 1987.2
-796.85 781.22 2008.9
-797.09 786.60 2022.7
-779.78 774.62 1991.9
-769.76 769.76 1979.4
-778.43 783.66 2015.1
-783.57 794.16 2042.1
-770.17 785.89 2020.8
-753.87 774.52 1991.6
-762.50 788.79 2028.3
-776.21 808.55 2079.1
-760.62 797.85 2051.6
-745.80 787.82 2025.8
-744.97 792.52 2037.9
-737.66 790.35 2032.3
-730.70 788.53 2027.6
-720.91 783.60 2015.0
-716.20 784.17 2016.4
-721.17 795.40 2045.3
-712.03 791.15 2034.4
-699.56 783.09 2013.7
-700.95 790.54 2032.8
-711.36 808.36 2078.7
-727.29 832.77 2141.4
-730.33 842.68 2166.9
-718.07 834.96 2147.0
-715.06 837.96 2154.7
-712.59 841.64 2164.2
-700.76 834.24 2145.2
-690.75 828.90 2131.5
-694.87 840.56 2161.4
-712.27 875.74 2251.9
-1256.11 904.16 2340.6
-1239.66 896.65 2321.1
-1227.28 892.02 2309.2
-1206.98 881.57 2282.1
-1162.55 853.30 2208.9
-1127.21 831.45 2152.4
-1119.63 829.98 2148.6
-1097.27 817.47 2116.2
-1092.82 818.24 2118.2
-1103.47 830.39 2149.6
-1089.90 824.34 2134.0
-1087.95 827.06 2141.0
-1081.71 826.53 2139.6
-1052.10 808.06 2091.8
-1026.50 792.48 2051.5
-1005.70 780.47 2020.4
-1001.81 781.52 2023.1
-1019.19 799.26 2069.0
-1017.25 801.96 2076.0
-987.13 782.35 2025.3
-967.94 771.25 1996.5
-968.97 776.22 2009.4
-962.59 775.27 2006.9
-947.27 767.08 1985.7
-948.23 772.06 1998.6
-958.39 784.62 2031.1
-945.96 778.72 2015.8
-923.60 764.54 1979.2
-925.64 770.51 1994.6
-925.23 774.49 2004.9
-903.92 760.93 1969.8
-883.93 748.33 1937.2
-877.73 747.32 1934.6
-874.63 748.97 1938.8
-866.11 745.96 1931.0
-866.45 750.59 1943.0
-865.97 754.56 1953.3
-855.94 750.21 1942.0
-844.82 744.84 1928.2
-836.77 742.13 1921.1
-836.98 746.77 1933.1
-843.10 756.75 1959.0
-842.79 761.07 1970.2
-830.27 754.33 1952.7
-829.19 757.97 1962.2
-837.92 770.67 1995.0
-831.25 769.29 1991.5
-819.54 763.20 1975.7
-811.85 760.79 1969.5
-805.61 759.72 1966.7
-809.32 768.08 1988.3
-811.87 775.44 2007.4
-806.26 775.05 2006.4
-801.69 775.66 2007.9
-803.71 782.70 2026.2
-811.50 795.49 2059.3
-800.96 790.35 2046.0
-779.91 774.71 2005.5
-778.70 778.70 2015.8
-797.32 802.71 2078.0
-797.23 808.07 2091.9
-774.10 790.00 2045.1
-776.66 798.08 2066.0
-783.39 810.59 2098.4
-759.90 791.79 2049.7
-743.14 779.77 2018.6
-739.42 781.37 2022.7
-734.39 781.60 2023.3
-729.68 782.18 2024.8
-729.71 787.87 2039.6
-735.64 800.08 2071.1
-725.48 794.83 2057.6
-700.80 773.48 2002.3
-700.11 778.48 2015.3
-712.83 798.59 2067.3
-710.71 802.24 2076.7
-712.16 810.01 2096.9
-726.11 832.23 2154.4
-726.08 838.65 2171.0
-726.27 845.43 2188.5
-727.55 853.58 2209.7
-706.86 835.89 2163.9
-686.96 818.86 2119.8
-684.79 822.86 2130.1
-695.69 842.75 2181.6
-712.84 870.60 2253.7
-1212.86 871.37 2271.0
-1218.36 879.59 2292.4
-1214.02 880.76 2295.4
-1141.61 836.43 2179.9
-1133.11 834.33 2174.4
-1109.81 821.26 2140.3
-1090.99 811.39 2114.6
-1089.12 814.09 2121.7
-1079.91 811.30 2114.4
-1083.58 818.21 2132.4
-1073.94 815.09 2124.3
-1042.22 795.10 2072.2
-1040.36 797.79 2079.2
-1041.83 803.07 2093.0
-1017.21 788.21 2054.2
-1016.58 791.86 2063.7
-1020.89 799.43 2083.5
-994.88 783.21 2041.2
-975.24 771.84 2011.6
-975.83 776.47 2023.6
-969.01 775.21 2020.3
-954.47 767.72 2000.8
-940.41 760.55 1982.1
-936.11 761.23 1983.9
-937.42 766.51 1997.7
-927.07 762.26 1986.6
-924.73 764.58 1992.6
-919.98 764.92 1993.5
-904.59 756.38 1971.3
-890.07 748.47 1950.6
-877.59 742.19 1934.3
-869.84 739.87 1928.2
-862.50 737.86 1923.0
-862.48 742.14 1934.1
-865.47 749.06 1952.2
-858.10 747.05 1946.9
-861.73 754.65 1966.8
-868.28 764.91 1993.5
-863.84 765.56 1995.2
-864.98 771.19 2009.8
-865.68 776.49 2023.7
-852.66 769.48 2005.4
-840.46 763.12 1988.8
-837.82 765.41 1994.8
-837.69 770.05 2006.9
-831.72 769.34 2005.0
-826.83 769.63 2005.8
-823.73 771.59 2010.9
-814.91 768.20 2002.1
-804.36 763.12 1988.8
-807.93 771.44 2010.5
-813.13 781.45 2036.6
-798.42 772.33 2012.8
-789.34 768.56 2003.0
-797.80 781.95 2037.9
-796.21 785.59 2047.4
-789.81 784.51 2044.6
-803.33 803.33 2093.6
-803.54 809.01 2108.4
-778.36 789.02 2056.3
-778.58 794.69 2071.1
-782.02 803.75 2094.7
-762.46 789.12 2056.6
-750.21 781.91 2037.8
-739.99 776.73 2024.3
-727.26 768.82 2003.7
-730.25 777.53 2026.4
-738.20 791.69 2063.3
-728.03 786.49 2049.7
-702.29 764.26 1991.8
-696.07 763.10 1988.8
-713.31 787.84 2053.3
-720.14 801.36 2088.5
-711.57 797.83 2079.3
-703.65 794.97 2071.8
-707.17 805.09 2098.2
-710.56 815.22 2124.6
-714.12 825.70 2151.9
-719.61 838.59 2185.5
-703.34 826.14 2153.1
-684.03 809.90 2110.7
-682.75 814.90 2123.8
-693.39 834.32 2174.4
-708.88 859.96 2241.2
-716.18 875.99 2283.0
-710.17 875.87 2282.7
-719.10 894.34 2330.8
-1211.91 864.81 2269.2
-1209.86 867.56 2276.4
-1223.29 881.49 2312.9
-1145.49 833.60 2187.3
-1119.45 818.71 2148.2
-1114.51 819.16 2149.4
-1114.33 823.15 2159.9
-1098.11 815.26 2139.2
-1075.50 802.53 2105.8
-1086.92 815.19 2139.0
-1084.10 817.24 2144.4
-1067.21 808.66 2121.8
-1080.06 822.64 2158.5
-1079.68 826.63 2169.0
-1051.11 808.97 2122.7
-1036.12 801.63 2103.4
-1027.04 798.81 2096.0
-1012.59 791.76 2077.5
-1004.41 789.56 2071.7
-988.03 780.87 2048.9
-964.39 766.30 2010.7
-943.76 753.98 1978.4
-926.50 744.24 1952.8
-915.41 739.37 1940.0
-908.38 737.75 1935.8
-908.16 741.67 1946.1
-915.46 751.80 1972.6
-916.29 756.71 1985.5
-906.43 752.80 1975.3
-902.49 753.78 1977.9
-900.10 756.08 1983.9
-885.24 747.88 1962.4
-870.09 739.33 1939.9
-872.35 745.55 1956.3
-876.44 753.43 1976.9
-867.11 749.80 1967.4
-869.57 756.37 1984.6
-877.97 768.22 2015.7
-873.48 768.87 2017.5
-861.52 762.91 2001.8
-848.88 756.27 1984.4
-856.25 767.50 2013.8
-864.23 779.39 2045.1
-839.91 762.14 1999.8
-818.33 747.17 1960.5
-828.37 761.06 1997.0
-840.04 776.64 2037.8
-835.79 777.60 2040.4
-824.77 772.24 2026.3
-804.62 758.20 1989.4
-799.05 757.81 1988.4
-807.11 770.42 2021.5
-795.55 764.35 2005.6
-794.08 767.96 2015.1
-811.81 790.30 2073.7
-801.25 785.23 2060.4
-785.33 774.78 2033.0
-785.05 779.74 2046.0
-770.95 770.95 2022.9
-757.95 763.14 2002.4
-769.90 780.52 2048.0
-785.59 801.96 2104.3
-777.12 798.86 2096.1
-772.59 799.79 2098.6
-770.31 803.08 2107.2
-741.96 779.06 2044.2
-728.90 770.86 2022.7
-734.65 782.57 2053.4
-721.98 774.68 2032.7
-708.47 765.77 2009.3
-714.34 777.83 2041.0
-723.44 793.63 2082.4
-722.24 798.26 2094.6
-713.96 795.09 2086.2
-707.84 794.29 2084.1
-705.93 798.24 2094.5
-703.37 801.51 2103.1
-701.06 805.13 2112.6
-700.77 811.12 2128.3
-691.92 807.24 2118.1
-680.23 799.95 2099.0
-684.45 811.40 2129.0
-701.65 838.56 2200.3
-705.20 849.70 2229.5
-717.18 885.93 2324.6
-1242.68 880.74 2326.8
-1203.58 857.18 2264.6
-1183.79 847.22 2238.3
-1190.16 855.98 2261.4
-1127.68 819.11 2164.0
-1112.67 812.25 2145.9
-1099.03 806.33 2130.2
-1070.74 789.54 2085.9
-1052.55 780.06 2060.8
-1067.94 795.50 2101.6
-1085.29 812.57 2146.7
-1086.26 817.50 2159.7
-1073.62 812.17 2145.6
-1048.37 797.20 2106.1
-1052.28 804.36 2125.0
-1066.57 819.57 2165.2
-1046.93 808.74 2136.6
-1022.85 794.34 2098.6
-1012.97 790.88 2089.4
-995.32 781.27 2064.0
-976.13 770.35 2035.2
-959.10 761.03 2010.5
-941.77 751.36 1985.0
-929.79 745.88 1970.5
-919.89 742.01 1960.3
-916.42 743.32 1963.8
-910.15 742.35 1961.2
-898.33 736.83 1946.6
-896.44 739.44 1953.5
-900.40 746.92 1973.3
-895.68 747.25 1974.1
-877.73 736.48 1945.7
-869.96 734.18 1939.6
-879.92 746.91 1973.2
-887.43 757.69 2001.7
-881.09 756.70 1999.1
-856.56 739.98 1954.9
-839.38 729.47 1927.2
-841.85 735.99 1944.4
-835.65 734.97 1941.7
-834.28 738.21 1950.3
-853.20 759.55 2006.6
-866.71 776.32 2050.9
-846.75 763.12 2016.1
-824.40 747.59 1975.0
-835.14 762.06 2013.3
-841.03 772.26 2040.2
-830.33 767.27 2027.0
-830.73 772.52 2040.9
-821.85 769.17 2032.1
-805.98 759.18 2005.7
-803.52 761.78 2012.5
-797.89 761.39 2011.5
-803.68 771.95 2039.4
-818.96 791.84 2091.9
-806.65 785.14 2074.2
-787.28 771.43 2038.0
-782.27 771.70 2038.7
-775.90 770.62 2035.9
-770.54 770.54 2035.7
-764.19 769.46 2032.8
-760.15 770.71 2036.1
-764.29 780.32 2061.5
-771.56 793.29 2095.8
-778.99 806.61 2131.0
-760.21 792.79 2094.5
-733.30 770.23 2034.9
-724.43 766.43 2024.8
-716.24 763.29 2016.5
-707.45 759.47 2006.4
-715.20 773.48 2043.4
-726.17 791.20 2090.3
-720.34 790.75 2089.1
-707.81 782.88 2068.3
-701.43 781.74 2065.3
-700.77 787.02 2079.2
-699.14 791.28 2090.5
-698.06 796.22 2103.5
-706.03 811.65 2144.3
-707.37 819.65 2165.4
-698.75 816.14 2156.1
-703.99 828.89 2189.8
-710.21 843.01 2227.1
-702.35 840.52 2220.5
-701.55 846.50 2236.4
-707.67 860.99 2274.6
-712.76 874.48 2310.3
-1264.88 881.77 2345.6
-1254.64 878.86 2337.8
-1237.28 870.90 2316.7
-1198.35 851.77 2265.8
-1214.84 867.74 2308.3
-1125.39 811.85 2159.6
-1116.93 809.78 2154.1
-1108.49 807.70 2148.6
-1079.72 790.70 2103.3
-1061.48 781.29 2078.3
-1061.38 785.21 2088.7
-1065.09 791.99 2106.8
-1072.12 801.32 2131.6
-1065.04 800.16 2128.5
-1032.21 779.54 2073.6
-1031.15 782.81 2082.4
-1046.80 798.88 2125.1
-1026.83 787.78 2095.6
-1004.48 774.74 2060.9
-996.34 772.56 2055.1
-989.86 771.66 2052.7
-982.56 770.12 2048.6
-979.77 772.10 2053.9
-973.70 771.51 2052.3
-958.34 763.51 2031.0
-943.47 755.82 2010.6
-943.10 759.72 2020.9
-939.89 761.36 2025.3
-919.21 748.79 1991.9
-909.32 744.93 1981.6
-906.16 746.55 1985.9
-892.81 739.75 1967.8
-874.48 728.73 1938.5
-867.88 727.42 1935.0
-876.32 738.76 1965.2
-882.33 748.17 1990.2
-873.72 745.24 1982.4
-847.70 727.31 1934.7
-835.85 721.42 1919.0
-843.60 732.46 1948.4
-836.64 730.80 1944.0
-835.27 734.02 1952.6
-846.06 748.04 1989.9
-850.80 756.84 2013.3
-858.35 768.28 2043.7
-862.86 777.11 2067.2
-845.53 766.26 2038.3
-822.93 750.47 1996.3
-815.92 748.79 1991.8
-819.96 757.28 2014.4
-815.39 757.89 2016.1
-804.12 752.24 2001.0
-803.07 756.14 2011.4
-799.88 758.06 2016.5
-796.67 759.98 2021.6
-803.40 771.48 2052.2
-804.52 777.71 2068.8
-798.08 776.66 2066.0
-788.61 772.62 2055.2
-777.83 767.25 2041.0
-771.80 766.51 2039.0
-764.11 764.11 2032.6
-763.04 768.34 2043.9
-769.79 780.56 2076.4
-766.93 783.14 2083.2
-764.04 785.72 2090.1
-760.47 787.63 2095.2
-747.93 780.21 2075.4
-732.30 769.44 2046.8
-717.11 758.98 2019.0
-707.69 754.52 2007.1
-714.82 767.77 2042.3
-721.48 780.70 2076.7
-711.07 775.23 2062.2
-716.29 786.84 2093.1
-730.45 808.52 2150.7
-710.04 791.97 2106.7
-687.14 772.37 2054.6
-687.33 778.61 2071.2
-697.15 795.96 2117.3
-711.43 818.71 2177.9
-716.71 831.39 2211.6
-701.37 820.15 2181.7
-685.60 808.23 2150.0
-696.66 827.99 2202.5
-715.35 857.24 2280.3
-718.85 868.61 2310.6
-721.09 878.64 2337.3
-1246.17 871.11 2333.3
-1230.18 864.13 2314.6
-1236.02 872.49 2337.0
-1222.75 867.37 2323.3
-1157.55 825.19 2210.3
-1106.42 792.66 2123.2
-1098.04 790.59 2117.7
-1110.13 803.31 2151.7
-1099.97 799.98 2142.8
-1074.30 785.27 2103.4
-1069.43 785.70 2104.6
-1079.95 797.50 2136.2
-1092.90 811.22 2172.9
-1078.10 804.38 2154.6
-1038.43 778.82 2086.1
-1028.51 775.42 2077.0
-1037.06 785.98 2105.3
-1014.20 772.72 2069.8
-986.50 755.62 2024.0
-985.05 758.54 2031.8
-984.79 762.42 2042.2
-984.08 765.98 2051.7
-988.21 773.39 2071.6
-977.64 769.29 2060.6
-957.40 757.51 2029.0
-949.78 755.62 2024.0
-957.39 765.91 2051.6
-954.52 767.88 2056.8
-933.75 755.40 2023.4
-926.96 754.14 2020.0
-926.86 758.34 2031.3
-920.05 757.07 2027.9
-908.98 752.26 2015.0
-879.36 731.95 1960.6
-867.32 726.13 1945.0
-881.43 742.26 1988.2
-880.85 746.13 1998.6
-853.25 727.03 1947.4
-840.24 720.20 1929.1
-852.48 735.07 1968.9
-849.59 736.99 1974.1
-842.58 735.34 1969.7
-848.90 745.38 1996.5
-836.70 739.17 1979.9
-826.03 734.25 1966.7
-840.91 752.12 2014.6
-833.12 749.81 2008.4
-822.46 744.87 1995.2
-827.99 754.62 2021.3
-809.16 742.16 1987.9
-781.47 726.01 1944.7
-792.81 741.33 1985.7
-793.86 747.17 2001.3
-795.19 753.34 2017.9
-801.25 764.11 2046.7
-801.02 768.98 2059.8
-784.05 757.74 2029.7
-764.85 744.17 1993.3
-762.62 747.05 2001.0
-764.70 754.22 2020.2
-770.00 764.69 2048.3
-782.11 782.11 2094.9
-791.70 797.24 2135.5
-791.32 802.47 2149.5
-776.61 793.14 2124.5
-760.41 782.14 2095.0
-754.58 781.72 2093.9
-745.25 777.65 2083.0
-744.81 782.87 2097.0
-749.95 794.06 2127.0
-738.12 787.32 2108.9
-723.89 777.91 2083.7
-717.77 777.13 2081.6
-729.06 795.34 2130.4
-735.26 808.23 2164.9
-706.68 782.78 2096.7
-696.05 776.98 2081.2
-709.53 798.23 2138.1
-701.23 795.10 2129.7
-696.77 796.31 2133.0
-704.20 811.24 2173.0
-691.25 802.74 2150.2
-678.41 794.23 2127.4
-692.37 817.23 2189.0
-720.14 857.03 2295.6
-1243.44 863.16 2328.2
-1242.17 866.49 2337.2
-1227.54 860.48 2321.0
-1169.36 827.82 2232.9
-1152.40 819.87 2211.4
-1100.11 786.58 2121.6
-1072.13 770.43 2078.1
-1093.78 789.96 2130.7
-1097.07 796.35 2148.0
-1084.36 791.14 2133.9
-1087.55 797.54 2151.2
-1100.91 811.49 2188.8
-1085.22 804.07 2168.8
-1057.76 787.81 2125.0
-1059.13 792.96 2138.9
-1065.88 802.22 2163.8
-1042.46 788.74 2127.5
-1005.48 764.81 2062.9
-993.60 759.81 2049.4
-1000.73 769.38 2075.2
-1006.10 777.69 2097.7
-993.00 771.73 2081.6
-964.92 754.01 2033.8
-941.49 739.75 1995.3
-931.52 735.96 1985.1
-947.65 752.86 2030.7
-952.80 761.18 2053.1
-936.41 752.28 2029.1
-935.13 755.50 2037.8
-937.36 761.60 2054.3
-933.24 762.59 2056.9
-928.33 762.94 2057.9
-904.80 747.90 2017.3
-886.46 737.00 1987.9
-895.51 748.87 2019.9
-888.74 747.59 2016.5
-854.63 723.15 1950.6
-846.90 720.87 1944.4
-866.64 742.10 2001.7
-866.30 746.27 2012.9
-862.55 747.54 2016.4
-878.41 765.93 2065.9
-874.89 767.54 2070.3
-831.04 733.57 1978.7
-813.83 722.85 1949.7
-825.03 737.37 1988.9
-832.44 748.68 2019.4
-833.98 754.80 2035.9
-811.90 739.50 1994.7
-792.84 726.77 1960.3
-803.20 741.02 1998.8
-811.28 753.33 2032.0
-808.75 755.89 2038.9
-811.72 763.66 2059.8
-819.43 776.01 2093.1
-818.41 780.21 2104.5
-799.96 767.75 2070.9
-786.41 759.84 2049.5
-790.11 768.61 2073.2
-778.32 762.32 2056.2
-770.25 759.63 2048.9
-775.43 770.05 2077.1
-779.50 779.50 2102.5
-784.42 789.94 2130.7
-774.61 785.60 2119.0
-753.90 770.06 2077.1
-744.27 765.69 2065.3
-739.14 765.92 2065.9
-744.11 776.70 2095.0
-745.18 783.54 2113.4
-727.46 770.56 2078.4
-725.68 774.42 2088.9
-732.78 787.88 2125.1
-737.26 798.70 2154.3
-736.44 803.90 2168.4
-725.00 797.50 2151.1
-733.09 812.65 2192.0
-724.34 809.23 2182.7
-692.63 779.89 2103.6
-683.42 788.14 2125.8
-707.29 822.30 2218.0
-703.43 824.52 2224.0
-710.83 840.07 2265.9
-1255.51 869.67 2362.3
-1229.70 855.97 2325.1
-1161.78 816.69 2218.4
-1168.56 825.55 2242.4
-1138.48 808.32 2195.6
-1098.58 783.91 2129.3
-1110.59 796.48 2163.5
-1101.71 794.13 2157.1
-1076.49 779.91 2118.5
-1082.73 788.45 2141.7
-1098.25 803.88 2183.6
-1103.39 811.82 2205.2
-1094.05 809.14 2197.9
-1067.03 793.29 2154.8
-1048.58 783.67 2128.7
-1045.28 785.34 2133.2
-1028.23 776.64 2109.6
-1019.56 774.21 2103.0
-1027.82 784.68 2131.4
-1008.45 774.05 2102.6
-969.99 748.58 2033.4
-962.34 746.74 2028.4
-959.57 748.67 2033.6
-927.75 727.85 1977.0
-922.65 727.87 1977.1
-941.90 747.20 2029.6
-939.46 749.45 2035.7
-921.16 739.01 2007.4
-906.14 731.09 1985.9
-921.37 747.63 2030.8
-935.62 763.55 2074.0
-933.38 766.13 2081.0
-918.04 762.35 2070.8
-884.80 739.07 2007.5
-866.28 727.88 1977.1
-872.48 737.45 2003.1
-886.47 753.76 2047.4
-880.03 752.80 2044.8
-871.00 749.59 2036.1
-882.38 764.02 2075.3
-850.71 745.68 2025.5
-824.64 727.32 1975.6
-828.54 735.33 1997.4
-840.63 750.75 2039.3
-846.79 761.04 2067.2
-833.20 753.59 2047.0
-823.59 749.68 2036.4
-812.27 744.14 2021.3
-798.20 736.00 1999.2
-806.56 748.57 2033.3
-821.00 766.98 2083.4
-812.10 763.70 2074.4
-795.02 752.62 2044.3
-800.22 762.62 2071.5
-810.03 777.19 2111.1
-811.24 783.65 2128.6
-798.31 776.44 2109.0
-780.14 764.00 2075.3
-775.68 764.91 2077.7
-770.22 764.84 2077.5
-766.07 766.07 2080.9
-769.68 775.14 2105.5
-763.18 774.08 2102.6
-752.84 769.09 2089.1
-747.34 769.00 2088.8
-741.83 768.91 2088.6
-732.87 765.20 2078.5
-722.08 759.52 2063.1
-728.10 771.56 2095.8
-735.80 785.59 2133.9
-739.66 795.69 2161.3
-743.68 806.13 2189.7
-737.01 805.05 2186.7
-728.86 802.31 2179.3
-702.60 779.45 2117.2
-685.49 766.45 2081.9
-679.09 765.32 2078.8
-701.28 803.07 2181.4
-724.47 836.38 2271.9
-720.77 838.92 2278.8
-717.59 842.13 2287.5
-1273.26 863.12 2361.1
-1262.53 859.99 2352.5
-1250.99 860.44 2353.8
-1157.71 808.10 2210.6
-1160.56 814.12 2227.1
-1150.20 810.89 2218.2
-1128.98 799.93 2188.3
