ply
format ascii 1.0
element vertex 2184
property float x
property float y
property float z
end_header
283.07 -102.09 1789.9
289.33 -102.67 1800.0
295.81 -103.30 1811.1
299.89 -103.09 1807.4
308.93 -104.56 1833.2
315.91 -105.30 1846.2
320.21 -105.14 1843.4
331.61 -107.29 1881.0
333.52 -106.34 1864.4
321.27 -100.97 1770.3
324.26 -100.48 1761.6
336.56 -102.84 1803.0
335.69 -101.17 1773.7
333.54 -99.16 1738.5
338.45 -99.28 1740.6
347.43 -100.57 1763.3
356.72 -101.92 1786.9
354.84 -100.08 1754.7
350.59 -97.63 1711.7
357.28 -98.25 1722.6
363.20 -98.65 1729.5
364.59 -97.82 1714.9
362.54 -96.09 1684.8
357.78 -93.71 1642.9
362.92 -93.93 1646.9
373.73 -95.60 1676.2
384.23 -97.16 1703.5
394.88 -98.72 1730.8
395.99 -97.89 1716.2
398.85 -97.50 1709.4
403.05 -97.44 1708.4
398.44 -95.28 1670.5
399.03 -94.39 1655.0
404.26 -94.61 1658.8
413.81 -95.83 1680.1
417.19 -95.61 1676.2
408.38 -92.62 1623.9
413.81 -92.90 1628.7
437.38 -97.20 1704.1
451.80 -99.40 1742.6
449.96 -98.01 1718.4
449.02 -96.85 1698.0
459.31 -98.11 1720.0
476.21 -100.74 1766.2
484.41 -101.49 1779.5
491.61 -102.03 1788.9
43.45 -124.91 2094.8
48.27 -123.36 2068.8
58.68 -122.69 2057.5
61.15 -117.21 1965.6
64.90 -114.82 1925.5
70.03 -115.04 1929.3
74.52 -114.26 1916.2
78.07 -112.23 1882.0
82.72 -111.92 1876.8
88.83 -113.51 1903.6
93.36 -113.02 1895.3
95.11 -109.38 1834.3
96.54 -105.74 1773.2
101.18 -105.78 1774.0
108.44 -108.44 1818.5
113.20 -108.48 1819.3
116.80 -107.45 1802.0
122.59 -108.45 1818.6
126.80 -108.01 1811.4
128.43 -105.50 1769.2
132.10 -104.77 1756.9
139.02 -106.58 1787.4
142.83 -105.97 1777.1
146.58 -105.35 1766.8
153.68 -107.11 1796.3
160.23 -108.39 1817.7
168.15 -110.50 1853.1
175.51 -112.13 1880.5
176.34 -109.62 1838.3
172.74 -104.56 1753.4
175.54 -103.52 1736.1
186.89 -107.46 1802.2
196.47 -110.21 1848.3
201.75 -110.48 1852.8
205.28 -109.80 1841.3
206.59 -107.99 1811.1
210.07 -107.37 1800.6
215.74 -107.87 1809.0
220.72 -108.01 1811.4
223.75 -107.21 1798.0
232.36 -109.07 1829.1
245.11 -112.75 1890.8
248.62 -112.12 1880.3
247.27 -109.37 1834.2
249.09 -108.10 1812.8
251.35 -107.06 1795.3
256.05 -107.08 1795.7
268.21 -110.16 1847.4
276.40 -111.53 1870.4
275.95 -109.43 1835.1
275.92 -107.56 1803.9
282.18 -108.17 1814.0
289.57 -109.18 1831.0
296.58 -110.02 1845.1
303.49 -110.80 1858.1
300.34 -107.93 1810.1
301.75 -106.77 1790.6
314.01 -109.43 1835.1
323.92 -111.20 1864.8
327.23 -110.68 1856.1
320.82 -106.94 1793.4
322.83 -106.07 1778.8
340.48 -110.30 1849.7
352.08 -112.47 1886.1
350.12 -110.31 1849.9
347.60 -108.04 1811.8
351.93 -107.93 1809.9
360.89 -109.22 1831.6
369.76 -110.45 1852.2
362.90 -107.01 1794.6
353.74 -102.99 1727.1
359.66 -103.40 1734.1
365.40 -103.76 1740.0
369.10 -103.53 1736.2
369.83 -102.48 1718.7
372.81 -102.08 1711.9
386.50 -104.58 1753.9
398.87 -106.68 1789.0
410.98 -108.65 1822.1
419.47 -109.63 1838.6
419.06 -108.30 1816.1
403.33 -103.07 1728.6
389.24 -98.38 1649.9
386.81 -96.70 1621.7
389.14 -96.24 1614.0
397.35 -97.22 1630.5
410.41 -99.36 1666.3
426.54 -102.19 1713.8
429.99 -101.96 1709.8
432.68 -101.55 1703.0
455.44 -105.81 1774.4
471.93 -106.41 1784.6
474.19 -105.89 1775.7
480.30 -106.22 1781.3
476.73 -104.43 1751.3
481.75 -104.53 1753.0
48.43 -129.14 2075.4
53.13 -127.52 2049.3
58.84 -128.38 2063.2
62.54 -125.08 2010.1
65.15 -120.29 1933.2
69.26 -118.72 1908.1
74.31 -118.90 1910.9
78.43 -117.64 1890.7
82.49 -116.45 1871.6
88.03 -117.37 1886.3
93.79 -118.47 1904.0
96.85 -116.22 1867.9
97.94 -111.93 1798.9
102.19 -111.48 1791.6
106.88 -111.52 1792.4
108.84 -108.84 1749.2
113.81 -109.26 1755.9
121.16 -111.84 1797.5
126.98 -112.87 1814.1
130.29 -111.68 1794.8
130.58 -108.06 1736.7
141.77 -109.75 1763.9
149.77 -112.33 1805.3
156.97 -114.16 1834.8
163.36 -115.31 1853.2
170.65 -117.02 1880.7
177.34 -118.23 1900.1
181.17 -117.52 1888.7
180.45 -113.97 1831.6
177.32 -109.12 1753.7
183.15 -109.89 1766.1
196.33 -114.93 1847.0
205.17 -117.24 1884.2
211.99 -118.32 1901.6
216.63 -118.16 1899.0
217.33 -115.91 1862.8
220.08 -114.82 1845.4
225.04 -114.91 1846.8
227.90 -113.95 1831.4
231.57 -113.42 1822.9
239.30 -114.86 1846.0
243.22 -114.46 1839.5
242.30 -111.83 1797.3
248.78 -112.65 1810.5
256.29 -113.91 1830.6
253.33 -110.55 1776.6
257.13 -110.20 1771.0
267.17 -112.49 1807.9
268.49 -111.10 1785.5
271.05 -110.26 1772.0
279.83 -111.93 1798.9
289.84 -114.04 1832.7
299.39 -115.89 1862.5
310.36 -118.23 1900.2
311.08 -116.65 1874.8
310.00 -114.46 1839.6
319.68 -116.25 1868.3
324.90 -116.38 1870.4
323.54 -114.19 1835.2
320.77 -111.57 1793.1
325.81 -111.71 1795.3
337.72 -114.16 1834.7
343.42 -114.47 1839.7
343.01 -112.77 1812.4
341.90 -110.89 1782.1
343.69 -109.98 1767.5
350.03 -110.54 1776.5
360.71 -112.43 1806.9
355.92 -109.51 1760.0
343.28 -104.29 1676.0
345.62 -103.69 1666.4
361.66 -107.16 1722.2
376.52 -110.20 1771.1
373.77 -108.08 1737.0
373.18 -106.62 1713.6
389.67 -110.02 1768.2
405.33 -113.12 1817.9
412.67 -113.84 1829.6
416.30 -113.54 1824.7
425.05 -114.62 1842.1
419.38 -111.83 1797.3
396.75 -104.64 1681.7
385.82 -100.65 1617.6
397.28 -102.52 1647.7
415.96 -106.20 1706.8
420.14 -106.14 1705.8
427.92 -106.98 1719.3
440.64 -109.02 1752.2
453.51 -111.06 1784.9
466.79 -113.16 1818.6
479.00 -112.71 1811.3
476.18 -110.95 1783.2
476.59 -109.98 1767.6
492.66 -112.61 1809.8
53.77 -134.42 2074.0
58.15 -132.15 2038.9
63.37 -132.01 2036.7
67.33 -129.48 1997.7
70.00 -125.01 1928.7
73.72 -122.86 1895.6
78.75 -123.04 1898.4
83.62 -122.97 1897.2
87.32 -121.27 1871.0
91.37 -120.22 1854.9
96.94 -121.18 1869.6
100.74 -119.93 1850.4
102.17 -116.11 1791.3
109.01 -113.55 1751.9
117.47 -117.47 1812.4
124.50 -119.71 1846.9
129.96 -120.33 1856.6
134.89 -120.44 1858.2
136.99 -118.10 1822.0
139.44 -116.20 1792.8
146.46 -118.11 1822.3
153.88 -120.22 1854.7
160.27 -121.41 1873.2
163.60 -120.29 1855.9
167.38 -119.56 1844.6
177.50 -123.26 1901.8
184.77 -124.84 1926.1
186.39 -122.62 1891.9
185.52 -118.92 1834.8
186.93 -116.83 1802.6
195.77 -119.37 1841.8
205.25 -122.17 1884.9
212.29 -123.42 1904.2
217.27 -123.45 1904.7
217.87 -121.04 1867.4
221.82 -120.55 1859.9
228.02 -121.29 1871.3
233.66 -121.70 1877.6
240.59 -122.75 1893.8
243.62 -121.81 1879.4
242.39 -118.82 1833.2
245.86 -118.20 1823.7
257.16 -121.30 1871.5
268.29 -124.21 1916.3
269.49 -122.50 1890.0
262.11 -117.01 1805.3
259.83 -113.96 1758.3
270.23 -116.48 1797.1
282.93 -119.88 1849.6
284.08 -118.37 1826.3
285.59 -117.04 1805.8
294.90 -118.91 1834.6
304.68 -120.91 1865.4
311.52 -121.69 1877.4
316.75 -121.83 1879.6
327.21 -123.94 1912.3
333.56 -124.46 1920.3
329.55 -121.16 1869.3
323.71 -117.28 1809.5
321.66 -114.88 1772.4
325.92 -114.76 1770.6
331.09 -114.96 1773.7
330.34 -113.13 1745.4
332.82 -112.44 1734.8
339.06 -113.02 1743.7
339.75 -111.76 1724.3
344.44 -111.83 1725.4
351.31 -112.60 1737.3
350.23 -110.83 1710.0
350.83 -109.64 1691.5
365.09 -112.68 1738.5
375.21 -114.39 1764.9
367.83 -110.79 1709.4
361.66 -107.64 1660.7
370.92 -109.09 1683.2
387.89 -112.76 1739.7
396.58 -113.96 1758.2
402.69 -114.40 1765.0
414.89 -116.54 1798.1
426.34 -118.43 1827.2
420.29 -115.46 1781.5
407.30 -110.68 1707.6
418.50 -112.50 1735.7
436.22 -116.02 1790.0
438.45 -115.38 1780.2
435.33 -113.37 1749.1
436.43 -112.48 1735.4
440.17 -112.29 1732.4
443.64 -112.03 1728.5
446.09 -111.52 1720.6
443.69 -109.82 1694.4
465.15 -114.01 1759.0
53.53 -139.17 2064.6
58.22 -137.61 2041.5
63.85 -138.34 2052.4
67.69 -135.37 2008.3
70.17 -130.32 1933.3
72.77 -126.14 1871.3
76.75 -124.72 1850.2
82.59 -126.32 1873.9
87.21 -125.97 1868.7
90.67 -124.07 1840.6
95.63 -124.32 1844.3
101.11 -125.18 1857.0
104.31 -123.28 1828.9
106.96 -120.91 1793.8
113.33 -122.77 1821.4
119.77 -124.56 1847.9
124.68 -124.68 1849.6
129.73 -124.92 1853.3
134.22 -124.63 1848.9
139.36 -124.94 1853.6
145.38 -125.99 1869.1
150.35 -126.10 1870.7
155.50 -126.34 1874.3
162.54 -128.06 1899.8
166.37 -127.23 1887.4
166.18 -123.45 1831.3
172.37 -124.49 1846.8
181.69 -127.67 1894.0
185.18 -126.70 1879.7
188.10 -125.40 1860.3
193.69 -125.90 1867.8
200.07 -126.87 1882.1
206.29 -127.71 1894.5
213.47 -129.07 1914.8
218.48 -129.10 1915.3
218.76 -126.39 1875.1
222.37 -125.69 1864.6
232.08 -128.39 1904.6
241.50 -130.81 1940.7
247.97 -131.57 1951.9
249.87 -129.93 1927.5
248.24 -126.55 1877.4
251.42 -125.71 1864.9
256.30 -125.73 1865.3
260.77 -125.56 1862.6
272.27 -128.71 1909.4
275.82 -128.06 1899.8
273.21 -124.62 1848.8
283.53 -127.10 1885.6
294.95 -129.98 1928.2
293.54 -127.20 1887.1
294.89 -125.69 1864.6
303.88 -127.43 1890.5
312.84 -129.11 1915.3
318.65 -129.45 1920.4
316.36 -126.55 1877.3
318.91 -125.63 1863.7
328.21 -127.37 1889.5
327.77 -125.32 1859.2
332.79 -125.40 1860.3
341.38 -126.80 1881.1
337.43 -123.57 1833.1
334.70 -120.86 1793.0
337.70 -120.28 1784.3
344.61 -121.08 1796.2
349.10 -121.02 1795.4
348.38 -119.18 1768.1
345.75 -116.75 1732.0
345.72 -115.24 1709.6
347.97 -114.52 1699.0
351.99 -114.40 1697.1
357.64 -114.80 1703.1
359.38 -113.95 1690.5
364.20 -114.09 1692.5
369.88 -114.49 1698.4
371.93 -113.77 1687.8
380.88 -115.15 1708.3
396.29 -118.43 1757.0
410.17 -121.19 1797.8
411.01 -120.07 1781.3
410.40 -118.56 1758.9
417.02 -119.15 1767.6
417.19 -117.90 1749.1
424.05 -118.55 1758.7
437.10 -120.90 1793.6
437.66 -119.78 1777.0
432.12 -117.03 1736.2
437.58 -117.29 1740.0
446.73 -118.52 1758.3
449.52 -118.06 1751.4
451.52 -117.40 1741.6
462.07 -118.95 1764.6
53.23 -143.73 2053.3
57.59 -141.35 2019.2
62.85 -141.41 2020.1
66.23 -137.56 1965.1
69.40 -133.84 1912.1
72.76 -130.97 1871.0
75.50 -127.40 1820.0
80.16 -127.32 1818.8
87.61 -131.42 1877.4
93.74 -133.21 1903.0
95.36 -128.73 1839.0
97.35 -125.16 1788.0
104.69 -128.49 1835.5
111.93 -131.40 1877.1
114.92 -129.28 1846.9
117.75 -127.17 1816.8
121.97 -126.66 1809.5
126.22 -126.22 1803.2
130.37 -125.71 1795.9
135.22 -125.90 1798.5
142.41 -128.17 1831.0
148.65 -129.47 1849.5
153.57 -129.58 1851.1
160.55 -131.36 1876.6
169.23 -134.39 1919.9
174.17 -134.36 1919.4
171.60 -128.70 1838.5
171.18 -124.91 1784.5
183.00 -130.02 1857.5
194.79 -134.85 1926.5
199.53 -134.68 1924.0
204.78 -134.85 1926.5
210.04 -135.02 1928.9
216.08 -135.68 1938.3
223.87 -137.38 1962.5
226.93 -136.16 1945.1
227.76 -133.69 1909.8
234.70 -134.83 1926.1
239.61 -134.78 1925.5
240.88 -132.73 1896.2
248.92 -134.42 1920.3
253.30 -134.10 1915.7
254.18 -131.98 1885.4
256.94 -130.89 1869.9
257.68 -128.84 1840.6
265.32 -130.25 1860.7
274.34 -132.27 1889.6
277.24 -131.33 1876.1
279.18 -129.96 1856.6
280.72 -128.47 1835.2
292.57 -131.66 1880.8
307.77 -136.23 1946.1
309.84 -134.93 1927.6
311.82 -133.64 1909.1
319.58 -134.82 1926.0
318.96 -132.49 1892.7
318.18 -130.16 1859.5
323.54 -130.38 1862.6
324.07 -128.68 1838.2
330.45 -129.31 1847.2
345.60 -133.30 1904.3
347.30 -132.07 1886.8
347.27 -130.23 1860.4
353.04 -130.58 1865.4
352.64 -128.66 1838.1
349.99 -126.00 1800.0
354.29 -125.87 1798.1
357.22 -125.26 1789.4
351.20 -121.57 1736.7
347.51 -118.77 1696.7
352.34 -118.91 1698.8
359.63 -119.88 1712.5
366.79 -120.77 1725.3
377.15 -122.69 1752.7
384.25 -123.51 1764.4
388.19 -123.31 1761.5
388.63 -122.01 1743.0
395.13 -122.63 1751.8
410.32 -125.89 1798.5
411.84 -124.94 1784.8
411.47 -123.44 1763.4
419.92 -124.59 1779.9
429.85 -126.15 1802.2
447.83 -130.01 1857.4
463.60 -131.76 1882.3
449.40 -126.39 1805.6
446.99 -124.42 1777.4
461.89 -127.26 1817.9
57.77 -147.06 2025.8
62.22 -145.17 1999.8
66.35 -142.91 1968.7
70.15 -140.30 1932.6
74.26 -138.62 1909.5
77.76 -136.07 1874.5
80.76 -133.02 1832.4
86.62 -134.74 1856.1
92.99 -137.04 1887.7
94.72 -132.61 1826.7
96.84 -129.12 1778.7
104.50 -133.00 1832.2
111.32 -135.51 1866.8
113.47 -132.39 1823.7
117.60 -131.71 1814.4
123.49 -132.99 1832.0
127.52 -132.25 1821.8
131.28 -131.28 1808.5
133.40 -128.80 1774.3
137.59 -128.42 1769.0
145.50 -131.42 1810.4
152.39 -133.34 1836.9
160.10 -135.84 1871.3
169.82 -139.85 1926.5
179.46 -143.57 1977.7
181.11 -140.86 1940.5
177.91 -134.63 1854.6
188.05 -138.56 1908.8
199.77 -143.43 1975.8
203.91 -142.74 1966.3
208.11 -142.13 1957.8
211.73 -141.15 1944.4
218.14 -142.05 1956.8
226.66 -144.24 1986.9
232.20 -144.48 1990.3
235.64 -143.43 1975.8
239.60 -142.74 1966.3
241.05 -140.61 1937.0
236.82 -135.32 1864.2
239.39 -134.06 1846.7
254.43 -139.69 1924.2
265.99 -143.23 1973.0
262.73 -138.80 1912.0
257.22 -133.37 1837.3
265.41 -135.12 1861.3
274.58 -137.29 1891.2
274.13 -134.66 1855.0
272.75 -131.67 1813.9
280.07 -132.91 1830.9
297.73 -138.94 1914.0
310.68 -142.61 1964.5
310.90 -140.40 1934.1
305.81 -135.92 1872.3
306.13 -133.93 1845.0
308.79 -133.02 1832.4
311.23 -132.03 1818.8
320.41 -133.90 1844.6
325.92 -134.20 1848.7
321.61 -130.51 1797.8
325.05 -130.02 1791.1
340.38 -134.23 1849.1
353.62 -137.52 1894.4
359.47 -137.88 1899.4
359.34 -135.97 1873.0
353.36 -131.92 1817.3
354.04 -130.44 1796.8
358.13 -130.23 1794.0
353.31 -126.83 1747.1
354.66 -125.70 1731.6
365.24 -127.83 1761.0
375.36 -129.75 1787.4
384.77 -131.38 1809.9
386.53 -130.40 1796.3
384.82 -128.27 1767.0
392.41 -129.27 1780.7
396.38 -129.05 1777.8
392.21 -126.23 1738.9
396.27 -126.09 1736.9
414.23 -130.32 1795.2
431.34 -134.20 1848.6
434.51 -133.70 1841.7
439.26 -133.69 1841.6
453.60 -136.57 1881.3
461.27 -133.15 1834.2
466.97 -133.42 1837.9
58.93 -155.36 2066.3
63.01 -152.27 2025.3
66.78 -148.96 1981.3
71.44 -147.98 1968.2
76.42 -147.74 1965.0
80.88 -146.60 1949.8
84.92 -144.86 1926.7
87.16 -140.42 1867.7
89.83 -137.11 1823.6
94.34 -136.79 1819.4
99.42 -137.30 1826.1
105.34 -138.85 1846.8
109.99 -138.68 1844.5
112.09 -135.44 1801.4
116.42 -135.05 1796.2
123.67 -137.94 1834.7
129.17 -138.74 1845.3
135.73 -140.58 1869.8
140.78 -140.78 1872.4
144.14 -139.33 1853.2
151.55 -141.77 1885.6
156.57 -141.89 1887.2
162.19 -142.53 1895.7
171.01 -145.86 1940.0
179.60 -148.81 1979.3
187.01 -150.65 2003.7
190.16 -149.04 1982.3
193.68 -147.81 1966.0
198.53 -147.62 1963.5
203.15 -147.29 1959.0
208.07 -147.17 1957.5
211.58 -146.09 1943.1
218.32 -147.24 1958.4
228.08 -150.33 1999.4
234.70 -151.25 2011.7
237.36 -149.64 1990.3
240.76 -148.55 1975.8
253.74 -150.17 1997.4
248.19 -143.95 1914.6
255.29 -145.17 1930.8
267.81 -149.35 1986.5
264.04 -144.47 1921.6
258.69 -138.93 1847.8
268.04 -141.33 1879.7
280.69 -145.36 1933.3
283.70 -144.34 1919.8
278.04 -139.02 1849.1
280.77 -138.00 1835.5
293.23 -141.73 1885.1
300.96 -143.08 1903.0
311.95 -145.91 1940.7
318.13 -146.44 1947.8
307.38 -139.28 1852.5
298.30 -133.09 1770.1
311.00 -136.65 1817.5
331.28 -143.39 1907.1
330.01 -140.74 1871.9
319.62 -134.33 1786.7
323.03 -133.83 1780.0
338.33 -138.19 1838.0
356.11 -143.43 1907.8
361.34 -141.61 1883.4
349.68 -135.21 1798.3
355.52 -135.66 1804.3
364.12 -137.13 1824.0
362.34 -134.71 1791.8
367.00 -134.72 1791.8
380.16 -137.81 1832.9
392.71 -140.60 1870.0
395.48 -139.87 1860.3
390.03 -136.27 1812.5
392.82 -135.62 1803.7
404.79 -138.10 1836.9
414.54 -139.79 1859.2
417.15 -139.05 1849.4
416.61 -137.29 1826.1
430.08 -140.14 1863.9
441.01 -142.10 1890.0
436.95 -139.25 1852.1
433.86 -136.76 1819.0
439.49 -137.04 1822.8
460.25 -141.99 1888.5
63.28 -158.19 2033.9
66.56 -153.60 1974.9
70.88 -151.89 1952.8
75.86 -151.72 1950.6
80.25 -150.46 1934.5
86.09 -151.92 1953.2
90.02 -150.04 1929.1
91.33 -144.21 1854.2
94.58 -141.87 1824.0
98.70 -141.00 1812.8
103.67 -141.37 1817.6
109.61 -142.97 1838.2
112.75 -140.94 1812.0
118.01 -141.61 1820.7
126.46 -145.92 1876.1
129.98 -144.42 1856.9
134.26 -143.85 1849.6
143.22 -148.16 1904.9
151.22 -151.22 1944.3
158.15 -153.05 1967.7
162.31 -152.16 1956.4
168.79 -153.44 1972.9
179.48 -153.84 1977.9
177.89 -148.24 1906.0
186.79 -151.45 1947.2
196.87 -155.42 1998.3
204.51 -157.31 2022.6
212.06 -159.05 2044.9
214.46 -156.92 2017.6
215.42 -153.87 1978.4
223.80 -156.14 2007.5
242.28 -158.01 2031.5
243.25 -155.26 1996.3
250.68 -156.68 2014.4
250.84 -150.50 1935.0
252.24 -148.38 1907.7
258.96 -149.40 1920.9
260.32 -147.35 1894.5
259.89 -144.38 1856.3
268.41 -146.40 1882.3
280.92 -150.49 1934.9
286.13 -150.59 1936.2
282.73 -146.24 1880.2
281.17 -142.97 1838.1
288.73 -144.37 1856.1
298.10 -146.61 1885.0
310.62 -150.30 1932.4
318.56 -151.69 1950.3
309.61 -145.13 1865.9
309.01 -142.62 1833.7
330.78 -150.36 1933.1
338.61 -149.39 1920.7
321.14 -139.62 1795.2
317.63 -136.13 1750.2
338.09 -142.85 1836.7
362.12 -148.82 1913.4
346.81 -140.60 1807.7
338.76 -135.50 1742.2
347.35 -137.11 1762.9
361.32 -140.77 1809.9
364.05 -140.02 1800.2
370.73 -140.78 1810.1
385.96 -144.74 1860.9
396.32 -146.79 1887.3
396.86 -145.19 1866.8
396.66 -143.37 1843.4
405.26 -144.74 1860.9
409.44 -144.51 1857.9
411.42 -143.52 1845.3
418.61 -144.35 1855.9
423.19 -144.27 1854.9
433.58 -146.15 1879.1
440.93 -146.98 1889.7
446.71 -147.27 1893.5
453.68 -147.94 1902.1
458.81 -148.00 1902.9
63.20 -163.27 2031.5
66.41 -158.37 1970.5
70.40 -155.88 1939.5
75.15 -155.30 1932.3
79.40 -153.84 1914.2
85.19 -155.35 1932.9
91.54 -157.65 1961.5
95.19 -155.31 1932.4
97.40 -150.97 1878.4
100.52 -148.39 1846.3
105.69 -148.93 1853.0
111.90 -150.83 1876.6
115.14 -148.72 1850.5
120.69 -149.66 1862.1
129.65 -154.59 1923.4
133.09 -152.80 1901.2
133.73 -148.06 1842.2
138.93 -148.51 1847.8
148.49 -153.43 1909.1
157.08 -157.08 1954.4
163.92 -158.80 1975.9
180.54 -155.47 1934.4
185.51 -155.43 1933.9
254.64 -161.10 2004.5
250.14 -155.09 1929.7
252.58 -153.53 1910.3
259.44 -154.67 1924.4
260.81 -152.55 1898.1
258.18 -148.21 1844.1
264.69 -149.19 1856.3
274.71 -152.07 1892.1
278.05 -151.22 1881.6
283.86 -151.72 1887.8
291.51 -153.17 1905.8
291.74 -150.73 1875.5
293.21 -149.01 1854.1
303.76 -151.88 1889.7
309.65 -152.37 1895.8
308.08 -149.22 1856.7
315.57 -150.50 1872.6
325.00 -152.65 1899.4
327.22 -151.40 1883.8
330.58 -150.70 1875.1
323.53 -145.35 1808.5
317.92 -140.79 1751.8
336.03 -146.72 1825.5
353.78 -152.32 1895.3
349.63 -148.47 1847.4
351.06 -147.06 1829.8
359.25 -148.49 1847.5
356.54 -145.43 1809.5
358.71 -144.41 1796.9
358.24 -142.38 1771.5
361.46 -141.84 1764.8
373.74 -144.82 1802.0
381.09 -145.85 1814.7
390.56 -147.65 1837.1
400.15 -149.45 1859.6
406.24 -149.92 1865.4
408.28 -148.90 1852.7
405.05 -146.01 1816.7
406.46 -144.83 1802.1
411.57 -144.99 1804.0
421.62 -146.86 1827.2
430.65 -148.33 1845.6
438.16 -149.26 1857.2
459.14 -154.71 1925.0
56.62 -164.71 1985.4
61.14 -163.05 1965.3
65.96 -162.37 1957.2
71.47 -163.35 1968.9
76.21 -162.59 1959.8
80.46 -160.92 1939.7
85.48 -160.90 1939.5
91.10 -161.96 1952.2
95.56 -160.95 1940.0
98.62 -157.79 1901.9
102.40 -156.03 1880.8
108.34 -157.58 1899.4
115.38 -160.53 1934.9
119.32 -159.10 1917.7
122.02 -156.19 1882.6
128.09 -157.64 1900.2
137.03 -162.40 1957.5
143.73 -164.27 1980.0
143.46 -158.30 1908.1
146.68 -156.46 1885.8
158.08 -163.18 1966.9
167.68 -167.68 2021.1
174.24 -168.96 2036.6
186.43 -165.72 1997.5
185.38 -160.33 1932.5
194.15 -163.50 1970.7
239.61 -178.32 2149.3
248.30 -176.57 2128.3
251.86 -175.20 2111.8
253.76 -172.77 2082.5
257.10 -171.40 2066.0
268.15 -175.12 2110.8
273.03 -174.74 2106.2
263.11 -165.09 1989.9
258.06 -158.80 1914.2
269.98 -163.01 1964.9
277.88 -164.67 1984.9
272.10 -158.31 1908.2
270.07 -154.33 1860.2
272.61 -153.04 1844.7
278.02 -153.39 1848.9
282.41 -153.17 1846.3
278.96 -148.78 1793.3
283.97 -148.97 1795.6
298.00 -153.81 1853.9
308.15 -156.52 1886.6
310.95 -155.47 1874.0
315.51 -155.33 1872.3
321.74 -156.00 1880.3
321.36 -153.48 1850.0
322.03 -151.54 1826.7
331.54 -153.76 1853.3
342.60 -156.62 1887.8
337.41 -152.07 1833.0
331.76 -147.45 1777.3
348.07 -152.58 1839.1
370.52 -160.22 1931.3
373.06 -159.17 1918.6
364.75 -153.58 1851.2
368.59 -153.18 1846.3
370.22 -151.89 1830.8
364.78 -147.76 1781.0
368.20 -147.28 1775.2
377.32 -149.07 1796.8
388.62 -151.66 1828.0
398.60 -153.68 1852.4
404.89 -154.24 1859.2
410.56 -154.56 1863.0
410.39 -152.70 1840.6
421.73 -155.12 1869.8
437.65 -159.15 1918.3
442.83 -159.22 1919.1
446.41 -158.73 1913.2
442.65 -155.66 1876.2
451.88 -157.18 1894.5
57.20 -171.61 2005.9
61.75 -169.81 1984.8
66.65 -169.20 1977.7
72.10 -169.95 1986.4
76.66 -168.66 1971.3
79.08 -163.10 1906.4
82.35 -159.85 1868.4
88.85 -162.90 1904.0
94.22 -163.64 1912.7
96.95 -159.96 1869.7
100.42 -157.81 1844.5
107.80 -161.70 1890.0
116.66 -167.38 1956.4
122.27 -168.12 1965.0
126.83 -167.41 1956.8
130.60 -165.77 1937.5
137.13 -167.61 1959.1
146.01 -172.08 2011.4
147.24 -167.55 1958.3
149.43 -164.37 1921.2
160.36 -170.71 1995.3
170.86 -176.20 2059.4
197.63 -171.62 2006.0
256.05 -183.69 2147.0
255.99 -179.74 2100.8
260.86 -179.34 2096.2
273.37 -184.11 2151.9
270.89 -175.28 2048.7
260.80 -165.51 1934.5
268.71 -167.31 1955.5
279.60 -164.77 1925.8
276.19 -159.90 1868.9
276.63 -157.39 1839.7
276.32 -154.55 1806.5
282.58 -155.42 1816.6
297.14 -160.75 1878.9
303.47 -161.53 1888.0
305.83 -160.20 1872.4
305.99 -157.78 1844.1
307.66 -156.20 1825.7
322.18 -161.09 1882.9
330.50 -162.78 1902.7
325.77 -158.09 1847.9
329.19 -157.44 1840.2
344.30 -162.32 1897.2
343.47 -159.64 1865.9
339.37 -155.55 1818.1
356.90 -161.34 1885.8
361.80 -161.34 1885.8
346.92 -152.65 1784.2
341.17 -148.14 1731.5
347.83 -149.07 1742.4
364.81 -154.34 1804.0
375.10 -156.69 1831.4
378.24 -156.02 1823.7
387.28 -157.78 1844.2
394.76 -158.87 1856.9
400.41 -159.20 1860.8
412.65 -162.11 1894.8
423.56 -164.44 1922.0
421.37 -161.69 1889.9
431.95 -163.84 1915.1
81.46 -173.10 1963.7
83.82 -167.64 1901.8
89.90 -169.81 1926.4
95.08 -170.14 1930.2
97.23 -165.30 1875.2
99.54 -161.15 1828.2
106.30 -164.29 1863.8
117.58 -173.82 1971.9
125.40 -177.65 2015.3
130.08 -176.92 2007.0
134.06 -175.31 1988.8
137.59 -173.26 1965.6
143.31 -174.02 1974.2
149.52 -175.30 1988.7
157.74 -178.77 2028.0
260.39 -188.37 2137.0
265.11 -187.79 2130.4
273.06 -189.47 2149.5
274.96 -186.97 2121.1
275.14 -183.43 2080.9
273.25 -178.67 2026.9
269.19 -172.69 1959.1
274.86 -173.06 1963.3
279.57 -172.83 1960.6
272.82 -165.64 1879.1
278.46 -166.10 1884.3
288.13 -168.90 1916.1
286.20 -164.93 1871.1
290.79 -164.78 1869.4
307.03 -171.13 1941.4
314.63 -172.54 1957.4
309.46 -167.01 1894.6
302.17 -160.53 1821.1
307.15 -158.23 1795.1
321.22 -163.01 1849.2
322.24 -161.12 1827.8
318.59 -156.99 1780.9
325.73 -158.21 1794.8
342.14 -163.84 1858.7
355.57 -167.91 1904.8
355.89 -165.76 1880.5
342.77 -157.49 1786.6
344.95 -156.38 1774.0
356.89 -159.66 1811.3
355.56 -157.00 1781.1
363.75 -158.56 1798.8
380.22 -163.64 1856.4
390.10 -165.79 1880.8
397.02 -166.65 1890.6
402.54 -166.91 1893.5
408.71 -167.42 1899.3
421.47 -170.59 1935.3
430.11 -172.05 1951.8
424.53 -167.84 1904.0
433.83 -169.54 1923.4
87.09 -179.30 1976.0
92.85 -180.54 1989.7
97.61 -179.80 1981.5
100.20 -175.35 1932.5
102.87 -171.45 1889.5
108.83 -173.14 1908.1
119.81 -182.32 2009.2
128.21 -186.98 2060.6
133.02 -186.23 2052.3
136.31 -183.49 2022.1
139.23 -180.48 1989.0
146.81 -183.51 2022.4
155.16 -187.26 2063.7
161.33 -188.22 2074.2
273.63 -195.45 2153.9
275.66 -192.96 2126.5
275.21 -188.87 2081.4
272.39 -183.34 2020.5
266.28 -175.85 1937.9
268.73 -174.17 1919.5
270.23 -171.96 1895.1
272.18 -170.11 1874.7
286.26 -175.77 1937.1
295.47 -178.30 1964.9
292.62 -173.59 1913.0
286.59 -167.18 1842.4
292.65 -167.92 1850.5
308.55 -174.18 1919.6
311.16 -172.86 1905.0
306.18 -167.44 1845.3
304.88 -164.16 1809.2
308.09 -163.38 1800.5
316.72 -165.45 1823.3
326.66 -168.14 1852.9
331.67 -168.24 1854.1
333.30 -166.65 1836.6
343.86 -169.51 1868.1
350.92 -170.59 1879.9
344.89 -165.36 1822.3
346.25 -163.77 1804.8
363.12 -169.46 1867.5
371.45 -171.06 1885.2
366.20 -166.46 1834.4
370.38 -166.20 1831.5
382.93 -169.65 1869.7
387.38 -169.48 1867.7
389.36 -168.24 1854.1
402.25 -171.69 1892.1
416.58 -175.67 1935.9
425.83 -177.43 1955.3
430.02 -177.07 1951.3
426.82 -173.71 1914.3
438.34 -176.34 1943.4
86.59 -183.36 1964.6
90.55 -181.11 1940.5
97.97 -185.64 1989.0
103.17 -185.70 1989.7
107.93 -185.03 1982.5
127.81 -191.72 2054.1
133.12 -191.69 2053.8
139.06 -185.41 1986.5
146.56 -188.43 2018.9
275.34 -198.25 2124.1
272.93 -192.65 2064.1
267.94 -185.50 1987.5
264.73 -179.82 1926.6
269.35 -179.57 1924.0
276.35 -180.89 1938.1
283.56 -182.29 1953.1
288.81 -182.41 1954.4
288.88 -179.31 1921.1
294.35 -179.61 1924.3
296.47 -177.88 1905.9
292.12 -172.40 1847.1
297.74 -172.88 1852.3
308.19 -176.11 1886.9
311.00 -174.94 1874.3
314.24 -174.04 1864.7
321.96 -175.62 1881.6
323.97 -174.07 1865.1
327.28 -173.27 1856.4
337.21 -175.93 1885.0
344.07 -176.95 1895.9
341.98 -173.40 1857.8
336.22 -168.11 1801.2
343.14 -169.22 1813.1
357.81 -174.07 1865.0
362.66 -174.08 1865.1
358.46 -169.80 1819.3
361.05 -168.80 1808.6
374.64 -172.91 1852.6
379.85 -173.10 1854.6
375.97 -169.19 1812.7
385.18 -171.19 1834.2
408.37 -179.28 1920.9
418.79 -181.64 1946.2
422.55 -181.09 1940.3
433.57 -183.63 1967.4
438.00 -183.35 1964.4
127.78 -197.00 2053.6
134.44 -198.96 2074.1
140.99 -200.65 2091.7
146.18 -200.32 2088.3
150.92 -199.43 2079.0
280.17 -203.26 2118.9
281.84 -200.54 2090.6
285.13 -199.05 2075.1
281.02 -192.55 2007.3
279.66 -188.13 1961.2
285.36 -188.54 1965.5
288.89 -187.52 1954.9
290.59 -185.38 1932.5
297.75 -186.72 1946.5
305.58 -188.44 1964.5
306.82 -186.11 1940.1
303.99 -181.41 1891.2
306.03 -179.73 1873.7
317.61 -183.62 1914.2
329.72 -187.68 1956.6
327.26 -183.46 1912.5
318.10 -175.67 1831.3
325.65 -177.19 1847.2
340.63 -182.66 1904.2
348.79 -184.36 1921.9
347.13 -180.90 1885.8
346.37 -178.00 1855.6
358.98 -181.95 1896.8
365.98 -182.99 1907.6
362.58 -178.87 1864.7
362.61 -176.54 1840.3
370.13 -177.85 1854.1
378.30 -179.45 1870.7
377.36 -176.74 1842.5
381.95 -176.65 1841.5
401.05 -183.20 1909.8
409.31 -184.69 1925.3
402.35 -179.36 1869.8
422.24 -185.99 1938.9
275.21 -209.16 2123.0
278.53 -207.53 2106.6
285.76 -208.83 2119.7
292.92 -210.02 2131.7
292.13 -205.57 2086.6
288.02 -199.00 2019.9
291.15 -197.57 2005.4
292.75 -195.16 1981.0
292.44 -191.60 1944.8
295.87 -190.56 1934.2
300.31 -190.19 1930.5
306.75 -191.09 1939.6
308.81 -189.27 1921.2
308.21 -185.90 1887.0
317.69 -188.63 1914.7
327.49 -191.45 1943.3
321.64 -185.19 1879.7
321.60 -182.40 1851.4
339.05 -189.47 1923.2
345.63 -190.35 1932.1
344.62 -187.08 1898.9
347.76 -186.13 1889.3
351.95 -185.75 1885.5
357.78 -186.24 1890.4
358.20 -183.94 1867.1
368.19 -186.55 1893.5
382.34 -191.17 1940.5
380.76 -187.91 1907.3
378.60 -184.45 1872.2
386.86 -186.08 1888.8
401.26 -190.60 1934.7
414.05 -194.24 1971.7
413.97 -191.84 1947.3
408.12 -186.85 1896.6
430.40 -194.70 1976.3
271.23 -215.88 2135.0
268.87 -209.72 2074.2
276.38 -211.35 2090.2
280.37 -210.28 2079.7
284.72 -209.51 2072.1
288.88 -208.64 2063.5
288.51 -204.58 2023.3
288.50 -200.92 1987.1
286.86 -196.27 1941.1
290.15 -195.10 1929.6
297.75 -196.82 1946.5
303.29 -197.14 1949.7
310.56 -198.55 1963.7
313.47 -197.18 1950.1
313.42 -194.02 1918.9
314.19 -191.46 1893.6
315.50 -189.30 1872.2
320.89 -189.62 1875.3
332.08 -193.30 1911.8
341.90 -196.09 1939.4
339.94 -192.14 1900.3
336.90 -187.70 1856.4
338.13 -185.73 1836.9
341.46 -184.96 1829.2
346.78 -185.27 1832.3
355.68 -187.45 1853.9
374.55 -194.77 1926.3
388.60 -199.41 1972.2
386.70 -195.86 1937.1
387.19 -193.59 1914.7
398.95 -196.95 1947.8
413.09 -201.38 1991.7
424.63 -201.96 1997.4
418.49 -196.64 1944.8
431.35 -200.27 1980.7
271.54 -221.66 2137.4
275.71 -220.57 2126.9
283.87 -222.64 2146.9
288.01 -221.54 2136.3
286.81 -216.46 2087.3
285.50 -211.48 2039.3
284.50 -206.91 1995.2
284.43 -203.16 1959.1
283.00 -198.60 1915.0
286.08 -197.30 1902.5
292.86 -198.55 1914.6
297.71 -198.47 1913.8
312.81 -205.12 1977.9
323.18 -208.50 2010.5
320.08 -203.22 1959.7
317.37 -198.36 1912.7
320.87 -197.46 1904.1
328.36 -199.00 1919.0
333.53 -199.12 1920.1
336.98 -198.22 1911.4
343.71 -199.25 1921.4
349.42 -199.67 1925.4
345.61 -194.71 1877.6
343.74 -190.97 1841.5
351.32 -192.50 1856.3
362.15 -195.75 1887.6
372.94 -198.90 1918.0
378.50 -199.21 1921.0
389.72 -202.45 1952.2
404.64 -207.51 2001.0
401.24 -203.16 1959.0
398.64 -199.32 1922.0
417.32 -206.08 1987.2
424.11 -206.88 1995.0
423.62 -204.15 1968.6
500.87 -230.28 2220.6
265.45 -222.11 2089.5
271.42 -222.56 2093.8
280.66 -225.63 2122.7
284.34 -224.19 2109.1
282.13 -218.25 2053.2
278.94 -211.79 1992.5
276.43 -206.06 1938.6
279.35 -204.52 1924.1
280.75 -201.94 1899.8
284.97 -201.45 1895.1
292.63 -203.35 1913.1
294.42 -201.19 1892.7
307.75 -206.85 1946.0
319.93 -211.57 1990.4
318.23 -207.10 1948.3
318.92 -204.31 1922.0
325.09 -205.05 1929.1
330.79 -205.49 1933.2
334.29 -204.57 1924.5
342.42 -206.46 1942.3
354.48 -210.63 1981.6
359.45 -210.54 1980.7
354.34 -204.62 1925.0
352.05 -200.47 1886.0
359.18 -201.73 1897.8
360.18 -199.56 1877.4
360.31 -196.97 1853.0
375.13 -202.37 1903.9
396.24 -210.98 1984.9
407.30 -214.09 2014.1
398.74 -206.94 1946.8
402.37 -206.22 1940.0
265.25 -227.36 2088.0
266.23 -223.63 2053.8
276.68 -227.85 2092.5
281.34 -227.24 2086.9
278.67 -220.83 2028.1
274.87 -213.79 1963.4
272.70 -208.25 1912.5
276.42 -207.31 1903.9
284.59 -209.70 1925.8
295.54 -214.01 1965.4
311.80 -221.96 2038.4
322.46 -225.72 2073.0
314.66 -216.65 1989.7
305.96 -207.27 1903.5
310.77 -207.18 1902.7
317.85 -208.59 1915.6
322.02 -208.08 1910.9
326.00 -207.46 1905.2
330.63 -207.26 1903.4
339.91 -209.94 1928.0
348.61 -212.19 1948.7
349.77 -209.86 1927.3
356.77 -211.05 1938.2
367.65 -214.46 1969.5
365.00 -210.00 1928.6
355.21 -201.61 1851.5
356.80 -199.81 1835.0
373.69 -206.51 1896.5
392.05 -213.84 1963.9
399.70 -215.22 1976.5
405.42 -215.54 1979.4
486.25 -243.12 2232.8
496.42 -242.44 2226.5
269.48 -231.75 2078.8
274.52 -231.46 2076.2
283.13 -234.12 2100.1
283.47 -229.98 2063.0
281.82 -224.41 2013.0
282.59 -220.93 1981.8
289.05 -221.95 1990.9
299.34 -225.82 2025.6
298.56 -221.35 1985.5
303.44 -221.15 1983.8
318.40 -228.19 2046.9
314.57 -221.75 1989.1
308.56 -214.00 1919.6
315.81 -215.56 1933.6
320.21 -215.14 1929.8
321.28 -212.54 1906.5
334.46 -217.91 1954.7
348.74 -223.82 2007.7
338.26 -213.90 1918.7
327.15 -203.88 1828.8
341.33 -209.68 1880.8
361.53 -218.95 1964.0
366.27 -218.74 1962.2
356.95 -210.26 1886.0
361.29 -209.94 1883.2
378.90 -217.24 1948.7
387.81 -219.42 1968.2
397.58 -222.03 1991.6
492.25 -251.99 2260.3
492.28 -249.04 2233.9
274.64 -241.68 2118.6
280.56 -242.05 2121.9
290.21 -245.57 2152.7
290.01 -240.77 2110.6
287.67 -234.40 2054.8
295.56 -236.44 2072.7
308.82 -242.64 2127.0
315.52 -243.56 2135.1
309.86 -235.06 2060.6
308.17 -229.82 2014.7
316.48 -232.08 2034.5
316.97 -228.63 2004.3
315.89 -224.18 1965.2
319.57 -223.19 1956.5
319.47 -219.63 1925.4
322.67 -218.42 1914.8
338.22 -225.48 1976.6
355.62 -233.54 2047.3
347.48 -224.84 1971.0
330.91 -211.02 1849.8
340.53 -214.05 1876.4
359.63 -222.87 1953.7
362.34 -221.43 1941.1
362.39 -218.43 1914.8
376.36 -223.78 1961.7
389.42 -228.46 2002.7
394.42 -228.35 2001.8
403.50 -230.57 2021.3
480.87 -254.92 2234.7
497.71 -257.64 2258.5
283.84 -241.00 2065.7
282.21 -235.18 2015.8
291.68 -238.65 2045.6
302.45 -243.04 2083.2
305.85 -241.46 2069.6
308.44 -239.30 2051.2
315.59 -240.70 2063.2
318.83 -239.12 2049.6
313.62 -231.36 1983.1
314.69 -228.41 1957.8
320.76 -229.11 1963.8
322.46 -226.73 1943.4
328.19 -227.21 1947.5
340.31 -232.03 1988.8
353.47 -237.41 2034.9
356.52 -235.94 2022.3
350.24 -228.42 1957.8
350.19 -225.12 1929.6
360.06 -228.21 1956.1
365.88 -228.68 1960.1
368.94 -227.43 1949.4
372.51 -226.53 1941.7
375.47 -225.28 1931.0
380.10 -225.06 1929.1
389.00 -227.34 1948.6
471.47 -258.73 2217.7
280.35 -257.92 2162.7
290.71 -257.16 2156.3
289.30 -251.09 2105.4
297.41 -253.35 2124.4
296.22 -247.75 2077.4
297.22 -244.15 2047.2
306.05 -246.98 2071.0
313.96 -249.00 2087.9
321.50 -250.66 2101.8
325.30 -249.40 2091.2
313.37 -236.31 1981.5
306.88 -227.68 1909.1
321.31 -234.60 1967.2
331.64 -238.36 1998.7
332.55 -235.34 1973.4
339.54 -236.65 1984.3
356.60 -244.83 2052.9
362.97 -245.54 2058.9
358.70 -239.14 2005.2
360.73 -237.05 1987.7
365.35 -236.71 1984.8
366.50 -234.15 1963.4
364.96 -229.97 1928.3
363.79 -226.14 1896.2
374.60 -229.75 1926.5
388.05 -234.87 1969.4
399.97 -238.94 2003.5
452.60 -263.54 2209.8
462.36 -262.57 2201.7
290.44 -284.39 2333.9
285.38 -273.74 2246.5
296.19 -272.96 2240.1
293.01 -264.83 2173.4
291.92 -258.87 2124.5
297.60 -259.02 2125.7
293.89 -251.14 2061.1
298.13 -250.22 2053.4
310.02 -255.63 2097.9
311.21 -252.18 2069.6
312.40 -248.86 2042.3
321.39 -251.75 2066.1
313.74 -241.74 1983.8
307.89 -233.40 1915.4
323.61 -241.42 1981.3
336.25 -246.93 2026.5
338.89 -245.04 2011.0
334.41 -238.14 1954.3
339.84 -238.40 1956.4
354.59 -245.08 2011.3
359.12 -244.62 2007.5
358.14 -240.46 1973.4
359.85 -238.21 1954.9
367.30 -239.77 1967.7
372.05 -239.54 1965.8
373.23 -237.05 1945.4
387.00 -242.52 1990.3
396.38 -245.13 2011.7
428.66 -258.29 2119.7
458.84 -272.98 2240.3
275.32 -293.68 2359.9
276.82 -282.71 2271.8
284.95 -284.95 2289.8
293.43 -287.44 2309.8
303.78 -291.63 2343.5
296.10 -273.32 2196.3
283.18 -256.47 2060.9
279.07 -248.06 1993.3
282.87 -246.87 1983.8
294.19 -252.16 2026.3
297.30 -250.36 2011.8
290.01 -240.00 1928.6
292.49 -237.96 1912.2
303.44 -242.75 1950.7
310.23 -244.12 1961.7
318.98 -246.95 1984.4
333.11 -253.80 2039.4
344.43 -258.32 2075.8
347.52 -256.63 2062.2
343.18 -249.59 2005.6
338.38 -242.42 1948.0
343.11 -242.19 1946.2
342.23 -238.07 1913.1
357.05 -241.38 1939.7
384.68 -256.45 2060.8
391.32 -257.30 2067.6
394.81 -256.09 2057.9
396.92 -254.03 2041.3
393.96 -248.82 1999.4
396.03 -246.88 1983.8
417.51 -256.93 2064.6
448.74 -272.65 2191.0
474.36 -277.67 2231.3
274.43 -298.83 2352.3
278.80 -296.98 2337.8
308.62 -296.52 2334.1
297.60 -280.43 2207.4
284.31 -262.85 2069.1
289.16 -262.38 2065.4
301.97 -269.03 2117.7
302.36 -264.57 2082.6
294.59 -253.25 1993.5
292.27 -246.92 1943.7
299.75 -248.95 1959.6
312.34 -255.08 2007.9
320.68 -257.59 2027.7
326.12 -257.74 2028.9
337.64 -262.61 2067.2
350.01 -267.98 2109.4
354.01 -266.87 2100.7
349.27 -259.30 2041.2
343.88 -251.49 1979.7
353.68 -254.86 2006.2
358.20 -254.38 2002.4
345.87 -242.11 1905.8
362.33 -250.06 1968.4
392.57 -267.17 2103.1
401.53 -269.52 2121.6
410.02 -271.50 2137.2
417.63 -272.85 2147.8
421.27 -271.61 2138.0
432.43 -275.19 2166.2
460.70 -282.18 2221.2
264.39 -300.44 2317.7
271.70 -301.89 2328.8
290.04 -302.12 2330.7
296.61 -302.67 2334.9
304.74 -304.74 2350.8
302.15 -296.22 2285.2
291.01 -279.81 2158.6
287.32 -271.06 2091.0
300.89 -278.60 2149.2
309.02 -280.92 2167.1
304.83 -272.17 2099.6
309.44 -271.43 2093.9
318.88 -274.89 2120.6
313.60 -265.77 2050.2
313.46 -261.22 2015.1
319.96 -262.26 2023.1
323.65 -261.01 2013.5
338.34 -268.52 2071.4
354.12 -276.66 2134.2
364.94 -280.73 2165.6
366.39 -277.57 2141.2
360.07 -268.71 2072.9
369.24 -271.50 2094.4
380.10 -275.43 2124.8
374.28 -267.34 2062.3
376.76 -265.32 2046.8
392.45 -272.53 2102.4
402.14 -275.44 2124.8
412.50 -278.72 2150.1
427.92 -285.28 2200.7
441.27 -290.31 2239.6
447.45 -290.55 2241.4
433.96 -278.18 2146.0
454.51 -284.07 2191.4
270.26 -313.25 2369.1
282.91 -306.99 2321.8
276.47 -293.75 2221.7
288.64 -300.42 2272.1
299.79 -305.79 2312.7
300.62 -300.62 2273.6
296.21 -290.51 2197.2
300.18 -288.86 2184.6
307.39 -290.32 2195.7
309.34 -286.84 2169.4
303.16 -276.10 2088.1
305.71 -273.53 2068.7
330.13 -290.28 2195.4
332.11 -282.29 2135.0
330.54 -276.35 2090.1
320.87 -263.94 1996.2
322.56 -261.12 1974.9
343.62 -273.82 2070.9
358.73 -281.46 2128.7
373.29 -288.45 2181.6
379.30 -288.72 2183.6
380.14 -285.11 2156.3
383.47 -283.43 2143.6
375.75 -273.76 2070.4
376.10 -270.15 2043.2
389.41 -275.83 2086.1
397.22 -277.51 2098.8
406.39 -280.08 2118.3
421.15 -286.38 2165.9
429.25 -288.05 2178.5
429.25 -284.31 2150.2
442.27 -289.18 2187.1
278.29 -314.59 2333.5
272.99 -302.03 2240.3
280.91 -304.32 2257.3
286.42 -303.96 2254.6
292.81 -304.52 2258.8
305.33 -311.31 2309.2
310.68 -310.68 2304.5
313.04 -307.13 2278.2
318.42 -306.63 2274.4
316.65 -299.38 2220.6
307.91 -285.91 2120.8
299.38 -273.12 2025.9
313.80 -281.34 2086.9
336.33 -296.43 2198.8
341.14 -295.65 2193.0
337.55 -287.75 2134.4
324.86 -272.46 2021.0
324.21 -267.60 1985.0
343.34 -278.96 2069.2
358.28 -286.62 2126.1
372.83 -293.75 2178.9
374.93 -290.99 2158.4
371.07 -283.76 2104.8
392.94 -296.13 2196.6
403.06 -299.42 2221.0
395.35 -289.56 2147.8
402.74 -290.87 2157.5
411.28 -292.97 2173.1
421.01 -295.85 2194.5
426.50 -295.71 2193.4
424.12 -290.19 2152.5
428.52 -289.39 2146.6
445.67 -297.11 2203.8
280.31 -322.96 2350.4
281.64 -317.60 2311.3
284.61 -314.26 2287.0
286.20 -309.56 2252.9
286.34 -303.52 2208.9
292.88 -304.37 2215.1
308.19 -314.12 2286.0
319.14 -319.14 2322.6
315.57 -309.72 2254.0
304.65 -293.57 2136.5
313.50 -296.70 2159.3
322.31 -299.69 2181.0
316.94 -289.62 2107.7
320.33 -287.76 2094.2
330.97 -292.36 2127.7
332.48 -288.88 2102.4
332.93 -284.60 2071.2
346.15 -291.20 2119.3
355.88 -294.71 2144.8
361.62 -294.86 2145.9
375.22 -301.31 2192.8
375.82 -297.29 2163.6
366.47 -285.63 2078.7
383.91 -294.89 2146.1
396.20 -299.98 2183.2
391.45 -292.21 2126.6
402.79 -296.50 2157.8
414.28 -300.78 2188.9
426.29 -305.32 2222.0
433.93 -306.64 2231.6
433.94 -302.62 2202.3
440.99 -303.54 2209.1
441.39 -299.92 2182.7
446.63 -299.64 2180.7
268.30 -329.27 2352.0
283.22 -325.40 2324.3
278.76 -313.61 2240.0
288.72 -318.18 2272.7
296.05 -319.73 2283.8
287.85 -304.78 2177.0
303.11 -308.83 2206.0
300.90 -300.90 2149.3
302.59 -297.09 2122.0
324.63 -313.04 2236.0
330.60 -313.20 2237.1
321.54 -299.37 2138.3
321.87 -294.59 2104.2
330.40 -297.36 2124.0
333.45 -295.19 2108.5
335.96 -292.61 2090.0
350.66 -300.56 2146.9
362.40 -305.78 2184.1
360.51 -299.50 2139.3
366.57 -299.92 2142.3
376.37 -303.34 2166.7
377.01 -299.39 2138.5
380.46 -297.75 2126.8
379.97 -293.12 2093.7
380.38 -289.30 2066.5
397.02 -297.76 2126.9
407.13 -301.17 2151.2
416.81 -304.16 2172.6
429.24 -309.05 2207.5
434.75 -308.90 2206.5
457.81 -312.93 2235.2
283.19 -324.48 2275.6
290.62 -326.20 2287.7
301.54 -331.70 2326.2
297.74 -321.09 2251.8
296.73 -313.85 2201.0
307.59 -319.20 2238.5
311.50 -317.27 2225.0
319.81 -319.81 2242.9
320.11 -314.39 2204.8
306.02 -295.28 2070.8
315.77 -294.36 2064.3
336.98 -308.90 2166.3
352.67 -317.98 2230.0
346.21 -307.12 2153.8
351.01 -306.44 2149.1
373.30 -320.80 2249.8
381.64 -318.03 2230.3
384.37 -315.53 2212.8
380.66 -307.88 2159.2
380.33 -303.16 2126.1
383.37 -301.22 2112.5
386.70 -299.56 2100.8
407.05 -310.94 2180.6
421.73 -317.74 2228.3
425.81 -316.48 2219.5
431.74 -316.61 2220.4
441.88 -319.78 2242.6
279.31 -340.03 2342.0
297.00 -339.43 2337.9
296.98 -332.62 2291.0
302.56 -332.23 2288.3
310.25 -334.11 2301.3
317.18 -335.14 2308.3
316.88 -328.62 2263.4
325.15 -331.06 2280.3
325.82 -325.82 2244.2
315.46 -309.92 2134.7
317.93 -306.97 2114.3
327.33 -310.69 2139.9
348.42 -325.19 2239.9
364.00 -328.77 2264.5
363.18 -322.82 2223.5
379.66 -327.09 2252.9
369.31 -313.36 2158.3
369.33 -308.69 2126.2
364.19 -299.92 2065.8
371.48 -301.49 2076.6
381.12 -304.89 2100.0
391.41 -308.71 2126.3
417.63 -324.82 2237.3
426.55 -327.21 2253.8
424.91 -321.56 2214.8
260.56 -380.83 2577.0
268.89 -333.20 2254.7
288.85 -343.00 2321.1
297.51 -346.09 2341.9
292.80 -333.80 2258.8
291.30 -325.57 2203.1
302.99 -332.13 2247.5
313.70 -337.37 2283.0
320.33 -338.13 2288.1
337.09 -331.28 2241.7
332.75 -321.47 2175.3
339.02 -322.07 2179.4
343.45 -320.93 2171.7
362.76 -333.51 2256.8
370.97 -325.32 2201.4
361.17 -311.92 2110.7
362.08 -308.04 2084.5
374.31 -309.21 2092.4
384.16 -312.82 2116.8
395.39 -317.42 2148.0
420.75 -333.09 2254.0
428.05 -334.23 2261.7
426.81 -328.76 2224.7
243.00 -391.50 2603.5
281.67 -388.98 2586.8
275.47 -347.33 2309.8
288.13 -348.15 2315.3
290.67 -344.06 2288.1
305.13 -340.33 2263.3
314.52 -344.20 2289.0
319.25 -342.90 2280.4
322.40 -339.98 2261.0
325.58 -337.21 2242.5
327.52 -333.26 2216.3
317.25 -317.25 2109.8
327.19 -316.28 2103.3
330.04 -313.81 2086.9
346.30 -323.96 2154.4
385.63 -344.10 2288.4
382.06 -335.75 2232.8
379.56 -328.57 2185.1
377.67 -322.13 2142.2
389.50 -327.41 2177.3
401.15 -332.38 2210.4
394.52 -322.29 2143.3
401.35 -323.31 2150.1
418.51 -332.52 2211.3
430.20 -337.18 2242.3
447.89 -346.37 2303.4
250.82 -399.96 2614.7
262.49 -387.17 2531.1
278.78 -391.63 2560.3
269.34 -353.14 2308.7
289.81 -348.96 2281.3
298.99 -345.89 2261.2
311.22 -353.12 2308.5
314.68 -350.30 2290.1
314.06 -343.14 2243.3
312.78 -335.53 2193.6
314.10 -330.92 2163.4
313.37 -324.37 2120.6
314.49 -319.91 2091.4
325.47 -325.47 2127.8
335.27 -329.68 2155.3
337.17 -326.12 2132.0
341.31 -324.79 2123.4
360.22 -337.35 2205.5
388.92 -347.67 2272.9
387.54 -341.26 2231.0
384.91 -333.97 2183.3
397.19 -339.63 2220.3
414.42 -349.30 2283.6
412.46 -342.75 2240.7
404.65 -331.59 2167.8
406.95 -328.91 2150.3
424.08 -338.11 2210.4
446.21 -351.02 2294.8
452.71 -351.45 2297.6
254.82 -402.35 2586.5
275.98 -403.87 2596.3
282.96 -404.22 2598.6
288.30 -402.28 2586.1
302.38 -362.86 2332.7
304.05 -357.71 2299.6
306.08 -353.17 2270.4
311.86 -353.05 2269.6
312.43 -347.15 2231.7
312.66 -341.09 2192.7
316.82 -339.45 2182.1
325.39 -342.52 2201.9
335.39 -346.95 2230.4
329.68 -335.27 2155.3
344.76 -339.11 2180.0
368.16 -356.28 2290.4
362.00 -344.76 2216.3
361.29 -338.71 2177.4
372.53 -343.87 2210.6
376.77 -342.52 2201.9
386.88 -346.46 2227.3
395.58 -349.04 2243.8
398.26 -346.31 2226.3
405.44 -347.52 2234.1
418.21 -353.41 2272.0
424.99 -354.16 2276.8
420.59 -345.69 2222.3
430.62 -349.15 2244.5
458.47 -357.25 2296.6
496.72 -382.09 2456.3
254.24 -408.12 2580.6
275.87 -410.44 2595.3
291.33 -403.89 2553.9
298.45 -364.11 2302.4
293.58 -351.14 2220.3
307.15 -360.31 2278.3
323.04 -371.80 2351.0
325.19 -367.34 2322.8
328.72 -364.58 2305.3
328.90 -358.27 2265.4
334.07 -357.52 2260.7
346.57 -364.49 2304.8
344.04 -355.71 2249.2
332.43 -337.97 2137.1
347.87 -347.87 2199.7
371.47 -365.48 2311.0
366.32 -354.69 2242.8
356.94 -340.21 2151.2
359.09 -336.99 2130.8
362.46 -335.00 2118.3
371.68 -338.40 2139.8
393.54 -353.03 2232.2
410.81 -363.18 2296.4
422.58 -368.25 2328.5
435.89 -369.30 2335.1
418.77 -349.93 2212.7
425.43 -350.69 2217.5
438.90 -356.97 2257.2
487.12 -385.90 2440.1
500.06 -391.07 2472.8
537.60 -404.86 2560.0
252.29 -411.64 2560.9
256.98 -408.54 2541.6
265.44 -411.43 2559.6
301.07 -414.81 2580.6
296.05 -367.10 2283.8
302.91 -368.24 2290.9
334.37 -383.90 2388.3
350.83 -381.61 2374.1
360.63 -378.97 2357.7
355.22 -367.06 2283.6
346.81 -352.49 2192.9
346.40 -346.40 2155.0
361.08 -355.35 2210.7
371.84 -360.22 2241.0
368.14 -351.14 2184.5
365.81 -343.64 2137.9
375.93 -347.88 2164.2
398.70 -363.52 2261.5
406.30 -365.08 2271.2
408.48 -361.80 2250.8
429.81 -365.05 2271.0
444.99 -372.83 2319.5
449.47 -371.56 2311.6
460.40 -375.59 2336.6
506.62 -397.60 2473.5
529.22 -410.15 2551.6
307.90 -421.68 2581.7
306.26 -410.51 2513.3
310.97 -408.15 2498.9
298.98 -376.71 2306.4
308.87 -381.54 2336.0
327.75 -397.08 2431.1
326.71 -381.16 2333.6
335.01 -383.74 2349.4
344.38 -387.43 2372.0
345.07 -381.39 2335.0
353.34 -383.80 2349.8
360.04 -384.45 2353.8
354.17 -371.88 2276.8
347.13 -358.51 2195.0
347.67 -353.28 2162.9
363.80 -363.80 2227.4
372.33 -366.52 2244.0
366.68 -355.39 2175.9
373.66 -356.68 2183.7
393.19 -369.71 2263.5
397.34 -368.12 2253.8
386.14 -352.57 2158.6
409.14 -363.04 2222.7
439.35 -384.43 2353.7
465.09 -380.53 2329.7
509.59 -406.38 2488.0
515.67 -401.08 2455.6
527.32 -405.13 2480.4
251.99 -424.41 2557.8
267.66 -428.26 2581.1
283.94 -413.00 2489.0
299.79 -426.38 2569.7
302.39 -420.72 2535.6
301.71 -410.85 2476.1
307.19 -409.58 2468.5
322.69 -421.47 2540.1
327.11 -410.49 2473.9
330.78 -407.11 2453.6
339.04 -409.40 2467.4
339.98 -402.94 2428.4
329.44 -383.35 2310.4
331.08 -371.73 2240.4
348.21 -384.23 2315.7
358.40 -388.78 2343.1
354.94 -378.60 2281.7
354.70 -372.14 2242.8
363.82 -375.55 2263.4
365.24 -371.04 2236.2
358.61 -358.61 2161.3
366.69 -361.05 2176.0
386.99 -375.27 2261.6
391.34 -373.82 2252.9
380.73 -358.34 2159.6
386.34 -358.34 2159.6
404.10 -369.46 2226.7
419.34 -377.99 2278.1
441.53 -392.47 2365.3
480.20 -409.77 2469.6
490.76 -413.27 2490.7
504.04 -408.33 2460.9
505.35 -404.28 2436.5
536.55 -418.77 2523.8
250.24 -428.05 2540.1
289.27 -417.83 2479.5
304.25 -429.92 2551.2
318.14 -430.82 2556.5
339.20 -424.01 2516.1
337.96 -414.48 2459.5
338.20 -407.09 2415.7
327.35 -386.87 2295.7
328.65 -381.47 2263.7
349.69 -398.76 2366.3
357.16 -400.26 2375.2
356.91 -393.21 2333.3
361.92 -392.08 2326.6
369.65 -393.89 2337.4
365.08 -382.74 2271.2
353.33 -364.54 2163.2
359.92 -365.54 2169.2
381.79 -381.79 2265.6
393.49 -387.53 2299.6
388.65 -377.04 2237.4
385.71 -368.70 2187.9
399.38 -376.23 2232.6
420.14 -390.13 2315.1
440.06 -402.87 2390.7
442.08 -399.10 2368.3
435.35 -387.64 2300.3
449.10 -394.48 2340.9
491.32 -420.21 2493.6
491.95 -415.28 2464.3
500.44 -417.03 2474.7
522.44 -429.86 2550.8
518.37 -421.18 2499.3
516.68 -414.62 2460.4
535.92 -424.82 2520.9
554.42 -434.19 2576.5
251.33 -448.32 2620.1
254.58 -442.17 2584.1
272.34 -427.96 2501.1
301.26 -441.84 2582.2
309.97 -426.21 2490.9
315.96 -425.58 2487.1
323.86 -419.12 2449.4
315.22 -400.09 2338.2
324.53 -404.13 2361.8
335.32 -409.84 2395.2
341.41 -409.70 2394.3
357.56 -421.40 2462.8
360.93 -417.91 2442.4
353.19 -401.91 2348.8
351.10 -392.75 2295.3
354.19 -389.60 2276.9
361.95 -391.62 2288.7
358.20 -381.31 2228.4
360.49 -377.66 2207.1
380.91 -392.82 2295.7
389.00 -394.99 2308.4
387.34 -387.34 2263.7
385.11 -379.36 2217.0
385.38 -374.05 2186.0
396.61 -379.37 2217.1
414.68 -390.99 2285.0
434.52 -403.92 2360.6
435.56 -399.26 2333.4
419.77 -379.52 2217.9
447.99 -394.23 2304.0
466.91 -405.47 2369.6
488.08 -418.35 2444.9
538.15 -438.50 2562.6
231.88 -456.94 2630.6
271.85 -444.25 2557.5
280.01 -446.68 2571.5
281.58 -438.73 2525.8
288.04 -438.61 2525.1
313.61 -447.06 2573.7
308.99 -431.30 2482.9
320.30 -437.96 2521.3
322.93 -432.72 2491.2
312.74 -410.86 2365.3
331.37 -418.90 2411.6
348.98 -432.99 2492.7
360.05 -423.22 2436.4
353.04 -407.83 2347.8
352.14 -399.89 2302.1
357.52 -399.23 2298.3
367.80 -403.98 2325.7
365.40 -394.86 2273.2
368.44 -391.83 2255.8
384.14 -402.15 2315.1
386.38 -398.27 2292.8
389.50 -395.40 2276.3
393.55 -393.55 2265.6
393.78 -387.99 2233.6
403.39 -391.69 2255.0
410.81 -393.21 2263.7
418.82 -395.22 2275.3
426.33 -396.73 2283.9
431.09 -390.31 2247.0
466.25 -416.51 2397.8
481.58 -424.55 2444.1
497.71 -433.08 2493.2
511.75 -439.58 2530.6
521.22 -442.05 2544.8
546.96 -446.91 2572.8
551.06 -444.83 2560.9
590.16 -449.33 2586.8
218.24 -463.75 2630.5
244.39 -461.62 2618.4
264.66 -461.45 2617.5
271.98 -462.37 2622.7
278.29 -461.56 2618.1
280.21 -453.67 2573.3
285.60 -451.65 2561.9
295.51 -456.70 2590.5
298.37 -450.87 2557.5
296.40 -438.15 2485.3
306.68 -443.71 2516.9
319.92 -453.23 2570.8
327.48 -454.46 2577.8
325.83 -443.13 2513.5
323.97 -431.96 2450.2
332.32 -434.57 2465.0
335.11 -429.95 2438.8
338.72 -426.54 2419.4
349.74 -432.41 2452.7
353.71 -429.51 2436.3
360.33 -429.87 2438.3
367.69 -431.08 2445.2
358.54 -413.24 2344.0
354.79 -402.10 2280.8
364.88 -406.75 2307.2
363.21 -398.36 2259.6
362.57 -391.34 2219.8
373.49 -396.84 2251.0
387.53 -405.41 2299.6
403.46 -415.69 2357.9
407.38 -413.46 2345.2
406.10 -406.10 2303.5
417.79 -411.73 2335.5
427.18 -414.97 2353.8
423.81 -405.90 2302.4
418.74 -395.47 2243.2
422.89 -393.93 2234.5
450.95 -414.39 2350.5
481.85 -436.87 2478.1
489.56 -438.03 2484.6
507.53 -448.21 2542.4
505.77 -435.35 2469.4
537.50 -451.24 2559.5
549.79 -450.43 2555.0
556.97 -450.88 2557.5
574.54 -459.63 2607.2
594.52 -454.24 2576.6
225.33 -471.14 2633.7
263.65 -466.46 2607.5
291.17 -446.46 2495.7
298.21 -437.80 2447.3
311.52 -447.80 2503.3
317.16 -446.62 2496.6
327.58 -452.06 2527.1
337.25 -456.28 2550.7
335.84 -429.13 2398.9
330.69 -414.86 2319.1
345.07 -425.17 2376.7
362.62 -438.96 2453.8
367.09 -436.71 2441.2
355.11 -415.30 2321.6
346.77 -398.78 2229.2
351.80 -397.93 2224.5
363.52 -404.56 2261.5
376.22 -412.05 2303.4
376.56 -405.97 2269.4
380.48 -403.90 2257.8
392.32 -410.16 2292.8
391.19 -402.87 2252.0
397.03 -402.87 2252.1
414.83 -414.83 2318.9
425.06 -418.98 2342.2
422.02 -410.13 2292.7
430.12 -412.20 2304.2
448.72 -424.13 2370.9
457.62 -426.70 2385.3
465.85 -428.58 2395.8
480.21 -435.98 2437.2
504.62 -452.19 2527.8
518.21 -452.61 2530.1
512.70 -442.21 2472.0
576.63 -468.09 2616.6
223.47 -474.02 2611.9
232.78 -479.25 2640.8
264.12 -474.07 2612.2
265.35 -464.36 2558.7
276.69 -472.41 2603.1
279.53 -465.89 2567.1
297.14 -472.73 2604.8
313.20 -466.46 2570.3
320.61 -467.56 2576.4
322.60 -460.86 2539.4
328.83 -460.36 2536.7
341.75 -469.07 2584.6
340.06 -440.82 2429.0
340.54 -433.42 2388.2
360.61 -450.76 2483.8
362.39 -437.37 2410.0
364.63 -432.61 2383.8
370.82 -432.62 2383.8
368.25 -422.58 2328.5
373.82 -422.06 2325.6
378.75 -420.83 2318.9
370.75 -405.51 2234.4
386.64 -403.95 2225.8
402.49 -414.33 2283.1
422.45 -428.57 2361.5
434.54 -434.54 2394.4
432.00 -425.91 2346.9
