ply
format ascii 1.0
element vertex 2068
property float x
property float y
property float z
end_header
-971.83 -91.11 2342.8
-962.07 -90.76 2333.9
-954.23 -90.59 2329.5
-952.45 -91.00 2339.9
-974.59 -93.71 2409.7
-963.25 -93.22 2397.0
-938.99 -91.46 2351.8
-944.41 -92.59 2380.9
-945.66 -93.32 2399.7
-934.44 -92.83 2386.9
-918.92 -91.89 2362.9
-908.19 -91.43 2351.0
-896.79 -90.89 2337.2
-879.40 -89.74 2307.5
-870.63 -89.45 2300.1
-865.76 -89.56 2303.0
-862.62 -89.86 2310.6
-861.18 -90.33 2322.9
-865.20 -91.39 2350.1
-857.50 -91.88 2362.5
-830.40 -89.61 2304.3
-809.96 -88.04 2263.9
-810.77 -88.77 2282.7
-810.82 -89.43 2299.6
-797.92 -88.66 2279.8
-791.01 -88.55 2276.9
-772.38 -87.11 2240.0
-741.62 -84.27 2167.1
-714.62 -82.46 2120.3
-716.96 -83.37 2143.7
-719.51 -84.32 2168.2
-730.07 -86.23 2217.3
-730.15 -86.92 2235.2
-724.91 -86.99 2236.9
-725.16 -87.72 2255.7
-703.76 -85.82 2206.9
-678.97 -83.48 2146.6
-672.71 -83.39 2144.4
-667.35 -83.42 2145.0
-662.27 -83.48 2146.6
-658.64 -83.73 2152.9
-666.30 -85.42 2196.6
-662.51 -85.67 2202.9
-644.99 -84.13 2163.3
-623.12 -81.99 2108.3
-602.36 -79.96 2056.1
-593.26 -79.45 2043.1
-588.93 -79.58 2046.5
-583.20 -79.53 2045.0
-572.58 -78.80 2026.2
-561.78 -78.03 2006.4
-557.77 -79.68 2048.9
-572.59 -82.58 2123.6
-584.21 -85.08 2187.7
-587.08 -86.34 2220.1
-584.74 -86.84 2233.1
-576.80 -86.52 2224.8
-579.59 -87.82 2258.2
-600.18 -91.86 2362.2
-627.75 -98.09 2522.2
-629.71 -99.43 2556.7
-608.78 -97.15 2498.1
-599.55 -97.75 2513.6
-611.73 -100.84 2592.9
-605.13 -100.86 2593.4
-598.75 -100.91 2594.9
-582.13 -99.23 2551.6
-565.07 -97.43 2505.2
-574.54 -100.21 2576.8
-593.11 -104.67 2691.4
-1261.51 -109.70 2644.5
-1267.91 -110.86 2672.4
-1261.39 -110.89 2673.3
-1218.35 -107.70 2596.3
-1204.80 -107.09 2581.7
-1193.40 -106.67 2571.6
-1174.09 -105.54 2544.2
-1194.90 -108.01 2603.9
-1198.02 -108.91 2625.5
-1144.07 -104.60 2521.6
-1103.71 -101.49 2446.7
-1103.34 -102.04 2460.0
-1103.72 -102.67 2475.1
-1084.99 -101.52 2447.4
-1053.89 -99.19 2391.2
-1058.31 -100.20 2415.4
-1083.78 -103.22 2488.3
-1074.37 -102.93 2481.4
-1058.68 -102.04 2459.9
-1055.25 -102.33 2466.8
-1048.66 -102.31 2466.4
-1038.57 -101.95 2457.6
-1026.19 -101.35 2443.3
-1017.33 -101.10 2437.3
-1002.75 -100.28 2417.4
-988.26 -99.45 2397.4
-974.22 -98.66 2378.3
-963.29 -98.17 2366.6
-976.37 -100.14 2414.1
-961.67 -99.27 2393.1
-935.20 -97.16 2342.3
-946.90 -99.02 2387.1
-952.90 -100.31 2418.1
-939.09 -99.51 2398.8
-921.01 -98.24 2368.3
-899.11 -96.55 2327.5
-877.02 -94.81 2285.7
-871.85 -94.90 2287.7
-874.09 -95.79 2309.2
-862.87 -95.21 2295.3
-853.46 -94.83 2286.0
-848.94 -94.99 2289.9
-849.93 -95.77 2308.7
-860.77 -97.68 2354.7
-852.31 -97.41 2348.2
-835.41 -96.16 2318.2
-825.37 -95.69 2306.9
-804.34 -93.94 2264.6
-781.84 -91.98 2217.4
-770.78 -91.35 2202.2
-766.01 -91.46 2204.9
-765.79 -92.13 2220.9
-752.87 -91.26 2200.0
-741.65 -90.58 2183.7
-745.83 -91.79 2212.9
-746.69 -92.61 2232.6
-748.09 -93.51 2254.3
-747.50 -94.17 2270.3
-737.53 -93.65 2257.7
-724.84 -92.78 2236.7
-718.67 -92.73 2235.5
-700.36 -91.10 2196.2
-678.61 -89.00 2145.5
-679.53 -89.85 2166.1
-681.53 -90.87 2190.6
-670.75 -90.18 2174.1
-661.21 -89.66 2161.3
-666.52 -91.15 2197.3
-662.16 -91.33 2201.8
-646.64 -89.97 2168.9
-626.75 -87.96 2120.6
-604.55 -85.60 2063.6
-593.21 -84.74 2042.9
-607.66 -87.59 2111.6
-622.05 -90.48 2181.2
-581.22 -85.32 2056.8
-556.30 -83.97 2024.3
-573.72 -87.42 2107.6
-595.68 -91.64 2209.3
-592.40 -92.02 2218.4
-580.13 -91.00 2193.8
-577.59 -91.50 2205.8
-570.48 -91.28 2200.4
-562.64 -90.93 2192.1
-573.30 -93.60 2256.4
-595.82 -98.28 2369.3
-625.59 -105.36 2540.0
-615.59 -104.78 2526.0
-601.81 -104.66 2523.1
-614.89 -108.11 2606.3
-608.02 -108.09 2605.8
-600.04 -107.87 2600.5
-581.63 -105.75 2549.4
-577.57 -108.72 2620.9
-585.33 -111.49 2687.7
-1245.48 -115.07 2610.9
-1231.82 -115.70 2625.0
-1199.62 -113.30 2570.6
-1171.00 -111.21 2523.3
-1148.02 -109.64 2487.7
-1163.11 -111.71 2534.6
-1171.78 -113.18 2568.0
-1127.04 -109.48 2484.1
-1107.72 -108.23 2455.5
-1126.55 -110.70 2511.7
-1109.72 -109.68 2488.6
-1075.58 -106.93 2426.1
-1061.45 -106.14 2408.3
-1079.07 -108.55 2462.8
-1086.47 -109.94 2494.4
-1062.76 -108.19 2454.6
-1055.42 -108.08 2452.3
-1058.69 -109.08 2474.9
-1031.36 -106.91 2425.7
-1002.69 -104.58 2372.7
-999.01 -104.83 2378.6
-998.76 -105.46 2392.8
-999.21 -106.17 2408.8
-998.83 -106.79 2423.0
-999.51 -107.54 2440.0
-967.66 -105.45 2392.6
-910.54 -99.87 2265.9
-898.06 -99.14 2249.3
-923.97 -102.66 2329.3
-930.83 -104.11 2362.1
-918.97 -103.46 2347.4
-902.46 -102.28 2320.6
-881.02 -100.52 2280.7
-872.64 -100.24 2274.3
-881.02 -101.89 2311.7
-884.62 -103.00 2337.1
-875.09 -102.60 2327.8
-850.58 -100.42 2278.3
-832.88 -99.01 2246.5
-831.90 -99.59 2259.7
-839.42 -101.21 2296.3
-843.02 -102.37 2322.6
-838.37 -102.53 2326.4
-814.85 -100.38 2277.5
-779.18 -96.69 2193.7
-775.12 -96.89 2198.3
-783.24 -98.63 2237.8
-777.74 -98.67 2238.7
-777.11 -99.33 2253.7
-761.86 -98.12 2226.2
-749.29 -97.24 2206.2
-754.05 -98.61 2237.3
-754.54 -99.44 2256.1
-751.79 -99.85 2265.4
-747.43 -100.05 2270.0
-745.21 -100.54 2281.3
-726.85 -99.65 2260.9
-699.37 -96.66 2193.2
-682.76 -95.14 2158.6
-686.63 -96.47 2188.8
-677.90 -96.04 2179.0
-656.25 -93.75 2127.1
-653.54 -94.15 2136.3
-665.58 -96.71 2194.2
-658.35 -96.48 2189.1
-640.58 -94.69 2148.5
-643.39 -95.94 2176.9
-645.22 -97.07 2202.4
-627.69 -95.27 2161.7
-635.23 -97.29 2207.4
-637.06 -98.45 2233.9
-581.71 -90.72 2058.5
-574.20 -91.23 2069.9
-580.86 -93.16 2113.7
-592.56 -95.94 2176.7
-608.37 -99.44 2256.3
-596.98 -98.53 2235.6
-581.09 -96.85 2197.4
-576.52 -97.04 2201.7
-588.47 -100.04 2269.8
-588.29 -104.18 2363.7
-608.80 -108.94 2471.8
-620.73 -112.26 2547.1
-614.95 -112.41 2550.5
-605.69 -111.92 2539.4
-600.37 -112.16 2544.7
-595.48 -112.48 2552.0
-589.42 -112.59 2554.5
-580.01 -112.05 2542.3
-567.62 -113.52 2575.8
-575.28 -116.43 2641.6
-1251.30 -121.75 2608.9
-1191.38 -118.48 2538.9
-1162.89 -116.94 2505.8
-1185.17 -119.85 2568.2
-1142.58 -116.19 2489.9
-1097.84 -112.28 2406.0
-1096.38 -112.77 2416.5
-1115.83 -115.43 2473.5
-1141.97 -118.82 2546.1
-1133.21 -118.59 2541.3
-1096.12 -115.38 2472.5
-1078.27 -114.17 2446.5
-1076.15 -114.62 2456.1
-1066.01 -114.22 2447.5
-1053.53 -113.55 2433.3
-1054.92 -114.39 2451.2
-1041.29 -113.60 2434.2
-998.81 -109.63 2349.1
-978.48 -108.05 2315.4
-983.05 -109.23 2340.6
-975.96 -109.11 2338.1
-971.17 -109.26 2341.2
-978.17 -110.74 2372.9
-985.77 -112.30 2406.5
-966.11 -110.76 2373.5
-913.25 -105.37 2258.0
-897.97 -104.96 2249.1
-921.30 -108.39 2322.6
-926.71 -109.74 2351.6
-913.41 -108.88 2333.2
-895.85 -107.50 2303.6
-882.73 -106.64 2285.1
-881.86 -107.25 2298.3
-875.59 -107.22 2297.5
-865.78 -106.74 2287.3
-865.16 -107.40 2301.4
-850.49 -106.31 2278.1
-836.96 -105.35 2257.5
-841.47 -106.67 2285.7
-842.42 -107.54 2304.5
-838.85 -107.85 2311.1
-829.48 -107.41 2301.7
-802.65 -104.69 2243.4
-775.09 -101.84 2182.2
-778.03 -102.97 2206.6
-788.11 -105.08 2251.8
-785.20 -105.47 2260.2
-792.01 -107.19 2296.9
-784.42 -106.97 2292.1
-752.43 -103.39 2215.4
-737.38 -102.10 2187.8
-739.88 -103.24 2212.3
-738.81 -103.89 2226.3
-737.97 -104.59 2241.3
-739.24 -105.61 2263.0
-729.31 -105.02 2250.4
-709.65 -103.01 2207.4
-703.55 -102.96 2206.3
-707.99 -104.46 2238.4
-697.33 -103.73 2222.9
-673.08 -100.96 2163.5
-647.93 -98.01 2100.1
-640.91 -97.77 2095.0
-651.88 -100.29 2149.1
-644.19 -99.96 2142.0
-633.38 -99.14 2124.4
-643.04 -101.53 2175.7
-644.02 -102.59 2198.3
-624.28 -100.33 2150.0
-611.95 -99.24 2126.5
-593.70 -97.15 2081.8
-580.01 -95.78 2052.5
-599.05 -99.84 2139.5
-589.90 -99.24 2126.5
-569.42 -96.69 2072.0
-577.54 -99.01 2121.6
-591.40 -102.36 2193.4
-588.92 -102.92 2205.4
-581.79 -102.67 2200.1
-592.40 -105.58 2262.3
-619.75 -111.55 2390.5
-617.33 -116.97 2506.4
-618.53 -118.44 2538.0
-613.95 -118.83 2546.3
-605.85 -118.54 2540.1
-609.71 -120.60 2584.3
-614.25 -122.85 2632.5
-606.65 -122.69 2629.1
-595.95 -121.90 2612.1
-572.80 -118.51 2539.5
-572.93 -121.33 2599.9
-582.87 -124.90 2676.4
-1252.90 -128.68 2612.2
-1236.30 -129.06 2620.1
-1146.99 -121.07 2457.8
-1192.63 -126.59 2569.9
-1185.89 -126.58 2569.7
-1119.97 -120.22 2440.6
-1116.39 -120.52 2446.6
-1151.58 -125.03 2538.2
-1137.90 -124.25 2522.4
-1131.23 -124.24 2522.1
-1081.78 -120.90 2454.5
-1053.19 -118.41 2403.7
-1059.52 -119.83 2432.6
-1063.34 -120.98 2456.0
-1050.46 -120.23 2440.8
-1025.08 -118.04 2396.3
-1004.57 -116.38 2362.7
-1004.82 -117.13 2377.7
-1002.29 -117.55 2386.4
-989.32 -116.75 2370.2
-969.92 -115.18 2338.2
-962.83 -115.06 2335.7
-951.21 -114.39 2322.1
-914.41 -110.66 2246.5
-900.29 -110.36 2240.4
-908.62 -112.10 2275.8
-925.62 -114.95 2333.5
-925.88 -115.73 2349.5
-907.12 -114.14 2317.2
-889.96 -112.73 2288.5
-877.59 -111.91 2271.8
-875.68 -112.42 2282.2
-869.09 -112.33 2280.4
-849.78 -110.59 2245.0
-839.05 -109.94 2232.0
-838.52 -110.64 2246.0
-839.65 -111.56 2264.8
-832.75 -111.42 2262.0
-823.47 -110.96 2252.6
-833.64 -113.14 2296.8
-836.50 -114.34 2321.2
-819.39 -112.81 2290.2
-803.08 -111.38 2261.0
-788.57 -110.17 2236.5
-780.77 -109.89 2230.8
-782.16 -110.90 2251.4
-792.25 -113.18 2297.6
-759.95 -111.07 2254.8
-741.70 -109.24 2217.7
-743.76 -110.40 2241.2
-746.01 -111.61 2265.7
-732.02 -110.38 2240.9
-707.06 -107.47 2181.8
-695.20 -106.52 2162.5
-696.19 -107.54 2183.2
-700.08 -109.03 2213.4
-690.07 -108.36 2199.8
-676.86 -107.17 2175.6
-662.29 -105.74 2146.7
-646.41 -105.88 2149.4
-663.27 -109.58 2224.6
-643.53 -107.26 2177.4
-613.06 -103.08 2092.6
-623.65 -105.80 2147.8
-643.37 -110.13 2235.7
-624.04 -107.79 2188.2
-610.64 -106.44 2160.9
-625.11 -109.97 2232.5
-608.25 -108.01 2192.6
-573.32 -102.77 2086.2
-570.12 -103.17 2094.3
-589.77 -107.75 2187.3
-594.27 -109.62 2225.4
-596.03 -111.02 2253.9
-614.85 -115.66 2348.1
-610.39 -117.14 2378.1
-602.69 -118.05 2396.6
-632.30 -125.14 2540.5
-622.48 -125.82 2554.2
-597.21 -123.34 2503.8
-615.37 -128.48 2608.3
-618.94 -130.67 2652.6
-609.94 -130.21 2643.4
-597.79 -130.55 2650.3
-583.85 -128.99 2618.6
-1235.27 -132.82 2561.6
-1219.97 -134.06 2585.5
-1185.62 -131.01 2526.6
-1204.32 -133.81 2580.7
-1202.60 -134.37 2591.4
-1153.53 -129.61 2499.6
-1138.59 -128.65 2481.2
-1141.88 -131.25 2531.3
-1112.30 -128.59 2479.9
-1102.87 -128.24 2473.2
-1106.82 -129.45 2496.6
-1080.86 -127.16 2452.4
-1053.47 -124.67 2404.4
-1061.00 -126.31 2436.0
-1041.00 -124.67 2404.4
-1007.70 -121.41 2341.5
-1018.68 -123.48 2381.3
-1032.99 -125.97 2429.5
-1008.98 -123.80 2387.6
-983.61 -121.43 2341.9
-999.22 -124.13 2393.9
-1006.17 -125.77 2425.6
-979.86 -123.25 2377.0
-951.48 -120.44 2322.8
-936.15 -119.25 2299.9
-938.89 -120.37 2321.4
-906.15 -116.92 2254.9
-898.63 -117.47 2265.5
-900.50 -118.49 2285.1
-890.27 -117.92 2274.1
-880.44 -117.39 2264.0
-877.85 -117.83 2272.5
-886.32 -119.77 2309.9
-880.02 -119.73 2309.1
-860.99 -117.94 2274.6
-848.10 -116.98 2256.0
-845.06 -117.37 2263.6
-832.61 -116.45 2245.8
-812.99 -114.51 2208.3
-799.71 -113.43 2187.7
-805.26 -115.04 2218.6
-828.95 -119.27 2300.3
-833.09 -120.74 2328.5
-814.36 -118.88 2292.8
-797.11 -117.22 2260.7
-786.28 -116.49 2246.5
-784.04 -117.02 2256.8
-780.76 -117.41 2264.3
-780.04 -118.19 2279.3
-769.43 -118.37 2282.9
-749.85 -116.26 2242.1
-750.28 -117.23 2260.9
-742.80 -116.98 2256.0
-718.91 -114.11 2200.7
-693.73 -111.00 2140.7
-681.67 -109.95 2120.4
-685.48 -111.46 2149.6
-692.47 -113.52 2189.3
-691.78 -114.34 2205.2
-688.05 -114.68 2211.6
-676.93 -113.77 2194.1
-656.83 -111.33 2147.0
-644.77 -110.22 2125.6
-658.13 -113.47 2188.4
-681.74 -118.56 2286.6
-671.48 -117.80 2271.9
-639.10 -113.11 2181.5
-646.42 -115.43 2226.2
-660.42 -118.99 2294.9
-633.28 -115.14 2220.6
-609.75 -111.88 2157.7
-612.11 -113.35 2186.1
-618.06 -115.52 2228.0
-604.75 -114.10 2200.6
-586.06 -112.70 2173.6
-613.26 -119.08 2296.5
-634.25 -124.36 2398.4
-616.29 -122.04 2353.6
-599.14 -121.04 2334.3
-605.01 -123.47 2381.2
-601.64 -124.05 2392.4
-620.89 -129.35 2494.6
-629.26 -133.88 2582.1
-606.63 -131.88 2543.3
-610.71 -134.22 2588.6
-599.12 -133.14 2567.7
-602.68 -135.43 2612.0
-1252.48 -141.41 2597.3
-1250.90 -141.99 2608.0
-1201.50 -138.63 2546.4
-1186.33 -137.64 2528.1
-1186.44 -138.42 2542.4
-1167.98 -137.03 2516.8
-1142.94 -134.84 2476.7
-1149.71 -136.41 2505.4
-1143.09 -136.39 2505.2
-1100.57 -132.07 2425.7
-1092.47 -131.85 2421.7
-1095.41 -132.97 2442.3
-1075.49 -131.31 2411.8
-1068.24 -131.19 2409.6
-1074.29 -132.71 2437.5
-1077.80 -133.93 2459.9
-1056.89 -132.11 2426.5
-1012.30 -127.30 2338.1
-979.16 -123.87 2275.2
-987.13 -125.64 2307.6
-1006.30 -128.86 2366.7
-986.71 -127.12 2334.9
-978.08 -126.79 2328.8
-1008.33 -131.52 2415.7
-1010.64 -132.65 2436.4
-981.64 -129.65 2381.3
-949.86 -126.25 2318.8
-932.27 -124.70 2290.4
-943.27 -126.98 2332.3
-919.07 -124.52 2287.1
-891.89 -122.42 2248.5
-896.73 -123.89 2275.5
-888.71 -123.59 2270.1
-876.35 -122.69 2253.5
-870.55 -122.70 2253.6
-880.49 -124.93 2294.7
-875.65 -125.09 2297.6
-866.90 -124.69 2290.2
-864.51 -125.20 2299.7
-859.98 -125.41 2303.5
-846.05 -124.24 2282.0
-817.38 -120.88 2220.2
-794.81 -118.38 2174.3
-793.24 -118.99 2185.5
-808.88 -122.20 2244.6
-819.53 -124.71 2290.6
-808.58 -123.94 2276.5
-791.37 -122.20 2244.4
-778.60 -121.12 2224.6
-770.50 -120.75 2217.9
-762.11 -120.33 2210.2
-745.66 -118.63 2178.9
-735.78 -117.95 2166.4
-733.93 -118.56 2177.6
-730.75 -118.96 2185.0
-730.68 -119.88 2201.8
-721.78 -119.35 2192.1
-716.34 -119.39 2192.9
-710.89 -119.43 2193.6
-696.26 -117.91 2165.8
-696.93 -118.99 2185.5
-702.62 -120.94 2221.4
-700.07 -121.50 2231.6
-697.46 -122.06 2241.8
-687.74 -121.37 2229.2
-673.69 -119.89 2202.1
-669.62 -120.19 2207.5
-676.17 -122.41 2248.3
-675.36 -124.41 2285.0
-634.81 -117.97 2166.8
-637.70 -119.57 2196.2
-645.15 -122.05 2241.8
-630.74 -120.41 2211.7
-621.62 -119.76 2199.7
-620.38 -120.63 2215.6
-621.18 -121.91 2239.2
-607.85 -120.42 2211.8
-585.20 -117.04 2149.7
-580.72 -118.40 2174.7
-625.75 -128.83 2366.3
-627.09 -130.39 2394.8
-598.29 -128.21 2354.8
-604.17 -132.16 2427.5
-621.40 -137.36 2523.0
-634.61 -141.78 2604.0
-633.38 -143.02 2626.9
-620.22 -141.57 2600.3
-605.12 -139.64 2564.9
-591.10 -137.92 2533.3
-592.50 -139.80 2567.8
-604.39 -144.23 2649.1
-596.54 -143.99 2644.7
-583.48 -142.48 2617.0
-586.90 -145.00 2663.2
-1228.29 -146.07 2560.9
-1210.84 -144.77 2538.3
-1214.03 -145.95 2558.9
-1203.07 -145.43 2549.7
-1177.71 -143.15 2509.7
-1166.88 -142.62 2500.4
-1154.81 -141.93 2488.4
-1138.62 -140.73 2467.3
-1111.67 -138.17 2422.5
-1072.48 -134.06 2350.4
-1060.82 -133.36 2338.1
-1080.84 -136.66 2395.9
-1092.83 -138.97 2436.5
-1081.46 -138.33 2425.2
-1065.68 -137.11 2403.8
-1062.48 -137.50 2410.7
-1068.05 -139.04 2437.7
-1051.97 -137.76 2415.2
-1018.13 -134.13 2351.5
-994.83 -131.84 2311.6
-976.80 -130.24 2283.4
-969.83 -130.10 2281.0
-979.20 -132.16 2317.1
-997.29 -135.44 2374.5
-1018.21 -139.13 2439.4
-983.81 -136.12 2386.6
-952.01 -132.56 2324.1
-928.77 -130.15 2281.8
-936.04 -132.01 2314.4
-932.37 -132.34 2320.2
-914.59 -130.66 2290.7
-919.03 -132.15 2316.9
-919.32 -133.06 2332.9
-904.98 -131.85 2311.7
-886.38 -130.00 2279.3
-862.53 -127.35 2232.8
-853.90 -126.93 2225.4
-867.71 -129.86 2276.8
-877.40 -132.21 2318.0
-865.46 -131.31 2302.2
-851.14 -130.03 2279.8
-840.39 -129.29 2266.8
-814.51 -126.19 2212.5
-785.98 -123.51 2165.5
-797.26 -126.19 2212.3
-803.62 -128.11 2246.1
-799.11 -128.32 2249.9
-788.28 -127.52 2235.7
-777.84 -126.76 2222.4
-771.72 -126.70 2221.4
-765.27 -126.59 2219.4
-750.09 -125.02 2191.8
-742.11 -124.63 2185.1
-742.76 -125.70 2203.8
-728.44 -124.23 2178.1
-716.12 -123.08 2158.0
-712.63 -123.45 2164.4
-712.53 -124.41 2181.2
-715.10 -125.86 2206.6
-709.31 -125.85 2206.4
-698.66 -124.96 2190.9
-691.69 -124.73 2186.8
-691.90 -125.80 2205.6
-692.92 -127.04 2227.2
-692.36 -128.00 2244.1
-688.79 -128.42 2251.5
-677.36 -127.37 2233.1
-677.23 -128.44 2251.9
-681.49 -131.52 2305.8
-632.48 -123.14 2158.9
-624.53 -122.68 2150.8
-640.64 -126.97 2226.2
-637.50 -127.50 2235.4
-640.01 -129.18 2264.8
-651.79 -132.77 2327.8
-637.91 -131.16 2299.6
-607.24 -126.03 2209.6
-590.36 -123.70 2168.7
-609.33 -131.42 2304.2
-629.53 -137.13 2404.2
-608.91 -133.96 2348.7
-604.94 -134.43 2356.9
-609.77 -136.89 2400.0
-617.07 -139.95 2453.7
-633.02 -145.07 2543.4
-635.40 -147.15 2579.8
-633.82 -148.34 2600.8
-632.83 -149.70 2624.6
-622.22 -148.79 2608.7
-598.62 -144.72 2537.3
-582.54 -144.00 2524.7
-601.86 -150.47 2638.0
-1246.75 -153.34 2571.6
-1232.67 -152.43 2556.2
-1222.53 -151.99 2548.9
-1199.09 -149.89 2513.6
-1196.76 -150.41 2522.4
-1208.46 -152.72 2561.1
-1205.98 -153.25 2570.0
-1195.44 -152.75 2561.7
-1182.41 -151.93 2547.9
-1158.56 -149.70 2510.5
-1124.44 -146.11 2450.4
-1094.31 -143.01 2398.3
-1090.40 -143.31 2403.3
-1094.66 -144.70 2426.6
-1091.88 -145.16 2434.4
-1076.85 -144.00 2414.9
-1057.86 -142.28 2386.1
-1046.23 -141.55 2373.8
-1043.47 -142.01 2381.6
-1030.71 -141.11 2366.4
-1000.94 -137.85 2311.8
-1002.20 -138.86 2328.7
-1009.27 -140.69 2359.3
-1007.22 -141.26 2368.9
-1019.89 -143.91 2413.4
-1004.13 -142.56 2390.8
-992.69 -141.81 2378.2
-993.94 -142.88 2396.1
-971.12 -140.48 2355.8
-962.86 -140.16 2350.6
-962.53 -141.01 2364.7
-946.40 -139.53 2340.0
-921.82 -136.79 2293.9
-909.66 -135.86 2278.4
-919.28 -138.19 2317.5
-912.98 -138.15 2316.8
-893.58 -136.11 2282.5
-880.47 -135.01 2264.1
-861.69 -133.01 2230.7
-848.78 -131.91 2212.1
-858.00 -134.24 2251.3
-873.04 -137.53 2306.5
-866.04 -137.37 2303.8
-842.64 -134.59 2257.1
-823.27 -132.41 2220.6
-811.30 -131.41 2203.7
-800.43 -130.57 2189.6
-792.69 -130.23 2183.9
-801.22 -132.58 2223.3
-793.08 -132.18 2216.7
-773.28 -129.82 2177.1
-788.51 -133.35 2236.3
-804.12 -137.00 2297.5
-784.39 -134.63 2257.8
-764.84 -132.27 2218.1
-751.93 -131.02 2197.2
-745.86 -130.95 2196.1
-755.42 -133.65 2241.3
-751.14 -133.92 2245.9
-740.86 -133.12 2232.5
-739.70 -133.96 2246.6
-727.62 -132.82 2227.4
-717.78 -132.07 2214.9
-715.93 -132.79 2227.0
-709.18 -132.61 2223.9
-697.61 -131.52 2205.6
-693.30 -131.79 2210.1
-686.89 -131.65 2207.9
-681.08 -131.64 2207.6
-676.43 -131.85 2211.1
-663.07 -130.35 2185.9
-667.65 -132.38 2220.0
-686.78 -138.56 2323.7
-645.58 -131.40 2203.6
-636.69 -130.75 2192.7
-653.81 -135.47 2271.9
-645.35 -134.94 2262.9
-642.63 -135.60 2274.1
-653.85 -139.25 2335.2
-641.03 -137.79 2310.8
-622.49 -135.07 2265.1
-619.39 -135.68 2275.3
-625.32 -138.29 2319.2
-632.59 -141.26 2368.9
-637.06 -143.65 2409.1
-628.94 -143.22 2401.9
-615.09 -141.47 2372.5
-620.24 -144.10 2416.5
-636.22 -150.86 2529.9
-636.80 -155.81 2613.0
-620.81 -153.53 2574.8
-623.99 -156.00 2616.1
-613.67 -155.10 2601.1
-600.47 -153.45 2573.4
-1248.77 -160.27 2575.8
-1245.09 -160.66 2582.0
-1213.30 -157.40 2529.7
-1169.70 -152.57 2452.0
-1168.36 -153.23 2462.6
-1181.46 -155.80 2503.9
-1175.29 -155.84 2504.6
-1161.51 -154.87 2489.0
-1149.06 -154.06 2476.0
-1125.78 -151.79 2439.5
-1109.72 -150.47 2418.3
-1095.83 -149.43 2401.6
-1088.60 -149.29 2399.4
-1089.18 -150.23 2414.4
-1067.63 -148.11 2380.3
-1038.08 -144.85 2327.9
-1040.72 -146.07 2347.5
-1049.32 -148.14 2380.8
-1033.72 -146.80 2359.3
-1009.44 -144.21 2317.6
-999.22 -143.60 2307.9
-1020.22 -147.50 2370.6
-1036.62 -150.78 2423.3
-993.17 -147.14 2364.7
-964.87 -143.83 2311.6
-948.66 -142.30 2287.0
-942.45 -142.26 2286.3
-949.11 -144.17 2317.0
-948.10 -144.93 2329.3
-932.05 -143.39 2304.5
-910.90 -141.04 2266.8
-902.50 -140.65 2260.4
-908.85 -142.56 2291.2
-899.31 -142.00 2282.1
-887.63 -141.08 2267.4
-883.25 -141.32 2271.2
-858.34 -138.26 2222.0
-838.30 -135.94 2184.7
-846.86 -138.26 2222.1
-861.96 -141.69 2277.2
-857.14 -141.87 2280.1
-836.94 -139.49 2241.8
-831.83 -139.61 2243.7
-833.60 -140.89 2264.3
-827.06 -140.78 2262.5
-824.26 -141.30 2270.9
-814.31 -140.60 2259.6
-787.59 -136.97 2201.3
-775.84 -135.91 2184.3
-799.35 -141.06 2267.1
-801.37 -142.47 2289.6
-768.23 -137.59 2211.3
-762.13 -137.53 2210.3
-762.49 -138.64 2228.1
-739.34 -135.45 2176.9
-732.67 -135.26 2173.9
-742.80 -138.20 2221.0
-747.68 -140.19 2253.0
-737.41 -139.35 2239.6
-715.74 -136.33 2191.0
-717.98 -137.85 2215.5
-728.05 -140.91 2264.7
-719.99 -140.49 2257.8
-707.45 -139.17 2236.7
-701.27 -139.10 2235.5
-693.32 -138.66 2228.5
-681.28 -137.40 2208.2
-670.20 -136.31 2190.7
-665.58 -136.53 2194.2
-679.05 -140.49 2257.9
-692.50 -144.52 2322.7
-671.40 -141.35 2271.6
-645.21 -137.03 2202.3
-654.69 -140.29 2254.7
-660.34 -142.78 2294.6
-637.86 -139.17 2236.7
-631.95 -139.15 2236.3
-640.30 -142.29 2286.8
-632.39 -141.85 2279.7
-623.46 -141.16 2268.7
-628.21 -143.59 2307.7
-643.16 -148.42 2385.4
-646.66 -150.68 2421.6
-646.41 -152.10 2444.4
-620.64 -150.46 2418.1
-650.92 -162.73 2615.3
-635.05 -162.14 2605.8
-614.86 -158.67 2550.1
-613.24 -159.98 2571.0
-628.24 -165.69 2662.9
-594.96 -164.13 2637.8
-588.23 -164.16 2638.2
-1225.23 -165.57 2554.5
-1173.84 -159.49 2460.7
-1165.21 -159.18 2455.9
-1164.69 -159.98 2468.3
-1143.75 -157.98 2437.4
-1106.05 -153.62 2370.1
-1078.36 -151.45 2336.7
-1088.76 -153.78 2372.6
-1070.82 -152.10 2346.8
-1060.00 -151.43 2336.3
-1063.99 -152.87 2358.6
-1048.28 -151.49 2337.2
-1039.16 -151.04 2330.3
-1060.81 -155.09 2392.8
-1062.06 -156.18 2409.7
-1040.39 -153.90 2374.5
-1020.46 -151.85 2342.9
-1015.35 -152.00 2345.1
-1022.06 -153.92 2374.8
-1023.92 -155.14 2393.6
-1014.36 -154.63 2385.7
-989.69 -151.79 2341.9
-972.16 -150.02 2314.7
-962.05 -149.39 2304.8
-948.53 -148.21 2286.6
-944.61 -148.52 2291.5
-944.81 -149.50 2306.5
-937.43 -149.27 2303.0
-924.81 -148.21 2286.6
-906.68 -146.24 2256.2
-899.04 -145.95 2251.8
-905.77 -148.00 2283.5
-896.62 -147.47 2275.3
-884.96 -146.52 2260.5
-893.25 -148.88 2296.9
-880.88 -147.80 2280.3
-857.84 -144.91 2235.7
-863.09 -146.78 2264.7
-848.41 -145.28 2241.4
-819.71 -142.31 2195.7
-840.04 -146.86 2265.8
-850.38 -149.72 2309.9
-835.72 -149.23 2302.5
-810.80 -145.83 2249.9
-801.26 -145.16 2239.6
-807.13 -147.29 2272.4
-803.88 -147.77 2279.9
-778.50 -144.17 2224.3
-763.86 -142.51 2198.7
-776.01 -145.87 2250.5
-772.40 -146.29 2257.0
-745.00 -142.18 2193.6
-732.25 -140.82 2172.6
-736.68 -142.77 2202.7
-742.54 -145.03 2237.6
-733.56 -144.40 2227.9
-706.64 -140.21 2163.2
-704.03 -140.81 2172.4
-727.33 -146.64 2262.4
-733.23 -149.03 2299.3
-707.94 -145.07 2238.2
-687.42 -142.03 2191.3
-678.39 -141.33 2180.5
-664.11 -139.52 2152.6
-671.56 -142.28 2195.2
-687.21 -146.84 2265.5
-680.38 -146.63 2262.4
-670.72 -145.81 2249.6
-681.76 -149.51 2306.7
-674.08 -150.46 2321.4
-645.88 -145.47 2244.4
-632.02 -143.64 2216.2
-638.64 -146.48 2259.9
-644.78 -149.25 2302.8
-635.77 -148.54 2291.8
-628.92 -148.33 2288.5
-637.81 -151.86 2343.0
-654.76 -157.39 2428.4
-636.87 -156.10 2408.3
-620.66 -153.63 2370.3
-628.68 -157.17 2424.9
-613.10 -154.82 2388.7
-637.80 -166.09 2562.6
-624.62 -164.37 2536.0
-624.56 -166.11 2562.8
-621.08 -166.96 2575.9
-605.04 -164.41 2536.7
-606.60 -166.65 2571.2
-615.25 -170.90 2636.8
-610.11 -171.38 2644.1
-1242.97 -170.99 2536.7
-1232.40 -170.44 2528.5
-1223.18 -170.07 2523.0
-1223.94 -171.09 2538.1
-1213.40 -170.53 2529.9
-1183.13 -167.18 2480.2
-1153.07 -163.82 2430.4
-1131.73 -161.68 2398.5
-1127.90 -162.02 2403.6
-1107.16 -159.92 2372.5
-1089.50 -158.25 2347.7
-1108.74 -161.95 2402.6
-1123.99 -165.11 2449.4
-1112.10 -164.29 2437.2
-1081.70 -160.71 2384.2
-1066.30 -159.33 2363.7
-1059.57 -159.24 2362.4
-1058.93 -160.07 2374.7
-1057.42 -160.78 2385.2
-1036.54 -158.53 2351.8
-1030.63 -158.56 2352.2
-1025.10 -158.65 2353.5
-1003.70 -156.26 2318.2
-993.89 -155.67 2309.4
-993.54 -156.56 2322.6
-982.58 -155.78 2311.0
-967.79 -154.37 2290.1
-959.65 -154.02 2284.9
-958.06 -154.72 2295.3
-951.07 -154.55 2292.8
-949.03 -155.19 2302.2
-951.11 -156.51 2321.9
-942.18 -156.03 2314.7
-926.92 -154.49 2291.8
-919.57 -154.25 2288.3
-922.22 -155.70 2309.8
-922.93 -156.84 2326.7
-907.47 -155.22 2302.8
-875.00 -150.66 2235.1
-864.54 -149.85 2223.1
-861.68 -150.36 2230.6
-847.70 -148.92 2209.3
-860.12 -152.13 2256.9
-850.41 -151.44 2246.7
-820.02 -147.04 2181.3
-829.71 -149.81 2222.4
-846.85 -153.97 2284.2
-853.70 -156.31 2318.9
-841.72 -156.32 2319.0
-807.64 -151.07 2241.1
-788.70 -148.60 2204.4
-790.64 -150.05 2226.0
-783.52 -149.79 2222.2
-777.06 -149.66 2220.2
-780.77 -151.49 2247.4
-781.09 -152.69 2265.3
-765.82 -150.84 2237.8
-745.53 -147.97 2195.1
-741.06 -148.21 2198.7
-745.74 -150.31 2229.8
-752.79 -152.91 2268.5
-754.67 -154.50 2292.0
-738.76 -152.44 2261.5
-712.53 -148.21 2198.7
-712.56 -149.41 2216.5
-733.72 -155.10 2300.9
-721.98 -153.86 2282.6
-698.67 -150.13 2227.2
-686.59 -148.76 2206.9
-666.65 -145.65 2160.8
-668.83 -147.37 2186.2
-681.02 -151.34 2245.1
-670.51 -150.29 2229.5
-671.47 -151.81 2252.1
-694.10 -158.30 2348.5
-684.54 -158.91 2357.5
-669.79 -156.89 2327.5
-671.60 -158.74 2355.0
-655.09 -156.26 2318.2
-634.45 -152.74 2265.9
-623.13 -151.41 2246.3
-613.22 -150.41 2231.4
-629.85 -155.96 2313.7
-655.69 -163.92 2431.8
-644.17 -164.20 2435.9
-627.13 -161.44 2395.0
-634.84 -165.06 2448.7
-631.12 -165.75 2458.9
-624.39 -165.65 2457.5
-633.73 -169.87 2520.0
-630.95 -170.88 2535.1
-623.32 -174.26 2585.2
-626.24 -176.98 2625.6
-603.99 -172.57 2560.1
-589.98 -170.44 2528.5
-591.61 -172.83 2564.0
-1253.77 -179.11 2558.7
-1241.85 -178.35 2547.9
-1233.45 -178.09 2544.2
-1221.16 -177.27 2532.4
-1199.85 -175.11 2501.6
-1187.26 -174.22 2488.8
-1173.01 -173.07 2472.4
-1129.01 -167.49 2392.7
-1104.00 -164.68 2352.6
-1117.98 -167.70 2395.7
-1133.87 -171.03 2443.3
-1120.70 -169.99 2428.5
-1104.68 -168.51 2407.3
-1118.15 -171.53 2450.5
-1087.08 -168.68 2409.8
-1069.62 -166.94 2384.8
-1053.89 -165.44 2363.4
-1038.26 -163.94 2341.9
-1017.07 -161.53 2307.6
-1009.25 -161.24 2303.4
-1006.22 -161.71 2310.2
-987.29 -159.62 2280.3
-987.83 -160.67 2295.3
-996.53 -163.07 2329.6
-985.56 -162.26 2318.0
-971.53 -160.93 2299.0
-960.27 -160.05 2286.4
-955.23 -160.19 2288.5
-961.25 -162.21 2317.3
-971.33 -164.94 2356.3
-960.04 -164.06 2343.7
-938.65 -161.42 2306.1
-924.53 -160.02 2285.9
-918.31 -159.96 2285.2
-918.75 -161.08 2301.1
-917.27 -161.87 2312.5
-896.72 -159.29 2275.5
-859.59 -153.70 2195.7
-852.11 -153.38 2191.1
-851.84 -154.36 2205.2
-846.84 -155.54 2222.0
-860.87 -159.20 2274.3
-852.54 -158.75 2267.9
-843.54 -158.16 2259.5
-841.86 -158.95 2270.8
-837.71 -159.28 2275.5
-831.48 -159.22 2274.6
-830.35 -160.14 2287.7
-810.89 -157.51 2250.2
-775.80 -151.79 2168.4
-771.78 -153.22 2188.9
-781.56 -156.31 2233.0
-777.70 -156.70 2238.6
-770.24 -156.36 2233.8
-752.13 -153.84 2197.8
-735.84 -152.83 2183.3
-753.54 -157.72 2253.1
-751.42 -158.50 2264.3
-744.25 -158.23 2260.4
-746.39 -159.94 2284.9
-737.03 -159.20 2274.3
-713.97 -155.46 2220.9
-710.87 -156.04 2229.2
-712.84 -157.76 2253.7
-703.33 -156.94 2242.0
-699.52 -157.39 2248.4
-688.90 -156.30 2232.9
-680.39 -155.68 2224.0
-679.46 -156.80 2240.0
-669.25 -155.77 2225.3
-671.36 -157.62 2251.8
-685.22 -162.29 2318.4
-688.66 -164.55 2350.7
-647.12 -160.29 2289.9
-635.96 -158.99 2271.3
-632.63 -159.64 2280.5
-612.19 -157.42 2248.9
-643.90 -167.17 2388.1
-657.16 -172.27 2460.9
-645.59 -170.89 2441.3
-635.37 -169.85 2426.4
-644.25 -173.95 2485.0
-642.67 -175.27 2503.9
-635.10 -174.98 2499.7
-643.36 -179.08 2558.3
-631.09 -177.49 2535.6
-606.62 -176.11 2515.9
-615.72 -180.70 2581.4
-597.24 -177.20 2531.5
-1266.42 -186.63 2570.9
-1228.12 -181.94 2506.4
-1210.18 -180.24 2482.9
-1216.29 -182.12 2508.8
-1218.38 -183.41 2526.6
-1203.55 -182.16 2509.3
-1196.96 -182.15 2509.2
-1194.65 -182.79 2518.0
-1163.33 -178.97 2465.5
-1131.81 -175.09 2411.9
-1137.22 -176.90 2436.9
-1132.02 -177.08 2439.3
-1100.04 -173.04 2383.7
-1087.86 -172.09 2370.6
-1105.14 -175.82 2422.0
-1091.68 -174.67 2406.2
-1059.01 -170.42 2347.6
-1054.76 -170.71 2351.6
-1050.89 -171.07 2356.6
-1036.88 -169.78 2338.8
-1016.11 -167.36 2305.5
-998.28 -165.40 2278.4
-985.34 -164.22 2262.3
-985.56 -165.24 2276.3
-1005.03 -169.52 2335.3
-1012.47 -171.81 2366.8
-1000.24 -170.77 2352.5
-980.31 -168.40 2319.7
-963.22 -166.48 2293.4
-961.23 -167.17 2302.8
-969.89 -169.73 2338.1
-971.93 -171.16 2357.8
-953.46 -168.97 2327.6
-926.09 -165.16 2275.2
-905.31 -162.49 2238.4
-903.29 -163.17 2247.8
-908.62 -165.20 2275.8
-908.30 -166.22 2289.8
-889.99 -163.95 2258.4
-856.18 -158.76 2187.0
-851.98 -159.04 2190.8
-859.97 -161.61 2226.2
-850.30 -160.87 2216.0
-855.23 -162.90 2244.0
-863.56 -165.61 2281.4
-854.51 -165.01 2273.1
-844.11 -164.13 2261.0
-837.22 -163.93 2258.2
-826.89 -163.05 2246.1
-817.98 -162.44 2237.6
-815.24 -163.05 2246.1
-803.32 -161.82 2229.2
-774.67 -157.18 2165.2
-766.35 -157.78 2173.5
-772.53 -160.23 2207.2
-765.46 -159.95 2203.3
-749.62 -157.81 2174.0
-755.79 -162.79 2242.5
-753.10 -163.46 2251.8
-730.55 -159.81 2201.4
-734.45 -161.93 2230.6
-748.12 -166.25 2290.2
-742.44 -166.31 2291.0
-723.32 -163.33 2250.0
-711.36 -161.93 2230.7
-703.99 -161.57 2225.7
-695.45 -160.93 2216.9
-692.29 -161.53 2225.2
-692.61 -162.97 2244.9
-694.58 -164.82 2270.4
-695.85 -166.53 2294.0
-687.52 -165.95 2286.1
-677.52 -164.96 2272.4
-679.73 -166.95 2299.8
-679.29 -168.32 2318.7
-675.14 -168.78 2325.1
-651.08 -167.25 2303.9
-630.20 -163.39 2250.7
-640.25 -167.54 2308.0
-629.67 -166.33 2291.2
-614.70 -163.92 2258.1
-629.76 -169.55 2335.7
-649.33 -176.52 2431.6
-642.42 -176.35 2429.3
-603.67 -167.36 2305.4
-622.72 -176.12 2426.2
-652.18 -186.34 2566.9
-653.95 -188.77 2600.4
-636.04 -185.51 2555.5
-620.73 -182.95 2520.2
-624.48 -186.02 2562.5
-620.77 -186.90 2574.6
-610.75 -185.88 2560.6
-603.78 -185.78 2559.2
-600.21 -186.73 2572.3
-589.61 -185.50 2555.3
-1230.42 -186.82 2484.8
-1223.02 -186.67 2482.8
-1216.95 -186.73 2483.6
-1213.93 -187.26 2490.6
-1232.20 -191.09 2541.6
-1209.09 -188.51 2507.3
-1172.30 -183.77 2444.2
-1161.55 -183.07 2434.9
-1155.54 -183.12 2435.6
-1146.54 -182.69 2429.9
-1134.17 -181.72 2416.9
-1131.13 -182.24 2423.9
-1118.40 -181.19 2410.0
-1097.78 -178.85 2378.8
-1096.01 -179.57 2388.4
-1102.48 -181.66 2416.2
-1078.73 -178.76 2377.6
-1039.15 -173.19 2303.5
-1026.83 -172.13 2289.4
-1038.13 -175.03 2328.0
-1038.34 -176.09 2342.1
-1018.76 -173.79 2311.5
-1001.32 -171.82 2285.4
-1007.49 -173.91 2313.1
-1026.22 -178.21 2370.2
-1009.21 -176.31 2345.0
-981.31 -172.47 2294.0
-984.47 -174.08 2315.4
-978.98 -174.17 2316.6
-951.86 -170.39 2266.3
-939.55 -169.24 2250.9
-934.95 -169.46 2253.9
-924.25 -168.57 2242.1
-924.94 -169.77 2258.0
-914.28 -168.88 2246.2
-904.04 -168.06 2235.3
-910.95 -170.44 2266.9
-897.00 -168.92 2246.7
-877.62 -166.35 2212.5
-896.79 -171.10 2275.7
-900.04 -172.86 2299.1
-871.36 -168.46 2240.6
-855.88 -166.58 2215.6
-859.09 -168.34 2238.9
-877.47 -173.11 2302.4
-881.07 -175.01 2327.7
-867.01 -173.40 2306.3
-855.48 -172.28 2291.5
-845.75 -171.51 2281.2
-832.95 -170.11 2262.6
-821.96 -169.05 2248.5
-807.27 -167.22 2224.1
-783.23 -163.41 2173.4
-775.21 -162.91 2166.7
-779.24 -164.95 2193.9
-772.85 -164.80 2191.9
-765.48 -164.44 2187.1
-757.47 -163.93 2180.4
-740.67 -163.97 2180.8
-766.18 -170.92 2273.3
-756.13 -169.98 2260.9
-731.06 -165.63 2203.0
-733.08 -167.40 2226.4
-746.14 -171.73 2284.1
-740.47 -171.79 2284.9
-738.15 -172.63 2296.1
-744.57 -175.55 2334.9
-729.74 -173.46 2307.1
-712.65 -170.80 2271.7
-700.76 -169.35 2252.4
-691.02 -168.40 2239.8
-684.54 -168.23 2237.6
-677.20 -167.85 2232.5
-671.89 -167.97 2234.1
-664.86 -167.66 2230.0
-661.24 -168.21 2237.3
-654.21 -167.90 2233.1
-651.38 -168.66 2243.3
-669.18 -174.83 2325.3
-658.01 -175.07 2328.5
-638.16 -171.36 2279.1
-646.54 -175.23 2330.6
-632.99 -173.18 2303.3
-615.90 -170.11 2262.5
-619.78 -172.82 2298.6
-627.60 -176.70 2350.2
-642.56 -182.69 2429.8
-627.32 -180.12 2395.7
-598.22 -173.48 2307.4
-618.14 -181.07 2408.4
-648.63 -191.94 2552.9
-653.59 -195.40 2599.0
-641.22 -193.70 2576.3
-632.78 -193.16 2569.2
-639.24 -197.21 2623.0
-637.26 -198.72 2643.0
-627.52 -202.20 2689.4
-1225.61 -191.50 2462.2
-1212.96 -190.52 2449.5
-1236.05 -195.17 2509.3
-1234.32 -195.92 2519.0
-1235.15 -197.10 2534.1
-1235.92 -198.28 2549.3
-1198.06 -193.24 2484.5
-1161.76 -188.39 2422.2
-1151.49 -187.74 2413.8
-1139.11 -186.74 2400.9
-1122.95 -185.10 2379.9
-1108.56 -183.74 2362.4
-1103.95 -183.99 2365.6
-1105.20 -185.23 2381.5
-1098.44 -185.13 2380.2
-1094.58 -185.52 2385.3
-1098.16 -187.19 2406.7
-1092.57 -187.30 2408.1
-1068.51 -184.23 2368.6
-1031.96 -178.95 2300.8
-1021.30 -178.13 2290.3
-1038.97 -182.28 2343.5
-1036.70 -182.95 2352.2
-1019.97 -181.06 2327.9
-1026.84 -183.37 2357.6
-1019.32 -183.11 2354.3
-975.13 -176.23 2265.8
-953.68 -173.40 2229.4
-963.62 -176.27 2266.3
-969.89 -178.51 2295.1
-954.40 -176.74 2272.4
-923.64 -172.11 2212.8
-894.91 -172.10 2212.7
-898.52 -173.91 2236.0
-879.84 -171.40 2203.7
-893.35 -176.32 2267.0
-891.67 -179.53 2308.3
-882.88 -178.96 2300.9
-887.61 -181.15 2329.0
-877.74 -180.36 2318.9
-859.49 -177.82 2286.3
-843.82 -175.80 2260.2
-845.95 -177.47 2281.8
-844.18 -178.35 2293.0
-824.89 -175.51 2256.6
-802.71 -172.01 2211.5
-801.35 -172.95 2223.7
-816.74 -177.55 2282.8
-815.15 -178.50 2295.0
-803.89 -177.33 2279.9
-784.78 -174.40 2242.2
-765.85 -171.46 2204.5
-763.67 -172.26 2214.7
-762.72 -173.35 2228.7
-752.73 -172.38 2216.3
-753.94 -173.99 2237.0
-766.75 -178.31 2292.6
-763.91 -179.04 2302.0
-747.92 -176.67 2271.5
-743.53 -177.03 2276.1
-736.65 -176.80 2273.1
-732.22 -177.15 2277.6
-742.01 -180.98 2326.9
-731.11 -179.78 2311.5
-716.70 -177.69 2284.6
-706.85 -176.71 2272.0
-691.48 -174.32 2241.3
-678.29 -172.45 2217.2
-674.76 -173.02 2224.5
-675.50 -174.70 2246.1
-666.16 -173.78 2234.3
-659.71 -173.61 2232.1
-652.69 -173.28 2227.9
-650.42 -174.22 2240.0
-659.13 -178.14 2290.4
-661.56 -180.43 2319.8
-660.88 -181.89 2338.6
-666.28 -185.08 2379.6
-662.15 -185.65 2386.9
-639.22 -180.91 2326.0
-634.39 -181.25 2330.4
-649.00 -187.21 2407.0
-656.30 -191.16 2457.7
-662.42 -198.73 2555.1
-647.53 -196.22 2522.8
-643.35 -196.94 2532.1
-642.53 -198.72 2555.0
-625.21 -195.38 2512.0
-621.93 -196.40 2525.1
-631.33 -201.49 2590.6
-635.74 -205.08 2636.7
-621.51 -207.17 2663.6
-616.07 -207.67 2670.0
-1227.63 -198.21 2466.2
-1205.67 -195.69 2434.8
-1244.23 -203.01 2525.9
-1221.40 -201.40 2505.9
-1192.21 -197.64 2459.1
-1177.50 -196.25 2441.8
-1160.27 -194.42 2419.1
-1143.14 -192.59 2396.3
-1124.81 -190.54 2370.8
-1110.42 -189.14 2353.3
-1097.79 -188.02 2339.4
-1102.50 -189.88 2362.5
-1112.57 -192.68 2397.4
-1094.07 -190.54 2370.8
-1079.84 -189.12 2353.2
-1085.14 -191.13 2378.1
-1081.26 -191.54 2383.2
-1052.34 -187.49 2332.8
-1011.38 -181.23 2254.9
-1011.71 -183.41 2282.1
-1026.87 -187.25 2329.9
-1028.20 -188.60 2346.7
-1024.28 -189.00 2351.7
-1006.07 -186.75 2323.7
-969.05 -180.97 2251.7
-954.30 -179.29 2230.8
-968.52 -183.07 2277.9
-980.59 -186.49 2320.4
-966.59 -184.97 2301.4
-936.92 -180.40 2244.6
-916.29 -177.53 2208.9
-910.25 -177.47 2208.2
-894.00 -177.65 2210.4
-907.66 -181.53 2258.7
-895.95 -180.35 2244.0
-890.55 -180.44 2245.1
-895.38 -182.61 2272.1
-905.18 -185.83 2312.2
-907.20 -187.49 2332.8
-881.45 -183.39 2281.8
-875.94 -183.47 2282.8
-884.26 -186.48 2320.2
-871.23 -184.99 2301.7
-849.86 -181.69 2260.7
-824.83 -177.57 2209.4
-819.80 -177.72 2211.2
-834.38 -182.15 2266.4
-830.22 -182.53 2271.1
-807.33 -178.77 2224.3
-806.96 -179.97 2239.2
-831.37 -186.76 2323.7
-831.93 -189.63 2359.5
-818.24 -187.89 2337.8
-801.05 -185.32 2305.8
-799.28 -186.30 2318.0
-797.45 -187.28 2330.2
-786.26 -186.06 2315.1
-767.49 -183.02 2277.2
-760.60 -182.78 2274.2
-766.91 -185.74 2311.0
-759.94 -185.50 2308.0
-749.27 -184.34 2293.7
-735.90 -182.50 2270.8
-717.74 -179.44 2232.6
-711.58 -179.34 2231.4
-713.54 -181.31 2255.9
-712.98 -182.67 2272.8
-708.50 -183.03 2277.3
-696.94 -181.55 2259.0
-696.25 -182.91 2275.9
-706.76 -187.26 2330.0
-707.54 -189.08 2352.6
-698.52 -188.30 2342.8
-692.08 -188.20 2341.6
-685.65 -188.10 2340.4
-665.04 -184.07 2290.3
-652.66 -182.27 2267.9
-650.23 -183.25 2280.0
-644.48 -183.29 2280.6
-646.53 -185.58 2309.0
-639.37 -185.24 2304.8
-630.38 -184.36 2293.8
-638.46 -188.50 2345.4
-661.34 -197.13 2452.8
-657.64 -201.85 2511.5
-660.54 -204.77 2547.8
-660.79 -206.91 2574.5
-654.52 -207.04 2576.1
-647.24 -209.01 2600.5
-653.04 -213.10 2651.5
-654.11 -215.72 2684.0
-628.64 -216.53 2694.2
-1246.53 -207.76 2504.2
-1213.88 -203.37 2451.4
-1241.37 -209.07 2520.1
-1243.56 -210.55 2537.9
-1201.10 -204.44 2464.3
-1166.34 -199.59 2405.7
-1145.68 -197.11 2375.8
-1136.36 -196.56 2369.2
-1126.20 -195.86 2360.8
-1128.46 -197.33 2378.5
-1134.05 -199.39 2403.4
-1092.94 -193.23 2329.1
-1071.11 -190.42 2295.2
-1080.48 -193.16 2328.2
-1060.46 -190.64 2297.9
-1047.21 -189.33 2282.1
-1054.32 -191.69 2310.6
-1058.00 -193.46 2331.9
-1036.16 -190.56 2296.9
-1004.68 -185.84 2240.0
-1000.23 -186.09 2243.0
-1013.96 -189.75 2287.1
-1029.50 -193.79 2335.8
-1033.22 -195.64 2358.2
-1030.47 -196.28 2365.9
-1022.92 -196.01 2362.6
-997.65 -192.32 2318.1
-966.68 -187.48 2259.8
-964.84 -188.26 2269.2
-977.31 -191.86 2312.7
-964.10 -190.44 2295.5
-943.67 -187.56 2260.8
-933.32 -186.66 2250.0
-924.53 -186.07 2242.8
-908.59 -184.02 2218.1
-897.26 -182.88 2204.4
-911.04 -186.88 2252.6
-929.43 -191.88 2312.9
-921.67 -191.52 2308.4
-910.24 -190.38 2294.7
-911.31 -191.85 2312.5
-903.20 -191.41 2307.1
-886.43 -189.11 2279.4
-873.75 -187.65 2261.9
-882.56 -190.82 2300.1
-881.97 -191.99 2314.2
-858.01 -188.06 2266.8
-846.55 -186.82 2251.9
-831.31 -184.73 2226.7
-820.34 -183.57 2212.7
-830.78 -187.22 2256.7
-842.74 -191.26 2305.4
-834.39 -190.72 2298.8
-825.40 -190.02 2290.4
-842.63 -195.39 2355.2
-832.87 -194.54 2344.9
-809.56 -190.48 2296.0
-815.78 -193.37 2330.8
-817.91 -195.32 2354.3
-796.86 -191.72 2311.0
-775.35 -187.96 2265.6
-781.62 -190.93 2301.4
-780.09 -192.02 2314.5
-758.88 -188.25 2269.1
-750.75 -187.69 2262.3
-758.55 -191.13 2303.8
-763.37 -193.87 2336.8
-745.90 -190.95 2301.6
-724.01 -186.84 2252.1
-707.20 -183.99 2217.7
-698.67 -183.26 2208.9
-703.30 -186.00 2241.9
-703.92 -187.71 2262.6
-702.68 -188.96 2277.6
-712.73 -193.28 2329.8
-716.46 -195.96 2362.0
-709.70 -195.78 2359.8
-692.97 -192.83 2324.2
-677.54 -190.19 2292.4
-675.14 -191.19 2304.5
-660.18 -188.62 2273.6
-651.71 -187.88 2264.6
-652.29 -189.76 2287.2
-638.94 -187.58 2261.0
-632.96 -187.54 2260.6
-639.24 -191.18 2304.3
-645.05 -194.73 2347.2
-633.10 -192.94 2325.7
-632.40 -194.59 2345.5
-639.33 -198.63 2394.2
-619.26 -194.28 2341.7
-608.78 -192.88 2324.9
-619.39 -198.20 2389.1
-631.17 -204.01 2459.1
-650.54 -214.61 2586.8
-660.84 -220.28 2655.1
-658.64 -221.86 2674.2
-652.56 -222.15 2677.7
-650.67 -223.89 2698.7
-635.36 -223.42 2693.1
-623.76 -221.78 2673.2
-1236.31 -214.73 2509.8
-1188.50 -207.52 2425.5
-1180.79 -207.27 2422.6
-1176.14 -207.55 2426.0
-1163.23 -206.38 2412.2
-1159.87 -206.90 2418.3
-1144.03 -205.18 2398.2
-1142.37 -206.00 2407.8
-1146.19 -207.83 2429.1
-1103.33 -201.16 2351.2
-1068.81 -195.95 2290.3
-1065.60 -196.45 2296.2
-1046.06 -193.93 2266.8
-1032.47 -192.49 2249.9
-1049.99 -196.87 2301.1
-1062.34 -200.33 2341.5
-1059.75 -200.99 2349.2
-1047.33 -199.78 2335.1
-1030.51 -197.71 2310.9
-1032.36 -199.23 2328.6
-1032.13 -200.35 2341.8
-1019.83 -199.14 2327.6
-1026.30 -201.59 2356.3
-1028.28 -203.19 2375.0
-1006.14 -200.02 2337.8
-977.48 -195.50 2285.0
-968.95 -194.97 2278.9
-973.25 -197.04 2303.0
-961.22 -195.80 2288.6
-942.73 -193.23 2258.5
-934.29 -192.70 2252.3
-927.78 -192.56 2250.7
-922.40 -192.65 2251.8
-920.39 -193.46 2261.2
-923.95 -195.45 2284.5
-933.72 -198.79 2323.5
-932.58 -199.84 2335.8
-928.45 -200.25 2340.6
-918.08 -199.32 2329.7
-897.94 -196.24 2293.7
-886.63 -195.06 2279.9
-879.33 -194.75 2276.3
-884.89 -197.31 2306.2
-881.09 -197.80 2311.9
-848.67 -191.82 2242.1
-830.95 -189.11 2210.4
-837.42 -191.91 2243.1
-847.56 -195.59 2286.1
-845.78 -196.55 2297.4
-846.68 -198.16 2316.1
-842.73 -198.64 2321.8
-837.07 -198.73 2322.8
-842.47 -201.46 2354.7
-819.70 -197.45 2307.8
-786.20 -190.77 2229.8
-783.68 -191.57 2239.1
-799.76 -196.96 2302.1
-793.13 -196.79 2300.2
-771.33 -192.83 2253.9
-776.98 -195.73 2287.7
-784.71 -199.20 2328.3
-772.01 -197.49 2308.3
-750.29 -193.43 2260.9
-744.69 -193.50 2261.7
-754.24 -197.54 2308.9
-741.14 -195.66 2287.0
-737.29 -196.22 2293.4
-740.68 -198.72 2322.7
-719.57 -194.64 2275.0
-710.02 -193.64 2263.4
-708.22 -194.76 2276.4
-705.18 -195.56 2285.7
-706.76 -197.65 2310.2
-700.70 -197.63 2310.0
-691.18 -196.63 2298.3
-671.47 -192.68 2252.1
-661.86 -191.59 2239.4
-664.36 -194.02 2267.7
-655.88 -193.25 2258.8
-652.95 -194.12 2268.9
-656.26 -196.88 2301.2
-647.21 -195.94 2290.3
-642.24 -196.24 2293.7
-648.97 -200.15 2339.4
-652.31 -203.08 2373.6
-638.99 -200.83 2347.3
-626.05 -198.65 2321.9
-619.66 -198.53 2320.5
-613.02 -198.33 2318.1
-616.73 -201.51 2355.3
-617.51 -203.78 2381.8
-619.15 -206.38 2412.3
-621.62 -209.32 2446.6
-651.72 -228.80 2674.2
-639.80 -227.02 2653.5
-642.07 -230.31 2691.9
-626.54 -227.21 2655.6
-621.14 -227.75 2662.0
-1261.67 -224.59 2547.9
-1214.06 -217.25 2464.6
-1178.20 -211.95 2404.5
-1181.45 -213.67 2424.0
-1188.97 -216.18 2452.4
-1186.40 -216.87 2460.3
-1163.97 -213.92 2426.8
-1130.94 -208.98 2370.8
-1118.23 -207.76 2356.9
-1111.95 -207.73 2356.6
-1110.75 -208.65 2367.0
-1115.40 -210.69 2390.1
-1097.71 -208.50 2365.4
-1063.41 -203.12 2304.3
-1039.35 -199.65 2264.9
-1047.73 -202.40 2296.2
-1059.26 -205.80 2334.7
-1054.23 -206.00 2337.0
-1045.10 -205.40 2330.1
-1031.53 -203.91 2313.2
-1026.11 -204.02 2314.5
-1017.87 -203.57 2309.4
-1002.04 -201.59 2287.0
-1004.61 -203.31 2306.5
-1001.55 -203.91 2313.3
-974.42 -199.58 2264.2
-967.11 -199.28 2260.8
-979.69 -203.11 2304.1
-985.48 -205.56 2332.0
-972.62 -204.13 2315.8
-947.15 -200.02 2269.1
-932.97 -198.26 2249.1
-944.31 -201.93 2290.8
-956.60 -205.85 2335.3
-942.01 -204.00 2314.3
-932.74 -203.29 2306.2
-930.56 -204.12 2315.7
-917.99 -202.67 2299.2
-906.59 -201.46 2285.5
-889.03 -198.86 2256.0
-877.06 -197.48 2240.4
-875.98 -198.56 2252.5
-864.07 -197.17 2236.8
-865.80 -198.90 2256.4
-880.92 -203.75 2311.4
-865.44 -201.54 2286.4
-838.15 -196.53 2229.6
-840.05 -198.34 2250.1
-843.92 -200.65 2276.3
-837.69 -200.57 2275.4
-837.62 -201.98 2291.4
-831.35 -201.90 2290.4
-807.50 -197.52 2240.8
-796.98 -196.36 2227.6
-796.19 -197.59 2241.6
-783.06 -195.77 2220.9
-780.56 -196.59 2230.2
-798.29 -202.55 2297.9
-801.09 -204.79 2323.2
-787.95 -202.96 2302.5
-781.32 -202.78 2300.5
-776.91 -203.19 2305.1
-770.59 -203.10 2304.1
-754.22 -200.34 2272.8
-752.33 -201.41 2284.9
-764.92 -206.41 2341.6
-750.21 -204.06 2314.9
-745.07 -204.29 2317.6
-750.82 -207.54 2354.5
-731.74 -203.93 2313.5
-715.84 -201.15 2281.9
-708.08 -200.62 2276.0
-696.23 -198.92 2256.7
-688.25 -198.31 2249.7
-696.21 -202.32 2295.2
-700.51 -205.32 2329.3
-682.15 -201.68 2288.0
-674.44 -201.15 2281.9
-675.71 -203.31 2306.5
-665.19 -201.93 2290.8
-643.17 -197.01 2235.0
-632.44 -197.28 2238.0
-642.38 -202.23 2294.2
-630.19 -200.25 2271.7
-636.50 -206.10 2338.2
-648.06 -213.92 2426.9
-632.76 -210.92 2392.8
-637.55 -214.62 2434.8
-639.33 -219.57 2490.9
-634.81 -224.83 2550.6
-651.69 -233.24 2646.0
-637.33 -233.00 2643.3
-1251.26 -229.29 2526.9
-1217.36 -224.25 2471.3
-1194.64 -221.23 2438.0
-1191.71 -221.86 2445.0
-1194.40 -223.55 2463.6
-1190.95 -224.10 2469.7
-1168.06 -220.98 2435.3
-1139.31 -216.72 2388.3
-1130.84 -216.28 2383.5
-1115.99 -214.61 2365.1
-1106.31 -213.93 2357.6
-1105.08 -214.88 2368.0
-1080.72 -211.31 2328.8
-1054.02 -207.25 2284.0
-1037.49 -205.15 2260.9
-1046.29 -208.07 2293.0
-1058.23 -211.65 2332.4
-1047.06 -210.62 2321.1
-1031.85 -208.76 2300.6
-1015.10 -206.56 2276.4
-1007.74 -206.26 2273.1
-1014.45 -208.86 2301.7
-1011.44 -209.47 2308.5
-995.27 -207.35 2285.1
-972.85 -203.89 2247.0
-957.30 -201.84 2224.4
-962.61 -204.19 2250.3
-967.80 -206.54 2276.2
-966.28 -207.48 2286.6
-958.92 -207.17 2283.1
-940.06 -204.36 2252.1
-932.78 -204.05 2248.7
-952.10 -209.58 2309.7
-956.79 -211.95 2335.7
-933.18 -208.03 2292.6
-939.28 -210.74 2322.4
-952.30 -215.04 2369.8
-921.87 -209.52 2309.0
-891.71 -203.99 2248.0
-889.59 -204.84 2257.4
-894.32 -207.29 2284.4
-886.64 -206.88 2279.9
-866.77 -203.60 2243.8
-863.48 -204.20 2250.4
-873.64 -208.01 2292.4
-874.79 -209.71 2311.1
-862.88 -208.28 2295.3
-858.35 -208.63 2299.1
-857.95 -209.99 2314.2
-846.82 -208.72 2300.2
-841.55 -208.90 2302.1
-834.24 -208.56 2298.4
-807.68 -203.37 2241.2
-787.42 -199.71 2200.9
-781.24 -201.06 2215.7
-796.53 -206.51 2275.8
-807.61 -210.94 2324.7
-801.57 -210.94 2324.7
-786.82 -208.63 2299.2
-779.87 -208.36 2296.2
-767.84 -206.73 2278.2
-753.36 -204.40 2252.6
-759.08 -207.56 2287.4
-778.03 -214.42 2363.0
-774.66 -215.18 2371.4
-744.52 -208.47 2297.4
-734.25 -207.25 2283.9
-735.83 -209.38 2307.5
-720.78 -206.78 2278.8
-709.13 -205.12 2260.5
-702.60 -204.93 2258.4
-692.56 -203.69 2244.8
-685.19 -203.24 2239.7
-692.89 -207.27 2284.2
-695.77 -209.93 2313.5
-677.74 -206.27 2273.2
-669.49 -205.55 2265.2
-670.25 -207.60 2287.8
-665.33 -207.92 2291.3
-650.48 -205.10 2260.3
-637.95 -202.98 2237.0
-645.85 -207.38 2285.5
-648.95 -210.31 2317.7
-631.92 -206.70 2278.0
-620.09 -204.75 2256.4
-644.74 -214.91 2368.4
-633.79 -215.37 2373.4
-617.85 -212.01 2336.4
-621.26 -215.29 2372.6
-632.75 -221.46 2440.6
-634.34 -228.89 2522.4
-635.40 -231.66 2552.9
-1249.18 -234.22 2509.5
-1241.74 -234.04 2507.6
-1230.34 -233.12 2497.7
-1214.15 -231.27 2477.8
-1218.12 -233.26 2499.2
-1221.12 -235.08 2518.7
-1217.55 -235.66 2524.9
-1179.04 -229.44 2458.2
-1135.23 -222.11 2379.8
-1118.66 -220.06 2357.8
-1095.37 -216.67 2321.4
-1074.77 -213.77 2290.3
-1062.30 -212.46 2276.4
-1047.37 -210.64 2256.9
-1051.46 -215.07 2304.3
-1056.38 -217.31 2328.3
-1039.07 -214.98 2303.3
-1019.00 -212.05 2271.9
-997.04 -208.68 2235.9
-997.44 -209.99 2249.9
-1011.84 -214.27 2295.8
-1011.64 -215.50 2308.9
-999.05 -214.08 2293.7
-986.12 -212.58 2277.6
-979.16 -212.35 2275.2
-978.09 -213.40 2286.4
-978.13 -214.71 2300.5
-967.25 -213.63 2288.8
-951.79 -211.51 2266.2
-951.00 -212.65 2278.3
-962.75 -216.62 2320.9
-958.74 -217.07 2325.8
-938.47 -213.83 2291.0
-943.51 -216.35 2318.0
-935.24 -220.06 2357.8
-926.66 -219.47 2351.5
-917.74 -218.80 2344.3
-892.24 -214.14 2294.3
-895.31 -216.32 2317.7
-914.70 -222.49 2383.9
-917.10 -224.60 2406.4
-909.88 -224.35 2403.8
-888.64 -220.63 2363.9
-875.24 -218.81 2344.4
-887.21 -223.35 2393.1
-887.59 -225.02 2411.0
-861.90 -220.06 2357.8
-833.04 -214.21 2295.1
-822.71 -213.08 2282.9
-817.12 -213.16 2283.9
-824.53 -216.66 2321.4
-844.02 -223.42 2393.7
-833.55 -222.28 2381.6
-818.56 -219.91 2356.2
-816.02 -220.88 2366.5
-804.39 -219.38 2350.5
-796.04 -218.76 2343.9
-781.36 -216.38 2318.3
-763.00 -212.93 2281.4
-765.82 -215.39 2307.7
-769.15 -218.03 2336.0
-749.13 -214.04 2293.3
-743.14 -214.02 2293.1
-758.17 -220.11 2358.4
-749.59 -219.39 2350.6
-723.92 -213.62 2288.8
-716.14 -213.07 2282.8
-713.99 -214.20 2295.0
-710.91 -215.06 2304.3
-710.39 -216.73 2322.1
-699.68 -215.28 2306.6
-684.44 -212.41 2275.8
-660.86 -210.54 2255.8
-674.35 -216.76 2322.4
-663.55 -215.21 2305.8
-655.57 -214.55 2298.7
-649.50 -214.52 2298.4
-637.53 -212.51 2276.9
-638.97 -214.98 2303.4
-645.29 -219.16 2348.1
-645.38 -221.27 2370.8
-634.72 -219.71 2354.1
-624.14 -218.15 2337.3
-623.82 -220.17 2359.0
-617.59 -220.13 2358.6
-617.11 -222.16 2380.3
-631.62 -229.68 2460.9
-637.16 -234.06 2507.8
-638.57 -237.00 2539.2
-655.93 -248.56 2663.2
-642.34 -246.00 2635.7
-634.03 -248.10 2658.2
-1230.73 -237.17 2472.5
-1220.71 -236.47 2465.2
-1225.69 -238.69 2488.2
-1221.36 -239.10 2492.6
-1208.27 -237.80 2479.0
-1197.41 -236.92 2469.8
-1196.97 -238.11 2482.2
-1159.42 -231.88 2417.3
-1126.86 -226.60 2362.2
-1119.72 -226.39 2360.1
-1075.59 -218.66 2279.5
-1045.07 -216.02 2251.9
-1040.25 -216.23 2254.1
-1053.28 -220.18 2295.3
-1062.41 -223.35 2328.3
-1053.28 -222.69 2321.5
-1033.94 -219.86 2292.0
-1012.27 -216.50 2256.9
-1009.01 -217.05 2262.7
-1027.52 -222.33 2317.7
-1021.68 -222.37 2318.1
-1002.24 -219.43 2287.4
-988.10 -217.62 2268.6
-976.02 -216.24 2254.3
-976.20 -217.59 2268.3
-982.59 -220.34 2297.0
-993.91 -224.24 2337.6
-994.19 -225.68 2352.6
-966.25 -220.69 2300.6
-953.49 -219.12 2284.3
-964.46 -223.03 2325.0
-958.92 -223.15 2326.2
-937.14 -219.46 2287.8
-939.18 -221.34 2307.4
-962.80 -228.36 2380.5
-945.09 -230.05 2398.3
-926.62 -227.05 2367.0
-906.85 -223.69 2331.9
-917.02 -227.72 2373.9
-924.14 -231.03 2408.5
-914.07 -230.07 2398.4
-912.50 -231.25 2410.7
-896.16 -228.68 2383.9
-863.21 -221.80 2312.2
-860.02 -222.52 2319.7
-891.53 -232.30 2421.7
-859.71 -227.21 2368.6
-846.50 -225.33 2349.0
