ply
format ascii 1.0
element vertex 2268
property float x
property float y
property float z
end_header
-43.62 643.47 2103.3
-27.06 638.57 2087.3
-5.06 596.49 1949.8
0.00 594.45 1943.1
5.02 592.10 1935.4
14.17 557.28 1821.6
20.25 597.34 1952.6
41.80 616.56 2015.4
46.78 613.31 2004.8
59.06 580.73 1898.3
64.46 585.07 1912.5
70.24 592.04 1935.2
74.21 583.80 1908.3
77.25 569.72 1862.3
97.87 607.81 1986.8
101.03 596.05 1948.4
117.56 603.12 1971.5
125.86 618.80 2022.7
136.34 643.53 2103.5
147.88 671.16 2193.9
164.05 691.37 2259.9
169.02 687.75 2248.1
176.38 693.75 2267.7
177.39 675.24 2207.2
175.57 647.41 2116.2
180.77 646.41 2113.0
196.29 681.26 2226.9
208.94 704.43 2302.6
222.15 708.49 2315.9
214.41 665.80 2176.4
226.35 684.87 2238.7
244.54 721.38 2358.0
263.53 723.16 2363.8
269.69 723.26 2364.2
275.30 721.90 2359.7
278.28 713.86 2333.4
-266.30 649.11 2139.9
-270.79 674.09 2222.3
-258.30 656.98 2165.9
-261.52 679.95 2241.6
-260.66 693.12 2285.0
-244.83 666.17 2196.2
-234.74 653.93 2155.8
-228.40 651.78 2148.7
-220.91 646.17 2130.2
-211.20 633.61 2088.8
-211.84 652.25 2150.3
-207.63 674.81 2224.7
-187.20 625.80 2063.1
-167.62 612.87 2020.4
-160.81 606.91 2000.8
-154.68 603.26 1988.8
-153.21 618.14 2037.8
-151.49 633.01 2086.9
-146.57 635.15 2093.9
-140.78 633.51 2088.5
-133.96 626.95 2066.9
-126.25 615.45 2029.0
-122.26 621.91 2050.3
-119.03 633.01 2086.9
-111.92 623.53 2055.6
-106.15 621.00 2047.3
-102.32 630.06 2077.1
-96.85 629.56 2075.5
-90.14 620.34 2045.1
-85.36 624.18 2057.7
-82.71 645.12 2126.8
-75.36 629.80 2076.3
-66.79 601.13 1981.8
-62.52 609.59 2009.6
-56.63 602.38 1985.9
-49.50 579.21 1909.5
-46.25 601.30 1982.3
-43.34 633.83 2089.6
-38.64 645.76 2128.9
-33.01 643.75 2122.3
-27.28 638.26 2104.2
-21.88 640.02 2110.0
-15.73 613.33 2022.0
-10.58 619.14 2041.1
-5.44 636.86 2099.5
0.00 604.93 1994.3
10.06 588.67 1940.7
16.26 634.23 2090.9
20.36 595.61 1963.6
29.72 579.61 1910.8
36.00 601.65 1983.4
41.29 603.94 1991.0
46.86 609.13 2008.1
52.08 609.39 2009.0
67.21 604.90 1994.2
74.56 623.13 2054.3
79.55 620.46 2045.5
84.37 616.92 2033.8
87.35 601.20 1982.0
95.92 623.47 2055.4
106.08 653.26 2153.6
105.61 617.81 2036.7
140.07 630.32 2078.0
148.78 644.70 2125.4
157.66 658.78 2171.8
166.99 673.72 2221.1
177.17 690.97 2277.9
181.05 683.32 2252.7
180.84 661.19 2179.8
188.49 668.29 2203.2
199.46 686.38 2262.8
207.36 693.18 2285.2
205.68 668.45 2203.7
226.03 678.10 2235.5
242.44 709.14 2337.8
272.50 708.51 2335.7
-269.68 651.74 2167.1
-253.46 668.21 2221.9
-238.42 643.19 2138.7
-229.10 632.76 2104.0
-230.08 650.97 2164.6
-229.07 664.31 2208.9
-215.11 639.82 2127.5
-212.75 649.43 2159.4
-202.80 653.46 2172.8
-185.69 615.44 2046.4
-164.65 596.87 1984.7
-162.38 607.61 2020.4
-160.36 620.07 2061.8
-154.18 616.74 2050.7
-148.34 614.55 2043.4
-143.80 617.81 2054.3
-138.30 617.05 2051.8
-133.81 620.88 2064.5
-128.36 620.40 2062.9
-121.83 614.45 2043.1
-116.17 612.52 2036.7
-111.06 613.47 2039.9
-107.12 621.31 2065.9
-103.05 629.15 2092.0
-97.15 626.06 2081.7
-89.90 613.47 2039.9
-84.66 613.82 2041.0
-82.17 635.46 2113.0
-75.28 623.72 2073.9
-65.29 582.61 1937.2
-59.38 574.01 1908.7
-56.92 600.25 1995.9
-53.04 615.26 2045.8
-46.67 601.48 2000.0
-40.79 591.43 1966.6
-36.87 611.04 2031.8
-31.98 618.26 2055.8
-26.08 605.04 2011.8
-20.65 598.72 1990.8
-15.08 583.18 1939.1
-10.32 598.45 1989.9
-5.39 625.82 2080.9
0.00 608.54 2023.5
5.19 601.63 2000.5
34.58 573.03 1905.4
39.46 572.14 1902.4
68.13 607.94 2021.5
74.62 618.25 2055.7
80.01 618.77 2057.5
84.90 615.54 2046.8
86.91 593.04 1971.9
93.62 603.33 2006.1
116.89 645.68 2147.0
120.53 635.53 2113.2
122.34 617.04 2051.7
128.78 622.41 2069.6
137.47 637.84 2120.9
143.84 641.77 2133.9
148.88 639.65 2126.9
154.23 638.97 2124.6
166.46 665.86 2214.1
182.48 682.84 2270.5
181.76 658.88 2190.9
187.65 659.61 2193.3
196.49 670.38 2229.1
205.17 679.99 2261.1
204.58 659.19 2191.9
232.07 690.27 2295.2
244.98 710.45 2362.3
252.16 713.43 2372.2
258.14 712.96 2370.7
263.58 711.06 2364.4
281.86 710.77 2363.4
287.79 710.28 2361.8
-273.43 655.08 2197.2
-261.11 667.28 2238.1
-256.57 670.59 2249.2
-250.91 671.05 2250.7
-234.45 641.95 2153.1
-230.25 645.81 2166.1
-228.15 655.92 2200.0
-212.95 627.93 2106.1
-202.09 611.58 2051.3
-199.29 619.40 2077.5
-194.83 622.38 2087.5
-185.74 610.28 2046.9
-178.53 603.86 2025.4
-174.79 609.11 2043.0
-170.40 612.36 2053.9
-167.71 622.17 2086.8
-161.44 618.87 2075.7
-151.28 599.88 2012.0
-147.33 605.12 2029.6
-144.57 615.77 2065.3
-137.95 610.17 2046.5
-132.54 609.69 2044.9
-128.09 613.78 2058.6
-122.49 612.44 2054.1
-115.87 605.68 2031.5
-109.89 601.76 2018.3
-104.32 599.84 2011.9
-98.41 595.63 1997.8
-96.10 613.97 2059.3
-92.29 624.31 2094.0
-84.61 608.10 2039.6
-79.51 609.59 2044.6
-74.88 615.07 2063.0
-67.08 593.42 1990.3
-60.67 581.47 1950.3
-57.78 604.07 2026.1
-52.28 601.25 2016.6
-44.51 568.73 1907.5
-40.34 579.90 1945.0
-37.87 622.20 2086.9
-32.72 627.08 2103.3
-26.51 609.68 2044.9
-21.27 611.41 2050.7
-15.81 605.99 2032.5
-10.24 588.86 1975.1
-5.06 582.01 1952.1
0.00 593.44 1990.4
5.38 619.15 2076.7
10.82 622.00 2086.2
14.93 572.28 1919.4
19.72 566.84 1901.2
26.38 606.82 2035.3
31.75 608.51 2041.0
36.50 599.63 2011.2
40.20 577.90 1938.3
49.55 569.83 1911.2
57.15 597.50 2004.0
61.27 587.18 1969.4
67.21 594.56 1994.2
71.71 589.08 1975.8
75.49 578.75 1941.2
84.33 606.10 2032.9
90.47 612.04 2052.8
92.75 592.56 1987.5
103.22 624.74 2095.4
128.71 643.53 2158.4
132.85 636.59 2135.2
139.18 640.21 2147.3
146.46 647.80 2172.8
152.54 649.69 2179.1
153.02 628.49 2108.0
160.04 634.65 2128.6
173.71 665.88 2233.4
178.39 661.77 2219.6
180.94 650.25 2180.9
189.74 661.22 2217.8
200.25 677.31 2271.7
217.91 696.09 2334.7
218.05 677.73 2273.1
214.59 649.41 2178.1
221.44 652.95 2190.0
239.32 688.05 2307.8
255.52 699.64 2346.6
258.35 690.94 2317.4
266.46 696.43 2335.9
-255.55 633.32 2142.8
-250.29 634.06 2145.3
-251.21 650.85 2202.1
-251.20 665.96 2253.3
-240.02 651.48 2204.2
-230.31 640.36 2166.6
-223.85 637.98 2158.6
-214.64 627.42 2122.8
-208.44 625.31 2115.7
-203.18 626.02 2118.1
-197.02 623.90 2110.9
-188.29 613.30 2075.1
-181.35 608.07 2057.4
-178.10 615.25 2081.7
-173.93 619.62 2096.4
-168.45 619.45 2095.9
-159.25 605.15 2047.5
-144.59 588.69 1991.8
-144.34 609.43 2062.0
-140.11 614.34 2078.6
-131.83 601.14 2033.9
-124.97 593.59 2008.4
-121.20 600.75 2032.6
-116.17 601.97 2036.7
-109.34 593.56 2008.3
-102.95 586.84 1985.5
-96.73 580.39 1963.7
-93.89 594.62 2011.9
-90.50 606.86 2053.3
-83.31 593.61 2008.5
-78.41 595.93 2016.3
-73.89 601.65 2035.7
-67.00 587.54 1987.9
-61.61 585.32 1980.4
-58.59 607.17 2054.4
-52.99 604.10 2043.9
-45.50 576.36 1950.1
-41.54 591.98 2002.9
-38.51 627.15 2121.9
-32.67 620.65 2100.0
-26.22 597.72 2022.4
-20.84 594.05 2009.9
-15.71 596.90 2019.6
-10.33 588.97 1992.8
-5.03 573.39 1940.0
0.00 573.11 1939.1
32.25 612.72 2073.1
37.08 603.91 2043.3
40.89 582.63 1971.3
49.14 560.18 1895.3
54.87 568.64 1924.0
64.03 561.48 1899.7
69.54 566.24 1915.9
78.60 597.35 2021.1
94.20 596.60 2018.6
101.31 607.86 2056.7
109.41 623.64 2110.1
113.09 613.93 2077.2
114.59 593.76 2009.0
121.26 601.03 2033.6
129.79 616.51 2085.9
133.38 608.21 2057.9
137.85 604.44 2045.1
148.02 624.99 2114.6
153.06 623.18 2108.5
156.70 616.01 2084.2
166.69 633.42 2143.1
174.44 641.50 2170.5
180.67 643.63 2177.7
195.76 676.27 2288.1
204.60 647.89 2192.1
213.35 657.35 2224.1
-280.15 646.07 2205.3
-257.77 633.22 2161.5
-240.50 617.64 2108.3
-237.65 624.52 2131.7
-236.75 636.98 2174.3
-236.55 651.97 2225.4
-227.38 642.34 2192.6
-216.53 627.38 2141.5
-211.31 628.37 2144.9
-206.99 632.16 2157.8
-198.59 623.34 2127.7
-187.65 605.83 2067.9
-183.92 611.28 2086.5
-183.46 628.22 2144.4
-174.68 616.85 2105.6
-165.10 601.83 2054.3
-160.85 605.87 2068.1
-154.94 603.74 2060.8
-144.00 581.13 1983.6
-136.98 595.35 2032.2
-132.29 597.97 2041.1
-124.64 586.83 2003.1
-120.15 590.28 2014.9
-118.00 606.09 2068.8
-114.11 614.03 2095.9
-108.59 613.55 2094.3
-103.03 612.78 2091.7
-94.71 594.59 2029.6
-86.12 572.46 1954.1
-82.38 581.79 1985.9
-80.78 608.54 2077.2
-75.96 613.09 2092.7
-68.82 598.25 2042.1
-60.85 573.00 1955.9
-55.10 566.02 1932.0
-52.31 591.07 2017.6
-47.62 597.85 2040.7
-41.23 582.42 1988.0
-35.99 581.04 1983.3
-31.99 602.43 2056.3
-27.13 613.13 2092.9
-21.10 596.00 2034.4
-15.52 584.49 1995.1
-10.65 601.65 2053.7
-5.43 613.46 2094.0
0.00 576.07 1966.4
27.63 624.38 2131.3
30.54 575.16 1963.3
42.09 594.51 2029.3
49.25 618.37 2110.7
49.60 560.43 1913.0
81.15 611.35 2086.8
88.45 587.91 2006.8
91.76 576.05 1966.3
102.99 612.50 2090.7
109.39 618.04 2109.6
111.71 601.11 2051.8
119.06 584.95 1996.7
131.55 619.39 2114.2
139.06 628.55 2145.5
141.24 613.86 2095.4
149.27 624.70 2132.4
157.34 634.98 2167.4
163.79 638.23 2178.5
171.64 646.52 2206.8
177.33 646.40 2206.4
182.46 644.32 2199.3
196.55 673.05 2297.4
201.09 649.24 2216.1
209.37 639.43 2182.6
223.87 648.65 2214.1
227.77 643.46 2196.4
253.30 698.12 2383.0
-276.83 632.77 2179.2
-261.36 636.36 2191.6
-243.95 607.17 2091.0
-241.21 613.99 2114.5
-237.60 618.86 2131.3
-235.67 628.45 2164.3
-233.47 637.77 2196.4
-223.17 624.88 2152.0
-206.34 592.56 2040.7
-198.78 601.73 2072.3
-197.12 613.25 2112.0
-186.82 597.83 2058.8
-183.71 605.18 2084.2
-181.70 616.70 2123.8
-171.39 599.86 2065.9
-165.68 598.59 2061.5
-164.98 615.94 2121.2
-159.08 614.39 2115.9
-147.99 591.96 2038.6
-138.84 575.92 1983.4
-135.92 585.48 2016.3
-132.39 593.09 2042.5
-125.74 586.77 2020.8
-123.43 601.06 2070.0
-107.92 604.36 2081.3
-102.30 603.04 2076.8
-94.11 585.56 2016.6
-87.11 573.92 1976.5
-80.72 602.74 2075.8
-73.40 587.19 2022.2
-67.45 581.10 2001.2
-60.53 564.98 1945.7
-50.28 563.11 1939.3
-47.99 597.15 2056.5
-44.09 617.26 2125.8
-37.05 592.75 2041.4
-31.49 587.76 2024.2
-27.80 622.63 2144.3
0.00 619.05 2131.9
5.12 573.60 1975.4
9.96 557.98 1921.6
15.37 573.86 1976.3
21.45 600.62 2068.5
34.82 557.06 1918.5
47.85 595.48 2050.8
50.28 563.11 1939.3
69.74 557.92 1921.4
78.41 585.46 2016.3
83.15 582.06 2004.5
86.82 571.97 1969.8
95.32 593.08 2042.5
104.43 615.58 2120.0
108.72 608.82 2096.7
113.77 606.79 2089.7
117.97 600.58 2068.3
121.95 593.82 2045.0
131.76 614.89 2117.6
142.88 640.12 2204.5
148.90 641.41 2208.9
157.02 651.32 2243.1
164.89 659.56 2271.4
167.87 648.32 2232.7
171.76 641.25 2208.4
176.61 638.07 2197.4
180.28 631.00 2173.1
192.92 654.77 2254.9
202.95 668.53 2302.3
202.88 649.22 2235.8
206.76 643.24 2215.3
212.73 643.93 2217.6
217.48 641.01 2207.6
225.76 648.35 2232.8
235.26 658.74 2268.6
244.13 666.90 2296.7
255.95 682.53 2350.6
-267.15 630.93 2192.4
-258.35 623.42 2166.3
-256.82 633.49 2201.3
-248.67 627.34 2179.9
-240.64 621.18 2158.5
-241.66 638.67 2219.3
-228.68 634.59 2205.1
-209.29 595.66 2069.9
-201.05 587.26 2040.7
-204.89 614.66 2135.9
-200.73 618.93 2150.7
-188.25 597.03 2074.6
-182.32 595.22 2068.3
-177.90 598.38 2079.3
-168.33 583.89 2029.0
-163.02 583.73 2028.4
-162.34 600.66 2087.2
-156.67 599.67 2083.8
-149.28 591.77 2056.3
-143.57 590.22 2050.9
-138.59 591.69 2056.1
-133.22 591.51 2055.4
-127.50 589.67 2049.0
-126.61 611.01 2123.2
-118.93 600.05 2085.1
-98.49 575.42 1999.5
-93.55 576.86 2004.6
-89.71 585.77 2035.5
-86.67 601.30 2089.5
-81.45 602.74 2094.5
-75.30 596.99 2074.5
-70.31 600.36 2086.2
-62.94 582.16 2023.0
-55.92 564.23 1960.7
-51.91 576.16 2002.1
-49.23 607.16 2109.8
-44.38 615.76 2139.7
-36.58 580.12 2015.9
-30.75 568.81 1976.6
-26.76 593.99 2064.1
-22.31 619.17 2151.6
0.00 601.78 2091.1
5.15 571.91 1987.3
10.12 561.67 1951.8
15.60 577.15 2005.5
21.23 589.03 2046.8
27.29 605.88 2105.4
38.73 614.13 2134.1
41.79 579.82 2014.8
47.97 591.68 2056.0
52.55 583.35 2027.1
56.22 567.28 1971.2
63.03 582.99 2025.8
70.41 601.19 2089.1
75.85 601.42 2089.9
81.90 606.06 2106.0
86.04 596.88 2074.1
88.95 580.80 2018.2
96.64 595.93 2070.8
104.88 612.71 2129.1
110.04 610.70 2122.1
115.42 610.07 2119.9
118.00 595.36 2068.8
120.37 580.92 2018.6
130.60 604.02 2098.9
142.05 630.70 2191.6
147.45 629.50 2187.5
154.71 636.02 2210.1
162.08 642.53 2232.7
164.88 631.11 2193.0
164.35 608.11 2113.1
194.29 653.50 2270.9
210.93 668.93 2324.5
214.05 659.97 2293.3
230.46 655.94 2279.3
236.02 654.95 2275.9
-279.00 639.38 2242.0
-259.30 606.88 2128.0
-259.33 620.13 2174.5
-259.33 633.93 2222.9
-252.44 631.10 2213.0
-233.77 598.01 2096.9
-226.41 592.98 2079.3
-232.67 624.23 2188.9
-225.76 620.84 2177.0
-216.49 610.62 2141.1
-216.65 627.15 2199.1
-209.90 624.01 2188.1
-196.49 600.39 2105.3
-186.29 585.49 2053.0
-182.28 589.72 2067.8
-179.66 598.86 2099.9
-171.62 589.96 2068.7
-162.75 577.50 2025.0
-158.95 582.80 2043.6
-154.76 587.01 2058.3
-148.89 584.92 2051.0
-144.20 587.49 2060.0
-140.11 592.78 2078.6
-136.24 599.45 2102.0
-132.12 605.56 2123.4
-124.57 595.79 2089.1
-98.75 571.72 2004.7
-93.16 569.32 1996.3
-91.26 590.48 2070.5
-65.94 604.45 2119.5
-59.05 590.51 2070.6
-55.18 607.00 2128.4
-50.63 618.83 2169.9
-44.01 605.15 2122.0
-36.54 574.19 2013.4
-30.96 567.64 1990.4
-26.70 587.40 2059.7
-22.02 605.52 2123.2
-16.01 586.88 2057.9
-10.29 565.77 1983.9
-5.28 580.86 2036.8
0.00 579.77 2032.9
5.11 561.94 1970.4
10.21 561.66 1969.5
15.68 574.81 2015.6
21.25 584.40 2049.2
26.65 586.30 2055.9
32.79 601.09 2107.7
39.26 616.97 2163.4
45.03 619.13 2171.0
48.93 597.99 2096.8
63.70 583.89 2047.4
70.98 600.57 2105.9
76.71 602.71 2113.4
83.15 609.78 2138.2
87.81 603.69 2116.8
91.51 592.12 2076.3
100.07 611.51 2144.3
105.85 612.81 2148.8
108.22 595.21 2087.1
115.24 603.62 2116.6
119.34 596.70 2092.3
122.34 585.11 2051.7
133.73 612.95 2149.3
142.09 625.18 2192.2
144.45 611.12 2142.9
153.00 623.33 2185.7
161.43 634.17 2223.7
163.77 621.20 2178.2
182.92 628.78 2204.8
221.16 675.78 2369.6
222.03 642.71 2253.7
229.46 647.20 2269.4
-277.88 631.02 2233.0
-255.87 593.39 2099.8
-253.23 600.05 2123.4
-250.70 607.24 2148.8
-220.11 585.16 2070.7
-221.34 603.16 2134.4
-219.93 614.68 2175.1
-212.93 610.76 2161.3
-200.57 590.87 2090.9
-197.52 598.04 2116.3
-196.51 611.99 2165.6
-187.39 600.74 2125.8
-180.35 595.71 2108.0
-172.78 588.51 2082.6
-164.09 576.97 2041.7
-160.10 581.69 2058.4
-155.73 585.32 2071.3
-152.06 591.94 2094.7
-149.47 603.43 2135.3
-143.51 601.63 2129.0
-137.82 600.91 2126.4
-125.58 595.12 2105.9
-117.34 581.35 2057.2
-111.97 581.16 2056.5
-106.00 577.70 2044.3
-98.68 566.09 2003.2
-87.17 558.88 1977.7
-86.99 592.63 2097.1
-83.13 604.11 2137.7
-75.26 585.95 2073.5
-68.27 572.41 2025.6
-65.72 596.92 2112.3
-50.10 606.82 2147.3
-45.04 613.65 2171.5
-38.92 606.07 2144.7
-32.42 588.96 2084.1
-27.44 598.23 2116.9
-22.46 612.11 2166.1
-16.23 589.56 2086.2
-10.38 565.63 2001.6
-5.28 575.70 2037.2
0.00 595.83 2108.4
5.51 600.99 2126.7
10.99 598.81 2119.0
16.79 609.95 2158.4
22.35 609.12 2155.5
27.40 597.41 2114.0
32.99 599.29 2120.7
38.75 603.35 2135.0
43.74 595.98 2109.0
46.60 564.41 1997.3
58.16 576.30 2039.3
63.50 576.80 2041.1
67.78 568.33 2011.1
74.28 578.34 2046.6
81.56 592.69 2097.3
87.43 595.62 2107.7
92.04 590.13 2088.3
99.01 599.57 2121.7
103.13 591.63 2093.6
106.80 582.05 2059.7
114.90 596.37 2110.3
120.57 597.37 2113.9
125.17 593.22 2099.2
133.23 605.08 2141.2
138.07 602.00 2130.3
142.67 598.10 2116.5
153.64 620.26 2194.9
163.42 636.16 2251.1
167.56 629.80 2228.7
171.82 624.27 2209.1
181.98 639.87 2264.3
187.98 640.29 2265.8
195.70 646.40 2287.4
218.31 643.13 2275.8
229.07 657.06 2325.1
252.43 687.86 2434.1
-280.74 618.77 2209.9
-260.70 599.05 2139.5
-257.51 604.58 2159.2
-262.03 628.87 2245.9
-249.61 612.69 2188.2
-227.28 598.69 2138.2
-224.37 605.81 2163.6
-220.27 609.98 2178.5
-210.71 598.86 2138.8
-200.06 583.96 2085.6
-198.46 595.37 2126.3
-195.34 602.75 2152.7
-184.38 585.69 2091.7
-179.16 586.35 2094.1
-173.45 585.39 2090.7
-164.13 571.79 2042.1
-159.38 573.78 2049.2
-154.68 576.04 2057.3
-150.90 582.06 2078.8
-147.83 591.30 2111.8
-141.34 587.10 2096.8
-137.67 594.72 2124.0
-127.78 600.02 2142.9
-120.05 589.33 2104.8
-113.09 581.60 2077.1
-105.52 569.83 2035.1
-100.73 572.59 2045.0
-95.76 574.54 2051.9
-88.88 564.64 2016.6
-86.05 580.86 2074.5
-79.97 575.80 2056.4
-66.00 594.00 2121.4
-62.26 611.29 2183.2
-53.81 581.14 2075.5
-46.50 557.99 1992.8
-40.92 552.36 1972.7
-37.17 573.42 2047.9
-32.56 586.11 2093.2
-27.56 595.30 2126.1
-22.61 610.41 2180.0
-16.80 604.76 2159.9
-11.03 595.87 2128.1
-5.39 581.86 2078.1
0.00 576.20 2057.9
5.46 589.41 2105.0
11.06 597.49 2133.9
16.41 590.74 2109.8
21.28 574.55 2052.0
26.60 574.54 2051.9
32.62 587.19 2097.1
38.21 589.59 2105.7
43.05 581.21 2075.7
48.88 586.57 2094.9
56.58 611.06 2182.4
62.18 610.48 2180.3
65.10 585.91 2092.5
67.54 561.07 2003.8
71.85 554.29 1979.6
80.01 576.07 2057.4
87.29 589.21 2104.3
89.56 568.95 2032.0
94.14 564.84 2017.3
100.97 573.94 2049.8
107.67 581.41 2076.5
117.07 602.07 2150.2
123.61 606.83 2167.3
128.76 604.59 2159.3
137.09 616.89 2203.2
141.53 611.41 2183.6
145.48 604.32 2158.3
154.01 616.05 2200.2
161.57 623.21 2225.8
167.24 622.83 2224.4
173.57 624.87 2231.7
176.55 615.07 2196.7
186.39 609.99 2178.5
208.49 662.26 2365.2
228.21 666.12 2379.0
-276.58 616.55 2222.5
-269.73 614.08 2213.6
-265.21 616.91 2223.8
-250.58 623.53 2247.7
-232.71 592.85 2137.1
-225.09 587.42 2117.5
-229.20 613.10 2210.1
-219.73 618.72 2230.4
-207.00 598.63 2158.0
-194.29 577.47 2081.7
-178.05 577.31 2081.1
-174.84 584.62 2107.4
-168.17 580.47 2092.5
-160.84 573.65 2067.9
-153.70 567.09 2044.2
-148.77 568.52 2049.4
-144.63 573.15 2066.1
-138.78 571.11 2058.8
-135.39 579.47 2088.9
-129.70 578.23 2084.4
-119.43 555.63 2002.9
-115.19 560.24 2019.6
-111.80 569.66 2053.5
-105.05 561.99 2025.9
-101.13 569.54 2053.1
-98.88 587.76 2118.8
-94.71 596.10 2148.8
-89.03 595.36 2146.2
-80.10 571.38 2059.7
-71.94 549.79 1981.9
-69.37 570.95 2058.1
-66.70 594.77 2144.0
-59.97 583.32 2102.8
-51.75 553.70 1996.0
-37.84 578.38 2084.9
-32.36 577.06 2080.2
-26.72 571.74 2061.0
-21.76 582.18 2098.6
-16.05 572.57 2064.0
-10.85 580.60 2092.9
-5.46 584.61 2107.4
0.00 572.05 2062.1
5.38 575.52 2074.6
10.70 572.31 2063.1
15.66 558.40 2012.9
20.81 556.78 2007.1
26.65 570.40 2056.2
32.37 577.33 2081.2
37.63 575.17 2073.4
44.18 590.91 2130.1
62.55 608.44 2193.3
66.49 592.90 2137.3
69.82 574.69 2071.6
73.19 559.41 2016.6
80.21 572.18 2062.6
89.23 596.70 2151.0
93.77 590.23 2127.7
94.38 561.06 2022.5
104.45 558.79 2014.3
114.21 581.94 2097.8
122.54 596.01 2148.5
129.82 603.93 2177.1
142.03 633.20 2282.5
150.31 618.59 2229.9
154.45 612.09 2206.5
160.70 614.12 2213.8
164.90 608.41 2193.2
169.65 605.10 2181.3
190.13 616.47 2222.3
211.17 664.55 2395.6
-282.96 624.87 2273.8
-274.70 619.53 2254.3
-269.04 619.97 2255.9
-265.73 625.93 2277.7
-260.11 626.63 2280.2
-244.66 617.48 2246.9
-223.91 578.89 2106.5
-217.01 575.08 2092.6
-222.41 604.49 2199.6
-214.01 596.99 2172.3
-201.25 576.54 2097.9
-185.14 577.19 2100.3
-180.30 579.16 2107.4
-172.08 570.03 2074.2
-167.28 571.99 2081.4
-161.91 572.10 2081.8
-155.32 567.71 2065.8
-150.83 570.98 2077.7
-147.48 579.01 2106.9
-142.05 579.11 2107.3
-136.17 577.35 2100.9
-127.93 565.00 2055.9
-113.67 547.70 1993.0
-111.88 564.71 2054.9
-106.66 565.31 2057.1
-101.06 563.79 2051.5
-97.32 573.12 2085.5
-92.65 577.69 2102.1
-86.37 572.19 2082.1
-82.81 585.22 2129.5
-79.54 602.22 2191.4
-73.21 596.97 2172.3
-66.84 590.40 2148.3
-60.31 581.17 2114.8
-52.01 551.27 2006.0
-43.49 576.24 2096.8
-38.60 584.48 2126.8
-31.08 549.00 1997.7
-26.17 554.85 2019.0
-21.73 575.80 2095.2
-16.33 577.13 2100.1
-11.24 595.96 2168.6
-5.76 610.80 2222.6
0.00 609.48 2217.8
5.66 600.47 2185.0
11.00 583.24 2122.3
15.87 560.70 2040.3
20.73 549.30 1998.8
27.32 579.22 2107.7
34.27 605.44 2203.1
38.41 581.57 2116.2
43.59 577.56 2101.6
50.16 590.78 2149.7
54.46 577.23 2100.4
59.35 571.90 2081.0
64.68 571.33 2079.0
70.97 578.70 2105.8
77.37 585.80 2131.6
82.51 583.10 2121.8
89.29 591.52 2152.4
96.30 600.46 2184.9
99.03 583.18 2122.1
102.86 573.85 2088.1
110.86 587.54 2138.0
118.33 597.26 2173.3
125.15 603.00 2194.2
125.83 579.90 2110.2
131.10 579.02 2107.0
164.93 624.38 2272.0
169.63 620.04 2256.2
174.63 617.02 2245.2
181.50 620.60 2258.3
190.90 632.37 2301.1
199.71 641.48 2334.2
212.07 661.15 2405.8
223.82 659.02 2398.0
233.48 668.90 2434.0
-235.58 603.33 2216.3
-213.67 560.88 2060.4
-205.73 568.47 2088.3
-200.18 568.08 2086.8
-193.29 563.76 2071.0
-193.02 579.06 2127.2
-191.02 589.91 2167.0
-182.07 579.30 2128.1
-172.68 566.59 2081.4
-167.24 566.44 2080.8
-162.02 567.07 2083.1
-155.49 562.99 2068.1
-151.97 569.90 2093.5
-149.60 581.79 2137.2
-143.31 578.74 2126.0
-136.51 573.33 2106.1
-131.31 574.46 2110.3
-123.84 565.37 2076.9
-114.96 548.66 2015.5
-108.80 544.01 1998.4
-105.38 553.27 2032.4
-101.50 560.94 2060.6
-97.57 569.14 2090.7
-92.62 572.09 2101.6
-86.70 569.00 2090.2
-83.58 585.07 2149.2
-79.94 599.56 2202.5
-73.16 590.94 2170.8
-66.22 579.44 2128.5
-59.19 565.04 2075.7
-53.42 560.87 2060.4
-49.50 577.45 2121.3
-45.22 593.50 2180.2
-38.76 581.45 2135.9
-31.52 551.53 2026.0
-26.69 560.48 2058.9
-22.50 590.70 2169.9
-17.20 602.01 2211.5
-11.57 607.27 2230.8
-5.78 606.49 2227.9
0.00 608.59 2235.6
5.75 603.60 2217.3
11.24 589.94 2167.1
16.25 568.65 2088.9
20.90 548.68 2015.5
27.08 568.62 2088.8
33.50 586.20 2153.4
37.15 557.29 2047.2
41.62 546.23 2006.6
47.15 550.14 2020.9
52.84 554.84 2038.2
59.30 566.09 2079.5
64.48 564.21 2072.6
70.56 569.94 2093.7
77.53 581.44 2135.9
83.54 584.80 2148.3
88.06 577.92 2123.0
92.62 572.09 2101.6
103.28 602.47 2213.1
118.33 621.21 2282.0
120.97 604.87 2222.0
129.63 618.69 2272.7
132.00 602.60 2213.7
130.65 571.58 2099.7
144.81 608.19 2234.2
164.63 640.23 2351.9
163.85 614.44 2257.1
169.17 612.50 2250.0
177.74 622.08 2285.2
188.19 637.41 2341.5
192.23 630.74 2317.0
194.74 619.62 2276.1
207.72 641.47 2356.4
218.14 654.42 2404.0
221.27 645.38 2370.8
232.25 659.10 2421.2
242.85 653.82 2401.8
-279.89 594.05 2203.2
-265.91 576.14 2136.8
-268.98 595.18 2207.4
-263.10 594.83 2206.1
-260.92 603.02 2236.5
-257.06 607.59 2253.4
-246.89 597.14 2214.7
-241.95 599.11 2222.0
-234.61 595.12 2207.2
-219.58 570.92 2117.4
-209.39 558.36 2070.8
-206.62 565.49 2097.3
-207.50 583.25 2163.2
-205.98 595.05 2206.9
-201.09 597.52 2216.1
-195.38 597.65 2216.5
-186.71 588.43 2182.4
-177.58 577.13 2140.5
-173.30 581.40 2156.3
-169.02 585.92 2173.1
-159.21 570.97 2117.6
-152.84 567.69 2105.5
-149.23 574.80 2131.8
-141.84 567.37 2104.2
-133.85 556.80 2065.1
-127.55 552.73 2050.0
-124.27 561.91 2084.0
-119.27 563.81 2091.0
-109.50 542.30 2011.3
-100.81 551.80 2046.5
-98.35 568.25 2107.5
-92.98 568.83 2109.7
-86.60 562.91 2087.7
-82.28 570.51 2115.9
-77.51 575.76 2135.4
-71.23 569.83 2113.4
-64.82 561.80 2083.6
-60.00 567.31 2104.0
-56.15 584.00 2165.9
-49.91 576.75 2139.0
-43.63 567.15 2103.4
-39.30 583.84 2165.3
-33.70 584.12 2166.4
-26.56 552.38 2048.7
-20.82 541.20 2007.2
-16.37 567.51 2104.8
-11.32 588.86 2184.0
-5.68 590.69 2190.8
0.00 595.90 2210.1
5.77 599.80 2224.5
11.43 594.59 2205.2
16.37 567.51 2104.8
26.67 554.73 2057.4
32.53 563.82 2091.1
37.21 552.86 2050.4
42.77 555.96 2061.9
49.89 576.49 2138.1
57.78 600.92 2228.7
62.18 587.87 2180.3
64.97 563.11 2088.4
69.28 554.21 2055.5
74.28 551.83 2046.6
80.18 555.94 2061.9
85.08 553.02 2051.0
89.67 548.54 2034.4
99.93 577.35 2141.3
125.67 622.38 2308.3
124.99 590.84 2191.3
134.04 606.09 2247.9
139.61 604.96 2243.7
141.47 588.50 2182.6
155.50 598.96 2221.4
165.85 616.00 2284.6
167.32 600.05 2225.5
171.71 595.27 2207.7
182.20 611.25 2267.0
186.60 606.45 2249.2
192.48 606.59 2249.7
208.78 638.63 2368.5
221.69 658.72 2443.1
228.06 658.84 2443.5
234.25 658.43 2442.0
240.38 641.02 2377.4
-274.08 588.12 2202.4
-265.29 581.38 2177.1
-258.35 578.47 2166.3
-255.15 584.02 2187.0
-257.55 602.90 2257.7
-253.37 606.91 2272.8
-245.56 602.20 2255.1
-235.79 592.34 2218.2
-225.71 581.19 2176.5
-219.44 579.54 2170.3
-209.31 567.35 2124.6
-204.04 568.00 2127.0
-205.48 587.91 2201.6
-194.07 587.91 2201.6
-182.30 569.01 2130.8
-173.78 559.35 2094.6
-169.77 564.09 2112.4
-166.95 573.20 2146.5
-158.45 562.76 2107.4
-151.12 555.91 2081.8
-146.63 559.35 2094.7
-140.24 555.58 2080.5
-133.12 548.46 2053.9
-127.16 545.71 2043.6
-124.12 555.84 2081.5
-120.00 561.84 2104.0
-110.99 544.39 2038.6
-104.87 540.08 2022.5
-103.16 559.22 2094.2
-98.78 565.21 2116.6
-91.47 554.19 2075.3
-84.58 544.45 2038.9
-79.78 547.86 2051.6
-76.47 562.60 2106.8
-71.57 567.03 2123.4
-66.31 569.14 2131.3
-62.63 586.46 2196.2
-51.68 591.44 2214.8
-44.30 570.32 2135.7
-38.99 573.70 2148.4
-33.80 580.17 2172.6
-26.96 555.42 2079.9
-16.22 556.74 2084.9
-11.27 580.23 2172.8
-5.69 585.91 2194.1
0.00 595.97 2231.8
11.43 588.74 2204.7
16.10 552.87 2070.4
20.99 540.48 2024.0
27.39 564.19 2112.8
33.89 581.72 2178.4
39.55 581.95 2179.3
44.74 575.99 2157.0
51.27 586.79 2197.4
58.14 598.88 2242.7
61.45 575.37 2154.7
64.81 556.25 2083.0
69.58 551.30 2064.5
73.91 543.78 2036.3
79.00 542.44 2031.3
86.78 558.63 2092.0
94.83 574.55 2151.6
94.72 542.02 2029.7
101.64 550.97 2063.3
121.08 623.57 2335.1
124.60 611.12 2288.5
124.13 581.16 2176.3
132.98 595.50 2230.0
144.02 618.08 2314.6
151.50 624.16 2337.4
151.75 601.15 2251.2
158.70 605.43 2267.2
173.52 616.28 2307.8
176.47 605.87 2268.9
185.64 616.82 2309.9
199.03 621.20 2326.3
208.49 631.61 2365.3
213.53 628.39 2353.2
224.70 642.90 2407.5
236.80 659.19 2468.6
-292.56 609.00 2302.9
-278.21 603.78 2283.2
-265.96 589.73 2230.1
-248.82 563.98 2132.7
-243.03 576.49 2180.0
-243.41 591.13 2235.4
-234.81 584.17 2209.0
-225.75 575.66 2176.9
-221.62 579.62 2191.9
-213.05 571.87 2162.5
-202.97 559.53 2115.9
-200.40 567.81 2147.2
-198.46 578.37 2187.1
-189.35 568.05 2148.1
-179.04 553.40 2092.7
-171.25 545.86 2064.2
-165.23 543.68 2055.9
-160.69 546.33 2066.0
-157.02 552.29 2088.5
-154.16 561.57 2123.6
-137.21 559.81 2116.9
-130.54 554.79 2098.0
-124.14 550.54 2081.9
-116.56 540.40 2043.5
-110.70 537.67 2033.2
-107.44 547.95 2072.1
-103.32 554.66 2097.4
-96.58 547.31 2069.7
-92.04 552.23 2088.3
-87.59 558.42 2111.7
-80.78 549.27 2077.1
-75.64 551.11 2084.0
-71.81 563.42 2130.6
-67.52 573.94 2170.4
-61.32 568.62 2150.2
-54.80 558.94 2113.7
-50.97 577.64 2184.3
-46.09 587.64 2222.2
-40.31 587.41 2221.3
-34.72 590.24 2232.0
-28.78 587.20 2220.5
-22.98 585.93 2215.7
-17.12 582.11 2201.3
-11.44 583.66 2207.1
-5.64 575.48 2176.2
0.00 571.65 2161.7
5.60 571.65 2161.7
10.78 549.91 2079.5
16.29 553.74 2094.0
22.63 576.99 2181.9
28.48 581.06 2197.3
34.21 581.55 2199.1
40.31 587.41 2221.3
45.95 585.85 2215.4
48.74 552.33 2088.7
58.29 540.51 2043.9
65.84 559.63 2116.3
70.96 556.78 2105.5
75.61 550.86 2083.1
82.65 562.05 2125.4
92.72 591.11 2235.3
99.96 599.74 2267.9
98.57 558.55 2112.2
119.21 579.03 2189.6
133.68 619.79 2343.8
139.22 617.41 2334.7
146.45 622.42 2353.7
158.28 620.95 2348.1
159.55 602.74 2279.3
164.66 599.83 2268.3
173.70 610.94 2310.3
183.10 622.56 2354.2
190.80 627.79 2374.0
195.00 621.55 2350.4
201.05 621.42 2349.9
208.97 626.90 2370.6
213.67 622.69 2354.7
224.76 636.81 2408.1
236.21 651.17 2462.4
239.31 642.37 2429.1
240.98 630.26 2383.3
-282.67 594.79 2271.5
-275.46 591.94 2260.6
-261.77 574.75 2194.9
-239.86 563.39 2151.6
-240.42 578.15 2207.9
-232.40 572.50 2186.4
-223.20 563.58 2152.3
-219.03 567.24 2166.3
-215.65 573.18 2188.9
-210.30 574.07 2192.3
-203.95 572.18 2185.1
-198.06 571.55 2182.7
-190.24 565.11 2158.1
-180.97 553.87 2115.2
-177.84 561.31 2143.6
-176.11 573.79 2191.3
-167.39 563.54 2152.2
-159.95 557.08 2127.5
-153.48 553.64 2114.3
-138.36 558.97 2134.7
-131.46 553.24 2112.8
-124.74 547.76 2091.9
-121.09 555.93 2123.1
-118.92 571.94 2184.2
-110.27 556.84 2126.5
-101.43 539.19 2059.2
-98.27 551.40 2105.8
-97.34 578.29 2208.5
-91.34 576.58 2201.9
-82.93 558.41 2132.5
-76.71 553.40 2113.4
-72.18 560.79 2141.6
-67.42 567.41 2166.9
-60.70 557.33 2128.4
-43.05 543.50 2075.6
-37.78 545.04 2081.5
-34.31 577.48 2205.4
-23.55 594.75 2271.3
-17.05 573.99 2192.0
-11.30 570.45 2178.5
-5.53 558.55 2133.1
0.00 553.74 2114.7
5.47 552.72 2110.8
10.87 548.92 2096.3
16.93 569.93 2176.6
23.02 581.32 2220.0
28.33 572.19 2185.2
34.26 576.72 2202.5
40.71 587.34 2243.0
46.28 584.27 2231.3
49.08 550.81 2103.5
52.53 530.52 2026.0
60.34 554.03 2115.8
69.04 581.09 2219.1
75.18 584.08 2230.6
78.50 566.31 2162.7
83.95 565.24 2158.6
94.95 599.36 2288.9
103.68 616.00 2352.5
104.94 588.86 2248.8
104.76 556.91 2126.8
109.96 555.32 2120.7
122.60 589.65 2251.9
135.47 621.95 2375.2
138.73 609.21 2326.6
141.92 597.24 2280.8
146.87 593.36 2266.0
155.13 602.61 2301.4
162.62 608.33 2323.2
165.39 596.60 2278.4
172.07 599.27 2288.6
180.22 606.74 2317.1
186.66 608.14 2322.5
197.52 623.42 2380.8
210.41 644.00 2459.4
224.91 649.02 2478.6
-278.64 568.66 2193.4
-279.26 581.79 2244.0
-276.33 587.94 2267.8
-266.52 579.39 2234.8
-256.65 570.33 2199.8
-255.95 581.71 2243.7
-248.38 577.62 2228.0
-238.26 567.29 2188.1
-233.37 569.19 2195.4
-226.93 567.33 2188.3
-224.14 574.72 2216.8
-221.96 584.10 2253.0
-214.04 578.49 2231.3
-205.69 571.37 2203.9
-197.75 565.00 2179.3
-187.98 552.87 2132.5
-181.00 548.48 2115.6
-180.43 563.85 2174.9
-175.29 565.47 2181.1
-163.59 545.30 2103.3
-156.13 538.40 2076.7
-149.24 532.98 2055.8
-137.39 528.41 2038.1
-135.94 543.77 2097.4
-132.75 553.12 2133.5
-127.47 554.21 2137.7
-125.25 569.32 2195.9
-120.42 573.41 2211.7
-109.28 546.41 2107.6
-103.02 542.22 2091.4
-102.71 570.61 2200.9
-96.97 570.42 2200.2
-86.66 541.64 2089.2
-81.59 543.95 2098.1
-78.51 560.81 2163.1
-73.17 562.86 2171.0
-67.76 564.66 2178.0
-62.26 565.96 2183.0
-55.07 550.69 2124.1
-49.29 547.71 2112.6
-44.42 555.27 2141.7
-38.06 543.75 2097.3
-33.88 564.60 2177.7
-17.28 575.94 2221.5
-11.28 564.16 2176.0
-5.65 565.16 2179.9
0.00 572.95 2209.9
5.70 569.93 2198.3
11.28 563.90 2175.1
17.30 576.69 2224.4
23.22 580.45 2238.9
28.65 572.90 2209.8
34.78 579.66 2235.8
41.26 589.42 2273.5
46.83 585.38 2257.9
51.94 577.07 2225.8
57.98 579.79 2236.3
63.33 575.74 2220.7
68.33 569.43 2196.4
76.04 584.93 2256.2
81.11 579.37 2234.7
84.11 560.75 2162.9
92.68 579.26 2234.3
102.51 603.02 2325.9
105.37 585.40 2258.0
105.88 557.26 2149.4
111.69 558.44 2154.0
121.05 576.41 2223.3
128.50 584.10 2253.0
134.38 584.27 2253.6
140.02 583.43 2250.4
146.90 587.60 2266.5
157.31 605.04 2333.7
166.31 615.95 2375.8
170.54 609.09 2349.3
174.43 601.47 2320.0
179.96 599.86 2313.7
186.00 599.99 2314.3
195.64 611.38 2358.2
206.58 626.02 2414.6
213.31 627.38 2419.9
221.46 632.75 2440.6
-293.35 592.69 2309.2
-285.66 589.16 2295.4
-276.62 582.67 2270.1
-264.50 569.26 2217.9
-253.44 557.56 2172.3
-250.18 562.90 2193.1
-239.94 552.43 2152.3
-231.07 544.66 2122.1
-227.47 549.26 2140.0
-223.18 552.36 2152.1
-222.33 564.38 2198.9
-219.82 572.68 2231.2
-211.68 566.38 2206.7
-203.48 559.57 2180.2
-195.60 553.26 2155.6
-189.20 550.90 2146.4
-186.23 558.70 2176.7
-175.90 544.19 2120.2
-160.01 528.04 2057.3
-160.95 549.46 2140.8
-155.71 550.55 2145.0
-149.03 546.43 2128.9
-140.79 536.10 2088.7
-135.28 535.69 2087.1
-132.35 545.95 2127.1
-127.43 548.51 2137.1
-123.56 556.03 2166.4
-117.01 551.64 2149.3
-110.05 544.76 2122.4
-107.61 560.72 2184.6
-102.50 563.77 2196.5
-91.96 535.51 2086.4
-84.67 523.89 2041.1
-82.25 542.82 2114.9
-79.97 565.48 2203.2
-75.11 571.99 2228.5
-69.46 573.03 2232.6
-63.79 574.07 2236.6
-55.13 545.77 2126.4
-45.73 565.97 2205.1
-41.41 585.63 2281.7
-34.23 564.77 2200.4
-28.35 561.31 2186.9
-24.22 599.36 2335.2
-11.95 591.68 2305.2
-5.89 582.98 2271.4
0.00 590.94 2302.4
5.93 586.96 2286.9
11.49 568.56 2215.2
17.29 570.54 2222.9
22.65 560.58 2184.1
34.39 567.51 2211.1
42.22 597.07 2326.2
47.72 590.57 2300.9
52.65 579.11 2256.3
59.09 585.04 2279.4
64.75 582.76 2270.5
68.22 562.84 2192.9
74.03 563.79 2196.6
81.79 578.40 2253.5
88.19 582.08 2267.8
95.31 589.72 2297.6
103.17 600.84 2340.9
109.19 600.52 2339.7
113.14 589.53 2296.9
116.52 576.79 2247.2
123.39 581.68 2266.3
130.51 587.31 2288.2
136.31 586.73 2286.0
140.71 580.44 2261.5
146.05 578.37 2253.4
155.71 592.91 2310.0
164.18 601.99 2345.4
169.88 600.65 2340.2
175.19 598.06 2330.1
193.80 618.90 2411.3
201.13 622.25 2424.4
209.44 628.32 2448.0
-282.72 577.21 2271.8
-269.17 561.24 2209.0
-244.18 543.85 2140.5
-241.38 550.12 2165.2
-239.29 558.35 2197.6
-234.58 560.70 2206.8
-229.81 563.05 2216.1
-222.66 559.51 2202.1
-214.44 553.03 2176.6
-210.88 558.55 2198.4
-206.40 561.87 2211.4
-198.61 556.10 2188.7
-192.29 554.26 2181.5
-186.76 554.62 2182.9
-174.25 533.63 2100.3
-162.82 531.87 2093.4
-164.76 556.77 2191.4
-159.53 558.35 2197.6
-153.38 556.72 2191.2
-145.71 549.20 2161.6
-135.99 533.07 2098.1
-129.36 528.23 2079.0
-123.70 527.08 2074.5
-119.11 530.60 2088.4
-118.04 550.83 2168.0
-116.29 569.84 2242.8
-105.05 571.95 2251.1
-96.37 555.53 2186.5
-90.51 554.35 2181.9
-86.03 562.04 2212.1
-81.74 572.18 2252.0
-76.50 576.66 2269.6
-70.41 574.98 2263.0
-65.40 582.65 2293.2
-57.22 560.78 2207.2
-48.93 532.75 2096.8
-45.40 556.17 2189.0
-41.59 582.29 2291.8
-34.67 566.31 2228.9
-27.55 539.98 2125.3
-22.40 548.86 2160.3
-18.06 590.00 2322.2
-12.27 601.09 2365.8
-5.94 582.38 2292.2
0.00 579.92 2282.5
5.96 583.61 2297.0
11.72 574.49 2261.1
17.50 571.53 2249.5
22.69 556.00 2188.4
34.97 571.24 2248.3
42.56 595.83 2345.1
47.65 583.74 2297.5
52.77 574.60 2261.5
59.56 583.67 2297.3
67.20 598.65 2356.2
72.79 594.42 2339.6
77.44 583.79 2297.7
90.47 591.07 2326.4
97.54 597.41 2351.3
116.74 602.13 2369.9
119.81 587.06 2310.6
126.84 591.90 2329.6
134.35 598.46 2355.5
138.82 591.49 2328.0
141.76 578.87 2278.3
145.01 568.46 2237.4
152.36 574.26 2260.2
164.89 598.49 2355.6
175.11 612.88 2412.2
175.88 594.35 2339.3
180.71 590.31 2323.4
221.90 604.05 2377.4
231.80 613.96 2416.5
240.48 620.19 2441.0
244.22 613.67 2415.3
255.02 624.79 2459.1
-262.87 554.32 2204.2
-250.49 539.94 2147.0
-249.06 549.06 2183.3
-246.26 555.51 2208.9
-244.58 564.87 2246.2
-239.95 567.69 2257.4
-230.96 560.07 2227.1
-220.26 547.83 2178.4
-212.67 542.86 2158.7
-209.81 550.03 2187.2
-203.46 548.21 2179.9
-193.38 535.94 2131.2
-187.39 534.60 2125.8
-181.83 534.47 2125.3
-175.96 533.37 2120.9
-170.72 534.20 2124.2
-161.94 523.60 2082.1
-155.48 520.05 2068.0
-155.69 539.36 2144.7
-154.49 555.03 2207.0
-149.12 556.34 2212.2
-141.34 548.40 2180.7
-132.82 536.80 2134.5
-125.45 529.08 2103.9
-119.79 528.18 2100.3
-117.74 543.84 2162.6
-112.04 572.00 2274.5
-92.01 557.81 2218.1
-83.63 540.80 2150.5
-78.73 545.48 2169.1
-73.14 545.77 2170.2
-68.16 550.94 2190.8
-64.11 565.36 2248.1
-57.84 561.01 2230.8
-51.06 550.31 2188.3
-46.56 564.49 2244.6
-41.62 576.70 2293.2
-35.33 571.12 2271.0
-28.50 552.85 2198.4
-22.52 546.04 2171.3
-17.61 569.46 2264.4
-12.26 594.83 2365.3
-6.10 591.67 2352.7
0.00 580.70 2309.1
5.95 577.04 2294.5
11.60 562.64 2237.3
17.15 554.58 2205.3
23.62 572.86 2278.0
30.58 593.33 2359.3
36.81 595.02 2366.1
42.52 589.14 2342.7
48.63 589.60 2344.5
54.97 592.50 2356.0
58.99 572.22 2275.4
63.42 559.26 2223.9
72.38 585.06 2326.5
83.37 577.66 2297.0
85.48 552.74 2198.0
94.70 574.13 2283.0
105.74 603.31 2399.0
111.76 602.27 2394.9
114.38 583.93 2322.0
121.14 587.51 2336.2
142.25 599.94 2385.6
147.21 594.98 2365.9
152.69 592.45 2355.9
156.69 584.57 2324.5
165.19 593.48 2359.9
174.93 606.02 2409.8
175.62 587.43 2335.9
178.71 577.84 2297.7
192.72 603.01 2397.8
216.96 601.30 2391.0
219.51 591.45 2351.9
230.83 605.15 2406.4
-273.38 570.53 2292.3
-253.45 540.69 2172.4
-245.25 535.08 2149.9
-239.41 534.51 2147.6
-235.06 537.29 2158.8
-234.14 548.24 2202.8
-228.69 548.86 2205.2
-220.69 543.23 2182.6
-215.37 544.08 2186.0
-210.77 546.85 2197.2
-202.77 540.73 2172.6
-192.53 528.09 2121.8
-186.73 527.25 2118.4
-183.76 534.58 2147.9
-180.32 540.95 2173.4
-173.32 536.72 2156.5
-162.49 519.96 2089.1
-152.70 523.53 2103.5
-151.47 538.56 2163.8
-145.88 538.65 2164.2
-141.99 545.24 2190.7
-136.93 547.74 2200.7
-128.82 537.69 2160.4
-122.69 535.36 2151.0
-115.96 530.12 2130.0
-110.10 528.50 2123.5
-107.62 543.77 2184.8
-105.00 560.00 2250.0
-99.56 562.23 2259.0
-89.93 539.60 2168.0
-82.62 528.80 2124.6
-78.78 540.19 2170.4
-73.42 542.17 2178.3
-68.47 547.76 2200.8
-65.01 567.36 2279.6
-59.08 567.15 2278.7
-51.09 544.97 2189.6
-45.60 547.18 2198.5
-41.26 565.80 2273.3
-35.54 568.72 2285.0
-24.41 585.90 2354.1
-6.11 586.89 2358.1
0.00 576.51 2316.3
6.06 581.58 2336.7
12.01 576.26 2315.3
17.43 557.90 2241.6
23.59 566.10 2274.5
42.61 584.39 2348.0
71.37 570.94 2293.9
78.91 582.72 2341.3
80.36 551.05 2214.0
92.55 555.29 2231.1
103.07 582.02 2338.5
108.62 579.30 2327.5
113.97 575.85 2313.7
131.84 602.72 2421.6
135.56 591.54 2376.7
142.86 596.28 2395.8
151.88 607.53 2441.0
153.60 589.84 2369.9
153.13 565.40 2271.7
159.53 567.23 2279.1
166.54 570.99 2294.2
178.35 590.40 2372.1
196.72 609.20 2447.7
198.13 594.39 2388.2
207.01 602.21 2419.6
218.10 615.80 2474.2
220.60 605.08 2431.1
222.26 592.68 2381.3
231.90 601.68 2417.5
245.72 620.78 2494.2
-258.93 559.06 2269.9
-243.54 538.05 2184.6
-240.67 544.38 2210.3
-241.57 559.75 2272.6
-235.44 559.17 2270.3
-226.68 552.17 2241.9
-217.40 543.50 2206.7
-209.04 536.72 2179.2
-205.69 542.80 2203.8
-199.67 541.97 2200.5
-190.85 533.27 2165.1
-185.53 534.09 2168.5
-179.22 532.06 2160.2
-169.76 520.24 2112.3
-162.59 514.86 2090.4
-157.34 515.43 2092.7
-153.70 521.49 2117.3
-150.41 529.21 2148.7
-143.56 524.53 2129.7
-138.24 525.33 2132.9
-137.08 542.60 2203.0
-132.60 547.69 2223.7
-125.19 540.61 2194.9
-117.35 530.89 2155.5
-97.05 512.21 2079.7
-88.78 527.14 2140.3
-88.33 559.45 2271.5
-82.91 562.61 2284.3
-75.95 555.01 2253.4
-69.96 553.86 2248.7
-65.46 565.37 2295.5
-60.78 577.36 2344.2
-53.82 568.07 2306.5
-47.03 558.54 2267.8
-41.74 566.46 2299.9
-36.31 574.85 2334.0
-30.70 583.24 2368.0
-18.37 581.83 2362.3
0.00 574.44 2332.3
5.77 548.61 2227.4
12.21 580.17 2355.6
24.57 583.50 2369.1
30.68 583.00 2367.1
36.59 579.39 2352.4
41.35 561.20 2278.5
45.34 538.46 2186.2
59.82 568.28 2307.3
68.23 589.28 2392.6
75.24 595.69 2418.6
83.05 563.56 2288.2
105.38 556.17 2258.1
127.60 577.22 2343.6
132.88 573.80 2329.7
141.44 584.22 2372.0
175.11 573.63 2329.0
242.06 605.16 2457.0
251.40 612.39 2486.4
-233.68 549.14 2253.3
-216.03 548.83 2252.0
-206.72 539.76 2214.8
-202.78 544.60 2234.7
-195.75 541.18 2220.6
-188.45 536.81 2202.7
-180.61 530.55 2177.0
-172.90 524.28 2151.3
-167.43 524.62 2152.7
-162.75 527.55 2164.7
-159.70 536.15 2200.0
-155.93 542.85 2227.5
-148.28 536.09 2199.8
-139.96 526.25 2159.4
-135.77 531.77 2182.0
-124.50 557.30 2286.8
-110.99 521.66 2140.6
-97.29 508.07 2084.8
-91.89 508.12 2085.0
-89.76 527.34 2163.9
-88.39 553.89 2272.8
-82.08 551.10 2261.4
-76.32 551.86 2264.5
-71.42 559.48 2295.7
-64.76 553.37 2270.6
-58.22 547.25 2245.5
-52.49 548.23 2249.6
-46.72 548.97 2252.6
-41.53 557.75 2288.7
-36.13 566.06 2322.7
-29.90 562.06 2306.3
-17.56 550.25 2257.9
-12.20 573.22 2352.1
5.87 551.68 2263.7
11.69 549.55 2255.0
18.63 583.87 2395.8
24.87 584.33 2397.7
30.22 568.21 2331.6
35.09 549.73 2255.7
40.49 543.79 2231.3
59.96 563.58 2312.6
68.49 585.32 2401.8
75.71 593.08 2433.6
86.77 582.58 2390.5
86.65 543.01 2228.2
99.98 552.83 2268.5
111.24 580.92 2383.7
116.98 578.72 2374.7
121.61 571.56 2345.3
128.89 576.92 2367.3
135.34 578.26 2372.8
142.22 581.25 2385.1
162.85 566.95 2326.4
174.83 586.93 2408.4
188.15 589.54 2419.1
219.18 572.30 2348.4
244.02 603.62 2476.9
-266.72 539.24 2236.5
-255.82 528.69 2192.7
-254.83 538.62 2233.9
-250.40 541.56 2246.1
-242.54 537.04 2227.4
-231.48 525.06 2177.7
-222.18 516.56 2142.4
-223.72 533.49 2212.6
-225.66 552.28 2290.6
-213.84 537.48 2229.2
-205.84 531.77 2205.5
-202.98 539.36 2237.0
-196.46 537.37 2228.7
-189.89 535.15 2219.5
-183.93 534.56 2217.1
-177.99 533.96 2214.6
-173.11 536.64 2225.7
-159.01 547.68 2271.5
-148.37 530.70 2201.1
-137.72 512.31 2124.8
-131.75 510.51 2117.3
-130.96 529.54 2196.3
-119.21 554.34 2299.1
-114.08 558.39 2315.9
-106.05 547.92 2272.5
-97.81 535.10 2219.3
-91.10 529.53 2196.2
-84.96 526.78 2184.8
-82.23 546.27 2265.6
-80.03 572.55 2374.6
-72.95 565.33 2344.7
-64.32 543.82 2255.5
-60.77 565.18 2344.1
-48.58 564.78 2342.4
-40.87 543.01 2252.1
-35.76 554.28 2298.9
-29.66 551.72 2288.2
-17.84 553.15 2294.2
-11.83 550.12 2281.6
-6.16 573.33 2377.9
11.63 540.97 2243.7
17.31 536.75 2226.1
23.99 557.83 2313.6
30.31 563.67 2337.8
36.41 564.36 2340.6
43.18 573.71 2379.4
49.43 574.62 2383.2
55.97 578.34 2398.6
61.73 574.08 2381.0
65.87 556.94 2309.9
70.38 545.42 2262.1
76.24 545.38 2261.9
84.60 561.96 2330.7
90.74 562.61 2333.4
95.29 553.89 2297.2
105.43 576.78 2392.2
120.01 587.42 2436.3
123.64 574.94 2384.6
129.86 575.10 2385.2
135.36 572.21 2373.2
141.32 571.43 2370.0
150.46 583.04 2418.2
159.88 571.87 2371.8
168.71 581.13 2410.2
177.68 590.14 2447.6
178.23 571.57 2370.6
209.45 590.28 2448.1
242.83 594.28 2464.8
-275.66 539.59 2262.3
-274.71 549.43 2303.5
-253.60 518.46 2173.7
-246.34 527.05 2209.7
-243.52 533.42 2236.4
-235.83 529.18 2218.6
-228.53 525.62 2203.7
-218.76 516.05 2163.6
-210.53 509.71 2137.0
-206.90 514.45 2156.9
-206.78 528.43 2215.5
-201.26 529.01 2217.9
-191.96 519.42 2177.7
-186.77 520.69 2183.0
-182.19 523.80 2196.1
-178.72 530.38 2223.6
-175.85 539.27 2260.9
-160.81 528.36 2215.2
-158.49 540.03 2264.1
-150.68 533.17 2235.4
-137.11 504.55 2115.3
-123.09 514.73 2158.1
-122.38 536.12 2247.7
-118.17 543.60 2279.1
-110.37 534.40 2240.5
-99.81 510.13 2138.7
-96.54 522.47 2190.5
-94.38 542.69 2275.3
-86.07 527.91 2213.3
-81.54 535.84 2246.5
-79.95 565.80 2372.1
-73.35 562.37 2357.8
-66.69 557.77 2338.5
-41.80 549.31 2303.0
-35.18 539.36 2261.3
-29.94 550.98 2310.0
-24.55 564.68 2367.5
-18.54 568.41 2383.1
-12.31 566.10 2373.4
-6.13 564.01 2364.7
0.00 570.74 2392.9
12.49 574.45 2408.4
18.26 560.06 2348.1
24.87 572.11 2398.6
30.51 561.42 2353.8
35.54 544.93 2284.6
43.88 576.69 2417.8
62.55 575.43 2412.5
66.05 552.44 2316.1
70.24 538.48 2257.6
77.07 545.39 2286.6
86.73 569.93 2389.4
94.73 581.00 2435.9
100.75 579.32 2428.8
102.03 552.14 2314.9
111.75 541.12 2268.7
120.39 553.80 2321.8
138.27 578.21 2424.2
140.54 562.14 2356.8
146.08 559.98 2347.7
158.06 581.65 2438.6
170.92 582.39 2441.7
175.95 578.12 2423.8
175.86 557.89 2339.0
182.64 560.10 2348.2
191.03 566.93 2376.9
204.85 571.09 2394.3
213.83 578.60 2425.8
-285.83 553.41 2345.7
-265.59 537.08 2276.5
-254.90 527.19 2234.5
-255.65 541.03 2293.2
-253.57 549.39 2328.7
-246.36 546.80 2317.7
-237.60 540.54 2291.1
-226.92 529.48 2244.2
-218.19 522.52 2214.8
-214.83 528.36 2239.5
-207.44 524.36 2222.6
-194.95 506.87 2148.4
-185.40 496.23 2103.3
-178.19 506.73 2147.9
-170.82 518.15 2196.2
-159.61 500.84 2122.9
-154.84 503.23 2133.0
-154.91 522.10 2213.0
-153.39 536.85 2275.5
-145.68 530.29 2247.7
-135.65 514.33 2180.0
-129.49 512.34 2171.6
-125.27 518.15 2196.2
-121.12 524.87 2224.7
-115.37 524.94 2225.0
-106.31 509.18 2158.2
-99.59 503.50 2134.1
-100.07 535.67 2270.5
-91.57 555.52 2354.6
-82.97 539.28 2285.8
-77.67 543.68 2304.5
-73.00 553.59 2346.5
-68.14 563.73 2389.5
-48.84 555.57 2354.9
-40.83 530.80 2249.9
-35.00 530.83 2250.0
-30.53 555.64 2355.2
-24.06 547.39 2320.2
-12.02 546.95 2318.3
-6.20 564.41 2392.3
0.00 565.56 2397.2
18.36 556.82 2360.1
24.53 557.95 2364.9
29.43 535.67 2270.5
43.22 561.80 2381.2
74.55 565.30 2396.1
82.39 576.73 2444.5
94.90 575.71 2440.2
100.97 574.28 2434.1
102.00 546.00 2314.3
114.40 547.94 2322.5
123.08 560.02 2373.7
132.39 573.71 2431.7
144.09 570.11 2416.5
143.69 544.81 2309.3
149.71 544.96 2309.9
165.17 578.09 2450.3
186.82 566.69 2402.0
189.42 556.05 2356.9
197.91 562.81 2385.5
217.56 565.65 2397.6
221.37 559.58 2371.9
-272.51 545.03 2335.8
-264.88 541.79 2322.0
-247.22 542.68 2325.8
-234.62 527.90 2262.4
-228.91 528.25 2263.9
-224.34 531.32 2277.1
-218.58 531.67 2278.6
-208.46 521.16 2233.5
-194.36 499.78 2141.9
-180.92 493.42 2114.7
-182.72 513.91 2202.5
-177.05 514.01 2202.9
-165.18 495.53 2123.7
-160.07 496.76 2129.0
-161.27 518.38 2221.6
-159.69 532.30 2281.3
-149.48 538.14 2306.3
-140.32 526.21 2255.2
-135.83 531.50 2277.9
-132.77 543.15 2327.8
-123.52 529.38 2268.8
-113.07 508.80 2180.6
-107.86 510.91 2189.6
-104.64 523.22 2242.4
-102.70 543.71 2330.2
-79.91 553.23 2371.0
-73.29 549.64 2355.6
-65.57 536.51 2299.3
-58.05 522.46 2239.1
-48.55 546.15 2340.6
-41.81 537.54 2303.7
-37.02 555.29 2379.8
-24.70 555.78 2381.9
-11.84 532.62 2282.7
-6.07 546.49 2342.1
0.00 542.62 2325.5
6.06 545.12 2336.2
11.89 535.12 2293.4
24.09 541.91 2322.5
29.68 534.17 2289.3
35.82 537.34 2302.9
42.55 547.08 2344.6
48.22 542.51 2325.1
54.88 548.85 2352.2
62.62 563.58 2415.3
69.63 569.67 2441.5
75.89 569.18 2439.3
78.99 546.87 2343.7
89.99 539.96 2314.1
100.50 565.34 2422.9
105.06 556.20 2383.7
110.73 553.64 2372.7
138.59 566.97 2429.9
153.77 553.57 2372.4
163.56 566.17 2426.5
187.91 563.73 2416.0
211.68 560.33 2401.4
214.51 551.61 2364.0
-284.62 538.96 2335.8
-272.43 551.04 2388.2
-261.99 542.26 2350.1
-233.06 531.85 2305.0
-228.09 534.22 2315.2
-221.87 533.68 2312.9
-208.58 515.66 2234.8
-188.61 493.71 2139.7
-194.65 524.96 2275.1
-191.93 533.81 2313.5
-181.60 521.37 2259.5
-170.86 506.89 2196.8
-167.03 512.59 2221.5
-164.19 521.88 2261.8
-158.42 522.20 2263.1
-153.89 526.77 2283.0
-145.91 519.45 2251.2
-139.98 519.09 2249.7
-138.52 536.00 2322.9
-124.02 525.60 2277.9
-112.42 500.29 2168.2
-106.39 498.33 2159.7
-94.83 527.48 2286.0
-92.47 548.65 2377.8
-85.71 544.88 2361.4
-78.15 535.04 2318.8
-67.36 545.01 2362.0
-55.51 548.90 2378.9
-50.51 561.97 2435.5
-43.78 556.60 2412.2
-37.84 561.34 2432.8
-18.97 562.74 2438.8
-12.21 543.19 2354.1
-5.99 532.85 2309.3
0.00 536.23 2323.9
6.12 544.32 2359.0
12.28 546.34 2367.8
18.67 553.75 2399.9
25.38 564.75 2447.6
37.66 558.65 2421.1
48.29 537.24 2328.3
67.25 544.11 2358.1
74.18 550.14 2384.2
77.95 533.69 2312.9
90.69 538.09 2332.0
121.76 541.83 2348.2
135.84 549.54 2381.6
183.26 543.66 2356.2
202.00 561.82 2434.9
-278.57 532.92 2335.8
-266.17 532.34 2333.3
-254.03 519.88 2278.7
-249.67 523.11 2292.9
-249.66 535.86 2348.7
-232.80 525.29 2302.4
-217.42 503.49 2206.9
-217.43 517.12 2266.6
-209.79 512.81 2247.7
-189.62 521.46 2285.6
-183.89 522.01 2288.0
-177.01 519.22 2275.8
-164.49 499.13 2187.8
-158.37 516.18 2262.5
-149.97 527.89 2313.8
-130.59 522.35 2289.5
-125.99 527.98 2314.2
-119.71 526.72 2308.7
-111.91 518.34 2271.9
-104.45 510.62 2238.1
-99.00 512.46 2246.2
-97.71 537.40 2355.5
-93.35 547.68 2400.5
-85.37 536.62 2352.1
-76.98 521.10 2284.0
-71.64 525.37 2302.7
-61.20 538.56 2360.6
-55.61 543.71 2383.1
-49.39 543.29 2381.3
-41.96 527.53 2312.2
-35.53 521.10 2284.0
-30.30 533.35 2337.7
-24.80 545.60 2391.4
-18.70 548.50 2404.2
38.23 560.69 2457.6
60.42 531.67 2330.4
67.62 540.97 2371.1
74.34 545.15 2389.5
81.61 552.45 2421.4
88.45 555.96 2436.8
91.46 536.57 2351.8
95.04 522.73 2291.2
156.65 551.42 2417.0
159.81 540.90 2370.8
177.87 539.73 2365.7
200.51 551.39 2416.8
-284.94 527.43 2338.4
-257.14 508.43 2254.1
-267.25 540.72 2397.3
-258.36 535.18 2372.7
-254.03 539.04 2389.8
-231.85 517.20 2293.0
-212.14 498.82 2211.5
-212.80 514.28 2280.1
-194.65 529.20 2346.2
-187.20 525.35 2329.2
-182.33 528.75 2344.2
-157.45 489.22 2168.9
-159.07 512.57 2272.5
-153.02 532.50 2360.9
-140.92 510.84 2264.8
-137.92 521.68 2312.9
-130.05 514.29 2280.1
-122.94 509.31 2258.0
-118.76 516.63 2290.5
-112.89 516.91 2291.7
-107.51 519.61 2303.7
-103.78 531.10 2354.6
-99.34 540.17 2394.8
-92.16 534.50 2369.7
-85.17 529.28 2346.5
-77.71 520.09 2305.8
-72.04 522.33 2315.7
-67.33 532.48 2360.8
-60.40 525.48 2329.7
-54.45 526.39 2333.8
-49.82 541.82 2402.1
-43.58 541.62 2401.3
-36.98 536.15 2377.0
-18.58 538.83 2388.9
-12.41 539.94 2393.8
24.73 537.94 2385.0
30.12 524.06 2323.4
36.84 534.17 2368.2
44.20 549.32 2435.4
51.08 555.46 2462.6
69.41 548.98 2433.9
75.23 545.42 2418.1
81.56 545.81 2419.9
88.50 549.95 2438.2
107.64 520.27 2306.6
115.43 528.56 2343.4
120.03 522.12 2314.8
145.71 528.20 2341.8
153.40 533.82 2366.7
165.89 534.52 2369.8
-269.56 526.87 2363.0
-256.60 525.42 2356.5
-249.53 523.39 2347.4
-243.40 523.31 2347.1
-231.78 511.10 2292.3
-218.90 495.41 2221.9
-213.10 495.31 2221.5
-210.02 501.71 2250.2
-203.97 501.17 2247.8
-203.24 514.08 2305.7
-180.99 518.84 2327.0
-165.52 508.39 2280.2
-159.16 506.96 2273.7
-115.19 495.32 2221.5
-108.96 493.21 2212.1
-103.06 492.40 2208.4
-97.82 494.84 2219.4
-87.39 501.03 2247.2
-83.20 511.08 2292.2
-75.30 539.66 2420.4
-50.38 541.54 2428.9
-18.63 534.02 2395.1
-12.59 541.21 2427.4
-6.22 535.12 2400.1
0.00 534.04 2395.2
18.88 541.20 2427.3
24.09 517.91 2322.8
30.35 522.03 2341.3
109.11 521.31 2338.1
115.59 523.21 2346.6
180.11 534.13 2395.6
