ply
format ascii 1.0
element vertex 2180
property float x
property float y
property float z
end_header
876.93 -196.08 2100.9
879.64 -195.48 2094.4
855.94 -189.04 2025.5
871.31 -187.83 2012.4
901.74 -190.96 2046.0
936.87 -197.24 2113.2
932.52 -195.18 2091.2
932.96 -194.14 2080.1
947.70 -196.08 2100.8
666.70 -202.20 2107.8
729.40 -199.91 2084.0
717.33 -195.15 2034.4
745.53 -197.03 2054.0
759.96 -196.63 2049.8
762.19 -195.84 2041.6
759.12 -193.71 2019.3
771.12 -195.42 2037.2
758.00 -190.79 1988.9
775.57 -190.04 1981.1
796.10 -193.79 2020.2
796.96 -192.73 2009.1
824.57 -189.50 1975.4
847.06 -193.46 2016.8
867.24 -195.66 2039.7
899.92 -201.80 2103.7
861.61 -192.05 2002.0
895.53 -194.91 2031.9
919.32 -198.92 2073.6
924.62 -198.90 2073.5
936.04 -200.19 2087.0
662.65 -206.40 2095.0
675.75 -208.77 2119.1
692.29 -202.36 2054.0
701.84 -202.05 2050.8
711.79 -203.37 2064.3
751.44 -202.52 2055.6
761.68 -201.00 2040.2
755.10 -197.89 2008.7
762.49 -198.46 2014.4
764.57 -197.64 2006.2
768.40 -197.29 2002.6
774.36 -197.49 2004.6
764.88 -192.49 1953.8
767.45 -191.86 1947.5
797.93 -194.37 1972.9
810.21 -196.10 1990.5
815.18 -192.40 1953.0
833.38 -195.48 1984.2
888.49 -205.87 2089.6
885.45 -202.69 2057.4
910.64 -201.19 2042.1
926.06 -203.41 2064.7
503.86 -206.85 2045.7
671.75 -211.27 2089.5
688.01 -214.66 2123.0
688.35 -213.06 2107.2
681.46 -209.27 2069.7
690.37 -210.35 2080.4
696.59 -207.38 2051.0
684.92 -202.36 2001.4
691.58 -201.28 1990.7
703.09 -203.12 2008.8
729.14 -200.26 1980.6
732.63 -199.81 1976.1
735.74 -199.26 1970.7
744.07 -200.13 1979.3
757.38 -202.31 2000.9
766.88 -203.46 2012.2
761.81 -200.75 1985.4
809.68 -203.73 2014.9
814.92 -203.73 2014.9
821.29 -204.01 2017.7
832.57 -205.51 2032.5
823.83 -199.56 1973.7
832.81 -200.49 1982.9
837.96 -200.49 1982.9
815.83 -194.01 1918.8
832.90 -195.68 1935.3
896.87 -209.45 2071.5
902.19 -209.44 2071.4
900.30 -204.14 2019.0
628.81 -213.16 2055.4
667.02 -215.17 2074.8
671.59 -214.91 2072.3
662.23 -210.23 2027.2
655.46 -206.45 1990.7
686.88 -211.35 2038.0
701.23 -214.12 2064.7
683.79 -207.21 1998.1
674.80 -202.95 1957.0
700.57 -209.12 2016.6
710.82 -210.61 2030.9
715.91 -201.66 1944.6
725.88 -203.04 1957.9
750.94 -202.96 1957.1
772.58 -207.40 2000.0
794.04 -211.75 2041.8
821.74 -212.06 2044.9
815.27 -205.10 1977.7
791.43 -197.86 1907.9
865.03 -207.19 1997.9
859.86 -204.73 1974.2
898.56 -211.43 2038.8
919.13 -215.00 2073.2
939.44 -218.47 2106.7
927.70 -214.50 2068.4
926.02 -212.88 2052.8
590.05 -216.00 2032.1
650.64 -211.72 1991.8
672.42 -217.08 2042.2
699.32 -222.26 2091.0
688.78 -213.94 2012.7
715.42 -218.90 2059.3
730.68 -218.67 2057.2
724.35 -215.21 2024.6
720.51 -209.51 1971.0
740.83 -213.90 2012.3
748.54 -214.62 2019.0
738.53 -210.27 1978.2
734.63 -204.90 1927.6
746.84 -206.89 1946.4
775.98 -213.52 2008.8
797.10 -217.88 2049.7
773.42 -210.00 1975.6
806.34 -213.29 2006.6
818.65 -215.16 2024.1
826.17 -215.75 2029.7
822.67 -212.13 1995.7
786.67 -201.58 1896.4
785.50 -200.03 1881.9
855.79 -215.26 2025.1
861.41 -215.35 2026.0
834.55 -207.37 1950.9
842.76 -208.15 1958.2
864.84 -212.33 1997.5
868.01 -211.84 1992.9
890.33 -216.00 2032.0
901.97 -217.53 2046.5
908.03 -217.71 2048.2
929.91 -219.12 2061.4
962.05 -220.36 2073.0
477.01 -222.60 2044.3
580.91 -219.80 2018.6
588.24 -220.59 2025.8
631.99 -224.94 2065.8
625.45 -220.75 2027.3
693.32 -227.50 2089.2
677.97 -219.04 2011.6
711.44 -224.67 2063.3
711.52 -218.13 2003.2
779.89 -212.70 1953.3
797.61 -216.13 1984.8
803.13 -212.15 1948.3
812.03 -213.16 1957.6
807.16 -210.56 1933.8
828.77 -214.87 1973.3
849.78 -218.96 2010.9
836.29 -214.17 1966.9
825.35 -210.09 1929.4
847.67 -214.47 1969.6
886.78 -223.02 2048.2
910.72 -227.68 2090.9
904.10 -224.69 2063.4
884.11 -218.43 2006.0
888.46 -218.22 2004.1
917.53 -224.05 2057.6
462.76 -231.38 2075.5
479.22 -231.53 2076.9
510.65 -226.37 2030.6
519.74 -223.49 2004.7
544.34 -225.06 2018.8
538.77 -220.64 1979.1
580.04 -222.70 1997.6
602.27 -227.17 2037.8
602.81 -223.46 2004.4
597.21 -217.63 1952.1
673.10 -224.37 2012.6
665.09 -219.99 1973.3
727.03 -217.10 1947.4
742.31 -220.13 1974.6
750.67 -221.09 1983.2
747.38 -218.62 1961.1
777.49 -217.09 1947.3
781.10 -216.69 1943.8
800.36 -220.61 1978.9
811.14 -222.16 1992.8
780.89 -212.52 1906.3
778.30 -210.48 1888.1
786.68 -211.42 1896.5
849.01 -218.61 1960.9
868.00 -222.17 1992.8
912.29 -225.45 2022.3
921.17 -226.35 2030.3
437.30 -237.54 2082.4
447.63 -240.19 2105.6
439.47 -232.97 2042.3
436.71 -228.75 2005.3
451.51 -233.72 2048.9
471.25 -238.33 2089.3
473.31 -236.65 2074.6
475.29 -234.98 2059.9
501.73 -234.85 2058.8
512.77 -230.22 2018.2
531.32 -233.78 2049.4
519.43 -226.29 1983.7
524.75 -226.36 1984.3
529.30 -226.11 1982.1
541.49 -226.91 1989.2
593.47 -233.15 2043.8
604.69 -231.36 2028.2
590.34 -223.92 1963.0
580.29 -218.23 1913.0
607.24 -224.53 1968.3
685.84 -225.20 1974.2
698.79 -221.20 1939.1
708.67 -222.73 1952.5
713.83 -222.75 1952.7
715.89 -221.82 1944.6
718.60 -221.11 1938.3
733.80 -224.22 1965.5
741.78 -225.09 1973.2
744.15 -224.26 1965.9
752.86 -225.34 1975.4
754.48 -224.30 1966.3
749.61 -221.36 1940.5
794.19 -224.00 1963.7
822.92 -229.17 2008.9
789.86 -218.58 1916.1
806.78 -217.78 1909.1
899.27 -230.05 2016.6
943.90 -235.98 2068.6
442.27 -239.79 2055.3
453.07 -231.68 1985.8
463.99 -234.60 2010.9
481.58 -240.79 2063.9
491.72 -240.52 2061.6
498.87 -241.39 2069.1
493.36 -236.18 2024.4
509.69 -234.04 2006.1
521.49 -237.04 2031.8
531.17 -239.03 2048.8
527.84 -235.18 2015.8
533.75 -235.48 2018.4
538.64 -235.33 2017.1
570.86 -229.37 1966.0
589.54 -234.77 2012.3
576.59 -227.60 1950.9
579.88 -224.95 1928.2
593.98 -228.45 1958.2
608.23 -231.95 1988.1
624.95 -236.33 2025.7
627.09 -235.16 2015.6
624.14 -228.34 1957.2
664.54 -228.28 1956.7
683.05 -229.38 1966.1
685.96 -228.65 1959.9
694.12 -229.67 1968.6
706.98 -232.22 1990.4
691.14 -225.37 1931.7
683.44 -221.26 1896.5
702.72 -225.87 1936.1
717.74 -229.06 1963.4
724.63 -229.64 1968.3
731.89 -230.32 1974.1
744.74 -232.73 1994.8
751.73 -233.29 1999.7
747.47 -230.39 1974.7
749.48 -229.43 1966.6
749.30 -227.83 1952.8
769.40 -229.29 1965.3
764.34 -226.28 1939.6
748.17 -220.05 1886.1
778.71 -224.63 1925.4
785.62 -225.18 1930.1
803.49 -228.84 1961.5
795.72 -225.20 1930.3
801.59 -222.67 1908.6
800.00 -220.86 1893.1
803.78 -220.55 1890.4
836.09 -228.02 1954.5
851.16 -226.64 1942.6
895.07 -235.55 2019.0
911.96 -237.21 2033.3
942.43 -240.96 2065.4
435.82 -247.50 2075.3
440.10 -235.40 1973.9
478.31 -241.78 2027.4
493.42 -246.71 2068.7
492.21 -243.46 2041.4
491.12 -235.33 1973.2
511.20 -242.42 2032.7
521.59 -242.36 2032.2
516.31 -237.50 1991.5
532.06 -233.09 1954.5
544.68 -236.37 1982.0
570.66 -232.30 1947.9
577.00 -232.82 1952.2
607.19 -236.70 1984.7
622.44 -240.61 2017.5
624.56 -239.41 2007.5
608.78 -231.44 1940.6
599.28 -225.96 1894.7
619.75 -231.77 1943.5
629.79 -233.63 1959.0
628.58 -231.32 1939.6
663.93 -234.93 1969.9
676.18 -237.44 1990.9
671.80 -234.11 1963.1
675.07 -233.48 1957.8
692.32 -237.66 1992.8
701.79 -232.25 1947.4
704.23 -231.39 1940.2
720.62 -235.09 1971.3
728.90 -236.12 1979.9
729.63 -234.70 1968.0
736.20 -235.17 1972.0
743.14 -235.75 1976.8
738.83 -232.78 1951.9
741.14 -231.92 1944.7
742.34 -230.73 1934.7
752.53 -229.25 1922.3
749.93 -226.95 1903.0
749.44 -225.32 1889.3
768.78 -229.64 1925.5
768.18 -225.07 1887.3
781.43 -227.50 1907.6
789.83 -228.50 1916.0
825.74 -231.61 1942.1
829.62 -231.29 1939.4
837.78 -228.04 1912.1
839.94 -227.28 1905.7
885.86 -236.92 1986.6
914.98 -243.29 2040.0
922.25 -243.81 2044.4
415.21 -243.93 2001.9
430.11 -243.56 1998.8
471.78 -243.67 1999.7
489.59 -250.12 2052.6
491.37 -248.33 2037.9
480.61 -240.30 1972.1
486.42 -238.14 1954.3
517.24 -245.56 2015.2
526.59 -242.64 1991.3
527.06 -240.50 1973.7
572.33 -235.96 1936.5
573.26 -234.29 1922.7
591.00 -239.45 1965.1
613.26 -246.35 2021.7
608.18 -242.24 1988.0
616.41 -241.43 1981.3
612.48 -237.90 1952.4
605.10 -233.11 1913.1
626.81 -239.51 1965.6
629.62 -238.65 1958.5
641.84 -237.53 1949.4
651.41 -239.19 1963.0
662.30 -241.30 1980.3
665.96 -240.77 1975.9
669.93 -240.36 1972.5
670.97 -238.91 1960.6
679.74 -240.21 1971.3
683.98 -239.90 1968.8
700.94 -240.47 1973.5
718.20 -244.61 2007.4
706.65 -238.94 1960.9
716.33 -238.78 1959.6
719.09 -238.01 1953.3
714.58 -234.86 1927.4
723.49 -236.14 1937.9
733.50 -237.75 1951.2
740.00 -235.00 1928.6
735.41 -231.98 1903.8
777.70 -235.82 1935.3
772.56 -229.81 1886.0
775.23 -229.16 1880.6
811.50 -236.90 1944.2
837.49 -241.49 1981.8
832.13 -238.48 1957.1
828.81 -233.26 1914.3
862.28 -234.26 1922.5
873.38 -235.91 1936.1
359.01 -249.75 2006.9
355.90 -244.05 1961.1
409.70 -248.93 2000.4
422.96 -247.59 1989.5
436.66 -252.53 2029.2
442.54 -252.88 2032.1
460.68 -248.46 1996.5
470.56 -250.96 2016.7
480.93 -250.92 2016.3
491.92 -253.90 2040.2
490.81 -250.63 2014.0
487.90 -246.52 1981.0
489.39 -244.69 1966.3
526.94 -247.97 1992.6
533.31 -248.53 1997.1
522.89 -241.33 1939.3
553.26 -243.64 1957.8
555.78 -242.52 1948.8
554.96 -239.98 1928.4
567.26 -240.96 1936.3
577.23 -243.04 1953.0
578.20 -241.34 1939.3
595.40 -246.37 1979.8
615.26 -250.28 2011.2
593.98 -239.59 1925.3
612.30 -242.90 1951.8
631.88 -248.61 1997.8
634.78 -247.72 1990.6
621.78 -235.00 1888.4
632.77 -237.29 1906.8
655.49 -243.90 1959.9
672.44 -248.28 1995.1
675.81 -247.62 1989.8
676.57 -246.03 1977.0
673.07 -242.91 1952.0
698.93 -243.11 1953.5
686.93 -237.21 1906.2
731.55 -242.17 1946.0
733.51 -241.15 1937.8
739.67 -241.53 1940.8
748.34 -242.70 1950.3
754.54 -243.07 1953.3
767.95 -245.74 1974.7
773.49 -245.88 1975.8
768.46 -242.67 1950.0
767.12 -237.56 1909.0
779.58 -239.87 1927.5
777.62 -236.24 1898.3
792.92 -236.40 1899.6
815.97 -241.77 1942.8
829.92 -244.39 1963.9
823.36 -240.98 1936.5
836.09 -240.31 1931.1
843.09 -240.88 1935.7
838.54 -238.17 1913.8
858.74 -242.47 1948.4
884.59 -244.02 1960.9
292.95 -256.33 2017.8
304.31 -261.60 2059.3
322.34 -254.75 2005.3
345.44 -260.41 2049.9
352.96 -250.65 1973.1
365.00 -255.50 2011.2
375.82 -255.77 2013.3
362.78 -243.51 1916.8
369.63 -244.76 1926.7
378.81 -247.49 1948.1
412.46 -259.11 2039.6
412.54 -252.68 1989.0
412.79 -249.71 1965.7
424.89 -253.90 1998.6
442.61 -258.19 2032.4
439.95 -253.62 1996.4
447.48 -254.96 2007.0
456.15 -256.91 2022.3
446.57 -248.66 1957.4
485.96 -256.04 2015.5
489.02 -254.91 2006.6
489.65 -252.56 1988.1
495.71 -253.02 1991.7
527.55 -253.43 1994.9
524.95 -249.74 1965.8
527.13 -248.36 1955.0
521.95 -243.57 1917.4
534.38 -244.72 1926.3
552.08 -245.92 1935.9
581.28 -249.85 1966.7
597.88 -254.75 2005.3
592.73 -248.24 1954.0
593.59 -246.49 1940.3
610.64 -247.28 1946.5
626.91 -251.79 1982.0
627.36 -249.92 1967.3
621.66 -245.66 1933.7
617.33 -241.99 1904.9
616.87 -239.89 1888.4
620.36 -239.35 1884.1
626.65 -239.89 1888.3
643.65 -244.49 1924.5
663.36 -250.04 1968.2
671.14 -251.04 1976.1
675.41 -250.72 1973.6
675.79 -248.98 1959.9
667.95 -244.25 1922.7
683.26 -244.38 1923.7
700.07 -248.58 1956.7
692.45 -244.10 1921.5
745.38 -245.13 1929.6
749.02 -244.68 1926.0
746.48 -242.24 1906.8
778.25 -244.45 1924.2
785.53 -245.17 1929.9
790.58 -245.18 1930.0
778.97 -240.06 1889.7
772.13 -236.46 1861.4
793.85 -241.61 1901.9
812.25 -242.69 1910.4
812.55 -241.30 1899.5
832.15 -242.71 1910.6
840.71 -243.75 1918.8
916.62 -258.13 2031.9
933.46 -258.42 2034.2
266.91 -261.68 2018.7
300.41 -268.23 2069.2
338.08 -260.06 2006.2
344.14 -260.71 2011.2
352.09 -262.75 2026.9
358.39 -263.52 2032.9
353.72 -256.32 1977.3
358.51 -256.08 1975.5
374.97 -260.40 2008.8
367.28 -251.56 1940.6
377.18 -254.85 1966.0
381.53 -254.35 1962.1
402.30 -257.89 1989.4
419.46 -262.16 2022.4
413.47 -255.23 1968.9
418.16 -254.97 1966.9
441.30 -256.57 1979.2
458.41 -263.45 2032.4
458.57 -260.55 2010.0
484.18 -260.31 2008.1
485.81 -258.41 1993.4
484.52 -255.01 1967.2
488.37 -254.36 1962.2
493.55 -251.81 1942.5
507.40 -256.26 1976.9
520.68 -260.34 2008.3
514.19 -252.06 1944.4
511.74 -248.42 1916.4
513.28 -246.77 1903.6
525.18 -250.08 1929.2
539.04 -254.26 1961.5
531.83 -248.52 1917.1
561.90 -248.63 1918.0
591.51 -259.43 2001.4
596.00 -259.13 1999.0
598.18 -249.24 1922.7
614.02 -253.73 1957.3
615.65 -252.31 1946.4
624.16 -253.72 1957.3
627.24 -252.92 1951.1
626.02 -250.41 1931.7
629.63 -249.85 1927.4
633.52 -249.42 1924.1
639.59 -249.84 1927.3
645.04 -250.01 1928.7
653.02 -251.16 1937.5
655.62 -250.24 1930.4
654.97 -248.09 1913.9
662.33 -248.99 1920.8
661.24 -246.73 1903.4
659.42 -244.23 1884.0
671.36 -246.82 1904.1
680.41 -248.32 1915.6
682.81 -247.40 1908.5
693.26 -249.37 1923.7
694.97 -248.20 1914.7
691.52 -245.22 1891.7
794.30 -252.96 1951.4
792.62 -250.83 1935.0
788.97 -248.10 1913.9
789.79 -246.81 1904.0
816.19 -253.48 1955.4
832.05 -256.81 1981.1
801.00 -242.73 1872.5
802.75 -241.79 1865.3
844.46 -249.84 1927.3
833.84 -245.25 1891.9
229.47 -265.97 2011.6
242.98 -263.65 1994.0
298.90 -267.44 2022.6
306.83 -269.80 2040.5
320.63 -268.06 2027.4
324.32 -262.54 1985.6
336.64 -268.26 2028.8
349.21 -269.84 2040.8
350.44 -266.76 2017.5
358.96 -269.22 2036.1
357.45 -264.20 1998.2
355.38 -258.92 1958.2
365.33 -262.42 1984.7
387.71 -267.20 2020.9
394.84 -268.49 2030.6
386.69 -259.49 1962.5
406.93 -262.70 1986.8
468.75 -254.32 1923.4
473.93 -254.43 1924.2
480.55 -255.29 1930.8
486.72 -255.90 1935.4
494.37 -257.27 1945.8
513.66 -264.61 2001.3
525.74 -268.13 2027.9
523.38 -264.28 1998.8
527.98 -263.99 1996.6
535.12 -264.96 2003.9
532.48 -261.12 1974.9
540.65 -262.60 1986.0
545.70 -262.56 1985.7
531.13 -253.16 1914.6
588.80 -263.41 1992.2
583.35 -258.70 1956.6
599.77 -254.90 1927.8
602.84 -254.09 1921.7
603.79 -252.40 1908.9
610.70 -253.22 1915.1
618.55 -254.40 1924.1
622.46 -253.97 1920.7
627.59 -254.02 1921.2
647.52 -258.00 1951.2
662.47 -261.91 1980.8
657.90 -258.10 1952.0
651.93 -248.12 1876.5
656.27 -247.92 1875.1
672.81 -252.30 1908.2
686.52 -255.56 1932.8
689.36 -252.93 1912.9
703.57 -256.30 1938.4
714.14 -258.31 1953.6
719.04 -252.90 1912.7
769.81 -261.74 1979.5
757.18 -252.39 1908.9
765.51 -253.51 1917.3
779.05 -256.33 1938.7
796.41 -260.36 1969.1
797.43 -259.04 1959.1
804.05 -259.54 1962.9
808.42 -259.30 1961.1
796.03 -253.74 1919.0
810.61 -256.78 1942.0
832.58 -262.11 1982.3
815.32 -255.10 1929.3
822.24 -254.15 1922.1
831.56 -255.48 1932.2
850.39 -259.70 1964.1
866.57 -263.07 1989.6
865.34 -261.14 1975.0
853.22 -255.97 1935.9
917.86 -265.97 2011.5
230.85 -272.82 2023.7
248.96 -269.71 2000.6
294.66 -273.61 2029.5
298.65 -272.46 2021.0
302.60 -271.30 2012.4
306.80 -270.40 2005.7
318.04 -271.12 2011.0
338.23 -266.48 1976.6
339.30 -263.34 1953.3
358.63 -266.41 1976.1
364.67 -267.08 1981.1
368.18 -265.91 1972.4
413.16 -271.95 2017.2
415.56 -270.12 2003.6
426.15 -263.81 1956.8
422.04 -258.19 1915.1
438.93 -256.45 1902.2
455.77 -263.34 1953.3
462.17 -264.10 1959.0
471.64 -258.16 1914.9
479.20 -259.57 1925.4
496.72 -266.28 1975.2
515.21 -273.38 2027.8
515.22 -270.62 2007.3
525.02 -267.66 1985.4
536.49 -270.85 2009.0
538.77 -269.38 1998.2
536.57 -265.73 1971.1
531.60 -260.79 1934.4
529.11 -257.14 1907.3
532.37 -256.32 1901.3
571.83 -258.57 1917.9
613.34 -263.59 1955.2
620.35 -264.41 1961.3
615.64 -260.27 1930.6
616.16 -256.32 1901.3
649.20 -263.74 1956.3
667.30 -268.99 1995.2
667.20 -266.88 1979.6
653.63 -259.46 1924.5
693.88 -257.73 1911.7
697.58 -257.26 1908.3
701.63 -253.37 1879.4
731.39 -262.29 1945.6
754.58 -265.12 1966.6
759.03 -264.90 1964.9
749.45 -258.09 1914.4
771.95 -264.09 1958.9
769.03 -261.37 1938.7
760.50 -256.79 1904.8
754.78 -253.21 1878.2
752.65 -250.88 1860.9
802.69 -264.18 1959.6
811.59 -265.42 1968.8
804.17 -261.35 1938.6
806.93 -260.62 1933.2
816.97 -262.24 1945.2
855.25 -267.91 1987.3
858.82 -267.42 1983.6
858.00 -265.57 1969.9
839.60 -258.34 1916.2
889.53 -267.37 1983.3
901.98 -269.56 1999.5
904.66 -268.81 1993.9
892.88 -263.81 1956.8
883.84 -259.66 1926.0
106.30 -281.69 2050.0
194.89 -279.17 2031.7
197.10 -274.90 2000.6
201.04 -273.20 1988.3
250.71 -276.83 2014.7
264.96 -275.35 2003.9
281.57 -271.33 1974.7
287.58 -272.18 1980.8
290.15 -269.79 1963.4
298.52 -272.79 1985.2
307.60 -276.32 2010.9
309.65 -273.52 1990.6
317.47 -275.83 2007.4
335.28 -277.65 2020.6
330.82 -269.75 1963.1
330.59 -265.47 1932.0
339.02 -268.18 1951.7
345.99 -269.67 1962.6
351.63 -270.09 1965.6
354.44 -268.36 1953.0
358.09 -267.30 1945.3
363.69 -267.72 1948.3
362.86 -263.45 1917.3
377.23 -263.07 1914.5
398.18 -270.56 1969.0
412.23 -276.56 2012.7
417.44 -276.55 2012.6
433.97 -264.38 1924.0
440.49 -265.29 1930.7
447.92 -266.74 1941.2
458.33 -269.90 1964.3
459.74 -267.76 1948.7
481.45 -268.60 1954.7
477.85 -263.81 1919.9
483.50 -264.18 1922.6
500.64 -270.75 1970.4
501.50 -268.48 1953.9
523.37 -264.18 1922.6
560.41 -267.58 1947.4
559.20 -259.98 1892.0
575.33 -265.15 1929.7
571.65 -261.18 1900.8
615.67 -267.46 1946.5
627.20 -263.82 1920.0
639.76 -266.99 1943.0
649.31 -268.85 1956.6
658.28 -270.46 1968.3
666.99 -271.93 1979.0
663.63 -268.49 1954.0
683.51 -258.76 1883.1
689.19 -259.06 1885.3
691.11 -257.95 1877.3
702.64 -260.42 1895.2
711.13 -261.73 1904.8
715.47 -261.52 1903.2
720.50 -261.55 1903.5
725.88 -261.71 1904.6
733.04 -262.51 1910.4
757.17 -264.01 1921.4
753.44 -260.99 1899.4
756.23 -260.26 1894.1
762.32 -260.66 1897.0
763.95 -259.55 1888.9
789.48 -266.51 1939.6
797.19 -267.41 1946.1
787.15 -262.38 1909.5
796.33 -263.78 1919.7
815.48 -268.45 1953.7
836.18 -266.97 1942.9
840.83 -266.85 1942.0
835.17 -263.48 1917.5
856.54 -265.48 1932.0
884.98 -272.70 1984.6
886.84 -271.69 1977.3
912.33 -277.89 2022.4
931.86 -282.22 2053.9
915.28 -275.62 2005.9
134.81 -280.00 2000.0
187.48 -281.23 2008.8
186.97 -272.88 1949.1
204.15 -268.88 1920.6
214.86 -276.25 1973.2
247.20 -278.10 1986.5
252.77 -278.57 1989.8
254.28 -274.63 1961.6
256.30 -271.37 1938.4
276.32 -276.32 1973.7
279.94 -274.85 1963.2
282.93 -272.83 1948.8
323.14 -268.45 1917.5
341.50 -279.41 1995.8
346.02 -278.88 1992.0
349.14 -277.26 1980.4
348.89 -273.04 1950.3
355.45 -270.34 1931.0
367.75 -275.81 1970.1
368.63 -272.69 1947.8
371.45 -271.06 1936.1
374.59 -269.71 1926.5
387.24 -268.09 1914.9
395.79 -270.54 1932.4
423.90 -266.17 1901.2
437.53 -271.57 1939.8
439.02 -269.40 1924.3
447.32 -271.41 1938.6
458.62 -275.17 1965.5
459.59 -272.72 1948.0
457.94 -268.79 1919.9
472.28 -271.31 1937.9
476.07 -270.61 1932.9
470.99 -264.93 1892.4
475.12 -264.50 1889.3
491.44 -270.80 1934.3
499.36 -272.38 1945.6
499.12 -269.52 1925.2
530.94 -275.68 1969.1
532.31 -273.76 1955.4
533.53 -269.26 1923.3
544.04 -272.02 1943.0
544.14 -269.57 1925.5
556.92 -273.39 1952.8
566.26 -275.48 1967.7
553.28 -266.76 1905.4
571.94 -270.92 1935.1
588.45 -276.32 1973.7
584.31 -272.00 1942.9
580.58 -267.96 1914.0
587.16 -268.70 1919.3
594.56 -265.34 1895.3
601.13 -266.07 1900.5
635.22 -270.09 1929.2
652.22 -275.16 1965.4
650.84 -272.45 1946.0
648.10 -269.21 1922.9
665.97 -274.52 1960.9
670.85 -274.44 1960.3
648.26 -263.20 1880.0
659.92 -263.97 1885.5
694.67 -271.83 1941.6
685.02 -266.12 1900.9
683.30 -263.56 1882.6
698.85 -267.64 1911.7
711.11 -270.42 1931.6
712.07 -268.89 1920.7
708.83 -265.81 1898.6
718.04 -267.41 1910.0
729.05 -269.65 1926.1
715.06 -262.68 1876.3
748.45 -264.16 1886.9
762.98 -267.54 1911.0
782.79 -272.71 1948.0
799.04 -276.59 1975.7
801.96 -275.83 1970.2
789.05 -269.68 1926.3
779.73 -264.81 1891.5
814.85 -273.31 1952.2
808.03 -269.34 1923.9
821.95 -270.64 1933.2
845.31 -276.65 1976.1
851.61 -277.03 1978.8
853.58 -276.01 1971.5
845.22 -271.68 1940.6
837.91 -267.74 1912.4
850.88 -270.28 1930.6
872.36 -275.48 1967.7
872.19 -273.83 1955.9
868.72 -271.16 1936.9
889.22 -275.96 1971.2
912.33 -281.52 2010.8
5.04 -277.25 1944.3
111.30 -291.51 2044.3
115.80 -289.49 2030.2
130.18 -286.40 2008.5
133.70 -282.83 1983.5
151.72 -287.74 2017.9
157.46 -288.67 2024.5
160.14 -284.11 1992.5
190.59 -283.31 1986.9
210.93 -276.21 1937.1
234.74 -280.66 1968.3
240.13 -281.00 1970.6
241.49 -276.71 1940.6
243.20 -272.98 1914.4
253.30 -278.63 1954.0
263.86 -284.56 1995.6
266.96 -282.37 1980.2
270.25 -280.45 1966.8
274.85 -279.94 1963.2
287.95 -282.81 1983.4
296.32 -285.92 2005.2
321.54 -272.08 1908.1
339.38 -282.82 1983.4
344.38 -282.70 1982.6
347.02 -276.61 1939.9
346.42 -272.18 1908.8
358.74 -277.89 1948.9
371.98 -284.15 1992.8
374.40 -282.08 1978.2
376.92 -280.14 1964.6
380.32 -278.90 1955.9
385.05 -275.03 1928.8
386.32 -272.41 1910.4
411.92 -272.96 1914.2
428.04 -280.27 1965.5
435.68 -281.91 1977.0
438.41 -280.38 1966.3
440.00 -278.16 1950.7
438.87 -274.29 1923.6
444.27 -274.55 1925.4
456.22 -278.80 1955.2
457.39 -276.44 1938.7
455.71 -272.44 1910.6
467.24 -267.69 1877.3
487.28 -276.30 1937.7
493.96 -277.22 1944.2
492.29 -273.50 1918.0
496.71 -273.19 1915.9
516.28 -275.68 1933.4
546.19 -286.10 2006.4
536.07 -278.15 1950.6
543.95 -279.60 1960.8
568.68 -284.34 1994.1
558.12 -276.55 1939.4
558.90 -274.46 1924.8
568.80 -276.85 1941.5
576.53 -278.15 1950.7
576.65 -275.79 1934.1
582.12 -276.00 1935.6
588.45 -276.62 1939.9
595.95 -277.77 1948.0
601.45 -277.98 1949.5
599.00 -274.54 1925.4
598.81 -272.19 1908.8
595.85 -268.62 1883.8
639.21 -274.66 1926.2
639.32 -272.58 1911.6
661.61 -277.78 1948.0
673.21 -280.50 1967.2
658.07 -272.13 1908.5
659.57 -270.72 1898.5
681.97 -277.84 1948.5
691.75 -279.75 1961.9
702.58 -282.06 1978.1
706.80 -281.70 1975.5
692.53 -274.02 1921.7
689.85 -271.01 1900.6
705.09 -275.04 1928.8
718.07 -278.13 1950.5
720.12 -276.97 1942.4
718.66 -274.49 1925.0
730.02 -276.90 1941.9
734.79 -276.80 1941.2
732.26 -270.30 1895.6
745.16 -273.23 1916.1
746.95 -272.07 1908.0
754.52 -273.02 1914.7
761.38 -273.70 1919.4
757.23 -270.44 1896.6
758.52 -269.15 1887.6
769.80 -271.41 1903.4
812.03 -274.00 1921.5
832.56 -279.21 1958.1
846.62 -282.21 1979.1
860.76 -285.19 2000.0
870.70 -285.05 1999.1
871.09 -283.49 1988.1
857.42 -277.40 1945.4
882.02 -278.80 1955.2
898.53 -282.40 1980.4
911.44 -284.83 1997.5
929.80 -288.92 2026.2
31.71 -295.94 2038.4
82.69 -289.41 1993.4
100.19 -280.52 1932.2
109.16 -291.10 2005.0
121.76 -296.47 2042.0
126.30 -294.70 2029.8
132.44 -296.66 2043.3
133.92 -288.44 1986.7
158.49 -286.31 1972.0
167.01 -292.27 2013.1
207.55 -290.57 2001.4
210.17 -287.07 1977.2
209.67 -279.56 1925.5
231.84 -282.24 1944.0
236.69 -282.01 1942.4
238.23 -277.93 1914.3
245.70 -275.19 1895.4
255.21 -280.23 1930.1
258.01 -277.86 1913.8
288.28 -288.28 1985.6
296.21 -291.01 2004.4
294.82 -284.65 1960.6
317.18 -286.49 1973.2
322.49 -286.65 1974.4
328.67 -283.16 1950.3
336.76 -285.73 1968.1
341.71 -285.61 1967.2
344.94 -284.07 1956.6
345.51 -280.41 1931.4
345.59 -276.47 1904.2
352.87 -278.32 1917.0
360.22 -280.17 1929.8
372.42 -285.69 1967.8
385.56 -291.77 2009.7
388.69 -290.22 1999.0
389.47 -286.98 1976.7
391.50 -284.73 1961.1
391.29 -280.93 1934.9
398.69 -282.62 1946.6
426.42 -284.28 1958.0
432.33 -284.83 1961.8
433.95 -282.57 1946.3
439.19 -282.70 1947.2
449.95 -276.89 1907.2
459.00 -279.39 1924.4
463.72 -279.23 1923.3
463.98 -276.42 1903.9
471.14 -274.83 1893.0
485.43 -280.25 1930.3
487.45 -278.54 1918.5
524.67 -279.82 1927.4
536.41 -283.39 1951.9
538.73 -281.95 1942.0
554.09 -287.31 1978.9
563.97 -289.75 1995.7
556.27 -283.19 1950.6
546.16 -275.54 1897.8
559.70 -277.37 1910.5
569.88 -279.94 1928.2
570.51 -277.82 1913.5
576.50 -278.31 1916.9
581.92 -278.53 1918.4
588.80 -279.43 1924.6
607.67 -285.96 1969.6
618.52 -288.64 1988.1
612.84 -283.63 1953.6
603.72 -277.12 1908.7
599.19 -272.80 1879.0
611.80 -276.30 1903.1
629.02 -275.20 1895.5
640.68 -278.12 1915.6
653.69 -281.59 1939.5
660.76 -282.46 1945.5
657.91 -279.11 1922.5
666.18 -278.40 1917.6
685.68 -284.43 1959.1
692.84 -285.29 1965.0
688.09 -281.26 1937.3
676.54 -274.54 1890.9
686.60 -276.62 1905.3
708.55 -283.42 1952.1
709.63 -281.84 1941.2
708.25 -279.31 1923.8
699.56 -273.95 1886.9
722.62 -277.17 1909.1
744.16 -279.69 1926.4
747.80 -279.18 1922.9
744.91 -276.26 1902.8
747.01 -275.22 1895.6
749.45 -274.31 1889.4
740.46 -269.26 1854.6
747.20 -269.95 1859.4
793.22 -279.37 1924.3
797.12 -273.86 1886.3
805.93 -275.20 1895.5
818.28 -277.72 1912.9
829.93 -279.98 1928.4
836.12 -280.38 1931.2
831.24 -277.08 1908.5
838.59 -277.88 1914.0
833.17 -274.46 1890.4
890.48 -284.95 1962.7
921.46 -293.19 2019.4
30.74 -292.05 1976.3
82.13 -292.57 1979.8
87.82 -294.44 1992.4
98.22 -294.66 1994.0
100.30 -285.86 1934.4
114.13 -295.71 2001.1
117.01 -289.98 1962.2
123.24 -292.70 1980.7
130.92 -298.49 2019.9
134.20 -294.21 1990.9
181.58 -295.72 2001.1
187.37 -296.67 2007.6
202.88 -289.11 1956.4
210.34 -285.47 1931.7
216.17 -286.55 1939.1
248.11 -277.30 1876.5
256.06 -280.69 1899.4
260.36 -280.01 1894.8
265.46 -280.20 1896.1
282.01 -292.26 1977.7
290.16 -295.34 1998.6
286.70 -286.70 1940.1
325.62 -281.22 1903.0
332.78 -283.11 1915.8
339.67 -284.72 1926.7
343.64 -283.88 1921.0
366.58 -286.24 1936.9
383.74 -295.58 2000.2
385.13 -288.84 1954.6
379.54 -280.96 1901.2
387.23 -282.97 1914.9
401.92 -290.00 1962.4
410.83 -292.71 1980.8
423.44 -283.96 1921.5
422.81 -280.24 1896.3
446.61 -279.75 1893.0
461.14 -285.70 1933.3
472.38 -289.52 1959.2
476.01 -288.64 1953.2
475.82 -285.49 1931.9
470.98 -279.64 1892.3
480.70 -279.59 1892.0
480.63 -276.73 1872.6
541.09 -285.57 1932.5
559.47 -292.57 1979.8
556.62 -288.43 1951.8
551.72 -283.32 1917.2
566.19 -285.60 1932.6
573.61 -286.81 1940.8
571.73 -283.38 1917.6
575.45 -282.76 1913.4
579.43 -282.28 1910.2
588.31 -284.18 1923.0
608.34 -291.39 1971.8
621.54 -295.23 1997.8
619.75 -291.95 1975.6
621.13 -290.20 1963.8
626.37 -290.27 1964.2
630.39 -289.77 1960.9
630.72 -287.61 1946.2
627.25 -279.32 1890.1
636.07 -281.05 1901.9
657.58 -288.33 1951.1
672.96 -292.81 1981.5
663.46 -286.49 1938.7
667.78 -281.95 1907.9
676.80 -283.66 1919.5
673.94 -280.40 1897.4
673.64 -278.24 1882.9
694.77 -284.90 1927.9
712.38 -290.04 1962.7
708.72 -286.50 1938.7
699.81 -280.91 1900.9
809.04 -293.73 1987.6
807.46 -291.30 1971.2
796.74 -285.62 1932.8
794.96 -283.20 1916.4
808.37 -286.19 1936.6
823.01 -289.58 1959.5
822.71 -287.70 1946.8
815.75 -283.52 1918.6
810.62 -280.03 1895.0
832.41 -285.83 1934.2
848.85 -289.73 1960.6
822.12 -275.65 1865.3
860.32 -286.77 1940.6
851.21 -282.09 1908.9
920.39 -293.09 1983.3
0.00 -299.18 1989.6
5.19 -301.26 2003.5
10.37 -300.81 2000.5
25.76 -298.86 1987.5
30.79 -297.66 1979.5
41.57 -301.35 2004.0
71.95 -298.10 1982.4
82.30 -298.34 1984.0
88.78 -302.91 2014.4
94.59 -304.81 2027.0
99.84 -304.77 2026.8
102.26 -296.56 1972.2
125.78 -303.96 2021.4
137.68 -307.12 2042.5
140.88 -302.62 2012.5
143.85 -297.97 1981.6
147.47 -294.95 1961.5
152.30 -294.45 1958.1
177.41 -293.99 1955.1
183.63 -295.84 1967.4
195.90 -291.33 1937.4
201.99 -292.89 1947.8
214.55 -296.28 1970.3
220.36 -297.23 1976.7
221.95 -292.57 1945.6
254.24 -289.14 1922.8
260.20 -290.22 1930.0
264.44 -289.38 1924.5
269.75 -289.73 1926.8
277.30 -292.42 1944.7
288.28 -288.28 1917.1
337.31 -287.70 1913.3
342.12 -287.58 1912.5
369.99 -289.99 1928.5
378.21 -292.49 1945.1
384.14 -285.65 1899.6
416.85 -287.82 1914.1
422.44 -288.25 1917.0
423.09 -285.34 1897.6
424.95 -283.30 1884.0
440.38 -290.25 1930.2
457.60 -298.21 1983.2
457.76 -295.00 1961.8
453.72 -289.19 1923.2
461.43 -290.90 1934.6
471.51 -294.06 1955.6
474.43 -292.73 1946.8
469.49 -286.64 1906.2
480.29 -284.25 1890.3
491.53 -287.97 1915.1
501.91 -291.11 1935.9
549.37 -289.67 1926.4
552.90 -288.90 1921.3
562.47 -291.28 1937.1
567.10 -291.08 1935.7
565.56 -287.74 1913.5
569.56 -287.25 1910.3
578.95 -289.48 1925.1
586.69 -290.84 1934.2
598.82 -294.33 1957.4
611.34 -297.96 1981.5
617.80 -298.60 1985.8
614.20 -294.41 1957.9
614.35 -292.07 1942.3
618.93 -291.85 1940.9
622.60 -291.21 1936.6
633.56 -293.97 1955.0
634.46 -292.05 1942.2
626.94 -286.32 1904.1
628.28 -284.69 1893.3
633.65 -284.90 1894.6
650.72 -290.32 1930.7
663.82 -293.90 1954.5
651.70 -286.35 1904.3
661.01 -283.99 1888.6
663.08 -282.78 1880.6
676.70 -286.49 1905.2
694.10 -291.72 1940.0
687.15 -286.72 1906.8
695.90 -286.26 1903.7
711.21 -290.49 1931.8
702.89 -285.09 1895.9
703.75 -283.46 1885.0
712.93 -285.17 1896.5
746.18 -290.46 1931.6
756.64 -292.57 1945.7
759.59 -291.76 1940.3
809.53 -299.06 1988.8
819.13 -298.80 1987.1
823.17 -298.40 1984.4
814.21 -293.32 1950.6
804.72 -288.11 1916.0
805.48 -286.61 1906.0
798.44 -282.37 1877.9
823.53 -287.74 1913.5
847.40 -294.31 1957.2
837.44 -285.71 1900.1
862.05 -292.39 1944.5
918.00 -302.52 2011.9
-51.26 -302.46 1977.3
-41.82 -308.39 2016.1
-26.04 -307.22 2008.5
-15.51 -304.97 1993.8
-5.18 -305.58 1997.8
0.00 -301.20 1969.1
5.07 -299.38 1957.2
10.35 -305.28 1995.8
35.48 -299.03 1954.9
40.32 -297.36 1944.0
119.68 -307.02 2007.1
126.10 -309.99 2026.6
130.31 -307.52 2010.4
134.50 -305.21 1995.3
138.13 -301.84 1973.3
141.72 -298.62 1952.2
146.23 -297.51 1945.0
155.31 -305.44 1996.8
159.74 -304.02 1987.5
166.27 -297.26 1943.4
171.09 -296.90 1941.0
177.34 -298.94 1954.3
187.69 -307.60 2011.0
195.02 -302.79 1979.5
195.82 -296.25 1936.7
202.73 -299.03 1954.9
208.79 -300.45 1964.2
214.68 -301.57 1971.5
218.85 -300.29 1963.1
222.76 -298.70 1952.8
236.26 -303.03 1981.1
242.16 -303.99 1987.4
246.26 -302.70 1978.9
247.58 -298.10 1948.8
254.07 -299.81 1960.0
261.53 -302.56 1978.0
258.51 -293.31 1917.5
289.94 -294.93 1928.1
329.78 -299.34 1957.0
335.38 -299.81 1960.0
334.74 -294.77 1927.1
362.55 -297.09 1942.2
360.98 -291.75 1907.3
367.81 -293.25 1917.1
385.96 -291.95 1908.6
414.80 -291.35 1904.7
420.79 -292.08 1909.5
423.80 -290.74 1900.7
466.06 -292.53 1912.4
466.96 -290.01 1895.9
474.78 -288.78 1887.9
488.88 -294.33 1924.2
499.23 -297.52 1945.0
504.00 -285.93 1869.2
546.41 -290.43 1898.7
552.34 -290.96 1902.2
553.55 -289.02 1889.5
560.31 -289.98 1895.8
571.90 -293.41 1918.2
580.46 -295.23 1930.1
587.35 -296.18 1936.3
611.71 -300.76 1966.2
620.50 -302.56 1978.0
609.96 -294.98 1928.4
603.08 -289.28 1891.2
605.12 -287.92 1882.3
613.51 -289.58 1893.1
620.41 -290.51 1899.2
619.61 -287.85 1881.8
624.01 -287.63 1880.4
630.61 -288.42 1885.5
644.74 -288.18 1884.0
653.96 -290.10 1896.6
664.53 -292.59 1912.8
669.76 -290.56 1899.5
683.42 -294.32 1924.1
692.53 -296.08 1935.6
678.19 -287.86 1881.9
708.84 -292.46 1912.0
695.90 -285.12 1864.0
704.03 -284.51 1860.0
726.59 -291.62 1906.5
736.59 -293.64 1919.7
737.72 -292.12 1909.7
756.39 -297.51 1945.0
766.55 -299.51 1958.1
760.43 -295.17 1929.7
756.38 -291.67 1906.8
754.41 -289.03 1889.5
752.00 -286.25 1871.3
780.89 -293.46 1918.5
806.18 -301.04 1968.1
809.81 -300.49 1964.5
813.03 -299.81 1960.0
796.40 -290.05 1896.2
798.66 -289.09 1889.9
795.85 -286.31 1871.8
808.38 -287.32 1878.3
844.76 -293.18 1916.7
842.10 -290.55 1899.5
869.80 -296.64 1939.3
890.29 -301.88 1973.5
-51.65 -309.93 1992.4
-46.77 -311.79 2004.4
-41.33 -309.96 1992.6
-20.10 -301.56 1938.6
-15.36 -307.25 1975.2
-5.26 -315.71 2029.6
0.00 -304.80 1959.4
5.10 -306.18 1968.3
10.48 -314.48 2021.7
15.79 -315.86 2030.5
20.29 -304.32 1956.4
100.80 -302.41 1944.0
159.12 -307.98 1979.9
164.39 -308.22 1981.4
172.01 -312.75 2010.6
178.06 -314.22 2020.0
178.52 -306.03 1967.4
182.93 -304.89 1960.0
191.46 -310.48 1995.9
192.52 -303.98 1954.2
192.37 -295.95 1902.5
208.29 -297.55 1912.8
215.48 -300.68 1932.9
222.56 -303.49 1951.0
227.21 -302.95 1947.5
231.61 -302.10 1942.0
240.40 -306.89 1972.9
248.00 -310.00 1992.8
247.48 -303.04 1948.1
251.94 -302.33 1943.6
259.10 -304.82 1959.6
256.43 -295.89 1902.1
258.86 -293.04 1883.9
268.03 -297.81 1914.5
271.09 -295.73 1901.1
279.33 -299.28 1923.9
326.54 -301.42 1937.7
328.92 -299.02 1922.3
334.10 -299.20 1923.4
341.00 -300.88 1934.3
365.80 -296.60 1906.7
379.82 -303.85 1953.4
383.36 -302.65 1945.6
378.73 -295.12 1897.2
381.70 -293.62 1887.5
469.62 -296.60 1906.7
480.50 -300.31 1930.6
478.22 -295.80 1901.6
479.20 -293.39 1886.1
487.98 -295.75 1901.2
492.36 -295.42 1899.1
497.73 -295.68 1900.8
507.20 -295.46 1899.4
514.63 -296.90 1908.7
533.79 -291.16 1871.7
540.74 -292.29 1879.0
570.85 -297.83 1914.6
578.83 -299.39 1924.7
585.70 -300.36 1930.9
589.42 -299.71 1926.7
609.33 -302.15 1942.4
619.59 -304.71 1958.9
595.05 -290.27 1866.0
662.44 -298.84 1921.1
679.88 -304.43 1957.0
680.20 -297.90 1915.1
692.95 -301.28 1936.8
690.70 -298.14 1916.6
685.32 -293.71 1888.1
701.03 -294.14 1890.9
701.69 -288.37 1853.8
734.59 -288.07 1851.9
775.59 -292.67 1881.5
799.94 -294.46 1892.9
799.07 -292.34 1879.4
818.78 -297.74 1914.0
844.12 -305.10 1961.4
846.45 -304.12 1955.0
848.36 -302.99 1947.8
849.83 -301.72 1939.6
852.47 -300.87 1934.2
870.32 -305.37 1963.1
891.52 -310.99 1999.3
893.42 -309.86 1991.9
881.04 -303.81 1953.0
896.55 -303.91 1953.7
-55.16 -305.89 1934.2
-51.43 -313.72 1983.7
-45.78 -310.30 1962.1
-40.66 -310.01 1960.2
-35.34 -307.99 1947.5
-25.84 -315.20 1993.1
-20.32 -309.90 1959.5
-15.30 -311.00 1966.5
-10.34 -315.38 1994.2
0.00 -302.88 1915.2
5.13 -312.88 1978.4
10.21 -311.32 1968.5
14.88 -302.56 1913.2
68.68 -299.26 1892.3
75.96 -308.91 1953.3
80.89 -308.41 1950.1
91.81 -311.15 1967.4
98.80 -317.19 2005.7
103.32 -315.12 1992.6
104.98 -304.94 1928.2
123.50 -301.33 1905.4
128.55 -301.59 1907.0
131.05 -296.09 1872.2
138.10 -300.86 1902.4
147.89 -311.09 1967.1
164.71 -304.46 1925.1
172.87 -310.15 1961.1
176.40 -307.43 1944.0
178.36 -302.23 1911.0
184.22 -303.71 1920.4
191.86 -307.99 1947.5
198.65 -310.71 1964.7
203.18 -309.86 1959.3
207.58 -308.84 1952.9
212.37 -308.45 1950.4
219.01 -310.69 1964.6
220.46 -305.64 1932.6
227.42 -301.58 1907.0
239.94 -311.42 1969.1
254.23 -316.49 2001.2
248.80 -303.53 1919.3
245.53 -293.67 1857.0
256.47 -300.85 1902.4
272.74 -313.91 1984.9
278.61 -314.73 1990.1
282.62 -307.86 1946.6
286.84 -306.97 1941.1
287.21 -302.07 1910.0
298.56 -303.54 1919.3
298.79 -298.79 1889.3
348.25 -312.40 1975.4
350.26 -309.65 1958.0
370.62 -301.44 1906.0
381.50 -306.20 1936.2
384.59 -304.67 1926.5
384.10 -300.39 1899.4
395.43 -297.80 1883.0
406.48 -302.38 1912.0
419.54 -308.34 1949.7
420.59 -305.43 1931.3
419.84 -301.30 1905.2
442.43 -299.87 1896.1
458.48 -300.72 1901.5
479.60 -304.75 1927.0
485.51 -305.32 1930.6
483.16 -300.74 1901.7
488.29 -300.87 1902.4
493.17 -300.83 1902.2
499.04 -301.40 1905.8
518.82 -304.31 1924.2
531.26 -308.64 1951.6
527.59 -303.61 1919.8
535.66 -305.38 1930.9
548.84 -309.99 1960.1
559.20 -312.95 1978.8
549.59 -304.77 1927.1
556.20 -300.25 1898.5
568.87 -304.39 1924.7
577.98 -306.58 1938.6
579.18 -304.57 1925.9
579.18 -301.96 1909.4
590.08 -305.04 1928.8
585.33 -300.04 1897.2
601.41 -303.19 1917.1
622.64 -311.32 1968.5
609.56 -302.30 1911.5
631.23 -303.19 1917.1
627.65 -296.80 1876.7
641.82 -301.16 1904.3
672.50 -306.14 1935.8
675.35 -305.16 1929.6
705.04 -311.65 1970.6
705.32 -307.32 1943.2
705.10 -298.69 1888.7
708.71 -298.15 1885.2
708.80 -296.14 1872.6
746.93 -295.86 1870.8
752.97 -296.33 1873.7
751.22 -293.75 1857.4
792.42 -298.38 1886.7
805.83 -301.57 1906.9
807.71 -300.43 1899.7
830.96 -307.20 1942.5
854.01 -313.82 1984.4
852.85 -311.52 1969.8
853.61 -309.94 1959.8
853.92 -308.22 1948.9
864.21 -306.49 1938.0
873.28 -307.92 1947.0
864.47 -303.06 1916.3
889.17 -308.18 1948.7
-113.18 -318.96 1984.3
-94.53 -308.47 1919.1
-92.05 -317.07 1972.6
-72.24 -319.90 1990.2
-39.78 -308.30 1918.0
-34.59 -306.41 1906.2
-29.75 -307.37 1912.2
-25.51 -316.27 1967.6
-20.33 -315.17 1960.7
-14.68 -303.43 1887.7
30.30 -313.09 1947.8
35.13 -311.17 1935.8
69.48 -307.69 1914.2
76.43 -315.90 1965.3
81.11 -314.29 1955.2
86.08 -313.94 1953.1
93.25 -321.19 1998.2
98.76 -322.26 2004.9
101.85 -315.72 1964.2
104.99 -309.98 1928.4
107.78 -303.75 1889.7
113.78 -306.72 1908.2
122.45 -316.33 1968.0
126.38 -313.43 1949.9
127.63 -304.35 1893.5
131.35 -301.61 1876.4
139.55 -309.00 1922.3
147.84 -316.06 1966.3
149.69 -309.35 1924.6
161.44 -303.31 1887.0
169.07 -308.31 1918.0
173.65 -307.61 1913.7
177.10 -305.01 1897.5
184.80 -309.67 1926.5
194.21 -316.86 1971.3
200.26 -318.36 1980.6
204.43 -316.86 1971.3
210.42 -318.20 1979.6
216.67 -319.85 1989.8
219.69 -316.76 1970.6
231.07 -311.45 1937.6
237.22 -312.93 1946.8
241.46 -311.89 1940.3
260.45 -310.54 1931.9
271.83 -317.99 1978.3
272.48 -312.85 1946.3
289.04 -314.40 1955.9
297.38 -317.89 1977.7
297.47 -312.59 1944.7
298.14 -308.08 1916.6
306.23 -311.26 1936.4
314.11 -314.11 1954.1
315.39 -310.38 1930.9
319.46 -309.47 1925.3
324.31 -309.35 1924.5
328.33 -308.43 1918.8
333.50 -308.62 1920.0
341.94 -311.77 1939.6
349.95 -314.44 1956.2
346.75 -307.12 1910.7
369.53 -305.48 1900.5
378.29 -308.61 1919.9
381.73 -307.37 1912.2
388.29 -304.73 1895.8
395.41 -306.45 1906.5
401.98 -307.69 1914.2
415.57 -314.21 1954.8
431.58 -314.80 1958.5
423.10 -305.03 1897.6
445.87 -314.14 1954.3
448.03 -312.11 1941.7
445.85 -307.14 1910.8
452.03 -304.63 1895.2
462.70 -308.47 1919.1
481.95 -308.05 1916.5
491.98 -311.25 1936.4
493.02 -308.76 1920.8
493.48 -305.96 1903.4
496.85 -305.00 1897.5
515.02 -307.03 1910.1
531.58 -313.89 1952.7
531.85 -311.08 1935.3
532.02 -308.28 1917.8
537.71 -308.69 1920.4
560.34 -318.72 1982.8
564.02 -317.90 1977.7
574.06 -314.97 1959.5
588.27 -319.93 1990.4
587.09 -316.52 1969.1
578.12 -308.99 1922.3
587.44 -306.06 1904.1
600.76 -310.39 1931.0
619.55 -312.29 1942.8
620.80 -310.40 1931.1
622.29 -308.66 1920.2
636.32 -313.11 1947.9
654.70 -314.66 1957.6
656.75 -313.22 1948.6
675.76 -310.35 1930.7
688.12 -313.70 1951.6
687.00 -310.91 1934.2
693.79 -311.70 1939.2
697.92 -311.30 1936.7
684.49 -303.13 1885.8
709.19 -309.65 1926.4
703.63 -305.07 1897.9
709.85 -303.52 1888.3
716.95 -304.46 1894.1
711.04 -299.89 1865.7
744.13 -307.58 1913.5
758.55 -311.46 1937.6
769.44 -313.85 1952.5
772.74 -313.13 1948.1
777.48 -313.01 1947.3
781.84 -312.74 1945.6
778.77 -309.51 1925.5
771.89 -304.82 1896.4
786.36 -306.63 1907.6
789.46 -305.92 1903.2
781.87 -301.09 1873.2
792.91 -303.46 1887.9
802.47 -305.23 1898.9
800.47 -302.62 1882.6
808.50 -303.80 1890.0
862.31 -310.83 1933.8
880.27 -315.47 1962.6
881.67 -314.16 1954.4
889.57 -315.16 1960.7
922.95 -321.48 2000.0
-165.50 -315.95 1934.4
-148.00 -321.51 1968.4
-144.64 -325.43 1992.4
-139.70 -325.97 1995.7
-124.36 -326.45 1998.7
-90.87 -318.03 1947.1
-82.79 -325.99 1995.9
-74.48 -312.81 1915.2
-39.68 -312.50 1913.2
-34.67 -312.03 1910.4
-19.86 -312.87 1915.5
25.73 -324.14 1984.5
41.07 -323.46 1980.3
45.15 -316.02 1934.8
50.47 -317.94 1946.6
55.40 -317.27 1942.5
59.60 -312.90 1915.7
70.42 -316.87 1940.0
76.74 -322.32 1973.4
80.75 -317.94 1946.6
84.96 -314.84 1927.6
92.15 -322.54 1974.7
97.80 -324.27 1985.3
100.48 -316.50 1937.8
103.18 -309.54 1895.1
106.33 -304.50 1864.3
112.62 -308.48 1888.7
120.01 -315.03 1928.8
122.82 -309.51 1895.0
125.12 -303.19 1856.2
141.71 -307.85 1884.8
164.07 -313.22 1917.7
181.81 -309.57 1895.3
191.71 -317.83 1945.9
198.49 -320.64 1963.1
200.37 -315.59 1932.2
204.08 -313.58 1919.9
210.81 -316.22 1936.1
217.15 -310.92 1903.6
224.88 -314.83 1927.6
232.85 -318.90 1952.5
235.57 -315.77 1933.3
258.50 -313.19 1917.5
261.24 -310.53 1901.2
266.48 -310.90 1903.5
270.91 -310.31 1899.9
277.86 -312.59 1913.8
290.66 -321.25 1966.9
294.84 -309.58 1895.4
304.88 -314.87 1927.8
316.18 -321.28 1967.0
320.67 -320.67 1963.3
320.14 -315.13 1929.4
326.37 -311.54 1907.4
333.37 -313.47 1919.2
333.06 -308.57 1889.2
348.72 -309.43 1894.5
351.85 -307.86 1884.9
356.38 -307.56 1883.0
359.61 -306.15 1874.4
363.92 -305.69 1871.6
373.18 -309.35 1894.0
377.52 -308.88 1891.1
382.98 -305.42 1869.9
393.65 -310.00 1898.0
403.85 -314.11 1923.1
405.96 -311.90 1909.6
413.40 -313.78 1921.1
434.18 -321.80 1970.2
425.73 -311.87 1909.4
434.57 -314.69 1926.7
446.14 -319.40 1955.5
445.19 -315.13 1929.4
446.80 -312.76 1914.8
450.83 -312.11 1910.9
453.46 -310.52 1901.2
460.44 -311.91 1909.7
466.99 -312.99 1916.2
468.14 -310.45 1900.7
471.65 -306.33 1875.5
487.66 -313.50 1919.4
494.06 -314.40 1924.9
494.53 -311.55 1907.5
498.66 -311.05 1904.4
512.51 -310.46 1900.8
512.70 -307.62 1883.4
515.94 -306.64 1877.4
545.38 -312.35 1912.4
569.68 -317.61 1944.5
581.60 -321.41 1967.8
577.55 -316.40 1937.1
579.32 -314.63 1926.3
582.76 -313.79 1921.2
582.99 -311.26 1905.7
595.38 -315.20 1929.8
599.95 -314.97 1928.4
618.72 -316.90 1940.2
618.45 -314.21 1923.8
640.23 -315.11 1929.3
644.74 -314.87 1927.8
660.61 -320.14 1960.0
663.34 -316.59 1938.3
663.98 -314.51 1925.6
680.31 -315.14 1929.4
682.78 -313.98 1922.3
692.30 -309.33 1893.8
707.23 -313.77 1921.0
713.07 -309.82 1896.8
725.79 -313.18 1917.5
724.94 -306.52 1876.6
738.14 -310.02 1898.1
750.35 -313.06 1916.7
771.24 -313.47 1919.2
772.57 -312.00 1910.2
797.52 -314.02 1922.6
804.07 -314.64 1926.3
790.34 -307.35 1881.8
869.67 -318.54 1950.3
890.90 -324.43 1986.3
889.10 -321.91 1970.9
892.95 -321.46 1968.1
907.05 -324.68 1987.8
897.71 -319.52 1956.3
-187.39 -324.13 1953.4
-172.92 -325.49 1961.7
-164.25 -318.55 1919.8
-114.86 -319.62 1926.3
-113.09 -328.98 1982.7
-90.51 -321.80 1939.4
-87.70 -330.17 1989.9
-80.79 -323.18 1947.7
-74.33 -317.16 1911.4
-69.31 -316.86 1909.7
-54.67 -318.08 1917.0
-48.96 -313.36 1888.6
-44.14 -313.87 1891.6
-39.97 -319.78 1927.2
-34.92 -319.30 1924.4
-20.16 -322.61 1944.3
-15.00 -320.00 1928.6
25.47 -326.04 1965.0
40.52 -324.20 1953.9
44.74 -318.13 1917.3
50.22 -321.38 1936.9
54.31 -315.96 1904.2
71.53 -327.00 1970.8
75.75 -323.21 1947.9
90.69 -322.45 1943.3
96.64 -325.52 1961.8
99.67 -318.94 1922.2
104.26 -317.75 1915.0
109.44 -318.36 1918.7
143.50 -316.68 1908.6
167.11 -324.10 1953.3
173.96 -327.45 1973.5
193.55 -317.62 1914.2
197.85 -316.56 1907.8
199.72 -311.75 1878.9
204.32 -311.34 1876.4
213.04 -309.87 1867.5
220.67 -313.85 1891.5
228.43 -317.82 1915.4
232.61 -316.75 1909.0
234.81 -313.08 1886.8
243.80 -312.07 1880.8
249.37 -312.94 1886.0
252.86 -311.21 1875.6
257.23 -310.62 1872.0
263.78 -312.62 1884.1
268.84 -312.84 1885.4
275.90 -315.32 1900.4
289.96 -325.57 1962.1
295.82 -326.42 1967.3
293.05 -317.88 1915.8
296.54 -316.31 1906.3
300.13 -314.89 1897.8
304.77 -314.61 1896.1
313.70 -318.68 1920.6
332.06 -317.19 1911.6
351.05 -320.96 1934.4
356.79 -312.80 1885.2
361.51 -312.66 1884.3
362.08 -308.98 1862.1
378.14 -314.30 1894.2
384.04 -315.11 1899.1
386.59 -313.19 1887.5
393.70 -314.96 1898.2
396.19 -313.04 1886.6
419.54 -312.22 1881.7
428.32 -315.09 1899.0
446.17 -317.28 1912.2
452.46 -318.22 1917.8
457.40 -318.19 1917.7
457.72 -314.99 1898.4
457.69 -311.62 1878.1
465.36 -313.51 1889.4
468.31 -312.21 1881.6
494.58 -316.53 1907.7
504.72 -319.82 1927.5
512.18 -321.37 1936.8
507.20 -315.15 1899.3
505.37 -311.00 1874.3
511.72 -311.90 1879.8
521.76 -315.02 1898.6
548.67 -316.35 1906.6
560.12 -320.07 1929.0
565.01 -320.01 1928.6
563.75 -316.49 1907.4
568.58 -316.43 1907.0
578.82 -319.35 1924.6
577.38 -315.83 1903.4
580.59 -312.25 1881.9
580.65 -309.68 1866.4
582.70 -308.21 1857.5
598.12 -313.77 1891.0
615.78 -320.41 1931.0
621.84 -320.95 1934.3
615.74 -315.26 1900.0
662.25 -326.03 1964.9
673.32 -326.46 1967.5
665.02 -320.01 1928.6
698.49 -317.05 1910.8
704.24 -317.40 1912.9
701.40 -313.91 1891.9
706.07 -313.81 1891.3
715.94 -316.00 1904.5
723.78 -317.27 1912.1
743.08 -321.33 1936.6
737.85 -316.93 1910.1
739.30 -315.44 1901.1
746.47 -316.39 1906.8
751.50 -316.42 1907.0
771.18 -316.38 1906.8
836.71 -322.59 1944.2
824.47 -312.23 1881.7
826.18 -311.03 1874.5
898.11 -326.59 1968.3
908.95 -328.66 1980.8
935.16 -336.24 2026.4
-172.24 -329.28 1954.0
-169.23 -333.33 1978.0
-162.01 -329.09 1952.8
-145.68 -315.64 1873.0
-140.85 -315.70 1873.4
-139.09 -322.88 1916.0
-136.49 -328.58 1949.8
-128.87 -322.17 1911.8
-113.58 -321.00 1904.8
-111.47 -329.34 1954.3
-96.89 -331.46 1966.9
-91.11 -329.01 1952.4
-79.78 -324.10 1923.3
-75.41 -326.79 1939.2
-71.36 -331.31 1966.0
-66.03 -330.17 1959.3
-58.91 -319.07 1893.4
-49.04 -318.79 1891.7
-46.10 -332.93 1975.6
-40.43 -328.46 1949.1
-34.30 -318.51 1890.0
-19.67 -319.70 1897.2
-14.59 -316.06 1875.5
-9.73 -316.23 1876.5
25.24 -328.17 1947.4
39.26 -318.99 1892.9
50.63 -329.09 1952.8
56.19 -332.05 1970.4
59.21 -320.73 1903.3
65.10 -325.52 1931.7
71.43 -331.64 1968.0
74.38 -322.31 1912.6
97.91 -334.95 1987.6
100.90 -327.93 1946.0
105.34 -326.07 1934.9
111.36 -329.01 1952.3
115.99 -327.80 1945.2
129.46 -323.66 1920.6
134.49 -323.77 1921.3
139.02 -322.72 1915.0
148.89 -322.60 1914.3
157.22 -329.66 1956.2
163.32 -331.74 1968.6
175.88 -336.23 1995.2
173.79 -322.75 1915.2
175.41 -316.72 1879.4
180.72 -317.47 1883.9
196.54 -319.39 1895.3
200.78 -318.31 1888.9
205.30 -317.73 1885.4
209.48 -316.65 1879.0
212.39 -313.75 1861.8
218.64 -315.81 1874.0
230.09 -325.13 1929.3
238.36 -329.65 1956.1
250.12 -312.65 1855.3
253.50 -310.90 1844.9
264.76 -318.69 1891.1
274.30 -324.18 1923.7
277.49 -322.09 1911.3
287.25 -327.56 1943.8
293.35 -328.76 1950.9
290.99 -320.58 1902.4
342.57 -322.72 1915.0
351.44 -326.34 1936.5
349.87 -320.30 1900.7
364.90 -320.52 1902.0
380.31 -321.04 1905.1
386.04 -321.70 1909.0
388.61 -319.75 1897.4
395.34 -321.21 1906.1
411.20 -322.02 1910.9
411.95 -318.77 1891.6
410.26 -313.73 1861.7
413.36 -312.43 1854.0
441.51 -322.45 1913.4
446.67 -322.59 1914.3
454.10 -324.35 1924.7
459.28 -324.49 1925.6
465.98 -315.51 1872.3
478.26 -320.48 1901.8
482.90 -320.29 1900.6
490.97 -322.35 1912.9
492.40 -320.06 1899.3
497.27 -320.03 1899.1
512.73 -326.74 1938.9
515.65 -325.41 1931.0
511.59 -319.75 1897.4
516.18 -319.54 1896.2
521.55 -319.82 1897.8
523.49 -318.01 1887.1
547.66 -323.62 1920.4
556.91 -326.12 1935.2
573.67 -332.93 1975.6
576.40 -328.65 1950.2
574.85 -324.91 1928.1
600.80 -322.75 1915.2
598.18 -318.70 1891.2
597.55 -315.78 1873.8
604.68 -316.97 1880.9
646.13 -325.57 1932.0
660.42 -330.21 1959.5
657.37 -326.18 1935.6
700.95 -323.13 1917.5
709.10 -324.59 1926.1
709.04 -322.29 1912.5
704.42 -317.97 1886.9
703.86 -315.52 1872.3
714.07 -317.91 1886.5
729.26 -322.46 1913.5
734.31 -322.50 1913.7
727.97 -317.57 1884.5
734.73 -318.38 1889.3
748.36 -322.14 1911.6
759.55 -324.81 1927.4
765.34 -325.15 1929.4
780.53 -325.22 1929.9
779.63 -322.78 1915.4
779.40 -320.64 1902.7
784.77 -320.82 1903.8
805.08 -323.03 1916.9
816.62 -325.65 1932.4
838.36 -328.27 1948.0
823.79 -320.64 1902.7
844.62 -322.94 1916.4
856.41 -325.53 1931.7
884.97 -328.70 1950.6
896.98 -331.27 1965.8
899.97 -330.50 1961.2
929.45 -339.41 2014.1
-206.63 -332.63 1944.0
-186.10 -331.96 1940.0
-173.21 -336.22 1964.9
-165.46 -330.92 1933.9
-135.46 -331.14 1935.2
-131.33 -333.38 1948.3
-125.28 -330.74 1932.9
-122.00 -335.51 1960.8
-117.47 -337.08 1969.9
-112.43 -337.29 1971.2
-107.98 -339.36 1983.3
-97.38 -338.27 1976.9
-88.27 -323.65 1891.5
-67.93 -320.25 1871.6
-64.71 -328.54 1920.0
-59.49 -327.21 1912.3
-52.88 -317.29 1854.3
-49.10 -324.06 1893.8
-46.24 -339.09 1981.7
-40.74 -336.07 1964.0
-34.09 -321.41 1878.4
-19.26 -317.74 1856.9
4.88 -321.97 1881.6
19.58 -323.14 1888.5
50.43 -332.83 1945.1
60.72 -333.96 1951.7
65.21 -331.07 1934.8
69.97 -329.86 1927.7
74.39 -327.30 1912.8
77.95 -321.53 1879.1
103.26 -340.75 1991.4
127.62 -323.96 1893.2
131.33 -321.04 1876.2
149.21 -328.26 1918.4
158.26 -336.94 1969.1
165.21 -340.74 1991.3
169.24 -338.48 1978.1
169.22 -328.49 1919.8
171.67 -323.72 1891.8
177.91 -326.16 1906.1
182.52 -325.58 1902.7
185.57 -322.31 1883.6
200.80 -323.24 1889.1
206.50 -324.49 1896.4
211.14 -324.07 1893.9
214.42 -321.63 1879.7
219.46 -321.87 1881.1
229.76 -329.65 1926.5
235.28 -330.39 1930.9
252.65 -320.67 1874.0
259.18 -316.78 1851.3
272.38 -326.85 1910.2
279.50 -329.41 1925.1
284.10 -328.96 1922.5
285.17 -324.50 1896.4
284.76 -318.54 1861.6
293.41 -322.75 1886.2
304.04 -328.96 1922.5
307.18 -327.00 1911.0
307.09 -321.71 1880.1
341.26 -321.76 1880.4
347.94 -323.44 1890.2
357.75 -327.94 1916.5
377.49 -327.82 1915.8
380.92 -326.50 1908.1
378.64 -320.39 1872.4
427.31 -335.74 1962.1
422.83 -328.31 1918.7
423.93 -325.34 1901.3
423.85 -321.54 1879.1
427.61 -320.71 1874.3
451.19 -327.24 1912.4
465.05 -333.62 1949.7
470.99 -334.25 1953.4
467.60 -328.32 1918.7
460.74 -320.10 1870.7
470.32 -323.35 1889.7
486.73 -331.18 1935.4
495.34 -333.60 1949.6
494.20 -329.47 1925.5
487.08 -318.29 1860.1
497.90 -322.17 1882.8
508.83 -326.05 1905.5
513.19 -325.68 1903.3
510.54 -320.91 1875.4
508.79 -316.80 1851.4
513.52 -316.75 1851.2
522.51 -319.31 1866.1
559.68 -329.81 1927.5
577.06 -337.04 1969.7
577.85 -334.54 1955.1
577.72 -331.56 1937.7
584.05 -332.30 1942.0
586.95 -331.10 1935.0
584.01 -321.21 1877.2
611.79 -333.71 1950.2
608.67 -329.28 1924.4
599.71 -321.80 1880.6
621.78 -320.60 1873.7
635.55 -325.17 1900.3
637.15 -323.48 1890.5
646.64 -325.79 1904.0
654.27 -327.14 1911.8
664.19 -329.60 1926.2
674.17 -332.05 1940.6
691.90 -326.18 1906.3
707.89 -317.83 1857.4
713.82 -316.19 1847.8
735.53 -323.63 1891.4
752.76 -329.02 1922.9
768.68 -333.77 1950.6
774.53 -334.11 1952.6
770.12 -330.05 1928.9
773.71 -329.45 1925.4
780.24 -330.10 1929.2
783.81 -329.50 1925.6
