ply
format ascii 1.0
element vertex 2260
property float x
property float y
property float z
end_header
-84.31 213.58 1083.9
-91.89 240.80 1222.1
-92.64 251.45 1276.2
-85.99 242.05 1228.4
-79.92 233.60 1185.6
-71.27 216.66 1099.6
-63.13 199.91 1014.6
-65.53 216.53 1099.0
-65.71 226.99 1152.0
-60.17 217.75 1105.1
-60.92 231.49 1174.9
-58.70 234.80 1191.7
-52.97 223.63 1135.0
-51.45 230.03 1167.4
-50.79 241.26 1224.4
-44.30 224.47 1139.3
-38.47 208.85 1059.9
-37.64 220.07 1116.9
-39.11 247.72 1257.2
-33.97 258.19 1310.4
-27.14 229.22 1163.3
-23.30 221.31 1123.2
-20.97 227.69 1155.6
-17.08 216.30 1097.8
-12.86 195.43 991.8
-10.38 197.18 1000.7
-8.15 206.46 1047.8
-5.53 210.33 1067.5
-2.84 215.55 1094.0
0.00 229.47 1164.6
3.29 250.16 1269.6
6.17 234.30 1189.1
8.22 208.20 1056.7
11.99 227.72 1155.7
17.75 269.85 1369.6
19.17 242.78 1232.2
20.08 218.03 1106.5
22.34 212.22 1077.1
22.68 191.53 972.1
25.48 193.64 982.8
33.23 229.57 1165.1
38.93 246.56 1251.3
49.77 290.98 1476.8
59.21 300.01 1522.6
59.49 282.59 1434.2
64.93 290.29 1473.3
64.72 273.26 1386.9
65.70 262.80 1333.8
76.47 290.57 1474.7
82.63 299.03 1517.6
84.31 291.26 1478.2
92.57 305.89 1552.4
94.63 299.67 1520.9
93.17 283.22 1437.4
100.57 293.98 1492.0
107.78 303.38 1539.7
112.60 305.64 1551.2
121.02 317.15 1609.6
125.01 316.70 1607.3
128.06 313.94 1593.3
135.49 321.78 1633.1
143.62 330.77 1678.7
150.79 337.05 1710.6
154.57 335.63 1703.4
162.05 342.10 1736.2
171.85 352.99 1791.5
175.68 351.36 1783.2
180.66 352.05 1786.7
194.25 369.08 1873.1
-346.87 317.26 1631.6
-336.15 311.25 1600.7
-333.57 312.72 1608.3
-319.51 303.33 1560.0
-305.69 293.93 1511.6
-297.30 289.58 1489.3
-290.54 286.72 1474.5
-283.10 283.10 1456.0
-270.02 273.67 1407.4
-262.11 269.29 1384.9
-266.21 277.30 1426.1
-264.58 279.49 1437.4
-255.36 273.60 1407.1
-252.86 274.85 1413.5
-254.42 280.61 1443.1
-252.46 282.61 1453.4
-246.15 279.71 1438.5
-236.97 273.43 1406.2
-227.15 266.19 1369.0
-218.94 260.64 1340.5
-215.24 260.37 1339.0
-219.52 269.90 1388.1
-217.82 272.27 1400.2
-210.55 267.65 1376.5
-205.89 266.24 1369.2
-198.97 261.81 1346.4
-190.05 254.53 1309.0
-186.44 254.24 1307.5
-186.38 258.87 1331.3
-180.19 254.98 1311.3
-173.96 250.91 1290.4
-172.99 254.40 1308.3
-171.92 257.89 1326.3
-170.02 260.24 1338.4
-164.30 256.72 1320.3
-156.65 249.98 1285.6
-153.01 249.48 1283.0
-153.26 255.43 1313.6
-154.79 263.85 1356.9
-154.58 269.62 1386.6
-154.32 275.57 1417.2
-154.63 282.86 1454.7
-146.04 273.82 1408.2
-134.42 258.50 1329.4
-132.16 260.85 1341.5
-129.37 262.24 1348.7
-127.91 266.48 1370.5
-128.73 275.86 1418.7
-119.14 262.80 1351.5
-96.99 220.44 1133.7
-86.61 202.99 1043.9
-91.78 222.05 1142.0
-96.76 241.89 1244.0
-101.06 261.35 1344.1
-104.70 280.44 1442.3
-98.92 274.78 1413.1
-95.21 274.63 1412.4
-86.54 259.63 1335.2
-67.43 210.71 1083.6
-63.69 207.69 1068.1
-71.33 243.17 1250.6
-70.02 250.06 1286.0
-65.07 244.00 1254.8
-59.02 232.97 1198.1
-49.65 206.88 1063.9
-44.69 197.17 1014.0
-45.81 214.74 1104.4
-41.12 205.61 1057.4
-36.60 196.09 1008.5
-36.47 210.41 1082.1
-35.04 219.02 1126.4
-32.94 224.57 1154.9
-31.65 237.37 1220.7
-27.50 229.17 1178.6
-24.20 226.90 1166.9
-22.44 240.46 1236.6
-19.05 238.18 1224.9
-14.76 221.39 1138.6
-11.58 217.20 1117.0
-8.88 221.97 1141.6
-5.67 212.63 1093.5
-2.74 205.18 1055.2
0.00 205.76 1058.2
2.85 213.58 1098.4
6.33 237.44 1221.1
9.69 242.21 1245.6
11.94 223.88 1151.4
14.75 221.20 1137.6
16.69 208.60 1072.8
18.24 195.42 1005.0
22.04 206.67 1062.9
25.07 208.95 1074.6
25.49 191.19 983.3
30.05 204.91 1053.8
36.17 226.08 1162.7
48.31 278.71 1433.4
57.56 287.81 1480.2
57.00 267.19 1374.1
62.03 273.64 1407.3
66.17 275.71 1417.9
70.27 277.39 1426.6
78.99 296.23 1523.5
82.61 295.05 1517.4
82.73 282.05 1450.5
88.94 290.01 1491.5
95.47 298.35 1534.4
98.48 295.44 1519.4
108.54 313.11 1610.3
118.80 330.00 1697.1
117.78 315.47 1622.4
120.41 311.42 1601.6
126.75 316.88 1629.6
132.29 320.05 1646.0
142.86 334.82 1721.9
155.07 352.44 1812.6
161.03 355.22 1826.8
163.60 350.58 1803.0
168.06 350.12 1800.6
174.09 352.88 1814.8
177.02 349.38 1796.8
180.84 347.77 1788.5
195.46 366.48 1884.8
-368.94 325.01 1694.1
-364.32 324.81 1693.0
-361.34 326.09 1699.7
-340.75 311.31 1622.6
-331.53 306.66 1598.4
-316.90 296.84 1547.2
-302.32 286.82 1495.0
-293.01 281.60 1467.8
-285.74 278.22 1450.2
-280.42 276.68 1442.2
-268.85 268.85 1401.3
-259.31 262.86 1370.1
-261.28 268.54 1399.7
-264.71 275.89 1438.0
-260.22 275.09 1433.8
-252.46 270.75 1411.3
-248.91 270.87 1411.9
-245.52 271.17 1413.4
-238.64 267.57 1394.7
-234.63 267.12 1392.3
-229.35 265.18 1382.2
-226.17 265.66 1384.7
-227.50 271.54 1415.3
-222.69 270.15 1408.1
-212.78 262.43 1367.9
-206.94 259.55 1352.9
-204.09 260.39 1357.3
-199.64 259.18 1351.0
-193.24 255.36 1331.0
-187.09 251.72 1312.0
-183.88 251.99 1313.5
-183.22 255.81 1333.4
-182.31 259.45 1352.3
-182.34 264.58 1379.1
-182.23 269.71 1405.8
-178.15 269.04 1402.4
-170.08 262.21 1366.7
-163.86 257.98 1344.7
-161.93 260.49 1357.8
-157.66 259.26 1351.4
-153.53 258.21 1345.9
-156.50 269.33 1403.9
-160.14 282.15 1470.6
-146.11 270.30 1408.9
-129.35 245.43 1279.3
-121.25 236.11 1230.7
-122.31 244.61 1275.0
-125.60 258.18 1345.7
-125.33 264.99 1381.2
-115.23 250.79 1307.2
-100.81 226.06 1178.3
-97.86 226.29 1179.5
-103.39 246.81 1286.5
-106.86 263.58 1373.9
-98.23 250.66 1306.6
-88.18 233.04 1214.7
-85.66 234.78 1223.7
-87.59 249.29 1299.4
-84.60 260.85 1359.6
-69.51 223.64 1165.7
-68.96 231.95 1209.0
-68.50 241.39 1258.2
-64.33 238.04 1240.7
-59.43 231.48 1206.6
-51.37 211.18 1100.7
-46.10 200.66 1045.9
-46.24 213.86 1114.7
-43.32 213.70 1113.9
-39.68 209.76 1093.4
-37.22 211.85 1104.2
-34.05 209.99 1094.5
-30.94 208.12 1084.8
-28.56 211.33 1101.5
-26.35 216.62 1129.1
-24.38 225.49 1175.3
-22.38 236.61 1233.3
-18.71 230.78 1202.9
-14.35 212.33 1106.7
-11.16 206.49 1076.3
-9.91 244.56 1274.7
-3.13 231.56 1207.0
0.00 210.27 1096.0
2.95 218.56 1139.2
6.75 249.84 1302.2
13.64 252.28 1314.9
17.45 258.30 1346.3
20.71 255.46 1331.6
21.08 222.86 1161.6
23.38 216.26 1127.2
27.42 225.47 1175.3
29.17 215.85 1125.1
33.90 228.08 1188.8
42.88 264.41 1378.2
46.68 265.71 1385.0
46.77 247.23 1288.7
51.14 252.29 1315.0
55.32 255.84 1333.6
58.99 256.76 1338.3
61.90 254.47 1326.4
66.34 258.39 1346.8
75.93 280.94 1464.4
84.47 297.65 1551.4
89.20 300.05 1564.0
90.97 292.67 1525.5
92.83 286.23 1492.0
98.65 292.02 1522.1
112.29 319.61 1665.9
124.73 329.64 1718.2
126.14 321.88 1677.8
131.76 325.01 1694.1
138.57 330.77 1724.1
150.64 348.36 1815.8
154.31 346.03 1803.6
150.67 327.94 1709.3
155.96 329.74 1718.7
162.75 334.54 1743.8
168.55 337.09 1757.0
171.04 333.07 1736.1
178.26 338.24 1763.0
197.27 364.96 1902.3
200.70 362.24 1888.1
204.58 360.46 1878.8
-359.90 312.77 1652.6
-354.35 311.66 1646.7
-354.55 315.64 1667.8
-338.08 304.69 1609.9
-341.66 311.77 1647.3
-336.77 311.19 1644.3
-305.77 286.17 1512.1
-282.95 268.25 1417.4
-277.12 266.18 1406.5
-272.67 265.40 1402.3
-273.05 269.36 1423.2
-273.32 273.32 1444.2
-265.91 269.61 1424.5
-261.45 268.81 1420.3
-259.81 270.94 1431.6
-254.65 269.41 1423.5
-247.14 265.32 1401.9
-240.25 261.76 1383.1
-231.95 256.55 1355.6
-226.25 254.09 1342.6
-226.72 258.60 1366.4
-229.13 265.50 1402.8
-227.45 267.81 1415.0
-220.03 263.32 1391.3
-211.22 256.99 1357.8
-206.29 255.24 1348.6
-204.92 257.91 1362.8
-201.89 258.56 1366.2
-197.01 256.81 1356.9
-192.17 255.06 1347.7
-187.92 254.04 1342.3
-185.84 255.97 1352.5
-185.42 260.30 1375.4
-185.26 265.18 1401.1
-179.92 262.68 1387.9
-170.43 253.91 1341.6
-170.77 259.71 1372.2
-173.80 269.94 1426.3
-170.15 270.02 1426.7
-163.88 265.85 1404.7
-155.27 257.61 1361.2
-152.77 259.35 1370.3
-155.00 269.40 1423.5
-151.04 268.92 1420.9
-147.29 268.81 1420.3
-140.58 263.14 1390.4
-131.90 253.39 1338.9
-132.31 261.04 1379.3
-126.76 257.03 1358.1
-115.63 241.16 1274.2
-123.30 264.74 1398.8
-121.79 277.83 1468.0
-112.57 265.09 1400.7
-110.03 267.74 1414.7
-98.80 248.69 1314.0
-87.58 228.33 1206.5
-81.11 219.28 1158.6
-75.74 212.64 1123.5
-78.17 228.27 1206.1
-77.44 235.54 1244.5
-69.72 221.28 1169.2
-68.15 226.14 1194.9
-67.41 234.34 1238.2
-63.40 231.40 1222.7
-58.25 223.82 1182.6
-54.19 219.76 1161.1
-52.09 223.68 1181.9
-49.64 226.49 1196.7
-45.32 220.57 1165.4
-39.99 208.51 1101.7
-36.14 202.96 1072.4
-33.55 204.09 1078.3
-30.92 205.22 1084.3
-28.42 207.46 1096.2
-26.11 211.75 1118.8
-22.74 207.49 1096.3
-19.74 205.82 1087.5
-17.04 207.32 1095.4
-13.74 200.63 1060.1
-10.27 187.44 990.4
-8.39 204.18 1078.8
-3.45 251.60 1329.4
0.00 222.41 1175.1
3.15 229.66 1213.5
6.39 233.37 1233.1
9.01 219.24 1158.4
11.94 217.93 1151.5
16.33 238.38 1259.5
21.27 258.82 1367.6
22.71 236.87 1251.6
24.47 223.29 1179.8
28.08 227.74 1203.3
30.46 222.33 1174.8
36.41 241.65 1276.8
44.73 272.12 1437.8
48.92 274.70 1451.4
47.47 247.54 1307.9
48.68 236.92 1251.8
52.57 239.87 1267.4
56.16 241.15 1274.2
58.36 236.66 1250.5
61.73 237.19 1253.3
69.61 254.06 1342.4
77.99 271.11 1432.5
84.04 278.87 1473.5
87.03 276.23 1459.5
90.80 276.19 1459.3
99.08 289.32 1528.7
109.90 308.57 1630.4
117.88 318.72 1684.1
122.09 318.30 1681.8
127.45 320.83 1695.2
134.19 326.52 1725.3
142.02 334.43 1767.0
145.35 331.58 1752.0
139.72 309.09 1633.1
136.94 294.01 1553.5
142.98 298.21 1575.7
152.87 309.99 1637.9
162.24 320.10 1691.3
177.19 340.39 1798.5
195.70 348.45 1841.1
197.34 342.99 1812.3
-371.06 321.89 1724.4
-358.19 314.51 1684.9
-340.86 302.99 1623.1
-343.41 309.07 1655.7
-337.51 307.61 1647.9
-304.35 280.94 1505.0
-286.92 268.29 1437.3
-285.62 270.58 1449.6
-282.18 270.89 1451.2
-282.99 275.35 1475.1
-278.02 274.21 1469.0
-266.57 266.57 1428.1
-263.35 267.06 1430.7
-263.26 270.79 1450.6
-255.46 266.57 1428.0
-246.06 260.54 1395.7
-241.70 259.74 1391.5
-235.54 256.96 1376.6
-226.02 250.36 1341.2
-223.44 251.37 1346.6
-224.95 257.09 1377.3
-222.72 258.64 1385.6
-219.21 258.74 1386.1
-214.04 256.85 1376.0
-209.21 255.31 1367.7
-207.79 257.95 1381.9
-206.01 260.22 1394.0
-201.90 259.59 1390.6
-194.48 254.59 1363.9
-187.74 250.32 1341.0
-184.19 250.22 1340.5
-182.09 252.12 1350.7
-181.87 256.75 1375.5
-176.59 254.29 1362.3
-170.01 249.82 1338.3
-173.40 260.09 1393.4
-173.76 266.19 1426.0
-167.20 261.71 1402.0
-163.50 261.60 1401.4
-157.69 258.03 1382.3
-153.16 256.46 1373.9
-152.84 262.01 1403.6
-147.05 258.24 1383.4
-141.38 254.48 1363.3
-140.15 258.74 1386.1
-138.33 262.09 1404.1
-137.54 267.64 1433.8
-130.29 260.57 1395.9
-117.90 242.54 1299.3
-126.56 268.00 1435.7
-111.77 251.47 1347.2
-107.82 250.43 1341.6
-107.80 258.71 1385.9
-99.28 246.50 1320.5
-91.61 235.56 1261.9
-93.36 248.97 1333.8
-94.68 262.19 1404.6
-84.06 242.09 1296.9
-72.59 217.77 1166.6
-66.94 209.56 1122.6
-66.28 216.92 1162.1
-63.81 218.78 1172.0
-58.08 209.10 1120.2
-54.99 208.39 1116.4
-52.65 210.62 1128.3
-48.39 204.96 1098.0
-44.45 200.03 1071.6
-43.78 210.13 1125.7
-42.40 218.04 1168.1
-36.76 203.57 1090.6
-32.56 195.33 1046.4
-30.71 201.03 1077.0
-28.97 208.57 1117.3
-26.10 208.76 1118.4
-22.24 200.15 1072.3
-18.66 191.91 1028.1
-15.53 186.41 998.6
-13.68 197.06 1055.7
-11.33 203.85 1092.1
-7.91 189.73 1016.4
-5.34 192.30 1030.2
-2.96 213.04 1141.3
0.00 221.30 1185.5
2.98 214.32 1148.2
5.60 201.66 1080.3
7.81 187.35 1003.6
10.12 182.20 976.1
14.56 209.72 1123.5
19.80 237.60 1272.9
21.92 225.48 1207.9
24.24 218.13 1168.6
29.72 237.75 1273.7
34.67 249.66 1337.5
34.66 226.90 1215.5
37.60 225.60 1208.5
46.89 259.69 1391.2
52.45 269.75 1445.1
49.66 238.37 1277.0
49.46 222.58 1192.4
52.72 223.29 1196.2
55.17 220.70 1182.3
57.51 217.92 1167.4
64.55 232.37 1244.9
75.62 259.28 1389.0
83.02 271.70 1455.5
85.61 268.00 1435.7
88.71 266.12 1425.7
96.40 277.62 1487.2
107.51 297.71 1594.9
114.23 304.62 1631.9
115.88 297.98 1596.3
124.71 309.63 1658.7
135.93 326.22 1747.6
134.21 311.71 1669.9
128.27 288.60 1546.1
137.61 300.24 1608.4
151.42 320.65 1717.8
155.13 319.12 1709.6
162.36 324.71 1739.5
173.77 338.15 1811.5
-362.44 313.82 1704.9
-340.81 298.74 1622.9
-331.38 294.10 1597.7
-315.94 283.95 1542.6
-301.76 274.68 1492.2
-299.38 276.05 1499.7
-292.59 273.34 1485.0
-284.56 269.38 1463.4
-278.12 266.84 1449.6
-267.16 259.84 1411.6
-264.89 261.21 1419.0
-269.34 269.34 1463.2
-262.86 266.61 1448.4
-250.20 257.46 1398.7
-244.64 255.43 1387.6
-243.67 258.21 1402.8
-240.30 258.50 1404.3
-232.99 254.50 1382.6
-223.70 248.17 1348.2
-219.19 247.02 1342.0
-220.17 252.13 1369.7
-219.62 255.62 1388.7
-216.25 255.90 1390.2
-213.03 256.35 1392.7
-206.86 253.23 1375.7
-200.49 249.74 1356.7
-198.88 252.16 1369.9
-193.60 249.91 1357.7
-186.73 245.52 1333.8
-182.93 245.06 1331.3
-183.88 251.07 1363.9
-187.11 260.49 1415.1
-183.12 260.03 1412.6
-177.90 257.78 1400.4
-174.33 257.86 1400.8
-166.94 252.18 1370.0
-158.66 244.89 1330.4
-152.98 241.36 1311.2
-152.30 245.75 1335.1
-153.34 253.20 1375.5
-152.59 257.94 1401.3
-146.60 253.87 1379.2
-136.98 243.13 1320.8
-130.32 237.25 1288.9
-129.52 241.99 1314.7
-131.78 252.87 1373.7
-128.15 252.75 1373.1
-119.73 242.89 1319.5
-122.64 256.11 1391.3
-120.57 259.41 1409.3
-97.42 216.16 1174.3
-89.43 204.83 1112.8
-97.17 229.96 1249.3
-96.82 237.05 1287.8
-93.22 236.37 1284.1
-93.47 255.24 1386.6
-67.56 191.87 1042.3
-67.80 200.57 1089.6
-72.30 223.19 1212.5
-63.79 205.87 1118.4
-55.55 187.82 1020.4
-52.05 184.78 1003.8
-51.00 190.58 1035.4
-52.04 205.26 1115.1
-50.41 210.52 1143.7
-47.41 210.37 1142.8
-47.77 226.13 1228.4
-45.16 229.04 1244.3
-38.10 208.07 1130.4
-33.09 195.79 1063.6
-30.53 197.07 1070.6
-27.68 196.54 1067.7
-24.00 189.31 1028.4
-21.03 186.61 1013.8
-17.92 181.73 987.3
-14.73 174.31 947.0
-12.86 182.65 992.2
-11.32 200.94 1091.6
-8.47 200.40 1088.7
-5.21 184.83 1004.1
-2.60 184.47 1002.2
0.00 198.23 1076.9
2.82 200.22 1087.7
5.69 201.85 1096.6
8.48 200.58 1089.7
10.45 185.55 1008.0
14.20 201.65 1095.5
19.01 225.00 1222.3
20.72 210.15 1141.6
22.29 197.83 1074.7
26.47 208.86 1134.6
33.82 240.15 1304.7
37.15 239.77 1302.6
36.67 216.96 1178.6
41.87 228.70 1242.4
48.66 246.77 1340.6
49.00 231.91 1259.9
50.34 223.39 1213.6
54.95 229.51 1246.9
60.01 236.72 1286.0
65.37 244.29 1327.1
66.16 234.86 1275.9
70.90 239.71 1302.2
80.82 260.82 1416.9
85.36 263.49 1431.5
89.24 263.99 1434.2
97.65 277.32 1506.6
103.46 282.51 1534.8
104.81 275.60 1497.2
108.53 275.19 1495.0
120.64 295.36 1604.6
132.10 312.64 1698.4
130.57 299.04 1624.6
133.21 295.55 1605.6
153.52 330.30 1794.4
167.55 349.89 1900.8
169.51 343.86 1868.1
169.74 334.77 1818.7
173.85 333.61 1812.4
-375.07 308.88 1702.0
-366.45 305.38 1682.7
-363.52 306.58 1689.3
-345.61 295.03 1625.7
-330.84 285.91 1575.4
-327.92 286.93 1581.1
-313.32 277.62 1529.8
-299.94 269.18 1483.2
-293.93 267.21 1472.4
-283.78 261.37 1440.2
-279.99 261.32 1439.9
-277.50 262.50 1446.4
-265.45 254.54 1402.6
-262.66 255.36 1407.1
-265.01 261.28 1439.7
-257.00 257.00 1416.1
-245.98 249.55 1375.1
-241.50 248.60 1369.8
-242.60 253.46 1396.6
-240.74 255.33 1406.9
-237.51 255.78 1409.4
-231.54 253.24 1395.4
-223.73 248.59 1369.8
-221.67 250.27 1379.1
-218.03 250.19 1378.6
-211.81 247.11 1361.6
-211.49 250.91 1382.6
-208.12 251.18 1384.1
-200.87 246.68 1359.3
-198.27 247.83 1365.6
-194.93 248.10 1367.1
-189.68 245.88 1354.9
-184.62 243.84 1343.6
-184.09 247.82 1365.5
-184.23 252.86 1393.3
-176.88 247.63 1364.5
-173.64 248.06 1366.9
-171.85 250.62 1381.0
-166.42 247.86 1365.8
-160.48 244.21 1345.6
-153.16 238.25 1312.8
-150.02 238.67 1315.1
-148.83 242.29 1335.1
-145.41 242.35 1335.4
-144.07 245.97 1355.3
-139.47 244.08 1344.9
-134.64 241.66 1331.6
-136.04 250.60 1380.9
-130.61 247.11 1361.6
-117.33 228.14 1257.1
-112.85 225.70 1243.7
-122.61 252.44 1391.0
-129.18 274.02 1509.9
-108.86 238.13 1312.1
-93.89 212.01 1168.2
-98.66 230.21 1268.5
-94.21 227.41 1253.1
-86.63 216.58 1193.4
-93.11 241.38 1330.1
-83.58 225.03 1240.0
-61.29 171.61 945.6
-64.35 187.68 1034.1
-73.45 223.54 1231.7
-68.47 217.86 1200.5
-53.12 177.06 975.6
-47.06 173.36 955.3
-50.78 197.46 1088.1
-51.43 211.76 1166.8
-49.96 218.56 1204.3
-49.82 232.50 1281.1
-46.61 233.06 1284.2
-39.28 211.48 1165.3
-34.67 202.22 1114.3
-30.71 195.45 1077.0
-26.65 186.54 1027.9
-24.05 187.09 1030.9
-22.18 194.06 1069.3
-19.76 197.64 1089.0
-16.85 196.58 1083.2
-13.80 193.19 1064.5
-11.40 199.45 1099.0
-8.67 202.31 1114.8
-5.31 185.70 1023.3
-2.48 173.74 957.4
0.00 177.31 977.0
2.73 190.89 1051.8
5.69 199.28 1098.0
8.36 194.99 1074.4
10.31 180.34 993.7
13.02 182.30 1004.5
16.73 195.15 1075.3
19.94 199.43 1098.9
23.32 204.06 1124.4
25.78 200.48 1104.7
31.47 220.28 1213.8
37.33 237.58 1309.1
39.29 229.17 1262.8
41.86 225.40 1242.0
45.90 229.49 1264.5
48.75 227.50 1253.6
53.63 234.62 1292.8
57.93 238.52 1314.3
62.38 242.59 1336.7
70.82 260.93 1437.8
74.39 260.37 1434.7
72.38 241.25 1329.3
77.55 246.75 1359.6
85.10 259.01 1427.2
91.23 266.10 1466.3
104.31 292.07 1609.4
114.69 308.77 1701.4
116.95 303.20 1670.7
121.83 304.57 1678.2
124.98 301.66 1662.2
127.66 297.87 1641.3
133.31 301.01 1658.6
143.92 314.83 1734.8
156.44 331.85 1828.6
160.63 330.71 1822.3
169.59 339.17 1868.9
177.32 344.79 1899.8
171.02 323.55 1782.8
179.46 330.58 1821.6
-366.75 297.72 1664.3
-364.73 299.60 1674.8
-367.62 305.61 1708.4
-346.58 291.63 1630.2
-330.38 281.43 1573.2
-328.87 283.65 1585.6
-315.23 275.33 1539.1
-305.93 270.63 1512.8
-303.50 271.97 1520.3
-293.80 266.74 1491.1
-290.26 267.04 1492.8
-284.11 264.92 1480.9
-269.60 254.83 1424.5
-259.70 248.88 1391.3
-256.39 249.17 1392.8
-254.65 251.01 1403.2
-248.87 248.87 1391.2
-239.55 243.07 1358.8
-235.96 243.00 1358.4
-237.85 248.66 1390.0
-237.95 252.59 1412.0
-233.09 251.30 1404.8
-226.53 248.10 1386.9
-221.30 246.28 1376.7
-215.05 243.25 1359.8
-209.79 241.25 1348.6
-210.54 246.22 1376.4
-212.17 252.41 1411.0
-209.45 253.55 1417.3
-204.44 251.90 1408.1
-198.77 249.37 1394.0
-190.31 243.18 1359.4
-181.76 236.63 1322.8
-177.99 236.18 1320.3
-175.02 236.79 1323.6
-170.37 235.12 1314.3
-170.12 239.56 1339.1
-172.17 247.50 1383.5
-171.14 251.25 1404.5
-167.31 250.97 1402.9
-162.58 249.29 1393.6
-155.67 244.12 1364.6
-149.99 240.68 1345.4
-145.58 239.17 1337.0
-142.78 240.29 1343.2
-141.16 243.50 1361.2
-139.45 246.72 1379.2
-137.16 249.06 1392.3
-126.44 235.80 1318.1
-119.49 229.01 1280.2
-126.07 248.53 1389.3
-122.93 249.47 1394.5
-108.01 225.83 1262.4
-103.62 223.42 1248.9
-108.05 240.50 1344.4
-95.19 218.95 1223.9
-79.42 188.96 1056.3
-72.73 185.87 1039.0
-83.69 222.09 1241.5
-81.95 226.17 1264.3
-70.67 203.18 1135.8
-70.49 211.48 1182.2
-69.62 218.36 1220.7
-57.05 187.45 1047.8
-50.18 182.22 1018.6
-52.41 200.89 1123.0
-51.32 208.30 1164.4
-46.88 202.16 1130.1
-43.30 199.19 1113.5
-42.99 211.88 1184.4
-39.62 210.32 1175.7
-35.48 204.00 1140.4
-32.02 200.84 1122.7
-27.73 191.35 1069.7
-24.98 191.54 1070.7
-23.47 202.47 1131.8
-21.56 212.51 1187.9
-19.12 219.91 1229.3
-16.10 222.21 1242.2
-12.14 209.36 1170.4
-8.39 192.99 1078.8
-5.37 185.42 1036.5
-2.67 184.02 1028.7
0.00 182.08 1017.8
2.72 187.54 1048.4
5.38 185.60 1037.5
13.13 181.19 1012.8
17.44 200.55 1121.1
21.95 216.38 1209.6
26.80 231.16 1292.2
31.23 239.42 1338.4
33.57 231.66 1295.0
35.78 224.43 1254.6
39.06 224.59 1255.5
42.24 224.22 1253.4
47.35 233.35 1304.4
50.88 234.03 1308.3
56.83 245.09 1370.1
62.72 254.57 1423.0
70.67 270.90 1514.3
84.18 276.60 1546.2
83.64 262.32 1466.4
84.85 254.55 1422.9
88.77 255.21 1426.6
99.77 275.38 1539.4
118.98 315.75 1765.0
129.79 331.68 1854.1
132.72 327.05 1828.2
134.85 320.85 1793.5
135.73 312.18 1745.1
139.52 310.54 1735.9
145.37 313.46 1752.3
151.98 317.78 1776.4
158.37 321.40 1796.6
170.02 335.18 1873.7
177.49 330.99 1850.3
177.90 323.02 1805.7
188.87 334.16 1868.0
194.88 336.18 1879.2
-386.42 309.14 1753.5
-379.14 306.92 1741.0
-377.10 308.95 1752.5
-351.03 291.10 1651.2
-327.28 274.75 1558.5
-319.40 271.49 1540.0
-312.60 269.07 1526.3
-309.38 269.72 1529.9
-304.79 269.17 1526.8
-293.36 262.48 1488.8
-290.39 263.28 1493.4
-284.98 261.87 1485.4
-272.28 253.63 1438.7
-263.79 249.14 1413.2
-257.75 246.86 1400.2
-254.05 246.79 1399.9
-248.45 244.85 1388.9
-239.14 239.14 1356.5
-232.69 236.16 1339.6
-231.64 238.66 1353.7
-228.06 238.59 1353.3
-220.29 234.06 1327.6
-219.95 237.41 1346.7
-221.08 242.48 1375.4
-213.60 238.11 1350.6
-207.15 234.77 1331.7
-206.01 237.44 1346.8
-205.67 241.13 1367.8
-202.20 241.22 1368.3
-196.46 238.56 1353.2
-194.69 240.70 1365.3
-190.53 239.93 1360.9
-182.51 234.16 1328.2
-179.78 235.10 1333.6
-178.58 238.10 1350.6
-176.78 240.42 1363.7
-170.44 236.53 1341.7
-165.92 235.06 1333.3
-166.92 241.51 1369.9
-165.64 244.86 1388.9
-163.23 246.65 1399.1
-159.53 246.55 1398.5
-151.80 240.06 1361.7
-145.01 234.78 1331.7
-142.63 236.57 1341.9
-141.63 240.77 1365.7
-136.44 237.90 1349.4
-130.27 233.12 1322.3
-129.32 237.67 1348.1
-136.75 258.30 1465.1
-128.26 256.51 1455.0
-110.74 228.19 1294.4
-100.98 214.57 1217.1
-106.52 233.65 1325.4
-100.28 227.30 1289.3
-74.51 174.70 991.0
-75.58 197.66 1121.2
-85.17 231.66 1314.0
-85.20 241.40 1369.3
-77.85 230.17 1305.6
-68.31 211.13 1197.6
-65.86 213.24 1209.6
-65.79 223.68 1268.8
-59.16 211.74 1201.0
-54.40 205.52 1165.8
-51.86 207.45 1176.7
-46.29 196.72 1115.8
-42.52 192.75 1093.3
-41.62 202.14 1146.6
-37.82 197.82 1122.1
-33.35 188.98 1072.0
-32.00 197.85 1122.2
-29.40 199.94 1134.1
-25.09 189.54 1075.1
-22.28 189.38 1074.2
-20.10 195.29 1107.7
-17.75 201.20 1141.3
-15.57 211.80 1201.4
-12.38 210.42 1193.5
-8.46 191.84 1088.2
-5.35 181.95 1032.1
-2.75 186.99 1060.6
0.00 192.54 1092.2
2.96 201.40 1142.4
6.02 204.52 1160.1
7.90 179.17 1016.3
10.08 171.35 972.0
14.12 192.01 1089.1
18.70 211.96 1202.3
22.02 213.86 1213.1
24.75 210.38 1193.3
29.66 224.08 1271.1
32.77 222.85 1264.1
34.33 212.25 1204.0
37.48 212.41 1204.8
40.70 212.91 1207.7
46.55 226.08 1282.4
47.15 213.74 1212.4
49.14 208.86 1184.7
60.54 242.14 1373.5
78.94 268.41 1522.5
85.45 276.70 1569.5
92.48 285.85 1621.4
96.55 285.46 1619.2
103.36 292.87 1661.2
104.34 283.81 1609.8
112.87 295.20 1674.4
128.33 323.21 1833.3
135.41 328.86 1865.4
139.26 326.55 1852.3
142.66 323.37 1834.3
143.84 315.52 1789.7
146.74 311.82 1768.7
156.50 322.48 1829.2
167.26 334.52 1897.5
171.70 333.58 1892.2
174.55 329.70 1870.2
181.71 333.94 1894.2
191.33 333.61 1892.3
-382.86 309.06 1779.2
-349.74 285.77 1645.1
-319.72 264.46 1522.5
-315.93 264.59 1523.2
-312.34 264.89 1525.0
-302.09 259.48 1493.8
-292.38 254.40 1464.6
-285.48 251.67 1448.9
-285.81 255.32 1469.9
-281.20 254.60 1465.7
-268.91 246.81 1420.9
-262.09 243.89 1404.1
-257.86 243.33 1400.8
-252.75 241.92 1392.7
-246.30 239.16 1376.8
-240.96 237.41 1366.8
-238.02 238.02 1370.3
-233.57 237.11 1365.0
-227.34 234.34 1349.1
-218.61 228.86 1317.5
-217.51 231.32 1331.7
-220.86 238.68 1374.0
-215.23 236.40 1361.0
-207.24 231.42 1332.3
-204.16 231.85 1334.7
-203.85 235.49 1355.7
-200.99 236.25 1360.1
-195.98 234.47 1349.8
-194.91 237.44 1366.9
-192.39 238.71 1374.2
-186.61 235.91 1358.1
-183.68 236.66 1362.5
-182.27 239.46 1378.5
-177.74 238.18 1371.2
-168.53 230.44 1326.6
-161.86 225.93 1300.6
-159.96 228.03 1312.8
-160.46 233.71 1345.5
-159.87 238.03 1370.3
-159.38 242.69 1397.2
-155.80 242.76 1397.5
-148.27 236.53 1361.7
-145.20 237.27 1366.0
-140.98 236.14 1359.5
-132.73 228.03 1312.7
-134.29 236.77 1363.1
-132.15 252.96 1456.3
-130.91 257.97 1485.1
-127.59 259.04 1491.3
-114.87 240.51 1384.6
-114.84 256.47 1476.5
-85.47 197.47 1136.8
-67.92 175.03 1007.7
-77.49 207.68 1195.6
-84.75 236.59 1362.0
-81.23 236.62 1362.2
-73.22 222.99 1283.7
-69.79 222.68 1281.9
-68.42 229.20 1319.5
-60.74 214.19 1233.1
-51.72 192.50 1108.2
-46.94 185.00 1065.0
-44.31 185.53 1068.1
-42.80 191.20 1100.7
-41.63 199.25 1147.1
-37.50 193.28 1112.7
-33.76 188.51 1085.2
-32.95 200.67 1155.2
-30.80 206.33 1187.8
-26.71 198.81 1144.6
-22.51 188.56 1085.5
-19.40 185.66 1068.8
-17.18 191.83 1104.3
-15.01 201.07 1157.6
-12.10 202.62 1166.5
-8.46 188.93 1087.7
-5.18 173.53 999.0
-2.57 172.00 990.2
0.00 183.12 1054.2
2.96 198.01 1139.9
6.38 213.58 1229.6
9.08 202.80 1167.5
10.99 184.14 1060.1
14.26 191.15 1100.4
19.22 214.59 1235.4
22.45 214.92 1237.3
22.96 192.32 1107.2
24.91 185.47 1067.7
28.83 193.16 1112.0
31.32 190.75 1098.1
31.99 178.59 1028.1
33.06 170.36 980.8
42.49 203.36 1170.7
49.47 220.95 1272.0
44.18 185.02 1065.1
47.59 187.56 1079.8
64.49 240.03 1381.8
82.30 275.69 1587.1
94.49 301.46 1735.5
101.22 308.25 1774.6
104.39 304.11 1750.7
111.98 312.60 1799.6
113.44 304.01 1750.2
120.27 309.94 1784.3
132.93 329.86 1899.0
135.69 324.68 1869.2
134.97 311.82 1795.1
139.44 311.42 1792.8
141.46 305.73 1760.1
152.10 318.46 1833.3
174.71 334.44 1925.4
176.27 328.06 1888.6
182.73 330.88 1904.9
190.43 327.14 1883.3
192.21 321.95 1853.5
-380.86 306.54 1791.5
-348.03 283.58 1657.3
-341.70 281.90 1647.5
-328.69 274.60 1604.8
-311.40 263.49 1539.9
-301.38 258.32 1509.7
-294.18 255.47 1493.0
-285.55 251.28 1468.5
-273.51 243.94 1425.6
-266.27 240.74 1406.9
-263.47 241.51 1411.4
-257.79 239.63 1400.4
-251.45 237.08 1385.5
-246.93 236.19 1380.3
-243.80 236.63 1382.9
-243.35 239.72 1401.0
-241.48 241.48 1411.3
-233.34 236.93 1384.6
-223.06 230.03 1344.3
-216.01 226.29 1322.5
-213.45 227.22 1327.9
-210.39 227.64 1330.4
-204.75 225.23 1316.3
-204.99 229.32 1340.2
-207.46 236.07 1379.7
-204.39 236.66 1383.1
-199.32 234.91 1372.9
-195.69 234.83 1372.4
-190.56 232.90 1361.1
-183.34 228.30 1334.2
-178.75 226.88 1325.9
-178.09 230.46 1346.9
-174.40 230.20 1345.4
-170.84 230.11 1344.8
-169.72 233.36 1363.8
-163.85 230.08 1344.7
-159.48 228.81 1337.2
-160.85 235.92 1378.7
-162.69 244.03 1426.2
-155.87 239.24 1398.1
-144.71 227.40 1328.9
-143.70 231.32 1351.8
-142.57 235.24 1374.8
-136.66 231.27 1351.6
-141.79 246.27 1439.2
-145.62 259.76 1518.1
-130.18 238.66 1394.8
-125.88 237.37 1387.2
-122.27 244.53 1429.1
-101.14 208.61 1219.2
-99.19 211.18 1234.1
-91.65 201.63 1178.4
-87.36 198.81 1161.9
-72.51 170.92 998.9
-68.79 181.61 1061.4
-70.46 193.76 1132.4
-73.28 210.29 1229.0
-73.14 219.42 1282.3
-66.39 208.67 1219.5
-60.13 198.42 1159.6
-56.89 197.61 1154.8
-51.65 189.37 1106.7
-45.70 177.43 1036.9
-42.41 174.92 1022.3
-40.37 177.64 1038.1
-38.69 182.37 1065.8
-36.76 186.60 1090.5
-34.70 190.83 1115.3
-31.67 190.00 1110.4
-27.74 183.10 1070.1
-26.67 195.59 1143.1
-25.18 207.75 1214.1
-20.34 191.74 1120.5
-16.96 186.52 1090.0
-14.28 188.55 1101.9
-11.14 183.83 1074.3
-8.09 177.93 1039.9
-5.16 170.18 994.5
-2.69 177.43 1036.9
0.00 200.37 1171.0
2.97 196.32 1147.3
5.72 188.90 1103.9
8.77 192.94 1127.6
11.60 191.42 1118.7
14.02 185.00 1081.2
17.35 190.90 1115.7
23.22 218.89 1279.2
27.84 229.67 1342.2
28.74 210.77 1231.8
30.43 200.81 1173.6
34.36 206.19 1205.0
35.37 194.54 1136.9
40.04 203.29 1188.1
57.56 237.44 1387.7
52.78 204.90 1197.5
64.19 235.37 1375.5
102.66 307.99 1800.0
96.28 276.29 1614.7
94.03 258.58 1511.2
113.10 298.59 1745.0
141.53 322.10 1882.4
148.52 326.75 1909.6
148.94 317.10 1853.2
158.52 326.95 1910.8
-373.72 299.90 1779.6
-353.86 287.51 1706.1
-330.02 271.53 1611.3
-312.51 260.42 1545.4
-302.08 255.00 1513.2
-295.63 252.84 1500.4
-287.55 249.21 1478.8
-277.34 243.61 1445.6
-271.89 242.09 1436.6
-276.79 249.88 1482.8
-277.00 253.59 1504.8
-262.30 243.57 1445.3
-250.85 236.31 1402.3
-246.98 236.08 1400.9
-246.15 238.81 1417.1
-242.58 238.91 1417.7
-233.10 233.10 1383.3
-223.48 226.97 1346.8
-216.89 223.78 1327.9
-213.69 224.03 1329.4
-210.17 223.96 1329.0
-202.72 219.61 1303.2
-200.90 221.33 1313.4
-204.32 228.98 1358.8
-201.74 230.05 1365.1
-196.99 228.65 1356.8
-193.96 229.23 1360.3
-188.86 227.33 1349.0
-181.94 223.13 1324.1
-177.77 222.22 1318.6
-177.51 226.24 1342.5
-174.47 226.81 1345.9
-171.41 227.38 1349.3
-171.50 232.23 1378.1
-166.54 230.32 1366.8
-161.88 228.74 1357.4
-163.21 235.74 1398.9
-165.22 244.07 1448.3
-158.23 239.18 1419.3
-145.20 224.71 1333.4
-141.15 223.78 1327.9
-141.92 230.61 1368.5
-138.60 231.00 1370.8
-141.66 242.31 1437.9
-141.82 249.15 1478.5
-125.65 226.87 1346.2
-118.36 219.80 1304.3
-133.18 254.62 1510.9
-128.12 252.35 1497.5
-102.66 208.52 1237.4
-92.28 193.49 1148.2
-91.23 197.67 1173.0
-92.42 207.15 1229.2
-81.47 189.12 1122.3
-69.48 167.27 992.6
-64.80 162.00 961.3
-66.33 172.47 1023.5
-69.45 188.09 1116.1
-72.90 206.03 1222.6
-70.08 207.06 1228.7
-62.40 193.15 1146.2
-60.46 196.50 1166.0
-59.43 203.33 1206.5
-56.31 203.35 1206.7
-52.28 199.89 1186.1
-41.65 169.19 1004.0
-36.02 167.23 992.4
-36.97 184.85 1096.9
-34.68 187.86 1114.8
-31.43 185.71 1102.0
-27.88 181.24 1075.5
-27.40 197.86 1174.1
-25.42 206.51 1225.5
-20.27 188.25 1117.1
-16.33 176.96 1050.1
-13.23 171.98 1020.5
-10.68 173.48 1029.4
-8.03 173.98 1032.4
-5.21 169.33 1004.8
-2.82 183.62 1089.6
0.00 211.38 1254.3
3.17 206.22 1223.7
6.03 196.08 1163.6
9.20 199.40 1183.3
12.38 201.23 1194.1
15.18 197.40 1171.4
17.16 185.93 1103.3
21.47 199.38 1183.1
27.44 222.96 1323.1
30.69 221.62 1315.1
31.54 204.99 1216.4
33.68 199.00 1180.9
37.72 204.30 1212.3
46.27 231.35 1372.9
62.22 237.90 1411.7
85.33 277.32 1645.6
85.78 265.50 1575.5
97.20 287.20 1704.2
97.21 274.71 1630.2
98.05 265.55 1575.8
130.29 313.66 1861.3
135.88 315.42 1871.8
148.20 321.11 1905.5
141.34 296.36 1758.6
147.66 299.94 1779.9
160.48 316.11 1875.8
-371.36 282.94 1705.2
-373.78 288.22 1737.0
-371.73 290.13 1748.5
-361.09 285.31 1719.5
-347.19 277.75 1674.0
-326.78 264.74 1595.5
-311.85 255.88 1542.1
-306.26 254.56 1534.2
-303.19 255.32 1538.8
-297.09 253.51 1527.9
-288.61 249.61 1504.4
-276.22 242.17 1459.5
-274.92 244.37 1472.8
-285.51 257.36 1551.1
-279.86 255.87 1542.1
-255.47 236.96 1428.1
-240.40 226.26 1363.6
-239.16 228.45 1376.8
-235.03 227.90 1373.5
-234.68 231.07 1392.6
-233.58 233.58 1407.8
-225.57 229.15 1381.1
-221.30 228.44 1376.7
-220.90 231.76 1396.8
-216.15 230.56 1389.5
-205.76 223.20 1345.2
-201.03 221.83 1336.9
-200.67 225.31 1357.9
-197.93 226.20 1363.3
-193.62 225.31 1357.9
-187.16 221.82 1336.9
-186.18 224.82 1354.9
-188.39 231.87 1397.4
-184.57 231.62 1395.9
-177.46 227.15 1369.0
-171.36 223.81 1348.9
-168.15 224.21 1351.2
-165.18 224.92 1355.6
-163.00 226.78 1366.8
-164.08 233.35 1406.4
-165.84 241.23 1453.8
-160.04 238.20 1435.6
-147.82 225.25 1357.5
-144.76 225.96 1361.8
-146.45 234.32 1412.2
-142.83 234.38 1412.6
-145.39 244.87 1475.8
-146.12 252.75 1523.3
-130.38 231.78 1396.9
-120.99 221.24 1333.4
-134.63 253.41 1527.3
-105.60 218.00 1313.9
-84.23 179.69 1083.0
-92.16 203.40 1225.8
-87.29 199.52 1202.4
-78.95 187.14 1127.9
-78.96 194.36 1171.4
-79.06 202.40 1219.8
-79.65 212.39 1280.1
-80.63 224.36 1352.1
-74.77 217.52 1311.0
-64.95 197.94 1192.9
-62.99 201.56 1214.8
-61.93 208.62 1257.3
-58.27 207.17 1248.6
-57.25 215.54 1299.0
-48.08 192.34 1159.2
-34.78 159.00 958.3
-36.32 178.81 1077.7
-34.36 183.24 1104.4
-31.89 185.55 1118.3
-29.53 189.00 1139.0
-26.79 190.48 1148.0
-23.01 184.11 1109.6
-19.89 181.83 1095.8
-17.00 181.34 1092.9
-13.55 173.50 1045.6
-10.75 172.03 1036.8
-8.26 176.29 1062.4
-5.52 176.62 1064.4
-2.88 184.64 1112.8
0.00 203.96 1229.2
3.09 197.57 1190.7
5.94 190.20 1146.3
9.25 197.40 1189.7
12.57 201.16 1212.4
14.97 191.66 1155.1
16.20 172.83 1041.6
18.97 173.48 1045.5
22.85 182.80 1101.7
27.64 196.54 1184.5
31.63 202.42 1219.9
30.15 175.40 1057.1
30.03 160.18 965.3
38.28 188.46 1135.8
61.37 245.49 1479.5
59.47 223.88 1349.3
84.04 256.13 1543.6
101.59 282.69 1703.7
112.49 299.97 1807.8
119.52 305.96 1844.0
118.04 290.56 1751.1
114.91 272.38 1641.6
123.93 283.27 1707.2
137.06 302.48 1823.0
135.87 289.86 1746.9
139.03 287.03 1729.8
157.60 315.19 1899.6
-384.12 288.09 1763.8
-370.81 281.46 1723.2
-375.77 288.70 1767.6
-370.98 288.54 1766.6
-358.16 282.05 1726.8
-338.60 270.02 1653.2
-324.30 261.94 1603.7
-318.56 260.64 1595.8
-307.13 254.60 1558.8
-294.19 247.12 1513.0
-287.24 244.54 1497.2
-275.96 238.16 1458.1
-259.26 226.86 1388.9
-256.49 227.59 1393.4
-262.87 236.58 1448.5
-248.97 227.32 1391.7
-235.87 218.52 1337.9
-236.55 222.43 1361.8
-230.29 219.82 1345.9
-228.04 221.03 1353.2
-230.77 227.16 1390.8
-226.30 226.30 1385.5
-220.76 224.32 1373.4
-219.29 226.48 1386.6
-216.69 227.52 1393.0
-208.83 222.99 1365.2
-200.82 218.13 1335.5
-196.99 217.73 1333.0
-197.30 221.96 1358.9
-196.07 224.59 1375.1
-191.21 223.07 1365.8
-191.90 228.10 1396.5
-190.84 231.21 1415.6
-183.61 226.82 1388.7
-178.29 224.65 1375.4
-174.04 223.76 1370.0
-170.78 224.15 1372.4
-167.40 224.38 1373.8
-163.65 224.13 1372.2
-163.34 228.68 1400.1
-162.00 231.95 1420.1
-152.45 223.36 1367.5
-144.25 216.37 1324.7
-145.86 224.12 1372.2
-152.83 240.70 1473.7
-155.30 250.87 1535.9
-148.93 246.92 1511.7
-137.51 234.14 1433.5
-127.13 222.48 1362.1
-125.68 226.22 1385.0
-129.22 239.44 1466.0
-131.51 251.06 1537.1
-112.20 228.02 1396.1
-80.67 169.40 1037.2
-81.92 177.96 1089.5
-91.54 205.97 1261.0
-97.59 227.71 1394.2
-91.14 220.84 1352.1
-85.16 214.60 1313.9
-78.03 204.82 1254.0
-73.61 201.63 1234.5
-70.42 201.66 1234.7
-61.27 183.82 1125.4
-55.50 174.83 1070.4
-52.39 173.73 1063.6
-53.09 185.82 1137.7
-55.84 206.94 1267.0
-54.73 215.50 1319.4
-46.90 197.00 1206.1
-39.34 177.04 1083.9
-36.57 177.22 1085.0
-33.57 176.27 1079.2
-30.10 172.41 1055.6
-26.78 168.72 1033.0
-23.30 163.09 998.5
-22.00 173.25 1060.7
-21.08 189.70 1161.4
-17.55 184.23 1127.9
-13.87 174.72 1069.7
-10.66 167.96 1028.3
-7.85 164.90 1009.6
-5.22 164.42 1006.6
-2.74 172.48 1056.0
0.00 196.34 1202.1
3.13 196.98 1206.0
5.79 182.31 1116.2
8.73 183.28 1122.1
11.44 180.21 1103.3
13.15 165.70 1014.5
16.30 171.17 1048.0
21.38 192.44 1178.2
23.94 188.56 1154.5
27.10 189.68 1161.3
31.69 199.66 1222.4
30.64 175.47 1074.3
44.03 198.15 1213.1
51.93 218.10 1335.3
56.16 221.14 1353.9
59.19 219.34 1342.9
57.37 200.80 1229.4
60.45 200.45 1227.3
75.74 238.58 1460.7
99.87 285.99 1751.0
108.18 283.98 1738.6
100.35 252.89 1548.3
113.11 274.07 1678.0
124.47 290.43 1778.1
129.84 292.15 1788.7
139.34 302.70 1853.3
142.28 298.79 1829.3
149.92 304.67 1865.3
-371.37 277.41 1725.8
-365.65 276.47 1720.0
-363.41 278.16 1730.5
-353.08 273.64 1702.4
-339.33 266.31 1656.8
-329.52 261.93 1629.5
-319.27 257.07 1599.3
-303.44 247.54 1540.0
-286.39 236.75 1472.9
-276.75 231.87 1442.5
-273.32 232.13 1444.1
-263.17 226.62 1409.9
-253.02 220.95 1374.6
-253.09 224.17 1394.6
-250.81 225.36 1402.0
-247.97 226.09 1406.5
-245.94 227.59 1415.9
-237.38 222.99 1387.3
-229.78 219.17 1363.5
-227.47 220.36 1370.9
-222.41 218.88 1361.7
-216.30 216.30 1345.7
-212.13 215.60 1341.3
-206.91 213.81 1330.1
-205.78 216.24 1345.3
-204.42 218.52 1359.5
-199.53 217.03 1350.2
-198.94 220.25 1370.2
-200.75 226.30 1407.9
-198.95 228.42 1421.1
-193.05 225.83 1404.9
-185.25 220.87 1374.1
-180.84 219.84 1367.7
-178.37 221.17 1376.0
-175.10 221.56 1378.4
-172.68 223.05 1387.6
-165.07 217.76 1354.7
-156.23 210.57 1310.0
-162.03 223.25 1388.9
-167.77 236.40 1470.7
-160.94 232.05 1443.6
-155.42 229.43 1427.3
-149.15 225.55 1403.2
-146.27 226.71 1410.4
-147.51 234.51 1458.9
-139.02 226.83 1411.1
-128.14 214.72 1335.8
-120.94 208.29 1295.8
-100.39 177.83 1106.3
-101.88 197.40 1228.1
-107.42 214.84 1336.6
-102.22 211.25 1314.2
-108.38 231.70 1441.5
-98.21 234.20 1457.0
-82.64 204.94 1275.0
-70.39 181.85 1131.3
-66.29 178.71 1111.8
-63.03 177.63 1105.0
-55.66 164.34 1022.4
-50.97 158.02 983.1
-46.26 159.33 991.2
-53.08 193.59 1204.4
-55.49 215.02 1337.7
-48.80 201.72 1255.0
-41.58 184.14 1145.6
-37.61 179.39 1116.0
-33.80 174.65 1086.5
-30.54 172.13 1070.8
-27.51 170.55 1061.0
-23.81 164.06 1020.6
-22.30 172.79 1075.0
-20.01 177.24 1102.7
-15.60 161.22 1003.0
-13.16 163.13 1014.9
-10.80 167.42 1041.6
-8.30 171.55 1067.3
-5.75 178.38 1109.7
-2.58 160.13 996.2
0.00 155.37 966.6
2.85 176.95 1100.9
6.07 188.22 1171.0
8.86 183.14 1139.3
11.11 172.18 1071.2
13.63 169.01 1051.4
17.86 184.55 1148.1
22.77 201.68 1254.7
25.51 197.70 1230.0
27.29 188.01 1169.7
29.20 181.02 1126.2
32.28 181.96 1132.0
32.91 170.05 1057.9
41.58 161.11 1002.3
51.65 188.36 1171.8
58.82 202.61 1260.5
57.95 189.11 1176.5
65.49 203.03 1263.1
98.34 277.13 1724.1
104.79 282.48 1757.4
93.11 230.92 1436.6
150.69 301.38 1875.0
-381.47 277.02 1751.7
-375.05 275.64 1742.9
-357.37 265.85 1681.0
-345.27 260.02 1644.1
-345.39 263.36 1665.3
-339.86 262.42 1659.3
-330.24 258.26 1633.0
-320.17 253.64 1603.8
-309.48 248.39 1570.6
-296.68 241.30 1525.8
-278.16 229.29 1449.9
-267.36 223.41 1412.7
-267.81 226.89 1434.7
-266.71 229.15 1448.9
-258.66 225.41 1425.3
-248.82 219.97 1390.9
-249.43 223.76 1414.9
-250.27 227.86 1440.8
-244.14 225.64 1426.8
-238.90 224.20 1417.6
-234.83 223.83 1415.3
-228.07 220.83 1396.4
-222.66 219.07 1385.2
-218.85 218.85 1383.8
-211.70 215.23 1360.9
-208.70 215.77 1364.4
-208.47 219.25 1386.4
-204.81 219.18 1385.9
-201.71 219.72 1389.3
-200.83 222.74 1408.4
-199.44 225.29 1424.6
-193.93 223.20 1411.4
-184.53 216.47 1368.8
-178.58 213.60 1350.6
-179.45 218.93 1384.4
-179.90 223.96 1416.2
-174.82 222.17 1404.8
-164.06 212.94 1346.4
-155.47 206.17 1303.7
-161.76 219.27 1386.5
-170.86 236.87 1497.8
-167.90 238.18 1506.1
-158.80 230.64 1458.4
-147.75 219.82 1390.0
-142.96 218.02 1378.6
-141.51 221.34 1399.6
-132.59 212.84 1345.8
-123.47 203.56 1287.2
-129.44 219.32 1386.8
-122.92 214.24 1354.7
-96.80 173.67 1098.1
-100.37 185.54 1173.2
-115.07 219.36 1387.1
-110.00 216.45 1368.6
-114.59 233.00 1473.3
-93.60 211.47 1337.1
-85.90 201.53 1274.3
-87.78 214.19 1354.4
-70.79 179.92 1137.7
-65.09 172.62 1091.5
-67.50 187.15 1183.4
-64.28 186.71 1180.6
-58.51 178.47 1128.5
-53.02 170.22 1076.3
-48.76 165.25 1044.9
-52.02 186.65 1180.2
-52.55 213.69 1351.2
-44.64 194.51 1229.9
-40.26 188.91 1194.5
-34.09 173.31 1095.9
-29.20 161.92 1023.9
-28.59 174.43 1102.9
-27.12 183.81 1162.2
-23.04 175.70 1111.0
-18.73 163.21 1032.0
-14.99 152.44 963.9
-12.83 156.51 989.6
-11.11 169.48 1071.6
-9.00 183.07 1157.6
-6.21 189.32 1197.1
-2.77 169.17 1069.7
5.50 167.61 1059.8
8.69 176.66 1117.1
11.14 169.94 1074.6
13.80 168.38 1064.7
16.59 168.68 1066.6
18.93 164.93 1042.9
22.65 172.73 1092.2
27.21 184.43 1166.2
30.82 188.01 1188.8
35.93 199.24 1259.8
40.48 205.78 1301.2
39.29 184.38 1165.9
36.40 158.60 1002.9
38.00 154.53 977.1
41.31 157.48 995.8
51.06 183.21 1158.5
60.55 205.19 1297.5
58.66 188.32 1190.8
60.35 184.08 1164.0
67.50 196.07 1239.8
81.28 225.36 1425.0
113.72 277.48 1754.6
120.84 283.51 1792.7
126.78 286.42 1811.1
161.25 298.07 1884.8
-383.51 273.94 1761.0
-385.59 278.74 1791.9
-374.15 273.77 1760.0
-358.00 265.18 1704.7
-354.96 266.22 1711.4
-340.38 258.52 1661.9
-323.90 249.15 1601.7
-317.39 247.31 1589.9
-309.59 244.42 1571.2
-297.55 238.04 1530.3
-278.82 226.07 1453.3
-266.54 219.08 1408.4
-265.92 221.60 1424.5
-261.09 220.64 1418.4
-249.76 214.08 1376.2
-241.78 210.24 1351.5
-244.38 215.63 1386.2
-244.78 219.21 1409.2
-238.40 216.73 1393.2
-236.20 218.03 1401.6
-234.44 219.79 1412.9
-228.96 218.06 1401.8
-225.26 217.99 1401.4
-224.64 220.96 1420.5
-220.59 220.59 1418.1
-215.80 219.46 1410.8
-214.28 221.67 1425.0
-205.75 216.58 1392.3
-197.53 211.64 1360.5
-197.84 215.82 1387.4
-197.74 219.71 1412.4
-195.08 220.85 1419.7
-188.83 217.88 1400.6
-181.24 213.22 1370.7
-180.79 216.95 1394.7
-180.10 220.53 1417.7
-173.55 216.94 1394.6
-171.06 218.38 1403.9
-171.45 223.63 1437.6
-164.22 218.97 1407.6
-158.16 215.67 1386.4
-159.20 222.15 1428.1
-154.58 220.83 1419.6
-139.97 204.84 1316.8
-133.81 205.86 1323.4
-131.48 207.60 1334.6
-122.86 199.23 1280.8
-130.68 217.80 1400.1
-115.50 223.55 1437.1
-100.61 201.22 1293.6
-108.54 224.56 1443.6
-100.59 215.56 1385.7
-80.94 179.87 1156.3
-80.08 184.81 1188.0
-82.32 197.57 1270.1
-66.89 167.22 1075.0
-60.52 157.89 1015.0
-61.62 168.04 1080.3
-63.17 180.50 1160.3
-62.02 186.05 1196.0
-57.27 180.85 1162.6
-53.80 179.34 1152.9
-50.86 179.51 1154.0
-50.17 188.13 1209.4
-48.80 195.22 1255.0
-44.09 188.94 1214.6
-39.64 182.96 1176.2
-33.15 165.77 1065.7
-27.91 152.26 978.8
-26.81 160.88 1034.2
-26.74 178.25 1145.9
-23.95 179.65 1154.9
-19.99 171.36 1101.6
-16.49 164.91 1060.1
-13.24 158.92 1021.6
-10.76 161.38 1037.5
-8.52 170.30 1094.8
-5.70 171.07 1099.8
-2.87 172.30 1107.7
0.00 166.00 1067.2
2.60 156.01 1002.9
5.66 169.69 1090.9
8.52 170.46 1095.8
10.44 156.62 1006.8
13.33 160.00 1028.5
16.46 164.60 1058.1
19.13 163.98 1054.2
24.26 181.95 1169.7
29.92 199.46 1282.2
31.70 190.23 1222.9
35.58 194.05 1247.5
40.19 200.95 1291.8
46.63 215.22 1383.6
49.28 211.21 1357.8
51.65 206.58 1328.0
56.31 211.17 1357.5
57.87 204.24 1313.0
57.86 192.85 1239.8
57.08 180.24 1158.7
58.79 176.38 1133.9
69.30 198.00 1272.8
110.21 275.54 1771.3
118.18 283.62 1823.3
117.63 271.46 1745.1
-388.07 272.58 1782.0
-375.61 273.59 1788.6
-364.33 268.70 1756.6
-343.09 256.23 1675.1
-330.29 249.84 1633.3
-326.99 250.55 1638.0
-308.95 239.84 1568.0
-287.85 226.44 1480.4
-279.30 222.69 1455.8
-275.66 222.79 1456.5
-272.37 223.19 1459.1
-264.59 219.87 1437.4
-261.16 220.12 1439.0
-260.67 222.89 1457.2
-250.48 217.33 1420.8
-239.63 211.02 1379.5
-235.15 210.21 1374.3
-234.48 212.84 1391.4
-233.40 215.16 1406.6
-228.25 213.76 1397.4
-224.87 213.99 1399.0
-224.88 217.51 1422.0
-222.96 219.24 1433.3
-220.37 220.37 1440.7
-216.42 220.15 1439.3
-205.11 212.31 1388.0
-194.48 204.90 1339.5
-192.19 206.17 1347.8
-194.25 212.23 1387.5
-194.08 216.05 1412.5
-192.20 218.07 1425.7
-189.73 219.50 1435.0
-184.42 217.62 1422.7
-178.55 214.99 1405.5
-173.74 213.55 1396.1
-172.92 217.07 1419.1
-168.94 216.69 1416.6
-157.07 205.94 1346.3
-154.63 207.35 1355.5
-161.02 220.93 1444.4
-156.89 220.39 1440.8
-142.85 205.56 1343.9
-133.90 197.50 1291.1
-138.74 209.88 1372.1
-141.51 219.72 1436.4
-137.16 218.72 1429.9
-127.06 208.23 1361.3
-124.36 209.63 1370.5
-138.98 241.16 1576.6
-114.12 217.20 1420.0
-97.28 191.31 1250.7
-101.39 206.28 1348.6
-105.64 222.61 1455.3
-96.16 210.13 1373.7
-85.03 192.96 1261.5
-74.55 175.94 1150.2
-71.15 174.92 1143.5
-74.38 190.79 1247.3
-68.79 184.48 1206.0
-63.25 177.71 1161.8
-55.39 163.39 1068.2
-48.49 150.57 984.4
-49.35 161.77 1057.6
-50.62 175.68 1148.5
-44.33 163.47 1068.7
-39.26 154.42 1009.5
-39.26 165.46 1081.7
-39.29 178.32 1165.8
-32.95 162.01 1059.2
-27.36 146.76 959.5
-24.59 145.11 948.7
-23.01 150.86 986.3
-23.10 170.37 1113.8
-21.52 181.42 1186.0
-17.71 174.17 1138.6
-14.18 167.37 1094.2
-11.13 164.20 1073.5
-8.57 168.59 1102.1
-5.77 170.25 1113.0
-2.93 172.83 1129.9
0.00 177.51 1160.5
3.11 183.71 1201.0
6.40 188.85 1234.6
9.08 178.57 1167.4
11.45 168.89 1104.1
15.39 181.58 1187.1
18.20 179.00 1170.2
20.61 173.71 1135.6
25.25 186.24 1217.6
28.66 187.90 1228.4
31.13 183.65 1200.6
34.91 187.27 1224.3
38.05 187.10 1223.2
42.69 193.74 1266.6
48.62 204.90 1339.5
54.93 216.06 1412.5
59.94 221.03 1445.0
62.37 216.47 1415.2
64.47 211.31 1381.4
65.12 202.22 1322.0
71.00 209.45 1369.3
104.03 266.87 1744.6
-377.72 267.17 1776.8
-370.87 265.56 1766.0
-364.07 263.95 1755.3
-340.44 249.94 1662.2
-324.73 241.46 1605.8
-327.50 246.69 1640.5
-314.61 240.09 1596.7
-292.68 226.34 1505.2
-283.51 222.21 1477.7
-282.75 224.65 1494.0
-281.54 226.80 1508.3
-272.21 222.37 1478.8
-267.26 221.44 1472.7
-269.31 226.37 1505.4
-260.71 222.37 1478.8
-252.59 218.66 1454.1
-250.76 220.36 1465.5
-244.27 217.96 1449.5
-237.69 215.41 1432.5
-233.76 215.20 1431.2
-231.55 216.61 1440.5
-228.99 217.72 1447.9
-224.56 217.07 1443.6
-218.81 215.10 1430.5
-211.50 211.50 1406.5
-205.91 209.52 1393.4
-200.81 207.98 1383.1
-194.64 205.26 1365.0
-192.95 207.24 1378.2
-189.58 207.46 1379.7
-183.95 205.17 1364.5
-185.66 211.14 1404.1
-185.00 214.60 1427.1
-181.73 215.11 1430.5
-179.55 216.95 1442.8
-179.33 221.30 1471.7
-176.03 221.96 1476.1
-161.03 207.54 1380.2
-156.37 206.13 1370.8
-166.34 224.37 1492.1
-166.69 230.19 1530.8
-154.51 218.57 1453.6
-149.45 216.71 1441.2
-147.94 220.02 1463.2
-141.08 215.34 1432.0
-138.82 217.61 1447.2
-129.86 209.22 1391.4
-117.35 194.46 1293.2
-119.14 203.24 1351.6
-123.42 216.92 1442.6
-115.78 209.85 1395.6
-94.12 176.10 1171.1
-82.90 160.27 1065.8
-93.72 187.44 1246.5
-108.91 225.59 1500.2
-90.26 193.89 1289.4
-75.89 169.29 1125.8
-71.89 166.80 1109.2
-74.50 180.03 1197.3
-81.41 205.29 1365.3
-76.14 200.72 1334.8
-65.48 180.85 1202.7
-54.69 158.60 1054.7
-45.04 145.12 965.1
-50.77 173.22 1151.9
-48.04 174.13 1158.0
-41.31 159.73 1062.3
-40.82 169.11 1124.6
-39.84 177.74 1182.0
-32.81 158.59 1054.6
-28.44 149.98 997.4
-26.55 154.00 1024.1
-23.25 149.85 996.5
-22.06 159.97 1063.8
-21.48 177.96 1183.5
-18.58 179.61 1194.4
-14.57 169.06 1124.3
-11.17 161.92 1076.8
-8.75 169.21 1125.3
-6.00 174.12 1158.0
-2.95 170.85 1136.2
0.00 169.52 1127.3
3.01 174.87 1162.9
6.13 177.69 1181.7
9.01 174.27 1158.9
11.87 172.18 1145.1
15.36 178.13 1184.6
17.18 166.08 1104.5
19.11 158.34 1053.0
23.23 168.44 1120.2
29.16 187.91 1249.6
33.75 195.77 1301.9
34.08 179.71 1195.1
34.59 167.21 1112.0
39.31 175.37 1166.2
45.45 188.28 1252.1
55.30 213.82 1422.0
66.29 213.60 1420.5
66.66 203.48 1353.2
72.56 210.43 1399.4
114.37 265.33 1764.5
-379.71 263.95 1786.1
-368.97 259.65 1757.0
-366.21 260.92 1765.6
-344.54 248.59 1682.2
-318.37 232.66 1574.4
-313.67 232.20 1571.3
-314.15 235.61 1594.4
-302.98 230.27 1558.2
-292.37 225.21 1524.0
-290.40 226.75 1534.4
-283.46 224.41 1518.6
-269.08 216.03 1461.8
-259.41 211.23 1429.4
-257.38 212.62 1438.8
-257.54 215.88 1460.8
-256.74 218.42 1478.0
-255.52 220.68 1493.3
-249.45 218.75 1480.3
-240.05 213.79 1446.7
-233.52 211.28 1429.7
-227.71 209.35 1416.6
-221.34 206.83 1399.6
-221.60 210.52 1424.6
-220.38 212.91 1440.8
-212.91 209.23 1415.9
-207.14 207.14 1401.7
-203.16 206.78 1399.3
-198.20 205.41 1390.0
-197.55 208.52 1411.1
-195.30 210.04 1421.4
-186.26 204.17 1381.6
-184.17 205.84 1392.9
-186.72 212.86 1440.4
-187.04 217.57 1472.3
-184.26 218.80 1480.6
-183.70 222.79 1507.6
-183.13 226.92 1535.6
-170.37 215.81 1460.3
-155.76 201.78 1365.4
-154.23 204.45 1383.5
-165.47 224.56 1519.6
-167.53 232.91 1576.1
-155.33 221.34 1497.8
-145.11 212.09 1435.2
-139.10 208.65 1411.9
-138.59 213.50 1444.7
-138.55 219.38 1484.5
-134.74 219.43 1484.8
-128.14 214.82 1453.6
-121.70 210.20 1422.4
-113.70 202.52 1370.5
-97.49 179.25 1213.0
-92.21 175.20 1185.6
-108.07 212.41 1437.4
-107.94 219.74 1487.0
-76.75 162.03 1096.4
-72.72 159.43 1078.9
-77.36 176.38 1193.6
-71.08 168.82 1142.4
-69.78 172.93 1170.2
-72.84 188.72 1277.1
-69.16 187.73 1270.3
-64.19 182.94 1237.9
-57.87 173.61 1174.8
-51.37 162.68 1100.9
-52.18 174.97 1184.0
-50.76 180.83 1223.7
-44.29 168.29 1138.8
-40.66 165.53 1120.1
-36.99 162.18 1097.5
-33.75 160.29 1084.7
-32.49 168.34 1139.2
-28.82 164.26 1111.6
-23.88 151.27 1023.6
-20.99 149.52 1011.8
-19.01 154.79 1047.5
-17.48 166.05 1123.7
-14.57 166.06 1123.7
-11.33 161.39 1092.1
-8.94 169.87 1149.5
-6.37 181.42 1227.7
-3.25 185.08 1252.4
0.00 171.19 1158.4
2.91 166.07 1123.8
6.13 174.69 1182.1
9.39 178.49 1207.8
10.85 154.66 1046.6
16.40 155.82 1054.4
22.62 184.17 1246.3
25.79 183.72 1243.2
29.47 186.64 1262.9
32.77 186.77 1263.9
31.44 162.94 1102.6
34.02 161.61 1093.6
40.59 177.96 1204.2
42.23 171.95 1163.6
44.98 170.92 1156.6
57.81 205.95 1393.7
63.55 213.09 1442.0
66.41 210.29 1423.0
69.70 209.10 1414.9
-381.50 260.53 1794.5
-372.36 257.43 1773.1
-371.16 259.81 1789.5
-360.55 255.58 1760.4
-342.62 245.99 1694.3
-321.34 233.70 1609.7
-308.52 227.33 1565.8
-308.57 230.40 1586.9
-307.59 232.77 1603.3
-297.86 228.50 1573.8
-284.11 220.97 1522.0
-268.46 211.75 1458.5
-257.73 206.18 1420.2
-255.38 207.27 1427.6
-254.88 209.90 1445.8
-249.38 208.44 1435.7
-243.59 206.69 1423.6
-242.47 208.90 1438.8
-237.54 207.85 1431.6
-232.01 206.23 1420.5
-227.01 205.04 1412.3
-220.80 202.71 1396.2
-221.38 206.62 1423.1
-222.71 211.39 1456.0
-217.55 210.04 1446.7
-212.14 208.42 1435.5
-208.35 208.35 1435.1
-205.68 209.42 1442.4
-207.64 215.33 1483.1
-207.77 219.53 1512.1
-201.28 216.76 1493.0
-193.32 212.27 1462.1
-189.97 212.77 1465.5
-191.60 218.97 1508.2
-190.43 222.17 1530.3
-181.38 216.11 1488.5
-171.83 209.18 1440.8
-165.05 205.39 1414.7
-156.26 198.88 1369.8
-151.55 197.37 1359.4
-157.49 209.99 1446.4
-165.29 225.77 1555.0
-159.88 223.83 1541.7
-155.12 222.74 1534.2
-156.81 231.09 1591.7
-151.49 229.29 1579.3
-145.59 226.48 1559.9
-138.45 221.52 1525.8
-127.92 210.70 1451.2
-129.42 219.62 1512.7
-129.86 227.25 1565.3
-118.85 214.70 1478.8
-123.40 230.35 1586.6
-108.77 217.54 1498.4
-86.32 179.03 1233.1
-82.73 178.20 1227.4
-85.13 190.70 1313.5
-78.30 182.70 1258.4
-75.93 184.88 1273.4
-77.49 197.24 1358.6
-71.34 190.24 1310.3
-65.34 182.95 1260.1
-63.98 188.57 1298.8
-60.43 188.02 1295.0
-51.46 169.52 1167.6
-43.72 153.03 1054.1
