ply
format ascii 1.0
element vertex 2200
property float x
property float y
property float z
end_header
-14.12 926.96 1814.9
-9.66 951.08 1862.2
-4.95 976.10 1911.2
0.00 1002.49 1962.8
5.13 1010.67 1978.8
10.03 988.38 1935.2
14.70 965.62 1890.6
20.06 987.89 1934.2
-421.40 1019.69 2006.7
-425.17 1054.85 2075.9
-395.30 993.31 1954.8
-384.95 979.88 1928.3
-379.41 978.48 1925.6
-368.08 961.90 1893.0
-343.58 910.03 1790.9
-334.24 897.42 1766.1
-355.73 968.37 1905.7
-343.23 961.03 1891.2
-325.53 924.70 1819.7
-318.44 917.87 1806.3
-313.72 917.74 1806.1
-301.00 893.88 1759.1
-288.37 869.54 1711.2
-286.81 878.35 1728.5
-281.56 875.95 1723.8
-274.91 869.07 1710.3
-269.72 866.65 1705.5
-259.75 848.53 1669.9
-255.78 849.69 1672.1
-258.82 874.65 1721.3
-256.79 883.00 1737.7
-250.05 875.17 1722.3
-243.01 865.99 1704.2
-235.44 854.55 1681.7
-229.44 848.50 1669.8
-224.58 846.48 1665.8
-217.98 837.71 1648.6
-209.86 822.64 1618.9
-204.02 816.10 1606.0
-200.24 817.66 1609.1
-195.69 816.06 1606.0
-195.17 831.58 1636.5
-196.66 856.56 1685.7
-192.33 856.76 1686.1
-182.67 832.62 1638.5
-175.95 821.08 1615.8
-175.38 838.40 1649.9
-171.88 842.19 1657.4
-163.48 821.61 1616.9
-159.59 823.13 1619.9
-156.10 826.91 1627.3
-150.92 821.65 1616.9
-149.49 837.16 1647.5
-150.34 866.66 1705.5
-146.55 870.43 1713.0
-138.60 848.90 1670.6
-133.29 842.71 1658.4
-130.46 852.34 1677.3
-126.80 856.99 1686.5
-123.61 865.26 1702.8
-121.89 884.83 1741.3
-117.93 889.02 1749.5
-110.53 866.53 1705.3
-103.41 844.48 1661.9
-97.09 827.40 1628.3
-93.64 834.28 1641.8
-92.16 860.17 1692.8
-89.40 876.10 1724.1
-84.19 868.50 1709.1
-77.56 844.60 1662.1
-71.77 827.47 1628.4
-69.66 853.35 1679.3
-69.40 906.85 1784.6
-65.91 922.76 1815.9
-58.35 879.81 1731.4
-51.93 848.17 1669.1
-49.84 888.08 1747.7
-46.77 916.66 1803.9
-42.09 916.70 1804.0
-38.58 945.28 1860.2
-34.04 953.02 1875.5
-27.91 911.83 1794.4
-22.94 899.18 1769.5
-18.68 915.51 1801.7
-14.39 939.98 1849.8
-9.90 970.35 1909.6
-4.90 960.84 1890.9
0.00 946.80 1863.2
4.70 921.88 1814.2
13.81 902.39 1775.8
20.16 987.98 1944.3
34.80 974.31 1917.4
-394.27 985.69 1949.7
-393.24 995.85 1969.8
-377.72 969.14 1917.0
-359.73 935.30 1850.0
-342.58 902.75 1785.7
-339.25 906.21 1792.5
-337.52 914.12 1808.1
-326.63 897.09 1774.5
-326.15 908.56 1797.1
-327.28 924.93 1829.5
-317.21 909.66 1799.3
-309.75 901.51 1783.2
-301.31 890.23 1760.9
-292.98 878.93 1738.5
-289.89 883.25 1747.1
-283.29 876.84 1734.4
-277.89 874.00 1728.8
-273.91 875.63 1732.0
-261.40 849.54 1680.4
-255.50 844.44 1670.3
-256.30 861.69 1704.4
-251.96 861.95 1705.0
-241.44 840.73 1663.0
-230.89 818.60 1619.2
-234.44 846.59 1674.6
-239.05 879.52 1739.7
-233.89 877.08 1734.9
-226.76 867.01 1715.0
-219.84 857.38 1695.9
-215.05 855.81 1692.8
-214.25 870.38 1721.6
-212.54 881.81 1744.2
-201.82 855.56 1692.3
-194.17 841.41 1664.3
-191.52 848.79 1678.9
-182.95 829.68 1641.1
-184.45 856.36 1693.9
-184.68 900.31 1780.8
-171.56 857.81 1696.8
-162.99 836.41 1654.4
-155.24 818.15 1618.3
-152.48 825.95 1633.7
-153.44 854.89 1691.0
-152.54 874.83 1730.4
-147.01 868.69 1718.3
-139.40 849.49 1680.3
-134.50 846.04 1673.5
-132.88 863.73 1708.5
-130.41 876.92 1734.6
-123.93 863.09 1707.2
-119.21 860.97 1703.0
-115.41 865.59 1712.2
-108.22 844.09 1669.6
-102.63 833.84 1649.4
-97.83 829.44 1640.7
-94.40 836.75 1655.1
-93.13 864.79 1710.6
-89.40 871.64 1724.1
-83.31 855.05 1691.3
-77.60 840.71 1663.0
-72.63 833.13 1647.9
-67.92 827.79 1637.4
-65.28 848.60 1678.6
-62.87 875.72 1732.2
-56.43 846.47 1674.3
-51.68 839.77 1661.1
-51.04 904.77 1789.6
-47.65 929.17 1837.9
-42.68 924.71 1829.1
-37.31 909.41 1798.8
-31.11 866.59 1714.1
-27.48 893.24 1766.9
-24.34 949.21 1877.6
-19.47 949.23 1877.6
-14.70 955.57 1890.1
-10.01 975.88 1930.3
-4.87 950.62 1880.4
0.00 936.64 1852.7
4.69 914.08 1808.1
9.06 883.39 1747.4
14.62 950.15 1879.4
20.30 989.84 1957.9
25.76 1004.70 1987.3
-386.14 960.40 1909.5
-391.00 985.11 1958.6
-382.78 977.10 1942.7
-371.22 960.22 1909.1
-358.13 938.89 1866.7
-347.26 922.86 1834.8
-338.85 913.01 1815.3
-336.05 918.23 1825.6
-342.96 950.50 1889.8
-336.77 946.85 1882.6
-319.72 912.13 1813.5
-314.51 910.68 1810.6
-308.26 906.11 1801.5
-295.96 883.31 1756.2
-290.03 879.17 1748.0
-283.58 873.24 1736.2
-278.74 872.19 1734.1
-279.23 888.04 1765.6
-271.16 876.75 1743.2
-261.72 860.56 1711.0
-259.22 867.06 1723.9
-256.79 874.00 1737.7
-247.99 859.11 1708.1
-233.15 822.37 1635.0
-232.82 836.43 1663.0
-240.15 879.03 1747.7
-238.07 888.20 1765.9
-229.22 871.93 1733.6
-220.53 855.65 1701.2
-217.53 861.23 1712.3
-218.34 882.44 1754.5
-215.68 890.26 1770.0
-203.83 859.65 1709.2
-197.90 853.15 1696.2
-196.59 866.76 1723.3
-187.50 845.95 1681.9
-188.70 871.63 1733.0
-176.42 877.56 1744.8
-164.56 840.14 1670.4
-159.07 834.04 1658.3
-158.54 854.36 1698.6
-154.17 854.52 1699.0
-148.22 845.72 1681.5
-145.33 854.38 1698.7
-140.07 849.15 1688.3
-135.00 844.81 1679.7
-133.37 862.43 1714.7
-131.82 881.85 1753.3
-126.20 874.36 1738.4
-119.58 859.24 1708.4
-114.09 851.29 1692.5
-108.39 841.08 1672.3
-104.12 841.64 1673.4
-100.70 849.38 1688.7
-98.67 870.12 1730.0
-95.71 884.13 1757.9
-90.23 875.25 1740.2
-84.54 863.23 1716.3
-79.06 852.09 1694.1
-74.71 852.62 1695.2
-70.58 855.84 1701.6
-65.66 849.17 1688.3
-61.12 846.99 1684.0
-57.78 862.32 1714.5
-55.84 902.80 1795.0
-54.02 952.72 1894.2
-49.44 959.06 1906.8
-42.39 913.74 1816.7
-35.27 855.38 1700.7
-30.30 839.69 1669.5
-27.82 899.47 1788.3
-24.47 949.37 1887.6
-19.32 937.26 1863.5
-14.38 930.09 1849.2
-9.65 936.39 1861.8
-4.95 961.11 1910.9
0.00 1007.85 2003.8
10.51 1019.07 2026.1
25.81 1001.49 1991.2
-399.76 964.42 1927.4
-399.25 975.39 1949.3
-405.57 1003.53 2005.6
-405.98 1017.59 2033.7
-400.87 1017.99 2034.5
-392.15 1009.13 2016.8
-371.52 968.95 1936.5
-354.79 938.00 1874.6
-342.49 918.05 1834.7
-336.72 915.30 1829.3
-338.35 932.87 1864.4
-326.68 913.77 1826.2
-310.23 880.50 1759.7
-305.77 880.81 1760.3
-304.34 889.97 1778.6
-296.70 880.98 1760.7
-281.08 847.64 1694.0
-266.50 829.60 1658.0
-271.11 857.78 1714.3
-274.33 882.43 1763.6
-276.08 903.10 1804.9
-268.68 894.07 1786.8
-261.25 884.58 1767.9
-257.00 885.73 1770.2
-246.79 866.02 1730.8
-236.54 845.40 1689.5
-234.66 854.52 1707.8
-234.13 868.98 1736.7
-226.87 858.55 1715.8
-218.91 845.00 1688.7
-216.62 853.22 1705.2
-212.48 854.33 1707.4
-204.96 841.65 1682.0
-202.66 850.31 1699.4
-205.78 882.56 1763.8
-201.46 883.66 1766.0
-189.98 852.69 1704.1
-183.08 841.31 1681.4
-185.01 870.89 1740.5
-186.17 898.26 1795.2
-176.96 875.72 1750.1
-165.61 841.13 1681.0
-160.86 839.07 1676.9
-159.37 854.40 1707.5
-154.16 850.10 1698.9
-148.76 844.46 1687.7
-146.40 856.21 1711.2
-139.92 843.86 1686.5
-133.70 832.40 1663.6
-130.94 842.36 1683.5
-128.40 854.54 1707.8
-124.51 858.25 1715.2
-119.46 853.91 1706.6
-116.43 864.30 1727.3
-113.24 874.25 1747.2
-106.45 856.04 1710.8
-100.91 846.77 1692.3
-98.22 861.62 1722.0
-94.59 869.32 1737.3
-90.42 872.54 1743.8
-85.91 872.63 1744.0
-80.52 863.33 1725.4
-76.17 864.75 1728.2
-72.25 871.54 1741.8
-67.43 867.58 1733.9
-62.39 860.05 1718.8
-58.57 869.50 1737.7
-55.04 885.22 1769.1
-51.68 906.74 1812.1
-49.28 951.08 1900.8
-43.89 941.29 1881.2
-36.48 880.04 1758.8
-31.45 867.10 1732.9
-27.08 871.16 1741.0
-22.21 857.31 1713.4
-17.47 843.01 1684.8
-9.26 893.16 1785.0
-5.03 971.47 1941.5
0.00 993.85 1986.2
5.07 977.74 1954.0
10.09 973.26 1945.1
15.41 991.59 1981.7
20.94 1010.36 2019.2
-376.12 975.88 1960.5
-358.65 943.31 1895.0
-345.80 922.13 1852.5
-336.24 909.28 1826.7
-334.68 917.98 1844.1
-325.43 905.55 1819.2
-311.17 878.59 1765.0
-305.78 876.26 1760.3
-303.44 882.73 1773.3
-295.96 874.22 1756.2
-280.63 841.90 1691.3
-268.24 817.49 1642.3
-270.48 837.61 1682.7
-267.46 841.85 1691.2
-263.30 842.56 1692.6
-268.08 872.41 1752.6
-263.62 872.68 1753.1
-252.99 852.18 1712.0
-245.53 841.83 1691.2
-240.84 840.75 1689.0
-235.91 838.78 1685.1
-230.99 836.81 1681.1
-227.06 838.37 1684.2
-225.69 849.66 1706.9
-223.29 857.41 1722.5
-220.35 863.40 1734.5
-215.57 862.29 1732.3
-210.16 858.52 1724.7
-210.30 877.79 1763.4
-207.55 885.53 1779.0
-197.90 863.58 1734.9
-188.19 840.28 1688.1
-183.17 837.36 1682.2
-178.66 836.66 1680.8
-173.42 832.41 1672.2
-168.76 830.81 1669.0
-162.27 819.88 1647.1
-157.52 817.38 1642.1
-155.95 831.75 1670.9
-154.48 847.45 1702.5
-152.69 862.27 1732.2
-147.77 859.76 1727.2
-138.87 833.25 1673.9
-131.61 815.16 1637.6
-127.88 818.41 1644.1
-125.98 834.10 1675.6
-122.63 840.90 1689.3
-115.52 821.45 1650.2
-110.41 815.34 1638.0
-111.39 855.49 1718.6
-108.56 868.51 1744.8
-100.80 841.47 1690.5
-96.02 838.01 1683.5
-93.37 853.69 1715.0
-90.09 864.91 1737.5
-86.39 873.02 1753.8
-81.69 871.32 1750.4
-76.92 868.73 1745.2
-72.62 871.48 1750.7
-67.36 862.20 1732.1
-61.93 849.35 1706.3
-57.93 855.65 1718.9
-54.29 868.62 1745.0
-49.87 870.46 1748.7
-46.55 893.68 1795.3
-43.04 918.23 1844.6
-37.00 887.97 1783.9
-31.19 855.48 1718.6
-26.23 839.47 1686.4
-22.41 860.44 1728.6
-18.38 882.29 1772.5
-13.47 862.26 1732.2
-9.46 908.17 1824.4
-4.93 946.50 1901.4
0.00 921.99 1852.2
5.02 962.99 1934.6
15.48 990.59 1990.0
19.79 950.02 1908.5
25.83 991.89 1992.6
-385.90 982.76 1984.6
-362.10 934.60 1887.4
-352.99 923.58 1865.1
-349.77 927.88 1873.8
-348.30 936.98 1892.2
-338.39 923.31 1864.6
-321.33 889.47 1796.2
-307.73 864.37 1745.6
-303.93 866.43 1749.7
-308.44 892.62 1802.6
-306.71 901.26 1820.0
-296.36 884.45 1786.1
-288.21 873.77 1764.5
-282.01 868.79 1754.5
-271.94 851.49 1719.5
-266.05 846.93 1710.3
-268.76 870.06 1757.0
-261.08 859.78 1736.3
-247.08 827.92 1672.0
-242.94 828.61 1673.3
-241.21 837.66 1691.6
-237.52 840.11 1696.5
-233.67 842.11 1700.6
-227.89 837.05 1690.4
-225.10 843.01 1702.4
-220.86 843.68 1703.8
-216.16 842.58 1701.5
-213.47 849.41 1715.3
-210.26 854.48 1725.6
-207.44 861.31 1739.4
-201.73 856.22 1729.1
-195.67 849.36 1715.2
-189.57 842.06 1700.5
-182.20 828.56 1673.2
-175.62 818.14 1652.2
-171.65 819.64 1655.2
-168.39 824.67 1665.4
-167.62 842.53 1701.4
-168.13 867.90 1752.7
-159.03 843.74 1703.9
-150.51 821.35 1658.7
-146.71 824.15 1664.3
-139.82 809.26 1634.3
-134.20 800.99 1617.6
-130.10 801.57 1618.7
-127.52 811.88 1639.6
-126.85 835.48 1687.2
-123.80 844.46 1705.3
-116.95 827.31 1670.7
-110.95 815.03 1645.9
-110.81 846.60 1709.7
-108.56 863.99 1744.8
-101.39 841.94 1700.3
-97.14 843.37 1703.1
-95.03 864.30 1745.4
-89.91 858.63 1734.0
-84.41 848.53 1713.6
-81.10 860.58 1737.9
-77.55 871.31 1759.6
-73.78 880.70 1778.5
-68.96 878.11 1773.3
-63.26 863.10 1743.0
-59.08 868.04 1753.0
-56.13 893.38 1804.1
-52.40 909.85 1837.4
-46.94 896.59 1810.6
-41.62 883.33 1783.8
-37.06 884.70 1786.6
-32.42 884.74 1786.7
-28.09 894.09 1805.6
-24.66 942.04 1902.4
-20.50 978.89 1976.8
-15.31 974.47 1967.9
-9.61 917.68 1853.2
0.00 868.88 1754.7
5.10 973.60 1966.1
26.21 1001.05 2021.6
-393.02 982.56 1994.7
-380.62 964.23 1957.5
-372.30 955.89 1940.5
-365.90 952.34 1933.3
-365.15 963.60 1956.2
-353.54 946.09 1920.6
-335.19 909.80 1847.0
-328.31 904.03 1835.2
-323.98 905.23 1837.7
-309.32 877.17 1780.7
-304.66 877.04 1780.5
-304.78 890.89 1808.6
-295.78 878.08 1782.6
-287.48 867.01 1760.1
-281.01 861.17 1748.2
-275.31 857.52 1740.8
-273.37 865.67 1757.4
-273.11 879.51 1785.5
-262.82 860.96 1747.8
-251.93 839.76 1704.8
-250.94 851.40 1728.4
-245.52 848.15 1721.8
-238.26 838.31 1701.8
-237.83 852.58 1730.8
-235.80 861.59 1749.1
-231.45 862.27 1750.5
-225.47 856.80 1739.4
-216.95 841.22 1707.7
-210.46 833.09 1691.2
-204.61 827.15 1679.2
-199.35 823.40 1671.6
-197.56 834.15 1693.4
-195.36 843.58 1712.5
-191.16 844.66 1714.7
-185.78 840.45 1706.2
-179.50 831.84 1688.7
-176.27 837.30 1699.8
-172.36 839.68 1704.6
-170.70 853.50 1732.7
-171.81 882.29 1791.1
-162.95 860.00 1745.9
-151.56 822.73 1670.2
-145.20 811.43 1647.3
-140.04 806.29 1636.8
-135.97 807.31 1638.9
-132.24 810.53 1645.4
-130.09 823.89 1672.6
-127.92 838.13 1701.5
-123.47 837.82 1700.8
-120.58 848.52 1722.6
-118.30 864.52 1755.1
-112.72 856.70 1739.2
-105.50 835.20 1695.5
-100.63 831.33 1687.7
-98.67 852.17 1730.0
-95.56 864.63 1755.3
-89.54 850.60 1726.8
-84.98 849.81 1725.2
-82.69 872.85 1772.0
-77.63 867.64 1761.4
-72.40 859.76 1745.4
-68.79 871.32 1768.8
-64.17 870.94 1768.1
-59.44 868.80 1763.7
-56.10 888.29 1803.3
-52.22 902.04 1831.2
-46.62 885.75 1798.1
-42.92 906.12 1839.5
-39.74 943.71 1915.8
-35.31 958.33 1945.5
-31.16 986.64 2003.0
-26.22 996.39 2022.8
-20.84 989.79 2009.3
-15.58 986.72 2003.1
-9.74 924.87 1877.5
-4.74 900.57 1828.2
0.00 997.35 2024.7
-366.10 947.84 1934.4
-356.59 936.05 1910.3
-338.24 900.37 1837.5
-327.32 883.77 1803.6
-327.36 896.70 1830.0
-326.49 907.45 1851.9
-313.94 885.60 1807.4
-298.74 855.47 1745.9
-289.67 842.28 1718.9
-292.09 862.59 1760.4
-293.87 881.60 1799.2
-283.58 864.47 1764.2
-274.46 850.38 1735.5
-269.36 848.47 1731.6
-266.18 852.66 1740.1
-262.55 855.55 1746.0
-257.97 855.37 1745.7
-255.20 861.30 1757.8
-248.18 852.83 1740.5
-238.75 835.61 1705.3
-236.35 842.84 1720.1
-235.20 854.87 1744.6
-231.69 858.60 1752.2
-226.74 857.08 1749.1
-218.98 844.63 1723.7
-214.01 842.66 1719.7
-209.39 842.00 1718.4
-203.39 835.65 1705.4
-200.89 843.73 1721.9
-196.37 843.50 1721.4
-190.06 835.37 1704.8
-185.19 833.37 1700.8
-179.40 826.99 1687.7
-174.51 824.54 1682.7
-169.18 819.90 1673.3
-164.53 818.31 1670.0
-162.72 831.19 1696.3
-163.45 858.10 1751.2
-160.97 869.23 1773.9
-150.64 837.37 1708.9
-141.71 811.64 1656.4
-137.74 813.53 1660.3
-134.18 818.06 1669.5
-131.41 827.85 1689.5
-128.53 837.64 1709.5
-123.72 835.14 1704.4
-120.64 844.48 1723.4
-116.13 844.16 1722.8
-108.42 819.68 1672.8
-106.00 834.73 1703.5
-105.87 869.98 1775.5
-100.15 860.42 1756.0
-93.51 841.62 1717.6
-89.26 843.48 1721.4
-86.39 859.39 1753.9
-83.32 874.86 1785.4
-77.51 861.76 1758.7
-72.10 851.72 1738.2
-68.30 860.59 1756.3
-64.27 867.69 1770.8
-60.11 873.91 1783.5
-54.23 854.18 1743.2
-47.92 823.44 1680.5
-45.74 864.40 1764.1
-45.10 947.14 1932.9
-41.43 978.86 1997.7
-36.48 985.06 2010.3
-20.75 980.31 2000.6
-15.08 949.97 1938.7
-10.31 974.18 1988.1
-365.79 942.04 1932.8
-347.68 907.83 1862.6
-333.84 883.97 1813.6
-326.68 877.38 1800.1
-321.02 874.67 1794.5
-314.92 870.66 1786.3
-313.18 878.77 1802.9
-307.09 874.75 1794.7
-301.79 872.88 1790.9
-307.73 903.95 1854.6
-308.25 919.86 1887.3
-296.59 899.35 1845.2
-281.77 868.41 1781.7
-271.98 852.21 1748.4
-267.40 852.04 1748.1
-262.54 851.01 1746.0
-259.28 855.18 1754.5
-257.79 865.43 1775.6
-250.08 854.82 1753.8
-240.11 835.94 1715.1
-239.04 847.92 1739.7
-239.17 864.69 1774.1
-228.61 842.74 1729.0
-217.02 815.98 1674.1
-212.51 815.33 1672.8
-210.56 824.68 1692.0
-212.54 850.15 1744.2
-212.33 867.79 1780.4
-206.10 861.03 1766.6
-198.20 846.86 1737.5
-187.16 818.28 1678.8
-177.68 814.73 1671.5
-178.21 837.59 1718.5
-172.98 833.84 1710.8
-168.58 834.01 1711.1
-165.38 840.29 1724.0
-165.20 862.72 1770.0
-163.33 877.30 1799.9
-153.00 846.02 1735.7
-144.47 823.02 1688.6
-141.23 829.71 1702.3
-138.57 840.34 1724.1
-136.63 856.22 1756.7
-134.05 869.03 1783.0
-129.52 869.60 1784.1
-125.16 871.48 1788.0
-119.39 863.30 1771.2
-113.13 850.73 1745.4
-112.47 881.03 1807.6
-111.97 915.26 1877.8
-105.17 898.75 1843.9
-95.86 858.16 1760.7
-89.11 837.68 1718.6
-85.15 842.58 1728.7
-80.85 844.42 1732.5
-78.07 863.32 1771.3
-75.46 886.61 1819.0
-70.33 881.43 1808.4
-65.15 874.93 1795.1
-61.11 883.75 1813.2
-55.27 865.85 1776.4
-50.13 856.71 1757.7
-49.00 921.15 1889.9
-45.53 950.98 1951.1
-39.37 925.18 1898.2
-34.53 927.41 1902.7
-30.05 941.46 1931.6
-25.63 963.83 1977.5
-20.35 956.41 1962.2
-15.75 987.09 2025.2
9.92 932.78 1913.8
15.45 968.25 1986.5
-392.06 939.95 1938.8
-385.99 949.73 1959.0
-366.25 951.22 1962.0
-346.10 911.56 1880.2
-343.61 917.92 1893.3
-341.68 926.02 1910.0
-327.14 899.64 1855.6
-317.66 886.60 1828.7
-323.53 916.66 1890.7
-328.03 943.72 1946.6
-321.92 940.60 1940.1
-312.34 927.10 1912.3
-301.76 910.14 1877.3
-287.41 881.07 1817.3
-273.78 853.27 1760.0
-265.62 841.88 1736.5
-264.42 852.51 1758.4
-264.68 868.34 1791.1
-259.08 865.15 1784.5
-248.04 843.34 1739.5
-240.23 831.90 1715.9
-241.12 850.75 1754.8
-238.93 859.22 1772.3
-226.01 828.70 1709.3
-217.00 811.59 1674.0
-214.88 820.04 1691.5
-214.00 833.70 1719.6
-216.35 860.80 1775.5
-215.64 876.63 1808.2
-208.92 868.16 1790.7
-202.18 859.26 1772.3
-192.44 836.89 1726.2
-181.18 806.69 1663.9
-179.19 817.29 1685.8
-179.69 840.06 1732.7
-174.78 838.06 1728.6
-172.10 846.93 1746.9
-170.53 861.88 1777.7
-163.70 850.31 1753.9
-155.76 832.21 1716.6
-153.71 845.41 1743.8
-153.36 869.05 1792.5
-145.76 851.81 1757.0
-139.21 839.77 1732.1
-137.89 859.49 1772.8
-135.67 874.86 1804.5
-132.19 882.83 1821.0
-128.68 891.24 1838.3
-121.09 870.90 1796.4
-113.13 846.19 1745.4
-110.85 863.73 1781.6
-108.77 884.31 1824.0
-105.64 897.93 1852.1
-99.23 883.65 1822.7
-89.58 837.56 1727.6
-82.89 815.86 1682.8
-80.34 834.68 1721.6
-79.14 870.50 1795.5
-76.91 898.92 1854.2
-72.01 897.69 1851.6
-63.85 852.85 1759.1
-57.23 823.26 1698.1
-54.82 854.28 1762.1
-52.97 900.56 1857.5
-49.28 921.54 1900.8
-43.31 899.78 1855.9
-38.16 891.97 1839.8
-34.26 915.13 1887.6
-29.74 926.94 1911.9
-25.25 944.41 1948.0
-20.66 965.81 1992.1
-392.83 961.41 1993.7
-400.41 993.03 2059.3
-389.44 978.87 2029.9
-381.98 973.25 2018.3
-361.80 934.65 1938.2
-348.24 912.29 1891.8
-351.53 934.07 1937.0
-348.07 938.27 1945.7
-331.70 907.30 1881.5
-315.50 875.87 1816.3
-315.62 889.49 1844.6
-321.91 921.14 1910.2
-317.80 923.61 1915.3
-304.50 899.00 1864.3
-291.03 873.08 1810.5
-288.12 878.52 1821.8
-284.18 880.96 1826.9
-269.57 849.83 1762.3
-262.40 841.48 1745.0
-261.12 852.08 1767.0
-254.02 843.72 1749.7
-246.63 834.06 1729.6
-242.09 833.88 1729.2
-240.01 842.31 1746.7
-235.07 840.82 1743.6
-225.53 822.51 1705.7
-219.77 817.55 1695.4
-219.19 832.01 1725.4
-219.22 849.49 1761.6
-213.29 844.10 1750.4
-204.75 827.90 1716.8
-201.08 831.13 1723.5
-197.58 835.22 1732.0
-196.73 850.97 1764.7
-193.86 858.51 1780.3
-181.95 825.41 1711.7
-173.18 805.27 1669.9
-169.88 810.20 1680.1
-169.01 827.24 1715.5
-168.72 848.18 1758.9
-163.19 843.15 1748.5
-152.99 813.01 1686.0
-148.72 813.60 1687.2
-153.29 863.98 1791.7
-150.61 875.40 1815.3
-140.80 844.79 1751.9
-136.63 847.09 1756.6
-131.49 843.33 1748.8
-125.15 831.32 1723.9
-123.46 850.52 1763.8
-117.76 842.40 1746.9
-111.14 826.91 1714.8
-109.68 850.01 1762.7
-107.21 867.03 1798.0
-104.21 881.02 1827.0
-98.84 875.48 1815.5
-90.09 837.83 1737.4
-83.38 816.22 1692.6
-80.93 836.27 1734.2
-77.43 847.20 1756.9
-72.81 846.41 1755.2
-70.50 874.26 1813.0
-64.73 860.00 1783.4
-57.47 822.29 1705.2
-54.68 847.53 1757.6
-54.29 917.93 1903.5
-51.78 963.14 1997.3
-45.26 935.40 1939.8
-39.71 923.28 1914.6
-35.61 946.34 1962.5
-30.88 957.23 1985.0
-24.76 921.21 1910.3
-18.97 882.14 1829.3
-14.40 893.02 1851.9
-9.57 889.99 1845.6
0.00 933.00 1934.8
-420.28 996.82 2078.3
-392.04 980.10 2043.5
-376.13 953.20 1987.4
-353.03 907.08 1891.2
-336.14 875.86 1826.1
-346.39 915.45 1908.7
-349.37 936.71 1953.0
-343.80 935.34 1950.1
-336.86 930.13 1939.3
-313.95 880.02 1834.8
-301.64 858.52 1790.0
-303.62 877.64 1829.8
-296.21 869.81 1813.5
-286.58 855.12 1782.9
-287.13 870.81 1815.6
-283.35 873.67 1821.5
-268.88 843.10 1757.8
-262.39 836.94 1745.0
-261.78 849.63 1771.4
-259.34 856.74 1786.3
-255.93 860.86 1794.8
-246.59 844.81 1761.4
-240.01 837.76 1746.7
-237.96 846.58 1765.1
-231.08 838.23 1747.7
-224.40 830.29 1731.1
-223.16 842.54 1756.7
-221.00 851.79 1775.9
-213.07 838.68 1748.6
-207.41 834.16 1739.2
-206.62 849.42 1771.0
-199.00 836.72 1744.5
-194.13 835.20 1741.3
-192.49 847.87 1767.8
-181.56 819.22 1708.0
-176.14 814.66 1698.5
-176.22 835.94 1742.9
-168.56 820.60 1710.9
-162.00 810.00 1688.8
-162.18 833.43 1737.7
-156.81 828.85 1728.1
-151.25 822.97 1715.8
-154.67 867.10 1807.9
-154.26 891.83 1859.4
-146.22 872.58 1819.3
-139.14 858.05 1789.0
-131.35 837.91 1747.0
-125.08 826.39 1723.0
-123.52 846.37 1764.6
-122.30 870.23 1814.4
-119.54 884.60 1844.3
-113.43 874.36 1823.0
-106.78 858.92 1790.8
-103.39 869.39 1812.6
-97.72 860.86 1794.8
-90.09 833.30 1737.4
-84.57 823.46 1716.9
-80.34 825.70 1721.5
-75.21 818.43 1706.4
-70.83 818.94 1707.4
-68.72 847.53 1767.1
-66.27 875.69 1825.8
-62.09 883.54 1842.1
-57.03 879.28 1833.2
-54.73 920.40 1919.0
-52.86 977.96 2039.0
-46.67 959.42 2000.3
-40.18 929.19 1937.3
-35.42 936.15 1951.8
-31.33 966.02 2014.1
-25.65 949.18 1979.0
-19.40 897.31 1870.8
-14.59 899.49 1875.4
-9.80 906.43 1889.8
-4.96 918.11 1914.2
0.00 933.25 1945.8
5.18 959.19 1999.9
-407.94 962.33 2017.3
-392.60 976.18 2046.3
-371.61 936.67 1963.5
-343.74 878.44 1841.5
-331.88 860.09 1803.0
-347.37 913.10 1914.1
-345.57 921.51 1931.7
-335.97 909.09 1905.7
-334.87 919.63 1927.8
-316.86 883.36 1851.8
-307.51 870.48 1824.8
-312.80 899.31 1885.2
-301.60 880.87 1846.5
-288.87 857.30 1797.1
-281.62 849.49 1780.8
-271.12 831.43 1742.9
-264.50 824.87 1729.2
-264.67 839.64 1760.1
-264.28 853.13 1788.4
-261.81 860.22 1803.3
-257.85 862.61 1808.3
-247.97 844.92 1771.2
-244.68 849.44 1780.7
-245.80 869.77 1823.3
-240.31 867.02 1817.5
-235.09 865.11 1813.5
-226.91 852.09 1786.2
-218.43 837.33 1755.3
-212.41 831.56 1743.2
-208.90 835.62 1751.7
-211.64 865.37 1814.1
-206.78 864.72 1812.7
-196.62 841.36 1763.7
-190.14 832.99 1746.2
-183.17 822.03 1723.2
-181.54 835.07 1750.5
-182.67 861.84 1806.6
-175.72 850.87 1783.6
-168.29 836.88 1754.3
-167.63 856.79 1796.1
-161.37 848.37 1778.4
-154.89 838.23 1757.2
-152.59 850.83 1783.6
-146.43 841.96 1765.0
-142.96 848.55 1778.8
-139.98 858.57 1799.8
-135.54 860.00 1802.8
-132.46 870.44 1824.7
-128.44 875.30 1834.9
-124.49 881.01 1846.8
-123.28 907.35 1902.1
-118.53 908.76 1905.0
-110.06 880.51 1845.8
-105.14 879.32 1843.3
-100.17 877.71 1839.9
-93.17 857.16 1796.8
-86.70 839.62 1760.1
-81.64 834.54 1749.4
-77.99 844.08 1769.4
-75.09 863.52 1810.2
-72.40 888.12 1861.7
-69.51 913.58 1915.1
-64.67 915.37 1918.9
-58.89 902.95 1892.8
-54.76 915.92 1920.0
-51.04 939.22 1968.9
-46.60 952.61 1996.9
-41.57 956.10 2004.2
-35.64 936.76 1963.7
-30.76 943.26 1977.3
-26.31 968.25 2029.7
-20.84 958.81 2009.9
-393.83 973.94 2052.8
-366.75 919.39 1937.8
-354.72 901.57 1900.3
-357.96 922.64 1944.7
-352.89 922.56 1944.5
-334.58 887.36 1870.3
-325.76 876.68 1847.8
-324.34 885.89 1867.2
-315.95 876.04 1846.4
-315.33 887.79 1871.2
-319.19 912.68 1923.7
-306.28 889.67 1875.2
-291.60 860.70 1814.1
-282.61 847.83 1787.0
-275.00 838.76 1767.9
-271.06 840.73 1772.0
-269.51 850.34 1792.3
-267.06 857.40 1807.2
-260.50 851.29 1794.3
-252.61 840.49 1771.5
-244.32 827.98 1745.2
-242.70 838.00 1766.3
-242.78 854.41 1800.9
-236.64 849.11 1789.7
-236.13 864.25 1821.6
-232.27 867.46 1828.4
-220.10 839.15 1768.7
-211.09 821.89 1732.3
-206.33 820.82 1730.1
-208.39 847.46 1786.2
-207.40 862.58 1818.1
-200.73 854.26 1800.5
-192.97 840.80 1772.2
-184.69 824.35 1737.5
-183.58 839.90 1770.3
-184.67 866.55 1826.4
-177.49 854.77 1801.6
-169.75 839.57 1769.6
-171.83 873.48 1841.1
-168.07 878.78 1852.2
-155.12 834.93 1759.8
-146.50 812.43 1712.4
-143.59 821.13 1730.7
-143.18 845.21 1781.5
-140.05 854.33 1800.7
-135.07 852.33 1796.5
-128.27 838.35 1767.0
-120.81 818.79 1725.8
-119.93 844.16 1779.3
-121.77 891.35 1878.7
-120.39 918.00 1934.9
-115.23 916.83 1932.4
-106.99 889.98 1875.8
-98.95 862.25 1817.4
-94.57 865.35 1823.9
-90.57 872.29 1838.6
-86.27 877.09 1848.7
-83.28 896.45 1889.5
-80.71 923.09 1945.6
-72.76 951.09 2004.6
-64.95 914.31 1927.1
-59.51 907.52 1912.8
-55.66 926.00 1951.8
-51.61 944.48 1990.7
-46.66 948.81 1999.8
-41.97 960.00 2023.4
-36.36 950.61 2003.6
-30.00 915.07 1928.7
-24.39 892.81 1881.8
-20.33 930.12 1960.4
-394.90 971.24 2058.4
-379.43 945.96 2004.8
-378.70 957.27 2028.8
-367.34 941.64 1995.6
-350.16 910.41 1929.5
-340.02 896.85 1900.7
-338.20 905.19 1918.4
-326.99 888.23 1882.4
-309.22 852.70 1807.1
-307.51 861.02 1824.8
-310.30 882.42 1870.1
-303.22 875.96 1856.4
-293.18 860.63 1824.0
-290.25 865.99 1835.3
-288.23 874.30 1852.9
-273.38 843.30 1787.2
-261.69 821.16 1740.3
-265.73 848.48 1798.2
-264.80 860.59 1823.9
-255.16 844.34 1789.4
-245.57 827.65 1754.1
-236.28 811.38 1719.6
-228.74 800.60 1696.7
-224.29 800.40 1696.3
-225.77 821.81 1741.7
-229.42 852.13 1805.9
-224.24 850.23 1801.9
-217.76 843.24 1787.1
-215.86 854.06 1810.0
-211.75 856.39 1815.0
-204.63 846.41 1793.8
-199.22 843.22 1787.0
-192.58 834.49 1768.5
-182.77 811.32 1719.4
-180.50 821.27 1740.5
-181.67 847.79 1796.7
-173.94 833.10 1765.6
-161.28 793.30 1681.3
-158.63 801.97 1699.6
-164.31 854.43 1810.8
-160.92 861.40 1825.6
-151.74 836.88 1773.6
-148.29 843.41 1787.5
-146.08 857.60 1817.5
-141.11 856.04 1814.2
-135.20 848.52 1798.3
-127.29 827.36 1753.4
-119.47 805.34 1706.8
-118.35 828.46 1755.8
-118.03 859.24 1821.0
-114.56 868.73 1841.1
-109.91 869.70 1843.2
-102.31 846.37 1793.7
-97.18 842.20 1784.9
-95.79 871.71 1847.4
-92.39 885.02 1875.6
-88.59 895.77 1898.4
-84.48 904.38 1916.7
-81.01 921.52 1953.0
-78.17 948.47 2010.1
-71.55 930.20 1971.4
-64.74 906.39 1920.9
-60.13 911.99 1932.8
-55.56 919.30 1948.3
-50.84 925.33 1961.1
-44.39 897.65 1902.4
-38.22 869.53 1842.8
-34.38 893.88 1894.4
-29.50 894.77 1896.3
-25.52 928.93 1968.7
-390.76 943.03 2009.6
-378.00 924.57 1970.3
-382.83 949.22 2022.8
-384.57 966.76 2060.2
-375.43 957.07 2039.5
-361.04 933.54 1989.4
-352.66 925.08 1971.4
-343.10 913.26 1946.2
-324.20 875.82 1866.4
-297.09 840.20 1790.5
-296.20 850.99 1813.5
-289.01 843.71 1798.0
-289.12 857.87 1828.1
-290.33 875.82 1866.4
-277.90 852.53 1816.8
-261.40 815.76 1738.4
-260.82 828.23 1765.0
-263.62 852.07 1815.8
-257.46 847.27 1805.5
-248.45 832.77 1774.6
-239.35 817.41 1741.9
-230.91 803.73 1712.8
-225.58 800.58 1706.0
-225.18 815.14 1737.1
-227.02 838.57 1787.0
-225.35 849.77 1810.9
-221.92 854.64 1821.2
-217.26 854.85 1821.7
-210.48 846.61 1804.2
-205.86 846.82 1804.6
-202.83 853.78 1819.4
-193.65 834.53 1778.4
-181.51 801.32 1707.6
-179.37 811.64 1729.6
-181.21 841.01 1792.2
-177.22 844.15 1798.9
-167.84 821.04 1749.7
-158.62 797.50 1699.5
-158.09 817.56 1742.2
-158.77 845.24 1801.2
-153.51 842.00 1794.3
-146.87 830.72 1770.3
-141.72 827.47 1763.4
-137.10 827.18 1762.7
-131.60 821.38 1750.4
-127.48 824.06 1756.1
-122.82 823.33 1754.5
-120.48 838.72 1787.3
-119.02 861.74 1836.4
-113.38 855.07 1822.2
-106.51 838.21 1786.2
-103.34 850.19 1811.8
-102.49 883.39 1882.5
-98.51 891.55 1899.9
-92.40 880.18 1875.7
-88.64 891.31 1899.4
-84.64 901.16 1920.4
-78.54 888.50 1893.4
-73.50 886.88 1890.0
-70.64 913.28 1946.2
-67.19 935.43 1993.4
-61.74 931.24 1984.5
-56.06 922.38 1965.6
-50.38 911.82 1943.1
-43.06 866.00 1845.5
-33.51 866.50 1846.5
-29.70 895.84 1909.0
-399.46 933.80 2001.0
-409.02 968.73 2075.9
-391.13 938.72 2011.5
-386.24 939.51 2013.2
-380.33 937.80 2009.6
-373.26 933.16 1999.6
-370.69 939.78 2013.8
-361.23 928.87 1990.4
-357.48 932.55 1998.3
-351.48 930.39 1993.7
-342.40 919.87 1971.1
-321.93 877.99 1881.4
-292.98 837.07 1793.7
-292.75 849.91 1821.2
-286.70 846.01 1812.9
-282.51 847.54 1816.2
-279.82 853.68 1829.3
-271.65 843.05 1806.5
-261.48 825.71 1769.4
-255.27 820.52 1758.2
-253.22 828.73 1775.9
-248.06 826.88 1771.9
-239.59 813.69 1743.6
-231.62 801.75 1718.0
-231.27 816.25 1749.1
-235.67 848.40 1818.0
-232.16 852.83 1827.5
-225.35 845.07 1810.9
-222.14 850.75 1823.0
-217.79 852.23 1826.2
-211.64 846.55 1814.0
-207.50 848.86 1819.0
-205.75 861.26 1845.6
-197.57 846.73 1814.4
-185.53 814.51 1745.4
-183.85 827.32 1772.8
-183.12 845.19 1811.1
-176.69 836.94 1793.5
-173.46 843.86 1808.3
-169.73 848.66 1818.6
-164.31 845.03 1810.8
-160.05 847.30 1815.6
-154.36 841.98 1804.2
-147.46 829.47 1777.4
-144.62 839.74 1799.4
-141.74 850.43 1822.3
-132.82 824.41 1766.6
-125.31 805.55 1726.2
-120.91 806.09 1727.3
-118.95 823.51 1764.7
-122.43 881.47 1888.9
-121.15 908.61 1947.0
-111.74 874.52 1874.0
-106.02 867.45 1858.8
-103.43 886.56 1899.8
-97.67 879.05 1883.7
-90.17 854.22 1830.5
-84.80 847.97 1817.1
-79.70 843.83 1808.2
-72.46 815.17 1746.8
-70.68 848.20 1817.6
-71.50 919.28 1969.9
-55.62 910.17 1950.4
-47.19 849.34 1820.0
-43.76 875.18 1875.4
-41.36 930.61 1994.2
-36.27 932.76 1998.8
-31.19 935.75 2005.2
-25.86 931.13 1995.3
-20.46 920.58 1972.7
-416.23 955.20 2058.3
-404.02 964.25 2077.8
-393.30 951.37 2050.0
-383.91 941.37 2028.5
-386.81 961.66 2072.2
-372.30 952.01 2051.4
-361.99 939.07 2023.5
-356.24 937.76 2020.7
-347.40 928.12 1999.9
-345.55 937.19 2019.5
-329.26 906.73 1953.8
-310.32 867.91 1870.2
-307.04 872.37 1879.8
-302.41 873.09 1881.4
-291.95 856.71 1846.1
-285.86 852.82 1837.7
-281.19 853.10 1838.3
-274.35 846.70 1824.5
-264.65 831.11 1790.9
-259.05 828.02 1784.2
-257.45 837.87 1805.5
-247.30 819.75 1766.4
-234.38 791.58 1705.7
-229.90 791.39 1705.3
-233.28 818.78 1764.3
-234.38 839.07 1808.1
-227.46 830.94 1790.5
-222.32 829.06 1786.5
-221.15 842.25 1814.9
-220.16 856.69 1846.0
-217.11 863.60 1860.9
-210.69 857.12 1846.9
-206.45 859.41 1851.9
-202.29 862.13 1857.7
-194.06 847.24 1825.7
-185.90 831.92 1792.6
-179.01 821.62 1770.5
-175.26 825.57 1779.0
-174.76 845.45 1821.8
-170.57 848.13 1827.6
-164.72 842.43 1815.3
-163.07 858.53 1850.0
-159.78 866.66 1867.5
-152.04 850.45 1832.6
-148.11 855.21 1842.8
-147.30 878.87 1893.8
-140.16 865.15 1864.3
-132.86 849.33 1830.2
-128.89 854.50 1841.3
-123.16 847.90 1827.1
-123.19 882.06 1900.7
-122.45 913.28 1968.0
-113.15 880.61 1897.6
-107.73 876.52 1888.7
-105.75 901.43 1942.4
-99.46 890.17 1918.2
-91.33 860.41 1854.0
-84.71 842.42 1815.3
-78.26 823.99 1775.6
-69.91 834.23 1797.6
-70.71 904.14 1948.3
-68.42 942.07 2030.0
-63.61 948.87 2044.7
-54.56 887.91 1913.3
-47.98 858.93 1850.8
-46.76 930.10 2004.2
-31.79 948.31 2043.5
-25.81 923.93 1990.9
-20.80 930.69 2005.5
-407.01 965.98 2093.2
-375.74 955.46 2070.4
-361.38 932.24 2020.1
-352.95 923.90 2002.0
-335.11 890.30 1929.2
-326.08 879.44 1905.7
-328.67 900.05 1950.3
-326.85 909.06 1969.9
-316.43 894.04 1937.3
-304.72 874.85 1895.8
-292.52 853.58 1849.6
-285.44 846.81 1835.0
-281.46 849.15 1840.1
-275.02 844.03 1829.0
-274.62 857.58 1858.3
-277.73 882.77 1912.9
-262.06 848.13 1837.8
-238.59 786.45 1704.2
-236.81 810.61 1756.5
-239.35 835.38 1810.2
-239.87 853.93 1850.4
-228.72 830.85 1800.4
-220.18 816.49 1769.3
-219.28 830.45 1799.5
-217.89 843.16 1827.1
-210.05 830.87 1800.4
-198.84 804.40 1743.1
-190.64 789.16 1710.1
-182.34 791.61 1715.4
-181.59 808.06 1751.0
-176.72 806.57 1747.8
-174.81 818.84 1774.4
-173.19 833.20 1805.5
-167.96 830.45 1799.5
-163.73 832.70 1804.4
-163.39 855.41 1853.6
-156.91 846.38 1834.0
-146.03 812.26 1760.1
-140.61 807.39 1749.6
-138.71 822.99 1783.4
-138.87 852.39 1847.1
-138.71 881.79 1910.8
-132.19 871.47 1888.4
-124.20 850.27 1842.5
-119.85 853.32 1849.1
-115.01 853.01 1848.4
-108.02 835.97 1811.5
-104.99 849.46 1840.7
-104.92 889.32 1927.1
-100.03 890.26 1929.1
-95.89 898.31 1946.6
-93.14 921.01 1995.8
-86.17 902.26 1955.1
-79.04 879.31 1905.4
-72.09 855.52 1853.8
-67.42 857.26 1857.6
-64.69 885.80 1919.5
-59.55 883.35 1914.2
-53.48 865.40 1875.3
-50.03 890.58 1929.8
-47.79 945.09 2047.9
-403.40 952.02 2074.6
-377.04 939.95 2048.3
-353.81 894.63 1949.5
-355.62 912.25 1988.0
-348.07 906.00 1974.3
-328.88 868.84 1893.4
-306.59 847.91 1847.8
-310.27 871.72 1899.6
-306.61 875.32 1907.5
-302.05 876.44 1909.9
-287.26 847.40 1846.6
-276.64 829.92 1808.5
-271.77 829.35 1807.3
-272.75 846.97 1845.7
-270.15 853.85 1860.7
-248.82 800.75 1745.0
-244.75 817.37 1781.2
-243.24 827.95 1804.3
-241.02 836.47 1822.8
-246.07 871.08 1898.2
-239.03 863.44 1881.6
-223.99 825.96 1799.9
-216.74 816.22 1778.7
-214.98 827.21 1802.6
-206.14 810.83 1766.9
-194.60 782.82 1705.9
-180.21 777.97 1695.3
-185.52 820.91 1788.9
-186.23 845.18 1841.8
-177.65 827.50 1803.3
-169.45 810.63 1766.5
-167.95 825.76 1799.5
-167.02 844.62 1840.6
-165.31 860.58 1875.4
-157.45 844.52 1840.4
-144.21 797.68 1738.3
-138.14 815.01 1776.1
-141.67 864.66 1884.2
-139.96 884.77 1928.1
-131.43 861.60 1877.6
-123.95 843.82 1838.8
-120.26 851.44 1855.4
-115.92 854.88 1862.9
-109.32 841.25 1833.2
-106.13 853.85 1860.7
-106.01 893.53 1947.2
-100.79 891.96 1943.7
-96.34 897.47 1955.8
-85.41 944.83 2059.0
-75.41 889.89 1939.2
-68.35 864.12 1883.1
-63.53 865.02 1885.0
-62.49 921.78 2008.7
-394.60 938.52 2056.8
-377.38 909.84 1994.0
-346.02 857.74 1879.8
-348.61 876.50 1920.9
-350.34 893.63 1958.4
-342.23 885.76 1941.2
-328.73 863.53 1892.5
-307.33 819.54 1796.1
-303.90 835.72 1831.5
-308.07 860.65 1886.2
-304.73 865.05 1895.8
-306.04 883.01 1935.2
-296.08 868.50 1903.4
-287.24 856.86 1877.9
-284.23 862.48 1890.2
-273.68 845.06 1852.0
-260.32 818.16 1793.0
-252.79 808.94 1772.8
-254.08 828.12 1814.9
-256.15 850.61 1864.2
-250.41 847.56 1857.5
-230.98 797.10 1746.9
-228.24 819.81 1796.7
-227.81 835.29 1830.6
-219.37 821.48 1800.3
-216.59 828.70 1816.2
-213.41 834.69 1829.3
-207.38 829.53 1818.0
-198.58 812.79 1781.3
-191.44 802.24 1758.2
-190.39 817.30 1791.2
-194.06 853.85 1871.3
-193.19 871.81 1910.6
-182.65 845.95 1853.9
-173.62 825.86 1809.9
-171.41 838.02 1836.6
-167.43 841.91 1845.1
-162.91 843.31 1848.2
-159.62 851.33 1865.7
-150.90 829.96 1818.9
-144.39 819.75 1796.5
-147.45 865.03 1895.8
-152.18 923.57 2024.0
-139.31 908.11 1990.2
-127.93 865.98 1897.8
-123.56 869.83 1906.3
-118.74 870.78 1908.4
-111.53 853.48 1870.5
-108.05 864.37 1894.3
-109.43 917.13 2009.9
-105.46 928.01 2033.8
-96.57 894.52 1960.4
-94.12 920.33 2017.0
-82.29 905.15 1983.7
-76.62 899.01 1970.2
-73.30 921.49 2019.5
-68.35 925.29 2027.8
-394.04 944.62 2082.0
-367.85 894.08 1970.6
-361.89 891.98 1966.0
-359.70 899.25 1982.0
-355.66 902.04 1988.2
-367.44 945.61 2084.2
-343.34 910.38 2006.5
-324.61 873.95 1926.3
-320.18 875.48 1929.6
-310.13 861.48 1898.8
-301.69 851.55 1876.9
-298.78 857.16 1889.2
-298.33 870.12 1917.8
-298.14 884.32 1949.1
-298.34 900.16 1984.0
-289.95 890.20 1962.1
-278.40 870.00 1917.5
-273.77 871.08 1919.9
-264.19 856.18 1887.1
-255.77 844.54 1861.4
-252.61 850.11 1873.7
-234.67 805.23 1774.8
-224.32 801.16 1765.8
-226.34 825.18 1818.8
-220.02 819.24 1805.7
-213.35 811.65 1788.9
-206.65 803.63 1771.3
-205.21 816.16 1798.9
-200.99 818.00 1802.9
-203.67 848.62 1870.4
-200.83 878.62 1936.5
-186.13 835.20 1840.8
-178.80 823.44 1814.9
-172.92 817.85 1802.6
-171.50 833.66 1837.5
-168.33 841.65 1855.1
-165.23 850.46 1874.5
-163.28 865.85 1908.4
-158.28 865.60 1907.8
-156.06 881.00 1941.8
-153.38 894.75 1972.1
-153.56 926.63 2042.4
-136.84 886.92 1954.9
-128.24 863.14 1902.4
-126.98 888.83 1959.1
-124.69 909.16 2003.9
-119.51 909.28 2004.1
-107.79 857.41 1889.8
-101.66 847.19 1867.3
-103.81 908.37 2002.1
-100.43 924.98 2038.7
-90.65 881.32 1942.5
-81.93 843.42 1859.0
-79.12 865.38 1907.4
-80.52 939.37 2070.4
-62.15 988.79 2179.4
-51.67 904.17 1992.9
-46.16 897.61 1978.4
-384.07 941.25 2086.5
-377.83 939.18 2081.9
-362.60 914.37 2026.9
-365.09 934.20 2070.9
-332.36 889.70 1972.2
-323.02 878.22 1946.8
-314.11 867.54 1923.1
-307.20 862.14 1911.2
-296.35 845.34 1873.9
-288.36 836.25 1853.8
-288.35 850.37 1885.1
-288.44 865.31 1918.2
-288.63 881.07 1953.1
-284.83 885.01 1961.9
-277.90 879.17 1948.9
-265.58 855.77 1897.0
-254.28 834.81 1850.6
-248.46 831.37 1842.9
-241.47 823.85 1826.3
-235.75 820.41 1818.6
-234.43 832.48 1845.4
-229.94 833.52 1847.7
-226.53 838.64 1859.1
-222.41 841.31 1865.0
-208.65 806.76 1788.4
-200.54 793.05 1758.0
-198.36 802.65 1779.3
-203.17 841.72 1865.9
-212.65 902.48 2000.6
-201.11 874.85 1939.3
-185.85 829.18 1838.1
-179.07 819.94 1817.6
-170.99 804.13 1782.6
-167.51 809.62 1794.7
-169.15 840.92 1864.1
-170.92 874.70 1939.0
-168.18 886.75 1965.7
-162.28 882.40 1956.1
-159.14 893.21 1980.0
-155.37 901.16 1997.6
-148.78 892.69 1978.9
-140.17 871.09 1931.0
-131.24 845.78 1874.9
-127.93 856.16 1897.9
-127.16 885.02 1961.9
-125.03 906.49 2009.5
-121.85 921.80 2043.4
-111.99 885.78 1963.5
-102.60 850.15 1884.6
-101.93 886.81 1965.8
-98.91 905.80 2007.9
-89.12 861.52 1909.8
-83.98 859.55 1905.4
-85.73 932.36 2066.8
-75.69 940.74 2085.4
-70.14 938.75 2081.0
-65.79 954.03 2114.8
-54.34 945.51 2096.0
-46.25 894.17 1982.2
-383.09 946.78 2110.9
-361.81 907.15 2022.5
-346.38 881.22 1964.7
-345.64 892.46 1989.8
-345.07 904.51 2016.7
-336.78 896.34 1998.5
-325.13 878.85 1959.5
-314.11 862.56 1923.1
-308.22 860.03 1917.5
-298.06 845.33 1884.7
-273.18 787.67 1756.2
-275.66 822.24 1833.2
-292.24 886.98 1977.6
-282.61 873.06 1946.5
-270.16 849.79 1894.7
-264.70 848.01 1890.7
-259.37 846.64 1887.6
-252.11 838.76 1870.1
-244.34 828.84 1848.0
-240.09 830.70 1852.1
-239.84 846.78 1887.9
-229.03 825.45 1840.4
-219.45 807.77 1801.0
-223.17 839.31 1871.3
-216.15 830.97 1852.7
-204.57 804.31 1793.3
-199.46 802.47 1789.2
-197.44 813.25 1813.2
-199.25 840.73 1874.5
-197.73 855.18 1906.7
-191.54 849.66 1894.4
-183.80 836.80 1865.7
-174.56 816.18 1819.7
-168.35 809.00 1803.7
-167.33 827.11 1844.1
-167.88 854.19 1904.5
-163.75 858.43 1913.9
-160.02 865.11 1928.8
-159.07 887.71 1979.2
-155.59 897.25 2000.5
-149.06 889.24 1982.6
-143.68 887.74 1979.3
-137.87 883.39 1969.6
-131.80 876.98 1955.3
-128.11 886.50 1976.5
-118.81 934.26 2083.0
-106.52 877.56 1956.6
-104.68 905.45 2018.8
-100.58 915.77 2041.8
-92.70 890.93 1986.4
-90.01 915.96 2042.2
-85.82 927.90 2068.8
-76.70 884.63 1972.3
-71.30 881.02 1964.3
-67.59 899.49 2005.5
-65.58 945.37 2107.8
-406.01 931.11 2088.0
-379.52 932.55 2091.3
-364.25 907.98 2036.2
-354.65 897.06 2011.7
-345.49 886.93 1989.0
-337.53 879.61 1972.6
-337.25 892.41 2001.2
-332.77 894.33 2005.6
-326.80 892.23 2000.8
-324.63 900.59 2019.6
-301.92 851.32 1909.1
-272.25 807.37 1810.5
-291.98 881.08 1975.8
-284.45 873.68 1959.3
-277.39 867.49 1945.4
-277.63 884.31 1983.1
-268.96 872.85 1957.4
-258.22 854.11 1915.4
-252.61 851.92 1910.5
-251.01 863.49 1936.4
-249.17 874.65 1961.4
-235.91 845.34 1895.7
-220.44 806.70 1809.1
-218.94 818.65 1835.9
-219.53 839.11 1881.7
-215.02 840.53 1884.9
-206.84 827.36 1855.4
-202.47 829.18 1859.5
-204.66 858.56 1925.3
-203.01 872.94 1957.6
-197.43 870.70 1952.6
-190.08 860.34 1929.3
-180.84 840.64 1885.2
-174.20 832.29 1866.4
-172.12 845.85 1896.8
-171.41 867.12 1944.5
-164.53 857.54 1923.0
-158.36 851.19 1908.8
-156.59 868.81 1948.3
-152.41 873.83 1959.6
-151.74 899.98 2018.2
-142.40 907.17 2034.4
-133.40 882.51 1979.0
-132.37 910.69 2042.2
-111.10 909.93 2040.6
-93.11 942.06 2112.6
-82.19 883.54 1981.4
-76.46 876.70 1966.0
-74.15 910.97 2042.9
-71.72 948.89 2127.9
-373.87 900.46 2031.1
-370.88 906.00 2043.6
-374.11 927.15 2091.3
-356.74 897.08 2023.5
-341.42 871.40 1965.6
-330.89 857.30 1933.8
-328.88 865.22 1951.6
-333.39 890.77 2009.3
-334.94 909.12 2050.6
-329.88 909.83 2052.3
-303.92 851.98 1921.8
-288.06 820.96 1851.8
-292.21 846.92 1910.3
-282.04 831.54 1875.6
-274.72 824.17 1859.0
-276.04 842.91 1901.3
-278.17 864.87 1950.8
-276.63 875.98 1975.9
-265.35 856.13 1931.1
-252.35 829.83 1871.8
-245.65 823.63 1857.8
-243.60 833.12 1879.2
-241.56 843.01 1901.5
-240.09 855.32 1929.3
-235.59 857.16 1933.4
-230.75 857.78 1934.8
-228.44 868.07 1958.1
-221.86 862.24 1944.9
-211.30 840.27 1895.4
-207.22 843.70 1903.1
-210.46 877.78 1979.9
-203.01 867.89 1957.6
-191.17 838.21 1890.7
-192.50 866.25 1953.9
-192.02 887.42 2001.7
-189.24 898.91 2027.6
-180.73 908.96 2050.3
-163.52 847.31 1911.2
-154.20 824.02 1858.7
-149.56 824.97 1860.8
-151.14 861.50 1943.2
-144.46 914.89 2063.7
-133.78 879.84 1984.6
-132.20 904.24 2039.6
-128.12 912.86 2059.1
-118.33 879.79 1984.5
-115.29 896.09 2021.3
-114.87 982.13 2215.3
-103.02 978.70 2207.6
-95.86 964.21 2174.9
-85.91 979.37 2209.1
-380.87 911.94 2069.1
-383.18 930.59 2111.4
-372.20 917.01 2080.6
-341.46 853.65 1936.9
-335.62 851.58 1932.2
-332.74 857.07 1944.6
-323.40 845.82 1919.1
-323.04 858.08 1946.9
-319.88 863.17 1958.4
-310.69 851.89 1932.9
-309.08 861.36 1954.4
-315.24 893.19 2026.6
-313.97 904.67 2052.6
-295.67 866.61 1966.2
-281.01 838.11 1901.6
-276.69 839.97 1905.8
-274.55 848.62 1925.4
-268.63 845.68 1918.8
-261.98 840.33 1906.6
-253.44 828.56 1879.9
-247.08 823.59 1868.7
-245.36 834.24 1892.8
-242.95 842.88 1912.4
-241.79 856.33 1942.9
-235.59 852.15 1933.4
-229.01 846.35 1920.3
-233.22 881.06 1999.0
-233.18 900.93 2044.1
-223.68 884.30 2006.4
-220.81 893.74 2027.8
-216.91 921.85 2091.6
-196.70 857.40 1945.4
-191.78 857.98 1946.7
-192.90 886.29 2010.9
-191.04 902.14 2046.9
-180.81 878.20 1992.6
-158.87 794.35 1802.3
-157.35 810.59 1839.1
-162.60 863.82 1959.9
-153.51 841.85 1910.1
-151.21 856.88 1944.2
-153.06 897.25 2035.8
-147.28 894.18 2028.8
-143.70 904.78 2052.9
-140.80 920.61 2088.8
-131.73 895.78 2032.4
-121.02 857.25 1945.0
-115.34 852.53 1934.3
-115.45 892.11 2024.1
-114.74 928.87 2107.5
-107.87 916.89 2080.3
-96.90 867.04 1967.2
-92.24 922.42 2092.9
-75.37 985.62 2236.3
-62.19 961.16 2180.8
-361.71 885.93 2022.0
-339.55 843.87 1926.0
-341.59 861.63 1966.5
-351.17 899.21 2052.3
-352.38 916.19 2091.1
-338.07 892.71 2037.5
-322.10 864.05 1972.1
-318.99 869.51 1984.5
-323.56 896.42 2045.9
-311.31 876.85 2001.3
-293.32 840.18 1917.6
-277.66 809.04 1846.5
-263.90 796.43 1817.7
-266.52 818.96 1869.1
-256.03 801.29 1828.8
-244.37 779.23 1778.5
-248.29 806.94 1841.7
-254.52 843.43 1925.0
-254.44 860.00 1962.8
-253.81 875.39 1997.9
-246.66 868.45 1982.1
-234.26 842.35 1922.5
-226.52 832.20 1899.4
-229.94 863.53 1970.9
-235.79 905.66 2067.0
-231.30 909.07 2074.8
-223.59 899.70 2053.4
-223.17 919.88 2099.5
-210.07 910.30 2077.6
-196.73 874.93 1996.9
-190.02 867.92 1980.9
-177.42 832.91 1901.0
-157.50 806.58 1840.9
-165.41 873.56 1993.7
-157.77 860.10 1963.0
-157.61 887.87 2026.4
-150.27 906.98 2070.0
-141.73 887.10 2024.6
-140.01 910.06 2077.1
-131.86 891.36 2034.4
-126.54 891.08 2033.7
-126.25 927.67 2117.2
-102.00 907.26 2070.7
-86.98 918.75 2096.9
-374.33 924.81 2123.3
-353.55 886.50 2035.3
-344.99 878.15 2016.2
-332.47 886.59 2035.5
-321.62 871.49 2000.9
-325.15 895.50 2056.0
-310.05 868.13 1993.1
-300.81 856.55 1966.6
-294.03 851.68 1955.4
-274.02 807.64 1854.3
-269.82 809.47 1858.5
-266.77 814.87 1870.9
-243.74 787.46 1807.9
-253.80 836.05 1919.5
-257.98 866.82 1990.1
-253.93 870.63 1998.9
-243.04 850.63 1953.0
-237.59 849.27 1949.8
-236.84 864.97 1985.9
-236.75 883.85 2029.2
-238.20 909.49 2088.1
-217.07 889.47 2042.1
-202.65 851.11 1954.1
-201.87 869.59 1996.5
-200.15 884.89 2031.6
-193.88 880.30 2021.1
-181.85 848.65 1948.4
-169.79 815.00 1871.2
-167.23 826.30 1897.1
-168.60 858.30 1970.6
-167.08 877.17 2013.9
-161.59 875.73 2010.6
-164.94 923.68 2120.7
-145.13 903.01 2073.2
-138.35 893.97 2052.5
-135.89 951.24 2184.0
-133.25 973.29 2234.6
-108.32 957.80 2199.0
-102.50 956.70 2196.5
-79.92 959.04 2201.9
-68.71 961.97 2208.6
-363.79 906.76 2094.3
-344.69 872.16 2014.4
-353.95 909.39 2100.4
-339.30 899.42 2077.4
-305.28 822.30 1899.2
-298.18 829.93 1916.9
-307.76 871.13 2012.0
-315.50 908.41 2098.1
-306.26 897.28 2072.4
-294.90 879.45 2031.2
-286.35 869.48 2008.2
-273.97 847.28 1956.9
-265.85 837.67 1934.7
-259.80 834.37 1927.1
-259.58 849.99 1963.2
-264.37 882.98 2039.4
-259.84 885.59 2045.4
-252.45 878.33 2028.7
-251.59 893.96 2064.8
-240.10 871.68 2013.3
-229.52 851.76 1967.3
-233.42 885.95 2046.3
-234.89 912.26 2107.0
-229.88 914.05 2111.2
-213.59 869.98 2009.4
-198.67 829.44 1915.7
-198.46 849.80 1962.7
-197.19 866.60 2001.6
-191.25 863.22 1993.7
-188.43 874.09 2018.8
-185.05 882.97 2039.4
-178.83 878.39 2028.8
-176.35 892.42 2061.2
-160.45 923.96 2134.0
-149.17 922.66 2131.0
-143.09 955.85 2207.7
-139.04 967.49 2234.6
-130.92 950.56 2195.5
-109.82 965.30 2229.5
-107.44 996.76 2302.2
-89.66 998.23 2305.6
-342.50 874.69 2032.4
-315.96 819.51 1904.2
-320.48 844.43 1962.1
-310.82 832.21 1933.7
-298.73 812.93 1888.9
-304.96 843.73 1960.5
-287.32 808.38 1878.3
-276.95 806.56 1874.1
-282.49 837.37 1945.7
-288.31 870.17 2021.9
-289.15 888.86 2065.3
-274.86 860.89 2000.3
-263.49 841.13 1954.4
-256.32 834.31 1938.6
-252.67 838.86 1949.2
-253.13 857.55 1992.6
-250.65 866.82 2014.1
-251.94 889.83 2067.6
-242.94 876.70 2037.1
-227.81 840.37 1952.7
-227.60 858.67 1995.2
-225.33 869.89 2021.3
-216.26 854.75 1986.1
-212.23 859.28 1996.6
-209.57 869.71 2020.8
-209.46 891.55 2071.6
-207.83 907.89 2109.5
-200.03 897.45 2085.3
-196.20 904.72 2102.2
-194.11 920.66 2139.2
-188.85 922.02 2142.4
-179.49 902.88 2097.9
-174.01 902.65 2097.4
-169.24 936.49 2176.0
-163.49 935.85 2174.5
-160.34 950.60 2208.8
-141.51 978.78 2274.3
-134.81 972.99 2260.8
-128.91 972.72 2260.2
-120.07 949.15 2205.4
-114.18 947.68 2202.0
-111.65 975.43 2266.5
-106.59 983.04 2284.2
-342.94 884.14 2066.8
-340.22 891.07 2083.0
-338.30 900.32 2104.7
-331.67 897.13 2097.2
-315.15 866.67 2026.0
-276.94 801.66 1874.0
-280.23 825.69 1930.2
-283.12 849.35 1985.5
-287.50 878.47 2053.6
-276.24 860.00 2010.4
-270.74 859.09 2008.3
-269.72 872.61 2039.9
-258.35 852.55 1993.0
-250.47 843.41 1971.6
-240.53 826.83 1932.9
-234.47 823.15 1924.2
-238.15 854.25 1996.9
-235.38 863.07 2017.6
-235.84 884.41 2067.4
-234.82 901.06 2106.4
-217.16 853.14 1994.3
-205.52 827.11 1933.5
-209.57 864.49 2020.9
-216.32 915.20 2139.4
-184.99 924.94 2162.2
-135.70 973.54 2275.8
-131.65 987.41 2308.2
-124.09 974.96 2279.1
-105.88 970.56 2268.9
-323.24 883.51 2078.0
-296.35 823.75 1937.4
-299.37 846.50 1990.9
-305.35 878.56 2066.3
-296.91 869.53 2045.1
-295.48 881.05 2072.2
-296.33 899.95 2116.6
-288.04 891.29 2096.2
-285.64 900.87 2118.8
-285.30 917.45 2157.8
-274.10 899.06 2114.5
-267.53 895.42 2106.0
-256.80 877.40 2063.6
-242.27 845.36 1988.2
-239.03 852.19 2004.3
-226.85 826.73 1944.4
-218.62 814.87 1916.5
-230.45 878.91 2067.1
-225.44 880.29 2070.4
-212.04 848.17 1994.8
-216.89 889.26 2091.5
-216.15 908.94 2137.8
-207.76 896.67 2108.9
-204.89 908.16 2135.9
-182.63 935.97 2201.3
-149.83 945.09 2222.8
-149.09 978.04 2300.3
-132.54 945.10 2222.8
-131.57 980.78 2306.7
-110.81 956.49 2249.6
-107.69 981.22 2307.7
-326.65 887.41 2099.9
-316.29 873.82 2067.8
-311.72 876.04 2073.0
-310.09 886.73 2098.3
-300.90 875.83 2072.5
-299.78 888.45 2102.4
-298.26 900.30 2130.4
-287.17 883.19 2089.9
-274.57 860.66 2036.6
-265.13 847.39 2005.2
-273.05 890.15 2106.4
-270.59 918.87 2174.4
-251.19 871.15 2061.4
-250.06 886.08 2096.8
-238.60 864.24 2045.1
-219.22 830.99 1966.4
-225.15 873.79 2067.7
-223.35 887.94 2101.2
-219.95 896.28 2120.9
-211.16 882.53 2088.4
-199.28 854.81 2022.8
-192.23 846.85 2003.9
-194.52 880.76 2084.2
-201.82 939.90 2224.1
-166.33 968.27 2291.3
-132.27 979.98 2319.0
-108.70 984.31 2329.2
-358.89 880.90 2097.4
-332.37 854.67 2034.9
-328.65 887.36 2112.8
-310.85 853.53 2032.2
-301.43 841.92 2004.6
-309.69 880.18 2095.7
-310.06 896.96 2135.6
-296.28 872.67 2077.8
-282.53 847.59 2018.1
-289.07 883.57 2103.7
-294.55 917.65 2184.9
-272.76 866.41 2062.9
-271.28 878.96 2092.8
-269.81 910.61 2168.1
-251.42 866.60 2063.3
-251.71 886.45 2110.6
-250.69 902.47 2148.7
-238.06 876.51 2086.9
-230.56 868.63 2068.2
-228.65 881.94 2099.9
-216.14 854.02 2033.4
-221.19 918.79 2187.6
-213.55 935.00 2226.2
-199.42 897.39 2136.6
-197.92 916.09 2181.2
-194.90 928.62 2211.0
-155.60 933.61 2222.9
-90.58 978.30 2329.3
-331.29 874.38 2094.8
-287.80 842.48 2018.4
-281.63 839.69 2011.7
-274.02 882.36 2113.9
-262.33 861.95 2065.0
-265.03 888.97 2129.7
-264.05 904.52 2167.0
-248.23 908.28 2176.0
-237.63 889.73 2131.6
-238.36 913.71 2189.0
-226.88 890.92 2134.4
-213.30 858.54 2056.8
-211.70 973.84 2333.1
-171.96 922.87 2211.0
-147.30 948.59 2272.6
-296.29 861.94 2077.9
-276.37 818.89 1974.1
-286.32 864.37 2083.7
-297.31 914.81 2205.3
-295.32 926.49 2233.5
-274.87 879.58 2120.4
-252.43 824.26 1987.1
-244.15 813.83 1961.9
-260.04 885.25 2134.1
-236.41 879.68 2120.6
-225.87 860.45 2074.3
-235.49 918.99 2215.4
-225.97 927.04 2234.8
-212.88 896.33 2160.8
-214.21 926.29 2233.0
-214.99 955.50 2303.4
-332.95 912.75 2214.2
-327.80 930.71 2257.8
-309.11 893.60 2167.8
-287.59 862.76 2093.0
-294.86 901.59 2187.2
-289.76 903.37 2191.5
-279.88 890.01 2159.0
-264.91 859.60 2085.3
-250.20 828.79 2010.5
-263.19 890.36 2159.9
-243.91 901.89 2187.9
-224.97 851.67 2066.0
-227.88 883.73 2143.8
-231.10 942.19 2285.6
-324.99 855.81 2089.2
-308.65 870.84 2125.9
-316.71 909.82 2221.1
-313.87 918.37 2241.9
-301.59 899.09 2194.9
-293.14 890.71 2174.4
-283.10 877.05 2141.1
-268.81 849.45 2073.7
-277.17 893.73 2181.8
-284.86 937.66 2289.0
-266.67 896.48 2188.5
-253.83 871.85 2128.4
-258.68 908.26 2217.3
-259.82 932.99 2277.6
-252.44 927.56 2264.4
-243.22 914.97 2233.6
-230.93 889.91 2172.5
