ply
format ascii 1.0
element vertex 2267
property float x
property float y
property float z
end_header
1014.71 865.07 1803.6
1002.53 850.77 1773.8
1000.25 844.96 1761.7
986.94 829.93 1730.4
944.59 790.72 1648.6
939.20 782.67 1631.8
955.01 792.28 1651.8
969.05 800.33 1668.6
993.38 816.78 1702.9
1008.05 825.17 1720.4
989.97 806.80 1682.1
964.20 782.36 1631.2
989.67 799.52 1667.0
1056.96 850.16 1772.5
1024.50 816.95 1703.3
1026.47 815.01 1699.2
1048.58 829.00 1728.4
1017.36 800.90 1669.8
976.24 765.27 1595.5
965.35 753.54 1571.1
977.21 759.60 1583.7
987.17 764.13 1593.2
1004.99 774.68 1615.2
1040.08 798.40 1664.6
1058.61 809.27 1687.3
1070.32 814.85 1698.9
1066.21 808.40 1685.5
1048.63 791.82 1650.9
1070.79 805.27 1678.9
1008.31 891.96 1869.8
968.66 844.71 1770.7
891.46 773.72 1621.9
898.85 776.47 1627.7
922.37 793.07 1662.5
965.36 826.17 1731.9
1024.88 873.04 1830.1
1017.79 863.01 1809.1
976.98 824.60 1728.6
960.92 807.35 1692.4
939.67 785.91 1647.5
932.48 776.36 1627.5
955.16 791.67 1659.6
944.67 779.46 1634.0
931.74 765.36 1604.4
956.90 782.53 1640.4
974.25 793.19 1662.8
992.15 804.21 1685.9
1004.03 810.27 1698.5
981.48 788.61 1653.1
997.12 797.70 1672.2
1039.00 827.60 1734.9
1031.50 818.09 1714.9
968.87 765.12 1603.9
923.08 725.84 1521.6
969.96 759.46 1592.0
1011.32 788.48 1652.9
975.31 757.20 1587.3
960.45 742.53 1556.6
1015.27 781.63 1638.5
1082.64 830.03 1740.0
1095.40 836.32 1753.2
1088.50 827.62 1734.9
1083.00 820.05 1719.0
1062.07 800.90 1678.9
1065.34 800.09 1677.2
1106.53 827.65 1735.0
1112.90 829.04 1737.9
1101.72 817.40 1713.5
989.49 874.77 1843.8
964.45 848.53 1788.5
962.80 835.03 1760.0
877.51 757.47 1596.5
865.20 743.34 1566.8
889.51 760.65 1603.2
934.20 795.16 1676.0
954.37 808.56 1704.2
918.01 774.17 1631.7
905.45 760.08 1602.0
917.41 766.60 1615.8
939.50 781.50 1647.2
973.67 806.25 1699.4
966.53 796.74 1679.3
927.36 761.02 1604.0
909.71 743.20 1566.5
930.14 756.52 1594.5
938.05 759.57 1601.0
947.39 763.76 1609.8
962.42 772.47 1628.2
941.12 752.07 1585.2
971.34 772.85 1629.0
1025.53 812.43 1712.4
1025.62 809.00 1705.2
972.97 764.18 1610.7
881.98 689.75 1453.8
876.19 682.31 1438.1
920.17 713.52 1503.9
893.06 689.58 1453.4
915.42 703.87 1483.6
1011.65 774.61 1632.7
1051.13 801.48 1689.3
1037.74 787.99 1660.9
1026.20 776.01 1635.6
1013.08 762.94 1608.1
1031.61 773.71 1630.8
1079.59 806.39 1699.6
1105.37 822.28 1733.2
1096.71 812.55 1712.6
1140.22 841.37 1773.4
932.71 840.36 1781.0
933.46 836.90 1773.6
972.50 859.20 1820.9
962.79 846.51 1794.0
980.14 857.62 1817.6
1004.37 866.33 1836.0
972.58 834.95 1769.5
942.74 805.53 1707.2
948.07 806.30 1708.8
939.00 794.88 1684.6
910.85 767.48 1626.5
916.47 768.65 1629.0
943.49 787.68 1669.3
958.79 796.80 1688.7
983.80 813.87 1724.8
984.10 810.44 1717.6
947.44 776.73 1646.1
941.99 768.80 1629.3
957.39 777.88 1648.6
957.47 774.49 1641.4
943.00 759.41 1609.4
942.97 756.03 1602.3
947.61 756.43 1603.1
931.45 740.28 1568.9
967.82 765.84 1623.1
996.32 784.98 1663.6
968.11 759.47 1609.5
956.47 747.11 1583.4
904.31 703.35 1490.6
888.34 679.32 1439.7
915.63 697.25 1477.7
887.64 673.13 1426.6
923.90 697.72 1478.7
965.29 725.96 1538.5
937.12 701.88 1487.5
938.04 699.69 1482.8
985.26 731.91 1551.1
1017.76 752.98 1595.8
1060.45 781.39 1656.0
1133.27 825.02 1748.5
1105.19 801.37 1698.4
956.14 861.00 1834.8
919.76 824.14 1756.3
942.57 832.22 1773.5
964.15 847.14 1805.3
995.47 870.43 1854.9
980.93 853.59 1819.0
982.53 850.90 1813.3
965.98 832.58 1774.2
934.17 801.35 1707.7
920.79 786.15 1675.3
910.41 773.63 1648.6
936.26 791.89 1687.5
950.11 799.86 1704.5
920.62 771.45 1644.0
925.82 772.23 1645.6
925.11 768.09 1636.8
912.92 754.51 1607.9
931.81 766.63 1633.7
925.94 758.35 1616.1
920.46 750.47 1599.3
943.66 765.93 1632.2
946.51 764.81 1629.8
935.34 752.43 1603.4
962.95 771.21 1643.5
1007.65 803.46 1712.2
987.04 783.57 1669.8
949.68 750.62 1599.6
941.50 740.92 1578.9
927.03 726.37 1547.9
977.95 762.97 1625.9
1054.60 819.24 1745.8
982.50 759.97 1619.5
909.90 700.82 1493.5
908.02 696.40 1484.0
918.25 701.28 1494.4
939.74 714.67 1523.0
936.87 709.51 1512.0
911.87 687.70 1465.5
957.09 718.81 1531.8
976.39 730.28 1556.2
924.94 688.95 1468.2
937.25 695.26 1481.6
991.99 732.85 1561.7
1027.02 755.66 1610.3
1075.79 788.33 1680.0
1125.33 821.31 1750.2
1122.15 815.70 1738.3
1020.24 738.66 1574.1
952.72 687.02 1464.1
1011.02 726.17 1547.5
1104.36 790.08 1683.7
954.29 842.02 1804.3
908.19 797.43 1708.8
948.37 828.67 1775.7
982.71 854.53 1831.1
974.69 843.48 1807.5
976.70 841.18 1802.5
963.65 825.99 1770.0
921.15 785.81 1683.9
893.88 758.96 1626.3
884.73 747.66 1602.1
910.05 765.47 1640.3
944.55 790.79 1694.5
937.19 780.99 1673.6
917.92 761.41 1631.6
896.21 739.99 1585.7
876.58 720.48 1543.9
883.42 722.79 1548.8
889.34 724.35 1552.2
896.67 727.03 1557.9
910.52 734.95 1574.9
903.94 726.38 1556.5
901.02 720.81 1544.6
931.81 742.15 1590.3
956.67 758.59 1625.6
926.42 731.38 1567.2
947.58 744.82 1596.0
996.42 779.80 1671.0
950.16 740.38 1586.5
965.30 748.94 1604.9
1025.65 788.96 1690.6
941.53 721.17 1545.4
930.53 709.73 1520.8
945.22 717.89 1538.3
974.61 737.10 1579.5
1007.59 758.86 1626.1
1006.37 754.78 1617.4
993.29 741.88 1589.7
961.31 715.03 1532.2
955.39 707.69 1516.5
1014.55 748.44 1603.8
1055.08 775.16 1661.1
1074.83 786.46 1685.3
1075.59 783.83 1679.6
1072.30 778.28 1667.7
1070.47 773.83 1658.2
968.83 697.56 1494.8
958.28 684.48 1466.7
1055.10 750.66 1608.6
973.94 867.34 1869.0
916.74 800.47 1724.9
938.67 815.64 1757.6
954.61 825.48 1778.8
936.36 805.81 1736.4
928.08 794.86 1712.8
942.72 803.56 1731.5
929.88 788.86 1699.9
925.38 781.34 1683.6
937.38 787.75 1697.5
926.51 774.98 1669.9
925.45 770.49 1660.3
912.11 755.87 1628.8
887.28 731.91 1577.1
893.72 733.83 1581.3
900.62 736.12 1586.2
906.62 737.66 1589.5
912.18 738.82 1592.0
886.26 714.60 1539.8
868.03 696.76 1501.4
874.34 698.69 1505.6
883.47 702.85 1514.5
883.72 699.94 1508.2
873.58 688.86 1484.4
894.53 702.28 1513.3
968.22 756.82 1630.8
1032.39 803.47 1731.3
998.62 773.82 1667.5
917.18 707.65 1524.9
912.53 701.05 1510.6
942.54 721.00 1553.6
932.57 710.34 1530.7
922.99 700.06 1508.5
939.60 709.66 1529.2
956.79 719.60 1550.6
973.07 728.79 1570.4
972.23 725.12 1562.5
956.07 710.11 1530.2
926.92 685.61 1477.4
928.32 683.82 1473.5
996.39 730.96 1575.1
1046.39 764.50 1647.4
1062.11 772.83 1665.3
1057.30 766.22 1651.1
945.13 682.17 1470.0
911.77 652.83 1406.7
1051.72 750.03 1616.2
1052.79 747.81 1611.4
1094.73 774.54 1669.0
968.31 857.51 1858.2
909.07 793.21 1718.8
985.71 855.88 1854.6
951.20 821.91 1781.0
950.12 817.01 1770.4
913.80 782.01 1694.6
931.47 793.31 1719.0
974.05 825.62 1789.1
926.17 781.32 1693.1
890.39 747.59 1620.0
919.75 768.61 1665.5
929.04 772.75 1674.5
923.92 764.92 1657.5
908.30 748.50 1622.0
877.06 719.43 1559.0
876.61 715.76 1551.0
864.67 702.79 1522.9
850.77 688.35 1491.6
896.73 722.25 1565.1
912.43 731.58 1585.3
887.76 708.62 1535.5
887.15 704.96 1527.6
907.09 717.61 1555.0
919.63 724.31 1569.5
901.59 706.97 1532.0
916.02 715.14 1549.7
936.69 728.08 1577.7
943.19 729.95 1581.7
954.00 735.12 1593.0
918.36 704.60 1526.8
886.30 677.09 1467.2
886.32 674.21 1461.0
911.98 690.77 1496.9
939.22 708.40 1535.1
970.52 728.91 1579.5
1004.92 751.58 1628.6
1017.44 757.76 1642.0
1010.84 749.70 1624.6
969.12 715.78 1551.1
915.23 673.19 1458.8
922.55 675.78 1464.4
994.64 725.60 1572.3
1027.68 746.64 1617.9
1027.81 743.70 1611.6
1032.95 744.39 1613.0
920.61 660.76 1431.8
953.52 678.91 1471.1
1002.76 702.72 1522.8
1038.09 724.63 1570.2
986.64 868.83 1893.3
954.11 836.03 1821.8
977.37 852.19 1857.1
957.64 822.82 1793.1
910.10 778.20 1695.8
897.81 764.00 1664.9
939.72 795.84 1734.3
985.91 830.98 1810.9
933.58 783.14 1706.6
888.86 742.11 1617.2
911.05 757.07 1649.8
920.31 761.19 1658.8
916.51 754.52 1644.2
921.26 754.92 1645.1
910.07 742.31 1617.6
902.42 732.70 1596.7
885.06 715.32 1558.8
830.26 667.98 1455.6
834.15 668.07 1455.9
896.91 715.10 1558.3
915.89 726.96 1584.2
899.03 710.40 1548.1
902.17 709.71 1546.6
927.85 726.68 1583.6
922.56 719.35 1567.6
877.91 681.54 1485.2
841.48 650.40 1417.3
873.87 672.50 1465.5
908.35 696.01 1516.7
888.84 678.12 1477.7
867.72 659.17 1436.4
912.58 690.29 1504.3
983.87 741.05 1614.9
996.79 747.60 1629.1
1013.18 756.68 1648.9
1057.37 779.81 1699.3
975.27 716.28 1560.9
955.54 698.89 1523.0
997.77 726.77 1583.8
999.86 725.31 1580.6
953.44 688.81 1501.0
971.40 698.93 1523.1
1001.51 717.68 1564.0
995.46 710.47 1548.2
1009.07 717.29 1563.1
1067.41 755.72 1646.9
1044.57 727.91 1586.2
1058.41 734.66 1601.0
991.28 876.71 1921.4
985.97 867.65 1901.5
960.44 840.98 1843.1
926.48 807.23 1769.1
867.17 751.83 1647.7
867.17 748.14 1639.6
946.79 812.86 1781.4
957.09 817.71 1792.0
921.35 783.37 1716.8
920.54 778.92 1707.0
928.96 782.29 1714.4
940.52 788.25 1727.5
934.76 779.70 1708.8
931.60 773.40 1695.0
930.17 768.59 1684.4
915.18 752.67 1649.5
895.51 733.07 1606.6
886.56 722.39 1583.2
898.48 728.72 1597.0
913.18 737.25 1615.7
916.49 736.54 1614.2
885.25 708.20 1552.1
869.00 692.05 1516.7
909.66 721.17 1580.5
926.84 731.49 1603.1
906.26 712.06 1560.5
829.26 648.67 1421.6
834.52 647.03 1418.0
847.32 654.07 1433.4
836.89 643.20 1409.6
897.42 686.72 1505.0
947.31 721.76 1581.8
946.63 718.13 1573.8
877.52 662.85 1452.7
873.16 656.74 1439.3
961.83 720.35 1578.7
986.35 735.59 1612.1
973.93 723.25 1585.1
1001.04 740.26 1622.3
1029.28 757.96 1661.1
982.78 720.71 1579.5
939.43 686.06 1503.5
952.28 692.57 1517.8
970.17 702.67 1539.9
943.24 680.37 1491.1
937.63 673.56 1476.2
1000.72 715.96 1569.1
1088.83 775.85 1700.3
1097.93 776.04 1700.7
1101.20 775.24 1699.0
1102.43 773.02 1694.1
1036.18 723.68 1586.0
1099.69 765.00 1676.5
1134.75 786.28 1723.2
1092.16 753.80 1652.0
1097.37 754.44 1653.4
1083.40 741.94 1626.0
1063.60 725.56 1590.1
1092.15 742.16 1626.5
1137.04 769.69 1686.8
961.31 849.64 1872.7
964.43 848.12 1869.3
993.59 869.39 1916.2
1001.51 871.96 1921.9
968.55 839.09 1849.4
905.03 780.19 1719.6
864.82 741.88 1635.2
903.98 771.69 1700.9
953.03 809.62 1784.5
956.33 808.49 1782.0
944.63 794.76 1751.7
941.20 788.09 1737.0
939.49 782.91 1725.6
918.55 761.83 1679.1
938.14 774.41 1706.9
960.10 788.81 1738.6
947.00 774.42 1706.9
924.73 752.68 1659.0
907.24 735.03 1620.1
911.48 735.07 1620.1
916.64 735.83 1621.8
909.85 727.05 1602.5
931.56 741.02 1633.3
970.97 768.87 1694.7
955.39 753.12 1659.9
915.43 718.39 1583.4
896.67 700.52 1544.0
828.96 644.74 1421.1
849.33 654.77 1443.2
885.88 679.96 1498.7
898.40 686.55 1513.2
938.66 714.20 1574.1
965.74 731.62 1612.6
962.24 725.82 1599.8
893.12 670.80 1478.5
860.76 643.73 1418.8
921.31 686.08 1512.2
944.74 700.55 1544.1
933.15 689.03 1518.7
922.42 678.25 1494.9
910.13 666.41 1468.8
927.80 676.52 1491.1
949.02 689.13 1518.9
934.63 675.87 1489.7
921.12 663.36 1462.1
966.39 693.11 1527.7
1037.46 741.04 1633.3
1056.70 751.72 1656.8
1099.70 779.14 1717.3
1031.83 725.18 1598.4
1007.45 705.22 1554.4
979.85 683.16 1505.7
959.73 666.48 1469.0
1055.35 729.99 1608.9
1124.19 762.53 1680.7
1123.71 759.26 1673.5
969.90 856.66 1899.0
989.20 869.30 1927.0
962.65 841.71 1865.9
961.91 836.86 1855.1
997.15 863.21 1913.5
993.01 855.37 1896.1
954.19 817.87 1813.0
928.04 791.56 1754.7
943.93 801.19 1776.0
968.67 818.19 1813.7
952.25 800.44 1774.4
921.10 770.54 1708.1
902.08 751.01 1664.8
882.87 731.52 1621.6
880.44 726.05 1609.5
920.51 755.51 1674.8
939.26 767.28 1700.9
922.47 750.04 1662.7
914.12 739.80 1639.9
908.40 731.77 1622.1
960.10 769.85 1706.6
957.89 761.07 1687.1
933.66 738.44 1636.9
925.42 728.61 1615.2
864.13 677.29 1501.4
835.47 651.90 1445.1
831.38 645.81 1431.6
869.02 672.04 1489.8
939.87 723.62 1604.1
949.24 727.61 1612.9
926.40 706.99 1567.2
900.03 683.87 1516.0
901.64 682.11 1512.1
910.89 686.12 1521.0
893.25 669.94 1485.1
899.58 671.79 1489.2
946.58 703.86 1560.3
955.98 707.83 1569.1
927.42 683.78 1515.8
917.71 673.76 1493.6
907.91 663.77 1471.4
907.36 660.59 1464.4
938.35 680.31 1508.1
980.90 708.20 1569.9
984.96 708.20 1569.9
961.63 688.58 1526.4
997.57 711.38 1577.0
1056.75 750.51 1663.7
1066.51 754.36 1672.2
1015.30 715.23 1585.5
928.36 651.35 1443.9
915.93 640.05 1418.8
985.80 686.12 1520.9
1033.61 716.53 1588.4
1088.33 751.47 1665.8
1122.82 772.22 1711.8
1127.27 769.20 1705.1
1096.87 745.53 1652.6
1036.80 696.54 1544.0
1057.30 704.87 1562.5
936.17 830.55 1851.8
946.85 835.74 1863.3
998.13 876.53 1954.3
992.95 867.58 1934.3
946.38 822.73 1834.3
918.19 794.24 1770.8
923.66 794.99 1772.5
934.73 800.53 1784.8
912.52 777.66 1733.8
898.35 761.83 1698.6
925.47 781.01 1741.3
956.28 803.09 1790.5
948.16 792.42 1766.8
939.04 781.03 1741.4
937.80 776.26 1730.7
908.03 748.04 1667.8
901.22 738.92 1647.5
898.36 733.10 1634.5
874.74 710.47 1584.0
854.53 690.81 1540.2
844.10 679.21 1514.3
846.76 678.19 1512.1
901.93 719.05 1603.2
951.73 751.82 1676.2
895.13 703.90 1569.4
862.66 675.29 1505.6
835.96 651.45 1452.4
838.44 650.45 1450.2
869.94 671.87 1498.0
950.96 731.18 1630.2
949.96 723.98 1614.2
926.62 703.09 1567.6
900.23 680.09 1516.3
894.19 672.58 1499.6
896.22 671.20 1496.5
905.94 675.55 1506.2
944.66 701.40 1563.8
941.47 696.04 1551.9
893.53 657.79 1466.6
884.73 648.55 1446.0
899.32 656.46 1463.6
899.75 654.02 1458.2
909.50 658.34 1467.8
917.32 661.23 1474.3
935.56 671.58 1497.3
960.84 686.88 1531.4
955.36 680.15 1516.4
940.81 667.05 1487.2
947.21 668.84 1491.2
973.74 684.78 1526.8
937.84 656.87 1464.5
901.20 628.66 1401.6
948.05 658.69 1468.6
1014.00 701.69 1564.5
1062.95 732.63 1633.4
1055.83 724.84 1616.1
1019.38 697.04 1554.1
1097.53 747.53 1666.7
1130.66 767.07 1710.2
1029.61 693.08 1545.3
1088.73 727.22 1621.4
965.00 642.10 1431.6
1102.70 730.91 1629.6
964.58 850.81 1908.0
974.97 855.58 1918.7
974.40 850.75 1907.8
928.37 806.46 1808.5
916.01 791.73 1775.5
913.35 785.48 1761.5
898.60 768.95 1724.4
892.31 759.79 1703.9
906.30 767.90 1722.0
927.76 782.23 1754.2
916.15 768.68 1723.8
911.44 761.01 1706.6
933.93 776.02 1740.2
956.56 791.00 1773.8
956.27 786.98 1764.8
922.98 755.97 1695.3
905.94 738.49 1656.1
894.12 725.42 1626.8
871.36 703.64 1577.9
851.12 684.08 1534.1
852.46 681.97 1529.3
867.90 691.11 1549.8
857.37 679.58 1524.0
858.66 677.47 1519.3
886.16 695.98 1560.8
898.12 702.17 1574.6
887.88 691.02 1549.6
879.40 681.34 1527.9
875.03 674.91 1513.5
902.93 693.32 1554.8
939.92 718.52 1611.3
922.41 702.01 1574.3
884.86 670.47 1503.5
855.58 645.44 1447.4
854.19 641.58 1438.8
879.07 657.39 1474.2
901.69 671.39 1505.6
934.54 692.85 1553.7
942.94 696.08 1561.0
898.55 660.47 1481.1
859.18 628.84 1410.2
860.99 627.50 1407.2
882.85 640.72 1436.8
890.59 643.62 1443.3
897.86 646.16 1449.0
905.14 648.69 1454.7
928.31 662.53 1485.7
957.07 680.23 1525.4
945.08 668.94 1500.1
926.98 653.45 1465.4
912.26 640.45 1436.2
914.54 639.44 1434.0
923.37 643.00 1441.9
931.22 645.84 1448.3
866.96 598.87 1343.0
888.98 609.18 1366.1
907.47 619.39 1389.0
958.43 651.58 1461.2
1131.30 766.07 1717.9
1097.38 737.31 1653.4
1116.15 744.10 1668.7
993.01 866.35 1954.2
907.06 787.35 1776.0
922.73 796.90 1797.5
963.23 827.70 1867.0
941.06 804.60 1814.9
909.63 773.86 1745.6
915.47 774.98 1748.1
940.39 792.15 1786.8
954.60 800.18 1804.9
936.10 780.84 1761.3
902.49 749.16 1689.8
897.22 741.18 1671.8
893.19 734.30 1656.3
868.67 710.73 1603.2
854.63 695.91 1569.7
854.75 692.72 1562.5
864.28 697.13 1572.5
860.32 690.68 1557.9
870.32 695.44 1568.7
903.06 718.25 1620.1
898.64 711.42 1604.7
863.97 680.82 1535.7
853.34 669.37 1509.8
867.48 677.35 1527.9
884.47 687.48 1550.7
878.35 679.63 1533.0
874.01 673.22 1518.6
877.09 672.57 1517.1
856.71 654.01 1475.2
837.58 636.56 1435.8
841.89 637.00 1436.9
831.99 626.74 1413.7
820.09 615.06 1387.4
834.79 623.36 1406.1
856.75 636.97 1436.8
885.07 655.18 1477.9
901.98 664.82 1499.6
889.01 652.45 1471.7
878.35 641.87 1447.8
871.49 634.15 1430.4
858.20 621.83 1402.6
867.82 626.15 1412.4
921.21 661.88 1493.0
977.37 699.29 1577.3
959.20 683.43 1541.6
956.76 678.86 1531.3
1012.76 709.76 1601.0
956.61 667.67 1506.0
931.82 647.73 1461.0
915.95 634.12 1430.3
978.00 674.34 1521.1
963.13 661.43 1491.9
859.46 587.87 1326.0
883.98 602.24 1358.4
981.96 666.33 1503.0
1109.28 749.75 1691.2
1072.78 722.23 1629.1
877.25 588.28 1326.9
944.61 630.97 1423.2
1053.43 700.92 1581.0
1113.28 737.87 1664.4
924.61 827.28 1877.0
982.83 870.22 1974.4
985.85 863.89 1960.1
958.16 826.84 1876.0
965.55 829.00 1880.9
983.62 840.28 1906.5
939.65 798.70 1812.2
929.71 786.32 1784.1
956.81 805.23 1827.0
960.65 804.49 1825.3
952.73 793.94 1801.4
945.57 784.13 1779.1
925.15 763.47 1732.2
932.29 765.65 1737.2
939.90 768.19 1742.9
909.32 739.64 1678.2
890.51 720.89 1635.6
874.66 704.70 1598.9
868.08 696.10 1579.4
848.35 677.08 1536.2
842.46 669.24 1518.5
886.48 700.94 1590.4
892.03 702.06 1592.9
864.17 677.00 1536.0
858.12 669.18 1518.3
839.56 651.71 1478.7
824.52 637.13 1445.6
842.79 648.30 1470.9
860.69 659.09 1495.4
887.57 676.62 1535.2
889.73 675.24 1532.1
843.85 637.58 1446.6
822.20 618.47 1403.2
832.13 623.18 1413.9
838.77 625.40 1419.0
834.46 619.46 1405.5
835.83 617.79 1401.7
870.82 640.87 1454.1
895.90 656.48 1489.5
899.34 656.17 1488.8
908.12 659.74 1496.9
889.17 643.23 1459.4
860.30 619.70 1406.1
854.24 612.75 1390.3
895.82 639.87 1451.8
946.02 672.90 1526.8
914.38 647.68 1469.5
877.04 618.66 1403.7
922.60 648.11 1470.5
958.93 670.85 1522.1
878.22 611.88 1388.3
878.40 609.50 1382.9
910.81 629.42 1428.1
940.87 647.56 1469.3
1063.38 728.93 1653.9
1112.07 756.21 1715.8
1038.10 703.10 1595.3
1048.33 707.21 1604.6
1067.35 717.19 1627.2
897.02 600.37 1362.2
1140.68 751.61 1705.3
1081.14 701.50 1591.6
947.52 834.01 1903.5
952.85 834.36 1904.3
905.04 788.41 1799.4
935.35 810.64 1850.1
963.75 822.59 1877.4
934.40 793.54 1811.1
900.91 761.27 1737.5
896.40 753.69 1720.2
924.25 773.26 1764.8
930.13 774.35 1767.3
930.79 771.10 1759.9
934.05 770.02 1757.4
904.33 741.90 1693.3
903.45 737.60 1683.5
959.22 779.37 1778.8
974.48 787.98 1798.4
921.54 741.62 1692.6
869.05 696.07 1588.7
888.98 708.67 1617.4
894.58 709.78 1620.0
854.43 674.76 1540.0
866.23 680.90 1554.0
882.66 690.60 1576.2
861.61 671.03 1531.5
863.37 669.31 1527.6
857.72 661.89 1510.7
834.87 641.33 1463.7
844.35 645.68 1473.7
842.68 641.50 1464.1
851.26 645.12 1472.4
888.99 670.71 1530.8
875.58 657.66 1501.0
820.92 613.87 1401.1
800.01 595.60 1359.4
879.39 651.83 1487.7
954.03 704.06 1606.9
877.67 644.89 1471.9
845.49 618.56 1411.8
919.72 669.97 1529.1
981.33 711.78 1624.5
915.10 660.90 1508.4
822.08 591.20 1349.3
810.57 580.45 1324.8
828.38 590.70 1348.2
823.65 584.86 1334.8
824.29 582.87 1330.3
880.87 620.28 1415.7
925.86 649.25 1481.8
891.38 622.49 1420.7
854.16 594.04 1355.8
805.65 558.01 1273.6
816.67 563.34 1285.7
925.59 635.87 1451.3
1051.84 719.68 1642.5
1023.03 697.15 1591.1
938.54 637.00 1453.9
941.84 636.69 1453.1
925.17 622.92 1421.7
931.48 624.68 1425.7
934.20 624.03 1424.2
910.05 605.50 1382.0
931.84 617.57 1409.5
977.62 645.38 1473.0
1079.90 710.13 1620.8
942.34 820.27 1883.3
981.96 850.36 1952.4
952.49 820.60 1884.0
970.86 832.17 1910.6
985.53 840.45 1929.6
963.22 817.28 1876.4
931.28 786.21 1805.1
893.03 750.14 1722.3
866.92 724.59 1663.6
870.86 724.28 1662.9
880.44 728.64 1672.9
886.13 729.76 1675.5
906.73 743.08 1706.0
894.91 729.83 1675.6
858.23 696.54 1599.2
876.63 708.05 1625.6
921.84 741.00 1701.3
898.13 718.50 1649.6
838.33 667.49 1532.5
852.75 675.77 1551.5
907.00 715.38 1642.5
920.36 722.52 1658.9
893.74 698.36 1603.4
867.80 674.95 1549.6
864.09 668.98 1535.9
885.18 682.16 1566.2
896.22 687.51 1578.5
891.56 680.83 1563.1
897.99 682.64 1567.3
890.44 673.85 1547.1
855.17 644.25 1479.2
851.11 638.33 1465.6
855.01 638.41 1465.7
817.74 607.87 1395.6
817.22 604.81 1388.6
934.35 688.47 1580.7
871.11 636.29 1460.9
815.79 593.30 1362.2
871.13 630.82 1448.3
929.72 670.36 1539.1
854.52 613.50 1408.5
762.21 544.90 1251.0
765.16 544.69 1250.6
827.51 586.59 1346.8
876.93 619.01 1421.2
780.43 548.59 1259.5
749.70 524.79 1204.9
898.19 626.12 1437.5
969.30 672.90 1544.9
929.29 642.47 1475.1
888.00 611.41 1403.8
823.29 564.54 1296.1
848.00 579.13 1329.6
934.61 635.69 1459.5
893.24 605.10 1389.3
847.53 571.83 1312.9
866.39 582.21 1336.7
933.50 624.82 1434.5
1043.12 695.42 1596.6
1019.37 676.89 1554.1
954.10 631.06 1448.9
965.66 636.20 1460.7
995.97 653.61 1500.6
1071.79 700.63 1608.6
1124.50 729.41 1674.7
1053.52 680.74 1562.9
975.94 853.31 1970.9
883.77 768.70 1775.4
911.36 788.59 1821.4
978.54 842.35 1945.5
984.37 843.03 1947.1
977.11 832.54 1922.9
969.74 822.06 1898.7
940.53 793.28 1832.2
903.33 758.07 1750.9
916.49 765.27 1767.5
939.20 780.33 1802.3
917.88 758.84 1752.7
901.99 742.03 1713.8
886.81 725.97 1676.7
883.75 719.93 1662.8
901.75 731.03 1688.4
894.23 721.43 1666.3
847.58 680.51 1571.8
825.47 659.59 1523.4
878.70 698.77 1613.9
897.74 710.53 1641.1
866.01 682.19 1575.6
876.94 687.56 1588.0
898.82 701.41 1620.0
883.93 686.59 1585.8
869.82 672.50 1553.2
878.96 676.44 1562.3
872.95 668.73 1544.5
855.77 652.57 1507.2
880.17 668.13 1543.2
921.93 696.66 1609.1
913.98 687.55 1588.0
873.61 654.23 1511.1
867.73 646.92 1494.2
869.80 645.58 1491.1
830.18 613.45 1416.9
832.55 612.49 1414.6
860.18 630.04 1455.2
826.25 602.55 1391.7
800.70 581.38 1342.8
832.28 601.69 1389.7
815.23 586.82 1355.4
789.31 565.73 1306.6
806.98 575.92 1330.2
815.46 579.50 1338.4
760.33 538.03 1242.7
768.67 541.64 1251.0
917.96 644.12 1487.7
894.19 624.81 1443.1
742.30 516.52 1193.0
786.91 545.29 1259.4
1000.92 690.72 1595.3
1015.15 694.80 1604.7
938.69 639.84 1477.8
854.67 580.20 1340.1
850.66 575.14 1328.4
872.02 587.21 1356.3
885.84 594.12 1372.2
924.76 617.74 1426.8
1017.21 676.79 1563.2
1111.21 736.40 1700.8
1058.24 698.52 1613.4
1014.76 667.18 1541.0
1047.76 686.18 1584.9
954.53 622.68 1438.2
908.73 590.50 1363.9
936.40 601.46 1389.2
987.54 631.87 1459.4
1093.42 696.95 1609.7
1109.68 704.62 1627.4
944.02 824.77 1916.4
990.08 856.01 1989.0
934.21 803.51 1867.0
934.42 799.56 1857.8
932.91 794.17 1845.3
925.00 783.42 1820.3
929.29 783.06 1819.5
909.70 762.67 1772.1
881.76 735.54 1709.1
902.14 748.78 1739.8
933.45 770.91 1791.3
923.78 759.15 1763.9
923.57 755.24 1754.9
919.83 748.49 1739.2
883.11 715.10 1661.6
868.53 699.88 1626.2
870.59 698.16 1622.2
830.03 662.43 1539.2
801.59 636.67 1479.4
846.26 668.95 1554.4
879.11 691.62 1607.0
863.05 675.79 1570.2
859.51 669.85 1556.5
866.35 672.02 1561.5
863.17 666.45 1548.6
859.95 660.88 1535.6
868.60 664.46 1543.9
867.15 660.30 1534.3
843.92 639.68 1486.4
859.47 648.51 1506.9
878.83 660.12 1533.8
847.82 633.96 1473.1
838.14 623.91 1449.7
865.54 641.43 1490.4
880.35 649.51 1509.2
846.42 621.71 1444.6
755.16 552.24 1283.2
705.25 513.47 1193.1
751.20 544.54 1265.3
810.41 584.91 1359.1
819.38 588.82 1368.2
776.65 555.70 1291.2
773.38 550.99 1280.3
821.19 582.55 1353.6
862.44 609.21 1415.6
815.75 573.79 1333.2
831.51 577.53 1341.9
904.59 625.68 1453.8
834.26 574.63 1335.2
938.22 643.57 1495.4
941.13 642.91 1493.9
808.37 549.96 1277.9
968.58 656.26 1524.9
949.11 637.86 1482.1
888.40 594.65 1381.7
854.83 569.89 1324.2
854.30 567.26 1318.1
886.58 586.34 1362.4
909.76 599.29 1392.5
1001.69 657.23 1527.1
1110.17 725.54 1685.9
1115.96 726.47 1688.0
990.06 641.99 1491.7
894.21 577.59 1342.1
989.92 636.93 1480.0
1090.87 699.17 1624.6
1107.61 707.16 1643.2
931.96 809.34 1892.0
996.52 860.87 2012.4
993.44 849.32 1985.4
959.49 816.06 1907.7
931.10 787.86 1841.7
921.90 776.09 1814.2
919.81 770.40 1800.9
897.59 747.99 1748.6
866.58 718.52 1679.7
881.32 727.09 1699.7
905.21 743.08 1737.1
909.74 743.10 1737.1
923.84 750.91 1755.4
905.22 732.16 1711.6
857.88 690.49 1614.1
870.95 697.60 1630.8
897.36 715.28 1672.1
876.85 695.58 1626.0
868.64 685.77 1603.1
874.65 687.22 1606.5
872.13 682.00 1594.3
856.03 666.25 1557.5
851.10 659.30 1541.2
840.64 648.15 1515.2
818.21 627.93 1467.9
842.73 643.75 1504.9
883.94 672.12 1571.2
875.17 662.40 1548.5
838.99 632.11 1477.7
776.97 582.73 1362.2
728.47 543.88 1271.4
780.16 579.85 1355.5
853.77 631.72 1476.7
852.52 627.97 1468.0
833.73 611.40 1429.3
825.22 602.49 1408.4
747.15 543.08 1269.5
710.06 513.86 1201.2
783.37 564.44 1319.5
797.54 572.15 1337.5
733.15 523.68 1224.2
758.33 539.33 1260.8
845.80 598.96 1400.2
876.33 617.93 1444.5
875.77 614.90 1437.4
786.91 550.17 1286.1
737.89 507.30 1185.9
804.96 551.11 1288.3
803.97 548.16 1281.4
736.29 499.95 1168.7
754.93 508.42 1188.5
1016.21 681.61 1593.4
1007.10 672.76 1572.7
824.39 548.48 1282.2
705.37 467.41 1092.7
747.39 493.28 1153.1
821.99 540.35 1263.2
777.54 509.10 1190.1
805.62 525.41 1228.2
954.52 620.06 1449.5
993.11 642.60 1502.2
990.74 638.56 1492.7
1036.39 665.39 1555.4
1084.89 693.83 1621.9
1145.72 729.90 1706.3
1119.95 710.74 1661.5
1148.94 726.34 1697.9
953.78 845.51 1988.6
938.76 823.29 1936.3
923.29 805.43 1894.3
921.62 799.71 1880.9
960.35 828.93 1949.6
999.37 858.10 2018.2
1003.70 857.32 2016.4
1004.25 853.35 2007.0
994.67 840.86 1977.6
941.10 791.49 1861.5
906.94 758.87 1784.8
918.39 764.54 1798.1
906.39 750.75 1765.7
898.12 740.16 1740.8
936.68 768.08 1806.5
951.30 776.19 1825.5
946.90 768.77 1808.1
963.34 778.26 1830.4
944.86 759.59 1786.5
892.36 713.88 1679.0
902.92 718.83 1690.6
952.06 754.29 1774.0
957.08 754.62 1774.8
905.88 710.83 1671.8
873.96 682.52 1605.2
897.96 697.94 1641.5
914.44 707.40 1663.7
835.42 643.23 1512.8
754.86 578.49 1360.6
774.54 590.81 1389.5
842.90 639.98 1505.2
863.91 652.91 1535.6
830.13 624.50 1468.8
820.15 614.18 1444.5
792.42 590.71 1389.3
740.67 549.63 1292.7
807.88 596.81 1403.6
857.69 630.76 1483.5
809.30 592.52 1393.6
732.17 533.67 1255.2
725.78 524.35 1233.2
857.75 616.98 1451.1
885.58 634.21 1491.6
830.34 592.07 1392.5
733.68 520.88 1225.1
732.72 517.96 1218.2
794.41 559.16 1315.1
807.74 566.11 1331.4
812.32 566.90 1333.3
727.12 505.29 1188.4
658.58 455.73 1071.8
666.12 459.00 1079.5
665.37 454.67 1069.3
746.21 507.79 1194.3
763.53 517.44 1217.0
795.49 536.87 1262.7
801.46 538.68 1266.9
840.24 562.45 1322.8
964.78 643.19 1512.7
972.77 645.89 1519.1
810.19 535.77 1260.1
755.40 497.53 1170.2
870.85 571.28 1343.6
930.96 608.28 1430.6
860.00 559.68 1316.3
785.50 509.18 1197.5
831.31 536.75 1262.4
990.67 637.14 1498.5
1121.20 718.27 1689.3
1107.14 706.50 1661.6
1099.26 698.75 1643.4
1138.61 720.98 1695.7
1099.62 693.61 1631.3
1087.34 683.23 1606.9
1140.95 706.10 1660.7
1141.34 703.69 1655.0
960.87 842.05 1992.6
956.20 833.48 1972.3
936.30 811.79 1921.0
933.03 804.68 1904.1
927.21 795.45 1882.3
928.35 792.25 1874.7
970.29 823.74 1949.2
1000.42 844.91 1999.3
992.07 833.55 1972.5
938.02 784.09 1855.4
894.91 744.24 1761.1
895.67 741.09 1753.7
921.62 758.71 1795.4
952.03 779.80 1845.3
959.81 782.24 1851.1
943.37 765.02 1810.3
946.31 763.61 1807.0
969.73 778.65 1842.6
969.22 774.42 1832.6
928.64 738.38 1747.3
892.12 705.90 1670.4
893.83 703.84 1665.5
907.53 711.19 1682.9
871.72 679.86 1608.8
844.57 655.55 1551.3
871.63 673.35 1593.4
938.16 721.32 1706.9
909.49 695.99 1647.0
814.12 620.10 1467.4
825.81 626.08 1481.5
853.60 644.15 1524.3
823.13 618.30 1463.1
781.79 584.55 1383.2
761.90 567.07 1341.9
795.32 589.26 1394.4
807.95 595.91 1410.1
875.92 643.13 1521.9
902.96 660.01 1561.8
775.46 564.28 1335.3
634.25 459.48 1087.3
767.77 551.30 1304.6
843.54 603.06 1427.0
793.13 564.54 1335.9
716.84 508.02 1202.2
644.36 454.68 1075.9
659.58 463.41 1096.6
722.05 505.12 1195.3
723.43 503.93 1192.5
722.85 501.38 1186.4
808.65 558.52 1321.6
900.40 619.26 1465.4
862.76 590.88 1398.2
772.30 526.72 1246.4
727.49 494.09 1169.2
717.30 485.15 1148.0
738.05 497.11 1176.3
787.51 528.25 1250.0
836.75 558.98 1322.7
899.40 598.38 1416.0
975.58 646.42 1529.7
940.42 620.60 1468.6
880.05 578.42 1368.7
902.61 590.86 1398.2
896.57 584.56 1383.3
842.65 547.22 1294.9
869.35 562.32 1330.6
884.81 570.06 1349.0
899.82 577.44 1366.4
1030.35 658.62 1558.5
1138.29 719.15 1701.8
1088.36 684.95 1620.8
1099.83 689.51 1631.6
1144.14 714.54 1690.8
964.86 840.36 2000.9
998.98 865.42 2060.5
1012.44 872.42 2077.2
962.98 825.41 1965.3
920.89 785.18 1869.5
924.08 783.77 1866.1
963.95 813.33 1936.5
971.02 815.05 1940.6
946.13 790.07 1881.1
935.36 777.07 1850.2
928.26 767.24 1826.8
881.87 725.19 1726.6
862.43 705.62 1680.1
908.08 739.24 1760.1
932.06 754.97 1797.6
924.59 745.19 1774.3
934.41 749.38 1784.2
933.36 744.85 1773.4
910.77 723.26 1722.1
900.30 711.45 1693.9
890.58 700.36 1667.5
874.10 684.08 1628.8
867.24 675.45 1608.2
871.92 675.85 1609.2
883.78 681.77 1623.3
875.43 672.13 1600.3
897.27 685.65 1632.5
947.82 720.87 1716.4
931.76 705.35 1679.4
847.45 638.54 1520.3
778.99 584.24 1391.1
783.68 585.05 1393.0
780.51 580.01 1381.0
747.15 552.68 1315.9
761.92 561.05 1335.8
782.85 573.85 1366.3
862.02 629.04 1497.7
887.62 644.82 1535.3
761.38 550.64 1311.1
685.87 493.82 1175.8
743.36 532.85 1268.7
756.87 540.15 1286.1
666.13 473.30 1126.9
681.82 482.34 1148.4
703.86 495.76 1180.4
644.82 452.21 1076.7
642.11 448.37 1067.5
722.07 502.04 1195.3
743.47 514.71 1225.5
807.60 556.73 1325.5
808.47 550.31 1310.3
778.79 527.88 1256.9
794.18 536.07 1276.4
787.19 529.15 1259.9
815.17 545.69 1299.3
771.98 514.66 1225.4
727.50 483.01 1150.0
817.15 540.32 1286.5
901.74 593.83 1413.9
949.71 622.89 1483.1
978.05 638.89 1521.2
924.71 601.62 1432.4
819.72 531.18 1264.7
772.75 498.74 1187.5
810.61 521.11 1240.7
865.23 554.02 1319.1
918.07 585.54 1394.1
974.32 618.98 1473.8
1052.78 666.21 1586.2
1129.09 706.23 1681.5
1089.48 678.83 1616.3
1050.16 651.82 1552.0
1000.53 870.73 2086.0
951.78 823.85 1973.7
995.66 857.23 2053.7
1015.27 869.46 2083.0
974.85 830.42 1989.5
958.43 812.14 1945.7
980.06 826.13 1979.2
971.78 814.88 1952.2
938.64 783.01 1875.9
884.12 733.73 1757.8
846.01 698.50 1673.4
844.05 693.33 1661.0
889.85 719.93 1724.8
912.05 734.20 1758.9
903.18 723.45 1733.2
899.43 716.87 1717.4
889.49 705.46 1690.1
873.73 689.56 1652.0
865.74 679.92 1628.9
884.17 691.02 1655.5
897.38 697.96 1672.1
884.82 684.88 1640.8
882.86 680.09 1629.3
871.86 668.43 1601.4
841.82 642.34 1538.9
820.57 623.17 1493.0
814.11 615.36 1474.2
853.60 642.19 1538.5
836.63 626.50 1500.9
792.41 590.64 1415.0
828.02 614.34 1471.8
822.24 607.25 1454.8
788.07 579.36 1388.0
808.12 591.40 1416.8
836.23 609.20 1459.5
845.75 613.36 1469.5
806.83 582.51 1395.5
754.37 542.20 1299.0
732.81 524.37 1256.2
696.80 496.40 1189.2
693.84 487.81 1168.7
757.39 530.17 1270.2
744.92 519.19 1243.8
704.68 489.02 1171.6
725.50 501.31 1201.0
754.74 519.29 1244.1
840.51 575.84 1379.6
900.75 614.49 1472.2
775.39 526.74 1261.9
697.70 471.98 1130.7
740.12 498.57 1194.5
738.96 495.72 1187.6
714.80 477.52 1144.0
768.13 511.03 1224.3
760.96 504.17 1207.9
778.42 513.63 1230.5
920.87 605.14 1449.8
895.26 585.92 1403.7
832.33 542.53 1299.8
951.17 617.49 1479.4
1025.65 663.17 1588.8
869.05 559.67 1340.8
760.40 487.75 1168.5
865.89 553.21 1325.3
981.81 624.79 1496.8
940.50 596.15 1428.2
917.68 579.40 1388.1
973.58 612.29 1466.9
1140.91 709.21 1699.1
1151.47 707.58 1695.2
1090.21 662.35 1586.8
977.40 845.32 2037.8
980.99 843.87 2034.3
983.35 841.37 2028.3
963.91 820.35 1977.6
963.63 815.77 1966.6
979.87 825.15 1989.2
1001.19 838.69 2021.8
988.39 823.66 1985.6
916.28 759.61 1831.2
867.21 707.92 1706.6
840.53 682.67 1645.7
863.30 697.61 1681.7
903.42 726.37 1751.1
891.56 713.25 1719.4
878.70 699.47 1686.2
872.67 691.22 1666.3
866.54 682.99 1646.5
852.00 668.23 1610.9
864.62 674.82 1626.8
905.17 703.05 1694.8
904.26 698.95 1685.0
876.11 673.93 1624.6
863.36 660.95 1593.4
842.40 641.83 1547.3
827.56 627.53 1512.8
818.46 617.70 1489.1
828.79 622.57 1500.8
887.06 663.22 1598.8
897.66 668.03 1610.4
881.66 653.08 1574.4
899.17 662.98 1598.3
871.89 639.92 1542.7
803.50 587.03 1415.2
794.25 577.64 1392.5
797.07 577.07 1391.1
780.17 562.29 1355.5
828.13 594.17 1432.4
863.63 616.88 1487.1
791.68 562.97 1357.2
694.44 491.64 1185.2
691.09 487.11 1174.3
750.46 526.64 1269.6
784.73 548.28 1321.7
825.47 574.24 1384.3
850.00 588.75 1419.3
844.07 582.12 1403.3
829.80 569.82 1373.7
831.04 568.23 1369.8
804.31 547.62 1320.1
755.74 512.37 1235.2
740.89 500.18 1205.8
746.22 501.66 1209.4
755.54 505.80 1219.3
724.53 483.02 1164.4
689.05 453.70 1093.7
793.08 520.05 1253.7
913.41 596.51 1438.0
868.46 564.85 1361.7
855.30 554.04 1335.6
939.49 601.28 1449.5
834.07 531.68 1281.7
954.31 605.91 1460.7
1012.85 638.02 1538.1
991.26 621.97 1499.4
1072.49 670.30 1615.9
1106.45 688.84 1660.6
1114.30 691.04 1665.9
1063.66 657.09 1584.0
1169.74 708.94 1709.0
1137.54 686.82 1655.7
1002.78 866.53 2102.1
968.82 832.66 2019.9
1018.83 857.11 2079.3
969.84 811.60 1968.8
941.17 783.49 1900.6
967.40 801.13 1943.4
928.72 765.12 1856.1
890.94 730.20 1771.4
938.75 765.44 1856.9
999.15 806.42 1956.3
960.41 771.24 1870.9
946.28 756.08 1834.1
914.71 727.19 1764.1
881.53 697.33 1691.6
903.82 711.42 1725.8
926.25 725.49 1759.9
923.79 720.01 1746.7
949.05 736.09 1785.7
963.84 743.93 1804.7
936.04 718.99 1744.2
913.34 698.18 1693.7
906.55 689.67 1673.1
929.34 703.64 1707.0
923.25 692.43 1679.8
892.60 666.31 1616.4
907.78 674.48 1636.2
868.54 642.31 1558.2
867.13 638.30 1548.4
894.74 655.60 1590.4
862.92 623.66 1512.9
790.15 568.48 1379.1
726.71 520.48 1262.6
737.74 526.01 1276.0
893.10 633.94 1537.9
829.26 583.41 1415.3
792.90 555.38 1347.3
832.03 580.23 1407.6
866.60 601.70 1459.6
861.78 595.75 1445.2
818.63 563.47 1366.9
815.02 558.57 1355.0
805.02 549.35 1332.7
865.86 588.34 1427.2
892.72 604.01 1465.3
864.58 582.49 1413.1
885.63 594.16 1441.3
827.50 552.83 1341.1
758.54 504.64 1224.2
840.21 556.64 1350.3
838.84 553.42 1342.5
706.47 464.17 1126.0
706.64 462.37 1121.6
681.04 443.79 1076.6
780.68 504.58 1224.1
962.17 616.87 1496.5
747.73 477.47 1158.3
839.38 533.85 1295.0
965.29 609.05 1477.5
916.24 575.82 1396.9
1046.29 654.96 1588.9
986.38 612.64 1486.2
773.09 478.29 1160.3
921.48 567.89 1377.6
983.66 603.87 1464.9
988.52 604.52 1466.5
1138.16 693.36 1682.0
1000.18 863.54 2108.1
1003.64 857.16 2092.5
956.47 795.38 1941.7
910.64 753.30 1839.0
911.64 750.21 1831.4
945.81 774.29 1890.2
971.36 791.11 1931.3
946.23 766.69 1871.7
942.55 759.81 1854.9
969.98 777.95 1899.2
970.57 774.49 1890.7
960.77 762.83 1862.2
934.42 738.19 1802.1
891.73 700.97 1711.2
901.87 705.42 1722.1
955.40 743.61 1815.3
972.96 746.25 1821.8
946.95 722.79 1764.5
924.72 702.43 1714.8
939.93 710.57 1734.7
920.29 685.88 1674.4
878.68 651.79 1591.2
883.32 652.17 1592.1
847.16 622.56 1519.8
841.52 615.56 1502.7
868.60 632.44 1543.9
893.99 647.94 1581.8
897.67 647.64 1581.0
788.39 566.21 1382.2
677.82 484.60 1183.0
716.69 505.52 1234.1
819.87 575.73 1405.5
777.89 543.83 1327.6
718.37 500.01 1220.6
740.48 513.14 1252.7
758.86 523.58 1278.2
718.89 493.85 1205.6
743.58 508.60 1241.6
797.59 543.19 1326.0
809.48 548.92 1340.0
884.58 597.28 1458.1
903.16 607.23 1482.4
862.72 577.58 1410.0
802.71 535.14 1306.4
676.34 449.00 1096.1
717.28 474.18 1157.6
917.13 603.78 1474.0
844.02 551.06 1345.3
780.15 507.26 1238.3
687.56 445.23 1086.9
750.71 482.16 1177.1
891.63 570.36 1392.4
773.12 492.55 1202.4
675.41 428.57 1046.2
792.11 500.61 1222.1
912.57 574.45 1402.4
891.43 558.91 1364.4
835.39 521.70 1273.6
959.56 596.89 1457.2
955.63 589.81 1439.9
776.75 477.53 1165.8
949.99 581.77 1420.2
964.78 588.55 1436.8
917.72 557.69 1361.4
1023.21 619.41 1512.1
1052.63 634.79 1549.7
1026.69 616.79 1505.7
1021.45 611.32 1492.4
1076.79 642.01 1567.3
898.75 771.06 1894.3
990.97 845.55 2077.3
1018.61 864.44 2123.7
996.69 841.29 2066.9
981.90 824.38 2025.3
977.62 816.42 2005.8
960.03 797.49 1959.3
925.64 764.87 1879.1
894.65 735.39 1806.7
900.19 736.09 1808.4
933.90 759.70 1866.4
996.58 806.51 1981.4
932.17 746.69 1834.5
891.16 710.22 1744.8
909.02 720.79 1770.8
925.70 730.32 1794.2
929.48 729.64 1792.6
914.56 714.36 1755.0
896.42 696.73 1711.7
917.98 709.96 1744.2
924.70 711.66 1748.4
904.95 693.06 1702.7
917.81 699.49 1718.5
913.81 693.09 1702.8
879.37 663.75 1630.7
879.16 660.42 1622.5
902.32 674.60 1657.3
889.47 661.84 1626.0
856.08 633.98 1557.6
862.01 635.38 1561.0
840.53 616.65 1515.0
778.49 568.48 1396.6
767.54 557.88 1370.6
782.35 566.03 1390.6
788.42 567.81 1395.0
770.78 552.57 1357.5
710.47 507.02 1245.6
630.49 447.90 1100.4
654.35 462.76 1136.9
764.75 538.41 1322.8
718.62 503.67 1237.4
654.55 456.73 1122.1
679.70 472.18 1160.0
708.34 489.91 1203.6
714.58 492.06 1208.9
729.04 499.82 1227.9
723.74 494.03 1213.7
779.51 529.80 1301.6
802.52 543.09 1334.2
791.00 532.99 1309.4
878.33 589.31 1447.8
815.48 542.50 1332.8
657.84 435.78 1070.6
706.32 463.98 1139.9
899.28 588.28 1445.3
909.60 592.56 1455.8
823.50 534.25 1312.5
775.64 501.13 1231.2
796.72 512.64 1259.4
856.44 548.82 1348.3
844.29 538.83 1323.8
799.39 508.11 1248.3
772.61 489.11 1201.6
747.19 471.12 1157.4
810.14 508.77 1249.9
878.59 549.56 1350.1
820.58 511.23 1256.0
766.88 475.89 1169.2
721.71 446.10 1096.0
724.30 445.94 1095.6
924.32 566.87 1392.7
1123.88 686.57 1686.8
1129.14 687.11 1688.1
954.32 578.49 1421.2
896.07 541.09 1329.3
985.11 592.58 1455.8
928.71 556.52 1367.2
845.81 504.91 1240.5
936.98 557.22 1369.0
1091.44 646.63 1588.6
1153.58 680.87 1672.8
960.23 818.55 2023.9
940.35 797.25 1971.2
992.56 836.97 2069.4
996.22 835.54 2065.9
985.10 821.79 2031.9
986.18 818.32 2023.3
939.66 775.59 1917.7
878.14 721.00 1782.7
897.82 733.30 1813.1
950.72 772.46 1909.9
947.64 765.97 1893.9
973.23 782.60 1935.0
929.05 735.70 1819.0
895.51 705.56 1744.5
899.20 704.90 1742.9
889.00 693.42 1714.5
912.62 708.30 1751.3
933.77 721.13 1783.0
884.44 679.67 1680.5
821.04 627.86 1552.4
834.45 634.99 1570.0
888.74 673.03 1664.1
901.11 679.10 1679.1
880.45 660.34 1632.7
836.25 624.19 1543.3
818.72 608.19 1503.8
869.31 642.71 1589.1
910.72 670.15 1657.0
780.60 571.71 1413.6
755.18 545.41 1348.5
745.45 535.90 1325.0
733.75 525.07 1298.3
756.42 538.82 1332.2
739.02 524.03 1295.7
672.22 474.50 1173.2
708.48 497.85 1230.9
838.51 586.58 1450.3
792.60 551.99 1364.8
706.38 489.76 1210.9
722.17 498.49 1232.5
769.18 528.60 1307.0
778.51 532.67 1317.0
765.22 521.29 1288.9
736.34 499.43 1234.9
745.10 503.18 1244.1
730.03 490.88 1213.7
641.54 429.53 1062.0
665.20 443.47 1096.5
873.91 580.13 1434.4
762.23 501.72 1240.5
679.90 443.79 1097.3
807.45 524.85 1297.7
821.00 531.44 1314.0
740.59 477.41 1180.4
749.43 481.12 1189.6
832.67 532.36 1316.3
798.16 508.22 1256.6
697.26 442.16 1093.3
695.27 439.12 1085.7
704.52 443.16 1095.7
705.58 442.05 1093.0
825.61 515.18 1273.8
973.18 604.85 1495.5
970.32 600.68 1485.2
802.20 494.64 1223.0
729.46 444.51 1099.1
940.15 570.68 1411.0
970.73 586.95 1451.3
949.66 572.00 1414.3
1008.47 605.08 1496.1
1079.28 645.08 1595.0
973.54 579.66 1433.2
885.36 525.16 1298.5
1009.38 596.45 1474.7
1159.83 682.77 1688.2
1172.52 685.07 1693.8
1169.67 680.85 1683.4
969.80 816.95 2033.0
985.99 826.10 2055.7
1010.85 842.38 2096.2
1017.42 843.32 2098.6
1007.11 830.33 2066.3
949.05 778.32 1936.8
904.57 737.94 1836.3
949.42 770.47 1917.3
997.55 805.31 2004.0
984.56 790.71 1967.7
964.22 770.38 1917.1
984.55 774.65 1927.7
921.11 721.07 1794.4
901.58 702.24 1747.5
871.88 675.71 1681.5
875.41 675.07 1679.9
905.16 694.55 1728.4
862.71 658.72 1639.2
830.01 630.64 1569.3
879.72 665.16 1655.2
922.69 694.26 1727.6
924.50 692.26 1722.7
874.82 651.91 1622.3
798.22 591.98 1473.1
794.95 586.75 1460.1
859.07 631.07 1570.4
916.82 670.32 1668.1
799.86 582.06 1448.4
679.70 492.31 1225.1
746.07 537.86 1338.5
805.51 578.03 1438.4
740.42 528.87 1316.1
720.34 512.17 1274.5
738.31 522.55 1300.3
744.69 524.66 1305.6
704.61 494.18 1229.8
710.39 495.99 1234.3
797.49 554.31 1379.4
847.23 586.25 1458.9
846.82 583.37 1451.7
795.28 545.43 1357.3
766.36 523.28 1302.2
773.76 526.02 1309.0
754.17 510.47 1270.3
732.49 493.63 1228.4
746.58 500.95 1246.6
797.29 532.67 1325.5
766.66 510.01 1269.2
655.36 434.10 1080.3
753.94 497.28 1237.5
827.63 541.28 1347.0
693.62 451.73 1124.1
728.21 472.27 1175.2
793.00 512.15 1274.5
771.40 496.13 1234.6
716.44 458.87 1141.9
754.98 481.57 1198.4
804.87 511.29 1272.3
745.89 471.89 1174.3
678.37 427.43 1063.6
689.60 432.75 1076.9
729.07 455.67 1133.9
791.35 492.61 1225.8
909.13 563.66 1402.7
951.78 585.42 1456.8
774.13 474.27 1180.2
732.56 447.04 1112.4
798.45 485.33 1207.7
793.38 480.37 1195.4
870.83 525.21 1307.0
904.39 543.33 1352.1
879.41 526.29 1309.7
942.31 561.76 1397.9
1003.93 596.21 1483.6
1026.95 607.55 1511.9
1055.41 622.01 1547.9
1049.70 616.30 1533.6
1061.13 620.66 1544.5
1167.16 675.04 1679.8
984.65 828.62 2075.4
941.76 788.21 1974.2
922.84 768.20 1924.1
906.97 750.93 1880.8
920.88 758.37 1899.4
928.68 760.73 1905.3
925.32 753.96 1888.4
923.55 748.56 1874.9
930.90 750.57 1879.9
944.15 757.29 1896.7
974.33 777.44 1947.2
998.36 792.51 1985.0
956.26 755.20 1891.5
921.43 723.98 1813.3
923.13 721.63 1807.4
916.62 712.93 1785.6
900.08 696.54 1744.6
875.55 674.17 1688.6
865.16 662.86 1660.2
879.14 670.23 1678.7
869.48 659.60 1652.1
865.88 653.65 1637.2
884.78 664.67 1664.7
893.58 668.02 1673.1
893.04 664.39 1664.1
844.10 624.96 1565.3
827.11 609.45 1526.5
874.48 641.29 1606.2
867.83 633.39 1586.4
844.27 613.29 1536.1
819.13 592.24 1483.3
783.24 563.64 1411.7
782.45 560.45 1403.7
753.94 537.53 1346.3
735.38 521.88 1307.1
758.96 536.14 1342.8
774.74 544.79 1364.5
778.91 545.24 1365.6
804.69 560.73 1404.4
879.17 609.88 1527.5
866.17 598.16 1498.2
822.18 565.25 1415.7
825.97 565.33 1416.0
785.79 535.45 1341.1
756.81 513.43 1286.0
768.52 519.09 1300.1
795.25 534.80 1339.5
822.13 550.47 1378.7
823.89 549.26 1375.7
860.75 571.36 1431.0
887.54 586.62 1469.3
827.12 544.34 1363.4
763.31 500.21 1252.9
763.30 498.08 1247.5
773.17 502.40 1258.3
759.72 491.58 1231.2
784.07 505.21 1265.4
844.07 541.61 1356.5
858.24 548.42 1373.6
841.27 535.35 1340.9
833.25 528.07 1322.6
827.70 522.40 1308.4
836.31 525.68 1316.6
837.31 524.17 1312.9
735.04 458.29 1147.8
785.70 485.94 1217.1
959.75 591.21 1480.8
785.68 482.05 1207.4
761.74 461.84 1156.7
851.82 514.43 1288.5
870.51 523.66 1311.6
857.18 513.64 1286.5
816.85 487.58 1221.2
833.95 495.86 1241.9
925.93 548.44 1373.6
1015.75 599.33 1501.1
1063.89 625.34 1566.2
1058.76 619.96 1552.8
1021.93 596.13 1493.1
963.37 559.84 1402.2
976.19 565.16 1415.5
1088.03 627.55 1571.8
1179.12 675.04 1690.7
1174.90 667.65 1672.2
981.35 820.48 2068.4
940.03 781.66 1970.6
925.16 765.13 1928.9
897.42 738.20 1861.0
900.20 736.53 1856.8
925.24 752.99 1898.3
935.54 757.34 1909.3
916.32 737.88 1860.2
908.17 727.49 1834.0
932.67 743.22 1873.7
971.67 770.28 1941.9
970.29 765.23 1929.2
912.72 716.14 1805.4
901.60 703.80 1774.3
921.23 715.47 1803.7
925.04 714.80 1802.0
917.16 705.15 1777.7
903.10 690.87 1741.7
905.45 689.23 1737.5
904.28 684.93 1726.7
879.77 663.08 1671.6
861.20 645.90 1628.3
865.93 646.28 1629.3
871.10 646.98 1631.0
865.56 639.76 1612.8
853.66 627.93 1583.0
880.78 644.78 1625.5
903.10 657.97 1658.8
868.45 629.73 1587.5
834.40 602.19 1518.1
798.70 573.72 1446.3
800.29 572.17 1442.5
837.75 596.16 1502.9
832.96 590.02 1487.4
839.24 591.72 1491.7
838.55 588.52 1483.7
824.29 575.87 1451.8
810.37 563.57 1420.8
819.82 567.57 1430.8
835.91 576.10 1452.4
782.98 537.20 1354.3
722.04 493.18 1243.3
694.50 472.26 1190.6
733.24 496.40 1251.4
792.37 534.06 1346.4
788.31 529.00 1333.6
796.76 532.33 1342.0
804.75 535.34 1349.6
788.94 522.55 1317.3
723.71 477.28 1203.2
645.30 423.74 1068.2
732.38 478.86 1207.2
815.08 530.67 1337.8
791.99 513.45 1294.4
784.60 506.52 1276.9
786.60 505.67 1274.8
825.52 528.47 1332.3
851.14 542.60 1367.9
829.68 526.73 1327.9
832.25 526.18 1326.5
844.42 531.67 1340.3
834.33 523.17 1318.9
841.95 525.79 1325.5
954.14 593.43 1496.0
771.07 475.70 1199.2
793.94 487.84 1229.8
908.78 556.17 1402.1
753.58 459.35 1158.0
767.97 462.60 1166.2
793.73 476.24 1200.6
840.09 502.09 1265.8
851.42 506.87 1277.8
854.86 506.95 1278.0
910.20 537.68 1355.5
969.54 570.53 1438.3
1030.78 604.25 1523.3
1051.22 613.88 1547.6
1020.36 593.59 1496.4
1072.50 621.56 1567.0
1094.77 632.07 1593.5
1070.17 615.55 1551.8
1170.96 671.00 1691.6
1191.67 675.28 1702.4
1176.44 656.92 1656.1
945.03 789.25 2002.8
966.33 802.64 2036.8
1008.47 833.09 2114.0
1011.82 831.34 2109.6
1002.46 819.22 2078.8
968.29 787.06 1997.2
959.79 776.00 1969.2
966.92 777.63 1973.3
939.07 751.25 1906.4
906.33 721.26 1830.3
911.92 721.93 1832.0
928.48 731.24 1855.6
907.00 710.64 1803.3
895.93 698.37 1772.2
924.05 716.61 1818.5
939.49 724.88 1839.5
936.48 718.91 1824.3
943.35 720.55 1828.5
945.03 718.22 1822.6
944.49 714.24 1812.5
937.34 705.33 1789.8
915.14 685.23 1738.8
897.58 668.79 1697.1
894.03 662.89 1682.1
893.96 659.62 1673.9
870.64 639.31 1622.3
846.64 618.70 1570.0
849.44 617.78 1567.7
846.35 612.60 1554.5
827.78 596.32 1513.2
813.59 583.33 1480.3
853.19 608.85 1545.0
938.46 666.57 1691.5
932.25 659.08 1672.5
880.21 619.41 1571.8
743.83 521.02 1322.1
732.85 508.64 1290.7
887.33 613.07 1555.7
826.03 568.13 1441.7
777.95 532.65 1351.7
787.30 536.64 1361.8
777.68 527.71 1339.1
752.70 508.49 1290.3
796.44 535.66 1359.3
809.72 542.19 1375.9
762.82 508.55 1290.5
717.04 475.94 1207.7
675.77 446.60 1133.3
660.98 434.93 1103.7
740.74 481.16 1221.0
836.34 540.95 1372.7
829.63 534.34 1355.9
802.00 514.36 1305.2
786.63 502.38 1274.8
800.60 509.17 1292.1
794.59 503.24 1277.0
753.84 475.45 1206.5
743.58 467.04 1185.2
789.35 493.75 1252.9
803.43 500.50 1270.1
740.24 459.25 1165.4
753.71 465.70 1181.8
925.89 569.78 1445.9
954.32 584.91 1484.3
746.92 450.52 1143.2
780.33 468.82 1189.7
845.26 505.83 1283.6
810.48 483.11 1225.9
788.62 468.24 1188.2
878.31 519.46 1318.2
947.87 558.44 1417.1
943.10 553.48 1404.5
959.53 560.95 1423.5
956.84 557.24 1414.1
917.26 532.15 1350.4
919.76 531.57 1348.9
1002.82 577.38 1465.2
1099.23 630.50 1600.0
1147.53 655.73 1664.0
1158.03 651.93 1654.3
951.36 789.31 2016.2
969.88 800.28 2044.2
1013.28 831.55 2124.1
1018.68 831.47 2123.9
991.73 805.11 2056.6
939.79 758.87 1938.4
952.22 764.82 1953.6
977.59 781.04 1995.1
976.44 776.02 1982.3
961.42 760.08 1941.5
881.46 693.23 1770.8
875.00 681.06 1739.7
941.73 729.24 1862.8
941.40 725.26 1852.6
926.85 710.43 1814.7
905.24 690.36 1763.4
895.10 679.19 1734.9
934.40 705.47 1802.1
973.54 731.37 1868.2
945.90 707.08 1806.2
902.15 671.06 1714.1
890.71 659.30 1684.1
894.22 658.67 1682.5
914.19 670.11 1711.7
914.17 666.86 1703.4
885.83 643.08 1642.7
884.73 639.20 1632.8
840.62 604.44 1544.0
785.70 562.28 1436.3
790.47 563.02 1438.2
843.27 597.81 1527.0
873.93 616.65 1575.2
815.88 573.01 1463.7
789.27 551.76 1409.4
675.66 470.16 1201.0
631.93 435.71 1113.0
804.92 552.47 1411.2
808.24 552.24 1410.6
820.53 558.11 1425.6
839.10 565.64 1444.9
763.23 512.21 1308.4
775.91 518.42 1324.2
752.60 500.63 1278.8
750.80 497.24 1270.2
751.39 495.46 1265.6
708.75 465.31 1188.6
694.06 453.69 1158.9
690.48 449.41 1148.0
746.67 483.90 1236.1
802.72 517.99 1323.2
801.37 514.92 1315.3
828.20 529.91 1353.6
834.82 531.89 1358.7
826.51 524.38 1339.5
853.10 538.99 1376.8
736.46 463.35 1183.6
658.81 411.08 1050.1
752.43 467.56 1194.3
778.07 481.51 1230.0
729.02 449.31 1147.7
690.88 424.08 1083.3
754.41 461.20 1178.1
799.81 486.98 1243.9
808.73 484.59 1237.8
865.80 516.74 1320.0
973.36 578.65 1478.1
998.68 591.38 1510.6
854.31 503.91 1287.2
837.22 491.90 1256.5
917.81 537.17 1372.1
920.37 536.59 1370.7
920.79 534.77 1366.0
908.94 525.86 1343.3
882.56 508.65 1299.3
887.64 509.63 1301.8
931.96 533.06 1361.6
978.66 557.65 1424.5
1054.76 598.76 1529.5
1107.08 623.76 1593.3
1047.35 587.92 1501.8
1031.52 576.89 1473.6
1116.87 622.31 1589.6
996.07 816.45 2099.4
1015.24 827.64 2128.2
982.29 796.45 2048.0
921.53 743.17 1911.0
907.53 727.97 1871.9
948.78 757.01 1946.6
954.20 757.30 1947.4
936.68 739.48 1901.5
950.38 746.37 1919.2
890.51 695.71 1789.0
883.69 683.27 1757.0
962.01 740.01 1902.9
969.47 741.94 1907.8
957.17 728.81 1874.1
939.12 711.45 1829.4
888.37 669.62 1721.9
880.68 660.51 1698.4
939.72 701.29 1803.3
939.55 697.69 1794.1
912.04 673.92 1732.9
920.07 676.53 1739.6
919.26 672.63 1729.6
937.11 682.36 1754.7
924.65 670.04 1723.0
878.37 633.44 1628.8
896.61 643.50 1654.7
873.78 624.13 1604.9
804.41 571.86 1470.5
794.67 562.27 1445.8
790.31 556.56 1431.1
758.33 531.54 1366.8
733.92 512.04 1316.7
736.15 511.21 1314.5
750.89 519.05 1334.7
706.53 486.15 1250.1
668.84 458.11 1178.0
701.73 478.46 1230.3
730.13 495.56 1274.3
773.82 522.85 1344.5
797.87 536.68 1380.0
706.39 473.03 1216.4
665.83 443.89 1141.4
694.48 460.93 1185.3
755.51 499.24 1283.7
831.89 547.30 1407.3
853.09 558.79 1436.9
825.33 538.26 1384.1
796.39 517.13 1329.8
785.81 508.07 1306.5
808.99 520.81 1339.2
824.91 528.79 1359.7
777.21 496.09 1275.7
