ply
format ascii 1.0
element vertex 2174
property float x
property float y
property float z
end_header
-670.79 172.15 1144.8
-702.54 181.10 1204.4
-697.70 180.66 1201.4
-647.71 168.46 1120.3
-676.68 176.79 1175.7
-670.43 175.95 1170.1
-639.15 168.50 1120.6
-693.24 183.60 1221.0
-790.84 210.41 1399.3
-791.48 211.55 1406.8
-743.63 199.68 1327.9
-749.68 202.24 1344.9
-691.21 187.34 1245.8
-612.04 166.66 1108.3
-656.62 179.64 1194.7
-769.37 211.48 1406.4
-758.96 209.62 1394.0
-693.34 192.41 1279.6
-711.46 198.39 1319.3
-725.20 203.20 1351.3
-690.24 194.34 1292.4
-658.30 186.25 1238.6
-672.47 191.19 1271.5
-742.36 212.10 1410.5
-746.83 214.44 1426.1
-733.83 211.75 1408.2
-724.56 210.12 1397.4
-686.24 200.01 1330.1
-682.59 199.95 1329.7
-705.09 207.59 1380.5
-718.40 212.59 1413.8
-707.87 210.54 1400.2
-659.98 197.31 1312.2
-634.63 190.72 1268.3
-671.29 202.79 1348.6
-693.54 210.60 1400.6
-683.60 208.68 1387.8
-679.38 208.49 1386.5
-673.86 207.89 1382.5
-676.13 209.71 1394.6
-691.70 215.69 1434.4
-697.23 218.59 1453.7
-680.50 214.51 1426.5
-671.95 212.97 1416.3
-685.42 218.43 1452.6
-683.17 218.92 1455.8
-682.57 219.94 1462.7
-686.53 222.45 1479.4
-693.32 225.91 1502.4
-705.38 231.14 1537.2
-716.47 236.11 1570.2
-745.83 247.19 1643.9
-730.46 243.49 1619.3
-703.85 235.97 1569.3
-739.18 249.26 1657.6
-771.71 261.75 1740.7
-761.13 259.68 1726.9
-785.59 269.61 1793.0
-860.39 297.04 1975.4
-808.26 282.40 1878.0
-772.96 271.71 1806.9
-823.63 291.28 1937.1
-878.40 320.42 2130.9
-861.27 316.16 2102.5
-875.25 323.34 2150.3
-829.22 308.30 2050.3
-789.18 295.31 1963.9
-812.69 306.08 2035.5
-824.18 312.44 2077.8
-818.42 312.29 2076.8
-830.35 318.94 2121.0
-817.66 316.16 2102.6
-815.40 317.41 2110.8
-864.55 338.81 2253.2
-836.78 332.42 2210.7
-779.80 325.38 2163.9
-769.08 335.39 2230.4
-991.73 209.37 1416.8
-959.15 203.24 1375.3
-952.76 202.64 1371.2
-945.82 201.92 1366.4
-916.92 196.48 1329.6
-881.96 189.70 1283.7
-842.11 181.82 1230.4
-825.94 179.01 1211.3
-847.21 184.32 1247.2
-859.44 187.69 1270.1
-843.29 184.87 1251.0
-826.10 181.81 1230.3
-832.16 183.85 1244.1
-847.52 187.97 1272.0
-853.45 190.03 1285.9
-850.57 190.13 1286.6
-839.50 188.39 1274.8
-842.07 189.72 1283.8
-847.87 191.78 1297.8
-842.79 191.39 1295.1
-843.65 192.35 1301.6
-826.72 189.25 1280.6
-806.65 185.40 1254.6
-810.75 187.10 1266.1
-796.13 184.47 1248.3
-776.78 180.72 1222.9
-776.10 181.30 1226.9
-769.05 180.39 1220.7
-752.53 177.25 1199.4
-746.07 176.46 1194.1
-781.05 185.50 1255.3
-799.59 190.70 1290.4
-772.14 184.92 1251.4
-727.70 175.02 1184.3
-703.19 169.84 1149.3
-722.17 175.16 1185.3
-751.82 183.13 1239.3
-767.40 187.73 1270.4
-781.34 191.97 1299.0
-796.17 196.46 1329.4
-758.05 187.87 1271.3
-725.72 180.64 1222.4
-707.21 176.80 1196.4
-632.44 158.81 1074.6
-616.32 155.44 1051.9
-668.25 169.29 1145.6
-714.84 181.90 1230.9
-731.30 186.92 1264.9
-738.72 189.67 1283.5
-724.37 186.83 1264.3
-674.22 174.68 1182.1
-696.38 181.25 1226.5
-764.72 199.95 1353.0
-743.08 195.19 1320.8
-720.10 190.03 1285.9
-739.76 196.12 1327.1
-750.11 199.80 1352.0
-733.51 196.29 1328.3
-671.62 180.58 1221.9
-661.08 178.59 1208.5
-736.89 200.01 1353.5
-765.82 208.86 1413.3
-727.20 199.28 1348.5
-693.53 190.97 1292.3
-658.67 182.25 1233.3
-626.85 174.30 1179.4
-643.46 179.79 1216.6
-721.33 202.54 1370.6
-730.95 206.26 1395.7
-722.60 204.92 1386.6
-738.47 210.46 1424.2
-724.17 207.43 1403.6
-699.09 201.25 1361.9
-698.99 202.25 1368.6
-724.90 210.81 1426.6
-729.10 213.12 1442.2
-716.31 210.46 1424.2
-720.00 212.64 1438.9
-726.27 215.61 1459.0
-719.27 214.65 1452.5
-720.60 216.18 1462.9
-726.26 219.03 1482.2
-703.16 213.19 1442.7
-689.31 210.11 1421.8
-692.34 212.17 1435.7
-687.16 211.72 1432.7
-692.23 214.44 1451.1
-705.30 219.68 1486.6
-709.32 222.15 1503.3
-696.43 219.32 1484.1
-680.69 215.55 1458.6
-670.89 213.64 1445.7
-673.19 215.57 1458.8
-681.22 219.38 1484.5
-694.89 225.05 1522.9
-725.18 236.20 1598.4
-741.29 242.84 1643.3
-745.84 245.74 1662.9
-776.54 257.34 1741.4
-796.86 265.62 1797.4
-782.15 262.25 1774.6
-801.74 270.41 1829.8
-850.37 288.52 1952.4
-842.16 287.44 1945.1
-829.28 284.75 1926.9
-850.37 293.77 1987.9
-846.00 294.04 1989.7
-842.76 294.71 1994.3
-871.74 306.72 2075.6
-840.51 303.22 2051.9
-825.85 299.83 2028.9
-859.95 314.21 2126.3
-873.57 323.33 2188.0
-833.59 310.55 2101.5
-827.04 310.14 2098.7
-840.37 317.23 2146.6
-839.83 319.14 2159.6
-848.16 324.46 2195.6
-823.67 317.22 2146.6
-790.57 306.55 2074.4
-819.52 319.95 2165.1
-837.60 329.26 2228.1
-838.06 331.73 2244.8
-841.54 335.44 2269.9
-788.10 316.35 2140.7
-808.11 333.78 2258.7
-772.97 323.97 2192.3
-772.81 326.30 2208.0
-769.96 327.52 2216.3
-762.28 334.23 2261.7
-970.91 201.37 1387.0
-917.35 190.97 1315.4
-897.48 187.53 1291.7
-935.89 196.29 1352.0
-948.15 199.61 1374.9
-907.48 191.77 1320.9
-864.20 183.32 1262.6
-841.82 179.25 1234.6
-856.35 183.04 1260.7
-861.88 184.93 1273.7
-838.51 180.60 1243.9
-833.51 180.22 1241.3
-849.49 184.38 1270.0
-852.15 185.68 1278.9
-845.99 185.06 1274.7
-851.89 187.08 1288.6
-850.64 187.54 1291.7
-841.21 186.20 1282.5
-835.06 185.57 1278.2
-801.86 178.90 1232.2
-774.76 173.55 1195.3
-793.02 178.35 1228.4
-808.47 182.56 1257.4
-819.53 185.80 1279.8
-812.35 184.93 1273.7
-791.36 180.88 1245.9
-787.45 180.73 1244.8
-772.43 178.01 1226.1
-747.98 173.09 1192.2
-741.54 172.31 1186.8
-769.20 179.48 1236.2
-785.69 184.09 1268.0
-759.32 178.66 1230.6
-753.36 178.01 1226.1
-769.16 182.51 1257.1
-774.00 184.44 1270.4
-787.02 188.35 1297.3
-792.76 190.53 1312.3
-795.36 191.98 1322.3
-789.26 191.33 1317.9
-738.95 179.92 1239.2
-710.22 173.68 1196.3
-694.78 170.65 1175.4
-683.95 168.73 1162.2
-718.82 178.11 1226.8
-696.44 173.34 1193.9
-661.72 165.43 1139.4
-694.76 174.47 1201.7
-727.05 183.40 1263.2
-741.35 187.85 1293.9
-726.51 184.93 1273.8
-727.92 186.14 1282.1
-768.35 197.37 1359.5
-786.09 202.86 1397.3
-802.71 208.11 1433.4
-796.97 207.58 1429.8
-784.49 205.29 1414.0
-769.20 202.23 1392.9
-714.34 188.69 1299.7
-618.42 164.13 1130.5
-589.59 157.22 1082.9
-692.79 185.63 1278.6
-757.54 203.95 1404.8
-734.06 198.59 1367.8
-714.47 194.23 1337.8
-695.93 190.11 1309.4
-728.05 199.86 1376.6
-791.30 218.29 1503.5
-797.43 221.07 1522.7
-754.44 210.19 1447.7
-735.03 205.81 1417.6
-731.21 205.77 1417.3
-717.87 203.03 1398.5
-684.31 194.52 1339.8
-676.15 193.19 1330.6
-682.79 196.08 1350.6
-672.85 194.23 1337.8
-692.26 200.86 1383.5
-709.70 207.00 1425.7
-724.32 212.37 1462.7
-743.61 219.17 1509.6
-739.13 219.00 1508.4
-708.15 210.94 1452.9
-695.58 208.30 1434.7
-701.59 211.23 1454.9
-701.95 212.48 1463.5
-710.80 216.33 1490.0
-708.06 216.67 1492.4
-696.42 214.28 1475.9
-680.64 210.59 1450.5
-662.45 206.10 1419.5
-656.91 205.51 1415.5
-663.01 208.59 1436.7
-680.60 215.33 1483.1
-705.81 224.57 1546.8
-737.70 236.06 1625.9
-752.93 242.32 1669.1
-768.39 248.73 1713.2
-807.47 262.90 1810.8
-822.01 269.20 1854.2
-804.78 265.11 1826.0
-792.45 262.59 1808.6
-803.14 267.71 1843.9
-834.55 279.85 1927.5
-866.76 292.40 2014.0
-839.73 285.00 1963.0
-784.99 268.04 1846.2
-767.62 265.35 1827.7
-812.98 288.15 1984.7
-840.32 299.73 2064.5
-873.51 326.11 2246.2
-852.52 329.25 2267.8
-815.09 323.72 2229.7
-816.38 331.29 2281.8
-814.08 335.21 2308.8
-760.16 324.95 2238.2
-1102.18 221.24 1551.6
-1097.19 221.04 1550.2
-1113.37 225.13 1578.8
-994.50 202.58 1420.7
-967.58 197.83 1387.4
-926.03 190.04 1332.8
-948.56 195.40 1370.3
-976.02 201.81 1415.3
-948.20 196.80 1380.1
-902.00 187.92 1317.9
-876.16 183.23 1285.0
-871.07 182.86 1282.4
-858.20 180.85 1268.3
-837.06 177.07 1241.8
-832.61 176.81 1240.0
-845.29 180.20 1263.7
-843.00 180.41 1265.2
-826.44 177.55 1245.2
-820.89 177.06 1241.7
-836.66 181.17 1270.5
-843.60 183.39 1286.1
-839.08 183.13 1284.3
-810.19 177.53 1245.0
-767.40 168.83 1184.0
-767.92 169.62 1189.5
-777.54 172.44 1209.3
-779.58 173.59 1217.4
-783.20 175.11 1228.0
-775.60 174.11 1221.1
-772.26 174.08 1220.8
-758.34 171.64 1203.7
-753.98 171.36 1201.7
-767.51 175.16 1228.4
-770.97 176.68 1239.1
-763.41 175.68 1232.0
-744.41 172.03 1206.4
-745.76 173.07 1213.7
-750.71 174.95 1227.0
-746.32 174.67 1225.0
-729.05 171.36 1201.7
-702.64 165.86 1163.2
-715.25 169.56 1189.1
-724.70 172.55 1210.1
-718.31 171.77 1204.6
-734.23 176.34 1236.7
-761.64 183.73 1288.5
-795.90 192.84 1352.4
-809.33 196.96 1381.3
-771.14 188.50 1322.0
-696.79 171.09 1199.8
-680.54 167.85 1177.1
-720.82 178.58 1252.4
-753.89 187.62 1315.8
-747.37 186.84 1310.3
-758.02 190.37 1335.1
-774.42 195.38 1370.2
-774.15 196.21 1376.0
-805.36 205.07 1438.1
-817.97 209.25 1467.4
-767.38 197.22 1383.1
-713.30 184.18 1291.7
-733.66 190.34 1334.8
-700.98 182.72 1281.4
-643.85 168.63 1182.6
-703.86 185.23 1299.0
-746.93 197.50 1385.1
-712.22 189.24 1327.1
-752.07 200.80 1408.2
-789.26 211.75 1485.0
-772.32 208.22 1460.3
-784.59 212.57 1490.8
-775.56 211.17 1480.9
-721.64 197.46 1384.8
-741.18 203.82 1429.4
-777.36 214.85 1506.7
-743.90 206.64 1449.2
-692.18 193.25 1355.2
-692.07 194.20 1362.0
-704.47 198.70 1393.5
-672.16 190.56 1336.4
-666.71 190.00 1332.4
-684.71 196.14 1375.5
-697.24 200.78 1408.0
-710.51 205.68 1442.4
-703.12 204.61 1434.9
-666.65 195.03 1367.7
-648.19 190.64 1337.0
-702.66 207.78 1457.1
-751.05 223.29 1565.9
-724.25 216.49 1518.2
-689.57 207.25 1453.4
-672.93 203.36 1426.2
-654.73 198.95 1395.2
-676.91 206.83 1450.5
-711.80 218.71 1533.8
-692.72 214.04 1501.1
-684.12 212.58 1490.8
-702.73 219.60 1540.1
-723.99 227.54 1595.7
-737.67 233.17 1635.2
-752.80 239.33 1678.4
-786.71 251.57 1764.2
-796.14 256.07 1795.8
-805.03 260.45 1826.5
-820.55 267.04 1872.8
-797.05 260.94 1830.0
-792.65 261.05 1830.8
-832.15 275.71 1933.6
-813.08 271.03 1900.7
-784.84 263.21 1845.9
-785.02 264.88 1857.6
-784.75 266.43 1868.5
-817.37 284.53 1995.4
-846.93 296.70 2080.7
-863.31 314.45 2205.3
-846.84 310.51 2177.6
-784.96 295.71 2073.8
-821.40 311.57 2185.0
-852.13 325.46 2282.5
-792.47 304.80 2137.5
-795.80 308.23 2161.6
-841.55 328.27 2302.1
-799.39 316.30 2218.2
-785.60 313.10 2195.8
-959.05 190.40 1360.0
-978.38 194.95 1392.5
-1005.57 201.11 1436.5
-988.84 198.50 1417.9
-953.47 192.12 1372.3
-945.96 191.32 1366.6
-945.80 192.01 1371.5
-950.69 193.72 1383.8
-931.40 190.51 1360.8
-876.37 179.94 1285.3
-845.05 174.17 1244.1
-860.64 178.06 1271.9
-868.91 180.47 1289.0
-850.54 177.33 1266.7
-849.36 177.77 1269.8
-838.81 176.25 1258.9
-814.01 171.71 1226.5
-808.50 171.21 1222.9
-822.12 174.78 1248.4
-826.93 176.50 1260.7
-821.91 176.12 1258.0
-827.19 177.96 1271.1
-821.07 177.35 1266.8
-817.13 177.21 1265.8
-820.70 178.70 1276.4
-799.06 174.69 1247.8
-776.46 170.44 1217.4
-769.41 169.58 1211.3
-763.97 169.07 1207.7
-768.07 170.68 1219.2
-782.68 174.65 1247.5
-781.92 175.20 1251.4
-771.70 173.63 1240.2
-785.06 177.38 1267.0
-792.57 179.83 1284.5
-785.98 179.09 1279.2
-783.04 179.17 1279.8
-757.88 174.15 1243.9
-719.98 166.15 1186.8
-693.07 160.63 1147.3
-697.53 162.36 1159.7
-737.65 172.44 1231.7
-765.28 179.67 1283.4
-748.11 176.41 1260.1
-738.10 174.81 1248.7
-783.02 186.27 1330.5
-810.55 193.67 1383.4
-776.85 186.44 1331.7
-706.95 170.43 1217.3
-688.68 166.77 1191.2
-725.96 176.59 1261.3
-757.54 185.10 1322.2
-752.98 184.82 1320.2
-781.26 192.64 1376.0
-807.85 200.11 1429.4
-763.65 190.03 1357.4
-751.26 187.82 1341.5
-737.97 185.35 1323.9
-666.47 168.17 1201.2
-654.96 166.05 1186.0
-712.82 181.57 1296.9
-771.20 197.37 1409.8
-800.17 205.76 1469.7
-764.11 197.43 1410.2
-708.51 183.94 1313.9
-703.04 183.40 1310.0
-758.36 198.79 1420.0
-784.35 206.61 1475.8
-765.11 202.53 1446.6
-776.96 206.68 1476.3
-769.80 205.79 1469.9
-707.17 189.99 1357.0
-702.56 189.69 1354.9
-747.10 202.73 1448.1
-736.41 200.84 1434.6
-718.56 196.96 1406.9
-746.67 205.71 1469.4
-745.86 206.55 1475.3
-706.68 196.71 1405.0
-701.98 196.41 1402.9
-717.63 201.83 1441.7
-720.34 203.66 1454.7
-723.44 205.61 1468.6
-712.06 203.45 1453.2
-672.49 193.16 1379.7
-629.76 181.86 1299.0
-655.47 190.30 1359.3
-723.82 211.28 1509.1
-724.04 212.49 1517.8
-696.15 205.42 1467.3
-686.68 203.74 1455.3
-673.88 201.05 1436.1
-703.54 211.06 1507.6
-751.26 226.64 1618.8
-744.05 225.72 1612.3
-725.28 221.27 1580.5
-731.76 224.52 1603.7
-740.60 228.53 1632.3
-740.74 229.89 1642.0
-740.44 231.12 1650.9
-760.29 238.70 1705.0
-792.36 250.22 1787.3
-823.28 261.51 1867.9
-851.45 272.06 1943.3
-841.65 270.53 1932.4
-807.47 261.10 1865.0
-815.93 265.42 1895.9
-850.38 278.31 1987.9
-877.44 288.91 2063.7
-890.27 294.93 2106.7
-870.94 293.94 2099.6
-873.46 296.65 2118.9
-868.75 296.91 2120.8
-842.33 289.72 2069.4
-846.64 293.07 2093.3
-860.44 299.77 2141.2
-858.59 301.06 2150.4
-874.23 308.55 2203.9
-879.46 312.44 2231.7
-820.93 293.58 2097.0
-817.53 296.28 2116.3
-868.86 317.02 2264.4
-838.92 310.28 2216.3
-828.29 308.47 2203.3
-813.21 304.95 2178.2
-786.87 297.14 2122.4
-823.46 313.15 2236.8
-827.86 317.05 2264.7
-787.15 303.61 2168.7
-782.50 303.99 2171.4
-807.56 316.00 2257.1
-1092.54 212.11 1543.6
-966.15 188.26 1370.1
-952.90 186.36 1356.3
-978.46 192.07 1397.8
-962.93 189.72 1380.7
-929.32 183.78 1337.5
-921.30 182.88 1330.9
-909.93 181.30 1319.4
-905.34 181.07 1317.7
-916.47 183.99 1339.0
-888.90 179.13 1303.7
-835.77 169.07 1230.4
-830.23 168.59 1226.9
-881.34 179.66 1307.5
-904.47 185.09 1347.0
-877.19 180.20 1311.4
-841.77 173.59 1263.4
-820.81 169.93 1236.7
-818.56 170.13 1238.2
-839.81 175.24 1275.3
-852.20 178.52 1299.2
-832.98 175.19 1275.0
-823.60 173.91 1265.6
-814.26 172.62 1256.3
-807.10 171.79 1250.2
-817.15 174.63 1270.9
-802.48 172.19 1253.1
-790.54 170.32 1239.5
-792.50 171.44 1247.7
-772.13 167.72 1220.6
-758.73 165.48 1204.3
-770.73 168.80 1228.4
-768.96 169.11 1230.7
-776.62 171.50 1248.1
-808.28 179.24 1304.4
-793.82 176.77 1286.5
-763.83 170.81 1243.1
-803.98 180.55 1314.0
-826.29 186.35 1356.2
-783.01 177.35 1290.7
-751.79 171.01 1244.5
-743.78 169.92 1236.6
-763.35 175.14 1274.6
-787.86 181.55 1321.3
-772.13 178.70 1300.5
-749.41 174.21 1267.8
-771.64 180.16 1311.2
-774.62 181.66 1322.0
-722.02 170.08 1237.7
-668.24 158.11 1150.7
-657.05 156.16 1136.5
-692.97 165.44 1204.0
-724.18 173.67 1263.9
-728.58 175.52 1277.4
-755.48 182.83 1330.6
-796.83 193.72 1409.9
-780.90 190.73 1388.0
-730.60 179.27 1304.7
-675.32 166.47 1211.5
-679.66 168.33 1225.0
-735.29 182.96 1331.5
-739.32 184.83 1345.1
-749.01 188.14 1369.2
-779.97 196.85 1432.6
-749.18 189.98 1382.6
-721.89 183.94 1338.7
-739.38 189.31 1377.7
-723.49 186.14 1354.7
-684.87 177.06 1288.6
-709.17 184.24 1340.9
-761.92 198.92 1447.7
-777.38 203.97 1484.4
-743.15 195.96 1426.1
-718.29 190.35 1385.3
-735.47 195.88 1425.5
-741.60 198.51 1444.7
-742.24 199.69 1453.3
-755.42 204.27 1486.6
-742.94 201.93 1469.5
-712.68 194.70 1417.0
-714.17 196.12 1427.3
-731.54 201.94 1469.6
-735.52 204.10 1485.3
-732.41 204.30 1486.9
-714.88 200.47 1458.9
-705.30 198.83 1447.0
-689.26 195.35 1421.7
-683.24 194.69 1416.9
-721.02 206.56 1503.3
-734.50 211.57 1539.7
-719.75 208.45 1517.0
-716.52 208.66 1518.5
-709.07 207.63 1511.0
-704.58 207.46 1509.8
-718.48 212.73 1548.2
-764.23 227.55 1656.0
-804.95 241.03 1754.1
-785.52 236.55 1721.5
-769.51 233.05 1696.1
-759.73 231.41 1684.1
-748.78 229.39 1669.4
-764.55 235.59 1714.5
-791.39 245.29 1785.1
-837.53 261.11 1900.3
-862.11 273.61 1991.2
-865.59 276.36 2011.3
-863.23 285.94 2081.0
-835.92 278.64 2027.8
-864.12 289.86 2109.5
-870.27 293.78 2138.1
-846.15 287.47 2092.1
-831.48 284.31 2069.1
-872.09 300.13 2184.3
-819.01 287.47 2092.1
-822.56 290.64 2115.2
-839.62 302.72 2203.1
-841.28 305.40 2222.6
-842.96 312.43 2273.7
-834.77 316.02 2299.9
-813.34 310.12 2257.0
-1125.84 212.89 1579.1
-1097.20 208.23 1544.5
-1088.96 208.18 1544.2
-1007.41 193.30 1433.8
-983.81 189.48 1405.4
-982.49 189.92 1408.8
-961.30 186.52 1383.5
-943.58 183.77 1363.1
-924.25 180.68 1340.2
-889.80 174.60 1295.1
-875.71 172.49 1279.4
-891.91 176.35 1308.1
-877.29 174.12 1291.5
-831.54 165.67 1228.9
-842.67 168.53 1250.1
-876.99 176.08 1306.1
-861.38 173.61 1287.8
-838.12 169.58 1257.9
-828.15 168.22 1247.8
-817.67 166.74 1236.8
-828.53 169.62 1258.2
-839.87 172.62 1280.4
-821.77 169.57 1257.8
-816.22 169.10 1254.3
-811.21 168.73 1251.6
-782.50 163.41 1212.1
-767.91 161.01 1194.3
-777.49 163.68 1214.1
-790.21 167.04 1239.0
-797.50 169.26 1255.5
-784.01 167.08 1239.4
-754.68 161.50 1197.9
-748.75 160.89 1193.4
-751.25 162.10 1202.4
-763.69 165.47 1227.4
-783.36 170.44 1264.2
-759.07 165.85 1230.2
-734.90 161.24 1196.0
-773.59 170.45 1264.3
-815.13 180.37 1337.9
-798.15 177.37 1315.6
-774.58 172.87 1282.3
-774.18 173.52 1287.1
-767.12 172.68 1280.9
-763.13 172.53 1279.8
-767.26 174.23 1292.3
-768.81 175.34 1300.6
-777.89 178.19 1321.8
-768.80 176.89 1312.1
-754.24 174.31 1293.0
-739.75 171.73 1273.8
-702.46 163.80 1215.0
-707.02 165.61 1228.4
-743.63 174.97 1297.9
-754.36 178.30 1322.6
-741.95 176.17 1306.8
-741.33 176.83 1311.7
-731.43 175.27 1300.1
-692.95 166.82 1237.4
-679.85 164.43 1219.7
-715.49 173.86 1289.6
-744.60 181.78 1348.4
-729.95 179.04 1328.1
-736.35 181.47 1346.1
-761.19 188.48 1398.1
-756.48 188.22 1396.1
-752.73 188.18 1395.9
-735.35 184.73 1370.2
-688.60 173.82 1289.3
-681.33 172.82 1281.9
-730.72 186.26 1381.6
-750.56 192.26 1426.1
-736.13 189.50 1405.6
-746.11 193.02 1431.8
-766.48 199.29 1478.2
-772.09 201.75 1496.5
-764.93 200.89 1490.1
-727.54 192.04 1424.5
-701.65 186.15 1380.8
-740.01 197.33 1463.7
-759.72 203.64 1510.5
-734.36 197.86 1467.6
-727.77 197.10 1462.0
-723.83 197.06 1461.7
-713.32 195.22 1448.1
-715.52 196.86 1460.2
-725.07 200.55 1487.6
-693.78 192.92 1431.0
-671.79 187.81 1393.1
-711.35 199.95 1483.1
-727.01 205.46 1524.0
-721.65 205.06 1521.0
-726.89 207.68 1540.5
-720.66 207.04 1535.7
-719.48 207.85 1541.7
-734.15 213.27 1582.0
-783.99 229.03 1698.9
-813.46 238.98 1772.7
-781.63 230.94 1713.0
-736.52 218.85 1623.3
-693.42 207.23 1537.1
-734.37 220.74 1637.3
-808.03 244.29 1812.0
-808.11 245.74 1822.8
-828.56 253.44 1879.9
-826.46 254.29 1886.2
-771.61 238.83 1771.6
-804.80 250.60 1858.8
-869.38 272.34 2020.1
-868.45 273.69 2030.1
-855.44 271.24 2011.9
-847.92 270.50 2006.5
-844.25 270.99 2010.1
-872.30 281.74 2089.8
-853.22 277.29 2056.9
-835.79 273.34 2027.5
-876.79 288.56 2140.5
-849.95 281.51 2088.1
-824.33 276.55 2051.3
-888.72 304.04 2255.2
-856.51 294.96 2187.9
-828.39 301.23 2234.4
-836.65 306.38 2272.6
-818.30 306.13 2270.7
-781.58 301.05 2233.1
-1108.97 206.41 1561.1
-1085.00 202.69 1533.0
-1109.27 207.99 1573.0
-1073.37 202.00 1527.7
-990.31 187.06 1414.7
-944.04 178.98 1353.6
-939.39 178.77 1352.0
-935.88 178.76 1352.0
-913.18 175.08 1324.2
-874.80 168.36 1273.3
-864.68 167.04 1263.3
-884.84 171.58 1297.7
-901.52 175.49 1327.2
-882.43 172.43 1304.1
-867.87 170.24 1287.5
-877.75 172.84 1307.2
-879.27 173.81 1314.5
-873.59 173.36 1311.1
-842.09 167.76 1268.8
-809.09 161.82 1223.8
-818.89 164.42 1243.5
-828.08 166.92 1262.5
-812.72 164.48 1244.0
-809.91 164.56 1244.6
-813.03 165.86 1254.4
-792.40 162.30 1227.5
-777.23 159.83 1208.8
-785.72 162.23 1227.0
-792.53 164.31 1242.7
-794.49 165.38 1250.8
-785.26 164.13 1241.3
-763.35 160.21 1211.7
-754.22 158.95 1202.1
-751.44 159.02 1202.7
-764.41 162.44 1228.5
-781.98 166.87 1262.0
-778.04 166.72 1260.9
-775.14 166.80 1261.5
-788.31 170.35 1288.4
-800.34 173.69 1313.6
-799.38 174.22 1317.7
-792.25 173.41 1311.5
-792.81 174.28 1318.1
-787.73 173.92 1315.3
-741.95 164.52 1244.3
-702.53 156.46 1183.3
-723.00 161.72 1223.1
-752.89 169.15 1279.3
-763.47 172.29 1303.0
-771.95 174.98 1323.3
-787.84 179.37 1356.6
-786.68 179.91 1360.7
-759.74 174.53 1320.0
-755.67 174.39 1318.9
-805.26 186.67 1411.8
-799.69 187.08 1414.9
-756.46 177.79 1344.6
-689.73 162.85 1231.7
-650.04 154.20 1166.2
-679.05 161.83 1223.9
-707.82 169.48 1281.8
-705.74 169.78 1284.0
-723.19 174.80 1322.0
-769.46 186.87 1413.3
-790.28 192.84 1458.5
-777.91 190.74 1442.6
-750.57 184.92 1398.6
-718.27 177.82 1344.9
-722.53 179.75 1359.5
-753.20 188.30 1424.1
-757.24 190.24 1438.8
-722.97 182.53 1380.5
-713.72 181.09 1369.6
-741.09 188.98 1429.2
-753.63 193.14 1460.7
-748.36 192.76 1457.8
-714.18 184.89 1398.3
-702.29 182.74 1382.1
-746.93 195.35 1477.4
-808.12 212.44 1606.7
-826.55 218.42 1651.9
-787.26 209.12 1581.6
-753.11 201.09 1520.9
-747.74 200.71 1518.0
-754.61 203.62 1540.0
-749.20 203.24 1537.1
-706.11 192.57 1456.4
-643.94 176.57 1335.4
-641.12 176.74 1336.7
-694.72 192.56 1456.3
-731.22 203.78 1541.2
-744.04 208.50 1576.9
-744.48 209.77 1586.5
-748.23 212.00 1603.4
-770.71 219.59 1660.8
-767.99 220.04 1664.2
-743.30 214.17 1619.8
-747.64 216.65 1638.5
-733.04 213.63 1615.7
-703.01 206.05 1558.4
-764.65 225.42 1704.8
-833.73 247.21 1869.7
-822.83 245.41 1856.0
-815.19 244.56 1849.6
-783.27 236.37 1787.7
-740.12 224.68 1699.2
-781.76 238.74 1805.6
-850.40 261.27 1976.0
-855.43 264.41 1999.7
-830.83 258.37 1954.0
-813.39 254.49 1924.8
-810.29 255.09 1929.3
-833.93 264.16 1997.9
-889.60 283.56 2144.6
-838.60 272.41 2060.2
-872.32 287.02 2170.7
-859.02 292.07 2208.9
-845.83 291.47 2204.4
-810.84 291.22 2202.5
-812.73 302.55 2288.2
-1112.25 203.71 1571.5
-1106.08 203.32 1568.5
-1073.61 198.08 1528.1
-993.96 184.07 1419.9
-955.63 177.63 1370.3
-956.06 178.37 1376.0
-921.38 172.54 1331.0
-875.00 164.47 1268.8
-863.74 162.97 1257.2
-877.24 166.14 1281.7
-882.24 167.73 1293.9
-885.52 168.99 1303.7
-884.31 169.41 1306.9
-884.74 170.14 1312.5
-879.62 169.81 1310.0
-867.86 168.19 1297.5
-877.65 170.75 1317.2
-862.07 168.37 1298.9
-836.14 163.95 1264.8
-851.89 167.70 1293.6
-852.26 168.43 1299.3
-828.68 164.42 1268.4
-817.69 162.89 1256.6
-812.68 162.54 1253.9
-802.83 161.21 1243.6
-798.92 161.07 1242.6
-806.28 163.21 1259.1
-811.97 165.03 1273.1
-809.07 165.12 1273.8
-797.14 163.35 1260.1
-772.01 158.85 1225.4
-758.09 156.63 1208.3
-770.05 159.76 1232.5
-795.05 165.63 1277.8
-813.59 170.21 1313.0
-812.68 170.73 1317.1
-796.14 167.96 1295.7
-791.61 167.71 1293.8
-787.09 167.47 1291.9
-769.16 164.35 1267.8
-764.17 163.99 1265.0
-768.42 165.61 1277.5
-792.01 171.43 1322.5
-779.29 169.41 1306.9
-727.06 158.75 1224.6
-729.25 159.92 1233.7
-751.56 165.54 1277.0
-756.62 167.39 1291.3
-754.12 167.58 1292.8
-756.59 168.88 1302.8
-775.94 173.98 1342.1
-773.31 174.17 1343.6
-758.33 171.57 1323.5
-789.70 179.48 1384.5
-809.55 184.83 1425.8
-772.02 177.07 1366.0
-775.17 178.61 1377.9
-754.96 174.76 1348.2
-714.55 166.18 1281.9
-744.30 173.90 1341.5
-762.28 178.94 1380.4
-750.43 176.99 1365.3
-736.25 174.47 1345.9
-750.66 178.73 1378.8
-761.61 182.20 1405.6
-741.33 178.20 1374.7
-783.66 189.29 1460.2
-769.81 187.76 1448.4
-748.29 183.40 1414.8
-770.86 189.87 1464.7
-758.65 187.78 1448.6
-738.24 183.64 1416.7
-751.80 187.95 1449.9
-764.31 192.04 1481.4
-761.26 192.24 1483.0
-787.57 199.89 1542.0
-833.89 212.73 1641.0
-789.26 202.37 1561.2
-761.91 196.37 1514.9
-791.21 204.98 1581.3
-770.65 200.69 1548.2
-760.81 199.17 1536.4
-776.91 204.45 1577.2
-760.93 201.30 1552.9
-735.04 195.49 1508.1
-733.60 196.15 1513.1
-710.99 191.13 1474.4
-678.24 183.31 1414.1
-700.47 190.35 1468.4
-736.53 201.24 1552.4
-748.48 205.63 1586.3
-740.89 204.66 1578.8
-736.68 204.63 1578.6
-758.80 211.96 1635.1
-754.88 212.05 1635.8
-737.29 208.27 1606.7
-747.85 212.46 1639.0
-782.48 223.56 1724.6
-809.38 232.58 1794.2
-833.54 240.91 1858.4
-859.44 249.84 1927.3
-839.56 245.49 1893.7
-823.43 242.18 1868.3
-811.38 240.05 1851.8
-790.29 235.20 1814.4
-813.54 243.57 1879.0
-860.84 259.29 2000.2
-905.22 277.67 2142.1
-862.42 266.18 2053.4
-867.06 269.27 2077.3
-900.88 281.53 2171.8
-876.27 279.07 2152.8
-894.54 286.71 2211.8
-900.33 290.43 2240.5
-903.05 293.20 2261.8
-901.26 294.53 2272.1
-879.06 293.02 2260.5
-848.14 288.48 2225.5
-827.98 283.55 2187.4
-824.95 286.44 2209.7
-850.28 297.30 2293.5
-821.71 289.34 2232.0
-795.22 284.01 2190.9
-793.21 285.33 2201.1
-818.24 296.46 2287.0
-815.63 297.67 2296.3
-1140.65 204.73 1611.6
-1093.13 196.92 1550.1
-1007.86 182.91 1439.8
-1015.01 184.89 1455.4
-988.62 180.76 1422.9
-928.94 170.48 1342.0
-885.35 163.09 1283.8
-877.45 162.25 1277.2
-857.21 159.10 1252.4
-832.57 155.12 1221.0
-870.63 162.83 1281.7
-899.00 168.78 1328.6
-882.72 166.36 1309.5
-862.08 163.10 1283.8
-842.07 159.93 1258.9
-844.21 160.96 1267.0
-857.32 164.10 1291.7
-859.37 165.13 1299.9
-855.37 165.01 1298.9
-838.82 162.46 1278.8
-829.42 161.28 1269.5
-831.98 162.42 1278.5
-823.14 161.34 1270.0
-809.49 159.30 1253.9
-800.19 158.10 1244.5
-802.18 159.14 1252.7
-814.83 162.30 1277.6
-819.92 163.98 1290.8
-811.68 163.00 1283.1
-790.21 159.34 1254.3
-778.88 157.71 1241.4
-791.84 161.00 1267.3
-793.66 162.04 1275.5
-788.64 161.69 1272.8
-791.47 162.95 1282.7
-779.67 161.20 1268.9
-759.11 157.61 1240.7
-737.10 153.69 1209.8
-736.35 154.19 1213.8
-748.42 157.39 1239.0
-756.82 159.85 1258.3
-785.05 166.53 1310.9
-791.70 168.67 1327.7
-763.27 163.32 1285.6
-749.66 161.11 1268.2
-753.26 162.60 1279.9
-757.81 164.30 1293.4
-755.30 164.49 1294.8
-753.78 164.89 1298.0
-767.67 168.68 1327.8
-758.63 167.45 1318.1
-738.26 163.69 1288.5
-753.95 167.93 1321.9
-758.22 169.65 1335.4
-729.18 163.90 1290.2
-733.94 165.73 1304.6
-750.30 170.21 1339.8
-749.09 170.72 1343.9
-764.74 175.10 1378.4
-768.72 176.84 1392.0
-777.43 179.69 1414.5
-784.61 182.21 1434.3
-760.35 177.42 1396.6
-729.61 171.06 1346.5
-718.41 169.24 1332.2
-764.12 180.88 1423.8
-781.47 187.71 1477.6
-774.29 186.90 1471.2
-782.36 189.78 1493.9
-784.35 191.21 1505.2
-772.58 189.28 1490.0
-761.32 187.46 1475.6
-782.79 193.72 1524.9
-834.78 207.64 1634.5
-792.60 199.17 1567.8
-750.06 189.45 1491.3
-760.74 193.14 1520.4
-739.86 188.82 1486.3
-730.15 187.32 1474.5
-745.94 192.37 1514.3
-732.28 189.85 1494.4
-738.28 192.42 1514.7
-768.03 201.25 1584.2
-755.63 199.06 1567.0
-731.26 193.69 1524.6
-737.02 196.27 1545.0
-754.61 202.05 1590.5
-765.64 206.13 1622.6
-758.81 205.42 1617.0
-745.70 203.00 1597.9
-759.43 207.89 1636.4
-786.72 216.57 1704.8
-798.81 221.14 1740.7
-790.94 220.20 1733.4
-804.03 225.13 1772.2
-815.32 229.60 1807.4
-825.64 233.85 1840.8
-845.92 240.99 1897.0
-820.06 234.99 1849.8
-806.83 232.56 1830.6
-799.65 231.85 1825.1
-756.79 220.73 1737.5
-760.09 223.02 1755.6
-830.46 245.13 1929.6
-856.13 258.95 2038.4
-845.11 257.21 2024.7
-837.20 256.39 2018.3
-844.83 260.36 2049.5
-879.80 272.85 2147.8
-916.58 286.07 2251.8
-901.83 286.95 2258.8
-837.06 269.84 2124.1
-902.83 296.90 2337.2
-845.44 283.74 2233.6
-828.43 283.87 2234.5
-860.37 296.89 2337.0
-1131.70 198.98 1598.9
-1081.33 190.82 1533.4
-1012.65 180.03 1446.6
-1002.15 178.82 1437.0
-960.45 172.02 1382.3
-938.20 168.67 1355.4
-920.56 166.12 1334.9
-891.73 161.52 1297.9
-854.59 155.38 1248.6
-836.68 152.70 1227.1
-879.77 161.18 1295.2
-900.31 165.57 1330.5
-877.36 161.97 1301.6
-877.24 162.58 1306.4
-876.55 163.08 1310.5
-840.54 156.99 1261.5
-819.01 153.56 1234.0
-818.97 154.16 1238.8
-813.99 153.82 1236.1
-814.46 154.52 1241.7
-821.99 156.57 1258.1
-819.69 156.75 1259.6
-804.40 154.44 1241.1
-798.34 153.90 1236.7
-797.14 154.29 1239.8
-802.90 156.03 1253.8
-820.37 160.07 1286.3
-820.65 160.78 1292.0
-808.67 159.08 1278.3
-795.16 157.07 1262.2
-791.22 156.94 1261.1
-785.17 156.38 1256.6
-767.58 153.52 1233.6
-771.02 154.85 1244.3
-780.68 157.45 1265.2
-763.72 154.68 1242.9
-739.05 150.31 1207.9
-734.17 149.96 1205.0
-748.38 153.51 1233.6
-758.88 156.34 1256.3
-766.22 158.53 1273.9
-761.74 158.28 1271.9
-736.89 153.79 1235.8
-736.54 154.38 1240.6
-750.85 158.07 1270.2
-760.50 160.81 1292.2
-770.06 163.55 1314.3
-770.01 164.27 1320.0
-770.44 165.09 1326.7
-787.26 169.46 1361.7
-784.11 169.54 1362.3
-744.86 161.78 1300.0
-737.39 160.88 1292.8
-755.95 165.69 1331.4
-744.03 163.82 1316.4
-721.93 159.69 1283.2
-707.74 157.27 1263.8
-699.90 156.26 1255.6
-705.61 158.27 1271.8
-747.76 168.51 1354.1
-794.86 179.97 1446.2
-801.51 182.33 1465.2
-777.18 177.64 1427.5
-750.63 172.39 1385.3
-743.12 171.49 1378.0
-748.33 173.53 1394.4
-773.14 180.15 1447.6
-801.46 187.66 1508.0
-790.96 186.11 1495.5
-772.64 182.69 1468.1
-769.18 182.78 1468.7
-755.15 180.34 1449.1
-729.77 175.14 1407.4
-720.04 173.68 1395.6
-742.13 179.91 1445.7
-778.03 189.57 1523.3
-782.54 191.64 1540.0
-786.08 193.50 1554.9
-807.86 199.88 1606.2
-792.51 197.10 1583.9
-746.70 186.67 1500.1
-733.86 184.43 1482.0
-747.45 188.83 1517.4
-746.90 189.69 1524.3
-766.77 195.77 1573.2
-799.45 205.21 1649.0
-787.34 203.18 1632.7
-755.52 196.03 1575.2
-754.76 196.89 1582.2
-771.42 202.34 1625.9
-784.08 206.79 1661.7
-761.12 201.84 1622.0
-732.03 195.21 1568.6
-740.80 198.65 1596.3
-763.62 205.92 1654.7
-794.05 215.33 1730.4
-804.76 219.48 1763.7
-813.69 223.18 1793.4
-819.22 225.99 1816.0
-790.48 219.32 1762.4
-769.26 214.68 1725.1
-787.67 221.10 1776.7
-822.27 232.17 1865.7
-829.77 235.67 1893.8
-797.46 227.85 1830.9
-783.94 226.68 1821.6
-840.51 244.51 1964.8
-842.41 246.56 1981.3
-826.83 243.48 1956.6
-810.97 240.29 1930.9
-837.69 249.75 2006.9
-872.45 261.74 2103.2
-818.18 247.00 1984.8
-874.89 267.48 2149.4
-831.08 260.73 2095.2
-892.99 283.86 2281.0
-890.72 285.03 2290.4
-885.55 285.28 2292.4
-843.17 283.02 2274.3
-833.40 287.79 2312.6
-826.41 287.45 2309.8
-1127.07 192.63 1580.8
-1118.57 191.87 1574.6
-1091.69 187.95 1542.4
-1085.00 187.48 1538.6
-1063.44 184.43 1513.6
-975.20 169.76 1393.1
-906.16 158.33 1299.3
-919.78 161.30 1323.8
-945.20 166.38 1365.5
-910.03 160.79 1319.6
-868.25 153.99 1263.8
-864.33 153.88 1262.8
-874.98 156.36 1283.2
-863.74 154.95 1271.6
-838.06 150.91 1238.5
-849.19 153.51 1259.8
-880.20 159.73 1310.8
-875.08 159.41 1308.3
-836.86 153.05 1256.0
-815.34 149.69 1228.5
-814.76 150.17 1232.4
-792.28 146.60 1203.1
-776.45 144.24 1183.7
-798.23 148.88 1221.8
-810.11 151.69 1244.9
-800.25 150.45 1234.7
-799.60 150.93 1238.6
-793.02 150.29 1233.4
-795.03 151.28 1241.5
-817.34 156.16 1281.5
-823.50 157.98 1296.5
-806.20 155.29 1274.4
-787.39 152.29 1249.8
-791.40 153.70 1261.4
-793.78 154.80 1270.4
-775.63 151.89 1246.6
-775.39 152.48 1251.4
-804.89 158.95 1304.4
-810.24 160.68 1318.6
-774.52 154.25 1265.9
-756.59 151.32 1241.8
-759.39 152.53 1251.7
-757.00 152.70 1253.2
-754.61 152.87 1254.6
-740.96 150.76 1237.2
-725.86 148.33 1217.3
-731.64 150.16 1232.3
-747.99 154.19 1265.4
-759.67 157.29 1290.8
-765.72 159.24 1306.8
-762.18 159.21 1306.6
-769.13 161.38 1324.4
-790.93 166.70 1368.0
-815.55 172.66 1417.0
-808.82 172.01 1411.6
-764.17 163.25 1339.8
-743.86 159.64 1310.1
-744.70 160.55 1317.6
-737.22 159.67 1310.4
-725.88 157.95 1296.2
-718.95 157.17 1289.8
-715.42 157.13 1289.5
-746.02 164.62 1350.9
-792.18 175.62 1441.3
-800.75 178.37 1463.8
-771.66 172.71 1417.3
-739.92 166.39 1365.5
-731.50 165.29 1356.5
-736.29 167.18 1372.0
-750.84 171.31 1405.9
-766.19 175.66 1441.6
-765.59 176.39 1447.5
-758.47 175.61 1441.2
-755.53 175.79 1442.7
-744.31 174.04 1428.3
-729.95 171.54 1407.8
-729.79 172.36 1414.5
-717.80 170.39 1398.3
-718.99 171.54 1407.7
-733.20 175.82 1442.9
-745.91 179.78 1475.4
-796.45 192.95 1583.5
-813.62 198.14 1626.0
-781.44 191.29 1569.9
-782.58 192.57 1580.4
-792.01 195.92 1607.8
-787.77 195.90 1607.7
-768.28 192.07 1576.2
-760.62 191.17 1568.9
-794.88 200.86 1648.4
-809.02 205.54 1686.8
-780.63 199.40 1636.4
-770.77 197.96 1624.6
-797.01 205.82 1689.1
-789.19 204.93 1681.8
-749.45 195.69 1606.0
-749.78 196.87 1615.7
-755.07 199.37 1636.2
-764.41 202.98 1665.8
-800.02 213.64 1753.3
-838.95 225.32 1849.1
-858.26 231.83 1902.5
-841.13 228.51 1875.3
-786.06 214.80 1762.8
-767.73 211.01 1731.7
-839.32 232.05 1904.3
-885.03 246.13 2019.9
-884.19 247.36 2030.0
-871.46 245.26 2012.8
-849.76 240.59 1974.5
-856.37 243.94 2001.9
-858.19 245.94 2018.4
-843.29 243.16 1995.5
-809.64 234.90 1927.7
-824.52 240.70 1975.3
-865.45 254.23 2086.4
-862.52 272.07 2232.8
-887.01 281.68 2311.7
-806.03 280.62 2302.9
-791.46 279.69 2295.3
-1126.14 186.34 1562.5
-1139.44 190.60 1598.2
-1129.18 189.57 1589.6
-1081.57 182.24 1528.1
-1056.54 178.68 1498.3
-1061.94 180.26 1511.5
-990.24 168.71 1414.6
-916.60 156.74 1314.3
-929.63 159.56 1337.9
-936.33 161.32 1352.7
-887.05 153.40 1286.3
-845.89 146.83 1231.2
-841.46 146.62 1229.4
-855.54 149.64 1254.7
-847.15 148.74 1247.2
-827.64 145.87 1223.1
-843.80 149.29 1251.8
-871.52 154.79 1297.9
-863.10 153.89 1290.3
-831.53 148.83 1248.0
-815.51 146.54 1228.7
-822.62 148.39 1244.3
-806.68 146.09 1225.0
-791.90 143.98 1207.3
-813.64 148.52 1245.4
-835.79 153.17 1284.4
-837.77 154.15 1292.6
-824.06 152.24 1276.5
-805.03 149.32 1252.1
-803.25 149.59 1254.4
-819.66 153.27 1285.2
-804.47 151.04 1266.5
-766.48 144.50 1211.7
-778.02 147.28 1234.9
-811.14 154.18 1292.8
-810.83 154.76 1297.7
-791.05 151.62 1271.3
-766.65 147.56 1237.3
-770.07 148.84 1248.0
-803.65 155.98 1307.9
-799.61 155.86 1306.9
-772.29 151.17 1267.6
-764.20 150.23 1259.7
-769.00 151.82 1273.0
-774.26 153.52 1287.3
-768.22 152.98 1282.7
-761.18 152.24 1276.5
-764.31 153.53 1287.4
-776.51 156.66 1313.6
-776.49 157.35 1319.4
-771.42 157.02 1316.6
-766.86 156.78 1314.6
-772.30 158.60 1329.9
-802.07 165.45 1387.3
-829.77 172.71 1448.2
-786.52 164.45 1379.0
-733.72 154.11 1292.3
-700.83 147.88 1240.0
-738.86 156.62 1313.3
-777.57 165.59 1388.5
-756.41 161.84 1357.0
-738.27 158.69 1330.7
-721.68 155.86 1306.9
-719.55 156.13 1309.2
-759.89 165.66 1389.1
-765.19 167.61 1405.4
-740.57 163.00 1366.7
-738.29 163.28 1369.1
-748.69 166.38 1395.1
-770.23 171.99 1442.2
-765.44 171.76 1440.2
-743.46 167.64 1405.7
-742.91 168.34 1411.6
-748.80 170.52 1429.8
-758.74 173.64 1456.0
-766.29 176.25 1477.8
-757.33 175.06 1467.9
-737.05 171.23 1435.8
-716.00 167.19 1401.9
-707.70 166.09 1392.7
-728.15 171.77 1440.3
-787.71 186.78 1566.1
-825.84 196.83 1650.5
-814.42 195.12 1636.1
-805.27 193.94 1626.2
-803.63 194.56 1631.4
-812.46 197.74 1658.1
-804.62 196.88 1650.8
-771.22 189.71 1590.8
-779.10 192.68 1615.6
-803.20 199.72 1674.6
-784.68 196.17 1644.9
-773.09 194.33 1629.5
-793.81 200.63 1682.3
-815.57 207.27 1738.0
-809.76 206.94 1735.2
-791.41 203.38 1705.3
-775.67 200.45 1680.8
-785.33 204.10 1711.4
-824.99 215.62 1808.0
-860.53 226.20 1896.7
-874.01 231.06 1937.5
-870.63 231.50 1941.1
-824.73 220.57 1849.5
-766.32 206.14 1728.5
-800.65 216.65 1816.6
-852.94 232.16 1946.7
-861.40 235.86 1977.7
-896.96 247.07 2071.7
-889.53 249.50 2092.1
-897.69 253.33 2124.2
-889.53 252.58 2117.9
-863.02 246.58 2067.6
-853.49 245.38 2057.5
-849.68 245.82 2061.2
-878.70 273.11 2290.0
-886.25 277.33 2325.4
-1144.99 185.34 1588.6
-1118.14 184.99 1585.6
-1019.24 169.25 1450.7
-995.01 165.84 1421.4
-956.08 159.94 1370.9
-939.47 157.75 1352.1
-921.80 155.36 1331.6
-891.19 150.77 1292.3
-861.29 146.26 1253.6
-838.26 142.89 1224.7
-836.09 143.06 1226.2
-854.60 146.78 1258.1
-859.60 148.21 1270.4
-850.10 147.13 1261.1
-853.39 148.27 1270.9
-864.94 150.86 1293.1
-852.12 149.20 1278.9
-826.69 145.32 1245.6
-823.89 145.39 1246.2
-838.60 148.57 1273.5
-851.57 151.46 1298.3
-836.68 149.41 1280.6
-822.94 147.54 1264.6
-835.78 150.44 1289.5
-833.95 150.71 1291.8
-811.66 147.28 1262.4
-804.50 146.57 1256.3
-826.26 151.14 1295.5
-815.85 149.85 1284.4
-776.76 143.25 1227.9
-785.08 145.39 1246.2
-804.44 149.59 1282.2
-791.49 147.79 1266.8
-792.80 148.65 1274.1
-790.40 148.82 1275.6
-751.42 142.08 1217.8
-739.75 140.46 1203.9
-773.82 147.55 1264.7
-787.99 150.89 1293.4
-775.73 149.18 1278.7
-776.89 150.04 1286.1
-782.13 151.71 1300.3
-778.62 151.68 1300.1
-775.11 151.65 1299.9
-781.24 153.52 1315.9
-778.71 153.69 1317.4
-765.06 151.66 1300.0
-779.14 155.14 1329.8
-796.11 159.22 1364.8
-800.46 160.81 1378.3
-828.65 167.22 1433.3
-829.82 168.21 1441.8
-792.87 161.44 1383.8
-763.53 156.18 1338.7
-723.08 148.58 1273.5
-704.91 145.51 1247.2
-755.61 156.69 1343.1
-789.41 164.46 1409.7
-766.27 160.38 1374.7
-746.65 157.01 1345.8
-728.58 153.93 1319.4
-692.88 147.07 1260.6
-698.00 148.86 1276.0
-758.23 162.48 1392.7
-792.40 170.61 1462.4
-767.26 165.99 1422.8
-754.98 164.13 1406.8
-767.13 167.58 1436.4
-752.55 165.19 1416.0
-738.05 162.81 1395.5
-744.01 164.93 1413.7
-750.82 167.26 1433.7
-763.52 170.94 1465.2
-780.66 175.65 1505.6
-781.22 176.66 1514.2
-769.48 174.88 1499.0
-755.53 172.58 1479.3
-759.24 174.31 1494.1
-793.84 183.19 1570.2
-800.86 185.77 1592.3
-783.76 182.74 1566.4
-788.91 184.90 1584.9
-795.32 187.38 1606.1
-786.69 186.32 1597.0
-786.40 187.24 1604.9
-803.08 192.23 1647.7
-795.71 191.48 1641.3
-796.14 192.61 1651.0
-812.43 197.62 1693.9
-807.14 197.40 1692.0
-807.81 198.64 1702.6
-807.16 199.57 1710.6
-805.64 200.30 1716.8
-806.60 201.65 1728.4
-794.95 199.85 1713.0
-789.20 199.52 1710.1
-812.07 206.46 1769.7
-841.71 215.21 1844.7
-862.80 221.86 1901.7
-874.64 226.20 1938.9
-868.82 225.99 1937.1
-864.62 226.21 1938.9
-851.55 224.09 1920.8
-838.55 221.97 1902.6
-842.38 224.30 1922.6
-811.58 217.39 1863.3
-800.40 215.68 1848.7
-839.59 227.60 1950.8
-842.73 229.84 1970.0
-857.46 235.28 2016.7
-899.08 248.21 2127.5
-848.00 266.85 2287.3
-858.23 271.97 2331.2
-1101.15 178.13 1561.5
-1016.01 164.96 1446.1
-1006.63 164.04 1438.0
-950.00 155.39 1362.2
-917.50 150.63 1320.5
-916.31 151.00 1323.7
-898.72 148.66 1303.2
-848.49 140.88 1235.0
-808.07 134.68 1180.6
-814.94 136.34 1195.2
-842.47 141.48 1240.3
-846.95 142.78 1251.6
-836.36 141.54 1240.8
-856.34 145.48 1275.3
-882.27 150.47 1319.0
-874.38 149.70 1312.3
-855.49 147.04 1289.0
-846.02 145.98 1279.7
-852.46 147.67 1294.5
-864.85 150.41 1318.5
-851.01 148.59 1302.6
-812.79 142.48 1249.0
-802.39 141.22 1238.0
-806.59 142.53 1249.5
-789.76 140.12 1228.3
-786.95 140.19 1228.9
-810.91 145.04 1271.5
-815.49 146.46 1283.9
-791.29 142.69 1250.9
-777.82 140.84 1234.6
-774.99 140.91 1235.2
-779.53 142.32 1247.6
-797.18 146.15 1281.2
-807.87 148.73 1303.8
-783.47 144.84 1269.7
-741.47 137.66 1206.7
-742.30 138.40 1213.2
-769.52 144.08 1263.0
-772.80 145.31 1273.8
-769.86 145.38 1274.4
-771.53 146.32 1282.7
-782.88 149.12 1307.2
-795.15 152.12 1333.5
-785.48 150.92 1323.0
-766.22 147.87 1296.2
-756.65 146.66 1285.7
-773.28 150.55 1319.8
-791.78 154.84 1357.3
-800.63 157.27 1378.6
-797.95 157.44 1380.2
-772.42 153.09 1342.0
-753.47 150.01 1315.0
-738.56 147.71 1294.9
-732.58 147.18 1290.3
-749.62 151.30 1326.3
-777.25 157.60 1381.6
-786.67 160.25 1404.8
-786.31 160.92 1410.7
-789.30 162.29 1422.6
-769.15 158.89 1392.8
-729.47 151.40 1327.2
-705.32 147.08 1289.3
-734.61 153.92 1349.3
-778.36 163.86 1436.5
-766.02 162.04 1420.5
-756.10 160.72 1408.9
-769.19 164.29 1440.2
-774.21 166.17 1456.7
-778.69 167.95 1472.3
-790.99 171.45 1502.9
-806.85 175.75 1540.7
-791.28 173.22 1518.5
-779.02 171.38 1502.4
-805.58 178.12 1561.4
-821.00 182.44 1599.4
-793.72 177.28 1554.1
-785.10 176.25 1545.0
-803.90 181.39 1590.1
-793.45 179.96 1577.6
-776.82 177.10 1552.5
-781.12 179.01 1569.2
-779.17 179.50 1573.5
-762.26 176.52 1547.4
-776.09 180.68 1583.8
-805.01 188.41 1651.6
-814.13 191.56 1679.3
-831.33 196.66 1723.9
-842.31 200.33 1756.2
-833.03 199.20 1746.3
-833.59 200.43 1757.0
-834.10 201.65 1767.7
-834.57 202.88 1778.5
-836.66 204.52 1792.8
-837.02 205.75 1803.6
-847.74 209.55 1837.0
-864.13 214.81 1883.1
-880.73 220.18 1930.2
-868.35 218.33 1913.9
-844.59 213.57 1872.2
-823.85 209.53 1836.8
-804.89 205.90 1805.0
-841.68 216.57 1898.5
-885.29 229.13 2008.6
-909.25 236.73 2075.2
-900.35 235.81 2067.1
-847.62 223.33 1957.7
-840.58 222.80 1953.2
-821.43 219.05 1920.2
-816.04 218.94 1919.3
-859.04 231.89 2032.8
-876.89 238.17 2087.8
-833.19 236.52 2073.4
-824.29 262.82 2303.9
-1113.85 175.44 1573.7
-1074.96 169.94 1524.4
-1081.47 171.60 1539.3
-1034.24 164.71 1477.5
-947.34 151.43 1358.4
-905.75 145.33 1303.6
-895.52 144.22 1293.7
-903.42 146.04 1310.0
-875.73 142.10 1274.6
-833.54 135.77 1217.8
-839.79 137.30 1231.6
-873.41 143.35 1285.8
-880.60 145.08 1301.4
-846.55 140.01 1255.9
-844.85 140.26 1258.2
-869.16 144.86 1299.4
-859.64 143.83 1290.2
-852.36 143.17 1284.2
-853.88 143.99 1291.6
-837.30 141.75 1271.5
-826.79 140.52 1260.5
-839.20 143.20 1284.5
-827.62 141.78 1271.8
-807.96 138.97 1246.6
-801.90 138.48 1242.2
-799.61 138.64 1243.6
-810.20 141.05 1265.2
-814.82 142.43 1277.6
-800.71 140.53 1260.6
-802.63 141.45 1268.8
-815.66 144.33 1294.7
-794.72 141.21 1266.7
-779.69 139.12 1247.9
-789.45 141.44 1268.8
-791.79 142.46 1277.8
-785.20 141.86 1272.5
-763.51 138.53 1242.6
-746.62 136.04 1220.3
-754.66 138.09 1238.7
-768.83 141.28 1267.3
-776.71 143.34 1285.8
-765.53 141.89 1272.7
-763.10 142.05 1274.2
-775.95 145.07 1301.3
-767.35 144.09 1292.5
-759.29 143.20 1284.5
-759.84 143.93 1291.1
-762.88 145.15 1302.0
-766.87 146.56 1314.6
-767.32 147.30 1321.3
-758.76 146.31 1312.4
-743.79 144.07 1292.3
-734.33 142.88 1281.6
-743.65 145.35 1303.8
-762.71 149.76 1343.3
-743.91 146.73 1316.2
-733.50 145.35 1303.8
-762.05 151.70 1360.8
-780.18 156.04 1399.7
-789.96 158.73 1423.8
-778.46 157.15 1409.7
-761.75 154.51 1385.9
-758.50 154.58 1386.6
-753.34 154.25 1383.7
-761.94 156.76 1406.2
-766.67 158.49 1421.7
-774.15 160.81 1442.5
-795.61 166.07 1489.7
-808.48 169.58 1521.2
-806.78 170.06 1525.4
-812.95 172.20 1544.7
-817.19 173.96 1560.4
-790.08 169.02 1516.2
-773.70 166.34 1492.1
-795.27 171.84 1541.4
-825.28 179.23 1607.7
-814.27 177.73 1594.3
-810.08 177.72 1594.2
-833.27 183.75 1648.2
-818.67 181.46 1627.7
-797.04 177.58 1592.9
-799.48 179.05 1606.1
-797.02 179.43 1609.5
-790.13 178.82 1604.0
-811.73 184.68 1656.6
-819.15 187.36 1680.6
-806.07 185.35 1662.6
-820.28 189.64 1701.1
-828.74 192.63 1727.9
-828.08 193.52 1735.9
-837.20 196.72 1764.6
-838.97 198.22 1778.0
-841.53 199.92 1793.3
-868.42 207.45 1860.9
-896.27 215.30 1931.3
-893.80 215.92 1936.8
-893.38 217.04 1946.8
-883.83 215.94 1937.0
-843.48 207.26 1859.1
-862.79 213.22 1912.6
-892.45 221.82 1989.8
-841.54 210.39 1887.2
-854.79 214.95 1928.1
-888.93 231.66 2078.0
-808.84 212.08 1902.3
-885.01 237.85 2133.5
-826.14 224.83 2016.8
-845.47 257.84 2312.8
-1128.33 172.96 1588.4
-1110.04 170.77 1568.3
-1113.63 171.96 1579.2
-1065.07 165.07 1515.9
-976.17 151.85 1394.5
-949.23 148.21 1361.1
-958.21 150.17 1379.1
-933.11 146.78 1348.0
-929.60 146.78 1348.0
-904.10 143.29 1315.9
-864.08 137.47 1262.4
-851.73 136.02 1249.1
-867.98 139.14 1277.8
-889.70 143.17 1314.8
-868.98 140.37 1289.1
-850.57 137.93 1266.7
-858.81 139.81 1283.9
-834.96 136.45 1253.1
-813.98 133.54 1226.4
-833.73 137.32 1261.1
-835.27 138.12 1268.4
-819.86 136.10 1249.9
-827.93 137.99 1267.2
-821.27 137.42 1262.1
-805.96 135.40 1243.5
-805.84 135.92 1248.3
-809.47 137.09 1259.0
-815.74 138.71 1273.9
-816.59 139.42 1280.4
-800.88 137.29 1260.9
-801.20 137.91 1266.5
-817.42 141.28 1297.5
-800.18 138.87 1275.4
-768.25 133.89 1229.6
-760.68 133.12 1222.5
-769.92 135.30 1242.6
-771.24 136.10 1249.9
-766.80 135.89 1248.0
-767.04 136.51 1253.6
-769.32 137.50 1262.7
-777.25 139.51 1281.2
-778.42 140.32 1288.6
-760.56 137.69 1264.5
-749.45 136.26 1251.4
-752.15 137.35 1261.4
-748.71 137.32 1261.1
-745.77 137.38 1261.6
-750.91 138.93 1275.9
-757.50 140.77 1292.8
-762.52 142.34 1307.2
-762.98 143.06 1313.8
-765.90 144.25 1324.7
-762.82 144.32 1325.4
-754.78 143.44 1317.3
-765.52 146.14 1342.1
-775.17 148.66 1365.3
-747.99 144.11 1323.4
-729.75 141.24 1297.1
-749.08 145.65 1337.6
-760.97 148.65 1365.2
-764.53 150.05 1378.0
-770.93 152.01 1396.1
-773.90 153.32 1408.0
-785.42 156.34 1435.8
-794.44 158.89 1459.2
-783.45 157.44 1445.9
-768.72 155.22 1425.5
-782.79 158.83 1458.6
-808.45 164.83 1513.7
-805.85 165.10 1516.2
-789.28 162.50 1492.3
-785.78 162.57 1493.0
-780.43 162.27 1490.2
-785.20 164.07 1506.8
-800.90 168.19 1544.6
-763.96 161.24 1480.8
-734.10 155.72 1430.1
-772.35 164.66 1512.2
-822.89 176.33 1619.4
-860.40 185.32 1701.9
-858.21 185.80 1706.3
-826.61 179.88 1652.0
-818.29 179.00 1643.9
-821.93 180.74 1659.8
-823.30 181.99 1671.4
-817.61 181.69 1668.6
-797.10 178.08 1635.4
-804.08 180.60 1658.5
-838.63 189.37 1739.1
-849.16 192.78 1770.4
-850.56 194.15 1783.0
-865.55 198.65 1824.3
-876.96 202.38 1858.6
-848.06 196.79 1807.2
-840.84 196.20 1801.8
-879.30 206.32 1894.7
-888.17 209.57 1924.6
-879.06 208.59 1915.6
-860.49 205.34 1885.8
-849.85 203.96 1873.1
-906.78 218.88 2010.1
-902.98 221.78 2036.8
-904.17 223.38 2051.5
-927.26 230.44 2116.3
-884.89 221.22 2031.6
-893.50 224.71 2063.7
-913.79 232.60 2136.1
-838.24 214.67 1971.5
-835.83 215.37 1977.9
-876.93 227.35 2087.9
-828.24 216.06 1984.3
-862.35 226.37 2078.9
-1131.86 168.75 1587.5
-1061.61 158.85 1494.4
-1046.93 157.23 1479.2
-1079.38 162.70 1530.6
-1054.38 159.52 1500.7
-978.64 148.61 1398.1
-965.36 147.14 1384.2
-986.81 150.97 1420.2
-971.27 149.15 1403.1
-944.48 145.58 1369.5
-900.32 139.29 1310.4
-873.80 135.70 1276.7
-872.10 135.95 1279.0
-861.43 134.80 1268.2
-859.72 135.05 1270.5
-862.46 136.00 1279.5
-864.61 136.87 1287.6
-856.76 136.15 1280.9
-816.90 130.32 1226.0
-795.40 127.39 1198.4
-814.66 130.98 1232.3
-842.56 136.00 1279.5
-852.80 138.20 1300.1
-835.72 135.97 1279.2
-805.13 131.52 1237.3
-787.70 129.18 1215.3
-785.47 129.33 1216.7
-802.62 132.69 1248.3
-822.34 136.50 1284.2
-800.15 133.36 1254.6
-763.12 127.71 1201.4
-751.84 126.33 1188.5
-754.40 127.29 1197.5
-773.34 131.02 1232.6
-779.48 132.61 1247.5
-760.83 129.98 1222.8
-758.54 130.13 1224.2
-771.92 132.98 1251.0
-781.55 135.21 1272.0
-775.51 134.73 1267.5
-771.55 134.61 1266.4
-769.66 134.86 1268.7
-761.58 134.01 1260.7
-767.39 135.62 1275.8
-780.30 138.49 1302.9
-764.54 136.29 1282.1
-742.25 132.89 1250.2
-752.51 135.32 1273.0
-770.76 139.21 1309.7
-762.19 138.27 1300.8
-750.63 136.78 1286.8
-742.13 135.84 1277.9
-736.15 135.35 1273.3
-758.01 139.99 1317.0
-775.23 143.82 1353.0
-776.53 144.72 1361.4
-776.80 145.43 1368.1
-754.51 141.90 1335.0
-742.11 140.21 1319.1
-757.02 143.69 1351.8
-765.49 145.98 1373.3
-760.35 145.67 1370.4
-758.58 146.02 1373.7
-748.64 144.79 1362.1
-745.44 144.85 1362.7
-783.18 152.91 1438.5
-799.74 156.89 1475.9
-767.94 151.37 1424.1
-761.30 150.79 1418.6
-788.92 157.02 1477.2
-788.27 157.65 1483.2
-782.00 157.17 1478.6
-788.27 159.21 1497.8
-768.12 155.91 1466.7
-758.69 154.76 1455.9
-784.12 160.74 1512.2
-759.56 156.49 1472.2
-734.26 152.04 1430.4
-778.86 162.10 1525.0
-809.54 169.34 1593.1
-823.31 173.11 1628.5
-834.69 176.40 1659.6
-817.44 173.65 1633.7
-808.27 172.60 1623.8
-811.51 174.20 1638.8
-828.32 178.74 1681.6
-838.38 181.87 1711.0
-822.58 179.39 1687.7
-834.23 182.91 1720.7
-850.49 187.47 1763.7
-840.74 186.33 1752.9
-870.03 193.87 1823.8
-916.09 205.24 1930.9
-889.69 201.53 1896.0
-835.98 190.42 1791.4
-822.52 188.40 1772.4
-844.58 194.54 1830.2
-854.77 198.00 1862.7
-847.05 197.32 1856.4
-849.22 198.96 1871.8
-892.66 210.34 1978.8
-881.41 211.33 1988.1
-857.82 206.89 1946.3
-852.38 206.79 1945.4
-839.39 204.85 1927.2
-871.16 213.88 2012.1
-891.54 220.20 2071.6
-839.24 208.54 1961.9
-887.89 221.97 2088.2
-1147.55 166.31 1603.7
-1156.93 168.28 1622.7
-1146.63 167.39 1614.1
-1054.60 154.52 1490.0
-1016.41 149.47 1441.3
-1043.69 154.05 1485.5
-1005.67 148.99 1436.7
-977.51 145.35 1401.6
-982.44 146.63 1414.0
-965.21 144.60 1394.4
-940.69 141.46 1364.1
-907.25 136.94 1320.5
-885.78 134.21 1294.2
-887.98 135.05 1302.3
-881.74 134.62 1298.1
-872.72 133.75 1289.7
-867.63 133.48 1287.2
-858.66 132.61 1278.8
-839.75 130.19 1255.4
-826.44 128.63 1240.3
-829.16 129.56 1249.3
-825.25 129.45 1248.3
-830.66 130.81 1261.4
-828.91 131.05 1263.7
-800.46 127.06 1225.2
-790.61 125.99 1214.9
-793.81 127.01 1224.7
-779.13 125.16 1206.9
-782.84 126.26 1217.6
-809.07 131.02 1263.4
-793.88 129.09 1244.8
-760.59 124.18 1197.4
-753.58 123.54 1191.3
-746.58 122.89 1185.1
-754.43 124.70 1202.5
-780.69 129.57 1249.5
-782.56 130.43 1257.7
-768.13 128.56 1239.7
-770.50 129.50 1248.7
-774.93 130.79 1261.2
-765.26 129.71 1250.7
-758.75 129.15 1245.4
-754.83 129.03 1244.2
-755.04 129.62 1249.9
-770.11 132.78 1280.4
-775.34 134.26 1294.6
-750.41 130.51 1258.4
-736.30 128.61 1240.2
-755.20 132.49 1277.6
-752.73 132.64 1279.0
-723.57 128.07 1234.9
-724.69 128.83 1242.3
-731.28 130.59 1259.2
-729.82 130.91 1262.3
-755.18 136.07 1312.1
-774.40 140.16 1351.6
-777.18 141.31 1362.6
-794.17 145.05 1398.7
-790.44 145.03 1398.5
-776.45 143.12 1380.1
-789.29 146.16 1409.4
-774.86 144.16 1390.1
-745.52 139.35 1343.7
-749.59 140.77 1357.4
-746.40 140.83 1358.0
-733.17 138.99 1340.3
-758.58 144.49 1393.3
-784.73 150.19 1448.2
-765.27 147.17 1419.1
-732.74 141.59 1365.4
-732.79 142.29 1372.1
-758.06 147.91 1426.3
-778.44 152.64 1471.8
-794.93 156.64 1510.4
-784.92 155.43 1498.8
-756.55 150.56 1451.8
