ply
format ascii 1.0
element vertex 2236
property float x
property float y
property float z
end_header
177.26 204.30 1158.9
209.27 237.17 1345.3
206.54 226.53 1284.9
184.54 199.18 1129.8
186.42 198.08 1123.5
199.90 209.13 1186.2
212.53 218.97 1242.1
229.15 232.57 1319.2
252.83 252.83 1434.1
247.06 243.48 1381.1
223.97 217.57 1234.1
215.83 206.71 1172.5
234.68 221.64 1257.2
258.35 240.66 1365.1
255.46 234.75 1331.5
248.26 225.09 1276.8
262.31 234.70 1331.3
298.23 263.37 1493.9
308.79 269.20 1527.0
277.21 238.61 1353.4
285.58 242.74 1376.9
316.14 265.40 1505.4
285.66 236.89 1343.7
262.25 214.86 1218.7
-745.07 337.30 1941.8
-672.82 306.66 1765.4
-739.04 339.15 1952.4
-729.09 339.23 1952.9
-712.27 333.72 1921.2
-661.84 312.28 1797.8
-631.29 299.97 1726.9
-651.56 311.82 1795.1
-641.74 309.33 1780.8
-634.31 307.96 1772.9
-626.92 306.59 1765.0
-590.02 290.67 1673.4
-589.40 292.52 1684.0
-602.99 301.49 1735.7
-601.85 303.19 1745.4
-601.30 305.21 1757.0
-584.19 298.79 1720.1
-572.30 294.96 1698.0
-574.59 298.43 1718.0
-550.37 288.08 1658.5
-521.18 274.95 1582.9
-524.51 278.90 1605.6
-538.68 288.73 1662.2
-520.87 281.44 1620.2
-488.27 265.97 1531.2
-483.17 265.35 1527.6
-503.18 278.62 1604.0
-513.15 286.51 1649.4
-499.64 281.31 1619.5
-477.33 271.02 1560.3
-449.85 257.60 1483.0
-447.73 258.60 1488.8
-460.25 268.14 1543.7
-463.55 272.44 1568.4
-455.91 270.32 1556.2
-442.01 264.42 1522.2
-443.54 267.72 1541.3
-446.60 272.02 1566.0
-430.50 264.62 1523.4
-418.32 259.51 1494.0
-424.47 265.79 1530.1
-421.82 266.62 1534.9
-404.12 257.87 1484.5
-387.69 249.76 1437.9
-375.81 244.46 1407.3
-365.83 240.30 1383.4
-362.97 240.78 1386.2
-369.00 247.23 1423.3
-373.14 252.53 1453.8
-371.29 253.84 1461.4
-356.90 246.52 1419.2
-344.38 240.35 1383.7
-352.08 248.31 1429.5
-355.35 253.28 1458.1
-342.75 246.93 1421.6
-330.11 240.41 1384.0
-322.86 237.71 1368.5
-328.45 244.51 1407.7
-343.38 258.50 1488.2
-346.07 263.49 1516.9
-333.43 256.78 1478.3
-319.05 248.56 1430.9
-312.75 246.52 1419.2
-308.60 246.15 1417.0
-304.67 245.94 1415.9
-302.59 247.24 1423.3
-299.86 248.04 1427.9
-291.11 243.80 1403.5
-283.26 240.23 1383.0
-294.07 252.60 1454.2
-294.31 256.08 1474.3
-273.85 241.42 1389.9
-263.04 234.98 1352.8
-261.33 236.61 1362.1
-262.31 240.75 1386.0
-261.19 243.05 1399.2
-254.29 239.96 1381.4
-250.47 239.73 1380.1
-251.34 244.05 1405.0
-252.59 248.88 1432.8
-250.50 250.50 1442.1
-245.70 249.43 1435.9
-242.57 250.04 1439.4
-230.71 241.53 1390.4
-215.12 228.78 1317.1
-211.79 228.87 1317.6
-212.15 233.02 1341.5
-212.24 237.00 1364.4
-212.06 240.81 1386.4
-209.13 241.58 1390.8
-208.91 245.57 1413.7
-209.85 251.08 1445.4
-206.60 251.67 1448.9
-206.33 256.00 1473.8
-207.94 262.87 1513.3
-205.01 264.15 1520.7
-200.23 263.05 1514.3
-190.03 254.64 1466.0
-179.71 245.72 1414.6
-176.95 246.99 1421.9
-173.91 247.91 1427.2
-170.03 247.65 1425.7
-166.49 247.89 1427.1
-166.41 253.40 1458.8
-169.12 263.51 1517.0
-164.38 262.22 1509.6
-155.09 253.44 1459.1
-152.77 255.89 1473.2
-154.94 266.18 1532.4
-154.29 272.03 1566.1
-148.01 268.01 1542.9
-137.26 255.46 1470.7
-132.86 254.33 1464.1
-133.33 262.74 1512.6
-129.94 263.82 1518.8
-127.50 266.95 1536.8
-125.19 270.58 1557.7
-118.89 265.52 1528.6
-110.15 254.47 1465.0
-102.09 244.28 1406.3
-98.18 243.64 1402.6
-97.35 250.85 1444.1
-96.10 257.56 1482.7
-92.64 258.62 1488.9
-86.74 252.68 1454.7
-84.10 256.14 1474.6
-82.01 261.64 1506.2
-76.53 256.38 1475.9
-72.81 256.75 1478.1
-69.54 258.83 1490.1
-65.07 256.47 1476.5
-61.17 256.16 1474.7
-58.00 259.09 1491.6
-55.32 264.76 1524.2
-50.84 262.04 1508.6
-45.62 254.71 1466.3
-42.78 260.54 1499.9
-40.27 269.80 1553.2
-36.18 269.30 1550.4
-31.40 262.99 1514.0
-27.66 264.71 1523.9
-24.63 274.99 1583.1
-20.51 274.83 1582.2
-16.02 268.34 1544.8
-11.76 262.69 1512.3
-7.79 260.82 1501.5
-4.02 269.03 1548.8
0.00 275.54 1586.2
4.10 274.51 1580.3
8.08 270.57 1557.7
12.33 275.36 1585.2
17.00 284.76 1639.4
21.76 291.60 1678.7
26.51 296.04 1704.3
30.41 291.06 1675.6
34.22 286.60 1649.9
38.86 289.32 1665.6
43.38 290.67 1673.4
48.00 292.36 1683.1
52.45 292.86 1686.0
55.19 284.45 1637.6
58.82 281.52 1620.7
64.36 287.48 1655.0
65.79 275.48 1585.9
67.76 267.07 1537.5
75.14 279.69 1610.2
82.75 291.79 1679.8
90.25 302.35 1740.6
96.90 309.15 1779.8
99.31 302.44 1741.1
103.75 302.23 1739.9
113.32 316.36 1821.3
112.86 302.47 1741.3
107.62 277.32 1596.5
114.42 283.93 1634.6
121.28 290.20 1670.7
125.14 289.12 1664.4
135.24 302.03 1738.8
130.96 283.04 1629.4
124.40 260.46 1499.5
141.95 288.21 1659.2
161.16 299.94 1726.7
143.40 259.66 1494.9
139.99 246.82 1420.9
139.97 240.46 1384.3
143.52 240.40 1384.0
161.45 263.83 1518.8
149.66 238.74 1374.4
128.61 200.40 1153.7
135.25 205.96 1185.7
159.19 237.01 1364.4
163.61 238.30 1371.9
166.76 237.72 1368.5
186.93 260.92 1502.1
183.68 251.16 1445.9
175.84 235.63 1356.5
157.73 207.21 1192.9
146.81 189.16 1089.0
165.41 209.11 1203.8
183.24 227.35 1308.8
175.71 214.05 1232.3
164.82 197.20 1135.3
166.84 196.11 1129.0
182.90 211.28 1216.3
193.28 219.49 1263.6
203.45 227.19 1307.9
210.00 230.65 1327.9
200.53 216.70 1247.5
191.45 203.61 1172.1
195.70 204.87 1179.4
211.78 218.30 1256.7
228.25 231.71 1333.9
250.33 250.33 1441.2
259.32 251.80 1449.6
223.89 214.29 1233.7
206.64 195.00 1122.6
225.01 209.39 1205.4
250.03 229.48 1321.1
255.94 231.73 1334.0
257.96 230.44 1326.6
245.65 216.56 1246.7
243.36 211.75 1219.0
279.81 240.35 1383.7
291.76 247.45 1424.5
292.71 245.14 1411.3
317.49 262.62 1511.9
321.45 262.65 1512.1
-694.52 311.83 1822.4
-723.59 327.10 1911.6
-735.59 337.14 1970.3
-719.75 332.19 1941.4
-673.69 313.12 1829.9
-634.24 296.88 1735.0
-645.75 304.42 1779.1
-650.36 308.80 1804.7
-655.51 313.51 1832.2
-649.30 312.80 1828.1
-610.60 296.32 1731.8
-592.57 289.70 1693.1
-590.91 291.04 1700.9
-606.91 301.17 1760.1
-623.91 311.95 1823.1
-596.73 305.30 1784.2
-546.85 281.97 1647.9
-515.21 267.75 1564.7
-515.21 269.87 1577.2
-532.50 281.16 1643.1
-518.66 276.06 1613.3
-490.27 263.07 1537.4
-487.53 263.74 1541.4
-489.79 267.16 1561.3
-482.57 265.42 1551.1
-480.06 266.25 1556.0
-467.99 261.76 1529.7
-443.72 250.31 1462.8
-443.93 252.58 1476.1
-457.61 262.63 1534.8
-462.89 267.99 1566.2
-456.37 266.55 1557.8
-443.56 261.38 1527.6
-429.25 255.23 1491.6
-417.28 250.37 1463.2
-420.20 254.44 1487.0
-426.47 260.62 1523.1
-418.57 258.19 1508.9
-403.16 251.03 1467.0
-400.14 251.51 1469.9
-397.86 252.49 1475.6
-387.16 248.08 1449.8
-377.84 244.48 1428.8
-369.12 241.21 1409.6
-370.39 244.46 1428.7
-371.57 247.72 1447.7
-366.83 247.05 1443.8
-364.26 247.85 1448.5
-363.11 249.64 1458.9
-359.54 249.78 1459.8
-351.29 246.65 1441.5
-343.82 244.00 1426.0
-336.66 241.51 1411.4
-330.69 239.84 1401.7
-337.55 247.54 1446.7
-345.30 256.06 1496.5
-340.51 255.38 1492.5
-330.10 250.42 1463.5
-317.68 243.80 1424.8
-311.82 242.12 1415.0
-308.10 242.08 1414.7
-306.87 244.02 1426.1
-307.43 247.45 1446.1
-305.66 249.06 1455.5
-297.44 245.38 1434.1
-282.39 235.92 1378.7
-286.38 242.32 1416.2
-298.29 255.68 1494.2
-288.46 250.50 1464.0
-269.36 237.04 1385.3
-260.13 232.01 1355.9
-265.72 240.24 1404.0
-268.54 246.16 1438.6
-257.79 239.63 1400.4
-250.75 236.42 1381.7
-247.97 237.19 1386.2
-245.68 238.45 1393.6
-247.40 243.71 1424.3
-245.97 245.97 1437.5
-239.73 243.41 1422.6
-224.68 231.70 1354.1
-214.10 224.30 1310.8
-215.79 229.72 1342.5
-215.48 233.14 1362.5
-214.60 236.06 1379.6
-213.49 238.82 1395.7
-209.66 238.58 1394.3
-202.08 233.99 1367.5
-196.20 231.24 1351.4
-200.98 241.17 1409.5
-208.88 255.29 1492.0
-204.00 254.04 1484.7
-194.82 247.27 1445.1
-193.46 250.37 1463.2
-186.44 246.10 1438.2
-177.80 239.48 1399.6
-176.41 242.57 1417.6
-173.51 243.65 1423.9
-169.52 243.22 1421.4
-165.99 243.46 1422.8
-166.15 249.23 1456.5
-165.15 253.49 1481.4
-156.45 245.84 1436.7
-153.80 247.59 1446.9
-158.02 260.74 1523.8
-156.89 265.50 1551.6
-153.10 265.91 1554.0
-148.82 265.47 1551.4
-139.98 256.63 1499.8
-132.56 249.97 1460.9
-130.19 252.71 1476.9
-126.47 252.94 1478.2
-123.72 255.17 1491.3
-123.83 263.63 1540.7
-119.78 263.52 1540.0
-112.85 256.84 1501.0
-105.98 249.82 1460.0
-99.74 243.81 1424.9
-96.73 245.53 1434.9
-94.68 249.95 1460.7
-90.35 248.48 1452.1
-85.55 245.48 1434.6
-84.03 252.09 1473.2
-84.72 266.27 1556.1
-81.62 269.34 1574.0
-75.65 262.80 1535.8
-70.35 257.95 1507.5
-65.32 253.59 1482.0
-60.91 251.26 1468.4
-57.84 254.49 1487.3
-55.24 260.41 1521.9
-51.93 263.64 1540.7
-47.72 262.48 1534.0
-43.05 258.28 1509.5
-38.93 256.95 1501.7
-35.62 261.18 1526.4
-31.52 260.02 1519.6
-27.01 254.64 1488.1
-23.49 258.36 1509.9
-20.03 264.44 1545.4
-16.04 264.61 1546.4
-11.93 262.43 1533.7
-8.00 264.12 1543.5
-4.10 270.36 1580.0
0.00 275.42 1609.6
4.19 276.26 1614.5
8.33 274.74 1605.6
12.61 277.44 1621.4
17.24 284.51 1662.7
21.45 283.16 1654.8
25.42 279.61 1634.1
29.55 278.58 1628.1
33.70 278.06 1625.0
37.98 278.55 1627.9
42.02 277.35 1620.9
47.18 283.07 1654.3
52.32 287.77 1681.8
57.74 293.14 1713.1
64.61 304.57 1780.0
68.53 301.51 1762.1
68.14 281.09 1642.7
69.66 270.44 1580.5
76.51 280.52 1639.4
83.41 289.75 1693.4
89.94 296.79 1734.5
97.53 306.52 1791.3
101.26 303.78 1775.4
97.93 281.01 1642.3
97.88 269.18 1573.1
112.98 298.26 1743.1
129.41 316.33 1848.7
130.11 306.68 1792.3
126.60 288.12 1683.8
126.97 279.32 1632.4
135.67 288.85 1688.1
143.93 296.86 1734.9
151.76 303.52 1773.8
154.45 283.16 1654.9
154.75 276.05 1613.3
156.30 239.91 1402.1
156.99 235.48 1376.2
182.10 267.08 1560.9
175.70 252.10 1473.3
169.69 238.29 1392.6
183.48 252.28 1474.4
179.41 241.66 1412.3
174.27 230.04 1344.4
178.09 230.46 1346.9
178.22 226.21 1322.0
179.04 222.96 1303.0
179.90 219.87 1285.0
184.28 221.13 1292.3
180.34 212.54 1242.1
170.95 197.94 1156.8
177.84 202.37 1182.7
187.10 209.30 1223.2
195.81 215.39 1258.8
207.78 224.81 1313.8
202.49 215.56 1259.7
198.21 207.65 1213.5
210.63 217.22 1269.4
212.03 215.30 1258.2
212.55 212.55 1242.1
210.78 207.63 1213.4
206.82 200.73 1173.1
224.87 215.10 1257.1
223.81 211.02 1233.2
213.51 198.48 1159.9
241.76 221.61 1295.1
267.56 241.90 1413.7
272.96 243.45 1422.7
279.15 245.65 1435.6
268.06 232.79 1360.4
248.09 212.65 1242.8
261.16 220.98 1291.5
284.37 237.57 1388.4
306.85 253.15 1479.5
308.50 251.37 1469.1
288.16 231.93 1355.4
312.89 248.80 1454.0
-714.10 322.34 1912.8
-685.00 311.36 1847.7
-686.57 314.28 1864.9
-687.04 316.72 1879.5
-682.73 316.98 1881.0
-673.38 314.89 1868.6
-626.15 294.93 1750.1
-577.48 273.99 1625.9
-579.31 276.88 1643.0
-595.08 286.52 1700.2
-575.90 279.36 1657.7
-574.63 280.83 1666.5
-587.38 289.24 1716.4
-580.84 288.20 1710.2
-585.36 292.68 1736.8
-565.02 284.70 1689.4
-532.45 270.38 1604.5
-515.41 263.79 1565.4
-512.34 264.30 1568.4
-525.40 273.21 1621.2
-521.28 273.25 1621.5
-502.46 265.53 1575.6
-481.76 256.68 1523.1
-466.04 250.35 1485.6
-472.50 255.94 1518.7
-482.57 263.59 1564.2
-478.57 263.62 1564.3
-461.95 256.64 1522.9
-448.37 251.24 1490.9
-449.33 253.97 1507.1
-454.96 259.41 1539.3
-449.34 258.47 1533.8
-433.28 251.46 1492.2
-414.41 242.67 1440.0
-411.22 242.99 1441.9
-421.98 251.64 1493.2
-418.65 251.97 1495.2
-402.12 244.28 1449.6
-387.11 237.38 1408.6
-383.96 237.69 1410.5
-390.06 243.78 1446.6
-388.84 245.39 1456.1
-382.78 243.93 1447.5
-377.52 242.96 1441.7
-371.28 241.34 1432.1
-364.85 239.55 1421.5
-361.14 239.53 1421.4
-360.08 241.29 1431.8
-352.53 238.69 1416.4
-342.69 234.47 1391.4
-344.19 238.00 1412.3
-346.50 242.18 1437.1
-346.87 245.07 1454.3
-348.73 249.09 1478.1
-331.64 239.52 1421.3
-314.60 229.76 1363.4
-317.60 234.59 1392.1
-314.38 234.88 1393.8
-313.73 237.12 1407.1
-321.07 245.53 1457.0
-310.75 240.46 1426.9
-302.64 237.01 1406.4
-305.10 241.85 1435.1
-305.18 244.90 1453.2
-302.37 245.67 1457.8
-291.81 240.09 1424.7
-284.34 236.95 1406.1
-285.28 240.82 1429.0
-283.43 242.40 1438.4
-271.54 235.34 1396.5
-261.17 229.41 1361.3
-266.57 237.35 1408.5
-278.79 251.68 1493.5
-276.82 253.43 1503.9
-258.95 240.46 1426.9
-245.64 231.40 1373.1
-243.90 233.14 1383.5
-246.32 238.97 1418.1
-252.40 248.57 1475.1
-252.28 252.28 1497.1
-239.30 243.04 1442.2
-232.32 239.69 1422.4
-221.99 232.73 1381.0
-209.87 223.63 1327.0
-216.51 234.56 1391.9
-222.53 245.16 1454.8
-219.28 245.75 1458.3
-212.84 242.71 1440.3
-204.79 237.70 1410.5
-207.89 245.68 1457.9
-207.87 250.21 1484.8
-195.23 239.43 1420.8
-189.11 236.38 1402.7
-190.96 243.38 1444.2
-185.12 240.66 1428.1
-177.25 235.13 1395.3
-177.22 239.99 1424.1
-175.37 242.53 1439.2
-170.17 240.46 1426.9
-165.72 239.38 1420.5
-164.99 243.74 1446.4
-163.04 246.45 1462.4
-155.55 240.73 1428.5
-154.18 244.43 1450.5
-157.48 255.91 1518.6
-155.47 259.11 1537.6
-148.33 253.72 1505.6
-140.88 247.49 1468.6
-140.31 253.34 1503.4
-139.92 259.86 1542.0
-136.22 260.41 1545.3
-131.31 258.65 1534.8
-125.49 254.89 1512.5
-123.01 257.93 1530.6
-121.36 262.95 1560.4
-116.67 261.51 1551.8
-107.17 248.79 1476.4
-98.34 236.74 1404.8
-96.63 241.58 1433.6
-95.93 249.42 1480.1
-91.74 248.46 1474.4
-87.23 246.51 1462.8
-84.85 250.69 1487.6
-84.70 262.18 1555.8
-81.35 264.37 1568.8
-74.96 256.44 1521.7
-71.07 256.64 1522.9
-67.39 257.66 1529.0
-62.25 252.87 1500.6
-58.59 253.90 1506.6
-54.19 251.59 1493.0
-49.29 246.47 1462.6
-46.15 249.98 1483.4
-42.36 250.33 1485.5
-38.72 251.67 1493.4
-35.82 258.67 1534.9
-31.76 258.02 1531.1
-27.27 253.21 1502.6
-23.68 256.54 1522.4
-20.20 262.54 1557.9
-16.23 263.71 1564.9
-12.11 262.38 1557.0
-8.00 259.90 1542.2
-4.04 262.56 1558.0
0.00 270.70 1606.4
4.23 275.19 1633.0
8.52 277.01 1643.8
13.06 282.99 1679.3
17.47 283.81 1684.2
21.27 276.49 1640.7
25.57 276.98 1643.6
30.15 279.96 1661.3
33.68 273.63 1623.8
37.15 268.30 1592.1
42.07 273.44 1622.6
48.21 284.88 1690.5
52.90 286.52 1700.2
57.63 288.16 1709.9
63.13 293.11 1739.3
65.49 283.79 1684.0
69.97 284.25 1686.8
77.51 296.34 1758.5
83.76 302.45 1794.8
89.37 305.73 1814.3
93.09 302.54 1795.3
97.41 301.51 1789.2
101.70 300.47 1783.0
99.44 281.02 1667.6
100.01 270.86 1607.3
114.81 298.51 1771.4
129.32 311.34 1847.5
130.66 303.32 1800.0
128.06 287.03 1703.2
123.73 268.08 1590.8
125.62 263.39 1563.0
133.07 270.30 1604.0
142.16 280.01 1661.6
146.43 279.95 1661.2
141.97 263.66 1564.6
141.32 255.16 1514.2
157.55 276.78 1642.4
163.03 278.86 1654.8
160.82 268.04 1590.6
132.44 200.20 1188.0
134.14 198.16 1175.9
159.66 230.63 1368.5
171.57 242.44 1438.7
182.65 252.60 1498.9
171.74 232.56 1380.0
153.26 203.31 1206.4
152.66 198.46 1177.7
159.54 203.34 1206.6
169.07 211.34 1254.1
178.31 218.68 1297.7
190.23 228.98 1358.8
202.46 239.27 1419.8
214.99 249.54 1480.8
199.92 224.05 1329.5
186.29 205.23 1217.9
196.35 212.71 1262.2
209.10 222.81 1322.2
206.65 216.65 1285.6
206.08 212.62 1261.7
212.98 216.31 1283.6
209.99 209.99 1246.1
208.47 205.32 1218.4
204.79 198.68 1179.0
194.57 185.99 1103.7
201.34 189.67 1125.5
231.30 214.78 1274.5
259.32 237.41 1408.8
260.68 235.34 1396.5
252.99 225.27 1336.7
264.52 232.35 1378.8
279.26 242.03 1436.2
293.15 250.72 1487.8
294.94 248.97 1477.4
288.26 240.21 1425.4
294.78 242.54 1439.2
314.33 249.16 1478.6
-831.58 347.85 2096.4
-831.21 349.98 2109.3
-751.38 322.74 1945.1
-736.11 324.90 1958.1
-695.70 309.20 1863.5
-671.17 300.39 1810.4
-671.81 302.79 1824.8
-657.45 298.42 1798.5
-638.15 291.72 1758.2
-650.51 299.52 1805.1
-624.72 289.73 1746.1
-587.62 274.51 1654.4
-600.88 282.77 1704.2
-596.28 282.68 1703.7
-558.94 266.96 1608.9
-553.27 266.23 1604.5
-561.05 272.02 1639.4
-553.10 270.22 1628.5
-555.29 273.38 1647.6
-548.62 272.19 1640.4
-528.29 264.15 1592.0
-521.78 262.95 1584.7
-529.72 269.06 1621.6
-520.73 266.61 1606.8
-496.69 256.36 1545.0
-511.65 266.23 1604.5
-523.05 274.39 1653.7
-487.21 257.70 1553.1
-475.03 253.35 1526.9
-475.19 255.56 1540.2
-462.00 250.57 1510.2
-451.24 246.83 1487.6
-443.43 244.65 1474.4
-442.17 246.08 1483.0
-445.62 250.17 1507.7
-433.13 245.31 1478.5
-408.66 233.52 1407.4
-400.92 231.16 1393.1
-409.22 238.09 1434.9
-415.97 244.24 1472.0
-408.96 242.35 1460.6
-391.72 234.30 1412.1
-376.01 227.02 1368.2
-374.78 228.44 1376.7
-381.73 234.91 1415.7
-385.68 239.65 1444.3
-385.96 242.17 1459.5
-375.16 237.73 1432.7
-363.25 232.48 1401.1
-353.46 228.50 1377.1
-345.97 225.94 1361.7
-350.35 231.16 1393.1
-348.37 232.25 1399.7
-340.23 229.21 1381.4
-343.86 234.11 1411.0
-344.79 237.28 1430.0
-343.80 239.16 1441.4
-348.64 245.20 1477.8
-334.01 237.52 1431.5
-312.95 225.04 1356.3
-311.58 226.60 1365.7
-313.64 230.72 1390.5
-318.79 237.24 1429.8
-323.96 243.93 1470.1
-311.50 237.33 1430.4
-301.93 232.81 1403.1
-303.37 236.78 1427.0
-300.64 237.54 1431.6
-295.07 236.06 1422.7
-284.80 230.72 1390.5
-278.00 228.11 1374.7
-275.73 229.18 1381.2
-270.38 227.68 1372.2
-274.48 234.22 1411.6
-280.43 242.54 1461.7
-274.94 241.04 1452.7
-276.73 245.98 1482.5
-282.12 254.30 1532.6
-270.87 247.65 1492.5
-253.91 235.51 1419.4
-249.99 235.29 1418.0
-257.06 245.55 1479.9
-253.78 253.78 1529.5
-241.32 245.15 1477.5
-225.53 232.80 1403.0
-211.65 222.06 1338.3
-218.42 232.98 1404.1
-226.20 245.37 1478.8
-224.51 247.73 1493.0
-217.26 243.94 1470.1
-208.13 237.87 1433.6
-207.69 241.68 1456.5
-203.99 241.76 1457.1
-194.91 235.36 1418.5
-192.61 237.06 1428.7
-192.59 241.68 1456.6
-184.56 236.24 1423.8
-176.83 230.96 1391.9
-177.29 236.39 1424.7
-175.80 239.39 1442.7
-170.71 237.51 1431.4
-169.34 240.83 1451.4
-171.66 249.68 1504.8
-168.46 250.73 1511.1
-160.00 243.80 1469.3
-151.95 237.19 1429.5
-149.20 238.72 1438.7
-148.29 243.34 1466.6
-142.20 239.49 1443.4
-136.61 236.29 1424.1
-137.62 244.66 1474.5
-139.98 255.97 1542.7
-138.61 260.92 1572.5
-133.39 258.69 1559.1
-127.41 254.83 1535.8
-123.06 254.06 1531.2
-119.88 255.75 1541.3
-116.13 256.29 1544.6
-107.43 245.56 1479.9
-99.20 235.15 1417.2
-98.13 241.56 1455.8
-98.27 251.57 1516.1
-94.90 253.08 1525.2
-88.85 247.23 1490.0
-85.22 247.92 1494.2
-83.83 255.48 1539.7
-79.23 253.55 1528.1
-73.44 247.37 1490.8
-70.27 249.85 1505.8
-66.77 251.35 1514.8
-61.78 247.13 1489.4
-57.62 245.84 1481.6
-52.78 241.29 1454.2
-48.62 239.34 1442.5
-46.17 246.23 1484.0
-43.53 253.29 1526.5
-40.83 261.32 1574.9
-36.75 261.34 1575.0
-31.65 253.17 1525.8
-27.96 255.64 1540.7
-25.01 266.78 1607.8
-21.02 269.08 1621.7
-16.65 266.47 1606.0
-12.45 265.66 1601.1
-8.25 263.86 1590.2
-4.03 257.81 1553.8
0.00 257.32 1550.8
4.18 267.63 1612.9
8.60 275.32 1659.3
13.11 279.73 1685.9
17.42 278.75 1679.9
21.92 280.54 1690.7
27.19 290.02 1747.9
31.34 286.57 1727.1
34.16 273.30 1647.1
37.90 269.52 1624.4
43.11 275.89 1662.7
49.36 287.16 1730.6
54.11 288.61 1739.4
58.22 286.62 1727.4
62.87 287.42 1732.2
66.44 283.46 1708.4
72.58 290.30 1749.6
79.80 300.41 1810.5
85.63 304.46 1834.9
88.29 297.40 1792.4
88.33 282.65 1703.5
96.59 294.38 1774.2
105.67 307.41 1852.7
106.35 295.93 1783.5
110.10 293.59 1769.4
114.03 291.91 1759.3
113.13 278.47 1678.3
118.70 281.36 1695.7
125.43 286.70 1727.9
125.75 277.51 1672.5
124.78 266.19 1604.3
124.49 257.00 1548.9
128.88 257.77 1553.5
136.41 264.56 1594.5
140.43 264.34 1593.1
138.20 252.71 1523.0
137.99 245.31 1478.4
144.99 250.80 1511.5
140.26 236.23 1423.7
136.97 224.77 1354.7
166.09 265.75 1601.6
174.37 272.19 1640.5
126.67 193.02 1163.3
174.90 254.40 1533.2
189.69 269.78 1625.9
188.35 262.06 1579.4
177.35 241.50 1455.5
153.65 204.87 1234.7
163.65 213.74 1288.2
188.88 241.76 1457.1
168.79 211.82 1276.6
157.81 194.22 1170.5
175.83 212.33 1279.6
193.18 228.95 1379.9
198.36 230.82 1391.1
206.57 236.08 1422.8
210.33 236.16 1423.3
189.00 208.55 1256.9
190.09 206.20 1242.7
214.17 228.45 1376.8
227.99 239.20 1441.6
226.31 233.61 1407.9
225.26 228.83 1379.1
233.75 233.75 1408.7
226.15 222.67 1342.0
219.71 213.05 1284.0
217.71 207.96 1253.3
210.07 197.71 1191.6
213.07 197.63 1191.1
239.15 218.65 1317.7
264.79 238.68 1438.5
262.06 232.94 1403.9
244.10 214.01 1289.8
242.50 209.73 1264.0
257.71 219.92 1325.4
277.24 233.47 1407.1
301.63 250.70 1510.9
302.03 244.68 1474.6
301.09 240.87 1451.7
-754.50 319.02 1953.2
-689.16 293.36 1796.1
-691.85 298.54 1827.8
-734.99 319.34 1955.1
-710.48 310.83 1903.1
-696.50 306.85 1878.7
-688.45 305.44 1870.0
-665.49 297.35 1820.5
-629.95 283.48 1735.6
-626.96 284.16 1739.8
-626.28 285.91 1750.5
-609.01 280.06 1714.6
-606.69 281.04 1720.7
-587.69 274.25 1679.1
-563.36 264.86 1621.6
-571.52 270.72 1657.5
-579.82 276.73 1694.3
-573.01 275.57 1687.2
-554.56 268.75 1645.4
-526.89 257.32 1575.4
-525.38 258.59 1583.2
-538.05 266.91 1634.1
-535.75 267.87 1640.0
-517.27 260.70 1596.1
-502.62 255.36 1563.5
-526.55 269.70 1651.2
-523.48 272.56 1668.7
-482.84 253.49 1552.0
-457.31 242.11 1482.3
-450.90 240.73 1473.9
-447.39 240.90 1474.9
-446.16 242.31 1483.5
-451.37 247.27 1513.9
-452.23 249.92 1530.1
-436.35 243.28 1489.4
-418.19 235.23 1440.2
-416.92 236.63 1448.7
-416.42 238.49 1460.2
-414.79 239.74 1467.8
-405.13 236.32 1446.9
-386.32 227.46 1392.6
-377.46 224.34 1373.5
-382.71 229.62 1405.9
-388.05 235.07 1439.2
-389.91 238.49 1460.1
-394.45 243.63 1491.6
-388.82 242.53 1484.9
-364.14 229.41 1404.5
-341.08 217.05 1328.9
-333.46 214.36 1312.4
-337.72 219.34 1342.9
-348.75 228.87 1401.2
-354.53 235.11 1439.5
-342.59 229.61 1405.8
-327.80 222.06 1359.5
-326.75 223.75 1369.9
-330.86 229.06 1402.4
-335.27 234.69 1436.9
-332.84 235.60 1442.5
-321.15 229.91 1407.6
-313.11 226.74 1388.2
-311.18 227.96 1395.7
-308.58 228.71 1400.3
-307.21 230.41 1410.7
-308.91 234.47 1435.5
-312.32 239.96 1469.1
-311.92 242.60 1485.3
-298.60 235.15 1439.7
-280.95 224.05 1371.7
-274.20 221.47 1355.9
-272.17 222.68 1363.4
-268.77 222.79 1364.0
-275.34 231.29 1416.1
-279.24 237.73 1455.5
-271.37 234.20 1433.9
-267.05 233.67 1430.6
-266.86 236.79 1449.7
-268.16 241.34 1477.6
-264.09 241.13 1476.3
-251.98 233.45 1429.3
-252.27 237.21 1452.3
-253.10 241.60 1479.2
-242.32 234.86 1437.9
-242.41 238.62 1460.9
-243.49 243.49 1490.7
-237.06 240.88 1474.8
-231.47 239.06 1463.6
-226.10 237.40 1453.5
-222.71 237.81 1456.0
-215.35 233.91 1432.1
-202.77 224.11 1372.1
-201.41 226.59 1387.3
-208.20 238.48 1460.1
-208.86 243.67 1491.9
-203.86 242.32 1483.6
-196.38 237.93 1456.7
-192.02 237.21 1452.3
-186.80 235.36 1441.0
-181.88 233.84 1431.7
-184.07 241.59 1479.1
-183.99 246.63 1510.0
-175.46 240.30 1471.2
-171.35 239.89 1468.7
-168.71 241.56 1478.9
-160.87 235.70 1443.1
-157.18 235.76 1443.5
-153.68 236.15 1445.8
-150.48 237.01 1451.1
-149.24 241.08 1476.0
-143.61 238.09 1457.7
-138.45 235.74 1443.3
-137.40 240.46 1472.2
-138.17 248.70 1522.6
-132.95 246.35 1508.2
-123.93 236.60 1448.6
-121.18 238.58 1460.7
-119.79 243.45 1490.5
-115.34 242.21 1482.9
-110.55 240.17 1470.4
-108.12 243.27 1489.4
-105.38 245.88 1505.4
-100.37 243.19 1488.9
-96.97 244.36 1496.1
-93.17 244.56 1497.3
-86.77 237.68 1455.2
-83.29 238.52 1460.3
-82.15 246.44 1508.8
-78.30 246.63 1510.0
-73.23 242.80 1486.5
-69.61 243.63 1491.6
-65.79 243.82 1492.8
-62.13 244.65 1497.9
-59.10 248.22 1519.7
-55.56 250.02 1530.7
-52.59 254.87 1560.4
-47.94 251.67 1540.8
-43.33 248.15 1519.3
-39.77 250.58 1534.2
-34.97 244.79 1498.7
-30.82 242.71 1486.0
-28.01 252.07 1543.3
-24.88 261.27 1599.6
-20.77 261.76 1602.6
-16.36 257.74 1578.0
-12.18 255.81 1566.2
-8.23 259.36 1587.9
-4.11 258.72 1584.0
0.00 256.63 1571.2
4.21 265.01 1622.5
8.66 272.74 1669.9
13.19 277.09 1696.5
17.37 273.54 1674.7
21.64 272.72 1669.7
27.20 285.61 1748.6
31.75 285.76 1749.5
34.59 272.37 1667.5
38.35 268.48 1643.8
42.54 267.98 1640.7
47.46 271.83 1664.3
53.37 280.19 1715.4
58.91 285.48 1747.9
64.62 290.77 1780.3
69.34 291.23 1783.0
74.16 292.01 1787.8
79.74 295.52 1809.3
81.34 284.70 1743.0
79.54 263.73 1614.7
83.10 261.76 1602.6
95.18 285.55 1748.3
106.11 303.86 1860.4
109.21 299.15 1831.5
110.33 289.61 1773.1
110.88 279.43 1710.8
112.31 272.14 1666.2
121.37 283.19 1733.8
129.56 291.50 1784.7
131.35 285.34 1747.0
134.86 283.20 1733.9
139.24 282.98 1732.5
146.64 288.71 1767.6
158.18 301.98 1848.8
158.95 294.52 1803.2
152.35 274.23 1678.9
140.52 245.91 1505.6
133.55 227.40 1392.2
143.23 237.45 1453.8
154.50 249.58 1528.1
166.26 261.87 1603.3
158.38 243.36 1490.0
134.31 201.46 1233.5
150.16 220.00 1346.9
189.60 254.15 1556.0
170.42 223.67 1369.4
186.48 239.76 1467.9
181.41 224.10 1372.0
161.30 195.42 1196.5
173.08 205.74 1259.6
180.94 211.10 1292.4
178.65 204.64 1252.9
190.20 213.98 1310.1
195.98 216.61 1326.2
196.27 213.19 1305.2
217.04 231.75 1418.9
227.77 239.16 1464.2
226.69 234.13 1433.4
222.64 226.23 1385.1
219.78 219.78 1345.6
238.85 235.12 1439.5
240.35 232.95 1426.3
228.46 218.07 1335.2
224.73 211.31 1293.7
221.81 205.50 1258.2
230.71 210.65 1289.7
245.24 220.71 1351.3
252.20 223.79 1370.1
261.08 228.44 1398.6
255.58 220.57 1350.4
253.01 215.40 1318.8
264.60 222.27 1360.8
264.18 218.99 1340.8
269.85 220.79 1351.8
292.60 236.33 1446.9
278.97 222.47 1362.0
269.32 212.09 1298.5
309.48 240.71 1473.7
-827.82 337.66 2100.7
-717.04 300.38 1868.7
-656.45 276.87 1722.5
-714.50 303.42 1887.6
-721.45 310.63 1932.5
-699.85 303.43 1887.7
-684.94 299.06 1860.5
-674.22 296.47 1844.4
-650.76 288.19 1792.9
-627.19 279.75 1740.4
-608.53 273.40 1700.8
-583.42 264.03 1642.6
-571.73 260.64 1621.5
-595.09 273.30 1700.3
-610.61 282.52 1757.6
-594.93 277.34 1725.4
-582.27 273.49 1701.4
-575.13 272.20 1693.4
-557.29 265.78 1653.5
-534.61 256.94 1598.5
-538.34 260.76 1622.2
-548.45 267.75 1665.7
-544.54 267.95 1667.0
-518.37 257.11 1599.6
-495.85 247.93 1542.4
-503.63 253.86 1579.3
-509.73 259.05 1611.6
-499.12 255.75 1591.1
-473.62 244.70 1522.4
-460.98 240.17 1494.2
-466.39 245.05 1524.5
-461.05 244.32 1519.9
-458.00 244.79 1522.9
-455.78 245.72 1528.7
-449.60 244.52 1521.2
-439.30 241.03 1499.5
-426.34 236.01 1468.2
-427.73 238.91 1486.3
-429.04 241.82 1504.4
-427.04 242.90 1511.1
-417.00 239.39 1489.3
-401.53 232.66 1447.4
-396.46 231.89 1442.7
-382.85 226.06 1406.4
-370.96 221.15 1375.8
-377.57 227.27 1413.9
-386.52 234.94 1461.6
-371.70 228.17 1419.5
-345.51 218.59 1359.9
-345.32 220.72 1373.1
-353.18 228.10 1419.0
-354.43 231.31 1439.1
-337.81 222.81 1386.1
-326.07 217.38 1352.4
-327.33 220.59 1372.4
-332.35 226.44 1408.7
-337.42 232.44 1446.1
-342.07 238.30 1482.5
-337.32 237.66 1478.5
-319.75 227.87 1417.6
-307.87 221.95 1380.8
-309.98 226.10 1406.6
-313.01 231.03 1437.3
-306.53 228.98 1424.5
-301.15 227.70 1416.6
-309.40 236.83 1473.3
-304.33 235.86 1467.3
-285.42 224.00 1393.5
-278.03 221.00 1374.9
-271.31 218.46 1359.1
-262.95 214.51 1334.5
-266.59 220.38 1371.0
-268.00 224.54 1396.9
-265.42 225.42 1402.4
-266.62 229.59 1428.3
-258.03 225.32 1401.8
-251.86 223.08 1387.8
-262.29 235.68 1466.2
-263.91 240.63 1497.0
-253.38 234.47 1458.7
-243.71 228.94 1424.3
-236.34 225.43 1402.5
-240.24 232.73 1447.9
-235.47 231.73 1441.6
-222.89 222.89 1386.6
-219.07 222.66 1385.2
-215.71 222.90 1386.7
-220.11 231.31 1439.0
-219.70 234.85 1461.0
-203.86 221.74 1379.5
-200.21 221.66 1379.0
-201.87 227.56 1415.7
-197.31 226.54 1409.3
-200.98 235.11 1462.7
-201.74 240.54 1496.4
-195.73 237.94 1480.3
-189.41 234.87 1461.2
-180.08 227.86 1417.6
-178.05 229.98 1430.7
-177.50 234.15 1456.7
-169.10 227.91 1417.9
-167.18 230.34 1433.0
-166.54 234.67 1459.9
-159.19 229.53 1427.9
-155.85 230.06 1431.3
-153.85 232.65 1447.4
-151.97 235.55 1465.4
-150.00 238.46 1483.5
-143.67 234.41 1458.3
-137.66 230.67 1435.1
-136.17 234.52 1459.0
-128.50 227.62 1416.1
-126.46 245.01 1524.3
-122.53 245.06 1524.6
-115.62 238.94 1486.5
-112.67 240.88 1498.6
-112.02 248.05 1543.2
-108.46 249.05 1549.4
-102.60 244.66 1522.1
-95.35 236.46 1471.1
-88.24 227.94 1418.1
-84.75 228.45 1421.3
-83.83 236.25 1469.8
-82.29 242.94 1511.4
-77.97 241.71 1503.7
-73.40 239.52 1490.1
-70.24 241.92 1505.1
-67.25 245.28 1525.9
-64.41 249.59 1552.7
-61.08 252.47 1570.7
-57.27 253.60 1577.7
-53.61 255.69 1590.7
-48.29 249.52 1552.3
-42.50 239.55 1490.3
-38.05 235.91 1467.7
-34.73 239.26 1488.5
-31.84 246.73 1535.0
-27.91 247.22 1538.0
-23.99 247.87 1542.0
-19.86 246.29 1532.2
-15.48 239.95 1492.8
-11.82 244.24 1519.5
-8.21 254.40 1582.7
-4.21 260.91 1623.2
0.00 266.15 1655.7
4.36 270.27 1681.4
8.83 273.60 1702.1
13.29 274.71 1709.0
17.29 268.04 1667.5
21.33 264.54 1645.7
26.55 274.37 1706.9
31.53 279.27 1737.4
34.97 271.01 1686.0
39.61 272.90 1697.8
44.81 277.80 1728.2
48.30 272.23 1693.6
52.41 270.78 1684.6
55.84 266.32 1656.8
59.06 261.53 1627.1
65.34 270.07 1680.2
72.27 280.04 1742.2
76.78 280.01 1742.0
77.32 266.34 1657.0
80.10 261.39 1626.2
89.27 276.73 1721.6
95.54 282.09 1754.9
98.90 278.72 1734.0
105.50 284.38 1769.2
110.68 285.92 1778.8
114.76 284.61 1770.6
120.73 287.89 1791.0
119.83 275.17 1711.9
116.24 257.39 1601.3
121.70 260.19 1618.7
129.09 266.79 1659.7
137.01 274.01 1704.7
148.99 288.67 1795.9
159.27 290.44 1806.9
156.60 277.41 1725.8
150.40 259.02 1611.4
150.86 252.79 1572.7
168.65 275.16 1711.8
170.56 271.15 1686.9
172.55 267.45 1663.8
184.33 278.74 1734.1
183.54 270.93 1685.5
165.42 238.52 1483.9
162.29 228.67 1422.6
143.84 198.18 1232.9
154.09 203.26 1264.5
179.75 232.18 1444.5
188.05 237.94 1480.3
198.30 245.89 1529.7
178.38 216.85 1349.1
162.16 193.34 1202.8
173.15 202.55 1260.1
181.42 208.30 1295.9
175.24 197.54 1228.9
183.47 203.13 1263.7
201.84 219.54 1365.8
216.46 231.39 1439.5
217.43 228.48 1421.4
208.12 215.06 1337.9
203.95 207.29 1289.6
197.02 197.02 1225.7
191.21 188.17 1170.7
205.96 199.53 1241.3
225.84 215.41 1340.1
231.72 217.67 1354.2
228.03 211.01 1312.7
225.33 205.45 1278.1
226.46 203.48 1265.9
232.46 205.89 1280.9
238.71 208.45 1296.8
245.23 211.17 1313.7
244.11 207.33 1289.8
247.34 207.23 1289.2
264.33 218.51 1359.4
270.40 220.59 1372.3
268.41 216.12 1344.5
279.60 222.24 1382.6
275.11 215.91 1343.2
278.25 215.65 1341.6
314.28 240.56 1496.6
-753.36 306.37 1937.2
-739.27 304.70 1926.7
-688.74 285.81 1807.2
-729.11 304.63 1926.2
-712.37 301.77 1908.1
-689.44 294.10 1859.6
-653.40 280.69 1774.8
-624.54 270.19 1708.5
-635.47 276.88 1750.8
-642.17 281.82 1782.0
-651.73 288.08 1821.6
-651.49 290.08 1834.2
-601.87 269.96 1707.0
-590.40 266.77 1686.9
-588.76 268.02 1694.7
-558.71 256.25 1620.3
-552.06 255.12 1613.2
-551.80 256.95 1624.7
-554.96 260.41 1646.6
-552.68 261.35 1652.5
-530.75 252.94 1599.4
-517.41 248.52 1571.4
-535.53 259.26 1639.4
-531.37 259.31 1639.7
-488.77 240.44 1520.4
-477.37 236.75 1497.0
-490.54 245.27 1550.9
-487.76 245.90 1554.8
-477.32 242.64 1534.2
-477.76 244.90 1548.6
-479.29 247.77 1566.7
-470.11 245.10 1549.8
-452.47 237.94 1504.5
-436.45 231.51 1463.9
-433.52 231.97 1466.8
-425.28 229.58 1451.7
-418.22 227.78 1440.3
-424.61 233.35 1475.5
-422.97 234.55 1483.1
-418.06 233.96 1479.4
-415.83 234.87 1485.1
-407.23 232.16 1468.0
-401.59 231.10 1461.3
-388.97 225.97 1428.9
-373.67 219.17 1385.9
-376.18 222.79 1408.7
-372.00 222.47 1406.7
-345.30 208.55 1318.7
-349.20 215.16 1360.5
-360.97 224.69 1420.7
-361.84 227.55 1438.9
-355.22 225.72 1427.2
-342.51 219.93 1390.7
-336.06 218.08 1379.0
-333.84 218.97 1384.6
-326.77 216.66 1370.0
-322.95 216.48 1368.9
-332.38 225.28 1424.5
-341.54 234.09 1480.2
-338.55 234.67 1483.9
-321.83 225.65 1426.9
-301.32 213.72 1351.4
-296.27 212.62 1344.4
-302.40 219.60 1388.6
-298.54 219.41 1387.4
-290.17 215.86 1364.9
-294.90 222.09 1404.3
-304.05 231.84 1466.0
-298.62 230.58 1458.0
-289.11 226.10 1429.6
-279.35 221.30 1399.3
-260.57 209.14 1322.4
-255.76 208.01 1315.3
-254.33 209.65 1325.6
-246.78 206.21 1303.9
-248.77 210.76 1332.7
-242.38 208.25 1316.8
-239.25 208.49 1318.3
-252.99 223.66 1414.2
-270.19 242.38 1532.6
-262.97 243.05 1536.8
-254.99 239.30 1513.1
-245.35 233.85 1478.7
-226.96 219.75 1389.5
-208.86 205.49 1299.4
-201.72 201.72 1275.5
-215.04 218.62 1382.4
-212.03 226.91 1434.8
-200.29 218.18 1379.6
-195.39 216.71 1370.3
-186.29 210.44 1330.6
-186.27 214.38 1355.6
-199.58 234.12 1480.4
-192.92 235.36 1488.2
-178.41 222.10 1404.4
-171.90 218.45 1381.3
-166.81 216.50 1369.0
-163.66 217.03 1372.3
-167.14 226.56 1432.6
-169.63 235.17 1487.0
-164.83 233.83 1478.6
-159.87 232.19 1468.2
-156.52 232.87 1472.5
-152.34 232.31 1469.0
-148.47 232.22 1468.4
-142.47 228.70 1446.1
-136.77 225.49 1425.8
-136.96 232.08 1467.5
-130.51 227.46 1438.3
-122.69 226.78 1434.0
-129.45 246.76 1560.3
-124.40 244.79 1547.8
-117.96 239.85 1516.6
-115.46 242.86 1535.6
-114.71 249.91 1580.3
-110.78 250.27 1582.5
-105.16 246.73 1560.1
-98.13 239.44 1514.0
-89.99 228.72 1446.3
-85.72 227.36 1437.6
-83.02 230.20 1455.6
-79.69 231.48 1463.7
-78.72 240.09 1518.1
-77.27 248.08 1568.6
-72.70 246.39 1558.0
-68.37 245.32 1551.2
-64.97 247.69 1566.2
-61.07 248.34 1570.3
-58.08 253.05 1600.1
-55.20 259.00 1637.7
-50.59 257.15 1626.0
-45.31 251.24 1588.6
-40.19 245.16 1550.2
-36.38 246.59 1559.2
-32.73 249.57 1578.1
-28.16 245.36 1551.5
-24.76 251.78 1592.0
-20.97 255.85 1617.8
-16.43 250.54 1584.2
-12.60 256.17 1619.8
-8.55 260.71 1648.5
-4.29 261.65 1654.4
0.00 265.08 1676.2
4.38 267.27 1690.0
8.79 268.20 1695.9
13.14 267.26 1689.9
17.61 268.51 1697.8
22.35 272.71 1724.4
26.61 270.52 1710.5
30.20 263.17 1664.0
35.25 268.78 1699.5
41.98 284.53 1799.2
46.72 284.98 1802.0
49.64 275.28 1740.7
53.87 273.86 1731.7
57.36 269.15 1701.9
59.87 260.85 1649.4
65.48 266.29 1683.8
73.32 279.53 1767.5
78.68 282.31 1785.1
81.55 276.35 1747.4
87.33 280.37 1772.8
93.19 284.24 1797.3
94.51 274.53 1735.9
102.43 284.00 1795.8
116.98 297.33 1880.0
118.19 288.39 1823.6
122.10 286.47 1811.4
119.40 269.75 1705.7
118.58 258.33 1633.5
126.05 265.13 1676.5
130.90 266.17 1683.1
135.56 266.74 1686.7
140.31 267.47 1691.2
142.73 263.83 1668.2
147.28 264.24 1670.8
151.31 263.71 1667.5
155.78 263.96 1669.1
167.52 276.19 1746.4
177.88 278.23 1759.3
168.13 256.40 1621.3
167.59 249.34 1576.6
170.88 248.19 1569.3
155.97 221.26 1399.1
162.46 225.23 1424.2
156.15 211.67 1338.4
140.29 182.07 1151.3
178.61 226.98 1435.2
197.09 245.35 1551.4
203.33 248.06 1568.5
180.26 215.61 1363.3
175.55 205.94 1302.2
198.10 228.00 1441.7
205.19 231.79 1465.7
196.93 218.41 1381.0
181.41 197.61 1249.5
181.70 194.45 1229.5
202.15 212.61 1344.4
209.59 216.70 1370.2
204.56 207.97 1315.0
203.88 203.88 1289.2
198.83 195.62 1236.9
194.95 188.76 1193.5
197.96 188.68 1193.1
204.58 191.99 1214.0
217.97 201.46 1273.9
222.20 202.30 1279.2
218.38 195.90 1238.7
219.06 193.66 1224.6
232.20 202.34 1279.5
246.32 211.63 1338.2
241.34 204.46 1292.9
228.04 190.55 1204.9
249.86 205.96 1302.3
292.53 237.93 1504.5
-723.85 289.54 1861.3
-733.14 297.22 1910.7
-660.79 269.71 1733.9
-675.77 277.71 1785.3
-713.14 295.09 1897.0
-701.89 292.45 1880.1
-673.51 282.59 1816.7
-633.46 267.66 1720.7
-624.76 265.86 1709.1
-653.58 280.11 1800.7
-648.10 279.75 1798.4
-644.96 280.42 1802.7
-609.90 271.06 1742.6
-572.74 256.45 1648.6
-541.17 244.14 1569.5
-532.72 242.14 1556.6
-538.64 246.70 1586.0
-548.21 253.02 1626.6
-543.78 252.92 1625.9
-518.48 243.04 1562.4
-504.30 238.25 1531.6
-521.59 248.38 1596.7
-531.86 255.30 1641.2
-503.18 243.47 1565.2
-480.55 234.42 1507.0
-482.96 237.52 1526.9
-481.13 238.57 1533.7
-471.32 235.66 1515.0
-462.48 233.18 1499.0
-454.87 231.29 1486.9
-449.90 230.72 1483.2
-436.11 225.58 1450.1
-428.98 223.82 1438.8
-433.68 228.25 1467.3
-429.33 227.96 1465.5
-425.55 227.97 1465.5
-431.61 233.30 1499.8
-430.18 234.64 1508.4
-415.79 228.88 1471.3
-404.25 224.58 1443.7
-400.77 224.73 1444.7
-399.64 226.21 1454.2
-392.23 224.13 1440.8
-382.05 220.41 1416.9
-374.02 217.88 1400.6
-359.25 211.32 1358.5
-354.70 210.71 1354.6
-364.55 218.73 1406.1
-361.13 218.87 1407.0
-352.34 215.72 1386.8
-354.99 219.58 1411.6
-350.58 219.11 1408.6
-342.17 216.11 1389.3
-340.40 217.28 1396.8
-336.98 217.41 1397.6
-328.04 213.94 1375.3
-316.26 208.52 1340.5
-317.90 211.94 1362.4
-332.55 224.19 1441.2
-334.50 228.06 1466.1
-321.52 221.74 1425.5
-304.87 212.70 1367.4
-301.49 212.82 1368.1
-310.93 222.09 1427.8
-305.94 221.16 1421.7
-295.62 216.31 1390.6
-298.67 221.24 1422.2
-305.57 229.18 1473.3
-295.16 224.17 1441.1
-280.01 215.39 1384.6
-281.00 218.96 1407.6
-271.95 214.69 1380.2
-268.50 214.80 1380.8
-268.21 217.46 1398.0
-251.84 206.99 1330.7
-246.87 205.72 1322.5
-241.94 204.46 1314.4
-240.05 205.76 1322.7
-234.47 203.88 1310.7
-231.00 203.82 1310.3
-248.50 222.54 1430.6
-251.23 228.39 1468.3
-253.94 234.40 1506.9
-254.50 238.60 1533.8
-223.06 212.44 1365.7
-198.43 192.03 1234.5
-199.79 196.51 1263.3
-223.63 223.63 1437.6
-221.34 228.97 1471.9
-206.91 217.80 1400.1
-202.36 216.81 1393.8
-196.86 214.76 1380.6
-187.18 207.98 1337.0
-185.80 210.34 1352.2
-197.81 228.24 1467.2
-202.75 238.52 1533.4
-190.07 228.08 1466.2
-181.72 222.51 1430.4
-180.75 225.94 1452.5
-175.96 224.63 1444.1
-173.32 226.08 1453.3
-168.12 224.16 1441.0
-162.19 221.17 1421.8
-159.10 221.99 1427.1
-155.87 222.67 1431.4
-152.51 223.18 1434.8
-148.32 222.48 1430.2
-147.63 227.12 1460.1
-144.56 228.25 1467.3
-138.90 225.25 1448.0
-139.13 231.88 1490.7
-138.87 238.06 1530.4
-132.15 233.21 1499.2
-127.12 231.12 1485.8
-125.99 236.22 1518.6
-123.02 238.11 1530.7
-118.62 237.24 1525.1
-112.76 233.30 1499.8
-108.75 233.04 1498.1
-108.47 241.05 1549.6
-106.07 244.77 1573.5
-99.71 239.29 1538.3
-91.87 229.67 1476.4
-87.52 228.32 1467.8
-84.86 231.42 1487.7
-80.79 230.84 1484.0
-79.36 238.09 1530.6
-78.86 249.02 1600.8
-75.04 250.12 1607.9
-68.83 242.93 1561.7
-63.68 238.81 1535.2
-60.75 242.99 1562.0
-58.60 251.15 1614.5
-55.95 258.24 1660.1
-51.44 257.18 1653.3
-47.15 257.20 1653.5
-42.84 257.07 1652.6
-37.02 246.79 1586.5
-31.74 238.04 1530.3
-27.93 239.44 1539.2
-25.13 251.28 1615.4
-21.59 259.13 1665.8
-17.14 257.14 1653.0
-13.03 260.68 1675.8
-8.79 263.60 1694.6
-4.37 262.07 1684.7
0.00 262.99 1690.7
4.44 266.68 1714.4
8.97 268.98 1729.2
13.30 265.91 1709.4
17.70 265.44 1706.4
22.14 265.74 1708.3
25.96 259.58 1668.7
30.07 257.73 1656.8
35.88 269.08 1729.8
42.76 285.05 1832.5
47.53 285.19 1833.3
50.42 275.03 1768.0
54.57 272.85 1754.1
59.05 272.53 1751.9
62.54 268.05 1723.2
66.77 267.10 1717.1
72.69 272.60 1752.4
78.84 278.25 1788.8
82.68 275.61 1771.8
87.70 276.96 1780.5
92.56 277.69 1785.2
96.96 277.04 1781.0
108.21 295.11 1897.1
119.24 298.09 1916.3
119.90 287.76 1849.9
123.55 285.11 1832.8
123.93 275.40 1770.4
126.64 271.36 1744.5
135.21 279.74 1798.4
141.38 282.76 1817.7
141.23 273.35 1757.3
139.63 261.81 1683.0
144.13 262.06 1684.7
151.07 266.59 1713.8
134.94 231.32 1487.1
139.28 225.86 1452.0
160.45 253.34 1628.6
161.75 248.84 1599.7
155.45 233.18 1499.0
154.81 226.55 1456.4
157.15 224.50 1443.2
151.54 211.45 1359.3
165.89 226.21 1454.2
177.39 236.53 1520.5
163.03 212.64 1367.0
164.97 210.59 1353.8
182.46 228.07 1466.2
176.36 215.95 1388.3
161.10 193.32 1242.8
182.02 214.14 1376.6
203.29 230.14 1479.5
178.00 197.78 1271.5
201.05 219.33 1409.9
220.82 236.59 1520.9
197.08 207.46 1333.6
194.29 200.99 1292.1
208.03 211.56 1360.0
211.48 211.48 1359.5
211.21 207.75 1335.5
208.00 201.29 1294.0
204.74 194.99 1253.5
208.07 195.06 1254.0
213.37 196.95 1266.1
225.56 205.06 1318.2
236.66 211.94 1362.5
238.38 210.33 1352.1
228.02 198.28 1274.7
229.64 196.83 1265.4
253.75 214.44 1378.5
260.11 216.76 1393.5
252.76 207.75 1335.5
286.09 231.96 1491.2
329.66 260.26 1673.1
332.09 258.77 1663.6
338.79 260.61 1675.3
-812.72 319.67 2089.9
-805.74 321.21 2099.9
-682.66 275.87 1803.5
-641.63 261.08 1706.8
-646.39 264.84 1731.4
-637.61 263.07 1719.8
-617.26 256.47 1676.7
-625.32 261.66 1710.6
-641.99 270.55 1768.7
-625.50 265.50 1735.7
-571.83 244.48 1598.3
-556.54 239.68 1566.9
-605.58 262.72 1717.5
-617.30 269.78 1763.7
-580.08 255.41 1669.8
-549.43 243.73 1593.4
-539.96 241.34 1577.8
-545.19 245.54 1605.3
-544.92 247.31 1616.8
-531.42 243.05 1589.0
-517.72 238.64 1560.1
-514.07 238.82 1561.3
-511.02 239.29 1564.3
-501.85 236.87 1548.6
-498.81 237.34 1551.6
-499.66 239.68 1566.9
-496.86 240.28 1570.9
-489.59 238.73 1560.7
-466.20 229.22 1498.5
-443.40 219.83 1437.2
-435.93 217.97 1425.0
-431.39 217.54 1422.2
-432.00 219.72 1436.4
-438.75 225.10 1471.6
-440.00 227.72 1488.7
-432.55 225.84 1476.5
-421.29 221.93 1450.9
-420.82 223.68 1462.3
-417.31 223.83 1463.3
-401.14 217.13 1419.5
-388.92 212.47 1389.0
-384.25 211.88 1385.2
-383.79 213.62 1396.6
-376.26 211.42 1382.2
-367.25 208.34 1362.1
-359.87 206.14 1347.6
-360.64 208.61 1363.8
-370.86 216.64 1416.3
-373.87 220.58 1442.1
-363.23 216.47 1415.2
-351.01 211.32 1381.5
-350.05 212.92 1392.0
-349.52 214.81 1404.3
-345.37 214.49 1402.3
-340.76 213.88 1398.3
-334.09 211.95 1385.6
-329.31 211.19 1380.6
-321.37 208.36 1362.2
-313.98 205.83 1345.6
-319.33 211.69 1383.9
-328.68 220.36 1440.6
-323.16 219.16 1432.7
-308.21 211.45 1382.4
-307.56 213.48 1395.7
-312.94 219.81 1437.0
-302.51 215.04 1405.8
-288.95 207.90 1359.2
-288.82 210.38 1375.3
-298.86 220.41 1440.9
-289.32 216.07 1412.6
-265.02 200.46 1310.5
-258.26 197.89 1293.7
-264.40 205.26 1341.9
-278.03 218.72 1429.9
-290.29 231.45 1513.1
-283.01 228.73 1495.4
-274.36 224.83 1469.8
-267.27 222.10 1452.0
-258.33 217.74 1423.5
-244.13 208.75 1364.7
-222.16 192.75 1260.1
-221.86 195.37 1277.2
-232.65 207.98 1359.6
-245.16 222.53 1454.8
-246.34 227.10 1484.7
-212.63 199.13 1301.8
-196.63 187.11 1223.2
-207.89 201.08 1314.6
-216.27 212.66 1390.3
-212.15 212.15 1386.9
-208.19 211.78 1384.5
-202.94 210.06 1373.3
-195.76 206.25 1348.3
-188.15 201.83 1319.5
-185.61 202.80 1325.8
-192.20 213.96 1398.7
-194.98 221.22 1446.2
-190.64 220.55 1441.8
-186.20 219.72 1436.4
-185.65 223.54 1461.4
-183.87 226.01 1477.5
-178.18 223.68 1462.3
-172.69 221.49 1448.0
-164.17 215.25 1407.2
-162.03 217.26 1420.4
-163.10 223.79 1463.0
-156.35 219.64 1435.9
-149.85 215.64 1409.8
-146.13 215.55 1409.1
-145.80 220.57 1442.0
-146.26 227.09 1484.6
-143.77 229.26 1498.8
-136.98 224.49 1467.6
-130.26 219.57 1435.5
-129.34 224.44 1467.3
-129.78 232.03 1516.9
-127.18 234.49 1533.0
-122.83 233.78 1528.4
-118.67 233.38 1525.7
-113.03 229.95 1503.3
-108.08 227.73 1488.8
-107.07 233.96 1529.5
-104.31 236.71 1547.5
-97.31 229.66 1501.4
-92.64 227.74 1488.8
-91.32 234.26 1531.5
-87.98 235.96 1542.6
-83.35 234.18 1531.0
-78.06 230.28 1505.5
-74.17 230.31 1505.7
-72.12 236.38 1545.4
-67.55 234.45 1532.7
-61.78 227.82 1489.4
-58.27 229.21 1498.5
-54.93 231.50 1513.4
-51.21 232.42 1519.5
-48.75 239.70 1567.0
-46.36 248.63 1625.4
-43.09 254.24 1662.1
-38.14 250.03 1634.5
-32.35 238.55 1559.5
-28.14 237.20 1550.7
-25.09 246.74 1613.0
-21.32 251.58 1644.7
-16.94 249.93 1633.9
-12.91 253.86 1659.6
-8.77 258.86 1692.3
-4.41 259.92 1699.2
0.00 259.16 1694.3
4.42 260.98 1706.1
9.09 268.23 1753.6
13.72 269.74 1763.4
18.18 268.22 1753.5
22.65 267.31 1747.5
27.12 266.69 1743.5
32.11 270.61 1769.1
36.36 268.18 1753.2
41.14 269.68 1763.0
47.27 278.88 1823.2
51.85 278.11 1818.1
55.48 272.79 1783.4
59.27 268.99 1758.6
63.07 265.80 1737.7
67.65 266.07 1739.5
72.15 266.05 1739.3
76.56 265.72 1737.1
82.30 269.76 1763.6
89.63 278.34 1819.7
95.52 281.78 1842.1
101.25 284.46 1859.6
106.05 284.42 1859.4
108.27 277.73 1815.7
110.69 272.11 1778.9
114.45 270.10 1765.8
123.33 279.86 1829.6
130.05 284.19 1857.9
128.83 271.47 1774.7
133.04 270.67 1769.5
142.28 279.81 1829.3
145.72 277.34 1813.1
155.13 286.03 1869.9
146.07 246.23 1609.7
157.02 243.80 1593.8
169.57 256.53 1677.0
170.71 251.80 1646.1
178.28 256.54 1677.2
168.77 237.08 1549.9
150.17 206.05 1347.1
164.94 221.17 1445.9
177.46 232.67 1521.1
157.94 202.57 1324.3
154.63 194.10 1269.0
168.00 206.50 1350.0
158.74 191.13 1249.5
157.48 185.82 1214.8
189.47 219.20 1433.0
210.17 238.46 1558.9
177.93 198.07 1294.9
163.58 175.48 1147.2
201.73 212.53 1389.4
204.24 211.41 1382.1
197.31 200.71 1312.2
207.96 207.96 1359.6
218.40 214.76 1404.0
226.27 218.86 1430.8
224.40 213.54 1396.0
223.63 209.43 1369.1
228.86 210.98 1379.3
239.41 217.31 1420.7
242.32 216.62 1416.2
242.17 213.25 1394.1
253.06 219.57 1435.4
251.44 215.00 1405.6
254.27 214.31 1401.1
281.95 234.30 1531.7
286.34 234.64 1534.0
278.23 224.87 1470.1
288.24 229.82 1502.4
292.57 230.15 1504.6
303.02 235.24 1537.9
306.08 234.53 1533.3
311.47 235.60 1540.3
338.13 252.53 1650.9
-838.39 315.76 2099.9
-722.85 287.16 1909.7
-661.01 264.40 1758.3
-650.76 262.11 1743.1
-635.08 257.58 1713.0
-609.61 248.99 1655.9
-604.11 248.50 1652.6
-609.78 252.62 1680.0
-606.92 253.25 1684.2
-565.02 237.47 1579.2
-536.85 227.28 1511.5
-567.93 242.20 1610.7
-586.44 251.95 1675.5
-558.51 241.74 1607.7
-544.45 237.43 1579.0
-549.44 241.42 1605.5
-549.20 243.16 1617.1
-543.22 242.36 1611.7
-538.19 241.98 1609.2
-533.81 241.88 1608.6
-517.96 236.55 1573.1
-503.51 231.78 1541.4
-501.42 232.66 1547.2
-504.44 235.95 1569.1
-494.42 233.14 1550.5
-481.81 229.06 1523.3
-482.95 231.50 1539.5
-467.54 225.98 1502.8
-457.56 223.01 1483.1
-461.57 226.87 1508.7
-448.21 222.19 1477.6
-441.27 220.64 1467.3
-443.43 223.64 1487.3
-439.32 223.51 1486.4
-435.48 223.52 1486.5
-428.34 221.82 1475.1
-420.97 219.96 1462.8
-410.94 216.68 1441.0
-397.52 211.52 1406.7
-388.26 208.51 1386.7
-384.13 208.22 1384.7
-383.41 209.79 1395.1
-375.88 207.63 1380.8
-366.61 204.46 1359.7
-364.59 205.30 1365.3
-370.13 210.47 1399.7
-373.00 214.20 1424.5
-369.04 214.04 1423.4
-370.50 217.06 1443.5
-370.63 219.35 1458.8
-356.69 213.28 1418.4
-342.71 207.05 1377.0
-339.58 207.32 1378.7
-335.03 206.72 1374.7
-334.91 208.87 1389.0
-336.78 212.31 1411.9
-327.85 208.96 1389.6
-319.26 205.75 1368.3
-318.34 207.46 1379.6
-322.20 212.36 1412.2
-320.67 213.78 1421.7
-309.62 208.81 1388.7
-300.86 205.29 1365.2
-297.90 205.69 1367.9
-304.91 213.07 1417.0
-309.63 219.00 1456.4
-294.21 210.67 1401.0
-287.72 208.59 1387.2
-285.45 209.57 1393.7
-267.67 199.03 1323.6
-265.33 199.86 1329.1
-276.55 211.05 1403.5
-282.10 218.16 1450.8
-285.74 223.96 1489.4
-277.97 220.85 1468.7
-268.29 216.13 1437.3
-279.55 228.37 1518.7
-251.78 214.75 1428.2
-241.58 209.13 1390.8
-248.75 218.60 1453.8
-250.02 223.09 1483.6
-238.02 215.70 1434.5
-223.71 205.96 1369.7
-220.56 206.33 1372.2
-225.59 214.49 1426.4
-225.93 218.40 1452.4
-221.65 217.89 1449.0
-218.12 218.12 1450.6
-216.32 220.12 1463.8
-211.18 218.72 1454.6
-196.87 207.61 1380.7
-189.80 203.85 1355.7
-188.77 206.58 1373.8
-184.08 205.32 1365.4
-182.80 207.90 1382.6
-181.19 210.18 1397.7
-178.37 211.13 1404.1
-174.66 211.05 1403.5
-180.52 222.77 1481.5
-186.57 235.25 1564.4
-171.80 221.43 1472.6
-164.78 217.21 1444.5
-168.97 227.91 1515.7
-164.23 226.79 1508.2
-157.02 222.12 1477.2
-153.33 222.33 1478.5
-150.53 223.86 1488.8
-148.65 226.88 1508.8
-143.73 225.31 1498.4
-134.09 216.03 1436.7
-128.88 213.57 1420.3
-129.56 221.02 1469.8
-129.24 227.14 1510.6
-125.67 227.78 1514.8
-121.93 228.13 1517.1
-118.25 228.62 1520.4
-113.81 227.62 1513.8
-109.98 227.81 1515.0
-104.48 224.44 1492.6
-97.50 217.51 1446.5
-96.78 224.52 1493.1
-98.26 237.47 1579.2
-95.48 240.77 1601.2
-90.72 239.17 1590.6
-86.18 238.02 1582.9
-81.06 235.08 1563.3
-74.93 228.72 1521.1
-71.04 228.90 1522.2
-66.93 228.33 1518.5
-61.44 222.71 1481.1
-58.64 226.75 1507.9
-55.88 231.52 1539.7
-51.76 230.95 1535.9
-49.08 237.21 1577.5
-45.87 241.84 1608.3
-41.88 242.89 1615.3
-38.32 246.92 1642.1
-33.65 243.96 1622.4
-28.94 239.81 1594.8
-25.49 246.36 1638.4
-21.61 250.69 1667.1
-17.16 248.76 1654.3
-12.98 251.00 1669.2
-8.77 254.27 1691.0
-4.42 256.50 1705.8
0.00 256.80 1707.8
4.43 256.80 1707.8
9.03 262.00 1742.4
13.82 267.20 1777.0
18.56 269.13 1789.8
23.42 271.65 1806.5
28.41 274.61 1826.3
33.16 274.75 1827.2
37.05 268.64 1786.5
41.29 266.10 1769.6
46.77 271.29 1804.1
51.62 272.16 1809.9
55.63 268.87 1788.0
58.39 260.52 1732.5
60.94 252.48 1679.0
69.40 268.35 1784.6
78.82 285.71 1900.0
81.25 277.21 1843.5
84.73 273.02 1815.6
89.47 273.13 1816.4
92.33 267.75 1780.6
99.73 275.44 1831.7
106.49 280.74 1867.0
109.13 275.21 1830.2
112.39 271.60 1806.2
114.30 265.18 1763.5
120.85 269.59 1792.8
132.38 284.37 1891.2
136.47 282.69 1880.0
132.79 265.59 1766.2
132.90 256.94 1708.7
146.73 274.52 1825.7
161.94 268.36 1784.7
144.11 232.17 1544.0
143.35 224.72 1494.4
165.91 253.22 1684.0
177.99 264.70 1760.3
179.65 260.49 1732.3
181.27 256.43 1705.3
167.33 231.08 1536.7
153.30 206.78 1375.1
170.16 224.30 1491.7
188.30 242.70 1614.0
171.93 216.79 1441.7
164.02 202.40 1346.0
175.88 212.52 1413.3
180.49 213.64 1420.7
187.42 217.40 1445.8
207.05 235.47 1565.9
213.68 238.34 1585.0
201.02 219.99 1463.0
181.98 195.46 1299.8
161.27 170.06 1131.0
186.24 189.51 1260.3
206.65 206.65 1374.3
217.16 213.48 1419.7
227.60 220.01 1463.1
236.40 224.78 1494.8
233.90 218.81 1455.2
226.74 208.74 1388.2
227.01 205.72 1368.1
235.39 210.04 1396.8
236.58 207.90 1382.6
237.69 205.76 1368.4
248.86 212.26 1411.6
257.64 216.56 1440.2
272.38 225.69 1500.9
