ply
format ascii 1.0
element vertex 2308
property float x
property float y
property float z
end_header
467.59 418.88 1252.5
477.86 425.13 1271.2
491.59 434.35 1298.7
492.53 432.22 1292.4
492.42 429.20 1283.3
506.70 438.69 1311.7
514.54 442.51 1323.1
495.28 423.12 1265.1
481.36 408.52 1221.5
482.02 406.41 1215.2
492.21 412.31 1232.8
512.81 426.79 1276.1
522.50 432.07 1291.9
527.94 433.78 1297.0
527.24 430.47 1287.1
521.40 423.02 1264.8
524.60 422.96 1264.7
567.19 454.46 1358.8
530.86 420.13 1256.2
484.67 381.23 1139.9
486.83 380.61 1138.0
492.01 382.34 1143.2
491.89 379.96 1136.1
474.93 364.68 1090.4
469.29 358.21 1071.1
491.70 373.12 1115.6
470.91 355.25 1062.2
421.05 315.79 944.2
406.30 302.96 905.9
419.69 311.15 930.3
427.65 315.24 942.6
429.71 314.96 941.7
411.81 300.14 897.4
387.31 280.69 839.3
402.82 290.30 868.0
443.15 317.59 949.6
431.39 307.45 919.3
399.88 283.43 847.5
435.76 307.18 918.5
473.60 332.04 992.8
454.62 317.01 947.9
442.10 306.62 916.8
480.40 331.40 990.9
502.24 344.62 1030.4
513.71 350.63 1048.4
552.77 375.30 1122.2
532.20 359.44 1074.7
466.60 313.50 937.4
455.72 304.60 910.8
493.38 328.07 980.9
525.71 347.78 1039.9
518.35 341.16 1020.1
528.78 346.25 1035.3
551.08 359.04 1073.5
526.52 341.31 1020.5
518.50 334.43 1000.0
558.69 358.56 1072.1
542.24 346.28 1035.4
477.40 303.37 907.1
443.86 280.68 839.2
444.70 279.83 836.7
483.47 302.76 905.3
531.15 331.01 989.7
562.33 348.75 1042.8
573.61 354.05 1058.6
551.00 338.47 1012.0
525.44 321.24 960.5
508.45 309.39 925.1
472.75 286.31 856.1
510.81 307.92 920.7
652.88 391.73 1171.3
677.30 404.50 1209.5
599.24 356.23 1065.1
553.68 327.63 979.6
543.79 320.32 957.8
548.57 321.66 961.8
531.40 310.18 927.5
516.96 300.40 898.2
544.23 314.83 941.3
592.90 341.45 1020.9
598.80 343.31 1026.5
591.12 337.41 1008.9
628.21 357.00 1067.4
671.39 379.87 1135.8
700.12 394.39 1179.2
653.71 366.64 1096.3
631.16 352.47 1053.9
701.60 390.11 1166.5
405.41 625.21 1884.0
401.59 611.95 1844.0
414.90 610.42 1839.4
398.08 579.02 1744.8
384.21 552.58 1665.1
384.44 546.76 1647.6
368.18 517.89 1560.6
355.92 495.19 1492.2
369.41 508.43 1532.1
379.27 516.45 1556.3
384.91 518.62 1562.8
386.22 514.96 1551.8
377.03 497.52 1499.2
372.26 486.22 1465.2
376.56 486.87 1467.1
385.64 493.62 1487.5
389.28 493.34 1486.6
391.20 490.92 1479.3
393.58 489.10 1473.9
393.69 484.55 1460.1
393.24 479.38 1444.6
383.88 463.55 1396.9
378.61 452.91 1364.8
380.12 450.51 1357.6
376.15 441.71 1331.1
374.92 436.27 1314.7
379.41 437.52 1318.4
392.69 448.78 1352.4
401.57 454.87 1370.7
397.03 445.79 1343.3
395.63 440.35 1326.9
404.85 446.73 1346.2
413.05 451.88 1361.7
416.03 451.29 1359.9
415.06 446.45 1345.3
412.89 440.42 1327.1
421.19 445.55 1342.6
434.45 455.81 1373.5
439.74 457.61 1379.0
428.71 442.54 1333.5
413.93 423.87 1277.3
416.66 423.27 1275.5
429.52 432.90 1304.5
438.30 438.30 1320.8
444.74 441.30 1329.8
450.31 443.38 1336.1
448.85 438.57 1321.6
447.31 433.76 1307.1
457.53 440.33 1326.9
468.77 447.78 1349.4
467.83 443.57 1336.7
464.28 436.97 1316.8
469.26 438.44 1321.2
471.69 437.51 1318.4
468.93 431.82 1301.2
478.14 437.15 1317.3
483.15 438.61 1321.7
475.98 429.05 1292.9
483.28 432.59 1303.6
494.63 439.67 1324.9
485.25 428.36 1290.8
478.41 419.43 1263.9
480.97 418.80 1262.0
483.51 418.17 1260.1
486.40 417.84 1259.1
482.69 411.90 1241.2
479.25 406.25 1224.2
484.84 408.28 1230.3
487.63 407.95 1229.3
500.34 415.87 1253.2
513.16 423.77 1277.0
513.18 421.07 1268.8
554.24 451.86 1361.6
563.65 453.75 1367.3
537.05 429.64 1294.7
544.00 432.50 1303.3
530.99 419.55 1264.3
500.69 393.18 1184.8
480.88 375.32 1131.0
481.51 373.54 1125.6
483.26 372.63 1122.9
484.99 371.73 1120.2
472.96 360.35 1085.9
438.50 332.11 1000.8
424.50 319.62 963.1
435.54 326.02 982.4
415.87 309.49 932.6
405.00 299.65 903.0
423.11 311.26 937.9
424.77 310.69 936.2
422.05 306.94 924.9
452.81 327.46 986.8
479.03 344.47 1038.0
438.96 313.89 945.9
428.05 304.39 917.3
450.38 318.50 959.8
452.05 317.92 958.0
456.99 319.64 963.2
466.90 324.80 978.7
468.17 323.92 976.1
480.25 330.50 995.9
508.30 347.93 1048.4
516.42 351.60 1059.5
452.89 306.72 924.3
422.67 284.75 858.1
465.76 312.13 940.6
471.60 314.40 947.4
472.31 313.24 943.9
524.28 345.92 1042.4
555.46 364.61 1098.7
539.53 352.35 1061.8
520.39 338.12 1018.9
516.39 333.83 1006.0
520.25 334.64 1008.4
542.23 347.03 1045.7
564.80 359.67 1083.8
525.66 333.09 1003.7
483.51 304.87 918.7
461.63 289.65 872.8
462.54 288.80 870.3
502.31 312.12 940.5
523.31 323.59 975.1
522.13 321.31 968.2
559.33 342.55 1032.2
566.95 345.57 1041.3
536.82 325.65 981.3
519.40 313.60 945.0
499.97 300.45 905.4
561.91 336.09 1012.8
628.96 374.45 1128.4
566.48 335.69 1011.6
558.16 329.23 992.1
559.21 328.34 989.4
548.39 320.52 965.9
551.76 321.02 967.4
577.10 334.25 1007.2
610.27 351.87 1060.3
593.63 340.74 1026.8
591.81 338.18 1019.1
611.75 348.02 1048.7
618.20 350.13 1055.1
663.69 374.24 1127.7
658.32 367.97 1108.8
549.18 305.63 921.0
563.83 312.43 941.5
653.43 360.51 1086.4
727.67 399.75 1204.6
398.24 602.11 1828.7
395.62 591.10 1795.2
408.77 603.65 1833.4
408.29 596.01 1810.2
402.19 580.43 1762.8
395.20 563.94 1712.7
392.73 554.18 1683.1
375.45 523.98 1591.4
360.60 497.78 1511.8
371.91 507.88 1542.5
374.58 506.08 1537.0
373.12 498.81 1514.9
378.68 500.97 1521.5
373.82 489.43 1486.5
373.01 483.38 1468.1
381.57 489.49 1486.6
385.69 489.82 1487.6
384.25 483.17 1467.4
389.05 484.40 1471.2
394.35 486.24 1476.8
392.24 478.99 1454.7
389.52 471.13 1430.9
379.61 454.81 1381.3
374.55 444.56 1350.2
382.70 450.03 1366.8
385.23 448.85 1363.2
390.62 450.99 1369.7
402.89 460.96 1400.0
403.07 457.05 1388.1
398.91 448.33 1361.6
404.34 450.45 1368.1
412.80 455.88 1384.6
408.71 447.46 1359.0
403.38 437.86 1329.8
412.42 443.87 1348.1
417.61 445.68 1353.6
410.07 433.99 1318.1
412.63 433.10 1315.4
425.26 442.69 1344.5
429.90 443.88 1348.1
430.47 440.89 1339.0
426.58 433.41 1316.3
428.22 431.61 1310.9
441.16 441.16 1339.9
452.44 448.91 1363.4
460.80 453.65 1377.8
458.86 448.27 1361.4
449.47 435.74 1323.4
448.86 431.86 1311.6
459.72 438.98 1333.2
465.65 441.33 1340.4
459.32 432.10 1312.3
462.38 431.78 1311.4
473.75 439.17 1333.8
476.20 438.25 1331.0
473.46 432.59 1313.8
473.90 429.90 1305.6
470.36 423.66 1286.7
471.03 421.27 1279.5
487.60 433.04 1315.2
499.65 440.66 1338.4
490.96 430.01 1306.0
489.56 425.85 1293.4
499.34 431.40 1310.2
497.88 427.24 1297.6
497.06 423.67 1286.7
487.18 412.48 1252.7
478.53 402.47 1222.4
490.78 410.06 1245.4
502.42 417.04 1266.6
500.68 412.90 1254.0
496.74 407.01 1236.1
513.88 418.35 1270.6
542.90 430.93 1308.8
528.51 416.90 1266.2
535.05 419.46 1273.9
524.86 408.94 1242.0
487.94 377.85 1147.6
467.15 359.57 1092.0
463.90 354.91 1077.9
458.69 348.82 1059.4
466.39 352.57 1070.8
457.61 343.89 1044.4
457.60 341.85 1038.3
481.23 357.41 1085.5
453.20 334.63 1016.3
431.52 316.78 962.1
442.29 322.82 980.5
441.27 320.24 972.6
481.57 347.50 1055.4
547.59 390.70 1186.6
480.39 340.83 1035.2
453.86 320.22 972.6
466.96 327.64 995.1
471.56 329.06 999.4
482.75 335.03 1017.5
487.83 336.71 1022.6
480.49 329.85 1001.8
495.55 338.36 1027.6
518.66 352.25 1069.8
509.61 344.25 1045.5
427.44 287.22 872.3
399.65 265.74 807.1
464.20 307.05 932.5
548.16 360.71 1095.5
557.80 365.16 1109.0
536.33 349.30 1060.9
518.13 335.73 1019.7
494.96 319.09 969.1
514.96 330.30 1003.2
539.50 344.30 1045.7
528.87 335.83 1020.0
513.25 324.29 984.9
521.09 327.61 995.0
524.05 327.85 995.7
494.69 307.97 935.3
484.90 300.40 912.4
504.43 310.98 944.5
502.29 308.17 935.9
479.14 292.55 888.5
490.11 297.82 904.5
533.76 322.80 980.4
546.83 329.13 999.6
548.87 328.80 998.6
557.87 332.62 1010.2
581.36 345.01 1047.9
578.34 341.62 1037.6
510.00 299.86 910.7
477.43 279.42 848.6
504.68 294.01 892.9
515.49 298.94 907.9
554.47 320.08 972.1
642.93 369.47 1122.1
647.57 370.46 1125.1
592.54 337.45 1024.9
581.53 329.71 1001.4
592.24 334.29 1015.3
578.21 324.92 986.8
613.82 343.42 1043.0
701.93 389.28 1182.3
623.92 344.51 1046.3
688.76 378.67 1150.1
409.69 614.53 1881.2
391.19 579.88 1775.2
391.45 573.52 1755.7
393.50 569.89 1744.6
389.98 558.37 1709.3
378.57 535.95 1640.7
372.66 521.72 1597.1
385.36 533.57 1633.4
395.13 541.16 1656.6
391.62 530.58 1624.2
380.27 509.73 1560.4
372.71 494.33 1513.3
372.97 489.53 1498.6
375.49 487.75 1493.1
381.49 490.49 1501.5
377.11 479.96 1469.3
369.45 465.51 1425.0
375.11 467.96 1432.5
387.38 478.53 1464.9
394.64 482.76 1477.8
394.76 478.27 1464.1
399.32 479.18 1466.9
396.06 470.78 1441.2
377.62 444.68 1361.3
373.98 436.30 1335.6
384.21 444.13 1359.6
397.70 455.55 1394.5
412.94 468.74 1434.9
416.13 468.15 1433.1
408.85 455.88 1395.6
411.39 454.70 1391.9
422.37 462.77 1416.6
419.99 456.20 1396.5
408.93 440.38 1348.1
412.43 440.39 1348.1
425.78 450.83 1380.1
425.39 446.66 1367.3
411.50 428.50 1311.7
408.57 421.97 1291.7
420.34 430.59 1318.1
427.85 434.75 1330.9
434.83 438.31 1341.8
448.38 448.38 1372.6
446.85 443.33 1357.1
444.33 437.39 1339.0
455.36 444.77 1361.6
455.52 441.50 1351.5
447.94 430.84 1318.9
448.56 428.17 1310.7
454.43 430.51 1317.9
455.00 427.84 1309.7
457.11 426.64 1306.0
467.47 433.09 1325.8
477.91 439.54 1345.5
480.07 438.33 1341.8
472.17 428.01 1310.2
468.36 421.52 1290.4
468.72 418.85 1282.2
473.66 420.29 1286.6
487.60 429.63 1315.2
496.31 434.27 1329.4
493.31 428.67 1312.3
498.70 430.38 1317.5
512.62 439.39 1345.1
515.01 438.46 1342.2
506.70 428.49 1311.7
489.24 410.96 1258.0
481.29 401.61 1229.4
497.42 412.34 1262.3
504.87 415.78 1272.8
498.53 407.89 1248.6
503.86 409.59 1253.8
535.04 432.15 1322.9
556.79 446.85 1367.9
548.62 437.51 1339.3
547.98 434.25 1329.3
536.66 422.62 1293.7
515.59 403.50 1235.2
516.50 401.72 1229.8
525.21 405.99 1242.8
513.36 394.41 1207.4
498.72 380.84 1165.9
501.69 380.80 1165.7
478.02 360.66 1104.1
472.81 354.61 1085.5
492.13 366.91 1123.2
520.88 386.07 1181.8
507.89 369.91 1132.4
457.16 331.05 1013.4
481.95 347.01 1062.3
527.77 375.70 1150.1
423.01 299.43 916.6
417.73 294.05 900.1
436.72 305.70 935.8
441.18 307.12 940.2
435.44 301.46 922.8
463.33 319.01 976.6
489.79 335.40 1026.7
504.03 343.29 1050.9
540.45 366.11 1120.8
508.95 342.93 1049.8
450.65 302.03 924.6
437.42 291.62 892.7
443.99 294.43 901.3
426.31 281.23 860.9
450.80 295.84 905.6
500.40 326.68 1000.1
493.02 320.21 980.2
515.44 333.05 1019.6
540.20 347.27 1063.1
517.54 331.02 1013.3
532.82 339.07 1038.0
549.52 347.94 1065.1
530.08 333.95 1022.3
514.45 322.49 987.2
521.41 325.24 995.6
527.50 327.41 1002.3
503.08 310.72 951.2
500.98 307.92 942.6
522.84 319.80 979.0
520.31 316.71 969.5
495.39 300.09 918.7
473.92 285.71 874.6
476.63 285.98 875.4
502.41 300.02 918.4
533.92 317.33 971.4
542.86 321.13 983.1
565.39 332.89 1019.1
563.24 330.08 1010.5
489.63 285.61 874.3
471.11 273.55 837.4
513.50 296.79 908.5
547.14 314.80 963.7
605.80 346.96 1062.1
661.49 377.14 1154.5
641.72 364.22 1115.0
584.70 330.37 1011.3
562.06 316.16 967.8
579.98 324.79 994.3
574.17 320.11 979.9
598.07 331.97 1016.2
684.82 378.45 1158.5
390.86 574.80 1773.7
390.91 568.18 1753.2
392.11 563.37 1738.4
381.56 541.99 1672.4
365.76 513.71 1585.2
367.51 510.44 1575.1
385.64 529.72 1634.6
389.89 529.74 1634.6
381.40 512.63 1581.8
364.74 485.02 1496.6
352.68 464.05 1431.9
373.47 486.29 1500.6
394.14 507.91 1567.3
395.39 504.33 1556.2
385.68 486.97 1502.7
380.97 476.22 1469.5
390.61 483.42 1491.7
392.05 480.45 1482.5
389.75 473.00 1459.5
392.06 471.23 1454.1
398.85 474.83 1465.2
401.15 473.05 1459.7
388.10 453.39 1399.0
386.60 447.45 1380.7
399.80 458.49 1414.8
400.60 455.23 1404.7
403.20 454.05 1401.1
418.82 467.43 1442.4
423.63 468.62 1446.0
415.20 455.26 1404.8
415.30 451.41 1392.9
421.11 453.79 1400.3
418.09 446.68 1378.3
411.32 435.72 1344.5
414.53 435.44 1343.6
429.09 446.97 1379.2
430.09 444.30 1371.0
427.01 437.51 1350.0
439.50 446.65 1378.2
443.94 447.52 1380.9
447.80 447.80 1381.8
448.40 444.84 1372.7
433.71 426.88 1317.2
432.30 422.17 1302.7
444.77 430.97 1329.9
455.83 438.30 1352.5
459.01 437.98 1351.5
455.06 430.92 1329.7
455.99 428.56 1322.4
456.26 425.61 1313.3
457.43 423.54 1306.9
469.38 431.41 1331.2
481.12 438.98 1354.6
489.10 443.03 1367.1
488.38 439.19 1355.2
485.32 433.32 1337.1
487.10 431.83 1332.5
479.93 422.48 1303.6
481.28 420.70 1298.2
491.30 426.47 1316.0
489.27 421.78 1301.5
478.37 409.56 1263.8
475.13 404.02 1246.7
487.24 411.52 1269.8
490.49 411.48 1269.7
487.14 405.95 1252.6
495.58 410.25 1265.9
508.63 418.29 1290.7
512.62 418.81 1292.3
510.94 414.72 1279.7
523.47 422.16 1302.7
537.91 431.02 1330.0
538.74 428.93 1323.6
528.65 418.24 1290.6
524.62 412.43 1272.7
543.62 424.71 1310.5
559.48 434.38 1340.4
546.52 421.70 1301.2
542.71 416.19 1284.2
546.32 416.41 1284.9
554.46 420.05 1296.1
571.36 430.24 1327.6
551.07 412.48 1272.8
511.78 380.79 1175.0
505.15 373.63 1152.9
516.19 379.56 1171.2
499.65 358.95 1107.6
492.17 351.55 1084.8
479.01 340.20 1049.8
382.07 269.83 832.6
382.86 267.36 825.0
404.53 280.93 866.9
406.41 280.67 866.1
405.00 278.16 858.3
434.00 296.45 914.8
468.20 318.07 981.5
494.39 334.04 1030.8
504.52 339.06 1046.2
454.40 303.75 937.3
448.83 298.43 920.9
492.62 325.81 1005.4
494.34 325.22 1003.5
468.77 306.78 946.6
454.51 295.90 913.1
459.88 297.85 919.1
449.73 289.78 894.2
463.75 297.28 917.3
490.05 312.53 964.4
474.60 301.14 929.2
493.22 311.37 960.8
523.86 329.06 1015.4
499.88 312.43 964.1
478.35 297.48 917.9
495.86 306.85 946.8
513.94 316.47 976.5
479.11 293.57 905.9
466.54 284.48 877.8
475.15 288.32 889.7
464.70 280.62 865.9
451.87 271.56 838.0
442.60 264.71 816.8
495.31 294.83 909.8
575.65 341.02 1052.3
540.26 318.55 983.0
480.41 281.93 870.0
500.84 292.55 902.7
491.43 285.71 881.6
475.81 275.35 849.7
525.18 302.52 933.5
573.94 329.10 1015.5
607.82 346.93 1070.5
635.24 360.93 1113.7
661.88 374.37 1155.2
666.59 375.33 1158.2
618.29 346.58 1069.4
569.64 317.88 980.9
566.25 314.58 970.7
582.78 322.33 994.6
627.73 345.67 1066.6
664.63 364.38 1124.4
704.71 384.67 1187.0
401.76 593.07 1844.8
379.44 553.54 1721.8
379.56 547.28 1702.4
378.32 539.22 1677.3
365.92 515.62 1603.9
365.38 509.07 1583.5
380.79 524.64 1632.0
391.17 533.03 1658.0
387.73 522.60 1625.6
376.53 502.03 1561.6
358.45 472.84 1470.8
359.45 464.28 1444.2
389.07 497.36 1547.1
398.26 503.92 1567.5
391.89 490.86 1526.9
389.87 483.44 1503.8
395.24 485.24 1509.4
392.33 476.95 1483.6
386.33 465.10 1446.7
384.88 458.90 1427.4
396.88 468.69 1457.9
404.21 472.85 1470.9
394.50 457.18 1422.1
396.40 455.13 1415.7
407.36 463.42 1441.5
405.34 456.93 1421.3
398.99 445.72 1386.4
405.79 449.27 1397.5
415.60 456.06 1418.6
412.24 448.40 1394.8
405.21 436.93 1359.1
403.52 431.35 1341.7
406.73 431.06 1340.9
406.02 426.66 1327.2
407.50 424.62 1320.8
420.59 434.61 1351.9
432.10 442.82 1377.4
439.13 446.33 1388.3
446.20 449.83 1399.2
446.01 446.01 1387.3
444.57 441.02 1371.8
439.50 432.53 1345.4
438.49 428.14 1331.8
450.67 436.59 1358.1
452.35 434.82 1352.5
452.78 431.89 1343.4
460.86 436.23 1356.9
461.87 433.88 1349.6
466.90 435.31 1354.1
471.01 435.86 1355.8
459.64 422.18 1313.2
458.88 418.39 1301.4
463.19 419.24 1304.1
463.32 416.31 1295.0
476.06 424.68 1321.0
487.61 431.88 1343.4
490.72 431.55 1342.4
484.56 423.13 1316.2
480.27 416.46 1295.4
485.26 417.87 1299.8
483.20 413.22 1285.4
471.23 400.22 1244.9
466.24 393.29 1223.4
477.62 400.17 1244.8
487.02 405.30 1260.7
489.89 404.98 1259.7
495.21 406.66 1265.0
504.76 411.78 1280.9
523.56 424.33 1319.9
538.28 433.42 1348.2
533.11 426.49 1326.6
526.41 418.43 1301.6
516.69 408.09 1269.4
490.85 385.22 1198.3
518.38 404.27 1257.5
535.74 410.07 1275.6
522.16 397.23 1235.6
517.41 391.21 1216.9
509.18 382.66 1190.3
506.52 378.36 1176.9
507.22 376.62 1171.5
493.73 364.42 1133.6
490.07 359.58 1118.5
503.76 367.45 1143.0
382.48 274.15 852.8
468.01 333.52 1037.5
439.35 311.31 968.4
410.78 289.42 900.3
390.32 273.45 850.6
410.68 286.09 889.9
425.94 295.07 917.8
424.28 292.28 909.2
433.99 297.32 924.8
453.20 308.77 960.5
449.92 304.86 948.3
445.75 300.40 934.4
464.37 311.26 968.2
466.45 310.97 967.3
439.60 291.50 906.7
457.95 302.05 939.6
489.12 320.91 998.2
481.06 313.95 976.6
475.45 308.67 960.2
479.20 309.48 962.7
480.80 308.91 960.9
465.99 297.85 926.5
435.85 277.15 862.1
418.06 264.49 822.7
454.77 286.25 890.4
530.84 332.45 1034.1
546.23 340.36 1058.7
508.60 315.33 980.9
490.64 302.68 941.5
510.44 313.34 974.7
502.61 307.01 955.0
454.67 276.37 859.7
465.02 281.28 875.0
490.84 295.46 919.1
490.91 294.07 914.7
491.88 293.24 912.1
465.32 276.08 858.8
506.66 299.17 930.6
586.62 344.74 1072.4
542.90 317.55 987.8
494.19 287.70 894.9
520.29 301.48 937.8
539.53 311.17 967.9
562.65 323.01 1004.7
586.87 335.35 1043.2
612.19 348.22 1083.2
596.77 337.90 1051.1
579.31 326.52 1015.7
612.94 343.91 1069.8
623.73 348.39 1083.7
601.77 334.62 1040.9
576.26 319.00 992.3
559.78 308.50 959.6
567.04 311.12 967.8
588.99 321.74 1000.8
606.16 329.67 1025.5
626.39 339.18 1055.0
691.65 372.89 1159.9
422.22 649.16 2035.7
387.01 573.52 1798.5
407.04 589.02 1847.1
395.83 566.14 1775.3
383.22 541.79 1699.0
376.59 526.37 1650.6
382.18 528.18 1656.3
389.96 532.95 1671.3
393.87 532.37 1669.5
385.35 515.20 1615.6
369.85 489.16 1534.0
372.50 487.42 1528.5
375.34 485.97 1523.9
371.47 475.94 1492.5
382.12 484.54 1519.5
387.72 486.63 1526.0
377.92 469.54 1472.4
364.73 448.62 1406.8
358.24 436.28 1368.1
373.06 449.87 1410.7
383.65 458.14 1436.7
382.66 452.57 1419.2
395.90 463.77 1454.3
411.59 477.60 1497.7
409.34 470.56 1475.6
399.51 455.00 1426.8
399.06 450.32 1412.2
398.80 445.94 1398.4
393.98 436.57 1369.0
401.54 440.98 1382.9
411.86 448.31 1405.8
408.19 440.42 1381.1
400.30 428.15 1342.6
402.97 427.29 1339.9
410.34 431.39 1352.8
413.30 430.81 1351.0
418.78 432.85 1357.4
424.86 435.48 1365.6
428.97 436.06 1367.4
432.22 435.76 1366.5
435.46 435.46 1365.6
432.26 428.77 1344.6
427.77 420.93 1320.0
434.46 424.11 1330.0
445.08 431.06 1351.8
457.91 440.03 1379.9
459.95 438.56 1375.3
457.07 432.46 1356.1
461.79 433.59 1359.7
458.78 427.50 1340.6
459.42 424.88 1332.4
468.19 429.76 1347.7
461.53 420.50 1318.7
458.23 414.43 1299.6
459.33 412.40 1293.2
447.50 398.86 1250.8
448.13 396.54 1243.5
468.33 411.46 1290.3
480.19 418.89 1313.6
491.83 426.02 1336.0
506.90 436.01 1367.3
501.34 428.23 1342.9
488.58 414.45 1299.7
482.06 406.12 1273.5
482.59 403.80 1266.3
488.23 405.76 1272.4
490.80 405.15 1270.5
494.39 405.40 1271.3
500.43 407.63 1278.3
497.36 402.47 1262.1
500.93 402.71 1262.8
540.06 431.34 1352.6
524.95 413.91 1298.0
475.82 372.77 1169.0
474.45 369.35 1158.2
537.00 415.42 1302.7
545.07 419.02 1314.0
470.41 359.38 1127.0
464.76 352.87 1106.6
481.05 363.00 1138.3
467.44 350.58 1099.4
454.03 338.46 1061.4
467.39 346.32 1086.0
476.66 351.07 1100.9
457.63 335.05 1050.7
447.63 325.79 1021.6
502.92 363.88 1141.1
414.00 297.79 933.8
443.83 313.74 983.9
455.50 320.15 1004.0
442.94 309.55 970.7
443.85 308.44 967.2
456.01 315.11 988.2
456.54 313.71 983.8
471.67 322.31 1010.7
503.65 342.26 1073.3
510.07 344.72 1081.0
482.74 324.46 1017.5
455.14 304.25 954.1
448.87 298.44 935.9
490.54 324.39 1017.2
504.87 332.08 1041.4
465.82 304.76 955.7
444.59 289.33 907.3
464.78 300.89 943.5
486.84 313.51 983.1
456.78 292.63 917.6
429.89 273.97 859.1
452.01 286.59 898.7
464.76 293.15 919.3
474.53 297.79 933.8
545.18 340.39 1067.4
573.78 356.44 1117.8
539.06 333.19 1044.8
527.95 324.69 1018.2
530.51 324.64 1018.0
519.68 316.44 992.3
487.22 295.21 925.8
453.59 273.49 857.6
470.27 282.16 884.8
509.28 304.08 953.6
528.08 313.79 984.0
569.86 336.98 1056.7
572.48 336.92 1056.5
521.23 305.29 957.4
509.32 296.90 931.0
531.62 308.44 967.2
552.68 319.15 1000.8
612.19 351.87 1103.4
640.18 364.55 1143.2
583.91 330.97 1037.9
562.76 317.52 995.7
516.71 290.20 910.1
530.94 296.85 930.9
589.82 328.27 1029.4
576.97 319.67 1002.5
545.67 300.98 943.8
564.98 310.23 972.9
590.22 322.65 1011.8
562.49 306.13 960.0
546.78 296.27 929.1
588.85 317.67 996.2
625.27 335.84 1053.2
662.40 354.24 1110.9
405.46 603.24 1907.2
390.10 573.40 1812.9
405.18 588.48 1860.5
404.87 581.10 1837.2
389.67 552.79 1747.7
384.96 539.83 1706.7
384.09 532.49 1683.5
390.19 534.86 1691.0
398.71 540.47 1708.7
397.22 532.54 1683.7
384.74 510.20 1613.0
380.87 499.64 1579.7
394.04 511.41 1616.9
388.64 499.09 1577.9
376.58 478.57 1513.0
382.39 480.94 1520.5
383.29 477.16 1508.6
380.09 468.39 1480.9
373.15 455.24 1439.3
368.43 445.03 1407.0
384.57 459.98 1454.3
392.06 464.38 1468.2
388.41 455.64 1440.5
394.92 458.87 1450.7
404.28 465.30 1471.1
409.38 466.76 1475.7
405.73 458.32 1449.0
409.49 458.33 1449.0
413.78 458.91 1450.9
402.19 442.05 1397.6
403.16 439.15 1388.4
419.68 453.11 1432.5
422.31 451.94 1428.9
411.25 436.28 1379.3
410.97 432.22 1366.5
422.02 440.05 1391.3
428.42 442.95 1400.4
425.56 436.28 1379.4
423.73 430.79 1362.0
436.42 440.03 1391.2
447.53 447.53 1414.9
446.23 442.60 1399.3
437.83 430.77 1361.9
432.19 421.82 1333.6
437.73 423.83 1340.0
441.19 423.82 1339.9
446.76 425.82 1346.3
456.01 431.26 1363.5
459.52 431.24 1363.4
463.03 431.22 1363.3
457.85 423.16 1337.9
444.11 407.38 1288.0
439.26 399.93 1264.4
449.81 406.50 1285.2
463.64 415.91 1314.9
465.10 414.17 1309.4
453.61 401.02 1267.9
456.88 401.00 1267.8
481.07 419.22 1325.4
487.75 422.03 1334.3
493.15 423.70 1339.6
509.57 434.74 1374.5
505.36 428.15 1353.6
490.93 413.05 1305.9
482.38 403.09 1274.4
488.03 405.03 1280.6
498.86 411.23 1300.1
492.16 402.97 1274.0
484.63 394.17 1246.2
494.11 399.22 1262.2
493.46 396.07 1252.2
500.55 399.13 1261.9
545.74 432.34 1366.9
547.24 427.97 1353.1
499.64 388.26 1227.5
502.40 387.93 1226.5
527.84 405.01 1280.5
499.45 380.83 1204.0
455.18 344.92 1090.5
462.45 348.27 1101.1
500.42 374.54 1184.2
504.93 375.62 1187.6
481.14 355.75 1124.7
482.87 354.88 1122.0
442.62 323.35 1022.3
384.29 279.07 882.3
411.68 297.19 939.6
506.73 363.65 1149.7
573.11 408.88 1292.7
526.65 373.55 1181.0
460.04 324.42 1025.7
471.76 330.78 1045.8
470.08 327.71 1036.1
439.63 304.74 963.5
436.51 300.87 951.2
445.83 305.57 966.1
468.97 319.63 1010.5
511.80 346.89 1096.7
511.32 344.64 1089.6
479.20 321.22 1015.6
462.84 308.56 975.5
439.27 291.26 920.8
406.31 267.95 847.1
411.89 270.16 854.1
467.00 304.67 963.3
490.55 318.33 1006.4
470.26 303.55 959.7
488.45 313.64 991.6
496.10 316.88 1001.9
453.20 287.97 910.5
431.01 272.45 861.4
456.61 287.15 907.8
482.41 301.81 954.2
504.03 313.73 991.9
530.19 328.34 1038.1
523.13 322.33 1019.1
515.11 315.79 998.4
524.28 319.81 1011.1
501.02 304.10 961.4
472.19 285.19 901.6
481.68 289.49 915.2
490.78 293.51 927.9
494.05 294.02 929.6
514.57 304.75 963.5
505.62 298.00 942.1
513.50 301.19 952.2
557.22 325.26 1028.4
545.96 317.17 1002.8
498.98 288.51 912.2
482.73 277.80 878.3
478.46 274.05 866.4
519.03 295.89 935.5
637.31 361.63 1143.3
600.99 339.45 1073.2
562.50 316.25 999.8
548.38 306.89 970.3
576.51 321.16 1015.4
687.47 381.23 1205.3
647.21 357.28 1129.6
506.58 278.39 880.2
554.19 303.19 958.6
663.63 361.44 1142.7
662.98 359.48 1136.5
609.14 328.83 1039.6
576.45 309.81 979.5
596.54 319.20 1009.2
640.40 341.17 1078.7
690.95 366.50 1158.7
625.78 330.50 1044.9
571.11 300.32 949.5
675.27 353.57 1117.9
393.31 594.89 1896.3
389.79 582.28 1856.1
390.04 575.55 1834.7
386.56 563.54 1796.4
388.38 559.45 1783.4
379.44 540.14 1721.8
375.18 527.86 1682.7
378.93 527.01 1680.0
383.08 526.74 1679.1
393.47 534.95 1705.3
399.86 537.59 1713.7
396.62 527.38 1681.1
390.34 513.38 1636.5
392.13 510.19 1626.3
406.55 523.32 1668.2
401.49 511.38 1630.1
382.39 481.97 1536.4
381.96 476.46 1518.8
382.62 472.41 1505.9
379.16 463.42 1477.3
385.18 466.06 1485.7
393.89 471.89 1504.3
395.36 469.00 1495.1
388.14 455.96 1453.5
389.68 453.37 1445.2
401.74 462.95 1475.8
405.32 462.67 1474.9
404.54 457.47 1458.3
404.20 452.85 1443.6
411.07 456.33 1454.7
421.68 463.84 1478.6
415.71 453.16 1444.6
408.51 441.34 1406.9
417.55 447.11 1425.3
422.60 448.55 1429.8
413.72 435.30 1387.6
417.04 435.02 1386.7
431.48 446.23 1422.5
437.96 449.10 1431.6
435.17 442.48 1410.5
426.86 430.42 1372.1
433.85 433.85 1383.0
447.54 443.87 1414.9
448.57 441.28 1406.7
447.80 436.97 1392.9
449.92 435.52 1388.3
449.63 431.79 1376.4
446.58 425.49 1356.3
451.59 426.90 1360.8
460.27 431.72 1376.2
461.05 429.13 1368.0
461.80 426.55 1359.7
467.16 428.23 1365.1
464.41 422.51 1346.8
458.75 414.24 1320.5
468.17 419.62 1337.6
478.94 426.11 1358.3
477.28 421.54 1343.8
471.36 413.29 1317.5
481.89 419.49 1337.2
491.86 425.11 1355.1
482.81 414.32 1320.8
481.88 410.62 1308.9
491.90 416.22 1326.8
499.99 420.13 1339.3
497.33 415.01 1322.9
482.70 400.04 1275.2
481.52 396.35 1263.5
495.75 405.31 1292.0
491.79 399.37 1273.1
484.60 390.91 1246.1
494.08 395.92 1262.1
502.23 399.80 1274.5
519.99 411.23 1310.9
512.99 403.06 1284.9
485.11 378.70 1207.2
510.51 395.98 1262.3
534.36 411.83 1312.8
523.11 400.61 1277.0
533.67 406.13 1294.6
524.06 396.32 1263.4
503.21 378.19 1205.6
524.13 391.48 1247.9
570.29 423.35 1349.5
533.82 393.86 1255.5
466.33 341.97 1090.1
449.75 327.83 1045.0
393.27 284.94 908.3
410.01 293.56 935.8
456.26 324.75 1035.2
467.11 330.53 1053.6
489.79 344.56 1098.4
488.65 341.77 1089.5
515.15 358.24 1142.0
518.44 358.47 1142.7
457.86 314.78 1003.4
433.98 296.67 945.7
438.05 297.77 949.2
459.54 310.64 990.2
510.09 342.89 1093.0
515.72 344.76 1099.0
467.18 310.60 990.1
432.61 286.04 911.8
439.13 288.77 920.5
432.78 283.06 902.3
392.08 255.06 813.1
399.27 258.35 823.6
465.55 299.63 955.1
509.93 326.46 1040.7
475.14 302.59 964.6
439.59 278.48 887.7
458.20 288.76 920.5
491.59 308.20 982.5
479.39 299.00 953.1
465.75 289.01 921.3
481.21 297.07 947.0
500.28 307.28 979.5
508.93 311.01 991.4
519.83 316.08 1007.6
536.56 324.62 1034.8
517.79 311.71 993.6
472.92 283.28 903.0
471.20 280.86 895.3
492.87 292.34 931.9
514.25 303.53 967.6
571.18 335.50 1069.5
599.81 350.61 1117.7
514.71 299.43 954.5
482.68 279.45 890.8
502.48 289.52 922.9
485.85 278.62 888.2
453.76 258.98 825.6
498.74 282.00 898.9
604.34 340.11 1084.2
577.30 323.40 1030.9
526.88 293.79 936.5
552.02 306.40 976.7
628.29 347.14 1106.6
663.01 364.65 1162.4
528.14 289.16 921.8
465.96 253.97 809.6
583.49 316.60 1009.2
653.35 352.92 1125.0
607.92 326.92 1042.1
631.45 338.08 1077.7
683.02 364.08 1160.6
629.30 333.97 1064.6
601.82 317.99 1013.7
694.80 365.52 1165.2
688.64 360.72 1149.9
628.17 327.62 1044.4
422.35 633.52 2036.3
403.63 597.97 1922.1
390.91 572.07 1838.8
381.60 551.71 1773.4
378.68 540.97 1738.8
397.62 561.34 1804.3
420.00 586.05 1883.7
394.77 544.51 1750.2
376.12 512.89 1648.6
379.98 512.33 1646.8
379.48 505.98 1626.3
378.88 499.62 1605.9
374.62 488.64 1570.6
378.04 487.80 1567.9
392.78 501.42 1611.7
401.09 506.64 1628.5
393.06 491.33 1579.3
380.36 470.55 1512.5
369.44 452.38 1454.1
368.00 446.06 1433.8
376.31 451.57 1451.5
385.68 458.23 1472.9
388.78 457.39 1470.2
387.91 451.93 1452.6
395.18 455.98 1465.7
396.98 453.69 1458.3
390.11 441.64 1419.6
397.14 445.39 1431.6
405.00 449.99 1446.4
400.94 441.40 1418.8
401.21 437.68 1406.8
413.88 447.43 1438.2
424.29 454.59 1461.2
426.18 452.58 1454.7
425.06 447.43 1438.2
412.63 430.57 1384.0
411.81 426.01 1369.3
435.11 446.27 1434.4
450.04 457.66 1471.1
450.44 454.22 1460.0
444.24 444.24 1427.9
430.13 426.58 1371.1
423.27 416.33 1338.2
434.02 423.43 1361.0
442.82 428.54 1377.4
447.86 429.94 1382.0
450.53 429.07 1379.2
448.08 423.39 1360.9
453.10 424.78 1365.4
471.53 438.63 1409.9
481.58 444.54 1428.9
471.05 431.50 1387.0
466.23 423.84 1362.3
473.48 427.20 1373.1
477.95 428.01 1375.8
480.21 426.85 1372.0
483.40 426.53 1371.0
486.27 425.93 1369.1
484.28 421.11 1353.6
482.53 416.58 1339.0
479.09 410.65 1319.9
481.15 409.49 1316.2
492.48 416.18 1337.7
496.90 416.98 1340.3
498.64 415.53 1335.6
496.98 411.29 1322.0
483.01 397.00 1276.1
475.33 388.03 1247.2
481.97 390.79 1256.1
492.80 396.88 1275.7
503.02 402.41 1293.5
510.86 405.98 1304.9
516.64 407.88 1311.0
514.66 403.65 1297.5
485.54 378.34 1216.1
453.54 351.12 1128.6
464.01 356.93 1147.3
509.34 389.31 1251.3
530.01 402.54 1293.9
534.38 403.30 1296.3
511.14 383.35 1232.2
505.38 376.68 1210.8
549.03 406.69 1307.2
566.16 416.81 1339.7
493.54 361.12 1160.8
467.76 340.19 1093.5
497.93 359.95 1157.0
476.81 342.61 1101.3
476.17 340.12 1093.2
474.34 336.81 1082.6
456.55 322.27 1035.9
458.44 321.71 1034.1
471.29 328.81 1056.9
483.45 335.34 1077.9
523.78 361.23 1161.1
523.93 359.27 1154.8
464.54 316.73 1018.1
452.31 306.65 985.7
467.75 315.34 1013.6
469.95 315.05 1012.7
499.82 333.21 1071.0
531.98 352.70 1133.7
500.74 330.16 1061.2
443.19 290.62 934.1
438.57 286.02 919.4
470.10 304.93 980.1
447.52 288.72 928.0
408.76 262.30 843.1
426.59 272.29 875.2
499.65 317.24 1019.7
511.18 322.85 1037.7
463.36 291.12 935.7
470.92 294.33 946.1
509.56 316.83 1018.4
501.75 310.36 997.6
506.03 311.40 1000.9
541.74 331.68 1066.1
533.02 324.68 1043.6
518.91 314.49 1010.9
511.74 308.59 991.9
506.27 303.76 976.4
531.46 317.29 1019.9
524.19 311.40 1000.9
502.91 297.29 955.6
505.79 297.52 956.3
508.66 297.75 957.1
541.53 315.45 1014.0
585.57 339.46 1091.1
527.83 304.52 978.8
464.12 266.48 856.5
454.80 259.89 835.4
486.60 276.74 889.5
510.71 289.08 929.2
483.68 272.50 875.9
538.82 302.14 971.2
658.72 367.65 1181.7
656.86 364.92 1173.0
546.59 302.26 971.5
545.69 300.38 965.5
529.51 290.14 932.6
473.98 258.54 831.0
478.26 258.52 831.0
561.59 302.20 971.4
601.83 322.41 1036.3
588.79 314.02 1009.4
646.45 343.25 1103.3
652.54 344.96 1108.8
544.13 286.38 920.5
556.79 291.77 937.8
686.78 358.32 1151.7
407.67 577.54 1872.0
391.26 535.17 1734.6
370.63 501.19 1624.5
372.49 498.05 1614.3
369.52 488.59 1583.6
367.05 479.99 1555.8
362.88 469.38 1521.4
365.51 467.69 1515.9
381.94 483.52 1567.2
390.60 489.28 1585.9
386.63 479.26 1553.4
376.18 461.50 1495.9
374.65 454.94 1474.6
382.55 459.83 1490.5
386.67 460.14 1491.4
391.77 461.59 1496.1
395.91 461.89 1497.1
396.09 457.62 1483.3
396.70 453.92 1471.3
391.72 443.95 1439.0
383.52 430.56 1395.6
388.44 432.01 1400.3
396.74 437.15 1416.9
393.65 429.77 1393.0
390.97 422.95 1370.9
400.90 429.79 1393.1
415.22 441.17 1430.0
421.89 444.29 1440.1
423.72 442.30 1433.6
414.55 428.97 1390.4
415.40 426.14 1381.3
440.42 447.95 1451.9
450.90 454.72 1473.9
445.37 445.37 1443.6
447.96 444.22 1439.9
442.19 434.88 1409.6
429.63 419.07 1358.3
434.02 419.91 1361.0
437.83 420.18 1361.9
438.10 417.07 1351.8
445.17 420.43 1362.8
446.28 418.17 1355.4
443.73 412.53 1337.1
454.49 419.26 1358.9
478.83 438.32 1420.7
482.79 438.56 1421.5
466.53 420.59 1363.3
462.21 413.56 1340.5
469.13 416.61 1350.4
473.86 417.70 1353.9
477.01 417.39 1352.9
478.55 415.68 1347.3
477.80 412.02 1335.5
476.34 407.80 1321.8
484.31 411.67 1334.3
498.61 420.81 1364.0
504.75 422.99 1371.0
503.23 418.77 1357.4
497.28 410.95 1332.0
487.83 400.36 1297.7
483.67 394.22 1277.8
485.91 393.35 1275.0
491.92 395.53 1282.0
503.16 401.85 1302.5
519.36 412.03 1335.5
533.26 420.25 1362.2
531.42 416.05 1348.5
518.53 403.30 1307.2
510.80 394.71 1279.4
498.28 382.55 1240.0
491.34 374.81 1214.9
512.93 388.78 1260.2
518.68 390.65 1266.2
504.66 377.70 1224.2
495.62 368.61 1194.8
510.14 377.06 1222.2
500.21 367.44 1191.0
460.93 336.51 1090.7
470.51 341.41 1106.6
548.64 395.69 1282.5
555.67 398.34 1291.2
511.89 364.76 1182.3
515.27 364.99 1183.0
515.18 362.76 1175.8
472.75 330.92 1072.6
452.87 315.16 1021.5
458.25 317.05 1027.6
462.87 318.39 1032.0
455.62 311.61 1010.0
428.00 291.04 943.3
426.46 288.34 934.6
456.60 306.98 995.0
478.53 319.92 1036.9
484.83 322.32 1044.7
489.13 323.37 1048.1
494.67 325.22 1054.1
483.37 316.05 1024.4
445.94 289.98 939.9
448.37 289.98 939.9
475.39 305.79 991.2
484.20 309.79 1004.1
467.01 297.19 963.3
455.55 288.36 934.6
493.59 310.78 1007.3
537.03 336.35 1090.2
521.81 325.11 1053.8
496.98 308.02 998.4
502.97 310.12 1005.2
502.05 307.96 998.2
511.98 312.44 1012.7
538.13 326.72 1059.0
517.54 312.63 1013.3
499.40 300.15 972.9
487.28 291.39 944.5
487.92 290.31 941.0
515.73 305.33 989.7
538.81 317.42 1028.9
541.84 317.63 1029.5
523.22 305.21 989.3
504.43 292.82 949.1
514.11 296.99 962.6
525.22 301.94 978.7
521.73 298.49 967.5
496.58 282.74 916.4
480.45 272.25 882.5
510.04 287.65 932.4
554.25 311.11 1008.4
545.56 304.80 987.9
566.30 314.90 1020.7
662.85 366.88 1189.2
642.13 353.77 1146.7
540.74 296.54 961.2
533.64 291.30 944.2
512.17 278.30 902.1
467.07 252.64 818.9
519.35 277.14 898.3
608.47 323.25 1047.8
651.93 344.80 1117.6
661.47 348.29 1128.9
612.22 320.95 1040.3
530.17 276.71 896.9
554.63 288.21 934.2
634.68 328.38 1064.4
721.20 371.52 1204.2
641.99 325.09 1053.7
413.04 616.95 2016.7
412.85 579.96 1895.7
388.28 539.02 1761.9
384.72 527.88 1725.5
381.83 517.88 1692.8
382.61 513.05 1677.0
385.90 511.64 1672.4
383.93 503.37 1645.4
376.33 487.98 1595.1
367.36 471.18 1540.2
360.14 456.96 1493.7
367.68 461.55 1508.7
377.57 468.99 1533.0
374.16 459.90 1503.3
372.47 453.10 1481.1
378.93 456.26 1491.4
391.87 467.08 1526.8
400.89 473.05 1546.3
402.97 470.79 1538.9
404.02 467.40 1527.8
405.51 464.57 1518.6
406.71 461.46 1508.4
408.36 458.92 1500.1
406.91 452.98 1480.7
391.78 432.06 1412.3
379.94 415.12 1356.9
392.87 425.31 1390.2
406.49 436.05 1425.4
407.01 432.68 1414.3
412.29 434.37 1419.9
419.48 438.04 1431.8
422.10 436.91 1428.2
415.38 426.22 1393.2
419.00 426.22 1393.2
441.83 445.60 1456.6
449.52 449.52 1469.4
457.55 453.71 1483.1
473.06 465.18 1520.6
459.15 447.77 1463.7
438.31 423.94 1385.8
441.60 423.65 1384.8
444.88 423.36 1383.9
439.87 415.24 1357.3
441.29 413.27 1350.9
439.07 407.95 1333.5
433.44 399.58 1306.1
440.47 402.91 1317.0
460.13 417.66 1365.2
473.84 426.81 1395.2
467.15 417.61 1365.1
453.75 402.57 1315.9
451.78 397.83 1300.4
464.33 405.86 1326.7
475.09 412.21 1347.4
480.15 413.56 1351.8
482.97 412.97 1349.9
487.07 413.49 1351.6
499.71 421.19 1376.8
497.94 416.72 1362.2
487.47 405.08 1324.1
496.54 409.73 1339.3
501.30 410.79 1342.8
490.85 399.45 1305.7
486.02 392.81 1284.0
495.12 397.45 1299.2
509.46 406.19 1327.7
515.96 408.61 1335.6
526.67 414.31 1354.3
539.56 421.65 1378.3
535.64 415.83 1359.2
530.21 408.92 1336.7
530.03 406.13 1327.5
522.98 398.14 1301.4
523.76 396.17 1295.0
528.85 397.48 1299.3
514.99 384.62 1257.2
522.58 387.83 1267.7
538.33 397.02 1297.8
516.77 378.75 1238.0
471.45 343.40 1122.5
433.12 313.55 1024.9
438.41 315.44 1031.1
502.04 359.03 1173.6
520.25 369.81 1208.8
473.96 334.89 1094.7
485.22 340.81 1114.0
483.04 337.27 1102.5
441.97 306.78 1002.8
464.08 320.24 1046.8
524.43 359.78 1176.1
437.14 298.16 974.6
380.65 258.14 843.8
394.43 265.96 869.4
427.12 286.36 936.1
436.79 291.19 951.8
439.26 291.19 951.8
464.04 305.90 999.9
489.43 320.85 1048.8
492.51 321.08 1049.5
479.97 311.19 1017.2
460.26 296.78 970.1
471.47 302.36 988.3
487.76 311.11 1017.0
486.17 308.43 1008.2
488.74 308.40 1008.1
490.47 307.85 1006.3
485.39 303.05 990.6
485.37 301.44 985.3
497.73 307.50 1005.1
507.59 311.95 1019.7
482.12 294.77 963.5
449.90 273.65 894.5
474.42 287.08 938.4
517.03 311.27 1017.5
475.28 284.68 930.6
436.24 259.98 849.8
452.17 268.12 876.4
481.54 284.11 928.7
495.07 290.64 950.0
501.51 292.96 957.6
524.18 304.69 996.0
529.39 306.22 1001.0
510.61 293.91 960.7
517.14 296.23 968.3
525.52 299.57 979.2
516.07 292.77 957.0
509.74 287.80 940.7
511.66 287.51 939.8
522.85 292.40 955.8
543.87 302.72 989.5
537.93 298.01 974.1
553.03 304.94 996.8
609.61 334.57 1093.6
579.71 316.69 1035.2
527.78 287.00 938.1
523.48 283.35 926.2
550.63 296.69 969.8
548.74 294.32 962.1
483.87 258.35 844.5
507.54 268.57 877.9
611.24 321.99 1052.5
627.45 329.06 1075.6
606.60 316.72 1035.3
682.20 354.63 1159.2
670.46 345.48 1129.3
683.57 350.70 1146.4
787.69 402.37 1315.2
583.09 294.04 961.1
588.48 295.49 965.9
401.56 566.06 1866.1
380.29 529.69 1746.2
368.12 506.70 1670.4
377.27 513.26 1692.1
384.63 517.26 1705.2
393.75 523.51 1725.9
404.27 531.46 1752.1
395.53 514.18 1695.1
381.21 490.13 1615.8
372.73 474.02 1562.7
366.24 460.75 1519.0
370.65 461.35 1520.9
377.60 465.05 1533.1
379.97 463.09 1526.7
383.95 463.12 1526.8
381.78 455.80 1502.6
386.41 456.67 1505.5
397.07 464.58 1531.6
400.57 464.02 1529.7
403.81 463.19 1527.0
407.28 462.63 1525.2
414.98 466.85 1539.1
423.76 472.19 1556.7
415.84 458.99 1513.2
393.33 430.09 1417.9
385.12 417.21 1375.4
403.06 432.64 1426.3
416.24 442.73 1459.6
416.31 438.81 1446.6
416.04 434.62 1432.8
417.60 432.38 1425.4
428.10 439.36 1448.5
429.10 436.57 1439.2
412.36 415.92 1371.2
415.64 415.64 1370.2
431.28 427.62 1409.7
447.38 439.86 1450.1
465.96 454.31 1497.7
454.57 439.54 1449.0
440.34 422.29 1392.2
451.53 429.50 1415.9
460.47 434.47 1432.3
460.89 431.40 1422.2
456.79 424.17 1398.4
448.97 413.62 1363.6
454.31 415.26 1369.0
471.55 427.68 1409.9
469.64 422.68 1393.4
461.78 412.43 1359.7
457.19 405.23 1335.9
445.58 391.98 1292.2
448.29 391.41 1290.4
465.91 403.78 1331.2
478.60 411.73 1357.4
486.58 415.55 1369.9
489.76 415.23 1368.9
494.24 416.01 1371.5
498.39 416.52 1373.1
487.70 404.69 1334.1
475.49 391.78 1291.6
483.82 395.85 1305.0
496.91 403.74 1331.0
494.55 399.05 1315.6
489.05 391.91 1292.0
497.49 395.96 1305.4
516.68 408.45 1346.6
528.42 414.93 1367.9
525.26 409.70 1350.7
522.01 404.47 1333.4
519.04 399.53 1317.1
515.64 394.31 1299.9
532.50 404.56 1333.7
545.21 411.54 1356.7
538.16 403.62 1330.6
534.63 398.42 1313.5
499.99 370.24 1220.6
479.61 352.92 1163.5
517.64 378.52 1247.9
523.77 380.62 1254.8
482.56 348.52 1149.0
445.76 319.96 1054.8
469.97 335.28 1105.3
571.68 405.37 1336.4
569.69 401.53 1323.7
494.54 346.47 1142.2
480.13 334.38 1102.3
455.50 315.34 1039.6
430.97 296.61 977.8
463.98 317.46 1046.6
532.60 362.29 1194.4
448.05 303.02 999.0
399.51 268.63 885.6
422.94 282.77 932.2
434.98 289.16 953.3
426.20 281.72 928.8
430.64 283.06 933.2
457.01 298.72 984.8
496.25 322.56 1063.4
518.20 334.97 1104.3
498.36 320.37 1056.2
475.83 304.22 1002.9
473.00 300.76 991.5
476.79 301.54 994.1
444.14 279.38 921.0
422.12 264.10 870.7
428.20 266.49 878.5
428.37 265.18 874.2
436.19 268.60 885.5
456.05 279.36 921.0
486.81 296.65 978.0
486.72 295.06 972.7
457.54 275.94 909.7
480.79 288.48 951.0
523.46 312.47 1030.1
488.29 290.00 956.0
438.26 258.97 853.8
442.70 260.28 858.1
478.71 280.04 923.2
502.94 292.76 965.1
504.49 292.21 963.3
520.43 299.95 988.9
526.08 301.72 994.7
513.17 292.88 965.6
501.05 284.58 938.2
490.64 277.32 914.2
486.55 273.69 902.3
487.94 273.15 900.5
500.40 278.80 919.1
523.61 290.34 957.2
523.23 288.76 952.0
498.52 273.84 902.8
513.01 280.48 924.7
562.41 306.06 1009.0
574.37 311.12 1025.7
555.57 299.55 987.5
548.51 294.39 970.5
572.42 305.81 1008.2
585.45 311.35 1026.4
534.62 283.03 933.1
476.65 251.21 828.2
525.74 275.84 909.3
596.03 311.32 1026.3
575.15 299.08 986.0
571.72 295.98 975.8
651.17 335.63 1106.5
773.58 395.23 1303.0
796.29 398.14 1312.6
405.77 611.29 2032.6
410.92 603.38 2006.3
415.15 601.97 2001.6
403.86 564.43 1876.8
380.96 526.09 1749.3
378.28 516.24 1716.6
395.28 533.16 1772.8
395.02 526.70 1751.3
396.80 523.05 1739.2
406.28 529.53 1760.7
396.67 511.26 1700.0
378.16 482.06 1602.9
365.64 461.02 1532.9
363.34 453.19 1506.9
372.72 459.96 1529.4
387.27 472.88 1572.4
397.62 480.46 1597.6
400.83 479.35 1593.9
397.41 470.40 1564.1
396.70 464.82 1545.6
402.16 466.51 1551.2
400.59 460.09 1529.9
399.17 453.96 1509.5
398.38 448.66 1491.9
402.51 448.95 1492.8
413.70 457.04 1519.7
407.97 446.46 1484.5
402.84 436.72 1452.2
411.53 442.02 1469.8
410.90 437.29 1454.1
405.46 427.57 1421.7
415.52 434.24 1443.9
425.70 440.90 1466.1
435.17 446.72 1485.4
454.26 462.22 1537.0
452.18 456.11 1516.6
432.84 432.84 1439.2
422.05 418.45 1391.4
424.25 417.06 1386.8
422.74 412.08 1370.2
424.86 410.70 1365.6
444.80 426.42 1417.9
462.95 440.18 1463.7
470.81 444.01 1476.4
475.77 445.08 1479.9
470.98 437.07 1453.3
461.87 425.21 1413.9
462.50 422.44 1404.7
476.71 432.02 1436.5
484.97 436.10 1450.1
473.63 422.63 1405.3
466.72 413.28 1374.2
463.40 407.23 1354.1
454.34 396.27 1317.6
459.31 397.61 1322.1
467.79 401.96 1336.6
471.87 402.47 1338.3
493.65 417.98 1389.9
510.82 429.38 1427.8
496.18 414.08 1376.9
480.33 397.99 1323.4
481.73 396.32 1317.8
483.44 394.93 1313.2
490.48 397.87 1323.0
502.28 404.61 1345.4
496.90 397.52 1321.8
486.64 386.64 1285.6
498.50 393.37 1308.0
520.80 408.19 1357.3
525.28 408.95 1359.8
513.72 397.28 1321.0
495.31 380.51 1265.2
477.35 364.30 1211.3
488.98 370.73 1232.7
526.41 396.52 1318.5
536.21 401.29 1334.4
524.41 389.95 1296.6
522.25 385.86 1283.0
487.88 358.19 1191.0
459.35 335.12 1114.3
482.52 349.82 1163.2
499.59 359.95 1196.9
474.28 339.61 1129.2
459.91 327.30 1088.3
520.79 368.36 1224.8
572.79 402.69 1339.0
512.88 358.40 1191.7
477.60 331.75 1103.1
476.19 328.80 1093.3
485.57 333.29 1108.2
501.23 342.01 1137.2
467.38 317.06 1054.3
454.38 306.44 1019.0
459.77 308.28 1025.1
454.87 303.25 1008.3
457.47 303.24 1008.3
451.66 297.68 989.8
442.55 290.03 964.4
449.49 292.93 974.0
467.44 302.92 1007.2
494.50 318.68 1059.6
496.79 318.38 1058.7
461.60 294.21 978.3
450.05 285.28 948.6
457.90 288.68 959.9
455.37 285.53 949.4
422.18 263.30 875.5
394.57 244.76 813.9
404.83 248.47 826.2
430.90 263.08 874.8
447.32 271.67 903.3
469.46 283.63 943.1
509.04 305.95 1017.3
520.30 311.10 1034.5
491.09 292.14 971.4
482.63 285.64 949.8
488.13 287.43 955.7
475.57 278.62 926.4
463.33 270.08 898.1
482.54 279.87 930.6
514.39 296.86 987.1
526.30 302.23 1005.0
523.43 299.10 994.6
510.57 290.32 965.4
493.96 279.51 929.4
481.76 271.28 902.0
476.75 267.17 888.4
477.19 266.13 884.9
482.23 267.65 890.0
496.06 274.02 911.1
519.73 285.73 950.1
521.66 285.43 949.1
505.35 275.21 915.1
526.91 285.61 949.7
566.97 305.90 1017.1
572.32 307.36 1022.0
579.12 309.58 1029.4
604.51 321.67 1069.6
547.90 290.21 965.0
487.51 257.05 854.7
541.16 284.05 944.5
600.49 313.77 1043.3
586.09 304.87 1013.7
570.60 295.49 982.5
538.40 277.58 923.0
523.59 268.74 893.6
525.35 268.46 892.7
529.07 269.18 895.0
610.89 309.45 1029.0
775.61 389.48 1295.1
390.21 568.03 1905.2
387.95 557.67 1870.5
389.06 552.36 1852.7
399.26 559.94 1878.0
385.35 533.92 1790.8
378.97 518.83 1740.2
392.59 531.15 1781.5
402.44 538.15 1805.0
395.50 522.79 1753.5
385.96 504.38 1691.7
384.75 497.14 1667.4
389.08 497.16 1667.5
383.05 484.08 1623.6
382.15 477.69 1602.2
391.27 483.83 1622.8
387.53 474.11 1590.2
390.52 472.73 1585.6
401.37 480.81 1612.6
405.09 480.26 1610.8
400.28 469.71 1575.4
398.16 462.51 1551.3
406.29 467.23 1567.1
407.68 464.19 1556.9
390.10 439.82 1475.2
373.61 417.14 1399.1
388.02 429.06 1439.1
408.17 447.05 1499.4
418.94 454.51 1524.4
430.08 462.24 1550.4
431.76 459.75 1542.0
423.20 446.50 1497.6
418.38 437.40 1467.0
429.09 444.56 1491.1
439.92 451.70 1515.0
451.40 459.39 1540.8
468.45 472.56 1585.0
462.64 462.64 1551.7
443.92 440.10 1476.1
434.05 426.63 1430.9
436.35 425.25 1426.3
434.36 419.76 1407.9
431.71 413.73 1387.7
448.26 426.03 1428.9
464.71 438.04 1469.2
469.65 439.10 1472.8
467.55 433.61 1454.3
455.27 418.85 1404.8
452.01 412.55 1383.7
457.98 414.71 1391.0
469.75 422.04 1415.5
476.43 424.73 1424.5
475.17 420.34 1409.8
477.86 419.49 1407.0
479.59 417.83 1401.4
473.77 409.65 1374.0
461.50 396.06 1328.4
453.78 386.56 1296.5
457.76 387.08 1298.3
481.40 404.10 1355.4
510.17 425.14 1425.9
505.64 418.34 1403.1
484.25 397.77 1334.2
480.39 391.80 1314.1
485.08 392.85 1317.6
495.48 398.46 1336.5
507.65 405.41 1359.8
502.30 398.37 1336.2
492.40 387.85 1300.9
504.64 394.79 1324.1
512.50 398.22 1335.7
500.27 386.11 1295.0
486.11 372.68 1250.0
467.17 355.79 1193.3
472.00 357.10 1197.7
509.54 382.98 1284.5
529.24 395.21 1325.5
516.42 383.15 1285.1
515.70 380.17 1275.1
526.20 385.44 1292.8
487.82 355.06 1190.9
451.91 326.86 1096.3
468.04 336.40 1128.3
475.76 339.83 1139.8
465.98 330.79 1109.5
471.83 332.89 1116.5
502.62 352.44 1182.1
519.28 361.92 1213.9
498.71 345.49 1158.8
489.39 337.01 1130.3
496.51 339.87 1139.9
523.80 356.43 1195.5
505.81 342.17 1147.6
448.12 301.36 1010.8
442.08 295.58 991.4
445.04 295.84 992.2
455.94 301.34 1010.7
472.10 310.24 1040.5
457.14 298.70 1001.8
440.80 286.39 960.6
448.95 290.05 972.8
466.90 299.96 1006.1
474.79 303.34 1017.4
460.58 292.63 981.5
443.33 280.13 939.6
441.63 277.52 930.8
456.51 285.32 957.0
464.82 288.95 969.1
463.54 286.60 961.3
458.43 281.92 945.6
450.28 275.44 923.8
466.27 283.71 951.6
473.84 286.80 961.9
465.16 280.07 939.4
466.28 279.29 936.7
479.93 285.97 959.2
504.97 299.34 1004.0
492.69 290.56 974.5
476.34 279.49 937.4
472.59 275.88 925.3
472.31 274.32 920.1
473.79 273.80 918.3
487.71 280.43 940.6
512.00 292.94 982.5
490.27 279.11 936.2
457.53 259.19 869.3
474.69 267.60 897.5
486.53 272.93 915.4
485.22 270.87 908.5
491.66 273.14 916.1
488.48 270.07 905.8
490.33 269.80 904.9
489.86 268.26 899.8
494.95 269.76 904.8
528.94 286.92 962.4
546.32 294.96 989.3
546.45 293.65 984.9
569.64 304.69 1021.9
577.84 307.65 1031.9
591.31 313.36 1051.0
616.27 325.10 1090.4
559.19 293.64 984.9
497.37 259.99 872.0
557.82 290.27 973.6
631.72 327.24 1097.6
625.18 322.40 1081.3
621.48 319.07 1070.2
584.56 298.78 1002.1
566.47 288.25 966.8
566.40 286.94 962.4
549.07 276.94 928.9
620.62 311.66 1045.3
410.91 592.95 2006.2
393.09 560.15 1895.2
377.28 530.98 1796.6
370.96 515.73 1745.0
355.09 487.72 1650.2
348.56 473.05 1600.5
368.46 494.17 1672.0
385.15 510.55 1727.4
383.09 501.98 1698.4
376.18 487.32 1648.8
367.50 470.74 1592.7
365.11 462.47 1564.7
374.26 468.86 1586.4
387.98 480.76 1626.6
410.23 502.87 1701.4
418.74 507.84 1718.2
408.48 490.18 1658.5
406.98 483.29 1635.2
409.34 481.09 1627.7
403.15 468.97 1586.7
400.10 460.72 1558.8
407.77 464.85 1572.8
409.41 462.11 1563.5
392.82 439.03 1485.4
384.28 425.32 1439.0
405.80 444.82 1505.0
421.83 457.99 1549.6
427.63 459.90 1556.1
432.68 460.99 1559.7
427.90 451.67 1528.2
431.59 451.39 1527.2
438.70 454.66 1538.3
437.89 449.72 1521.6
437.53 445.34 1506.8
431.41 435.23 1472.6
430.58 430.58 1456.9
447.00 443.11 1499.2
450.86 443.09 1499.2
431.54 420.48 1422.7
423.12 408.77 1383.1
436.63 418.28 1415.2
449.72 427.23 1445.5
454.02 427.76 1447.3
456.88 426.92 1444.5
461.47 427.71 1447.1
459.01 421.99 1427.8
441.31 402.48 1361.8
431.38 390.29 1320.5
443.83 398.39 1348.0
461.56 411.07 1390.9
473.38 418.33 1415.4
476.39 417.76 1413.5
481.88 419.34 1418.8
485.82 419.57 1419.6
475.96 407.96 1380.3
458.63 390.18 1320.2
457.57 386.40 1307.4
469.26 393.35 1330.9
478.16 397.89 1346.2
491.99 406.43 1375.1
507.92 416.57 1409.4
507.24 413.03 1397.5
487.97 394.53 1334.9
477.06 382.99 1295.8
476.36 379.76 1284.9
477.63 378.12 1279.4
495.49 389.56 1318.1
511.13 399.11 1350.4
505.30 391.86 1325.9
492.10 379.05 1282.5
489.81 374.76 1268.0
488.16 371.00 1255.3
483.98 365.39 1236.3
508.00 381.00 1289.1
535.45 398.96 1349.9
538.15 398.37 1347.9
532.56 391.69 1325.3
539.16 394.00 1333.1
562.53 408.46 1382.0
541.50 390.70 1321.9
472.41 338.71 1146.0
450.95 321.30 1087.1
481.25 340.76 1153.0
498.77 350.99 1187.5
487.89 341.23 1154.5
504.81 350.90 1187.3
523.76 361.87 1224.4
510.84 350.82 1187.0
462.08 315.43 1067.2
432.06 293.18 992.0
490.42 330.81 1119.3
509.23 341.48 1155.4
424.91 283.27 958.4
380.61 252.27 853.5
408.95 269.48 911.8
443.11 290.31 982.3
453.63 295.51 999.8
434.96 281.73 953.2
440.66 283.81 960.3
471.88 302.21 1022.5
427.74 272.41 921.7
392.15 248.36 840.3
414.89 261.31 884.1
427.93 268.04 906.9
429.46 267.53 905.2
447.63 277.33 938.3
471.78 290.72 983.6
485.22 297.39 1006.2
494.95 301.74 1020.9
498.82 302.48 1023.4
492.91 297.31 1005.9
481.38 288.83 977.2
464.57 277.28 938.2
454.92 270.11 913.9
473.72 279.81 946.7
499.17 293.33 992.5
485.12 283.61 959.6
464.79 270.33 914.7
481.65 278.72 943.1
504.38 290.40 982.6
470.95 269.79 912.8
453.26 258.36 874.1
502.91 285.23 965.1
517.92 292.29 989.0
477.61 268.22 907.5
482.20 269.46 911.7
490.89 272.98 923.6
485.95 268.92 909.9
507.03 279.24 944.8
522.75 286.51 969.4
557.00 303.82 1028.0
588.26 319.34 1080.5
527.27 284.88 963.9
510.11 274.31 928.1
536.80 287.30 972.1
547.69 291.76 987.2
574.66 304.71 1031.0
592.35 312.63 1057.8
592.58 311.31 1053.3
601.36 314.47 1064.0
604.93 314.89 1065.4
606.57 314.31 1063.5
603.39 311.25 1053.1
591.47 303.73 1027.7
619.70 316.80 1071.9
652.96 332.31 1124.4
618.57 313.41 1060.4
600.57 302.94 1025.0
676.81 339.89 1150.0
766.84 383.42 1297.3
713.97 355.43 1202.6
720.29 357.01 1207.9
406.97 567.75 1937.9
403.00 555.35 1895.6
388.10 528.37 1803.5
371.10 499.21 1704.0
384.02 510.52 1742.6
394.61 518.51 1769.9
386.31 501.75 1712.7
378.99 486.66 1661.2
370.35 470.21 1605.0
363.82 456.80 1559.2
368.77 457.92 1563.1
373.07 458.23 1564.1
385.71 468.66 1599.7
406.95 489.21 1669.9
408.98 486.47 1660.5
404.46 476.08 1625.1
