ply
format ascii 1.0
element vertex 2260
property float x
property float y
property float z
end_header
-111.20 619.04 1429.8
-108.41 624.30 1441.9
-105.49 629.15 1453.1
-102.12 631.63 1458.9
-99.28 637.67 1472.8
-96.31 643.32 1485.9
-90.93 632.70 1461.3
-84.69 614.93 1420.3
-81.96 622.15 1437.0
-78.99 628.18 1450.9
-74.10 618.72 1429.0
-74.01 650.55 1502.5
-69.19 722.20 1668.1
-61.02 727.89 1681.2
-47.18 606.02 1399.7
-43.69 608.05 1404.4
-40.91 683.20 1578.0
-36.29 673.31 1555.1
-30.37 634.01 1464.4
-23.30 555.78 1283.7
-18.53 515.67 1191.0
-17.55 586.01 1353.5
-6.64 554.65 1281.1
-2.95 493.47 1139.8
0.00 504.60 1165.5
3.79 633.73 1463.7
19.59 654.34 1511.3
21.35 594.33 1372.7
24.46 583.58 1347.9
28.07 585.94 1353.3
24.43 453.24 1046.8
31.55 479.01 1106.3
43.06 599.31 1384.2
43.56 559.56 1292.4
46.44 553.96 1279.5
48.75 542.79 1253.7
45.04 470.09 1085.7
45.71 449.00 1037.0
59.47 551.77 1274.4
68.32 600.53 1387.0
65.97 550.86 1272.3
78.24 622.22 1437.1
79.50 577.24 1333.2
86.42 601.36 1388.9
96.07 641.73 1482.2
79.40 509.98 1177.9
74.30 459.55 1061.4
91.93 548.28 1266.3
110.20 634.60 1465.7
91.78 478.98 1106.3
123.09 540.93 1249.4
-327.38 799.19 1857.0
-320.80 794.81 1846.8
-302.93 761.91 1770.3
-278.41 711.01 1652.1
-273.62 709.70 1649.0
-287.84 758.42 1762.3
-280.88 752.04 1747.4
-256.75 698.70 1623.5
-244.71 677.02 1573.1
-237.23 667.46 1550.9
-228.22 653.18 1517.7
-224.36 653.39 1518.2
-221.81 657.52 1527.8
-218.18 658.50 1530.1
-212.49 653.22 1517.8
-207.37 649.49 1509.1
-205.60 656.35 1525.1
-203.03 660.85 1535.5
-200.53 665.75 1546.9
-194.95 660.44 1534.6
-191.59 662.58 1539.6
-191.76 677.29 1573.7
-185.45 669.22 1555.0
-177.41 654.45 1520.7
-171.01 645.18 1499.1
-165.13 637.47 1481.2
-161.63 638.80 1484.3
-158.69 642.49 1492.9
-154.28 640.28 1487.7
-150.18 639.24 1485.3
-149.25 651.98 1514.9
-146.76 658.42 1529.9
-141.45 652.25 1515.6
-136.30 646.47 1502.1
-129.37 631.62 1467.6
-122.14 614.40 1427.6
-117.32 608.60 1414.1
-116.18 622.11 1445.5
-115.23 637.60 1481.5
-110.17 630.61 1465.3
-105.12 623.21 1448.1
-102.73 631.59 1467.6
-100.92 644.32 1497.1
-97.70 648.75 1507.4
-92.21 637.79 1482.0
-88.11 635.90 1477.6
-87.53 660.46 1534.6
-83.51 660.14 1533.9
-77.69 644.82 1498.3
-74.58 651.60 1514.1
-73.19 674.97 1568.4
-72.69 709.80 1649.3
-50.07 639.31 1485.5
-45.70 632.25 1469.1
-43.71 659.55 1532.5
-33.54 556.84 1293.9
-29.08 536.32 1246.2
-24.13 500.77 1163.6
-18.97 449.81 1045.2
-14.91 494.90 1149.9
-14.53 602.83 1400.7
-7.39 613.52 1425.6
-3.39 562.53 1307.1
0.00 580.72 1349.3
3.82 634.48 1474.3
11.59 641.18 1489.8
15.45 641.17 1489.8
17.84 592.14 1375.9
17.93 496.07 1152.7
21.67 513.84 1193.9
25.79 535.16 1243.5
26.55 489.68 1137.8
27.71 460.02 1068.9
29.88 450.90 1047.7
30.91 427.56 993.5
38.22 487.98 1133.9
50.02 593.04 1378.0
56.08 620.64 1442.1
57.23 593.73 1379.6
52.34 511.12 1187.6
60.38 556.88 1294.0
74.85 653.97 1519.6
79.26 657.85 1528.6
73.62 581.97 1352.2
67.07 506.10 1176.0
65.74 474.46 1102.4
76.80 531.23 1234.3
94.67 628.62 1460.7
91.83 586.32 1362.4
88.42 543.62 1263.1
103.39 612.96 1424.3
96.77 535.47 1244.2
144.70 667.22 1550.3
-326.56 792.39 1852.3
-314.47 774.43 1810.4
-310.35 775.88 1813.8
-296.42 752.46 1759.0
-275.53 710.35 1660.5
-277.11 725.77 1696.6
-282.60 752.09 1758.1
-267.63 723.93 1692.3
-244.65 672.78 1572.7
-228.39 638.73 1493.1
-226.38 644.00 1505.5
-228.87 662.53 1548.8
-226.38 667.02 1559.3
-222.54 667.62 1560.7
-215.75 659.24 1541.1
-209.44 652.03 1524.2
-206.90 656.51 1534.7
-204.07 660.21 1543.4
-198.46 654.93 1531.0
-190.14 640.27 1496.7
-183.47 630.68 1474.3
-180.14 632.41 1478.4
-179.62 644.30 1506.2
-177.04 649.16 1517.5
-172.32 646.19 1510.6
-168.14 645.18 1508.2
-161.68 635.16 1484.8
-155.92 627.47 1466.8
-153.57 633.49 1480.9
-151.25 639.90 1495.9
-149.66 649.83 1519.1
-146.36 652.71 1525.8
-143.21 656.37 1534.4
-140.42 661.99 1547.5
-133.61 648.40 1515.7
-126.49 632.44 1478.4
-121.16 624.72 1460.4
-119.60 636.59 1488.1
-116.19 639.06 1493.9
-108.61 617.98 1444.6
-106.48 627.50 1466.9
-107.13 654.67 1530.4
-104.48 663.02 1549.9
-100.17 661.15 1545.5
-94.98 652.99 1526.5
-91.25 654.65 1530.4
-89.39 670.45 1567.3
-83.59 656.78 1535.3
-75.00 618.75 1446.4
-69.00 599.17 1400.7
-72.36 663.28 1550.5
-64.82 713.00 1666.7
-56.93 722.54 1689.1
-46.03 632.96 1479.6
-37.51 562.62 1315.2
-30.69 506.43 1183.9
-27.93 511.96 1196.8
-25.26 521.03 1218.0
-20.79 489.99 1145.4
-14.93 492.77 1151.9
-12.97 534.87 1250.3
-9.39 516.39 1207.2
-6.94 572.25 1337.7
-3.88 640.30 1496.8
0.00 645.80 1509.7
15.37 633.98 1482.0
14.00 462.10 1080.2
15.76 433.38 1013.1
21.34 502.96 1175.8
25.26 521.03 1218.0
25.95 475.79 1112.2
26.76 441.55 1032.2
28.88 433.27 1012.8
30.71 422.23 987.0
37.91 481.17 1124.8
48.66 573.51 1340.7
54.71 601.76 1406.7
62.43 643.76 1504.9
65.51 635.84 1486.4
63.96 586.27 1370.5
67.77 588.56 1375.9
82.27 617.03 1442.4
72.92 523.09 1222.8
72.36 497.50 1163.0
72.33 477.41 1116.0
79.79 506.39 1183.8
93.06 568.72 1329.5
96.16 566.67 1324.7
98.55 560.69 1310.7
114.69 630.82 1474.6
121.52 646.79 1512.0
110.21 568.24 1328.4
119.90 599.51 1401.4
-329.10 782.21 1839.7
-312.93 754.70 1775.0
-298.81 731.42 1720.2
-293.53 729.37 1715.4
-295.16 744.71 1751.5
-286.95 735.31 1729.4
-282.42 735.18 1729.1
-282.57 747.44 1757.9
-272.78 733.37 1724.8
-252.81 691.01 1625.2
-239.48 665.66 1565.6
-240.29 679.45 1598.0
-235.15 676.56 1591.2
-226.06 662.04 1557.1
-225.35 671.94 1580.4
-221.06 671.37 1579.0
-210.51 651.39 1532.0
-204.01 643.43 1513.3
-200.75 645.55 1518.3
-194.74 638.74 1502.3
-187.07 626.10 1472.5
-180.91 618.10 1453.7
-178.75 623.71 1466.9
-179.13 638.66 1502.1
-175.07 638.04 1500.6
-168.93 629.64 1480.9
-166.46 634.85 1493.1
-161.33 629.94 1481.6
-155.97 623.86 1467.3
-154.00 631.40 1485.0
-151.48 637.00 1498.2
-149.53 645.32 1517.7
-147.12 652.08 1533.6
-144.80 659.63 1551.4
-142.88 669.51 1574.6
-137.13 661.45 1555.7
-130.53 648.70 1525.7
-125.76 644.53 1515.9
-122.37 647.37 1522.6
-116.87 638.90 1502.6
-109.61 619.88 1457.9
-108.18 633.64 1490.3
-104.59 635.30 1494.2
-96.96 611.58 1438.4
-95.62 627.29 1475.3
-93.70 640.27 1505.9
-88.11 628.24 1477.6
-83.92 625.59 1471.3
-82.62 645.20 1517.5
-78.74 645.67 1518.6
-71.01 612.91 1441.5
-72.81 663.40 1560.3
-73.96 713.51 1678.1
-62.18 637.33 1498.9
-58.15 635.82 1495.4
-60.36 707.05 1662.9
-44.50 663.39 1560.2
-32.37 530.82 1248.5
-29.20 532.02 1251.3
-26.79 549.26 1291.8
-20.27 474.95 1117.1
-15.50 423.72 996.5
-14.14 463.64 1090.4
-11.98 491.04 1154.9
-9.05 494.96 1164.1
-7.35 602.96 1418.1
-3.76 617.45 1452.2
0.00 563.84 1326.1
3.25 532.54 1252.5
6.89 565.01 1328.9
11.46 626.43 1473.3
12.25 502.39 1181.6
15.95 435.85 1025.1
20.66 483.95 1138.2
23.28 477.28 1122.5
26.51 483.13 1136.3
30.89 506.57 1191.4
32.74 488.16 1148.1
34.20 467.39 1099.3
36.89 465.41 1094.6
40.43 473.58 1113.8
47.71 521.64 1226.9
57.49 589.24 1385.8
66.95 645.87 1519.0
65.12 562.09 1322.0
73.16 599.94 1411.0
76.81 599.87 1410.8
58.55 436.46 1026.5
64.84 425.35 1000.4
83.27 525.27 1235.4
90.51 549.79 1293.1
85.39 500.12 1176.2
97.88 553.52 1301.8
122.68 609.69 1433.9
124.11 598.66 1408.0
111.43 522.11 1228.0
-317.86 761.92 1803.0
-299.40 728.39 1723.6
-273.09 674.44 1596.0
-259.84 651.61 1541.9
-266.36 678.39 1605.3
-274.34 709.81 1679.7
-263.93 693.88 1642.0
-244.34 652.91 1545.0
-243.96 662.76 1568.3
-247.09 682.64 1615.4
-237.91 668.60 1582.1
-224.44 641.81 1518.7
-222.03 646.26 1529.3
-227.12 673.09 1592.8
-223.18 673.68 1594.2
-212.84 654.58 1549.0
-206.67 647.82 1533.0
-203.60 650.71 1539.8
-200.96 655.14 1550.3
-196.30 653.01 1545.2
-188.70 640.81 1516.4
-185.49 643.30 1522.3
-182.79 647.73 1532.7
-175.34 635.12 1502.9
-168.56 624.44 1477.6
-165.28 626.53 1482.6
-164.97 640.24 1515.0
-164.00 652.01 1542.9
-158.42 645.57 1527.6
-152.64 637.96 1509.6
-148.94 638.88 1511.8
-144.88 638.24 1510.3
-140.05 634.10 1500.5
-135.52 631.13 1493.5
-131.91 632.42 1496.5
-127.59 630.21 1491.3
-124.66 634.98 1502.6
-123.29 648.29 1534.1
-119.62 649.96 1538.0
-114.27 642.30 1519.9
-109.28 636.19 1505.4
-101.92 615.31 1456.0
-93.33 585.10 1384.6
-90.88 592.57 1402.2
-91.10 618.69 1464.0
-87.70 621.49 1470.7
-84.26 624.29 1477.3
-83.80 650.42 1539.1
-80.91 659.44 1560.5
-74.25 636.96 1507.3
-69.87 632.74 1497.3
-63.48 608.69 1440.4
-53.61 546.12 1292.3
-50.98 553.95 1310.8
-55.37 644.65 1525.5
-39.71 588.36 1392.3
-34.21 557.65 1319.6
-33.18 676.02 1599.7
-23.60 549.56 1300.5
-15.46 419.97 993.8
-12.07 492.00 1164.3
-10.67 579.98 1372.4
-7.52 612.69 1449.8
-3.45 562.09 1330.1
0.00 537.57 1272.1
3.33 542.63 1284.0
6.83 556.25 1316.3
11.05 600.62 1421.3
13.60 554.28 1311.6
14.85 484.21 1145.8
19.07 518.05 1225.9
24.77 576.81 1364.9
28.25 575.61 1362.1
30.99 561.19 1328.0
33.02 538.20 1273.6
32.25 477.85 1130.8
34.35 466.53 1104.0
38.82 486.73 1151.8
45.04 524.43 1241.0
54.66 594.02 1405.7
73.66 631.90 1495.3
72.85 593.73 1405.0
70.12 544.28 1288.0
59.97 444.31 1051.4
68.30 445.30 1053.7
86.76 543.92 1287.1
90.28 545.00 1289.7
94.61 550.74 1303.2
113.25 595.50 1409.2
-338.32 771.95 1838.0
-303.16 701.59 1670.5
-324.00 760.70 1811.2
-313.27 757.46 1803.5
-284.71 698.83 1663.9
-267.75 667.33 1588.9
-271.90 688.24 1638.7
-268.64 690.78 1644.7
-248.63 649.65 1546.8
-234.17 621.90 1480.7
-238.08 642.81 1530.5
-245.50 674.08 1605.0
-239.77 669.70 1594.5
-229.91 653.42 1555.8
-230.46 666.68 1587.3
-232.02 683.39 1627.1
-224.54 673.62 1603.9
-213.28 651.92 1552.2
-206.24 642.51 1529.8
-201.48 640.00 1523.8
-197.11 638.65 1520.6
-197.30 652.29 1553.1
-194.12 655.16 1559.9
-187.56 646.48 1539.2
-181.43 638.96 1521.3
-175.82 632.96 1507.0
-170.60 628.11 1495.5
-167.48 630.96 1502.3
-167.12 644.60 1534.8
-161.71 638.97 1521.4
-152.19 616.37 1467.6
-150.83 626.54 1491.8
-151.70 646.73 1539.8
-146.68 642.24 1529.1
-140.95 634.27 1510.2
-135.48 627.06 1493.0
-130.98 624.10 1485.9
-125.35 615.34 1465.1
-120.88 611.98 1457.1
-118.97 621.74 1480.3
-114.73 619.53 1475.1
-111.89 625.04 1488.2
-109.59 634.03 1509.6
-106.07 636.45 1515.4
-101.23 630.75 1501.8
-92.82 601.46 1432.0
-86.65 584.92 1392.7
-86.18 607.04 1445.3
-86.23 634.96 1511.8
-84.27 650.12 1547.9
-79.55 644.39 1534.3
-75.18 640.98 1526.2
-73.98 665.81 1585.3
-69.63 663.56 1579.9
-60.23 609.83 1452.0
-52.82 570.41 1358.1
-51.64 597.55 1422.7
-53.48 666.49 1586.9
-49.57 669.25 1593.5
-43.74 644.13 1533.6
-34.89 706.57 1682.3
-28.14 651.23 1550.6
-18.94 511.48 1217.8
-15.26 494.46 1177.3
-15.67 634.65 1511.1
-10.72 578.90 1378.3
-5.95 482.10 1147.9
-2.87 464.68 1106.4
0.00 474.36 1129.4
3.27 529.35 1260.3
7.26 588.20 1400.5
11.70 631.56 1503.7
14.21 575.40 1370.0
16.46 533.18 1269.5
22.01 594.34 1415.1
23.27 538.57 1282.3
22.52 456.08 1085.9
29.79 536.19 1276.6
38.31 620.56 1477.5
36.46 536.91 1278.3
37.99 512.87 1221.1
40.38 503.16 1198.0
43.78 506.60 1206.2
52.85 570.80 1359.1
62.22 629.95 1499.9
73.14 623.58 1484.7
75.93 615.00 1464.3
80.06 617.63 1470.6
76.51 563.42 1341.5
77.02 542.47 1291.6
80.30 542.01 1290.5
78.38 507.92 1209.3
83.61 520.98 1240.4
87.98 527.86 1256.8
93.29 539.76 1285.1
99.30 554.73 1320.8
88.41 477.39 1136.7
108.99 551.74 1313.7
-332.76 754.58 1807.8
-316.64 738.82 1770.0
-329.99 781.31 1871.8
-313.87 754.22 1806.9
-307.89 751.07 1799.4
-307.49 761.63 1824.7
-293.03 737.15 1766.0
-273.50 698.94 1674.5
-265.88 690.42 1654.1
-262.83 693.71 1662.0
-253.50 680.22 1629.6
-249.22 680.07 1629.3
-248.78 690.59 1654.5
-243.22 687.00 1645.9
-233.19 670.42 1606.1
-225.44 659.93 1581.0
-223.85 667.39 1598.9
-217.75 661.48 1584.7
-207.66 642.95 1540.3
-200.09 631.66 1513.3
-192.07 618.46 1481.7
-188.86 620.54 1486.7
-189.73 636.40 1524.7
-187.06 640.78 1535.1
-181.16 634.06 1519.0
-175.66 628.48 1505.7
-170.23 622.89 1492.3
-167.12 625.73 1499.1
-167.67 642.74 1539.8
-163.13 640.59 1534.7
-153.47 617.73 1479.9
-152.09 627.84 1504.1
-151.39 641.41 1536.6
-144.44 628.50 1505.7
-142.62 637.84 1528.1
-141.11 649.10 1555.1
-134.35 636.17 1524.1
-126.33 616.32 1476.6
-119.39 600.69 1439.1
-115.09 597.73 1432.0
-112.40 603.21 1445.1
-111.16 617.14 1478.5
-109.49 629.54 1508.2
-106.69 636.18 1524.1
-103.44 640.50 1534.5
-96.67 622.52 1491.4
-89.54 600.69 1439.1
-88.19 617.31 1478.9
-85.99 629.31 1507.7
-81.79 627.08 1502.3
-77.48 623.69 1494.2
-72.89 617.60 1479.6
-74.56 666.93 1597.8
-73.07 692.01 1657.9
-70.50 709.40 1699.5
-60.09 691.04 1655.6
-51.05 632.19 1514.6
-46.32 621.45 1488.8
-37.46 548.33 1313.7
-39.27 632.31 1514.9
-38.08 681.26 1632.1
-27.10 545.34 1306.5
-19.88 457.17 1095.3
-18.01 483.37 1158.0
-18.89 608.18 1457.1
-16.55 665.98 1595.5
-9.91 531.94 1274.4
-5.36 431.42 1033.6
0.00 447.98 1073.3
3.23 519.25 1244.0
5.47 440.28 1054.8
11.44 460.29 1102.7
19.08 614.35 1471.8
22.98 616.64 1477.3
22.12 508.77 1218.9
21.66 435.96 1044.5
28.83 515.66 1235.4
38.53 620.38 1486.3
38.25 559.88 1341.3
38.17 512.10 1226.9
39.54 489.73 1173.3
40.84 469.68 1125.2
48.24 517.76 1240.4
56.61 569.68 1364.8
66.61 630.82 1511.3
85.20 623.54 1493.8
84.12 588.85 1410.7
84.61 567.62 1359.9
78.69 506.78 1214.1
83.20 515.17 1234.2
88.51 527.78 1264.4
91.64 526.93 1262.4
92.82 515.31 1234.6
100.77 506.98 1214.6
-332.80 760.68 1833.8
-330.29 765.89 1846.3
-324.18 762.78 1838.8
-306.07 730.91 1762.0
-299.58 726.26 1750.8
-303.30 746.60 1799.8
-291.17 727.93 1754.8
-276.28 701.67 1691.5
-273.02 704.57 1698.5
-274.35 719.60 1734.7
-268.52 716.05 1726.2
-251.68 682.52 1645.4
-240.75 664.15 1601.1
-241.82 678.79 1636.4
-237.52 678.63 1636.0
-225.91 657.19 1584.3
-221.10 655.11 1579.3
-217.83 657.59 1585.3
-210.20 646.76 1559.1
-202.82 636.29 1533.9
-194.98 623.92 1504.1
-185.77 606.59 1462.3
-181.00 603.33 1454.5
-182.98 622.91 1501.7
-181.76 632.22 1524.1
-178.07 633.14 1526.3
-174.47 634.44 1529.5
-166.55 619.74 1494.0
-162.92 620.65 1496.2
-162.89 635.67 1532.4
-157.71 630.85 1520.8
-150.83 618.79 1491.7
-144.46 608.24 1466.3
-141.04 609.90 1470.3
-142.84 634.84 1530.4
-140.65 642.98 1550.0
-133.01 625.92 1508.9
-123.45 598.54 1442.9
-114.90 593.03 1429.6
-116.23 619.88 1494.4
-111.68 616.17 1485.4
-106.78 610.15 1470.9
-105.62 625.92 1508.9
-104.40 642.46 1548.8
-100.70 644.47 1553.6
-96.91 646.09 1557.5
-92.94 646.56 1558.7
-87.70 637.84 1537.6
-79.86 608.45 1466.8
-72.45 610.12 1470.8
-57.23 654.07 1576.8
-49.38 607.78 1465.2
-47.60 634.63 1529.9
-34.31 499.08 1203.1
-32.30 516.73 1245.7
-35.38 629.00 1516.3
-28.75 575.01 1386.2
-21.81 498.42 1201.5
-21.64 576.98 1390.9
-16.19 517.99 1248.7
-11.55 462.07 1113.9
-9.34 498.09 1200.8
-6.64 531.43 1281.1
-3.48 557.49 1344.0
3.72 594.66 1433.6
16.33 522.59 1259.8
23.22 619.12 1492.5
25.24 576.95 1390.9
26.91 538.24 1297.5
31.76 564.64 1361.2
36.65 586.45 1413.8
38.39 558.45 1346.3
41.45 552.67 1332.3
45.43 559.14 1347.9
49.66 567.52 1368.1
58.66 625.68 1508.3
70.41 625.88 1508.8
84.07 611.44 1474.0
87.31 558.79 1347.1
78.36 482.23 1162.5
90.53 536.45 1293.2
97.68 558.16 1345.6
103.02 568.39 1370.2
94.59 504.47 1216.1
92.54 477.63 1151.4
120.88 604.38 1457.0
-338.42 779.83 1891.8
-333.00 778.63 1888.9
-314.27 745.81 1809.2
-310.32 747.59 1813.6
-317.43 776.48 1883.7
-295.83 734.95 1782.9
-273.24 689.62 1672.9
-269.44 690.99 1676.3
-271.12 706.69 1714.3
-267.62 709.19 1720.4
-252.61 680.75 1651.4
-234.64 643.23 1560.4
-229.45 640.04 1552.7
-233.34 662.53 1607.2
-228.86 661.60 1605.0
-217.70 641.02 1555.0
-208.70 626.09 1518.8
-199.87 611.15 1482.6
-191.60 597.33 1449.0
-191.11 607.72 1474.2
-188.15 610.54 1481.1
-178.88 592.53 1437.4
-176.77 597.99 1450.7
-179.19 619.36 1502.5
-179.09 632.79 1535.1
-173.37 626.50 1519.8
-163.42 604.29 1465.9
-156.86 593.82 1440.5
-154.14 597.75 1450.1
-152.61 606.62 1471.6
-149.48 609.41 1478.3
-145.13 607.26 1473.1
-143.64 617.26 1497.4
-142.71 630.30 1529.0
-137.85 626.25 1519.2
-131.75 616.12 1494.6
-123.72 596.10 1446.1
-118.04 605.44 1468.7
-120.21 637.10 1545.5
-116.22 637.21 1545.8
-107.34 609.55 1478.7
-102.23 602.04 1460.5
-103.19 631.04 1530.8
-102.11 649.39 1575.3
-96.48 639.21 1550.6
-90.55 625.98 1518.5
-90.15 651.56 1580.6
-87.57 663.06 1608.5
-77.28 614.41 1490.5
-76.93 643.79 1561.8
-70.55 701.11 1700.8
-59.32 628.81 1525.4
-49.57 562.97 1365.7
-49.15 601.10 1458.2
-52.61 697.15 1691.2
-47.02 679.67 1648.8
-29.31 465.97 1130.4
-25.23 501.45 1216.5
-25.75 584.92 1419.0
-18.66 593.35 1439.4
-12.28 488.18 1184.3
-9.61 509.53 1236.1
-6.36 505.35 1225.9
-2.91 462.29 1121.5
6.42 510.68 1238.9
7.95 421.50 1022.5
14.51 461.49 1119.5
19.53 517.50 1255.4
20.37 462.60 1122.2
22.70 451.15 1094.4
27.48 485.42 1177.6
33.91 539.12 1307.8
37.80 546.32 1325.3
42.81 567.24 1376.1
48.84 597.29 1449.0
50.64 575.15 1395.3
55.87 592.25 1436.7
70.00 618.35 1500.0
62.45 451.37 1095.0
71.12 491.65 1192.7
97.98 623.14 1511.7
83.60 511.22 1240.2
92.29 543.47 1318.4
94.89 538.82 1307.1
91.12 499.57 1211.9
91.30 483.91 1173.9
90.62 464.82 1127.6
-334.63 766.27 1870.6
-319.12 741.49 1810.2
-321.22 757.49 1849.2
-291.08 718.62 1754.3
-272.44 683.27 1668.0
-270.57 689.51 1683.2
-263.25 681.87 1664.6
-253.04 666.34 1626.7
-242.32 648.93 1584.2
-227.54 619.86 1513.2
-224.91 623.44 1522.0
-231.42 652.94 1594.0
-231.28 664.42 1622.0
-223.68 654.47 1597.7
-216.45 645.27 1575.3
-208.96 634.93 1550.0
-194.32 602.01 1469.6
-188.30 595.03 1452.6
-191.47 617.41 1507.2
-187.85 618.33 1509.5
-179.73 604.18 1475.0
-176.61 606.60 1480.9
-178.18 625.60 1527.2
-173.95 624.63 1524.9
-165.11 606.69 1481.1
-159.51 600.05 1464.8
-156.43 602.83 1471.6
-154.37 609.76 1488.6
-150.92 611.41 1492.6
-146.26 608.14 1484.6
-144.12 615.45 1502.4
-142.75 626.53 1529.5
-139.15 628.17 1533.5
-134.39 624.51 1524.6
-128.65 615.94 1503.7
-124.23 613.41 1497.5
-122.01 621.84 1518.0
-120.60 635.18 1550.6
-119.03 648.52 1583.2
-112.13 632.74 1544.7
-102.91 602.20 1470.1
-99.55 604.94 1476.8
-101.90 644.00 1572.2
-100.31 660.37 1612.1
-92.89 638.12 1557.8
-90.71 651.46 1590.4
-76.45 635.78 1552.1
-65.19 572.23 1396.9
-69.40 645.00 1574.6
-71.96 710.59 1734.7
-61.28 645.50 1575.8
-51.83 584.94 1428.0
-49.88 606.20 1479.9
-51.11 672.93 1642.8
-48.25 693.06 1691.9
-34.35 542.66 1324.8
-25.97 455.90 1113.0
-26.65 526.42 1285.1
-28.95 653.41 1595.1
-13.44 531.04 1296.4
-9.88 520.44 1270.5
-6.25 493.91 1205.7
-2.60 410.52 1002.2
0.00 462.45 1129.0
3.85 608.39 1485.2
7.76 613.31 1497.2
10.60 558.34 1363.0
14.41 569.32 1389.8
18.68 590.15 1440.7
19.33 509.02 1242.6
20.80 469.59 1146.4
24.58 485.49 1185.2
26.66 468.03 1142.6
28.90 456.64 1114.8
33.32 478.59 1168.3
39.40 518.72 1266.3
38.84 472.08 1152.5
37.16 419.38 1023.8
43.88 462.15 1128.2
56.35 556.43 1358.4
59.25 550.70 1344.4
55.83 490.05 1196.3
62.98 523.70 1278.5
72.18 570.21 1392.0
73.77 555.00 1354.9
68.15 489.44 1194.8
65.23 448.13 1094.0
76.34 502.56 1226.9
80.23 507.03 1237.8
73.03 443.77 1083.4
84.10 492.13 1201.4
91.29 515.12 1257.5
95.78 521.84 1273.9
99.93 526.29 1284.8
107.47 547.74 1337.2
118.40 519.65 1268.6
-350.92 787.07 1933.7
-328.56 747.58 1836.6
-309.74 715.13 1756.9
-307.84 721.35 1772.2
-312.28 742.85 1825.0
-299.64 723.75 1778.1
-283.29 694.95 1707.3
-275.97 687.74 1689.6
-266.39 674.56 1657.3
-252.47 649.80 1596.4
-246.99 646.30 1587.8
-240.01 638.67 1569.1
-232.30 628.80 1544.8
-236.10 650.30 1597.6
-235.23 659.47 1620.2
-228.09 651.08 1599.6
-225.94 656.89 1613.8
-223.46 661.96 1626.3
-219.06 661.40 1624.9
-206.53 635.78 1562.0
-195.98 615.37 1511.8
-195.97 627.90 1542.6
-190.31 622.46 1529.2
-180.22 602.02 1479.0
-175.78 599.93 1473.9
-176.30 615.08 1511.1
-172.95 617.11 1516.1
-164.75 601.51 1477.8
-160.95 601.66 1478.1
-159.71 611.56 1502.5
-156.61 614.70 1510.2
-152.17 612.59 1505.0
-146.30 604.46 1485.0
-143.19 607.60 1492.7
-142.97 623.50 1531.8
-140.78 631.52 1551.5
-137.20 633.52 1556.4
-132.55 630.63 1549.3
-128.94 632.63 1554.2
-127.54 645.90 1586.8
-120.50 630.60 1549.2
-112.54 609.27 1496.8
-112.17 628.93 1545.1
-109.92 639.19 1570.3
-102.82 620.85 1525.3
-101.27 635.99 1562.5
-101.90 666.57 1637.6
-96.84 661.01 1624.0
-86.20 615.16 1511.3
-80.88 604.70 1485.6
-87.93 690.25 1695.8
-83.73 691.83 1699.7
-66.20 577.41 1418.6
-63.14 583.11 1432.6
-64.92 637.04 1565.1
-47.37 531.27 1305.2
-51.14 617.61 1517.3
-49.31 645.16 1585.0
-42.72 609.78 1498.1
-38.39 602.65 1480.6
-36.95 644.52 1583.5
-30.31 594.80 1461.3
-24.87 557.89 1370.6
-13.64 535.32 1315.2
-10.34 541.36 1330.0
-6.91 542.50 1332.8
-2.96 464.47 1141.1
0.00 413.57 1016.1
2.65 416.59 1023.5
6.11 479.54 1178.1
10.21 534.20 1312.4
13.51 530.42 1303.1
16.92 531.16 1304.9
20.79 543.96 1336.4
24.97 560.15 1376.2
30.94 607.24 1491.9
33.99 592.89 1456.6
31.35 492.22 1209.3
31.95 456.01 1120.3
38.83 507.99 1248.0
40.16 484.97 1191.5
37.50 420.50 1033.1
42.44 444.20 1091.3
50.41 494.64 1215.2
48.86 451.27 1108.7
48.54 423.36 1040.1
55.88 461.72 1134.4
67.88 532.84 1309.1
75.04 561.02 1378.3
76.92 548.90 1348.5
81.84 558.62 1372.4
86.99 569.08 1398.1
87.25 547.93 1346.1
79.01 477.11 1172.2
83.46 485.31 1192.3
96.67 542.04 1331.7
106.36 575.80 1414.6
108.03 530.01 1302.1
113.11 522.30 1283.2
-345.12 747.76 1848.9
-349.30 789.71 1952.6
-341.62 783.72 1937.8
-322.74 751.45 1858.0
-313.34 740.62 1831.2
-308.71 740.89 1831.9
-297.68 725.60 1794.1
-280.26 693.98 1715.9
-262.94 661.59 1635.8
-254.44 650.69 1608.8
-253.21 658.33 1627.7
-252.72 668.21 1652.2
-250.04 672.51 1662.8
-246.62 674.96 1668.9
-238.77 665.14 1644.6
-223.57 634.13 1567.9
-214.30 619.08 1530.7
-212.67 625.97 1547.7
-209.46 628.38 1553.7
-207.44 634.52 1568.9
-206.53 644.38 1593.3
-201.64 641.96 1587.3
-191.28 621.65 1537.1
-182.85 606.92 1500.6
-180.33 611.55 1512.1
-176.56 612.08 1513.4
-168.79 598.44 1479.7
-162.63 590.01 1458.8
-161.00 597.99 1478.5
-162.20 617.16 1525.9
-161.54 629.99 1557.7
-156.41 625.66 1547.0
-149.89 615.34 1521.4
-143.05 603.15 1491.3
-139.30 603.65 1492.5
-137.22 611.62 1512.2
-133.65 613.23 1516.2
-132.36 625.68 1547.0
-131.90 643.00 1589.8
-130.70 657.70 1626.2
-123.77 643.60 1591.3
-110.21 592.84 1465.8
-103.87 578.72 1430.9
-107.04 618.47 1529.2
-105.90 635.41 1571.1
-100.16 625.02 1545.4
-96.40 626.61 1549.3
-93.06 631.18 1560.6
-84.54 599.44 1482.1
-76.32 566.94 1401.8
-78.98 616.06 1523.2
-83.39 684.68 1692.9
-75.03 650.29 1607.9
-64.87 595.28 1471.9
-58.95 574.73 1421.0
-50.58 563.59 1393.5
-49.72 596.61 1475.1
-43.71 568.17 1404.8
-44.22 627.06 1550.4
-37.15 644.00 1592.3
-22.97 447.97 1107.6
-23.95 533.84 1319.9
-16.34 637.37 1575.9
-10.02 521.15 1288.6
-5.66 441.30 1091.1
-2.92 455.55 1126.4
0.00 460.43 1138.4
2.68 418.06 1033.7
5.72 445.80 1102.2
8.65 449.92 1112.4
10.73 418.41 1034.5
15.57 485.89 1201.4
21.37 555.60 1373.7
37.41 583.61 1443.0
34.25 485.75 1201.0
38.03 494.34 1222.3
45.53 546.40 1351.0
48.59 541.48 1338.8
45.11 469.12 1159.9
42.23 411.75 1018.1
50.13 460.04 1137.5
57.44 497.83 1230.9
58.80 482.79 1193.7
65.35 509.70 1260.3
77.23 573.68 1418.4
82.95 588.21 1454.4
98.23 589.38 1457.3
82.37 475.92 1176.7
84.13 452.58 1119.0
100.97 525.05 1298.2
103.28 519.73 1285.0
112.40 515.70 1275.1
121.46 541.38 1338.6
119.48 517.73 1280.1
-357.77 781.04 1943.6
-333.68 771.95 1921.0
-322.55 757.51 1885.0
-316.55 754.84 1878.4
-305.55 740.01 1841.5
-288.00 708.57 1763.3
-273.64 684.11 1702.4
-267.44 679.55 1691.1
-259.00 669.08 1665.0
-252.38 663.03 1649.9
-245.42 655.87 1632.1
-237.87 646.85 1609.7
-237.91 658.51 1638.7
-229.15 645.78 1607.0
-214.49 615.66 1532.1
-208.68 610.30 1518.7
-206.54 615.66 1532.1
-205.68 625.09 1555.5
-199.91 619.72 1542.2
-190.70 603.23 1501.1
-187.20 604.51 1504.3
-184.93 609.86 1517.6
-179.28 604.09 1503.3
-172.52 594.24 1478.8
-170.52 600.70 1494.8
-169.98 612.71 1524.7
-167.07 616.57 1534.3
-166.86 630.82 1569.8
-163.31 632.82 1574.8
-155.53 618.12 1538.2
-151.21 616.77 1534.8
-146.64 614.30 1528.7
-141.33 608.49 1514.2
-137.76 610.10 1518.2
-134.26 612.08 1523.1
-133.19 625.57 1556.7
-129.87 629.04 1565.3
-125.83 629.15 1565.6
-123.30 637.07 1585.3
-114.27 610.77 1519.9
-103.36 572.18 1423.9
-101.50 582.69 1450.0
-100.00 596.18 1483.6
-94.37 585.10 1456.0
-93.66 604.91 1505.3
-93.58 630.68 1569.4
-91.27 643.05 1600.2
-89.96 663.98 1652.3
-85.93 665.92 1657.1
-81.87 667.86 1662.0
-76.79 661.23 1645.5
-70.45 642.29 1598.3
-67.35 652.41 1623.5
-61.84 639.06 1590.3
-56.85 629.42 1566.3
-52.45 625.37 1556.2
-48.85 631.01 1570.3
-37.94 653.49 1626.2
-27.46 531.99 1323.8
-19.64 608.86 1515.1
-13.61 527.22 1312.0
-9.05 467.57 1163.5
-5.98 463.47 1153.3
-3.79 586.90 1460.5
0.00 566.76 1410.4
3.11 482.49 1200.7
5.95 460.86 1146.9
8.16 421.71 1049.4
15.37 476.50 1185.7
21.71 560.74 1395.4
38.82 601.64 1497.2
36.64 516.25 1284.7
37.05 478.57 1190.9
42.45 506.11 1259.4
47.19 522.47 1300.2
46.05 475.85 1184.1
46.00 445.62 1108.9
56.51 515.25 1282.2
61.17 526.75 1310.8
58.40 476.41 1185.5
67.28 521.42 1297.5
79.46 586.52 1459.6
82.02 577.89 1438.1
87.40 588.98 1465.7
94.99 613.47 1526.6
95.81 594.03 1478.2
95.95 571.99 1423.4
81.34 466.97 1162.0
95.27 509.22 1267.2
107.11 553.39 1377.1
101.81 509.05 1266.8
112.21 543.53 1352.6
-309.10 700.02 1753.3
-292.56 672.46 1684.3
-287.84 671.62 1682.2
-288.53 683.59 1712.1
-282.82 680.54 1704.5
-281.65 688.48 1724.4
-280.68 697.16 1746.1
-273.05 689.33 1726.5
-263.37 675.99 1693.1
-253.16 660.80 1655.1
-243.01 645.23 1616.1
-227.61 614.95 1540.2
-221.29 608.53 1524.2
-226.20 633.35 1586.3
-223.31 636.86 1595.1
-213.04 619.03 1550.5
-207.22 613.70 1537.1
-203.54 614.62 1539.4
-195.54 602.28 1508.5
-189.34 595.08 1490.5
-188.52 604.82 1514.9
-185.99 609.41 1526.4
-179.99 602.57 1509.2
-170.20 582.45 1458.8
-165.82 580.39 1453.7
-167.14 598.60 1499.3
-165.81 607.97 1522.8
-164.46 617.71 1547.1
-159.62 614.53 1539.2
-153.23 605.08 1515.5
-150.43 609.64 1526.9
-148.01 616.05 1543.0
-144.99 620.24 1553.5
-139.90 615.57 1541.8
-135.12 611.99 1532.8
-132.12 616.55 1544.2
-126.83 610.38 1528.8
-124.08 616.40 1543.9
-123.34 633.16 1585.8
-120.02 637.33 1596.3
-114.62 630.41 1578.9
-106.72 608.68 1524.5
-99.16 587.31 1471.0
-96.20 592.57 1484.2
-98.77 633.75 1587.3
-96.27 644.57 1614.4
-91.25 638.73 1599.8
-92.41 677.69 1697.4
-90.81 699.26 1751.4
-78.97 640.07 1603.1
-65.69 561.97 1407.5
-65.89 596.86 1494.9
-71.53 688.43 1724.3
-66.38 681.45 1706.8
-60.81 668.91 1675.4
-59.97 710.47 1779.5
-27.35 601.72 1507.1
-15.22 468.65 1173.8
-14.21 547.27 1370.7
-9.93 509.83 1276.9
-7.18 552.48 1383.8
-3.58 551.75 1381.9
0.00 438.28 1097.7
2.99 459.79 1151.6
6.62 509.47 1276.0
8.10 416.02 1042.0
14.30 440.48 1103.2
21.67 556.14 1392.9
32.76 504.51 1263.6
34.05 476.68 1193.9
39.05 501.11 1255.1
42.92 508.49 1273.6
45.14 496.59 1243.8
49.27 505.81 1266.9
55.28 532.07 1332.6
53.09 480.89 1204.5
46.85 400.83 1003.9
51.32 415.97 1041.9
70.42 542.22 1358.1
79.54 583.26 1460.9
78.18 547.27 1370.7
83.27 557.57 1396.5
90.40 580.07 1452.9
91.81 565.55 1416.5
93.47 553.63 1386.6
82.26 469.18 1175.1
80.72 443.95 1111.9
99.26 527.10 1320.2
105.40 541.07 1355.2
114.18 567.23 1420.7
-337.74 748.91 1888.0
-299.82 674.61 1700.7
-288.04 657.75 1658.2
-273.95 635.06 1601.0
-267.73 630.20 1588.7
-258.98 619.13 1560.8
-255.03 619.35 1561.4
-264.07 651.67 1642.9
-265.29 665.39 1677.5
-261.31 666.35 1679.9
-256.34 664.75 1675.8
-251.67 663.88 1673.6
-240.74 646.19 1629.1
-224.82 614.25 1548.5
-222.19 618.10 1558.2
-226.74 642.42 1619.5
-222.61 642.62 1620.0
-210.76 620.13 1563.3
-202.01 606.04 1527.8
-200.02 612.07 1543.0
-199.60 623.23 1571.2
-196.38 625.97 1578.1
-191.33 622.84 1570.2
-183.89 611.64 1542.0
-172.61 586.88 1479.5
-166.81 580.06 1462.3
-166.88 593.77 1496.9
-166.16 605.29 1525.9
-165.29 616.81 1555.0
-162.83 622.83 1570.2
-158.42 621.50 1566.8
-153.94 619.80 1562.5
-149.92 619.94 1562.9
-146.50 622.64 1569.7
-140.95 616.15 1553.3
-134.50 605.25 1525.8
-129.86 602.06 1517.8
-127.48 609.52 1536.6
-127.84 630.96 1590.7
-124.89 636.96 1605.8
-119.15 628.61 1584.7
-118.63 648.21 1634.1
-115.71 655.67 1652.9
-109.81 646.20 1629.1
-109.63 670.96 1691.5
-107.75 686.88 1731.6
-99.40 661.20 1666.9
-89.90 625.21 1576.1
-85.17 620.50 1564.3
-88.82 679.50 1713.0
-81.37 655.26 1651.9
-67.48 573.55 1445.9
-68.32 614.87 1550.1
-73.05 698.57 1761.1
-66.29 676.16 1704.6
-63.39 692.80 1746.5
-34.83 666.15 1679.4
-24.42 533.83 1345.8
-15.96 488.52 1231.6
-7.77 594.74 1499.3
-2.99 457.95 1154.5
0.00 405.96 1023.4
3.04 464.58 1171.2
7.36 563.03 1419.4
8.87 452.41 1140.5
16.13 493.68 1244.6
23.06 588.04 1482.5
33.37 567.32 1430.2
31.46 481.41 1213.6
35.75 497.23 1253.5
41.89 534.05 1346.3
46.88 551.70 1390.8
48.99 535.44 1349.9
52.60 536.50 1352.5
52.13 498.51 1256.7
44.45 400.09 1008.6
59.65 480.31 1210.9
70.14 536.60 1352.8
66.52 484.61 1221.7
67.61 470.19 1185.4
77.54 515.78 1300.3
82.46 525.65 1325.2
85.46 523.00 1318.5
92.05 541.69 1365.6
86.81 491.94 1240.2
88.40 466.40 1175.8
93.31 475.88 1199.7
96.78 477.63 1204.1
109.72 524.60 1322.5
101.87 472.31 1190.7
104.37 469.65 1184.0
-345.79 750.87 1905.4
-340.33 749.72 1902.5
-338.12 755.80 1917.9
-327.21 742.33 1883.7
-310.82 715.82 1816.5
-304.36 711.74 1806.1
-295.98 702.94 1783.8
-277.63 669.85 1699.8
-274.95 674.07 1710.5
-266.83 664.88 1687.2
-255.38 646.97 1641.7
-246.28 634.48 1610.1
-238.31 624.53 1584.8
-236.32 630.18 1599.1
-227.29 616.94 1565.5
-224.62 620.77 1575.3
-229.39 645.69 1638.5
-227.24 651.70 1653.8
-216.80 633.71 1608.1
-207.32 617.89 1567.9
-205.35 624.25 1584.1
-201.41 624.79 1585.5
-194.37 615.50 1561.9
-189.58 613.12 1555.8
-182.18 601.98 1527.6
-180.10 608.34 1543.7
-182.69 631.10 1601.5
-175.17 619.22 1571.3
-167.31 605.51 1536.5
-167.70 621.71 1577.6
-166.43 632.44 1604.9
-163.71 638.06 1619.1
-160.65 642.58 1630.6
-153.78 631.76 1603.2
-147.58 623.13 1581.3
-143.01 621.07 1576.0
-137.40 614.25 1558.7
-131.95 607.79 1542.3
-128.90 612.29 1553.7
-123.11 603.63 1531.8
-113.53 575.21 1459.6
-112.69 590.67 1498.9
-117.92 640.15 1624.4
-117.89 663.67 1684.1
-114.98 672.18 1705.7
-112.38 683.26 1733.8
-107.32 679.70 1724.8
-101.48 670.64 1701.8
-94.69 654.25 1660.2
-86.56 626.51 1589.8
-86.16 654.78 1661.6
-84.93 717.19 1819.9
-67.60 604.44 1533.8
-62.64 680.08 1725.8
-59.14 691.50 1754.7
-52.92 670.29 1700.9
-50.13 692.69 1757.8
-45.31 688.70 1747.6
-39.50 667.11 1692.9
-34.61 657.62 1668.8
-28.82 625.75 1587.9
-24.51 621.01 1575.9
-20.09 610.77 1549.9
-3.61 548.11 1390.9
0.00 505.22 1282.0
3.45 523.92 1329.5
7.12 540.78 1372.3
11.51 582.93 1479.2
18.51 562.74 1428.0
19.26 487.94 1238.2
22.35 485.35 1231.6
26.86 510.26 1294.8
30.02 506.93 1286.4
33.66 511.67 1298.4
37.27 514.94 1306.7
42.56 539.09 1368.0
48.52 567.27 1439.5
51.20 555.87 1410.6
55.10 558.38 1417.0
55.03 522.80 1326.6
56.83 508.09 1289.3
71.22 601.44 1526.2
73.89 591.13 1500.0
58.93 447.87 1136.5
62.12 449.65 1141.0
70.64 488.04 1238.4
78.44 518.36 1315.4
82.12 520.11 1319.8
81.98 498.45 1264.9
84.87 496.18 1259.1
87.60 493.18 1251.5
84.23 457.25 1160.3
95.11 498.50 1265.0
97.22 492.57 1249.9
91.49 448.61 1138.4
95.89 455.47 1155.8
106.91 477.95 1212.8
-347.42 749.44 1914.4
-353.11 772.75 1973.9
-341.39 769.39 1965.3
-325.40 744.48 1901.7
-319.66 742.60 1896.9
-324.33 765.21 1954.6
-314.86 754.67 1927.7
-293.10 713.84 1823.4
-270.12 668.65 1708.0
-259.04 651.92 1665.3
-250.44 640.96 1637.3
-232.41 605.07 1545.6
-221.53 586.85 1499.1
-221.19 596.43 1523.5
-226.13 620.83 1585.9
-228.81 639.83 1634.4
-224.26 638.94 1632.1
-216.24 627.92 1604.0
-208.47 617.25 1576.7
-202.29 610.91 1560.5
-194.54 599.50 1531.4
-190.28 598.58 1529.0
-187.94 603.82 1542.4
-183.88 603.62 1541.9
-185.12 621.17 1586.7
-184.43 632.93 1616.8
-173.68 609.88 1557.9
-166.15 597.34 1525.8
-167.16 615.62 1572.5
-164.94 622.66 1590.5
-161.04 623.53 1592.7
-160.69 638.55 1631.1
-156.41 638.32 1630.5
-149.88 628.65 1605.8
-145.41 627.33 1602.4
-141.12 626.73 1600.9
-136.99 626.85 1601.2
-131.71 621.52 1587.6
-123.59 602.00 1537.7
-116.66 587.20 1499.9
-119.50 622.21 1589.4
-116.00 625.59 1598.0
-105.70 591.13 1510.0
-106.43 618.14 1579.0
-107.66 650.25 1661.0
-105.97 666.72 1703.1
-103.73 681.01 1739.6
-99.45 682.55 1743.5
-94.78 681.55 1740.9
-83.29 628.83 1606.3
-73.41 583.38 1490.2
-78.71 660.29 1686.7
-71.76 637.41 1628.2
-65.10 655.38 1674.1
-61.36 712.69 1820.5
-51.40 646.79 1652.2
-44.57 611.85 1562.9
-45.33 684.41 1748.3
-26.16 658.29 1681.5
-18.30 552.61 1411.6
-12.27 463.31 1183.5
-8.60 432.70 1105.3
-6.89 519.83 1327.9
-3.76 568.32 1451.7
0.00 464.43 1186.3
2.77 418.49 1069.0
6.58 496.87 1269.2
17.32 523.08 1336.2
19.90 500.83 1279.3
26.41 569.70 1455.2
28.52 538.33 1375.1
28.89 484.73 1238.2
31.98 482.88 1233.5
34.43 472.64 1207.3
39.88 501.76 1281.7
46.14 535.98 1369.1
46.21 498.41 1273.1
46.50 468.13 1195.8
60.37 569.72 1455.3
69.56 552.79 1412.1
58.26 439.85 1123.6
58.84 423.05 1080.7
67.25 461.59 1179.1
76.45 501.93 1282.1
79.94 502.95 1284.7
76.81 463.95 1185.1
80.88 469.70 1199.8
84.75 473.99 1210.8
87.20 470.28 1201.3
100.99 525.84 1343.2
114.78 577.74 1475.8
-347.46 766.45 1970.9
-340.24 761.73 1958.7
-326.94 743.05 1910.7
-310.94 717.55 1845.1
-307.79 721.39 1855.0
-305.20 726.67 1868.6
-289.06 699.33 1798.3
-272.54 670.17 1723.3
-267.59 668.97 1720.2
-260.82 663.10 1705.1
-243.99 631.01 1622.6
-233.86 615.42 1582.5
-234.53 628.19 1615.4
-232.78 634.86 1632.5
-229.14 636.50 1636.7
-220.01 622.67 1601.2
-208.07 600.20 1543.4
-206.82 608.30 1564.2
-206.30 618.91 1591.5
-197.06 603.25 1551.2
-191.60 598.73 1539.6
-190.70 608.62 1565.0
-187.69 612.03 1573.8
-183.01 610.03 1568.6
-176.56 601.89 1547.7
-173.41 604.93 1555.5
-173.86 620.94 1596.7
-172.33 630.47 1621.2
-167.30 627.37 1613.2
-159.49 613.44 1577.4
-155.35 613.22 1576.8
-155.30 629.60 1619.0
-153.04 637.67 1639.7
-149.92 642.50 1652.1
-147.30 649.85 1671.0
-141.88 644.92 1658.4
-135.06 633.12 1628.0
-133.03 643.71 1655.3
-132.53 662.63 1703.9
-126.73 655.51 1685.6
-113.13 606.07 1558.5
-105.20 584.47 1502.9
-108.47 625.80 1609.2
-108.96 653.75 1681.1
-106.58 666.14 1712.9
-78.29 587.20 1509.9
-78.65 655.41 1685.3
-81.59 719.94 1851.3
-51.23 698.55 1796.3
-35.70 669.31 1721.1
-17.59 527.68 1356.9
-11.95 447.96 1151.9
-3.10 464.65 1194.8
0.00 492.93 1267.5
2.97 446.17 1147.3
7.00 524.82 1349.5
12.50 624.84 1606.7
15.42 578.44 1487.4
29.78 558.43 1436.0
29.07 484.48 1245.8
31.21 468.14 1203.8
37.44 510.51 1312.7
49.76 622.06 1599.6
50.95 545.89 1403.7
51.25 512.52 1317.9
69.31 577.56 1485.1
66.91 528.25 1358.4
65.07 488.01 1254.9
65.68 469.13 1206.3
73.26 499.47 1284.4
68.20 444.76 1143.7
78.12 450.72 1159.0
97.13 539.62 1387.6
113.81 609.69 1567.8
-332.82 729.27 1887.9
-321.02 713.90 1848.1
-324.23 731.96 1894.8
-320.83 735.44 1903.8
-320.29 745.68 1930.3
-298.79 718.07 1858.9
-277.59 678.04 1755.2
-267.67 664.72 1720.8
-256.94 648.89 1679.8
-246.56 633.41 1639.7
-242.39 633.62 1640.2
-246.67 656.32 1699.0
-248.41 672.96 1742.1
-237.11 654.24 1693.6
-221.09 621.55 1609.0
-213.61 612.09 1584.5
-217.16 634.44 1642.4
-216.32 644.65 1668.8
-206.53 628.01 1625.7
-195.45 606.71 1570.6
-189.28 600.07 1553.4
-188.40 610.26 1579.8
-185.44 614.01 1589.5
-180.41 610.94 1581.5
-178.84 619.69 1604.2
-176.74 627.02 1623.1
-172.58 627.17 1623.5
-169.08 629.83 1630.4
-162.64 621.36 1608.5
-154.38 605.35 1567.1
-150.44 605.84 1568.3
-151.44 626.79 1622.6
-152.07 647.39 1675.9
-146.69 642.85 1664.1
-138.27 624.29 1616.1
-134.10 624.41 1616.4
-135.24 650.04 1682.7
-131.99 655.55 1697.0
-123.13 632.65 1637.7
-116.07 617.66 1598.9
-115.33 636.45 1647.6
-114.84 658.13 1703.7
-111.17 662.54 1715.1
-106.50 661.20 1711.6
-97.74 693.49 1795.2
-84.11 626.63 1622.1
-84.69 664.14 1719.2
-85.20 705.25 1825.7
-78.58 688.76 1783.0
-72.19 672.26 1740.3
-67.10 666.56 1725.5
-36.97 612.08 1584.5
-32.09 597.70 1547.3
-31.25 665.10 1721.7
-20.23 602.81 1560.5
-12.41 616.53 1596.0
-5.74 427.72 1107.2
-3.26 485.38 1256.5
8.40 625.55 1619.4
9.81 487.17 1261.1
13.91 518.15 1341.3
20.91 622.99 1612.7
22.46 478.11 1237.7
25.65 477.73 1236.7
30.44 504.00 1304.7
33.36 497.13 1286.9
41.43 561.22 1452.8
50.19 623.13 1613.1
50.22 575.55 1489.9
51.16 544.53 1409.6
55.25 548.80 1420.7
60.16 560.28 1450.4
61.49 538.98 1395.3
63.28 523.81 1356.0
67.52 529.51 1370.7
70.05 521.89 1351.0
77.50 549.90 1423.5
80.39 544.43 1409.4
68.20 441.82 1143.7
69.71 432.77 1120.3
90.53 539.53 1396.7
89.49 512.84 1327.6
92.33 509.52 1319.0
-358.49 736.89 1920.5
-357.38 744.96 1941.5
-357.97 767.81 2001.1
-331.80 722.16 1882.1
-313.92 693.44 1807.2
-310.62 696.54 1815.3
-312.55 711.66 1854.7
-318.58 736.70 1920.0
-315.97 742.28 1934.5
-291.48 695.79 1813.3
-276.65 671.22 1749.3
-272.64 672.52 1752.7
-263.24 660.34 1721.0
-254.28 648.85 1691.0
-244.24 634.16 1652.7
-244.33 645.73 1682.9
-247.57 666.18 1736.2
-236.92 649.33 1692.3
-225.86 630.70 1643.7
-223.16 635.16 1655.3
-219.79 637.84 1662.3
-212.42 628.78 1638.7
-205.88 621.84 1620.6
-198.16 610.98 1592.3
-186.62 587.66 1531.5
-180.82 581.76 1516.2
-179.75 591.18 1540.7
-176.44 593.47 1546.7
-173.71 597.89 1558.2
-170.32 600.18 1564.2
-167.79 605.67 1578.5
-166.43 615.80 1604.9
-163.91 622.00 1621.0
-159.28 620.36 1616.8
-151.47 605.86 1579.0
-149.23 613.49 1598.9
-144.27 610.04 1589.9
-133.86 582.67 1518.6
-134.09 601.36 1567.2
-138.70 641.47 1671.8
-134.24 640.88 1670.2
-125.37 618.48 1611.9
-120.23 613.58 1599.1
-117.05 618.69 1612.4
-116.67 639.52 1666.7
-116.39 662.50 1726.6
-108.24 640.79 1670.0
-98.07 604.76 1576.1
-97.00 624.16 1626.7
-97.37 655.00 1707.1
-94.88 668.68 1742.7
-90.42 669.12 1743.8
-73.95 684.08 1782.8
-72.39 714.21 1861.4
-40.44 665.09 1733.3
-21.22 523.33 1363.9
-15.74 466.03 1214.6
-13.47 498.29 1298.6
6.93 512.99 1336.9
15.50 458.87 1195.9
18.04 444.88 1159.4
19.48 411.91 1073.5
26.70 493.92 1287.2
34.35 564.81 1472.0
38.55 570.51 1486.8
41.34 556.15 1449.4
43.29 533.91 1391.5
40.13 456.88 1190.7
42.78 422.08 1100.0
50.81 470.01 1224.9
53.90 469.25 1223.0
57.07 469.20 1222.8
68.96 537.15 1399.9
81.67 604.36 1575.1
83.71 589.97 1537.6
81.68 549.47 1432.0
78.04 502.19 1308.8
86.99 536.45 1398.1
96.04 568.56 1481.8
82.97 472.30 1230.9
88.50 485.09 1264.2
-345.09 746.00 1957.4
-328.29 720.27 1889.9
-318.93 710.35 1863.9
-317.02 716.95 1881.2
-306.59 704.19 1847.7
-292.10 681.57 1788.4
-283.56 672.30 1764.1
-281.42 678.18 1779.5
-275.90 675.94 1773.6
-265.02 660.31 1732.6
-247.82 628.09 1648.0
-231.18 596.19 1564.4
-228.54 599.92 1574.1
-229.42 613.17 1608.9
-226.61 616.89 1618.7
-222.10 616.02 1616.4
-209.36 591.83 1552.9
-197.67 569.74 1494.9
-200.22 588.65 1544.5
-202.87 608.62 1597.0
-203.64 623.65 1636.4
-199.45 623.82 1636.8
-188.39 602.04 1579.7
-182.83 597.24 1567.1
-174.89 584.30 1533.1
-167.85 573.82 1505.6
-167.33 585.65 1536.7
-167.54 600.68 1576.1
-168.60 619.60 1625.8
-168.94 636.76 1670.8
-165.56 640.45 1680.5
-158.47 629.60 1652.0
-151.01 616.60 1617.9
-141.35 593.67 1557.7
-135.37 585.27 1535.7
-139.94 623.37 1635.7
-139.59 641.24 1682.5
-129.34 613.30 1609.2
-124.82 611.63 1604.9
-123.98 628.44 1649.0
-120.06 630.32 1653.9
-118.60 645.70 1694.3
-118.56 670.32 1758.9
-110.45 649.45 1704.1
-98.56 603.68 1584.0
-96.08 614.08 1611.3
-95.80 640.12 1679.6
-92.42 646.95 1697.5
-89.14 655.21 1719.2
-25.30 531.26 1394.0
-21.21 519.53 1363.2
-18.27 537.00 1409.0
-12.52 460.09 1207.2
-10.61 519.93 1364.2
-3.66 538.46 1412.9
0.00 444.80 1167.1
3.10 456.19 1197.0
6.24 458.68 1203.5
8.56 419.50 1100.7
13.43 394.91 1036.2
19.50 477.87 1253.9
26.37 553.69 1452.8
38.25 511.21 1341.4
43.59 533.96 1401.1
43.60 492.99 1293.6
48.77 477.96 1254.1
59.45 546.24 1433.3
62.59 541.21 1420.1
58.64 478.89 1256.6
65.71 508.36 1333.9
78.74 578.74 1518.5
85.97 601.78 1579.0
87.66 585.71 1536.8
87.40 558.61 1465.7
85.15 521.55 1368.5
79.20 465.67 1221.9
78.45 443.56 1163.9
99.80 543.35 1425.7
112.95 593.01 1556.0
114.59 580.83 1524.1
-303.22 702.69 1856.4
-286.32 674.24 1781.3
-279.32 668.53 1766.2
-268.93 654.40 1728.8
-261.14 646.21 1707.2
-245.66 618.38 1633.7
-226.03 578.96 1529.5
-221.33 577.05 1524.5
-222.61 590.92 1561.1
-219.93 594.61 1570.9
-214.01 589.53 1557.5
-201.59 588.65 1555.1
-209.06 622.92 1645.7
-214.56 652.63 1724.2
-214.79 667.23 1762.7
-206.29 654.75 1729.8
-195.24 633.45 1673.5
-182.68 606.16 1601.4
-171.11 580.96 1534.8
-166.66 579.34 1530.6
-167.28 595.69 1573.7
-168.45 614.86 1624.4
-168.14 629.45 1662.9
-163.96 629.94 1664.2
-155.21 612.45 1618.0
-146.35 593.54 1568.1
-140.37 585.55 1546.9
-138.03 592.72 1565.9
-138.94 614.72 1624.0
-134.37 613.07 1619.6
-130.12 612.83 1619.0
-131.97 642.24 1696.7
-130.47 656.83 1735.3
-125.51 654.47 1729.0
-120.99 654.22 1728.4
-117.78 661.39 1747.3
-105.74 671.22 1773.3
-96.41 639.84 1690.4
-94.18 654.77 1729.8
-92.03 671.82 1774.9
-88.31 678.62 1792.8
-81.32 659.59 1742.6
-74.09 636.32 1681.1
-76.06 694.04 1833.6
-58.08 706.65 1866.9
-45.43 603.01 1593.1
-33.07 536.55 1417.5
-29.17 608.45 1607.5
-14.93 544.79 1439.3
-10.61 516.48 1364.5
-7.35 536.67 1417.8
-4.09 596.50 1575.9
3.82 557.20 1472.1
6.62 483.21 1276.6
9.79 476.48 1258.8
12.49 455.94 1204.5
15.87 463.36 1224.1
21.24 516.80 1365.3
24.68 514.65 1359.6
29.13 531.62 1404.5
42.37 618.62 1634.3
41.40 464.93 1228.3
48.04 500.98 1323.5
56.81 552.95 1460.8
65.75 599.94 1585.0
72.95 591.69 1563.2
70.64 542.82 1434.1
76.09 555.49 1467.5
82.74 575.22 1519.7
83.10 551.47 1456.9
78.40 497.67 1314.8
73.26 445.65 1177.3
78.30 457.25 1208.0
92.36 518.65 1370.2
119.52 601.74 1589.7
118.55 576.92 1524.2
125.32 590.23 1559.3
-327.99 731.67 1946.3
-316.16 716.29 1905.4
-290.02 667.51 1775.6
-281.65 658.70 1752.2
-281.60 669.38 1780.6
-266.85 644.89 1715.5
-255.97 629.09 1673.4
-263.29 658.22 1750.9
-261.85 666.11 1771.9
-242.26 627.27 1668.6
-231.66 610.73 1624.6
-226.35 607.78 1616.8
-218.01 596.46 1586.6
-211.96 591.05 1572.3
-212.62 604.50 1608.0
-216.34 627.38 1668.9
-219.39 649.22 1727.0
-217.87 658.15 1750.7
-211.46 652.38 1735.4
-205.47 647.66 1722.9
-196.17 632.09 1681.4
-186.76 615.46 1637.2
-177.89 599.87 1595.7
-170.96 590.22 1570.0
-169.70 600.16 1596.5
-171.11 620.27 1650.0
-170.64 634.43 1687.6
-162.63 620.55 1650.7
-149.98 587.74 1563.5
-146.21 588.92 1566.6
-145.91 604.47 1608.0
-140.20 597.93 1590.5
-138.10 606.82 1614.2
-138.20 626.23 1665.8
-138.93 649.85 1728.7
-135.35 654.18 1740.2
-127.70 638.50 1698.5
-118.37 612.97 1630.6
-109.45 587.79 1563.6
-112.28 626.16 1665.7
-83.55 637.64 1696.2
-82.65 665.83 1771.2
-81.86 698.25 1857.4
-53.23 593.68 1579.3
-35.75 648.05 1723.9
-32.12 665.32 1769.8
-14.63 530.26 1410.6
-9.91 478.90 1273.9
12.49 603.82 1606.2
24.62 594.97 1582.7
26.89 556.95 1481.5
24.36 441.53 1174.5
26.73 430.60 1145.4
34.64 502.34 1336.3
34.85 459.40 1222.0
41.34 461.09 1226.5
54.23 561.63 1494.0
70.98 605.43 1610.5
88.36 610.08 1622.9
91.91 605.78 1611.4
90.45 570.22 1516.8
80.06 483.72 1286.8
82.60 479.09 1274.4
95.59 533.10 1418.1
109.06 585.69 1558.0
-318.44 705.46 1889.6
-296.30 666.67 1785.7
-274.53 627.50 1680.8
-270.12 627.38 1680.5
-279.05 658.74 1764.5
-272.84 654.82 1754.0
-267.96 654.00 1751.8
-282.06 700.29 1875.8
-275.23 695.32 1862.5
-250.41 643.91 1724.8
-234.63 614.31 1645.5
-224.98 599.94 1607.0
-222.79 605.33 1621.4
-222.29 615.57 1648.9
-213.29 602.22 1613.1
-208.20 599.62 1606.1
-215.20 632.44 1694.0
-216.78 650.34 1742.0
-208.58 639.05 1711.7
-200.53 627.75 1681.5
-194.27 621.66 1665.2
-187.77 614.52 1646.0
-183.96 616.06 1650.2
-181.96 623.87 1671.1
-170.93 600.36 1608.1
-162.65 585.53 1568.4
-164.65 607.95 1628.4
-158.90 602.17 1612.9
-151.89 591.15 1583.4
-154.44 617.76 1654.7
-157.04 646.11 1730.7
-153.82 651.47 1745.0
-149.41 651.95 1746.3
-147.15 662.19 1773.7
-141.30 656.38 1758.2
-130.74 627.54 1680.9
-127.18 631.49 1691.5
-122.06 627.76 1681.5
-114.45 610.41 1635.0
-119.68 662.86 1775.5
-113.04 651.09 1744.0
-98.00 587.99 1575.0
-100.68 630.32 1688.4
-85.84 650.55 1742.5
-82.51 660.06 1768.0
-64.37 662.05 1773.4
-55.30 663.55 1777.4
-36.79 662.31 1774.0
-6.41 461.67 1236.6
-3.70 533.37 1428.7
29.08 523.48 1402.2
28.41 454.57 1217.6
31.01 446.50 1196.0
40.62 531.79 1424.4
49.29 591.53 1584.5
51.88 574.71 1539.4
72.11 610.85 1636.2
86.24 591.37 1584.0
91.62 599.67 1606.3
96.60 579.61 1552.5
97.95 564.16 1511.2
109.41 605.97 1623.1
-327.13 719.68 1941.2
-312.84 699.00 1885.4
-297.01 674.17 1818.4
-283.76 654.48 1765.3
-286.76 672.25 1813.3
-282.88 674.20 1818.5
-280.68 680.28 1834.9
-281.04 692.91 1869.0
-261.87 656.98 1772.1
-248.06 633.43 1708.6
-240.92 626.40 1689.6
-237.53 629.01 1696.6
-241.00 650.24 1753.9
-232.76 640.09 1726.5
-217.28 609.23 1643.3
-206.44 590.43 1592.6
-209.00 609.93 1645.2
-214.87 640.14 1726.7
-210.00 638.94 1723.4
-196.92 612.17 1651.2
-186.38 592.29 1597.6
-183.67 596.93 1610.1
-183.81 611.26 1648.8
-184.76 629.05 1696.7
-175.74 612.95 1653.3
-157.94 564.65 1523.0
-159.41 599.87 1618.0
-166.44 643.28 1735.1
-161.37 640.99 1729.0
-155.73 636.28 1716.2
-152.63 641.95 1731.5
-148.17 642.08 1731.9
-148.21 662.30 1786.4
-130.34 621.28 1675.8
-123.06 606.83 1636.8
-135.74 746.59 2013.8
-102.68 611.81 1650.2
-104.89 652.16 1759.1
-112.57 731.74 1973.7
-59.73 657.02 1772.2
-6.73 481.45 1298.6
-3.68 526.29 1419.6
0.00 582.96 1572.4
17.08 610.74 1647.3
20.83 595.78 1607.0
26.81 547.77 1477.5
27.78 496.65 1339.6
29.88 474.73 1280.5
30.96 442.74 1194.2
37.37 485.80 1310.3
49.66 591.74 1596.1
46.05 470.40 1268.8
55.03 491.86 1326.7
68.05 572.39 1543.9
82.51 536.31 1446.6
69.17 430.03 1159.9
81.71 486.88 1313.3
100.82 576.68 1555.5
-286.15 677.22 1839.5
-276.65 665.82 1808.6
-270.65 662.63 1799.9
-264.84 659.77 1792.1
-261.36 662.73 1800.2
-254.65 657.46 1785.9
-251.14 660.41 1793.9
-248.87 666.78 1811.2
-235.96 644.37 1750.3
-222.51 619.53 1682.8
-213.50 606.34 1647.0
-209.29 606.51 1647.5
-209.48 619.73 1683.4
-209.38 632.60 1718.3
-200.64 619.38 1682.4
-191.00 602.72 1637.2
-189.25 610.77 1659.0
-183.65 606.46 1647.3
-178.91 604.89 1643.1
-178.67 618.79 1680.8
-168.54 598.31 1625.2
-161.62 588.47 1598.5
-170.95 638.83 1735.3
-179.67 689.55 1873.0
-175.81 693.49 1883.7
-165.20 670.22 1820.5
-157.54 657.96 1787.2
-153.98 662.57 1799.7
-155.71 690.94 1876.8
-131.12 642.03 1744.0
-144.21 758.42 2060.1
-130.59 741.76 2014.8
-123.17 728.76 1979.5
-122.47 756.11 2053.8
-106.15 753.64 2047.1
-58.83 642.62 1745.5
-54.95 650.26 1766.3
19.12 543.05 1475.1
23.36 473.93 1287.3
32.27 509.12 1382.9
51.48 609.17 1654.7
53.80 587.71 1596.4
46.60 472.69 1284.0
45.70 432.60 1175.1
59.20 525.42 1427.2
67.15 560.93 1523.6
72.50 571.91 1553.5
76.65 572.88 1556.1
74.12 526.23 1429.4
87.51 591.73 1607.3
86.05 555.43 1508.7
71.57 441.87 1200.2
84.58 500.44 1359.3
99.69 566.23 1538.1
108.84 594.42 1614.6
122.73 580.93 1578.0
-296.93 686.35 1877.6
-283.78 666.89 1824.3
-281.28 672.21 1838.9
-273.25 664.28 1817.2
-265.61 657.02 1797.3
-263.33 663.02 1813.7
-256.72 658.13 1800.4
-243.92 636.90 1742.3
-233.97 622.45 1702.8
-232.39 630.14 1723.8
-229.35 634.08 1734.6
-222.86 628.47 1719.2
-220.48 634.45 1735.6
-212.21 623.37 1705.3
-204.66 613.99 1679.6
-201.92 618.94 1693.1
-197.70 619.44 1694.5
-202.51 648.96 1775.3
-202.65 664.50 1817.8
-190.56 639.73 1750.0
-183.98 632.71 1730.8
-179.05 631.15 1726.6
-177.45 641.55 1755.0
-173.86 645.12 1764.8
-169.41 645.60 1766.1
-171.07 670.02 1832.9
-166.27 669.82 1832.3
-164.52 702.94 1922.9
-165.08 727.38 1989.8
-163.19 742.24 2030.4
-157.22 738.95 2021.4
-150.88 733.60 2006.8
-144.27 726.53 1987.5
-140.26 732.47 2003.7
-133.70 725.04 1983.4
-121.58 714.29 1954.0
9.86 463.49 1267.9
14.41 508.11 1390.0
51.55 519.16 1420.2
52.41 492.70 1347.8
69.62 545.38 1491.9
61.05 453.06 1239.4
67.72 454.67 1243.8
80.45 515.64 1410.6
82.31 504.60 1380.4
-294.77 665.60 1833.8
-292.91 672.25 1852.1
-295.44 689.37 1899.3
-287.35 681.84 1878.5
-274.31 662.14 1824.3
-260.59 640.06 1763.4
-253.40 633.51 1745.4
-257.19 654.68 1803.7
-252.21 653.87 1801.5
-235.44 621.93 1713.5
-228.68 615.69 1696.3
-232.37 637.88 1757.4
-231.75 648.91 1787.8
-229.91 656.89 1809.8
-222.15 647.93 1785.1
-211.89 631.16 1738.9
-207.10 630.31 1736.6
-202.11 628.79 1732.4
-206.63 657.45 1811.3
-213.34 694.60 1913.7
-205.89 686.29 1890.8
-194.87 665.41 1833.3
-186.57 653.00 1799.1
-181.95 653.15 1799.5
-174.93 644.47 1775.6
-166.68 630.68 1737.6
-164.31 638.97 1760.4
-165.64 662.56 1825.4
-169.36 697.38 1921.3
-168.10 713.16 1964.8
-165.29 723.16 1992.4
-161.89 731.12 2014.3
-154.87 722.75 1991.2
-149.46 721.51 1987.8
-143.71 718.57 1979.7
-117.87 634.69 1748.6
-115.36 646.03 1779.9
-122.50 714.58 1968.7
-122.34 744.66 2051.6
-115.48 734.88 2024.7
-112.75 751.67 2070.9
9.26 432.27 1190.9
