ply
format ascii 1.0
element vertex 2302
property float x
property float y
property float z
end_header
289.99 468.45 1229.2
316.31 505.40 1326.1
318.92 504.10 1322.7
304.64 476.41 1250.0
309.07 478.24 1254.9
305.13 467.23 1226.0
319.35 483.97 1269.9
348.23 511.90 1343.2
356.75 519.23 1362.4
-174.30 578.35 1527.9
-162.19 550.68 1454.8
-158.86 552.23 1458.9
-155.71 554.47 1464.9
-149.15 544.39 1438.2
-138.96 520.19 1374.3
-131.39 504.80 1333.6
-127.06 501.38 1324.6
-122.35 496.20 1310.9
-116.19 484.66 1280.4
-109.03 468.18 1236.9
-104.73 463.33 1224.1
-103.58 472.59 1248.5
-99.31 467.74 1235.7
-93.88 456.88 1207.0
-89.85 452.37 1195.1
-87.51 456.33 1205.6
-85.12 460.29 1216.0
-81.10 455.41 1203.1
-78.30 457.25 1208.0
-75.46 459.08 1212.8
-70.60 448.18 1184.0
-67.22 446.12 1178.6
-65.14 452.90 1196.5
-61.61 449.77 1188.2
-57.43 441.33 1165.9
-53.68 435.37 1150.2
-50.41 432.94 1143.8
-47.76 435.81 1151.4
-44.96 437.62 1156.1
-41.97 437.65 1156.2
-38.91 436.98 1154.5
-35.08 426.75 1127.4
-31.41 416.87 1101.3
-28.70 419.02 1107.0
-26.42 428.60 1132.3
-23.60 430.75 1138.0
-20.40 425.45 1124.0
-17.41 423.70 1119.4
-14.66 427.96 1130.6
-11.80 430.81 1138.1
-8.79 427.63 1129.7
-5.82 425.16 1123.2
-2.93 427.64 1129.8
0.00 426.58 1127.0
2.89 421.97 1114.8
5.83 425.51 1124.1
8.82 429.04 1133.5
11.74 428.68 1132.5
14.69 429.02 1133.4
17.60 428.30 1131.5
20.43 426.16 1125.9
23.60 430.75 1138.0
26.97 437.45 1155.7
29.79 434.95 1149.1
32.31 428.90 1133.1
34.96 425.34 1123.7
38.81 435.92 1151.6
42.98 448.27 1184.3
45.91 446.82 1180.4
48.46 442.18 1168.2
50.86 436.83 1154.0
53.37 432.89 1143.6
56.33 432.85 1143.5
59.29 432.80 1143.4
61.79 429.56 1134.8
64.88 430.57 1137.5
68.04 431.93 1141.1
70.35 427.98 1130.7
74.67 436.04 1152.0
79.09 444.10 1173.3
82.12 444.04 1173.1
85.08 443.61 1172.0
86.63 436.12 1152.2
88.08 428.63 1132.4
91.67 431.73 1140.6
94.61 431.65 1140.4
96.67 427.69 1129.9
100.24 430.43 1137.1
101.81 424.70 1122.0
102.70 416.50 1100.3
106.60 420.64 1111.3
111.29 427.60 1129.7
116.08 434.55 1148.0
117.00 427.05 1128.2
114.95 409.34 1081.4
116.92 406.42 1073.7
121.12 411.25 1086.5
121.36 402.70 1063.9
123.11 399.43 1055.2
129.14 409.88 1082.8
134.29 417.15 1102.1
136.76 415.98 1099.0
140.99 420.08 1109.8
149.24 435.78 1151.3
149.85 428.97 1133.3
148.36 416.55 1100.5
146.45 403.44 1065.8
141.51 382.60 1010.8
140.91 374.06 988.2
146.79 382.71 1011.1
154.98 396.96 1048.7
158.48 398.93 1053.9
160.03 396.00 1046.2
160.52 390.61 1031.9
156.12 373.66 987.2
156.84 369.33 975.7
164.29 380.74 1005.9
174.66 398.44 1052.6
177.79 399.35 1055.0
171.45 379.27 1002.0
176.23 384.02 1014.5
188.71 405.18 1070.4
185.14 391.75 1035.0
179.55 374.49 989.4
197.14 405.39 1071.0
214.46 434.87 1148.9
200.96 401.92 1061.8
183.32 361.68 955.5
180.17 350.73 926.6
181.59 348.84 921.6
177.29 336.16 888.1
185.46 347.14 917.1
209.95 388.02 1025.1
219.18 400.01 1056.8
214.69 386.97 1022.3
226.40 403.11 1065.0
231.62 407.43 1076.4
218.54 379.84 1003.5
223.46 383.82 1014.0
244.55 415.17 1096.8
250.99 421.20 1112.8
247.70 410.96 1085.7
252.92 414.90 1096.1
263.31 427.15 1128.5
264.81 424.86 1122.4
276.72 439.15 1160.2
301.58 473.46 1250.8
315.78 490.47 1295.8
333.34 512.28 1353.4
327.40 492.78 1301.9
340.53 507.33 1340.3
368.80 543.88 1436.9
355.58 519.15 1371.5
344.19 497.55 1314.5
373.09 534.04 1410.9
425.73 603.46 1594.3
-174.13 573.83 1526.4
-162.95 549.47 1461.7
-159.30 549.96 1462.9
-155.94 551.49 1467.0
-148.98 540.07 1436.6
-138.32 514.27 1368.0
-126.08 481.09 1279.8
-118.32 463.68 1233.4
-116.28 468.33 1245.8
-112.14 464.57 1235.8
-109.37 466.42 1240.7
-108.73 477.74 1270.8
-106.07 480.63 1278.5
-100.45 469.84 1249.8
-94.18 455.19 1210.8
-89.65 448.25 1192.4
-86.10 445.86 1186.0
-82.84 444.88 1183.4
-79.09 441.09 1173.3
-76.61 444.32 1181.9
-74.89 452.46 1203.6
-70.94 447.25 1189.7
-67.39 444.15 1181.5
-65.15 449.83 1196.6
-61.13 443.20 1179.0
-56.56 431.65 1148.2
-53.15 428.19 1139.0
-50.37 429.64 1142.9
-48.19 436.71 1161.7
-45.76 442.38 1176.8
-41.60 430.81 1146.0
-37.62 419.59 1116.1
-35.08 423.84 1127.5
-32.37 426.68 1135.0
-29.14 422.49 1123.9
-26.47 426.38 1134.2
-23.72 429.92 1143.6
-20.57 426.07 1133.4
-17.67 427.14 1136.2
-14.97 434.19 1155.0
-11.92 432.09 1149.4
-8.79 424.71 1129.8
-5.85 424.37 1128.9
-2.95 428.24 1139.2
0.00 430.35 1144.8
2.97 430.00 1143.8
5.93 430.00 1143.8
8.90 430.34 1144.8
11.77 426.81 1135.4
14.67 425.40 1131.6
17.72 428.20 1139.0
20.74 429.59 1142.7
23.86 432.38 1150.2
27.12 436.93 1162.3
30.01 435.15 1157.5
32.56 429.14 1141.6
35.19 425.25 1131.2
39.07 435.77 1159.2
43.09 446.28 1187.2
45.87 443.43 1179.6
47.88 433.90 1154.2
49.75 424.36 1128.8
53.42 430.29 1144.6
57.81 441.14 1173.5
60.60 439.34 1168.7
62.86 434.01 1154.5
65.79 433.61 1153.4
68.44 431.44 1147.7
70.41 425.41 1131.6
74.30 430.97 1146.4
78.40 437.23 1163.1
80.94 434.70 1156.3
84.40 437.09 1162.7
86.84 434.21 1155.0
89.09 430.62 1145.5
93.47 437.21 1163.0
96.32 436.43 1160.9
98.27 431.79 1148.6
100.57 428.90 1140.9
101.05 418.64 1113.6
103.05 415.05 1104.1
107.94 423.02 1125.3
113.50 433.09 1152.1
118.82 441.75 1175.1
119.32 432.54 1150.6
116.73 412.83 1098.2
118.74 409.93 1090.5
123.09 415.08 1104.2
125.07 412.18 1096.4
128.43 413.82 1100.8
132.47 417.55 1110.7
135.76 418.84 1114.2
136.99 413.83 1100.8
140.52 415.81 1106.1
146.11 423.73 1127.2
144.32 410.33 1091.5
144.36 402.53 1070.8
144.15 394.38 1049.1
143.84 386.23 1027.4
147.65 389.25 1035.4
150.96 390.87 1039.7
156.07 397.01 1056.1
159.31 398.28 1059.5
160.73 395.01 1050.8
166.28 401.84 1068.9
167.52 398.21 1059.3
167.53 391.81 1042.3
174.10 400.71 1065.9
180.02 407.87 1085.0
178.56 398.33 1059.6
178.55 392.28 1043.5
189.37 409.84 1090.2
192.94 411.42 1094.4
180.67 379.67 1010.0
179.87 372.58 991.1
199.85 408.15 1085.7
212.05 427.05 1136.0
198.16 393.61 1047.0
186.83 366.08 973.8
187.48 362.47 964.2
192.80 367.85 978.5
192.50 362.50 964.3
189.52 352.31 937.2
202.60 371.85 989.2
222.41 403.12 1072.3
228.75 409.50 1089.3
230.89 408.27 1086.0
225.10 393.25 1046.1
224.31 387.20 1030.0
242.63 413.90 1101.0
245.77 414.39 1102.3
234.05 390.08 1037.7
238.50 392.99 1045.4
248.69 405.18 1077.8
263.10 423.88 1127.6
272.79 434.66 1156.2
273.90 431.69 1148.3
282.68 440.73 1172.4
301.14 464.52 1235.7
325.07 496.16 1319.8
342.84 517.83 1377.5
333.16 498.03 1324.8
331.09 489.88 1303.1
341.53 500.22 1330.6
349.27 506.44 1347.2
-175.76 575.22 1540.8
-166.72 558.32 1495.5
-164.20 562.98 1508.0
-149.53 525.18 1406.7
-134.51 484.23 1297.0
-132.40 488.87 1309.5
-126.74 480.27 1286.4
-117.43 457.04 1224.2
-113.93 455.74 1220.7
-110.20 453.39 1214.5
-107.73 456.28 1222.2
-105.86 461.94 1237.3
-102.05 459.24 1230.1
-98.58 457.93 1226.6
-93.97 451.04 1208.1
-90.50 449.37 1203.7
-87.93 452.24 1211.3
-84.48 450.56 1206.9
-80.67 446.80 1196.8
-75.03 432.20 1157.7
-70.65 423.88 1135.4
-68.44 428.48 1147.7
-66.32 434.13 1162.8
-64.39 441.52 1182.6
-60.65 436.68 1169.7
-56.56 428.69 1148.3
-53.50 428.04 1146.5
-50.79 430.18 1152.3
-48.66 437.91 1173.0
-45.80 439.70 1177.8
-41.32 425.06 1138.5
-37.40 414.25 1109.6
-34.81 417.78 1119.1
-32.61 426.90 1143.5
-29.84 429.72 1151.0
-26.95 431.14 1154.8
-24.01 432.21 1157.7
-20.67 425.24 1139.0
-17.68 424.21 1136.3
-14.85 427.72 1145.7
-11.74 422.48 1131.7
-8.67 416.20 1114.8
-5.79 416.55 1115.8
-2.92 420.75 1127.0
0.00 423.20 1133.6
2.97 427.05 1143.9
6.00 432.29 1157.9
9.04 433.68 1161.7
11.97 430.88 1154.1
14.77 425.27 1139.1
17.70 424.91 1138.1
20.82 428.39 1147.5
24.05 432.91 1159.6
27.51 440.24 1179.2
30.62 440.91 1181.0
33.41 437.39 1171.6
36.45 437.36 1171.5
39.58 438.37 1174.2
42.58 437.99 1173.2
45.29 434.81 1164.7
47.18 424.63 1137.4
49.42 418.65 1121.4
53.46 427.69 1145.6
57.76 437.78 1172.6
60.36 434.58 1164.1
62.71 429.99 1151.8
65.68 429.93 1151.6
68.77 430.58 1153.3
71.17 427.02 1143.8
74.25 427.66 1145.5
77.21 427.60 1145.3
79.18 422.30 1131.1
82.10 422.23 1131.0
86.35 428.79 1148.5
90.55 434.64 1164.2
92.28 428.63 1148.1
92.60 416.70 1116.2
95.72 417.67 1118.7
99.17 420.02 1125.1
101.48 417.50 1118.3
105.40 421.59 1129.3
110.27 429.17 1149.6
115.34 437.08 1170.8
119.20 440.12 1178.9
118.26 425.74 1140.4
118.71 416.94 1116.8
123.91 424.85 1138.0
128.60 430.65 1153.5
130.71 427.76 1145.8
131.25 420.00 1125.0
131.91 412.94 1106.1
133.61 409.35 1096.5
133.87 401.60 1075.7
133.42 392.11 1050.3
134.90 388.52 1040.7
138.18 390.14 1045.0
142.85 395.58 1059.6
145.68 395.80 1060.2
149.03 397.41 1064.5
150.29 393.48 1054.0
151.08 388.50 1040.6
154.83 391.14 1047.7
156.51 388.59 1040.9
157.88 385.34 1032.2
162.95 391.09 1047.6
169.13 399.26 1069.4
174.82 406.03 1087.6
179.09 409.34 1096.5
182.94 411.61 1102.5
183.55 406.62 1089.2
185.51 404.74 1084.1
189.05 406.32 1088.3
185.44 392.70 1051.9
181.65 379.09 1015.4
188.57 387.91 1039.0
197.81 401.19 1074.6
197.76 395.52 1059.4
197.80 390.19 1045.1
198.84 386.92 1036.4
180.29 346.16 927.2
169.73 321.59 861.4
188.43 352.39 943.9
209.03 385.91 1033.7
204.65 373.03 999.2
205.62 370.11 991.4
219.87 390.88 1047.0
230.29 404.42 1083.3
230.62 400.11 1071.7
237.49 407.12 1090.5
243.03 411.72 1102.8
234.12 392.01 1050.0
225.35 373.00 999.1
230.55 377.26 1010.5
252.70 408.86 1095.2
279.97 447.95 1199.9
292.65 463.09 1240.4
295.06 461.83 1237.0
295.02 456.81 1223.6
301.38 461.69 1236.7
322.19 488.37 1308.1
334.26 501.39 1343.0
332.51 493.63 1322.2
336.92 495.06 1326.1
346.48 503.97 1349.9
355.21 511.51 1370.1
-182.92 568.64 1533.8
-157.35 500.02 1348.7
-158.15 513.98 1386.4
-162.60 540.73 1458.5
-160.99 548.13 1478.5
-146.98 512.63 1382.7
-126.88 453.59 1223.5
-120.90 443.31 1195.7
-131.63 495.33 1336.1
-135.54 523.83 1412.9
-123.97 492.43 1328.2
-113.85 465.17 1254.7
-105.76 444.83 1199.8
-99.39 430.71 1161.7
-97.80 437.03 1178.8
-96.11 443.35 1195.8
-90.99 433.72 1169.9
-86.99 428.94 1157.0
-86.31 440.80 1189.0
-84.81 449.20 1211.6
-81.37 447.54 1207.1
-76.25 436.15 1176.4
-70.59 420.60 1134.5
-67.38 418.92 1130.0
-64.94 422.10 1138.5
-62.76 427.36 1152.7
-60.07 429.50 1158.5
-57.03 429.20 1157.7
-54.34 431.68 1164.4
-51.74 435.20 1173.9
-48.43 432.81 1167.4
-44.60 425.20 1146.9
-40.95 418.29 1128.3
-37.62 413.81 1116.2
-34.76 414.19 1117.2
-32.37 420.82 1135.1
-29.72 425.01 1146.4
-26.99 428.86 1156.8
-24.05 429.92 1159.6
-20.74 423.69 1142.8
-17.73 422.66 1140.0
-14.91 426.50 1150.4
-11.72 418.86 1129.8
-8.61 410.53 1107.3
-5.73 409.84 1105.5
-2.89 412.97 1113.9
0.00 417.49 1126.1
2.96 423.75 1143.0
6.02 430.35 1160.8
9.09 433.12 1168.3
12.07 431.38 1163.6
14.86 425.11 1146.6
17.66 420.92 1135.4
20.59 420.56 1134.4
23.60 421.93 1138.1
26.71 424.34 1144.6
29.99 428.84 1156.7
32.99 428.81 1156.6
35.75 426.00 1149.1
38.63 424.93 1146.2
41.53 424.20 1144.2
44.24 421.73 1137.5
47.14 421.34 1136.5
50.37 423.73 1142.9
53.90 428.21 1155.0
57.44 432.33 1166.1
60.51 432.62 1166.9
63.27 430.84 1162.1
64.99 422.45 1139.5
66.65 414.41 1117.8
70.71 421.29 1136.4
75.77 433.38 1169.0
77.71 427.41 1152.9
78.33 414.86 1119.0
83.05 424.16 1144.1
89.24 440.04 1186.9
91.06 434.07 1170.8
90.47 417.35 1125.7
91.82 410.34 1106.8
95.88 415.46 1120.6
100.57 423.00 1141.0
103.93 424.65 1145.4
106.36 422.48 1139.6
109.11 421.70 1137.4
112.77 424.38 1144.7
115.24 422.55 1139.7
117.78 421.07 1135.7
121.89 425.12 1146.7
125.13 426.05 1149.2
127.67 424.56 1145.2
128.58 417.89 1127.2
127.99 406.72 1097.1
132.80 412.83 1113.5
138.37 421.01 1135.6
135.83 404.66 1091.5
133.30 389.02 1049.3
137.31 392.70 1059.2
143.58 402.59 1085.9
147.36 405.23 1093.0
149.25 402.69 1086.2
149.68 396.36 1069.1
148.16 385.21 1039.0
150.67 384.74 1037.8
156.33 392.19 1057.9
156.37 385.52 1039.9
155.60 377.13 1017.2
161.36 384.57 1037.3
168.39 394.75 1064.8
171.98 396.67 1069.9
174.54 396.19 1068.6
180.02 402.22 1084.9
181.36 398.98 1076.2
176.79 383.04 1033.2
172.97 369.17 995.8
178.42 375.20 1012.0
184.11 381.57 1029.2
187.71 383.47 1034.3
193.89 390.51 1053.3
195.33 387.96 1046.4
197.27 386.43 1042.3
198.47 383.53 1034.5
181.33 345.74 932.6
171.14 322.01 868.6
187.66 348.52 940.1
209.76 384.57 1037.3
209.91 379.96 1024.9
207.31 370.57 999.5
217.54 384.05 1035.9
234.98 409.78 1105.3
245.05 422.19 1138.8
239.48 407.69 1099.7
232.71 391.49 1056.0
239.63 398.45 1074.7
246.85 405.74 1094.4
248.72 404.18 1090.2
268.13 430.81 1162.0
283.19 449.95 1213.7
280.79 441.24 1190.2
294.64 457.97 1235.3
309.60 476.04 1284.0
323.23 491.72 1326.3
348.39 518.96 1399.8
332.09 489.58 1320.5
346.22 505.21 1362.7
367.58 530.95 1432.1
373.45 534.03 1440.5
420.20 589.10 1589.0
-167.06 527.16 1431.9
-168.28 543.10 1475.2
-163.77 540.83 1469.1
-155.53 525.85 1428.4
-149.48 517.72 1406.3
-134.25 476.58 1294.5
-123.56 449.87 1222.0
-131.28 490.56 1332.5
-137.98 529.55 1438.4
-128.61 507.30 1378.0
-117.09 475.04 1290.4
-107.91 450.69 1224.2
-104.36 449.06 1219.8
-105.10 466.37 1266.8
-101.46 464.73 1262.4
-94.49 447.24 1214.8
-87.27 427.33 1160.8
-84.07 426.37 1158.1
-83.57 439.54 1193.9
-81.19 443.40 1204.4
-77.65 441.05 1198.0
-73.21 433.18 1176.7
-69.06 426.35 1158.1
-65.85 425.02 1154.5
-63.27 427.84 1162.1
-60.56 429.96 1167.9
-57.12 426.90 1159.6
-54.16 427.29 1160.7
-51.37 429.06 1165.5
-47.88 424.96 1154.3
-44.57 421.90 1146.0
-41.33 419.17 1138.6
-38.19 417.13 1133.1
-35.54 420.62 1142.5
-32.83 423.75 1151.0
-29.87 424.12 1152.0
-26.44 417.24 1133.3
-23.04 408.97 1110.9
-20.47 415.21 1127.8
-18.06 427.31 1160.7
-15.11 429.05 1165.4
-11.79 418.70 1137.3
-8.74 413.53 1123.3
-5.85 415.26 1128.0
-2.96 419.76 1140.2
0.00 425.29 1155.2
3.00 426.32 1158.0
6.01 426.66 1158.9
9.12 431.49 1172.1
12.13 430.45 1169.2
14.96 424.91 1154.2
17.82 421.79 1145.7
20.54 416.59 1131.6
23.24 412.42 1120.3
26.71 421.38 1144.6
30.57 434.14 1179.3
33.36 430.66 1169.8
35.84 424.07 1151.9
39.10 427.14 1160.3
42.52 431.25 1171.4
44.93 425.35 1155.4
47.53 421.86 1145.9
50.83 424.58 1153.3
54.34 428.68 1164.4
57.58 430.35 1169.0
60.12 426.85 1159.5
63.88 431.98 1173.4
66.65 430.20 1168.5
66.88 412.89 1121.5
69.48 411.11 1116.7
75.65 429.67 1167.1
78.98 431.33 1171.6
80.49 423.34 1149.9
86.32 437.74 1189.0
91.28 446.98 1214.1
91.58 433.46 1177.4
91.98 421.33 1144.4
94.15 417.80 1134.9
97.32 418.76 1137.5
100.82 421.08 1143.8
105.89 429.60 1166.9
110.29 435.02 1181.6
111.00 425.98 1157.1
112.50 420.38 1141.9
115.53 420.63 1142.6
119.04 422.60 1147.9
123.38 427.31 1160.7
127.07 429.61 1167.0
128.29 423.66 1150.8
127.84 412.56 1120.6
129.51 408.68 1110.1
136.02 419.90 1140.6
140.99 425.96 1157.0
137.68 407.32 1106.4
139.09 403.08 1094.9
148.05 420.46 1142.1
149.12 415.19 1127.8
147.23 402.04 1092.1
148.09 396.78 1077.8
147.58 388.09 1054.2
149.21 385.23 1046.4
155.11 393.32 1068.4
158.79 395.59 1074.5
156.08 382.12 1037.9
155.73 374.80 1018.1
161.64 382.54 1039.1
169.26 394.02 1070.3
173.77 397.98 1081.0
172.11 387.93 1053.7
172.78 383.35 1041.3
180.41 394.13 1070.6
181.85 391.25 1062.8
178.10 377.46 1025.3
182.97 382.09 1037.9
187.41 385.69 1047.6
189.72 384.85 1045.4
194.05 388.10 1054.2
194.11 382.84 1039.9
199.53 388.12 1054.2
204.30 392.04 1064.9
201.77 382.01 1037.7
202.19 377.77 1026.1
209.18 385.75 1047.8
219.26 399.16 1084.2
222.53 400.00 1086.5
223.72 397.10 1078.7
226.03 396.24 1076.3
233.99 405.21 1100.7
245.64 420.26 1141.5
243.68 411.93 1118.9
245.45 410.05 1113.8
260.50 430.14 1168.4
269.00 439.05 1192.6
272.58 439.85 1194.8
266.44 425.11 1154.7
255.61 403.29 1095.5
255.94 399.38 1084.8
270.19 417.04 1132.8
306.53 468.04 1271.3
344.22 520.00 1412.5
356.93 522.52 1419.3
414.74 583.10 1583.9
-163.80 549.90 1504.3
-150.40 517.24 1414.9
-142.99 504.03 1378.8
-137.84 498.34 1363.2
-130.65 484.78 1326.1
-125.44 478.05 1307.7
-121.12 474.39 1297.7
-114.04 459.43 1256.8
-109.98 456.10 1247.7
-110.61 472.62 1292.9
-109.77 483.67 1323.1
-104.33 474.51 1298.1
-97.26 457.13 1250.5
-90.09 438.03 1198.3
-86.05 433.31 1185.4
-84.83 442.98 1211.8
-81.00 439.28 1201.7
-76.26 430.09 1176.5
-72.81 427.75 1170.1
-69.39 425.41 1163.7
-66.71 427.53 1169.5
-64.70 434.44 1188.4
-60.41 425.92 1165.1
-55.69 413.28 1130.5
-52.63 412.29 1127.9
-49.71 412.34 1128.0
-47.61 419.58 1147.8
-45.52 427.85 1170.4
-41.97 422.74 1156.4
-38.60 418.66 1145.3
-36.07 423.84 1159.4
-33.47 429.01 1173.6
-30.23 426.30 1166.2
-26.55 416.02 1138.1
-23.14 407.80 1115.6
-20.55 414.00 1132.5
-18.11 425.69 1164.5
-15.12 426.39 1166.4
-11.98 422.28 1155.2
-8.97 421.60 1153.3
-5.98 421.61 1153.3
-3.01 424.02 1159.9
0.00 425.73 1164.6
2.99 421.61 1153.4
5.92 417.15 1141.1
8.88 417.48 1142.1
12.04 424.34 1160.8
15.14 427.08 1168.3
18.07 424.66 1161.7
20.83 419.49 1147.6
23.66 417.07 1140.9
27.43 429.75 1175.6
31.28 441.05 1206.5
34.09 436.91 1195.2
36.74 431.73 1181.0
40.28 436.85 1195.0
43.58 438.87 1200.6
45.63 428.88 1173.2
48.82 430.22 1176.9
52.98 439.44 1202.1
54.95 430.47 1177.6
56.38 418.42 1144.6
58.37 411.51 1125.7
61.38 412.15 1127.5
65.37 418.95 1146.1
66.99 410.67 1123.4
70.01 411.30 1125.1
76.80 433.17 1185.0
81.89 444.07 1214.8
85.22 445.03 1217.4
87.14 438.79 1200.3
87.63 426.05 1165.5
90.20 423.92 1159.7
92.81 422.13 1154.8
96.56 425.48 1163.9
101.40 433.27 1185.2
103.38 428.73 1172.8
106.91 430.70 1178.2
111.25 435.74 1192.0
111.90 426.41 1166.5
114.43 424.61 1161.5
119.03 430.32 1177.2
122.73 432.61 1183.4
127.36 437.98 1198.1
128.70 432.06 1181.9
127.36 417.62 1142.4
129.86 416.14 1138.4
134.63 421.84 1154.0
136.80 419.34 1147.1
136.67 410.01 1121.6
139.54 409.90 1121.3
147.74 425.12 1163.0
153.25 432.16 1182.2
149.73 413.97 1132.4
149.48 405.33 1108.8
152.31 405.21 1108.5
152.66 398.61 1090.4
155.31 398.15 1089.2
156.86 394.96 1080.4
155.76 385.30 1054.0
157.18 382.12 1045.3
161.12 385.04 1053.3
164.95 387.63 1060.4
170.14 393.27 1075.8
173.46 394.48 1079.1
171.34 383.48 1049.0
170.15 374.86 1025.5
175.40 380.49 1040.8
185.01 395.26 1081.2
190.32 400.53 1095.7
192.60 399.35 1092.5
193.86 396.15 1083.7
188.02 378.73 1036.0
183.65 364.70 997.7
189.44 370.98 1014.8
200.21 386.71 1057.9
205.18 390.94 1069.4
203.37 382.33 1045.9
204.53 379.46 1038.1
211.56 387.40 1059.8
223.35 403.75 1104.5
229.33 409.30 1119.7
229.06 403.73 1104.4
229.69 399.84 1093.8
237.51 408.40 1117.2
249.01 423.02 1157.2
252.69 424.16 1160.3
261.25 433.37 1185.5
275.06 450.97 1233.7
281.23 455.79 1246.8
286.42 458.92 1255.4
281.48 445.94 1219.9
273.58 428.61 1172.5
280.16 434.09 1187.5
274.13 420.13 1149.3
281.38 426.61 1167.0
315.04 472.57 1292.7
339.41 503.76 1378.1
416.53 575.79 1575.1
-178.67 555.87 1531.5
-168.01 560.03 1542.9
-154.60 527.91 1454.5
-146.60 513.10 1413.6
-141.07 506.42 1395.2
-133.43 491.59 1354.4
-127.70 483.20 1331.3
-123.23 479.23 1320.3
-115.84 463.35 1276.6
-111.15 457.67 1260.9
-109.10 462.86 1275.2
-105.97 463.63 1277.3
-100.72 454.87 1253.2
-93.99 438.62 1208.4
-88.97 429.50 1183.3
-86.46 432.30 1191.0
-83.12 431.01 1187.5
-77.78 418.82 1153.9
-74.86 419.22 1155.0
-72.93 425.41 1172.1
-69.95 425.81 1173.2
-67.67 430.64 1186.5
-64.66 431.03 1187.5
-59.39 415.75 1145.4
-56.01 412.73 1137.1
-54.08 420.62 1158.8
-50.38 414.86 1143.0
-47.61 416.61 1147.8
-45.92 428.58 1180.8
-42.79 427.94 1179.0
-38.82 418.08 1151.9
-35.81 417.77 1151.0
-33.39 424.96 1170.8
-30.23 423.28 1166.2
-26.88 418.19 1152.2
-23.64 413.78 1140.0
-20.69 413.80 1140.1
-17.97 419.27 1155.1
-14.95 418.60 1153.3
-11.78 412.13 1135.5
-8.82 411.80 1134.5
-5.89 412.15 1135.5
-2.94 412.15 1135.5
0.00 411.47 1133.6
2.95 413.17 1138.3
5.92 414.53 1142.1
8.91 415.89 1145.8
12.12 424.07 1168.4
15.29 428.15 1179.6
18.22 425.07 1171.1
21.18 423.69 1167.3
24.29 425.03 1171.0
27.37 425.70 1172.8
30.36 424.99 1170.9
33.23 422.92 1165.2
35.96 419.48 1155.7
39.17 421.83 1162.2
42.18 421.80 1162.1
45.37 423.47 1166.7
49.83 436.04 1201.3
52.82 434.98 1198.4
53.64 417.21 1149.5
55.92 412.05 1135.2
58.95 412.68 1137.0
61.44 409.57 1128.4
64.78 412.24 1135.8
68.11 414.57 1142.2
73.22 427.11 1176.7
79.24 443.74 1222.5
82.90 446.40 1229.9
84.37 437.48 1205.3
84.14 420.72 1159.1
87.21 420.99 1159.9
92.38 431.13 1187.8
94.84 428.33 1180.1
98.66 431.65 1189.2
103.89 440.75 1214.3
106.19 437.26 1204.7
106.49 425.96 1173.6
107.15 416.69 1148.0
109.74 415.24 1144.0
114.34 421.27 1160.6
117.99 423.55 1166.9
120.79 422.77 1164.8
123.48 421.65 1161.7
122.80 409.33 1127.7
125.90 409.91 1129.3
133.27 424.05 1168.3
136.05 423.26 1166.1
136.03 413.99 1140.6
137.12 408.46 1125.3
141.28 412.07 1135.3
145.96 417.03 1149.0
147.20 412.17 1135.6
149.73 411.03 1132.4
155.14 417.68 1150.8
155.64 411.12 1132.7
153.83 398.82 1098.8
158.62 403.76 1112.4
162.13 405.32 1116.7
160.84 395.05 1088.4
162.35 391.88 1079.7
165.23 392.08 1080.2
167.40 390.60 1076.1
171.60 393.83 1085.1
173.90 392.68 1081.9
172.85 384.11 1058.3
172.75 377.90 1041.1
177.58 382.47 1053.8
186.91 396.48 1092.3
191.60 400.37 1103.0
193.41 398.19 1097.1
196.01 397.70 1095.7
191.71 383.41 1056.3
187.72 370.14 1019.8
193.39 376.04 1036.0
203.35 389.99 1074.5
207.29 392.18 1080.5
202.81 378.58 1043.0
200.87 370.03 1019.5
208.96 379.93 1046.7
220.92 396.52 1092.5
228.57 405.05 1116.0
229.63 401.85 1107.2
245.76 424.77 1170.3
272.58 465.39 1282.2
261.50 441.09 1215.2
244.27 407.12 1121.7
255.17 420.29 1157.9
273.44 445.13 1226.4
277.93 447.24 1232.2
280.36 446.02 1228.8
291.03 457.80 1261.3
297.79 463.23 1276.3
305.49 469.99 1294.9
299.28 455.43 1254.8
295.75 445.21 1226.6
316.19 470.92 1297.4
336.30 495.60 1365.4
409.03 578.43 1593.6
-187.65 567.03 1573.5
-178.49 551.34 1529.9
-175.00 552.83 1534.1
-169.19 546.90 1517.6
-161.83 535.57 1486.2
-152.14 515.80 1431.3
-145.17 504.45 1399.8
-140.62 501.19 1390.8
-136.77 500.30 1388.3
-133.74 502.43 1394.2
-127.44 492.07 1365.5
-118.91 472.24 1310.4
-112.97 461.87 1281.6
-109.99 463.31 1285.6
-104.50 453.93 1259.6
-97.56 437.45 1213.9
-93.19 431.78 1198.2
-89.96 431.18 1196.5
-86.60 429.90 1192.9
-82.47 424.56 1178.1
-77.08 412.11 1143.6
-74.37 413.52 1147.5
-73.05 423.06 1174.0
-70.46 425.83 1181.6
-67.57 426.90 1184.6
-63.94 423.23 1174.4
-59.39 412.78 1145.4
-56.57 413.85 1148.4
-54.65 422.02 1171.1
-50.96 416.65 1156.2
-47.26 410.59 1139.4
-44.64 413.68 1147.9
-42.62 423.20 1174.3
-39.58 423.23 1174.4
-36.01 417.16 1157.6
-33.12 418.55 1161.4
-29.99 416.88 1156.8
-26.66 411.82 1142.8
-23.63 410.48 1139.1
-20.84 413.89 1148.5
-17.82 412.89 1145.7
-14.62 406.46 1127.9
-11.63 404.10 1121.4
-8.78 406.82 1128.9
-5.82 404.46 1122.3
-2.89 401.75 1114.8
0.00 407.51 1130.8
3.00 416.33 1155.3
6.02 418.69 1161.8
9.09 421.06 1168.4
12.28 426.82 1184.4
15.34 426.47 1183.4
18.25 422.72 1173.0
21.18 420.67 1167.3
24.05 417.94 1159.8
26.84 414.53 1150.3
30.26 420.61 1167.2
33.66 425.33 1180.2
36.10 418.18 1160.4
39.04 417.47 1158.5
42.45 421.51 1169.6
46.21 428.24 1188.3
49.76 432.27 1199.5
51.74 423.08 1174.0
53.33 411.86 1142.9
56.66 414.53 1150.3
60.66 421.59 1169.9
64.20 424.92 1179.1
67.51 426.56 1183.7
70.80 427.86 1187.3
73.57 426.11 1182.4
76.63 426.04 1182.2
80.38 429.70 1192.4
81.68 420.50 1166.9
83.26 413.33 1147.0
87.91 421.38 1169.3
92.97 430.77 1195.4
95.38 427.65 1186.7
97.66 424.19 1177.1
101.33 426.81 1184.4
104.54 427.40 1186.0
105.81 420.22 1166.1
107.76 416.08 1154.6
111.54 419.03 1162.8
114.81 419.95 1165.3
116.85 416.48 1155.7
116.91 406.26 1127.3
116.72 395.71 1098.1
119.94 396.96 1101.5
127.05 410.68 1139.6
133.92 423.05 1173.9
136.38 421.26 1169.0
139.37 421.14 1168.6
143.84 425.41 1180.5
143.61 415.86 1154.0
143.95 408.33 1133.1
146.84 408.22 1132.8
150.47 410.11 1138.0
153.50 410.33 1138.6
151.66 397.76 1103.8
147.82 380.49 1055.8
149.44 377.68 1048.0
157.12 389.99 1082.2
160.28 390.87 1084.6
164.16 393.42 1091.7
169.64 399.67 1109.0
173.91 402.88 1118.0
180.27 410.79 1139.9
183.91 412.32 1144.1
183.77 405.46 1125.1
184.46 400.63 1111.7
191.03 408.51 1133.6
192.62 405.68 1125.7
189.50 393.14 1090.9
195.04 398.68 1106.3
201.64 406.21 1127.2
200.44 398.02 1104.5
199.30 390.18 1082.7
197.53 381.33 1058.2
198.96 378.84 1051.2
211.55 397.36 1102.6
216.47 401.19 1113.3
215.80 394.69 1095.2
226.29 408.51 1133.6
227.08 404.66 1122.9
221.75 390.16 1082.7
227.52 395.31 1097.0
247.70 425.06 1179.5
263.78 447.14 1240.8
246.83 413.37 1147.1
241.05 398.89 1106.9
261.06 426.91 1184.6
275.50 445.28 1235.6
276.08 441.09 1224.0
263.58 416.34 1155.3
257.74 402.54 1117.0
274.66 424.19 1177.1
295.99 452.11 1254.6
304.12 459.48 1275.0
316.55 473.13 1312.9
313.76 463.96 1287.4
308.12 450.83 1251.0
325.56 471.38 1308.0
333.15 477.39 1324.7
369.41 523.96 1453.9
-179.18 549.49 1535.8
-175.78 551.31 1540.9
-168.80 541.74 1514.2
-160.33 526.79 1472.4
-149.78 504.13 1409.1
-142.76 492.51 1376.6
-140.64 497.66 1391.0
-138.73 503.81 1408.2
-128.90 480.77 1343.8
-117.83 451.68 1262.5
-115.43 455.13 1272.1
-114.97 466.64 1304.3
-109.92 459.68 1284.8
-103.03 444.32 1241.9
-97.11 432.31 1208.3
-93.56 430.37 1202.9
-91.87 437.17 1221.9
-89.88 442.96 1238.1
-84.71 432.94 1210.1
-78.42 416.20 1163.3
-76.26 420.97 1176.6
-75.45 433.81 1212.5
-71.53 429.17 1199.5
-67.41 422.83 1181.8
-64.35 422.89 1182.0
-60.22 415.54 1161.4
-56.85 412.89 1154.0
-54.39 416.98 1165.5
-50.58 410.62 1147.7
-46.79 403.60 1128.1
-44.60 410.37 1147.0
-42.86 422.52 1181.0
-39.96 424.24 1185.8
-36.45 419.22 1171.7
-33.50 420.26 1174.6
-30.38 419.27 1171.9
-27.10 415.59 1161.6
-24.11 415.95 1162.6
-20.71 408.22 1141.0
-17.25 396.79 1109.0
-14.56 401.85 1123.2
-11.94 411.97 1151.5
-8.99 413.32 1155.3
-5.92 408.28 1141.1
-2.94 405.59 1133.6
0.00 411.65 1150.6
3.01 416.03 1162.8
6.02 415.69 1161.9
8.99 413.32 1155.3
11.95 412.30 1152.4
15.05 415.33 1160.8
18.07 415.65 1161.8
21.15 416.98 1165.5
24.25 418.31 1169.2
27.17 416.60 1164.4
30.72 423.99 1185.1
34.57 433.73 1212.3
37.51 431.34 1205.6
40.19 426.60 1192.3
43.27 426.56 1192.3
46.54 428.21 1196.9
49.53 427.16 1193.9
52.82 428.80 1198.5
56.06 429.76 1201.2
58.24 422.99 1182.3
61.05 421.26 1177.4
64.05 420.87 1176.3
66.50 417.11 1165.8
70.85 425.13 1188.3
74.69 429.44 1200.3
76.81 424.00 1185.1
79.43 421.58 1178.3
81.94 418.83 1170.6
84.76 417.75 1167.6
87.28 415.33 1160.9
90.05 414.25 1157.8
94.17 419.21 1171.7
98.51 424.84 1187.4
101.57 424.76 1187.2
104.13 422.66 1181.4
107.09 422.24 1180.2
111.09 425.84 1190.2
113.43 423.07 1182.5
114.99 417.61 1167.2
118.66 419.86 1173.5
120.02 414.06 1157.3
121.00 407.26 1138.3
125.86 413.53 1155.8
130.80 419.79 1173.3
134.99 423.36 1183.3
136.93 419.90 1173.6
139.26 417.78 1167.7
143.96 422.69 1181.4
144.65 415.88 1162.4
146.20 411.75 1150.8
150.11 414.30 1158.0
152.20 411.84 1151.1
153.12 406.37 1135.8
153.07 398.56 1114.0
150.42 384.41 1074.4
151.16 379.28 1060.1
157.65 388.50 1085.9
161.10 390.04 1090.2
164.86 392.24 1096.3
170.78 399.44 1116.5
175.64 403.97 1129.1
179.09 405.16 1132.4
179.72 400.02 1118.1
180.12 394.55 1102.8
181.68 391.74 1094.9
184.45 391.59 1094.5
183.40 383.46 1071.8
182.23 375.34 1049.1
188.64 382.83 1070.0
197.82 395.64 1105.8
200.27 394.81 1103.5
201.68 392.00 1095.6
202.36 387.85 1084.1
199.64 377.41 1054.9
207.98 387.86 1084.1
216.28 397.96 1112.3
219.07 397.79 1111.8
226.48 405.89 1134.5
224.26 396.77 1109.0
221.55 387.00 1081.7
229.81 396.41 1108.0
234.51 399.54 1116.7
234.15 394.06 1101.4
235.11 390.91 1092.6
245.06 402.60 1125.3
262.89 426.81 1193.0
272.64 437.49 1222.8
277.96 440.89 1232.3
271.56 425.85 1190.3
270.47 419.38 1172.2
295.47 453.06 1266.3
308.58 467.95 1307.9
307.86 461.80 1290.7
318.57 472.72 1321.3
314.67 461.97 1291.2
311.98 453.19 1266.7
333.80 479.84 1341.2
343.08 488.10 1364.2
412.25 574.66 1606.2
-173.74 506.42 1425.8
-177.68 529.18 1489.9
-174.79 556.89 1567.9
-158.01 515.41 1451.1
-142.32 475.57 1338.9
-139.18 476.68 1342.1
-140.09 492.12 1385.5
-132.00 475.90 1339.9
-118.47 438.68 1235.1
-113.02 430.10 1210.9
-114.59 448.53 1262.8
-113.41 456.96 1286.6
-108.17 449.05 1264.3
-101.87 436.12 1227.9
-96.36 425.86 1199.0
-92.90 424.27 1194.5
-91.03 430.02 1210.7
-89.74 439.10 1236.3
-85.10 431.83 1215.8
-79.05 416.53 1172.7
-77.06 422.27 1188.9
-75.21 429.35 1208.8
-70.35 419.05 1179.8
-66.50 414.10 1165.9
-63.69 415.49 1169.8
-60.56 414.87 1168.0
-57.96 417.92 1176.6
-55.14 419.64 1181.5
-51.00 410.99 1157.1
-46.99 402.34 1132.8
-44.64 407.73 1147.9
-42.73 418.13 1177.2
-39.74 418.83 1179.2
-36.34 414.85 1168.0
-33.45 416.55 1172.8
-30.31 415.24 1169.1
-27.02 411.25 1157.8
-24.15 413.61 1164.5
-20.83 407.60 1147.6
-17.38 396.91 1117.5
-14.69 402.61 1133.5
-12.03 412.00 1159.9
-9.03 412.34 1160.9
-6.06 415.02 1168.5
-3.06 419.71 1181.7
0.00 418.04 1177.0
3.03 415.36 1169.4
5.98 409.67 1153.4
8.79 401.63 1130.8
11.77 402.96 1134.5
14.89 407.97 1148.6
17.91 408.96 1151.4
21.05 411.96 1159.8
24.27 415.62 1170.1
27.28 415.26 1169.1
30.09 412.23 1160.6
32.99 410.86 1156.8
36.60 417.86 1176.5
40.19 423.52 1192.4
43.31 423.82 1193.2
46.55 425.12 1196.9
49.29 422.07 1188.3
52.41 422.36 1189.1
56.23 428.00 1205.0
59.12 426.28 1200.2
60.86 416.87 1173.7
62.61 408.47 1150.0
66.23 412.42 1161.2
71.92 428.41 1206.2
75.21 429.35 1208.8
76.69 420.27 1183.2
80.89 426.22 1200.0
85.43 433.50 1220.5
86.06 421.07 1185.5
86.71 409.65 1153.3
90.27 412.25 1160.7
95.46 421.85 1187.7
99.22 424.78 1195.9
101.66 422.03 1188.2
106.04 427.28 1203.0
111.27 435.53 1226.2
113.02 430.10 1210.9
112.98 418.34 1177.8
116.10 418.58 1178.5
121.41 426.48 1200.7
122.06 418.06 1177.0
122.39 408.96 1151.4
129.12 421.18 1185.8
136.34 434.39 1223.0
134.13 417.64 1175.8
130.04 395.91 1114.7
132.90 395.80 1114.4
137.80 401.68 1130.9
144.77 413.20 1163.3
153.33 428.70 1207.0
156.05 427.58 1203.8
156.65 420.81 1184.8
157.28 414.37 1166.6
156.28 403.96 1137.3
157.60 399.85 1125.7
162.60 405.03 1140.3
168.35 411.86 1159.6
171.16 411.39 1158.2
167.65 396.01 1114.9
166.21 385.94 1086.6
168.82 385.47 1085.3
169.95 381.69 1074.6
175.52 387.84 1091.9
181.18 393.99 1109.2
179.50 384.25 1081.8
179.10 377.50 1062.8
181.63 377.02 1061.5
184.15 376.55 1060.1
187.32 377.39 1062.5
192.82 382.85 1077.9
196.38 384.35 1082.1
198.42 382.87 1077.9
206.50 392.93 1106.3
212.09 398.04 1120.6
212.42 393.26 1107.2
212.67 388.48 1093.7
211.40 381.07 1072.9
213.71 380.24 1070.6
220.32 386.98 1089.5
226.65 393.05 1106.6
234.02 400.75 1128.3
238.77 403.85 1137.0
236.30 394.80 1111.5
235.30 388.38 1093.5
240.03 391.47 1102.2
250.49 403.74 1136.7
261.13 415.99 1171.2
267.15 420.69 1184.4
284.59 443.06 1247.4
311.90 480.12 1351.7
313.74 477.59 1344.6
299.71 451.20 1270.3
303.06 451.30 1270.6
319.49 470.64 1325.1
344.01 501.38 1411.6
401.88 573.51 1614.7
405.15 572.22 1611.0
397.22 555.30 1563.4
383.42 530.60 1493.9
-185.22 524.78 1488.4
-175.36 507.42 1439.1
-176.81 546.51 1550.0
-165.62 523.84 1485.7
-147.21 476.67 1351.9
-136.45 452.63 1283.7
-136.66 464.65 1317.8
-133.18 464.43 1317.2
-122.49 438.38 1243.3
-116.86 429.53 1218.2
-117.32 443.21 1257.0
-117.84 457.88 1298.6
-115.49 461.95 1310.2
-109.78 452.43 1283.2
-102.81 436.94 1239.2
-97.57 428.07 1214.1
-94.08 426.48 1209.6
-89.61 420.26 1191.9
-85.99 417.67 1184.6
-83.86 422.39 1198.0
-79.88 417.81 1185.0
-75.41 410.24 1163.5
-71.59 405.65 1150.5
-68.28 403.72 1145.0
-65.69 406.09 1151.7
-62.66 405.81 1150.9
-59.30 403.21 1143.5
-56.66 405.58 1150.3
-53.95 407.62 1156.1
-50.54 404.34 1146.8
-47.14 400.72 1136.5
-44.27 401.42 1138.5
-41.84 406.44 1152.7
-39.08 408.80 1159.4
-35.93 407.17 1154.8
-33.31 411.85 1168.1
-30.38 413.21 1171.9
-26.58 401.60 1139.0
-23.37 397.29 1126.8
-20.96 407.29 1155.1
-18.23 413.29 1172.1
-15.06 409.64 1161.8
-12.04 409.32 1160.9
-9.07 410.99 1165.6
-6.11 415.32 1177.9
-3.12 424.97 1205.3
0.00 428.63 1215.6
3.13 425.30 1206.2
6.15 418.31 1186.4
9.05 410.33 1163.7
12.12 411.98 1168.4
15.06 409.64 1161.8
17.78 402.98 1142.9
20.91 406.29 1152.3
24.13 410.26 1163.6
27.28 412.23 1169.2
30.29 411.88 1168.1
32.80 405.54 1150.2
35.87 406.51 1152.9
39.36 411.79 1167.9
42.42 412.09 1168.8
45.34 411.06 1165.8
47.69 405.37 1149.7
51.29 410.32 1163.7
55.58 419.91 1190.9
59.03 422.52 1198.3
61.40 417.49 1184.1
64.00 414.45 1175.4
68.81 425.35 1206.4
73.72 435.92 1236.3
75.98 430.55 1221.1
76.88 418.20 1186.1
80.51 421.13 1194.4
85.96 433.01 1228.1
87.56 425.31 1206.2
88.91 416.94 1182.5
93.49 423.83 1202.0
96.82 424.75 1204.6
98.52 418.70 1187.5
100.05 412.32 1169.4
103.56 414.23 1174.8
110.25 428.39 1215.0
113.37 428.30 1214.7
115.51 424.57 1204.1
121.01 433.08 1228.3
124.26 433.31 1228.9
122.74 417.33 1183.6
122.69 406.97 1154.2
129.12 418.12 1185.8
134.26 424.63 1204.3
130.39 403.03 1143.0
128.18 387.38 1098.7
132.56 391.91 1111.5
138.37 400.39 1135.6
146.52 415.14 1177.4
155.60 431.86 1224.8
158.48 431.07 1222.6
160.24 427.31 1211.9
161.95 423.56 1201.3
156.66 401.99 1140.1
153.54 386.70 1096.7
161.80 400.09 1134.7
171.06 415.44 1178.2
175.30 418.27 1186.3
173.54 406.93 1154.1
171.05 394.29 1118.3
173.02 392.18 1112.3
175.84 392.04 1111.9
182.71 400.77 1136.6
188.78 407.53 1155.8
186.76 396.86 1125.6
186.78 390.80 1108.4
189.74 390.98 1108.9
190.76 387.22 1098.2
192.55 385.10 1092.2
193.97 382.32 1084.3
193.33 375.61 1065.3
196.01 375.46 1064.9
204.24 385.79 1094.1
213.49 397.74 1128.0
218.10 400.84 1136.8
218.43 396.09 1123.4
217.23 388.72 1102.5
216.29 382.01 1083.4
219.75 383.15 1086.7
227.58 391.79 1111.2
236.69 402.38 1141.2
247.51 415.57 1178.6
251.82 417.66 1184.5
245.82 402.79 1142.4
245.85 398.04 1128.9
253.95 406.31 1152.4
262.57 415.23 1177.6
269.44 421.20 1194.6
286.29 442.44 1254.8
302.79 462.69 1312.3
294.22 444.59 1260.9
294.51 440.14 1248.3
314.05 464.25 1316.7
323.28 472.76 1340.8
340.02 491.95 1395.2
403.10 571.06 1619.6
412.61 578.51 1640.7
410.81 570.11 1616.9
403.01 553.63 1570.2
414.45 563.66 1598.6
-170.96 524.54 1498.7
-158.12 496.42 1418.3
-146.91 472.23 1349.2
-141.06 464.45 1327.0
-138.14 466.21 1332.0
-132.05 457.11 1306.0
-123.05 437.15 1249.0
-118.76 433.30 1238.0
-117.06 438.99 1254.2
-116.05 447.64 1279.0
-112.84 448.06 1280.2
-106.17 434.32 1240.9
-102.58 432.76 1236.4
-100.00 435.47 1244.2
-95.84 431.27 1232.2
-90.68 422.12 1206.0
-85.99 414.61 1184.6
-82.87 414.35 1183.8
-80.00 415.40 1186.9
-76.33 412.17 1177.6
-71.47 402.00 1148.6
-67.54 396.45 1132.7
-65.58 402.44 1149.8
-63.02 405.14 1157.5
-59.25 399.91 1142.6
-56.38 400.61 1144.6
-54.04 405.28 1157.9
-50.92 404.33 1155.2
-47.46 400.41 1144.0
-44.64 401.77 1147.9
-41.63 401.47 1147.1
-38.31 397.87 1136.8
-35.22 396.25 1132.1
-32.61 400.24 1143.5
-30.16 407.20 1163.4
-26.77 401.61 1147.5
-23.29 393.04 1123.0
-20.71 399.34 1141.0
-18.15 408.27 1166.5
-15.12 408.28 1166.5
-11.95 403.34 1152.4
-8.89 400.04 1143.0
-6.04 407.65 1164.7
-3.11 419.87 1199.6
0.00 423.84 1211.0
3.12 420.53 1201.5
6.23 420.53 1201.5
9.32 419.53 1198.7
12.26 413.91 1182.6
14.95 403.66 1153.3
17.60 396.05 1131.6
20.67 398.67 1139.1
24.19 408.23 1166.4
27.79 416.80 1190.9
31.17 420.74 1202.1
33.96 416.75 1190.7
36.66 412.43 1178.4
39.68 412.07 1177.3
42.52 410.05 1171.6
45.15 406.39 1161.1
47.85 403.71 1153.5
51.83 411.59 1176.0
55.31 414.85 1185.3
57.73 410.18 1172.0
62.23 420.03 1200.1
67.33 432.85 1236.7
70.69 433.78 1239.4
73.89 433.72 1239.2
75.57 425.09 1214.5
76.08 410.85 1173.9
79.18 411.12 1174.6
84.06 420.28 1200.8
88.86 428.45 1224.1
93.79 436.62 1247.5
96.28 433.24 1237.8
97.05 422.63 1207.5
99.92 421.56 1204.5
102.79 420.49 1201.4
105.80 420.08 1200.2
111.87 431.51 1232.9
117.15 439.32 1255.2
121.28 442.51 1264.3
124.53 442.41 1264.0
124.93 432.45 1235.6
126.15 425.77 1216.5
129.18 425.34 1215.3
131.99 424.25 1212.1
133.11 417.90 1194.0
134.99 414.18 1183.4
138.13 414.40 1184.0
142.17 417.24 1192.1
147.62 424.02 1211.5
151.42 425.87 1216.8
155.13 427.39 1221.1
160.07 432.18 1234.8
163.96 434.02 1240.0
165.36 429.30 1226.6
160.00 407.54 1164.4
157.86 394.64 1127.5
166.33 408.27 1166.5
172.42 415.66 1187.6
173.51 410.94 1174.1
180.57 420.29 1200.8
187.05 427.99 1222.8
183.47 412.81 1179.4
181.00 400.57 1144.5
186.45 405.98 1159.9
190.15 407.46 1164.2
192.01 405.03 1157.2
196.04 407.16 1163.3
195.47 399.83 1142.4
192.86 388.59 1110.3
194.51 386.16 1103.3
195.79 383.07 1094.5
194.33 374.77 1070.8
196.68 373.97 1068.5
199.72 374.47 1069.9
203.46 376.26 1075.0
207.76 379.02 1082.9
208.67 375.61 1073.2
217.58 386.49 1104.3
227.94 399.63 1141.8
228.36 395.23 1129.2
234.22 400.24 1143.5
238.61 402.65 1150.4
244.59 407.65 1164.7
255.56 420.74 1202.1
257.36 418.60 1196.0
253.09 406.75 1162.1
257.40 408.81 1168.0
273.48 429.30 1226.6
290.27 450.41 1286.9
285.67 438.24 1252.1
277.70 421.23 1203.5
278.31 417.47 1192.8
290.39 430.80 1230.8
326.59 479.24 1369.2
352.16 511.20 1460.6
411.87 579.19 1654.8
382.22 531.95 1519.9
395.74 545.15 1557.6
408.26 556.72 1590.6
-187.40 545.90 1571.4
-180.31 536.91 1545.5
-173.03 526.94 1516.8
-162.64 506.84 1458.9
-152.97 488.04 1404.8
-145.17 474.44 1365.7
-140.68 471.29 1356.6
-139.10 477.93 1375.7
-133.25 469.87 1352.5
-124.72 451.68 1300.1
-119.88 446.22 1284.4
-114.01 436.50 1256.5
-106.96 421.55 1213.4
-103.59 420.65 1210.8
-102.74 430.22 1238.4
-99.32 429.32 1235.8
-94.45 421.87 1214.3
-91.03 420.64 1210.8
-87.70 419.73 1208.2
-84.52 419.47 1207.4
-81.40 419.53 1207.6
-77.98 417.96 1203.1
-73.29 409.18 1177.8
-68.50 399.08 1148.7
-66.01 402.08 1157.4
-63.43 404.75 1165.1
-59.68 399.89 1151.1
-56.94 401.57 1155.9
-54.79 407.84 1174.0
-51.87 408.87 1176.9
-48.67 407.60 1173.3
-44.97 401.73 1156.4
-41.22 394.55 1135.7
-38.28 394.59 1135.8
-35.49 396.26 1140.6
-32.58 396.94 1142.6
-29.87 400.24 1152.1
-27.37 407.49 1172.9
-24.56 411.44 1184.3
-21.22 406.21 1169.3
-18.04 402.95 1159.9
-14.89 399.02 1148.6
-11.69 391.49 1126.9
-8.84 394.78 1136.3
-6.09 407.91 1174.1
-3.05 408.90 1177.0
0.00 400.69 1153.4
3.02 404.30 1163.8
6.16 412.50 1187.4
9.22 411.84 1185.5
12.14 406.58 1170.3
15.01 402.30 1158.0
17.92 400.32 1152.3
21.07 403.26 1160.8
24.76 414.72 1193.8
28.36 422.25 1215.4
31.71 424.85 1222.9
34.79 423.84 1220.0
37.84 422.50 1216.1
40.99 422.47 1216.1
44.00 421.12 1212.2
46.88 418.79 1205.5
49.88 417.77 1202.5
53.74 423.63 1219.4
56.94 423.91 1220.2
59.31 418.29 1204.0
63.79 427.42 1230.3
66.87 426.71 1228.3
68.00 414.20 1192.3
71.53 416.77 1199.7
73.81 412.12 1186.3
75.59 405.18 1166.3
80.07 412.66 1187.8
84.52 419.47 1207.4
88.80 424.96 1223.2
93.65 432.75 1245.6
96.06 429.07 1235.1
98.11 424.09 1220.7
102.11 427.60 1230.8
105.69 429.16 1235.3
109.62 432.01 1243.5
114.87 439.77 1265.9
118.83 442.30 1273.1
121.56 440.24 1267.2
123.06 433.93 1249.1
123.70 425.01 1223.4
125.18 419.36 1207.1
129.78 424.16 1220.9
134.34 428.62 1233.8
135.41 421.99 1214.7
136.92 416.98 1200.3
141.53 421.44 1213.1
147.10 428.50 1233.4
152.08 433.60 1248.1
155.63 434.46 1250.6
154.06 421.30 1212.7
153.51 411.40 1184.2
157.65 414.21 1192.3
159.55 411.16 1183.5
162.31 410.38 1181.3
168.08 417.08 1200.5
169.93 414.02 1191.7
169.16 404.78 1165.1
172.13 404.65 1164.8
180.99 418.15 1203.6
186.77 424.18 1221.0
182.02 406.50 1170.1
179.22 393.70 1133.2
184.20 398.10 1145.9
187.40 398.60 1147.4
189.07 395.86 1139.5
197.61 407.38 1172.6
202.33 410.79 1182.4
201.26 402.53 1158.7
204.35 402.69 1159.1
206.61 401.24 1155.0
205.80 393.96 1134.0
204.20 385.39 1109.3
203.52 378.77 1090.3
205.38 376.99 1085.2
207.92 376.51 1083.8
210.82 376.67 1084.2
222.32 391.99 1128.3
236.27 411.17 1183.5
241.48 414.85 1194.1
241.62 409.83 1179.7
237.83 398.37 1146.7
239.14 395.61 1138.7
245.72 401.54 1155.8
256.56 414.21 1192.3
262.35 418.51 1204.7
263.51 415.42 1195.8
275.96 429.98 1237.7
290.91 448.06 1289.7
285.04 434.05 1249.4
283.67 427.09 1229.4
293.81 437.45 1259.2
311.28 458.36 1319.4
352.12 512.87 1476.3
399.77 569.89 1640.4
406.78 561.94 1617.5
416.81 569.92 1640.5
-179.14 517.96 1502.1
-173.65 513.24 1488.5
-176.16 532.50 1544.3
-172.83 534.58 1550.3
-163.12 516.56 1498.1
-155.48 504.36 1462.7
-142.84 474.96 1377.4
-135.12 460.79 1336.3
-134.75 471.61 1367.7
-130.05 467.49 1355.8
-123.93 457.85 1327.8
-117.01 444.63 1289.5
-110.70 433.03 1255.8
-108.03 435.39 1262.7
-103.53 430.28 1247.8
-97.13 416.71 1208.5
-92.47 409.95 1188.9
-89.12 408.73 1185.3
-87.16 414.00 1200.6
-84.85 417.97 1212.2
-80.96 414.13 1201.0
-76.88 408.99 1186.1
-73.87 409.38 1187.2
-70.47 407.48 1181.7
-67.20 406.23 1178.1
-64.00 405.31 1175.4
-59.39 394.94 1145.4
-55.87 391.08 1134.2
-54.39 401.87 1165.5
-52.20 408.42 1184.5
-49.10 408.14 1183.6
-45.45 402.96 1168.6
-41.46 393.88 1142.3
-38.31 391.95 1136.7
-35.72 395.89 1148.1
-32.96 398.53 1155.8
-30.06 399.86 1159.6
-27.43 405.42 1175.8
-24.70 410.66 1190.9
-21.39 406.44 1178.7
-18.04 399.93 1159.9
-14.80 393.75 1141.9
-11.75 390.83 1133.5
-8.99 398.66 1156.2
-6.14 408.45 1184.5
-3.05 405.52 1176.0
0.00 399.00 1157.1
3.04 403.89 1171.3
6.27 416.92 1209.1
9.51 421.48 1222.3
12.40 412.34 1195.8
15.16 403.21 1169.3
18.32 406.13 1177.8
21.87 415.56 1205.2
25.15 418.15 1212.7
28.29 418.13 1212.6
31.83 423.32 1227.7
35.09 424.27 1230.4
37.87 419.68 1217.1
40.76 417.04 1209.5
43.96 417.66 1211.3
47.10 417.62 1211.2
50.67 421.17 1221.4
55.08 430.90 1249.6
58.53 432.48 1254.2
61.03 427.22 1239.0
64.87 431.41 1251.1
67.13 425.17 1233.0
68.38 413.39 1198.9
72.15 417.24 1210.1
75.16 416.53 1208.0
77.55 412.57 1196.5
81.91 419.01 1215.2
86.04 423.82 1229.1
89.35 424.41 1230.8
93.09 426.93 1238.2
96.72 428.81 1243.6
100.16 429.71 1246.2
102.59 426.38 1236.5
104.64 421.74 1223.1
107.46 420.36 1219.1
111.28 422.87 1226.4
116.28 429.60 1245.9
120.21 432.11 1253.2
122.87 430.06 1247.2
124.84 425.74 1234.7
128.70 427.92 1241.0
136.18 441.76 1281.2
137.01 433.87 1258.3
133.95 414.31 1201.5
137.35 415.17 1204.0
143.83 425.11 1232.9
147.33 425.96 1235.3
150.37 425.52 1234.1
154.35 427.67 1240.3
153.70 417.19 1209.9
154.12 409.95 1188.9
159.14 415.00 1203.6
162.97 416.82 1208.8
167.21 419.60 1216.9
169.26 416.88 1209.0
166.99 403.82 1171.1
167.94 398.85 1156.7
172.95 403.56 1170.4
179.59 411.81 1194.3
182.62 411.67 1193.9
183.32 406.36 1178.5
184.98 403.32 1169.7
185.99 398.98 1157.1
185.87 392.39 1138.0
188.29 391.28 1134.8
197.29 403.69 1170.7
205.36 413.83 1200.2
207.26 411.42 1193.2
208.46 407.72 1182.4
208.60 402.09 1166.1
210.86 400.64 1161.9
211.39 395.98 1148.4
211.50 390.68 1133.0
214.34 390.52 1132.5
219.33 394.20 1143.2
225.45 399.80 1159.5
226.52 396.42 1149.7
228.85 395.28 1146.4
236.03 402.47 1167.2
237.81 400.36 1161.1
245.33 407.86 1182.8
258.40 424.29 1230.5
261.47 424.09 1229.9
268.52 430.28 1247.9
273.64 433.27 1256.5
273.50 427.95 1241.1
279.88 432.84 1255.3
286.96 438.69 1272.2
296.02 447.39 1297.5
312.87 467.54 1355.9
324.84 480.04 1392.2
341.56 499.20 1447.7
364.71 527.24 1529.0
372.70 533.00 1545.7
383.69 542.88 1574.4
-188.59 541.18 1581.4
-172.14 504.95 1475.5
-166.86 500.58 1462.7
-169.30 519.71 1518.6
-164.17 515.98 1507.7
-157.20 506.12 1478.9
-145.11 478.85 1399.2
-135.70 459.30 1342.1
-133.83 464.89 1358.4
-128.44 458.22 1338.9
-121.65 446.06 1303.4
-115.73 436.48 1275.4
-110.70 429.79 1255.9
-105.29 421.16 1230.7
-98.76 407.37 1190.4
-97.73 416.16 1216.1
-97.61 429.48 1255.0
-91.04 414.37 1210.8
-86.40 407.34 1190.3
-84.39 412.57 1205.6
-80.64 409.41 1196.3
-76.88 405.91 1186.1
-74.11 407.59 1191.0
-70.41 404.09 1180.8
-66.82 400.91 1171.5
-64.72 406.78 1188.7
-60.96 402.31 1175.6
-55.77 387.48 1132.2
-52.93 388.17 1134.3
-50.91 395.32 1155.2
-48.00 396.01 1157.2
-45.67 401.87 1174.3
-42.70 402.55 1176.3
-39.49 400.97 1171.7
-36.84 405.21 1184.0
-33.61 403.29 1178.4
-30.38 401.05 1171.9
-27.19 398.81 1165.3
-24.01 396.24 1157.8
-21.15 398.85 1165.5
-18.16 399.51 1167.4
-15.10 398.55 1164.6
-12.15 400.83 1171.3
-9.05 398.25 1163.7
-5.99 395.66 1156.2
-3.06 403.44 1178.9
0.00 408.30 1193.1
3.08 406.03 1186.4
6.22 410.56 1199.7
9.40 413.46 1208.2
12.23 403.74 1179.8
15.08 398.23 1163.7
18.38 404.37 1181.6
22.11 416.98 1218.4
25.62 422.78 1235.4
28.23 414.02 1209.8
31.07 410.11 1198.4
34.42 413.00 1206.8
37.28 410.06 1198.2
40.48 411.00 1201.0
44.07 415.50 1214.1
47.43 417.40 1219.7
51.14 421.89 1232.8
54.79 425.41 1243.1
57.25 419.87 1226.9
59.13 410.76 1200.3
62.38 411.69 1203.0
67.24 422.63 1235.0
71.56 429.36 1254.6
74.52 427.69 1249.7
76.46 420.52 1228.8
78.10 412.38 1205.0
81.79 415.22 1213.3
85.65 418.71 1223.5
88.60 417.67 1220.5
92.24 419.86 1226.9
95.77 421.40 1231.4
98.57 419.71 1226.4
100.48 414.47 1211.1
104.24 416.97 1218.4
109.04 423.34 1237.0
110.26 415.83 1215.1
112.77 413.49 1208.2
118.59 423.07 1236.2
123.44 428.78 1252.9
128.27 434.16 1268.6
135.54 447.27 1307.0
141.79 456.50 1333.9
140.30 440.93 1288.4
136.47 418.92 1224.1
139.28 417.85 1221.0
145.15 425.78 1244.2
147.78 424.06 1239.1
149.80 420.73 1229.4
152.95 420.61 1229.0
156.21 420.81 1229.6
160.45 423.58 1237.7
168.57 436.30 1274.9
175.49 445.48 1301.7
177.52 442.13 1291.9
176.48 431.40 1260.6
173.41 416.18 1216.1
173.92 409.95 1197.9
177.38 410.78 1200.3
182.40 415.12 1213.0
185.05 414.02 1209.8
184.92 406.83 1188.8
187.49 405.72 1185.5
188.99 402.37 1175.8
189.83 397.75 1162.2
193.71 399.52 1167.4
199.33 404.80 1182.9
203.28 406.56 1188.0
202.39 398.74 1165.1
201.05 390.28 1140.4
204.76 391.72 1144.6
209.67 395.39 1155.3
212.07 394.27 1152.1
213.57 391.55 1144.1
217.33 392.98 1148.3
223.61 398.86 1165.5
228.34 401.87 1174.3
227.98 395.97 1157.1
230.32 394.84 1153.7
237.53 401.98 1174.6
236.85 395.75 1156.4
242.63 400.34 1169.8
264.84 431.59 1261.1
277.25 446.31 1304.1
279.70 444.82 1299.8
279.91 439.85 1285.3
274.32 426.01 1244.8
275.56 422.95 1235.9
295.32 448.07 1309.3
319.87 479.81 1402.0
321.21 476.40 1392.1
314.74 461.61 1348.9
327.87 475.59 1389.7
345.83 496.19 1449.9
354.74 503.50 1471.3
366.00 513.96 1501.8
388.53 539.86 1577.5
416.02 572.03 1671.5
-166.56 495.90 1460.1
-158.51 482.92 1421.9
-148.41 462.88 1362.9
-138.10 441.24 1299.2
-143.46 469.83 1383.4
-148.48 498.75 1468.5
-136.44 470.37 1385.0
-123.11 435.89 1283.4
-118.67 431.82 1271.4
-115.14 430.95 1268.9
-108.55 418.22 1231.4
-101.98 404.84 1192.0
-99.22 406.20 1196.0
-101.53 429.04 1263.3
-99.23 433.29 1275.8
-90.68 409.63 1206.1
-85.65 400.72 1179.9
-83.13 403.35 1187.6
-80.26 404.38 1190.6
-77.12 404.12 1189.9
-73.81 402.89 1186.3
-69.68 396.85 1168.5
-66.22 394.34 1161.1
-64.15 400.17 1178.2
-62.47 409.21 1204.9
-58.89 406.05 1195.6
-55.36 402.88 1186.2
-52.83 407.10 1198.7
-49.26 403.28 1187.4
-46.33 404.61 1191.3
-43.62 408.18 1201.8
-40.54 408.53 1202.9
-37.69 411.45 1211.5
-34.20 407.30 1199.3
-30.63 401.22 1181.3
-27.24 396.42 1167.2
-24.11 394.83 1162.5
-21.29 398.39 1173.0
-18.44 402.58 1185.4
-15.45 404.85 1192.0
-12.30 402.93 1186.4
-9.07 395.86 1165.6
-6.00 392.98 1157.1
-3.06 400.70 1179.8
0.00 405.84 1195.0
3.08 403.91 1189.3
6.07 397.48 1170.3
8.93 389.75 1147.6
11.96 391.68 1153.2
15.22 398.74 1174.0
18.57 405.48 1193.9
22.32 417.68 1229.8
26.06 426.67 1256.3
29.02 422.46 1243.9
31.95 418.58 1232.5
35.42 421.77 1241.9
38.01 414.99 1221.9
40.89 412.07 1213.3
44.65 417.82 1230.2
48.21 421.00 1239.6
51.53 421.92 1242.3
54.75 421.88 1242.2
58.27 424.08 1248.7
61.45 423.71 1247.6
63.55 416.28 1225.7
67.29 419.76 1235.9
70.43 419.38 1234.8
72.10 410.66 1209.1
77.17 421.19 1240.2
82.15 430.44 1267.4
83.12 418.82 1233.2
84.13 408.16 1201.8
89.15 417.08 1228.0
95.08 429.52 1264.7
98.42 429.76 1265.4
100.77 425.84 1253.8
100.95 413.25 1216.8
103.11 409.33 1205.2
107.80 415.33 1222.9
109.15 408.52 1202.8
111.80 406.83 1197.9
118.05 417.95 1230.6
122.79 423.30 1246.4
127.14 427.05 1257.4
134.47 440.39 1296.7
141.00 450.52 1326.5
141.43 441.13 1298.9
138.99 423.43 1246.7
140.90 419.48 1235.1
145.71 424.17 1248.9
149.35 425.33 1252.3
152.44 424.89 1251.1
153.77 419.66 1235.7
155.38 415.39 1223.1
159.96 419.10 1234.0
168.58 433.01 1275.0
175.88 443.09 1304.6
178.31 440.72 1297.7
179.51 435.48 1282.2
179.03 426.42 1255.5
185.90 434.88 1280.4
196.50 451.61 1329.7
194.81 440.00 1295.5
190.36 422.66 1244.5
187.54 409.47 1205.6
187.49 402.64 1185.5
193.05 407.90 1201.0
197.62 410.93 1209.9
198.82 406.96 1198.3
202.17 407.44 1199.7
205.68 408.24 1202.0
204.49 399.83 1177.3
205.49 395.86 1165.6
212.27 403.00 1186.6
218.30 408.54 1202.9
221.67 409.00 1204.3
221.74 403.45 1187.9
224.38 402.65 1185.5
231.82 410.38 1208.3
237.57 414.95 1221.8
238.06 410.34 1208.2
241.27 410.47 1208.6
244.86 411.24 1210.8
240.27 398.42 1173.1
243.78 399.18 1175.4
259.78 420.13 1237.0
270.75 432.54 1273.6
273.32 431.39 1270.2
277.49 432.76 1274.2
276.37 425.94 1254.1
273.29 416.29 1225.7
287.19 432.43 1273.2
320.54 477.16 1405.0
332.77 489.80 1442.2
316.48 460.66 1356.4
317.44 456.97 1345.5
322.96 459.87 1354.0
317.39 447.08 1316.4
336.82 469.40 1382.1
396.83 541.51 1594.4
422.75 570.94 1681.1
