ply
format ascii 1.0
element vertex 2280
property float x
property float y
property float z
end_header
827.30 304.53 1957.7
867.25 317.29 2039.7
874.07 317.84 2043.3
804.60 290.82 1869.5
822.82 292.12 1877.9
844.48 298.05 1916.0
857.48 300.87 1934.2
875.39 305.37 1963.1
860.60 298.47 1918.8
858.65 296.08 1903.4
869.71 298.19 1916.9
859.05 292.86 1882.7
858.55 291.04 1870.9
885.39 298.45 1918.6
906.59 303.89 1953.6
912.03 304.01 1954.3
911.15 302.04 1941.7
909.80 299.93 1928.1
950.83 311.75 2004.1
966.59 315.19 2026.2
922.92 299.32 1924.2
966.13 311.65 2003.5
1001.47 319.62 2054.7
1012.76 321.51 2066.9
1049.48 331.42 2130.5
1043.39 327.77 2107.1
1048.24 327.57 2105.8
1045.98 325.17 2090.4
1078.36 333.51 2144.0
504.54 358.65 2344.7
513.93 360.97 2359.9
535.73 371.86 2431.0
539.16 369.89 2418.2
524.46 355.67 2325.2
547.36 366.98 2399.1
564.39 365.92 2392.2
595.16 362.00 2366.6
600.93 361.79 2365.2
606.20 361.27 2361.8
620.71 355.55 2324.4
602.38 341.74 2234.1
687.35 358.88 2346.2
712.96 362.63 2370.7
712.66 356.33 2329.5
727.81 360.85 2359.0
699.58 341.12 2230.1
758.57 352.41 2303.9
770.84 347.17 2269.7
771.96 345.04 2255.7
769.11 338.64 2213.9
804.65 351.66 2299.0
798.78 346.53 2265.4
799.37 344.25 2250.6
797.22 340.84 2228.3
790.27 335.44 2192.9
800.04 337.16 2204.2
828.20 346.55 2265.6
813.90 338.17 2210.8
755.64 311.77 2038.2
792.49 324.70 2122.7
844.56 341.29 2231.2
820.36 329.26 2152.6
808.93 322.48 2108.2
812.28 321.64 2102.7
808.78 318.12 2079.7
799.39 312.35 2042.0
807.26 313.34 2048.5
826.83 318.84 2084.4
846.93 324.47 2121.2
832.48 316.88 2071.6
810.39 306.49 2003.7
817.10 307.06 2007.4
814.44 304.13 1988.2
790.94 293.49 1918.7
787.61 290.43 1898.7
810.13 296.88 1940.9
843.56 307.22 2008.5
876.14 317.13 2073.2
849.32 305.55 1997.5
793.35 283.68 1854.6
780.59 277.44 1813.8
782.20 274.70 1795.9
847.73 295.95 1934.8
855.54 296.92 1941.1
856.96 295.67 1933.0
871.24 298.85 1953.8
853.18 290.97 1902.2
871.14 295.39 1931.1
900.69 303.66 1985.2
870.43 291.79 1907.6
849.74 283.25 1851.7
898.96 297.97 1948.0
946.91 312.11 2040.4
914.42 299.73 1959.5
879.04 286.54 1873.3
895.72 290.37 1898.3
958.77 309.11 2020.8
1000.17 320.71 2096.6
983.62 313.69 2050.8
953.96 302.60 1978.3
935.23 295.07 1929.0
960.99 301.59 1971.6
1038.80 324.28 2120.0
1033.11 317.47 2075.4
969.16 296.27 1936.9
995.01 302.60 1978.3
1076.51 320.78 2097.1
488.43 354.11 2355.0
494.09 353.79 2352.8
513.05 358.52 2384.2
530.31 353.54 2351.1
549.98 362.49 2410.6
551.65 351.60 2338.2
601.50 352.39 2343.5
620.67 349.51 2324.3
711.98 341.28 2269.6
726.89 345.57 2298.1
776.48 357.43 2377.0
760.69 347.40 2310.3
775.62 346.04 2301.3
791.14 347.62 2311.8
811.14 348.49 2317.5
832.30 354.95 2360.5
828.47 350.74 2332.5
819.51 344.43 2290.6
783.49 326.92 2174.1
770.58 319.24 2123.0
798.91 328.63 2185.5
783.39 319.98 2127.9
744.54 301.98 2008.2
795.88 320.56 2131.8
825.47 330.19 2195.8
783.50 311.25 2069.9
803.36 316.97 2107.9
836.52 327.83 2180.1
820.04 319.21 2122.8
799.00 308.95 2054.6
796.41 305.91 2034.4
810.07 309.11 2055.6
826.74 313.40 2084.2
843.90 317.83 2113.7
866.66 320.17 2129.2
818.84 300.59 1999.0
794.98 289.99 1928.5
791.29 286.84 1907.6
811.92 292.49 1945.2
848.06 303.63 2019.2
852.90 303.49 2018.3
805.42 284.84 1894.3
772.18 271.43 1805.1
773.40 270.23 1797.1
836.65 288.84 1920.9
869.07 298.26 1983.5
842.63 287.49 1911.9
828.73 281.09 1869.3
825.93 278.51 1852.2
850.62 285.18 1896.5
910.94 303.65 2019.3
890.04 293.31 1950.6
863.24 282.87 1881.2
906.30 295.31 1963.9
954.31 309.22 2056.4
923.51 297.57 1978.9
883.53 283.12 1882.8
893.88 284.86 1894.4
930.62 294.95 1961.5
945.87 298.16 1982.8
978.35 306.73 2039.8
997.73 311.12 2069.0
993.02 307.99 2048.2
1053.64 321.64 2139.0
1055.48 320.51 2131.5
994.13 300.31 1997.1
1032.06 306.97 2041.4
1075.35 318.22 2116.2
1085.14 319.48 2124.6
491.82 346.10 2342.0
505.95 347.46 2351.2
527.57 357.99 2422.5
528.24 354.23 2397.1
536.32 355.47 2405.4
531.16 348.00 2354.9
544.23 352.52 2385.4
552.78 354.03 2395.7
595.07 342.62 2318.5
617.78 345.23 2336.2
720.52 339.42 2296.8
735.57 340.88 2306.7
746.30 337.61 2284.6
766.06 325.86 2205.1
771.17 325.61 2203.3
819.08 343.29 2323.0
833.80 344.39 2330.5
795.51 326.21 2207.5
789.76 321.55 2175.9
828.08 334.76 2265.3
814.79 327.06 2213.2
778.53 310.32 2099.9
811.04 321.04 2172.4
814.94 320.36 2167.8
765.17 298.73 2021.5
768.00 297.79 2015.2
820.12 315.86 2137.4
832.45 318.45 2155.0
840.19 319.27 2160.5
865.29 326.63 2210.3
843.75 316.41 2141.1
829.93 309.19 2092.3
830.22 307.29 2079.4
845.22 310.82 2103.3
860.96 312.58 2115.2
810.84 292.52 1979.5
788.06 282.51 1911.7
813.94 289.97 1962.2
866.00 306.60 2074.7
858.31 302.00 2043.6
821.16 287.16 1943.2
816.14 283.66 1919.5
820.75 283.53 1918.6
815.17 279.91 1894.1
820.90 280.19 1896.0
867.39 294.29 1991.5
894.80 301.80 2042.2
857.69 287.58 1946.0
831.80 277.27 1876.2
837.89 277.67 1879.0
870.35 286.76 1940.5
907.56 297.30 2011.8
908.22 295.82 2001.8
900.60 291.67 1973.7
905.67 291.66 1973.6
914.06 292.71 1980.7
923.73 294.15 1990.5
938.04 297.05 2010.1
940.65 296.23 2004.5
892.05 279.38 1890.5
914.58 283.32 1917.2
980.80 302.19 2044.9
1004.50 307.83 2083.1
1004.56 306.20 2072.1
1016.29 304.89 2063.2
965.62 288.17 1950.0
1003.26 297.84 2015.5
1058.48 312.61 2115.4
1037.49 304.83 2062.8
1035.51 302.69 2048.3
1069.39 311.00 2104.5
1070.13 309.63 2095.3
1081.24 311.27 2106.3
507.91 346.86 2389.1
538.18 334.87 2306.5
601.43 340.20 2343.2
633.19 340.95 2348.4
628.46 335.18 2308.6
681.06 340.53 2345.5
690.22 336.11 2315.0
727.39 339.45 2338.0
755.17 346.64 2387.5
741.94 329.75 2271.2
815.41 340.77 2347.1
806.45 334.53 2304.1
796.02 323.02 2224.9
779.98 314.24 2164.4
794.42 317.77 2188.7
829.37 329.40 2268.8
811.98 320.22 2205.6
767.98 298.66 2057.1
830.90 320.90 2210.3
837.33 321.17 2212.1
790.48 301.13 2074.1
790.57 299.13 2060.4
804.87 302.50 2083.6
817.84 305.33 2103.0
862.36 315.63 2174.0
819.10 297.85 2051.5
787.85 284.64 1960.5
775.88 278.52 1918.4
805.19 287.20 1978.2
814.11 288.54 1987.4
804.93 283.50 1952.7
845.34 295.87 2037.9
869.33 302.37 2082.7
833.25 288.04 1983.9
811.78 278.89 1921.0
820.28 280.10 1929.2
827.64 280.90 1934.7
824.05 277.99 1914.8
822.73 275.89 1900.2
861.33 287.11 1977.5
885.14 293.30 2020.2
849.16 279.72 1926.7
877.86 287.49 1980.1
901.05 291.67 2008.9
869.93 279.98 1928.4
890.89 285.08 1963.6
903.76 287.56 1980.6
895.20 283.23 1950.8
892.74 280.86 1934.5
908.99 284.38 1958.7
930.78 289.58 1994.5
951.05 294.25 2026.7
922.36 283.80 1954.8
891.24 272.73 1878.5
930.66 283.24 1950.9
968.66 293.22 2019.6
960.44 289.16 1991.7
938.25 280.97 1935.3
964.92 287.42 1979.7
1044.56 309.50 2131.7
1040.70 306.73 2112.7
1008.59 295.71 2036.8
472.10 337.21 2364.9
515.51 337.53 2367.1
593.49 333.08 2335.9
618.05 336.56 2360.3
690.54 333.16 2336.4
716.72 336.92 2362.8
716.82 334.11 2343.1
739.33 341.70 2396.4
773.40 345.83 2425.3
742.18 323.97 2272.0
745.34 322.79 2263.7
789.66 339.30 2379.5
793.17 335.57 2353.4
789.73 331.57 2325.3
755.99 315.00 2209.1
763.64 313.44 2198.1
817.84 333.19 2336.7
818.68 328.67 2304.9
818.32 326.14 2287.2
783.85 307.94 2159.6
796.14 308.37 2162.6
802.81 308.77 2165.4
779.32 297.66 2087.5
813.03 308.39 2162.7
847.42 319.24 2238.8
826.38 309.19 2168.4
795.79 295.73 2074.0
779.05 287.57 2016.7
776.22 282.73 1982.8
862.46 312.08 2188.6
877.25 315.35 2211.6
852.44 304.44 2135.0
836.52 296.83 2081.7
804.37 283.59 1988.8
815.91 285.83 2004.5
836.91 291.33 2043.1
839.19 290.29 2035.8
828.89 284.93 1998.2
806.58 275.54 1932.4
853.86 289.89 2033.0
882.10 294.03 2062.1
865.07 286.62 2010.1
850.96 280.26 1965.4
842.59 275.85 1934.5
821.74 267.43 1875.5
839.42 271.58 1904.6
919.99 292.48 2051.2
869.79 274.93 1928.1
869.85 273.38 1917.2
893.33 279.17 1957.8
897.13 278.77 1955.0
878.88 271.56 1904.5
880.04 270.40 1896.3
895.84 273.73 1919.6
907.94 275.89 1934.8
934.49 282.40 1980.5
959.95 288.51 2023.3
980.47 293.08 2055.3
1002.41 298.01 2090.0
971.93 287.40 2015.5
926.85 272.60 1911.8
932.17 272.71 1912.5
979.40 285.01 1998.8
1054.16 305.15 2140.0
1041.35 296.76 2081.2
1048.80 297.34 2085.2
503.35 327.48 2339.1
526.10 330.34 2359.6
533.67 331.25 2366.0
710.79 333.76 2384.0
718.80 328.94 2349.6
735.77 333.88 2384.8
723.16 325.42 2324.5
743.20 331.68 2369.1
755.97 334.61 2390.1
731.19 321.01 2292.9
726.39 313.80 2241.4
734.42 314.75 2248.2
750.85 319.26 2280.4
810.39 334.05 2386.1
772.93 316.20 2258.6
748.77 304.01 2171.5
810.74 326.71 2333.7
817.12 326.85 2334.6
792.19 314.55 2246.8
792.07 312.20 2230.0
809.90 316.92 2263.7
781.23 299.19 2137.1
791.94 301.16 2151.2
840.29 317.31 2266.5
859.33 322.25 2301.8
846.78 315.35 2252.5
834.35 308.60 2204.3
836.88 307.43 2195.9
828.01 302.11 2157.9
806.81 292.40 2088.6
772.35 278.05 1986.0
821.65 291.90 2085.0
848.64 299.52 2139.4
839.10 294.23 2101.6
855.27 297.96 2128.3
853.33 295.38 2109.9
849.81 292.29 2087.8
854.46 292.03 2085.9
847.38 287.79 2055.6
827.63 279.32 1995.2
826.31 277.15 1979.6
891.73 291.84 2084.6
865.73 281.62 2011.6
847.67 274.10 1957.8
836.11 268.75 1919.6
838.71 267.99 1914.2
878.88 279.17 1994.1
888.44 280.56 2004.0
865.32 271.67 1940.5
862.22 269.13 1922.4
854.14 265.08 1893.4
884.46 272.92 1949.4
939.72 288.32 2059.4
935.87 285.52 2039.4
909.90 276.04 1971.7
885.73 267.20 1908.6
877.64 263.29 1880.7
895.56 267.18 1908.5
925.45 274.58 1961.3
958.11 282.72 2019.4
990.16 290.59 2075.6
999.70 291.80 2084.3
955.83 277.50 1982.1
924.95 267.10 1907.8
942.44 270.70 1933.6
963.97 275.42 1967.3
1005.79 285.86 2041.8
521.53 321.41 2339.1
533.96 321.59 2340.4
536.39 319.42 2324.6
546.61 321.90 2342.6
601.79 322.17 2344.7
610.24 323.42 2353.8
662.13 321.95 2343.0
723.23 327.62 2384.3
742.24 333.38 2426.2
698.01 310.88 2262.5
721.63 318.72 2319.5
743.47 320.36 2331.4
724.38 309.61 2253.3
742.52 314.83 2291.2
731.27 307.60 2238.6
792.66 328.21 2388.6
804.45 327.97 2386.8
807.46 326.68 2377.5
811.15 318.45 2317.6
781.89 304.71 2217.5
777.05 300.61 2187.7
787.10 302.29 2200.0
839.57 320.12 2329.7
822.34 306.93 2233.7
830.55 307.83 2240.2
855.09 314.72 2290.4
847.39 309.74 2254.1
833.91 302.72 2203.1
837.50 301.95 2197.5
827.55 296.35 2156.8
805.63 286.56 2085.5
799.55 282.51 2056.0
820.10 287.85 2094.9
833.54 290.64 2115.2
813.42 281.77 2050.6
800.36 275.45 2004.6
811.88 277.61 2020.3
827.55 281.16 2046.2
842.59 284.44 2070.1
850.96 285.45 2077.4
846.88 282.29 2054.4
859.04 284.56 2070.9
872.05 285.30 2076.3
839.17 272.86 1985.8
832.68 269.10 1958.4
827.23 265.72 1933.8
830.69 265.22 1930.2
840.83 266.85 1942.0
855.38 269.85 1963.9
883.95 277.22 2017.5
843.93 263.11 1914.8
858.89 260.12 1893.1
916.51 276.00 2008.6
915.87 274.24 1995.8
896.45 266.92 1942.5
879.30 260.35 1894.7
883.35 260.10 1892.9
913.95 267.62 1947.6
924.45 269.21 1959.2
936.69 271.28 1974.3
956.69 275.57 2005.5
953.21 273.08 1987.4
979.39 279.07 2031.0
1019.60 288.98 2103.1
1024.90 288.93 2102.7
1034.55 290.11 2111.3
1045.99 291.78 2123.4
529.26 320.02 2373.7
708.07 317.41 2354.4
736.82 321.97 2388.3
768.72 324.99 2410.6
754.97 316.60 2348.4
777.92 323.61 2400.4
768.15 317.01 2351.5
740.78 303.31 2249.8
770.42 312.98 2321.6
794.09 320.10 2374.4
785.37 314.15 2330.2
786.90 309.99 2299.4
800.00 312.78 2320.1
800.50 310.64 2304.2
775.68 298.78 2216.2
763.65 291.99 2165.8
789.57 299.69 2223.0
831.12 313.17 2323.0
823.68 308.14 2285.7
797.11 296.07 2196.1
805.80 295.08 2188.8
804.94 292.71 2171.2
819.61 295.97 2195.4
835.43 299.60 2222.3
847.51 301.85 2239.0
852.94 301.72 2238.0
844.15 296.59 2200.0
825.18 287.98 2136.1
822.09 284.99 2113.9
816.00 281.01 2084.4
802.50 274.54 2036.4
813.66 276.54 2051.3
832.61 281.14 2085.4
839.87 281.76 2090.0
850.50 283.50 2102.9
852.57 282.38 2094.6
848.58 279.28 2071.6
820.28 268.27 1989.9
809.49 263.08 1951.4
864.27 279.14 2070.6
873.46 280.37 2079.7
842.51 268.78 1993.7
839.52 266.19 1974.5
812.25 255.98 1898.8
838.31 261.03 1936.2
890.10 275.51 2043.6
896.95 275.99 2047.1
834.97 255.40 1894.5
835.10 251.01 1861.9
843.62 252.12 1870.1
841.91 250.17 1855.6
850.44 251.27 1863.8
873.08 256.50 1902.6
876.32 256.00 1898.9
879.14 255.39 1894.4
903.33 260.96 1935.7
924.75 265.67 1970.7
926.40 264.69 1963.3
898.24 255.24 1893.2
918.00 256.65 1903.7
1004.30 279.27 2071.5
1060.46 287.21 2130.4
1001.81 269.92 2002.1
505.46 314.37 2377.6
510.29 309.82 2343.1
662.19 307.02 2322.0
687.71 313.15 2368.4
682.21 307.90 2328.7
703.25 311.87 2358.7
709.72 312.03 2359.9
691.72 301.52 2280.4
709.91 306.82 2320.5
737.93 316.26 2391.9
758.45 319.68 2417.7
769.77 316.60 2394.5
789.73 317.13 2398.5
780.03 310.79 2350.5
766.95 303.21 2293.2
750.44 294.40 2226.6
751.48 290.34 2195.9
772.75 296.32 2241.1
782.51 297.82 2252.4
766.41 289.53 2189.8
777.74 291.65 2205.8
830.99 309.35 2339.6
836.05 308.97 2336.8
791.30 290.33 2195.8
784.67 283.82 2146.5
805.70 289.37 2188.5
825.88 294.54 2227.6
836.86 296.39 2241.6
849.65 298.84 2260.2
860.06 300.43 2272.2
864.86 300.05 2269.3
870.71 300.04 2269.2
862.61 295.26 2233.0
870.18 295.86 2237.6
873.05 294.87 2230.1
849.32 284.97 2155.2
852.33 284.11 2148.7
875.92 290.08 2193.9
888.23 292.26 2210.3
878.66 287.25 2172.5
861.80 279.95 2117.2
872.53 281.64 2130.1
859.49 275.68 2085.0
808.20 257.62 1948.3
823.23 260.77 1972.2
863.33 271.79 2055.6
861.69 269.61 2039.0
892.20 277.45 2098.4
896.81 277.20 2096.4
831.56 255.48 1932.2
835.40 255.12 1929.5
871.73 264.63 2001.4
869.32 262.34 1984.1
856.03 256.81 1942.2
848.98 253.21 1915.0
869.31 257.76 1949.5
891.41 262.79 1987.5
894.48 262.18 1982.8
888.50 258.94 1958.3
907.97 263.10 1989.9
944.13 272.04 2057.4
937.73 268.67 2032.0
931.63 265.44 2007.5
931.72 263.99 1996.5
927.96 261.47 1977.5
923.70 258.84 1957.6
890.82 248.26 1877.6
922.70 251.65 1903.2
995.45 270.04 2042.3
1022.45 275.90 2086.6
1032.97 277.27 2097.0
1035.59 276.52 2091.3
1041.28 276.59 2091.9
1017.64 268.91 2033.8
1041.31 272.34 2059.7
680.47 301.09 2322.7
688.50 296.77 2289.4
722.94 303.76 2343.3
750.31 312.63 2411.7
733.73 303.20 2338.9
732.97 300.40 2317.4
736.57 292.29 2254.8
751.79 295.98 2283.3
772.45 301.74 2327.7
754.59 292.48 2256.2
761.67 288.51 2225.7
767.16 288.41 2224.8
759.61 283.44 2186.5
779.10 288.56 2226.0
828.48 304.59 2349.7
826.60 299.49 2310.4
794.89 285.93 2205.8
786.41 280.86 2166.6
813.53 288.49 2225.5
847.78 298.51 2302.8
815.42 285.11 2199.4
815.66 281.26 2169.7
855.04 292.82 2258.9
850.62 289.33 2231.9
846.43 285.96 2205.9
852.49 286.07 2206.8
875.11 291.70 2250.3
869.32 287.85 2220.6
836.10 275.03 2121.7
843.79 275.75 2127.2
873.23 283.52 2187.1
838.51 270.49 2086.6
793.29 254.26 1961.4
819.37 260.95 2013.0
870.52 275.48 2125.2
886.60 278.80 2150.8
859.79 268.69 2072.7
834.93 259.30 2000.3
836.66 258.23 1992.1
829.46 254.44 1962.8
850.88 259.41 2001.2
902.93 273.61 2110.7
883.61 266.15 2053.1
861.28 257.87 1989.3
875.54 260.58 2010.2
863.99 255.62 1971.9
841.45 247.48 1909.2
841.98 246.19 1899.2
870.36 253.01 1951.8
892.47 257.94 1989.8
895.95 257.46 1986.1
890.39 254.40 1962.5
908.63 258.13 1991.3
940.25 265.61 2049.0
930.50 261.38 2016.3
937.74 261.94 2020.7
950.45 264.02 2036.7
935.39 258.39 1993.3
920.98 253.02 1951.8
910.65 248.81 1919.4
916.86 249.15 1922.0
951.85 257.26 1984.6
972.43 261.41 2016.6
976.68 261.15 2014.5
1009.64 268.52 2071.5
1003.94 265.59 2048.8
978.38 257.47 1986.2
1012.50 265.05 2044.7
1058.82 275.73 2127.1
1057.47 273.96 2113.4
1039.10 267.81 2065.9
1078.78 276.61 2133.9
550.57 296.46 2333.7
662.60 295.16 2323.4
665.70 293.87 2313.2
680.65 297.79 2344.1
694.16 290.72 2288.4
741.41 307.87 2423.5
731.87 296.38 2333.0
724.81 291.11 2291.5
764.89 304.71 2398.6
757.20 296.82 2336.5
764.26 290.30 2285.2
760.39 286.61 2256.1
784.49 293.43 2309.8
801.87 293.22 2308.1
790.48 286.92 2258.5
800.32 288.35 2269.8
785.29 280.87 2210.9
788.04 279.81 2202.6
784.02 276.38 2175.6
790.37 276.63 2177.5
834.22 289.91 2282.1
855.23 295.11 2323.0
807.03 276.53 2176.8
801.92 270.99 2133.2
851.77 285.87 2250.3
855.46 285.15 2244.6
848.09 280.79 2210.3
850.23 279.61 2201.0
826.04 269.84 2124.1
788.27 254.11 2000.3
830.48 265.97 2093.7
831.13 264.45 2081.7
845.44 263.86 2077.1
841.78 261.06 2055.0
807.36 248.81 1958.6
836.82 256.28 2017.3
868.83 264.43 2081.5
841.13 254.42 2002.7
806.50 242.44 1908.4
814.20 243.27 1914.9
846.14 251.28 1978.0
856.37 252.78 1989.8
862.70 253.13 1992.6
878.56 256.25 2017.1
867.02 251.38 1978.8
874.53 252.07 1984.2
903.00 258.75 2036.8
891.64 254.01 1999.5
874.83 247.78 1950.5
892.52 251.34 1978.5
900.48 252.14 1984.7
879.19 244.77 1926.8
869.66 240.75 1895.1
872.06 240.06 1889.7
889.90 243.60 1917.6
920.04 250.46 1971.5
925.51 250.55 1972.3
920.81 247.91 1951.5
921.12 246.64 1941.5
907.27 241.61 1901.9
919.02 243.42 1916.1
973.56 256.47 2018.9
1015.52 266.10 2094.7
1019.49 265.72 2091.7
982.78 254.79 2005.7
969.42 250.01 1968.0
1024.23 262.76 2068.4
1066.51 268.00 2109.6
1058.27 264.57 2082.6
713.24 297.70 2392.2
706.47 289.83 2329.0
707.35 287.74 2312.2
765.08 303.50 2438.9
749.12 283.13 2275.2
754.76 283.03 2274.4
763.54 284.11 2283.0
766.64 283.07 2274.6
787.59 288.58 2319.0
809.92 290.12 2331.3
788.08 280.21 2251.7
787.67 278.00 2233.9
783.85 274.63 2206.9
797.63 277.44 2229.4
806.84 274.67 2207.2
865.96 290.67 2335.7
864.68 288.23 2316.1
846.54 280.23 2251.9
839.35 275.95 2217.5
869.08 279.97 2249.8
810.07 259.22 2083.0
796.87 251.64 2022.1
829.25 260.16 2090.5
819.94 255.56 2053.6
847.17 259.01 2081.3
855.95 260.03 2089.6
803.42 242.54 1949.0
818.40 245.52 1972.9
884.38 263.67 2118.7
890.22 263.77 2119.6
842.30 248.04 1993.2
839.69 245.76 1974.9
851.84 247.81 1991.3
841.29 243.26 1954.8
832.93 239.41 1923.8
835.15 238.62 1917.4
845.32 240.09 1929.3
873.56 246.65 1982.0
913.71 256.48 2061.0
911.30 254.32 2043.6
886.85 246.06 1977.3
898.07 247.74 1990.8
910.17 249.65 2006.1
892.21 243.33 1955.3
894.34 242.53 1948.9
908.93 245.10 1969.6
876.33 234.99 1888.3
898.32 238.23 1914.3
943.52 248.84 1999.6
938.40 246.14 1977.9
919.48 239.87 1927.5
897.77 232.94 1871.8
913.81 235.82 1895.0
968.96 248.72 1998.6
992.76 253.47 2036.8
990.03 251.44 2020.5
1016.22 256.73 2063.0
1040.82 261.57 2101.9
1065.89 262.37 2108.4
658.50 286.57 2351.8
682.16 286.26 2349.3
684.15 284.56 2335.3
698.60 280.63 2303.1
747.59 295.27 2423.2
797.80 295.25 2423.0
785.32 288.36 2366.5
779.82 284.12 2331.7
775.42 280.35 2300.7
797.71 284.03 2331.0
791.46 279.69 2295.3
801.35 281.07 2306.6
826.05 287.59 2360.1
825.22 285.19 2340.4
818.65 280.85 2304.9
824.63 280.85 2304.9
778.73 263.31 2160.9
803.65 267.88 2198.4
857.61 277.98 2281.3
846.61 272.54 2236.7
880.35 281.47 2310.0
863.23 272.29 2234.6
843.43 264.27 2168.8
845.78 263.26 2160.5
836.43 258.63 2122.5
843.76 259.20 2127.1
838.21 255.82 2099.4
850.40 254.58 2089.2
895.73 266.45 2186.7
870.67 257.37 2112.1
840.32 246.84 2025.8
862.80 251.87 2067.0
911.76 262.90 2157.5
885.80 253.86 2083.3
877.48 249.95 2051.2
883.15 250.05 2052.1
891.20 250.82 2058.4
883.00 247.03 2027.3
881.84 245.24 2012.6
870.99 240.80 1976.2
876.09 240.80 1976.1
903.04 246.76 2025.1
907.83 246.64 2024.1
913.84 246.84 2025.8
920.26 247.16 2028.3
920.50 245.82 2017.3
941.41 249.98 2051.5
953.31 251.72 2065.8
912.12 239.50 1965.5
872.19 227.74 1869.0
908.26 235.85 1935.5
968.79 250.18 2053.2
982.52 252.34 2070.9
967.23 247.06 2027.6
950.45 241.47 1981.6
916.64 231.62 1900.9
917.17 230.52 1891.8
1003.46 250.87 2058.8
989.24 244.71 2008.2
977.24 239.22 1963.2
652.76 280.62 2353.1
653.87 278.50 2335.2
668.50 274.56 2302.2
680.63 274.64 2302.9
704.85 281.94 2364.1
726.19 285.51 2394.0
731.30 285.08 2390.4
723.49 279.67 2345.0
725.36 275.76 2312.3
749.70 282.67 2370.2
791.49 286.68 2403.9
785.85 282.42 2368.1
793.27 282.87 2371.9
803.88 284.45 2385.2
808.20 279.53 2343.9
818.85 281.10 2357.0
832.51 279.53 2343.9
803.43 267.81 2245.6
810.62 268.26 2249.4
823.24 270.49 2268.1
840.72 274.28 2299.8
867.27 280.95 2355.8
859.94 274.70 2303.4
839.66 266.37 2233.6
836.29 263.49 2209.4
835.99 261.60 2193.6
824.58 256.29 2149.0
843.41 260.38 2183.3
880.76 270.10 2264.8
878.25 267.55 2243.4
861.07 260.59 2185.0
854.62 256.94 2154.5
836.23 249.78 2094.4
836.09 248.13 2080.6
875.77 258.24 2165.4
865.61 253.62 2126.6
828.15 241.11 2021.7
853.09 246.81 2069.5
868.73 249.76 2094.3
857.28 244.94 2053.8
876.83 248.98 2087.7
892.27 251.81 2111.4
886.42 248.63 2084.8
911.33 254.07 2130.4
915.38 250.64 2101.6
899.68 242.02 2029.4
885.46 236.81 1985.7
897.89 238.75 2001.9
910.80 240.79 2019.0
890.92 234.19 1963.7
866.26 226.41 1898.5
937.09 243.54 2042.1
959.23 246.51 2067.0
909.41 232.40 1948.7
910.60 231.42 1940.5
933.40 235.91 1978.2
980.22 246.39 2066.0
1004.28 251.07 2105.3
978.64 243.34 2040.4
938.46 232.09 1946.1
934.01 228.53 1916.3
1026.84 248.60 2084.6
978.37 234.40 1965.5
689.84 274.72 2354.7
704.76 278.19 2384.5
734.32 270.86 2321.6
732.24 267.89 2296.2
796.64 277.90 2382.0
808.86 279.99 2399.9
817.97 280.98 2408.4
813.27 277.25 2376.4
797.08 269.69 2311.6
800.15 268.71 2303.2
834.05 278.02 2383.0
838.72 275.49 2361.4
838.81 273.52 2344.5
847.20 272.31 2334.1
826.95 263.92 2262.2
846.55 268.27 2299.5
848.69 267.07 2289.2
805.58 251.74 2157.8
813.99 250.89 2150.5
867.01 265.41 2275.0
848.66 258.04 2211.8
862.26 260.41 2232.1
893.60 268.08 2297.8
880.29 262.34 2248.6
858.74 254.23 2179.1
847.51 249.27 2136.6
869.99 254.22 2179.0
901.35 260.00 2228.6
838.47 240.33 2059.9
808.76 230.34 1974.4
840.05 237.75 2037.9
875.81 246.32 2111.3
881.63 246.42 2112.2
880.14 244.48 2095.6
875.47 241.69 2071.7
882.36 242.11 2075.2
919.38 250.74 2149.2
905.09 243.89 2090.5
904.89 242.38 2077.6
892.65 234.91 2013.5
873.53 228.54 1958.9
878.18 228.43 1958.0
870.14 225.04 1928.9
940.87 237.86 2038.8
950.68 239.00 2048.5
904.59 226.15 1938.4
907.03 225.50 1932.9
923.02 228.22 1956.2
959.57 235.96 2022.5
975.41 238.55 2044.7
941.03 228.90 1962.0
939.12 227.21 1947.5
939.75 226.14 1938.4
966.88 229.00 1962.8
961.71 226.58 1942.1
1002.10 234.87 2013.1
688.91 268.25 2351.5
688.89 265.89 2330.8
694.27 263.34 2308.5
734.39 267.05 2341.0
766.60 276.48 2423.7
741.40 260.97 2287.7
769.61 268.75 2356.0
818.51 274.92 2410.0
789.34 263.11 2306.5
797.94 263.98 2314.1
826.14 271.27 2378.0
813.58 265.17 2324.5
797.12 257.89 2260.8
827.96 265.92 2331.1
853.87 268.36 2352.5
825.80 257.70 2259.0
835.78 258.97 2270.2
842.69 259.29 2273.0
833.91 251.32 2203.1
874.30 258.18 2263.3
845.17 247.92 2173.3
847.53 246.96 2164.9
842.92 244.00 2139.0
850.66 244.63 2144.5
893.44 255.27 2237.8
910.31 258.41 2265.3
875.85 247.03 2165.6
838.69 235.05 2060.5
828.95 230.85 2023.6
843.30 233.36 2045.7
860.41 236.61 2074.2
895.26 244.67 2144.8
920.41 249.99 2191.5
877.24 236.80 2075.8
848.34 227.60 1995.2
875.02 233.34 2045.5
881.86 233.75 2049.1
891.88 234.99 2059.9
927.36 242.88 2129.1
912.96 236.30 2071.4
881.59 226.84 1988.5
878.20 224.66 1969.4
882.06 224.34 1966.6
874.45 221.12 1938.4
865.88 217.71 1908.5
914.90 224.89 1971.4
920.37 224.98 1972.2
914.01 222.19 1947.8
921.12 222.69 1952.1
958.95 230.57 2021.2
974.36 233.00 2042.5
944.27 224.58 1968.7
946.26 223.85 1962.3
986.41 232.10 2034.6
976.30 228.50 2003.1
1020.07 233.77 2049.2
677.83 262.58 2355.4
673.21 258.46 2318.4
705.42 259.26 2325.6
784.82 269.98 2421.7
763.93 256.63 2302.0
792.65 264.22 2370.0
812.78 268.84 2411.6
811.04 266.22 2388.0
777.31 253.21 2271.4
781.61 252.70 2266.7
840.06 269.57 2418.1
827.75 261.72 2347.6
843.15 264.64 2373.8
858.67 267.56 2400.0
836.20 258.68 2320.4
837.46 257.22 2307.3
854.69 260.65 2338.1
848.02 256.79 2303.5
835.99 251.38 2254.9
854.35 255.12 2288.4
879.86 260.92 2340.5
840.81 247.64 2221.3
898.26 260.98 2341.0
874.95 250.82 2249.9
849.19 241.82 2169.2
861.00 243.57 2184.9
884.98 248.72 2231.0
828.38 231.30 2074.8
814.14 222.98 2000.2
815.07 220.43 1977.3
839.66 225.66 2024.2
880.92 235.28 2110.5
906.00 240.48 2157.1
862.74 227.59 2041.5
858.11 220.95 1981.9
893.42 228.67 2051.2
907.48 230.90 2071.2
911.18 230.47 2067.4
908.82 228.53 2050.0
902.73 225.68 2024.4
905.07 224.96 2017.9
900.43 222.52 1996.0
896.10 220.18 1975.1
899.11 219.67 1970.5
895.04 217.44 1950.5
909.64 219.75 1971.1
938.15 225.37 2021.6
920.17 219.82 1971.8
890.34 210.36 1886.9
928.47 218.16 1957.0
963.46 225.16 2019.7
953.96 221.73 1988.9
924.87 213.81 1917.9
931.08 214.10 1920.5
996.15 227.84 2043.8
975.48 221.93 1990.8
700.53 258.09 2370.2
720.73 256.53 2355.9
739.51 261.00 2397.0
744.59 260.61 2393.3
740.13 256.90 2359.3
752.21 252.74 2321.1
826.81 257.23 2362.3
842.19 260.09 2388.6
835.71 256.20 2352.9
829.73 252.53 2319.1
816.18 246.61 2264.8
822.73 246.82 2266.7
838.51 249.77 2293.8
832.76 246.31 2262.0
845.88 248.44 2281.6
834.68 240.11 2205.1
886.93 250.01 2296.0
873.34 242.92 2230.9
889.66 245.83 2257.6
913.44 250.75 2302.8
853.30 232.72 2137.2
852.60 228.08 2094.7
873.48 232.19 2132.4
857.36 226.47 2079.8
855.49 224.57 2062.3
842.81 219.86 2019.1
840.87 216.67 1989.8
846.03 216.66 1989.8
855.94 215.27 1976.9
898.80 224.70 2063.6
904.50 224.79 2064.4
900.56 222.49 2043.3
914.27 224.56 2062.3
924.82 225.83 2073.9
925.65 224.72 2063.8
919.46 221.94 2038.2
897.95 215.51 1979.2
884.45 211.06 1938.3
935.09 221.89 2037.7
935.95 218.39 2005.6
950.37 220.53 2025.3
1001.09 227.27 2087.2
977.39 220.70 2026.8
974.71 218.92 2010.5
1009.33 223.12 2049.0
684.63 246.23 2316.4
737.63 249.94 2351.4
740.78 248.95 2342.1
775.72 250.43 2356.0
780.29 249.94 2351.3
777.58 247.14 2325.0
773.15 243.84 2294.0
833.58 253.16 2381.7
841.07 253.56 2385.4
824.92 246.87 2322.5
824.24 244.88 2303.8
815.70 240.60 2263.5
815.46 238.81 2246.7
825.05 239.91 2257.0
822.65 237.53 2234.6
837.09 240.01 2257.9
877.74 249.91 2351.1
878.54 248.41 2337.0
845.55 232.67 2188.9
868.11 235.71 2217.5
880.03 237.38 2233.1
899.72 241.10 2268.2
911.81 242.75 2283.8
892.05 235.96 2219.9
889.55 233.79 2199.4
924.09 241.32 2270.3
892.08 230.03 2164.1
885.82 226.99 2135.4
868.31 221.12 2080.2
831.42 207.86 1955.4
845.51 210.10 1976.5
848.27 209.51 1971.0
885.40 217.37 2045.0
909.34 221.92 2087.8
897.92 217.84 2049.3
888.73 214.34 2016.4
895.12 214.62 2019.1
918.96 219.05 2060.8
935.23 221.64 2085.1
940.55 221.62 2085.0
929.00 217.65 2047.6
898.29 209.26 1968.6
933.23 216.17 2033.7
965.82 221.22 2081.2
939.11 213.91 2012.4
1045.22 231.64 2179.2
1045.06 230.36 2167.2
1034.18 224.34 2110.6
1028.91 222.03 2088.8
994.40 213.46 2008.1
681.42 247.79 2389.4
714.69 242.27 2336.1
755.25 245.61 2368.4
805.48 253.69 2446.3
808.07 252.52 2435.0
799.23 247.82 2389.7
787.96 242.45 2337.9
799.80 244.21 2354.9
809.14 245.19 2364.4
807.17 242.76 2340.9
842.31 251.44 2424.6
835.11 243.83 2351.2
824.43 238.97 2304.3
803.41 231.20 2229.4
823.88 233.73 2253.8
843.48 237.60 2291.1
848.36 237.30 2288.3
875.51 243.20 2345.1
862.54 233.12 2247.9
902.41 242.26 2336.1
905.32 239.82 2312.6
894.83 235.48 2270.7
907.63 237.29 2288.1
912.02 236.89 2284.3
886.32 228.73 2205.6
881.17 225.94 2178.7
895.41 228.13 2199.8
877.28 222.10 2141.7
863.07 217.12 2093.7
880.30 220.07 2122.1
909.92 226.07 2179.9
874.64 215.96 2082.5
834.28 204.73 1974.2
867.06 211.48 2039.3
865.27 209.76 2022.7
853.97 205.78 1984.3
879.67 210.70 2031.7
892.06 212.39 2048.1
883.34 209.07 2016.1
875.68 206.04 1986.8
882.82 206.51 1991.3
905.78 210.65 2031.2
907.33 209.79 2022.9
896.55 206.10 1987.4
920.98 210.51 2029.9
924.52 210.12 2026.1
928.46 209.82 2023.3
954.90 214.58 2069.2
951.36 212.60 2050.0
951.95 211.54 2039.9
948.26 209.56 2020.8
930.89 204.59 1972.8
898.37 196.36 1893.5
964.93 208.63 2011.8
1059.41 226.61 2185.2
1030.41 219.24 2114.1
1007.68 213.26 2056.5
1014.18 213.51 2058.9
683.04 237.85 2352.3
731.55 239.75 2371.2
802.87 246.55 2438.4
810.77 247.03 2443.2
807.63 244.17 2414.8
788.46 236.54 2339.4
791.99 235.78 2331.9
820.29 242.36 2397.0
834.62 244.74 2420.5
824.54 239.98 2373.4
813.59 235.04 2324.5
841.47 241.30 2386.5
848.77 239.87 2372.3
822.84 230.87 2283.3
818.56 228.03 2255.2
862.35 238.52 2359.0
856.05 235.11 2325.3
833.68 227.37 2248.7
876.41 237.36 2347.5
857.03 225.84 2233.6
866.03 226.68 2241.9
897.07 233.24 2306.7
871.41 225.07 2225.9
853.79 219.06 2166.6
860.12 219.25 2168.4
917.77 232.42 2298.7
900.78 225.20 2227.2
880.22 218.65 2162.5
887.29 219.02 2166.1
897.80 220.21 2177.9
906.06 220.85 2184.2
929.68 225.20 2227.3
906.59 214.28 2119.3
893.13 209.83 2075.2
917.05 214.16 2118.1
947.52 219.96 2175.4
955.46 220.49 2180.7
909.20 208.58 2062.9
884.22 201.66 1994.5
903.55 204.87 2026.2
901.00 203.12 2008.8
888.14 199.07 1968.8
910.49 202.91 2006.8
953.25 211.23 2089.1
969.42 210.04 2077.3
922.23 198.71 1965.3
922.16 197.61 1954.3
905.39 192.95 1908.3
950.07 200.28 1980.8
1028.21 215.59 2132.2
1001.85 208.94 2066.5
1011.43 209.82 2075.1
1028.05 212.14 2098.1
1028.47 211.11 2087.9
1075.26 219.56 2171.4
756.00 231.68 2351.6
826.04 236.01 2395.6
797.61 226.19 2295.9
810.16 228.04 2314.7
838.90 231.00 2344.8
860.83 235.34 2388.7
837.33 224.07 2274.4
833.77 220.02 2233.3
859.87 225.35 2287.3
862.95 224.60 2279.8
887.75 226.41 2298.1
887.52 224.84 2282.2
894.84 225.19 2285.8
860.67 213.76 2169.8
858.52 211.84 2150.3
917.06 215.11 2183.5
920.71 214.64 2178.7
907.97 210.38 2135.5
919.32 211.72 2149.1
953.56 218.28 2215.7
952.07 216.64 2199.0
957.67 216.62 2198.7
930.69 208.04 2111.6
892.89 198.42 2014.0
903.34 199.57 2025.8
912.61 200.46 2034.7
911.68 199.10 2021.0
908.62 197.30 2002.7
926.16 199.97 2029.7
952.95 204.59 2076.6
959.49 204.83 2079.1
985.73 209.26 2124.1
970.89 204.97 2080.5
911.00 191.26 1941.4
903.65 188.67 1915.1
947.42 196.73 1996.9
987.25 203.89 2069.5
985.16 202.36 2054.0
964.39 197.03 1999.9
942.09 191.44 1943.2
950.54 192.13 1950.2
970.84 195.20 1981.3
974.99 195.00 1979.3
1014.92 201.92 2049.6
708.37 225.95 2355.4
721.49 228.16 2378.5
736.32 227.03 2366.7
774.77 231.18 2410.0
784.73 232.28 2421.4
792.26 232.65 2425.3
791.71 230.66 2404.5
797.02 230.39 2401.7
801.05 229.76 2395.2
804.73 229.04 2387.6
811.24 229.13 2388.6
831.31 233.02 2429.1
830.77 231.12 2409.3
802.36 221.55 2309.6
818.56 224.35 2338.8
855.22 224.42 2339.5
852.65 222.17 2316.1
872.48 225.75 2353.3
877.49 225.47 2350.4
879.69 224.47 2340.1
854.33 216.51 2257.0
866.54 218.11 2273.7
899.79 217.60 2268.4
866.83 208.26 2171.1
915.51 218.54 2278.2
928.44 212.05 2210.6
939.91 213.35 2224.1
927.26 209.20 2180.8
938.32 210.41 2193.5
959.00 212.47 2215.0
955.88 210.52 2194.6
961.46 210.50 2194.4
934.10 203.30 2119.4
908.42 196.56 2049.1
906.37 194.97 2032.5
902.61 193.04 2012.4
913.51 194.25 2025.0
921.98 194.93 2032.1
913.12 191.96 2001.2
914.51 191.17 1992.9
915.44 190.29 1983.7
926.39 191.49 1996.2
916.74 188.44 1964.4
916.01 185.21 1930.7
984.44 197.96 2063.7
1010.35 202.07 2106.5
978.00 194.55 2028.1
945.76 187.13 1950.8
972.56 191.41 1995.4
1013.12 198.34 2067.6
1001.60 195.05 2033.3
1024.85 198.53 2069.6
1077.56 207.65 2164.7
689.42 219.64 2353.3
751.02 223.44 2394.0
764.42 223.73 2397.1
777.68 225.78 2419.1
770.77 221.98 2378.4
761.82 217.66 2332.1
782.27 218.31 2339.0
816.99 226.24 2424.0
804.05 220.96 2367.4
801.81 218.68 2343.0
811.80 219.73 2354.3
793.71 213.24 2284.7
828.12 219.21 2348.7
849.93 217.00 2325.0
826.68 209.58 2245.5
913.88 216.44 2319.0
899.98 211.76 2268.9
916.88 214.34 2296.5
903.07 209.75 2247.3
883.43 203.87 2184.3
920.98 211.18 2262.6
920.72 209.78 2247.7
886.22 200.65 2149.9
886.40 199.44 2136.9
937.57 209.64 2246.2
926.28 203.33 2178.5
926.36 202.12 2165.5
940.17 203.89 2184.6
928.32 200.12 2144.1
923.05 197.80 2119.3
918.08 195.57 2095.4
882.45 186.87 2002.2
874.68 184.14 1973.0
887.07 185.67 1989.3
876.69 182.43 1954.6
880.09 182.09 1950.9
917.23 188.69 2021.7
936.88 191.63 2053.2
925.08 188.15 2015.9
913.53 184.76 1979.6
911.47 183.31 1964.1
908.70 179.74 1925.8
952.93 187.46 2008.5
1007.38 197.10 2111.7
1037.69 201.93 2163.5
1004.60 194.44 2083.3
982.03 189.05 2025.6
1028.20 196.89 2109.5
1079.53 205.63 2203.1
1074.45 203.58 2181.2
746.31 214.11 2359.5
760.35 216.36 2384.4
770.53 217.49 2396.8
758.96 212.51 2341.9
771.26 214.24 2361.0
781.15 215.28 2372.4
809.61 219.66 2420.8
817.15 216.67 2387.8
805.80 212.05 2336.9
805.65 210.43 2319.0
813.32 210.86 2323.8
834.71 207.20 2283.4
880.44 211.06 2326.0
892.45 212.49 2341.7
892.78 208.32 2295.7
876.52 203.17 2239.0
903.10 207.95 2291.7
915.59 209.45 2308.2
931.68 207.70 2288.9
916.37 202.99 2237.1
870.45 191.61 2111.6
902.97 195.09 2149.9
914.30 196.32 2163.6
927.64 197.97 2181.7
952.17 200.76 2212.5
903.16 189.29 2086.0
890.61 182.29 2008.9
899.42 183.02 2017.0
885.43 179.13 1974.1
937.89 186.51 2055.4
967.24 191.26 2107.8
925.40 181.96 2005.3
895.71 175.14 1930.1
908.67 176.69 1947.2
933.14 180.44 1988.5
973.52 187.21 2063.2
1020.61 195.20 2151.2
1032.50 194.29 2141.1
1002.65 187.66 2068.1
1008.74 187.80 2069.6
1013.52 187.69 2068.4
1028.85 189.53 2088.6
1103.53 202.22 2228.5
740.29 211.51 2399.5
745.08 211.11 2394.9
793.70 214.17 2429.7
811.66 215.60 2445.8
815.38 210.02 2382.6
824.48 210.77 2391.1
817.46 201.40 2284.8
832.71 202.23 2294.2
857.46 206.76 2345.6
860.21 204.52 2320.2
898.29 206.36 2341.1
894.50 201.41 2284.9
911.32 203.85 2312.6
917.31 197.40 2239.4
879.22 184.53 2093.4
935.04 195.04 2212.6
933.04 189.96 2155.0
883.22 178.75 2027.8
932.79 185.47 2104.0
956.43 189.06 2144.8
930.88 182.95 2075.5
904.21 176.68 2004.4
912.64 177.31 2011.5
969.93 187.37 2125.7
988.63 189.91 2154.4
935.60 178.71 2027.4
916.86 174.15 1975.7
946.36 178.76 2027.9
946.02 177.71 2016.0
957.11 178.80 2028.4
1002.43 186.24 2112.9
1040.38 192.24 2180.9
1055.76 194.03 2201.2
1024.90 187.35 2125.4
998.49 181.54 2059.5
1008.06 182.31 2068.2
994.40 178.89 2029.4
1017.92 181.20 2055.6
1075.06 190.38 2159.7
1110.54 192.64 2185.5
738.97 204.93 2395.2
734.57 202.01 2361.1
768.79 209.67 2450.7
773.07 209.11 2444.1
775.80 208.14 2432.8
811.51 209.22 2445.4
810.89 207.44 2424.6
809.41 202.35 2365.2
814.57 202.11 2362.3
813.83 200.42 2342.6
872.50 193.24 2258.6
912.23 198.05 2314.9
887.70 186.59 2180.9
886.12 185.08 2163.2
903.46 187.51 2191.7
924.94 188.41 2202.2
954.24 193.19 2258.1
937.36 188.61 2204.6
895.15 179.03 2092.5
902.49 179.41 2097.0
907.07 179.24 2095.0
923.99 181.50 2121.4
932.21 182.03 2127.6
907.89 176.24 2059.9
930.14 179.50 2098.1
968.38 185.79 2171.6
953.09 181.80 2125.0
953.57 180.85 2113.8
958.46 178.70 2088.6
934.94 173.33 2026.0
945.56 174.32 2037.5
981.95 180.02 2104.2
986.43 179.85 2102.1
976.86 177.12 2070.3
1002.19 180.72 2112.3
1025.98 184.01 2150.7
1023.62 182.59 2134.2
1040.24 184.56 2157.2
1069.57 188.75 2206.1
1060.66 186.18 2176.1
1025.73 179.10 2093.3
997.95 173.33 2025.9
1009.25 174.37 2038.1
1074.37 184.66 2158.3
813.84 200.33 2414.7
824.48 198.37 2391.1
872.67 187.42 2259.1
905.06 185.65 2237.8
884.10 180.20 2172.0
945.54 189.11 2279.4
913.33 181.53 2188.1
918.93 181.52 2187.9
921.03 180.82 2179.5
889.25 171.42 2066.2
910.41 174.45 2102.7
943.67 179.75 2166.6
951.19 180.11 2170.9
925.35 174.18 2099.5
925.05 173.11 2086.6
940.13 174.91 2108.3
954.89 176.63 2129.0
985.32 181.21 2184.2
977.25 178.70 2153.9
934.27 169.87 2047.5
939.08 169.78 2046.4
952.66 171.26 2064.3
938.18 167.72 2021.6
947.55 168.45 2030.5
1006.94 178.02 2145.8
1042.34 180.30 2173.2
1007.51 173.33 2089.3
1068.02 182.76 2202.9
1089.54 184.47 2223.5
1091.98 183.91 2216.8
1071.38 179.50 2163.6
1106.99 184.50 2223.9
1100.09 181.46 2187.2
744.51 189.18 2353.8
764.74 191.18 2378.8
763.25 189.29 2355.2
794.44 190.91 2375.4
799.66 190.69 2372.6
810.01 188.80 2349.1
830.43 190.69 2372.7
855.30 189.39 2356.4
922.79 179.92 2238.6
930.13 176.90 2201.0
916.62 173.26 2155.8
922.93 173.40 2157.5
936.32 174.86 2175.6
945.44 175.50 2183.7
959.76 177.10 2203.5
949.76 174.22 2167.7
947.23 172.73 2149.2
972.51 176.30 2193.6
948.42 170.94 2126.9
929.34 166.53 2072.0
916.18 163.23 2030.9
884.76 155.84 1939.0
932.17 163.26 2031.4
953.66 166.09 2066.5
945.06 163.67 2036.4
916.08 157.77 1963.0
926.61 158.70 1974.6
1019.33 173.62 2160.3
1030.88 172.74 2149.3
954.82 159.14 1980.1
967.26 160.35 1995.1
1039.18 171.35 2132.0
1082.26 177.51 2208.7
1086.88 177.33 2206.4
1067.58 173.27 2155.9
1065.40 172.02 2140.3
763.89 187.84 2415.1
759.08 183.65 2361.2
782.85 186.39 2396.5
809.14 188.17 2419.3
801.08 184.86 2376.8
814.63 186.56 2398.6
802.12 182.30 2343.8
850.72 183.61 2360.7
897.94 170.50 2192.1
919.53 173.50 2230.7
936.03 170.19 2188.1
910.86 164.61 2116.4
938.07 168.52 2166.6
969.49 173.12 2225.9
971.13 172.39 2216.5
962.97 168.94 2172.1
903.49 157.59 2026.1
899.29 155.95 2005.0
898.70 154.95 1992.2
885.68 151.83 1952.1
921.34 157.05 2019.2
957.71 162.32 2087.0
960.92 161.95 2082.3
913.72 153.14 1968.9
947.99 156.26 2009.1
1030.50 168.93 2172.0
1055.28 172.06 2212.2
1017.24 164.96 2120.9
963.65 155.43 1998.3
997.44 160.02 2057.4
1088.15 172.72 2220.7
1030.19 162.66 2091.4
1096.97 172.30 2215.3
730.64 179.56 2388.3
764.63 181.76 2417.5
778.81 183.62 2442.3
767.46 179.49 2387.3
792.63 179.58 2388.5
910.32 171.42 2280.0
939.16 170.22 2264.0
919.02 164.52 2188.1
938.22 163.91 2180.0
950.52 165.06 2195.4
944.15 162.98 2167.7
912.84 156.64 2083.4
945.13 161.23 2144.4
945.74 160.39 2133.3
896.32 151.12 2010.0
898.22 150.57 2002.6
925.10 154.18 2050.7
932.81 154.58 2056.0
933.92 153.88 2046.7
935.40 153.26 2038.4
957.32 155.97 2074.4
927.73 150.30 1999.1
925.65 148.31 1972.6
977.52 155.76 2071.7
1016.55 161.09 2142.6
1034.40 163.03 2168.4
988.50 154.95 2061.0
982.00 153.11 2036.4
1067.24 165.51 2201.3
1090.95 167.40 2226.4
1073.56 163.86 2179.4
1117.76 166.23 2210.9
736.72 173.35 2387.9
748.59 174.67 2406.2
773.84 171.96 2368.9
841.98 173.35 2388.0
914.08 159.96 2203.6
892.88 152.44 2100.0
932.02 158.16 2178.7
946.65 159.68 2199.6
954.24 159.99 2204.0
941.91 156.99 2162.6
907.78 150.40 2071.9
937.64 154.43 2127.4
947.51 155.15 2137.2
907.44 147.72 2035.0
898.77 145.47 2003.9
916.22 147.44 2031.0
951.10 152.18 2096.3
976.73 155.39 2140.6
933.05 147.60 2033.3
911.06 143.31 1974.2
938.93 145.25 2000.9
1024.51 157.62 2171.3
986.34 150.92 2078.9
1013.36 152.55 2101.4
1007.33 150.83 2077.8
1027.45 152.22 2096.8
763.99 169.08 2415.4
803.54 168.18 2402.6
805.10 165.94 2370.5
834.82 165.74 2367.7
927.89 158.56 2265.2
927.55 155.55 2222.2
918.82 150.35 2147.9
928.26 150.98 2156.9
932.18 150.71 2153.0
965.57 155.18 2216.9
969.20 154.84 2212.0
961.53 152.71 2181.6
939.57 148.35 2119.3
898.23 141.00 2014.3
888.70 138.70 1981.4
910.62 141.30 2018.6
954.13 147.21 2103.0
954.27 144.75 2067.8
936.95 139.77 1996.7
978.25 145.12 2073.2
974.99 142.30 2032.8
1034.32 150.14 2144.9
1013.58 146.35 2090.7
1015.34 145.82 2083.1
781.14 162.48 2410.4
789.74 159.17 2361.4
945.25 150.78 2236.8
946.26 150.02 2225.5
955.47 150.56 2233.6
938.26 146.96 2180.1
922.41 143.61 2130.5
931.84 144.21 2139.4
948.51 145.93 2164.8
953.22 145.79 2162.8
943.75 143.49 2128.8
914.62 138.26 2051.1
907.62 136.40 2023.6
931.27 139.16 2064.4
937.37 139.27 2066.0
977.02 144.33 2141.2
947.90 137.68 2042.6
915.11 132.18 1961.0
993.06 142.65 2116.2
1038.87 148.41 2201.7
947.70 134.65 1997.5
1003.19 140.99 2091.6
1028.83 143.82 2133.5
1044.21 145.18 2153.8
1085.46 150.12 2227.0
734.04 155.52 2399.4
744.81 155.17 2394.0
761.82 156.11 2408.6
944.61 144.88 2235.3
940.15 143.32 2211.2
943.43 142.94 2205.4
944.32 142.22 2194.2
943.56 141.25 2179.3
943.13 140.35 2165.4
948.65 140.33 2165.1
914.70 134.52 2075.4
911.01 131.65 2031.2
942.90 135.47 2090.2
957.30 136.76 2110.0
956.44 133.58 2061.0
957.58 132.26 2040.6
1027.85 140.42 2166.4
974.84 132.45 2043.5
985.19 133.13 2054.1
1032.01 138.71 2140.1
1070.48 143.11 2208.0
1046.24 139.13 2146.6
1049.86 138.87 2142.6
1106.83 145.64 2247.0
769.30 148.90 2393.0
781.32 146.50 2354.4
910.34 140.05 2250.8
960.14 146.77 2358.9
941.31 142.09 2283.5
917.19 136.72 2197.3
960.69 142.32 2287.4
971.28 140.43 2256.9
972.25 139.72 2245.6
973.96 139.14 2236.1
983.64 139.69 2245.0
951.87 134.38 2159.7
924.59 129.77 2085.5
948.63 132.37 2127.3
959.35 133.09 2138.9
975.05 134.49 2161.4
972.28 133.34 2143.0
1011.62 135.64 2179.9
1024.29 136.57 2194.9
929.71 123.28 1981.2
953.95 125.11 2010.7
1026.12 133.84 2151.0
1017.28 131.97 2121.0
1043.86 134.69 2164.7
738.93 144.03 2415.4
754.22 142.19 2384.5
759.23 141.97 2380.8
786.15 141.26 2369.0
791.99 141.21 2368.1
898.54 131.63 2207.5
903.01 130.62 2190.6
946.52 134.38 2253.6
946.15 131.09 2198.5
935.09 128.78 2159.7
940.60 128.77 2159.5
951.71 129.52 2172.1
978.18 132.34 2219.4
991.04 132.52 2222.4
968.47 128.76 2159.3
987.49 130.53 2189.0
989.73 130.08 2181.4
962.08 125.73 2108.5
970.77 126.15 2115.5
992.03 128.18 2149.7
1029.83 132.32 2219.1
970.98 123.38 2069.2
1007.77 125.97 2112.6
1025.61 127.51 2138.3
1015.37 125.56 2105.6
1055.95 129.88 2178.0
1106.49 133.24 2234.5
760.85 136.09 2385.9
917.10 128.51 2253.1
922.91 127.70 2238.9
907.43 124.00 2174.0
904.95 122.14 2141.4
927.24 124.39 2180.8
925.35 123.38 2163.2
907.19 120.23 2107.9
956.60 122.36 2145.2
911.37 115.90 2032.0
906.72 114.64 2010.0
955.61 120.13 2106.2
978.79 122.35 2145.1
987.97 122.80 2153.0
1009.73 124.80 2188.0
1011.46 124.31 2179.5
1002.17 122.49 2147.5
982.56 119.43 2093.8
1013.48 121.18 2124.5
1033.51 122.90 2154.8
1027.20 121.50 2130.1
1023.45 119.13 2088.7
1043.69 120.22 2107.7
785.81 129.94 2386.6
902.47 119.19 2189.3
944.06 123.91 2275.9
930.33 119.86 2201.5
936.74 119.95 2203.1
921.53 117.29 2154.2
922.70 116.73 2144.0
992.11 122.56 2251.0
971.90 119.36 2192.3
963.22 117.60 2160.0
947.45 115.01 2112.4
900.67 108.70 1996.6
904.96 108.60 1994.6
944.08 112.65 2069.0
971.42 115.25 2116.9
1005.67 118.65 2179.2
1020.41 119.71 2198.8
990.46 115.55 2122.4
944.06 109.53 2011.8
981.15 113.21 2079.4
1056.96 119.98 2203.7
1062.90 120.00 2204.2
1026.57 115.28 2117.5
1098.77 120.81 2218.9
940.61 122.96 2371.3
949.99 123.38 2379.4
957.17 123.51 2381.9
956.12 122.58 2364.0
971.55 123.76 2386.9
927.71 115.96 2236.4
903.03 112.18 2163.4
922.88 113.94 2197.3
945.22 115.98 2236.7
926.29 112.96 2178.6
920.86 111.62 2152.7
935.44 112.70 2173.6
925.51 110.84 2137.6
904.64 107.70 2077.0
917.58 108.59 2094.2
936.23 110.14 2124.2
938.00 109.71 2115.8
951.53 110.64 2133.8
988.85 114.32 2204.7
989.49 113.73 2193.5
952.12 108.81 2098.5
954.55 108.47 2092.0
999.03 112.88 2177.1
1039.03 116.09 2238.9
973.68 108.19 2086.5
972.60 107.47 2072.6
1067.47 116.03 2237.7
1020.36 110.31 2127.4
1017.02 109.36 2109.0
1074.02 114.26 2203.5
1095.79 114.74 2212.9
1119.09 116.57 2248.2
970.07 115.92 2353.3
963.99 113.06 2295.2
949.60 110.69 2247.1
925.61 107.24 2177.0
916.64 105.55 2142.8
924.49 105.81 2148.1
910.92 103.64 2103.9
942.64 106.61 2164.2
977.43 109.24 2217.7
938.51 104.28 2116.9
954.49 105.44 2140.5
994.68 109.24 2217.7
1001.10 109.32 2219.2
967.90 105.09 2133.3
994.88 107.40 2180.3
1002.13 106.37 2159.4
999.13 105.46 2141.0
1033.73 107.33 2178.8
1031.03 106.46 2161.3
1046.39 107.47 2181.7
1004.11 102.57 2082.3
1007.18 102.33 2077.5
1097.33 110.90 2251.4
1091.29 109.13 2215.4
919.76 106.81 2288.8
939.10 108.36 2321.9
972.51 111.50 2389.2
943.74 107.51 2303.9
920.67 104.23 2233.4
948.97 106.76 2287.7
968.37 106.94 2291.5
915.55 100.49 2153.3
937.16 102.24 2190.8
973.95 105.61 2263.1
963.81 103.88 2226.1
975.52 103.29 2213.4
938.61 98.80 2117.2
959.06 100.37 2150.7
984.56 102.44 2195.1
979.84 101.36 2172.1
942.41 96.93 2077.2
958.07 97.98 2099.7
976.32 99.29 2127.6
992.05 99.20 2125.8
1058.63 104.70 2243.6
1031.69 101.48 2174.5
1050.92 102.81 2203.0
1079.29 104.45 2238.2
1061.77 102.20 2190.0
1105.52 104.73 2244.3
928.02 103.11 2339.6
948.45 104.70 2375.5
925.70 100.88 2288.8
911.21 98.67 2238.6
919.21 98.90 2244.0
931.04 99.55 2258.6
919.97 97.75 2217.8
920.25 97.17 2204.7
970.41 101.21 2296.3
930.10 96.41 2187.5
963.98 99.32 2253.5
962.72 98.00 2223.6
951.61 96.29 2184.8
939.12 94.47 2143.4
931.69 93.17 2113.9
941.94 93.64 2124.7
931.48 92.07 2088.9
927.00 91.09 2066.8
953.64 93.17 2114.0
948.70 92.16 2091.0
934.11 90.23 2047.1
988.87 93.92 2130.8
979.89 92.55 2099.8
957.61 89.94 2040.7
1007.14 94.07 2134.4
1030.08 95.69 2171.1
1014.45 93.73 2126.6
1018.94 93.63 2124.4
1082.03 97.33 2208.2
951.98 97.02 2338.8
947.13 95.31 2297.6
902.06 90.21 2174.6
903.40 89.78 2164.3
958.09 94.63 2281.2
963.68 93.45 2252.8
913.70 88.07 2123.1
903.65 86.58 2087.1
907.80 86.46 2084.2
933.99 88.43 2131.7
966.84 91.00 2193.7
953.77 89.24 2151.4
917.32 85.33 2057.1
909.91 84.15 2028.7
935.65 86.04 2074.1
978.10 89.43 2155.8
1015.08 92.28 2224.6
1007.76 91.10 2196.1
1022.93 91.95 2216.6
1037.45 92.22 2223.1
987.84 87.32 2105.1
1011.07 88.89 2142.8
1060.16 92.69 2234.5
1075.64 93.53 2254.8
1036.31 89.63 2160.7
1088.61 93.64 2257.5
1096.33 93.30 2249.3
1054.86 89.30 2152.8
886.86 91.74 2359.1
910.51 87.55 2251.3
924.56 88.33 2271.5
947.79 89.98 2313.8
933.50 88.07 2264.6
899.07 84.29 2167.4
914.26 85.18 2190.3
939.21 86.96 2236.2
950.75 87.49 2249.8
956.29 86.94 2235.5
922.47 83.36 2143.4
925.57 83.13 2137.8
911.87 81.42 2093.6
924.45 82.05 2109.9
979.41 86.42 2222.2
983.83 86.30 2219.2
955.26 83.31 2142.2
955.79 82.87 2131.0
985.45 84.95 2184.5
994.10 84.25 2166.3
969.00 81.66 2099.8
971.80 81.44 2094.1
997.81 83.15 2138.2
1014.67 84.09 2162.3
1028.22 84.74 2179.1
1068.39 87.57 2251.9
865.40 82.98 2286.3
869.73 81.72 2251.5
922.95 82.83 2282.0
925.96 81.53 2246.3
895.08 77.83 2144.4
912.36 77.88 2145.8
909.99 77.21 2127.2
892.52 75.27 2073.8
929.61 77.93 2147.1
949.46 79.12 2179.9
932.95 77.29 2129.3
957.32 78.84 2172.1
979.45 80.19 2209.3
968.36 78.82 2171.6
955.05 77.29 2129.3
968.68 77.94 2147.3
992.71 79.42 2188.0
976.67 77.69 2140.4
976.25 77.22 2127.4
991.27 77.97 2148.0
971.87 75.17 2071.1
1026.17 78.94 2174.8
1037.63 79.38 2187.0
1056.45 80.38 2214.6
906.61 79.63 2362.8
923.21 76.44 2268.1
933.27 76.31 2264.0
951.36 76.82 2279.2
892.54 71.18 2112.0
912.82 72.36 2146.9
888.44 70.00 2076.9
938.02 73.02 2166.5
949.53 73.48 2180.1
923.39 71.03 2107.5
977.55 74.75 2218.0
983.35 73.89 2192.4
951.49 71.09 2109.2
930.02 69.09 2049.8
953.09 70.40 2088.7
991.75 72.84 2161.2
1025.69 74.91 2222.6
998.04 72.48 2150.6
963.73 69.60 2065.1
1008.46 72.43 2149.0
1084.07 76.59 2272.5
1100.10 77.30 2293.6
1051.53 73.49 2180.6
896.29 72.67 2335.9
877.43 70.67 2271.4
878.93 70.31 2260.1
875.63 69.59 2236.7
893.03 70.04 2251.3
904.37 70.47 2265.1
941.85 72.92 2343.8
939.85 71.84 2309.0
910.12 69.12 2221.8
912.77 68.89 2214.3
941.03 70.58 2268.6
963.37 71.80 2308.0
956.85 70.88 2278.2
951.35 70.04 2251.2
934.89 67.99 2185.5
953.11 68.90 2214.6
965.10 69.35 2229.1
930.84 66.49 2137.1
921.45 65.43 2103.1
992.14 70.03 2251.1
992.83 68.87 2213.6
939.64 64.80 2082.9
1009.89 67.70 2176.1
1020.42 67.65 2174.5
1039.49 68.16 2191.0
1085.91 70.44 2264.1
861.14 65.78 2306.6
882.56 66.95 2347.7
901.74 67.48 2366.1
890.98 66.22 2322.0
883.25 65.21 2286.5
891.30 65.36 2291.9
892.81 65.04 2280.6
887.31 64.21 2251.6
889.40 63.94 2242.2
920.53 64.91 2276.0
940.67 65.91 2311.0
898.06 62.52 2192.4
886.16 61.31 2149.7
917.34 63.07 2211.5
945.33 64.59 2264.8
930.97 63.21 2216.6
917.56 61.92 2171.3
894.17 59.97 2103.0
913.26 60.52 2122.0
960.79 63.29 2219.1
940.08 61.55 2158.4
945.58 61.55 2158.1
932.34 59.28 2078.7
921.61 58.26 2043.0
1016.70 62.13 2178.6
1018.78 61.92 2171.0
847.90 58.88 2271.2
853.61 58.47 2255.1
909.28 61.86 2385.9
916.45 61.51 2372.4
890.63 59.38 2290.2
918.88 60.45 2331.7
916.74 59.92 2311.1
885.95 57.53 2219.0
878.23 56.66 2185.5
931.08 59.68 2302.1
955.80 60.88 2348.2
915.17 57.92 2234.1
914.79 57.53 2219.2
958.00 59.88 2309.5
933.96 57.30 2210.1
895.53 53.95 2080.8
944.96 56.58 2182.5
931.36 55.44 2138.3
958.48 56.71 2187.6
956.13 55.27 2131.7
986.21 56.68 2186.2
1000.41 57.17 2205.0
1017.18 57.79 2229.2
963.05 54.10 2086.9
1009.07 55.75 2150.4
997.85 54.83 2114.8
1040.65 56.25 2169.7
861.94 53.87 2308.8
870.70 54.04 2316.2
845.87 52.14 2234.7
868.74 53.19 2279.5
931.63 56.27 2411.7
893.94 53.64 2298.7
898.02 53.52 2293.9
923.33 54.67 2343.0
935.22 55.01 2357.7
887.11 51.84 2221.9
907.89 52.38 2244.8
923.06 52.91 2267.8
910.29 51.85 2222.2
936.55 53.01 2272.0
963.80 54.21 2323.4
937.81 51.15 2192.3
935.89 50.74 2174.6
932.30 50.24 2153.3
943.38 50.54 2165.9
943.83 49.39 2116.6
928.36 48.30 2069.8
985.44 50.97 2184.5
1006.45 51.47 2205.7
996.58 50.67 2171.7
1034.57 51.73 2216.9
1012.10 50.33 2156.8
1003.88 49.64 2127.5
1016.75 49.73 2131.4
861.14 47.19 2275.0
862.37 46.93 2262.8
920.14 49.74 2398.0
925.91 49.71 2396.9
903.77 48.20 2324.0
918.11 48.64 2345.2
880.20 45.14 2176.3
969.37 48.77 2351.6
