ply
format ascii 1.0
element vertex 2293
property float x
property float y
property float z
end_header
243.10 895.88 1736.5
283.37 924.42 1791.8
269.68 865.57 1677.7
328.08 894.35 1733.5
340.56 903.61 1751.4
5.60 1109.72 2161.8
11.25 1113.83 2169.8
16.74 1105.13 2152.9
41.15 1163.92 2267.4
46.58 1152.92 2245.9
49.00 1077.98 2100.0
53.38 1056.93 2059.0
62.60 1126.72 2194.9
68.92 1137.15 2215.2
71.30 1085.95 2115.5
76.39 1080.39 2104.7
82.95 1094.92 2133.0
89.91 1112.62 2167.4
94.27 1097.92 2138.8
94.41 1038.50 2023.1
96.05 1000.99 1950.0
110.02 990.17 1928.9
116.97 1006.93 1961.5
127.07 1048.30 2042.1
149.54 1096.64 2136.3
149.06 1054.10 2053.4
161.39 1030.83 2008.1
170.55 1055.25 2055.7
173.04 1038.22 2022.5
170.42 964.11 1878.1
196.61 1081.35 2106.5
194.29 1039.73 2025.4
191.12 995.85 1940.0
194.50 987.46 1923.6
204.68 1013.18 1973.7
212.67 1027.05 2000.8
210.48 992.28 1933.0
238.78 1050.65 2046.7
240.74 899.35 1752.0
28.94 1140.23 2232.5
33.63 1104.27 2162.1
39.03 1098.32 2150.4
47.09 1159.67 2270.6
52.92 1158.25 2267.8
54.01 1064.06 2083.4
59.49 1065.37 2085.9
68.24 1120.32 2193.5
73.56 1114.79 2182.7
76.57 1077.43 2109.5
80.79 1060.98 2077.3
85.28 1049.99 2055.8
87.66 1015.81 1988.9
90.85 994.35 1946.9
95.15 986.53 1931.6
100.84 993.24 1944.7
110.42 1035.84 2028.1
114.75 1027.54 2011.9
117.67 1007.89 1973.4
124.43 1021.39 1999.8
133.29 1050.32 2056.5
142.32 1078.33 2111.3
139.62 1018.70 1994.6
137.22 965.45 1890.3
147.65 1002.97 1963.8
167.15 1097.65 2149.1
175.07 1077.78 2110.2
165.39 987.35 1933.2
172.37 970.22 1899.6
196.71 1047.34 2050.6
195.52 1013.60 1984.6
200.53 1012.95 1983.3
203.52 1002.32 1962.5
203.38 977.20 1913.3
238.27 1020.40 1997.9
253.90 893.17 1748.8
308.68 921.35 1803.9
321.65 945.75 1851.7
336.06 906.91 1775.7
0.00 1102.64 2169.9
22.67 1110.75 2185.9
39.10 1094.80 2154.5
44.11 1080.71 2126.8
52.06 1133.65 2230.9
56.20 1101.44 2167.6
59.75 1064.70 2095.2
66.35 1083.65 2132.5
73.52 1108.48 2181.4
78.52 1099.35 2163.4
82.05 1072.10 2109.8
85.88 1052.09 2070.4
90.15 1039.32 2045.3
95.48 1039.68 2046.0
100.07 1032.33 2031.6
105.65 1035.39 2037.6
118.92 1109.94 2184.3
124.70 1062.63 2091.2
126.17 1030.39 2027.7
129.62 1016.23 1999.9
132.33 997.55 1963.1
135.84 986.11 1940.6
139.50 976.47 1921.6
143.92 972.71 1914.2
153.98 1006.00 1979.7
169.31 1070.45 2106.6
174.07 1066.20 2098.2
174.24 1034.85 2036.5
175.72 1012.99 1993.5
173.12 969.46 1907.8
182.51 966.83 1902.7
194.85 1005.00 1977.8
195.26 981.33 1931.2
193.79 949.55 1868.6
202.17 966.48 1902.0
241.05 1005.22 1978.2
261.75 900.07 1771.3
345.36 902.54 1776.1
359.99 904.59 1780.2
391.40 971.07 1911.0
-5.66 1103.57 2182.9
0.00 1108.54 2192.7
16.62 1080.54 2137.3
22.61 1102.17 2180.1
28.93 1128.31 2231.8
43.73 1065.95 2108.5
47.93 1038.38 2053.9
53.83 1049.60 2076.1
59.38 1052.70 2082.3
63.72 1035.50 2048.2
68.40 1025.96 2029.4
75.89 1057.00 2090.8
82.34 1070.45 2117.4
83.98 1023.47 2024.4
86.19 988.66 1955.6
96.50 1045.37 2067.8
109.14 1064.09 2104.8
127.35 1034.76 2046.8
130.68 1019.31 2016.2
134.51 1008.81 1995.4
139.10 1004.61 1987.1
144.36 1005.37 1988.6
150.43 1011.52 2000.8
147.70 960.05 1899.0
156.31 952.53 1884.1
161.93 956.87 1892.7
172.22 987.73 1953.8
180.56 1005.99 1989.9
177.97 963.98 1906.8
185.01 975.03 1928.6
184.19 945.18 1869.6
218.30 989.95 1958.2
255.85 941.32 1862.0
321.68 965.04 1908.9
305.08 901.38 1782.9
363.21 896.52 1773.3
-5.70 1105.80 2198.6
22.61 1096.77 2180.6
27.09 1050.91 2089.4
32.86 1062.56 2112.6
39.94 1107.00 2201.0
44.74 1084.95 2157.1
47.91 1032.79 2053.4
52.96 1027.34 2042.6
59.45 1048.40 2084.4
64.68 1045.64 2079.0
69.10 1031.19 2050.2
76.36 1058.07 2103.7
81.70 1056.64 2100.8
82.66 1002.22 1992.6
84.59 965.31 1919.2
93.89 1011.91 2011.9
116.08 1023.59 2035.1
117.03 987.13 1962.6
119.99 969.95 1928.5
127.23 987.32 1963.0
135.19 1008.72 2005.5
134.50 966.42 1921.5
146.16 977.79 1944.1
151.18 977.63 1943.7
156.40 948.18 1885.2
163.93 963.70 1916.0
176.64 1007.87 2003.9
198.43 1040.43 2068.6
186.66 952.94 1894.7
205.16 995.05 1978.4
287.48 885.24 1760.1
312.18 946.28 1881.4
336.21 959.18 1907.1
357.77 963.98 1916.6
366.10 972.92 1934.4
370.53 958.45 1905.6
402.09 975.07 1938.7
5.63 1086.03 2170.4
11.30 1090.05 2178.5
16.83 1082.42 2163.2
21.64 1043.92 2086.3
26.38 1018.39 2035.3
31.23 1004.49 2007.5
36.85 1016.09 2030.7
43.91 1059.45 2117.3
49.92 1070.58 2139.6
55.21 1065.61 2129.6
62.16 1090.60 2179.6
66.89 1075.77 2149.9
70.62 1048.41 2095.3
75.10 1035.37 2069.2
77.72 999.96 1998.4
80.15 966.78 1932.1
89.52 959.90 1918.4
98.49 1000.49 1999.5
106.12 1024.07 2046.6
109.66 1007.87 2014.2
113.09 992.11 1982.8
116.14 974.57 1947.7
122.33 944.38 1887.4
131.42 975.52 1949.6
132.39 946.35 1891.3
142.36 947.41 1893.4
157.58 1013.77 2026.0
167.47 1042.62 2083.7
170.25 1026.83 2052.1
172.87 1011.03 2020.6
178.86 1015.31 2029.1
186.44 1028.06 2054.6
202.65 1029.24 2057.0
211.18 1045.07 2088.6
210.46 1015.45 2029.4
203.84 959.54 1917.7
218.94 1006.10 2010.7
233.73 1025.22 2048.9
248.18 1019.14 2036.8
238.03 918.78 1836.2
252.12 954.09 1906.8
262.71 956.67 1911.9
262.87 939.53 1877.7
357.12 895.12 1788.9
5.33 1024.04 2057.2
11.44 1098.00 2205.8
16.67 1066.79 2143.1
21.06 1011.07 2031.2
26.31 1010.16 2029.3
31.78 1016.81 2042.7
36.39 998.06 2005.0
41.99 1007.82 2024.6
48.49 1034.51 2078.3
54.34 1043.36 2096.0
59.31 1035.29 2079.8
62.20 995.13 1999.1
65.93 973.69 1956.1
70.18 962.48 1933.6
75.22 962.85 1934.3
80.16 961.88 1932.3
84.57 955.11 1918.8
92.20 983.52 1975.8
96.92 979.42 1967.6
99.79 957.95 1924.4
108.76 994.34 1997.6
118.15 1031.16 2071.5
123.56 1031.48 2072.2
126.92 1015.33 2039.7
127.26 977.39 1963.5
130.95 967.02 1942.7
138.91 987.79 1984.4
145.46 997.42 2003.8
150.03 993.27 1995.4
157.40 1007.34 2023.7
162.69 1007.62 2024.2
160.72 964.34 1937.3
167.86 976.62 1962.0
178.89 1010.20 2029.4
177.88 975.82 1960.3
178.77 953.43 1915.4
189.94 985.65 1980.1
199.17 1006.32 2021.6
204.37 1006.11 2021.2
200.23 961.08 1930.7
211.91 992.37 1993.6
253.72 974.27 1957.2
250.89 908.90 1825.9
248.69 868.16 1744.1
306.23 948.32 1905.1
312.08 894.31 1796.6
331.76 923.15 1854.5
340.13 932.93 1874.2
324.38 877.18 1762.2
332.12 885.65 1779.2
331.15 847.75 1703.1
-17.12 1089.84 2200.9
22.10 1055.21 2130.9
27.73 1059.18 2139.0
33.90 1079.12 2179.2
39.40 1075.08 2171.1
44.67 1066.61 2154.0
50.63 1074.55 2170.0
53.86 1028.80 2077.6
56.28 977.28 1973.6
61.31 975.89 1970.8
67.20 987.36 1993.9
71.49 975.31 1969.6
76.80 977.89 1974.8
81.58 973.82 1966.6
85.92 965.31 1949.4
95.39 1012.22 2044.1
101.61 1021.42 2062.7
101.23 966.79 1952.4
107.06 973.78 1966.5
117.82 1022.86 2065.6
124.81 1036.47 2093.1
132.96 1015.83 2051.4
135.25 993.54 2006.4
141.24 999.16 2017.7
149.76 1021.59 2063.0
156.70 1032.06 2084.2
157.49 1002.68 2024.9
155.53 958.25 1935.1
156.44 933.75 1885.7
166.12 961.47 1941.6
177.58 997.57 2014.5
178.15 972.17 1963.2
183.89 924.30 1866.6
201.06 984.66 1988.5
207.00 988.43 1996.1
218.75 949.58 1917.6
231.26 981.57 1982.2
237.62 986.63 1992.4
227.85 925.94 1869.9
237.81 890.61 1798.5
249.93 900.68 1818.9
246.66 856.59 1729.8
270.54 847.10 1710.7
344.17 939.08 1896.4
346.17 893.49 1804.4
361.35 920.25 1858.4
377.91 937.42 1893.1
17.21 1089.67 2212.1
22.47 1067.56 2167.2
28.49 1082.56 2197.7
45.09 1070.96 2174.1
51.29 1082.83 2198.2
54.97 1044.34 2120.1
57.80 998.34 2026.7
63.41 1004.02 2038.2
69.93 1022.07 2074.9
74.85 1015.81 2062.2
79.70 1009.55 2049.5
84.08 998.42 2026.9
87.55 978.46 1986.4
95.78 1011.04 2052.5
103.12 1031.25 2093.5
103.85 986.56 2002.8
106.30 961.73 1952.4
113.29 978.39 1986.2
118.26 976.95 1983.3
121.77 964.03 1957.1
129.21 981.99 1993.5
137.01 1001.26 2032.6
141.89 998.47 2027.0
148.62 1008.47 2047.3
165.68 1015.48 2061.5
167.44 994.15 2018.2
169.65 920.95 1869.6
184.31 972.73 1974.7
181.59 932.48 1893.0
199.40 996.99 2024.0
205.87 1002.95 2036.1
199.62 948.18 1924.9
211.49 980.08 1989.6
221.85 1003.62 2037.4
220.61 974.81 1978.9
221.72 957.44 1943.7
234.10 988.41 2006.5
240.20 992.13 2014.1
245.14 991.00 2011.8
254.51 1007.44 2045.2
269.06 983.11 1995.8
265.84 953.01 1934.7
265.79 935.20 1898.5
260.61 900.31 1827.7
251.46 853.15 1732.0
268.49 894.95 1816.8
261.42 841.87 1709.0
306.47 924.29 1876.4
309.00 838.71 1702.6
325.35 870.66 1767.5
329.58 857.81 1741.4
392.75 969.11 1967.4
413.58 970.12 1969.4
420.00 973.18 1975.6
425.89 974.93 1979.2
424.89 961.06 1951.0
434.41 971.04 1971.3
5.63 1064.83 2173.1
10.23 966.26 1972.0
20.90 987.35 2015.0
28.58 1080.16 2204.4
33.75 1062.97 2169.3
37.18 1003.98 2048.9
42.77 1010.54 2062.3
49.59 1041.29 2125.1
54.32 1026.72 2095.3
58.17 999.39 2039.6
62.05 977.33 1994.6
66.67 969.35 1978.3
74.05 999.62 2040.0
81.60 1028.13 2098.2
85.84 1013.97 2069.3
89.18 991.46 2023.4
95.17 999.28 2039.3
100.05 995.22 2031.1
104.56 988.08 2016.5
111.14 1000.28 2041.4
115.65 993.57 2027.7
117.69 967.09 1973.6
120.11 945.88 1930.4
126.20 954.10 1947.1
132.93 966.26 1972.0
136.64 956.47 1952.0
143.50 968.62 1976.8
155.14 1011.05 2063.4
173.18 1022.84 2087.4
159.87 915.61 1868.6
189.26 993.59 2027.7
199.62 1019.70 2081.0
206.04 1024.75 2091.3
198.39 961.44 1962.1
198.78 916.35 1870.1
215.95 971.76 1983.2
225.12 989.49 2019.4
220.83 948.55 1935.8
224.12 941.32 1921.1
234.69 964.28 1967.9
246.91 992.91 2026.3
264.94 927.29 1892.4
275.47 913.38 1864.1
294.31 855.77 1746.5
336.45 949.08 1936.9
306.90 840.65 1715.6
309.15 834.70 1703.5
372.16 950.51 1939.8
389.25 955.44 1949.9
374.32 907.00 1851.0
21.46 1008.54 2069.2
28.55 1073.36 2202.2
32.88 1030.39 2114.0
36.34 976.03 2002.5
41.72 980.38 2011.4
48.90 1021.51 2095.8
54.22 1019.26 2091.2
57.61 984.60 2020.1
60.94 954.76 1958.9
64.90 938.49 1925.5
71.45 959.44 1968.5
78.85 988.27 2027.6
83.02 975.49 2001.4
86.50 956.57 1962.6
92.54 966.55 1983.0
98.03 969.96 1990.0
103.13 969.42 1988.9
108.27 969.31 1988.7
111.37 951.69 1952.6
117.11 957.27 1964.0
123.64 968.52 1987.1
125.58 944.33 1937.5
127.62 922.77 1893.2
132.82 924.83 1897.4
141.37 949.17 1947.4
149.16 966.95 1983.9
158.25 991.71 2034.7
168.33 1020.82 2094.4
168.97 992.69 2036.7
170.69 972.42 1995.1
175.36 969.62 1989.3
171.46 920.97 1889.5
185.48 942.44 1933.6
199.01 984.58 2020.0
200.86 968.23 1986.5
201.51 947.08 1943.1
207.26 950.37 1949.8
222.50 995.94 2043.3
232.93 1018.38 2089.4
229.72 981.53 2013.8
227.58 950.80 1950.7
231.41 945.77 1940.4
238.23 952.94 1955.1
247.69 970.11 1990.4
243.03 932.43 1913.0
260.21 905.93 1858.7
265.29 890.62 1827.3
288.60 904.28 1855.3
296.37 870.58 1786.2
337.40 946.73 1942.4
329.60 898.03 1842.5
334.73 899.00 1844.5
334.49 885.70 1817.2
332.30 832.97 1709.0
365.90 905.12 1857.0
385.22 940.55 1929.7
421.89 944.22 1937.2
-28.80 1077.03 2221.5
-23.00 1075.31 2218.0
5.59 1046.12 2157.8
10.23 956.68 1973.3
15.82 985.90 2033.6
22.36 1045.21 2155.9
28.46 1064.38 2195.4
32.83 1023.34 2110.8
36.15 965.73 1991.9
40.19 939.52 1937.9
45.78 951.25 1962.1
54.08 1011.39 2086.1
60.90 1035.31 2135.5
63.35 987.28 2036.4
66.30 953.64 1967.0
71.36 953.13 1966.0
77.15 961.78 1983.8
82.40 963.00 1986.3
87.02 957.25 1974.5
91.71 952.80 1965.3
95.78 942.68 1944.4
99.93 934.30 1927.1
104.13 927.23 1912.5
108.66 923.63 1905.1
116.16 944.43 1948.0
124.44 969.57 1999.9
128.38 960.30 1980.8
131.20 943.62 1946.3
137.54 952.62 1964.9
142.10 949.00 1957.4
145.46 937.97 1934.7
152.90 953.05 1965.8
160.85 970.30 2001.4
167.58 979.27 2019.9
175.70 995.63 2053.6
183.84 1011.10 2085.5
182.94 977.43 2016.1
178.59 927.69 1913.5
189.45 957.50 1975.0
199.83 983.37 2028.4
197.80 948.41 1956.2
201.62 942.57 1944.2
210.52 960.16 1980.5
219.41 976.88 2015.0
221.78 964.50 1989.4
228.93 972.96 2006.9
240.86 1000.93 2064.6
231.11 939.52 1937.9
235.14 916.07 1889.5
236.91 904.13 1864.9
243.48 843.15 1739.1
258.78 834.36 1721.0
269.85 855.27 1764.1
262.55 818.28 1687.8
290.23 889.71 1835.2
293.42 857.32 1768.4
297.89 831.43 1714.9
332.15 913.43 1884.1
349.31 946.69 1952.7
333.13 889.94 1835.6
320.77 844.85 1742.6
355.96 875.85 1806.6
-22.51 1046.76 2170.7
0.00 967.31 2005.9
5.23 972.09 2015.9
10.54 979.90 2032.0
15.34 951.22 1972.6
20.47 951.64 1973.4
26.73 994.18 2061.7
31.75 984.16 2040.9
35.66 947.64 1965.2
40.27 936.31 1941.7
51.60 959.67 1990.1
59.73 1009.98 2094.4
63.84 989.51 2052.0
66.64 953.41 1977.1
71.43 949.00 1968.0
78.66 975.40 2022.7
85.65 995.72 2064.9
89.25 976.53 2025.1
92.94 960.38 1991.6
96.68 946.40 1962.6
100.49 934.59 1938.1
106.58 944.03 1957.7
113.24 957.36 1985.3
119.71 968.09 2007.6
126.75 982.28 2037.0
131.78 980.41 2033.1
135.88 972.04 2015.7
139.01 957.59 1985.8
140.09 930.58 1929.8
143.11 917.87 1903.4
149.98 929.85 1928.3
157.69 946.16 1962.1
164.54 956.39 1983.3
172.19 970.52 2012.6
179.51 982.03 2036.5
184.02 977.95 2028.0
185.31 957.42 1985.4
193.77 974.11 2020.0
201.27 985.16 2043.0
190.74 909.69 1886.5
202.74 897.85 1861.9
213.02 921.42 1910.8
230.18 973.05 2017.8
246.02 1016.88 2108.7
242.67 981.21 2034.8
228.46 904.11 1874.9
234.93 910.36 1887.8
256.70 974.42 2020.7
263.96 981.93 2036.3
255.92 933.35 1935.5
246.64 882.21 1829.5
250.96 818.92 1698.2
261.06 837.18 1736.1
293.73 925.99 1920.3
309.45 913.61 1894.6
292.52 850.15 1763.0
332.80 910.30 1887.7
352.66 937.07 1943.2
318.14 833.45 1728.3
338.84 829.26 1719.7
388.64 938.79 1946.8
400.87 955.93 1982.3
404.35 906.14 1879.1
420.94 921.11 1910.1
-17.36 1070.31 2231.5
-10.68 987.73 2059.4
-5.22 966.11 2014.3
0.00 976.06 2035.0
5.36 991.63 2067.5
10.93 1010.65 2107.1
16.04 989.01 2062.0
30.60 943.53 1967.2
36.68 969.44 2021.2
41.30 955.14 1991.4
45.81 941.69 1963.4
51.25 948.12 1976.8
57.73 970.98 2024.4
63.12 973.08 2028.8
67.28 957.46 1996.2
72.06 952.20 1985.3
79.27 977.62 2038.3
85.78 991.80 2067.8
88.75 965.78 2013.6
93.75 963.53 2008.9
98.81 962.14 2006.0
103.86 960.74 2003.1
111.74 984.39 2052.4
116.43 979.09 2041.4
120.69 970.77 2024.0
126.48 974.96 2032.7
130.04 962.31 2006.4
135.41 963.47 2008.8
139.78 957.72 1996.8
142.51 941.61 1963.2
147.65 941.90 1963.8
156.70 966.34 2014.8
166.89 995.94 2076.5
168.14 972.05 2026.7
168.98 947.30 1975.1
179.53 976.87 2036.7
187.96 993.50 2071.4
189.02 971.33 2025.2
197.16 985.79 2055.3
207.22 1008.85 2103.4
198.92 943.61 1967.4
198.77 919.29 1916.7
213.33 962.57 2006.9
213.89 942.12 1964.3
214.83 924.27 1927.0
228.88 962.34 2006.4
242.60 997.37 2079.5
248.90 1001.00 2087.0
245.83 967.64 2017.5
245.98 948.06 1976.6
260.15 982.18 2047.8
250.58 874.67 1823.6
285.55 895.36 1866.8
279.84 835.00 1740.9
326.06 887.08 1849.5
339.18 909.39 1896.0
344.13 909.48 1896.2
318.95 831.06 1732.7
314.69 808.57 1685.8
354.43 898.21 1872.7
372.10 930.24 1939.5
380.95 939.67 1959.2
351.06 854.57 1781.7
374.72 888.76 1853.0
401.11 916.11 1910.0
419.79 913.66 1904.9
21.68 997.12 2090.2
30.51 935.51 1961.1
36.57 961.30 2015.2
41.21 947.92 1987.1
47.69 974.99 2043.9
55.58 1022.72 2143.9
61.16 1023.09 2144.7
65.29 1001.08 2098.5
69.23 979.92 2054.2
73.77 969.52 2032.4
79.66 977.19 2048.5
84.55 972.38 2038.4
84.66 916.36 1920.9
95.09 920.91 1930.5
103.88 955.65 2003.3
112.20 983.07 2060.8
117.58 983.38 2061.4
122.10 976.81 2047.7
128.07 981.84 2058.2
128.01 942.17 1975.0
129.83 918.83 1926.1
135.06 920.42 1929.4
138.87 912.55 1912.9
147.32 934.74 1959.5
160.43 983.98 2062.7
169.66 1007.01 2111.0
169.65 975.49 2044.9
169.99 947.85 1986.9
179.95 973.86 2041.5
191.33 1005.86 2108.5
195.50 999.23 2094.7
200.46 996.88 2089.7
206.19 998.40 2092.9
210.66 993.90 2083.5
219.38 961.11 2014.7
214.84 919.33 1927.2
223.58 934.96 1959.9
238.55 975.41 2044.7
248.93 995.72 2087.3
257.78 1009.17 2115.5
261.43 981.69 2057.9
258.79 952.35 1996.4
275.86 995.27 2086.4
263.20 931.31 1952.3
313.50 848.29 1778.2
306.20 816.52 1711.7
327.62 849.04 1779.8
377.00 924.91 1938.9
402.02 948.35 1988.0
375.55 863.76 1810.7
382.32 868.47 1820.6
424.21 940.42 1971.4
-23.24 1063.43 2241.4
-17.81 1086.17 2289.3
5.74 1050.61 2214.4
11.30 1033.89 2179.2
16.69 1018.01 2145.7
22.00 1006.42 2121.3
26.72 978.11 2061.6
31.65 965.22 2034.4
37.08 969.47 2043.4
43.15 987.00 2080.3
66.08 1007.78 2124.1
68.94 970.44 2045.4
75.45 986.22 2078.7
89.84 967.12 2038.4
102.58 938.57 1978.2
110.05 959.01 2021.3
116.72 970.88 2046.4
122.82 977.18 2059.6
129.93 990.75 2088.2
131.18 960.24 2023.9
130.15 916.04 1930.8
145.17 916.05 1930.8
152.60 930.87 1962.0
155.56 918.32 1935.6
160.78 919.44 1937.9
167.16 926.97 1953.8
174.97 941.76 1985.0
183.43 959.10 2021.5
193.34 982.83 2071.5
206.31 993.53 2094.1
204.87 961.31 2026.2
212.13 970.49 2045.5
211.08 942.12 1985.7
211.97 923.56 1946.6
220.37 937.85 1976.7
230.87 960.23 2023.9
247.39 1006.03 2120.4
245.50 916.86 1932.5
247.18 904.69 1906.8
260.36 934.24 1969.1
248.10 873.13 1840.3
242.94 823.30 1735.3
275.22 915.74 1930.1
307.99 909.05 1916.0
311.92 891.91 1879.9
311.76 839.00 1768.4
311.60 826.42 1741.9
367.53 908.90 1915.7
341.73 833.81 1757.4
362.45 861.40 1815.6
419.59 971.96 2048.6
437.21 930.34 1960.9
-50.82 1027.77 2178.2
-45.70 1039.76 2203.6
-40.70 1058.15 2242.6
-34.93 1059.47 2245.3
-29.00 1055.66 2237.3
-22.78 1036.49 2196.6
-10.89 990.86 2099.9
-5.47 995.56 2109.9
0.00 991.73 2101.8
5.40 982.34 2081.9
10.72 975.50 2067.4
16.10 976.77 2070.1
21.53 979.73 2076.4
26.47 963.50 2041.9
31.61 958.77 2031.9
37.10 964.71 2044.5
43.21 983.02 2083.3
49.45 1000.04 2119.4
54.26 987.61 2093.1
60.98 1008.89 2138.1
66.52 1008.82 2138.0
68.70 961.83 2038.4
74.57 969.44 2054.5
82.85 1005.19 2130.3
93.44 1000.32 2120.0
96.31 973.79 2063.8
98.85 946.83 2006.6
103.90 945.45 2003.7
111.98 970.49 2056.8
119.31 987.00 2091.8
121.05 957.90 2030.1
123.66 937.75 1987.4
131.78 959.35 2033.2
138.13 966.89 2049.1
141.90 956.53 2027.2
147.99 961.92 2038.6
151.62 951.55 2016.6
153.03 928.41 1967.6
157.38 924.00 1958.2
164.45 935.33 1982.3
169.64 935.59 1982.8
175.78 940.95 1994.2
179.53 933.54 1978.5
183.53 927.83 1966.4
195.67 962.51 2039.8
198.08 948.71 2010.6
191.32 892.84 1892.2
205.16 910.72 1930.1
219.62 951.70 2017.0
226.51 958.70 2031.8
233.57 966.12 2047.5
240.39 972.25 2060.5
242.24 958.43 2031.2
262.60 995.68 2110.2
237.75 883.07 1871.5
243.12 884.96 1875.5
256.11 913.95 1936.9
263.47 871.85 1847.7
267.66 869.90 1843.6
277.49 855.98 1814.1
282.80 857.82 1818.0
320.54 911.54 1931.8
316.12 858.72 1819.9
324.19 867.68 1838.9
326.12 860.20 1823.0
313.72 815.67 1728.7
318.74 817.04 1731.6
380.88 936.76 1985.3
361.80 877.97 1860.7
355.25 850.73 1803.0
360.67 852.48 1806.7
377.43 880.68 1866.4
415.36 944.95 2002.6
380.26 854.41 1810.8
434.07 963.41 2041.8
424.16 919.02 1947.7
441.38 934.09 1979.6
480.09 1004.33 2128.5
484.78 1002.61 2124.8
-52.35 1052.87 2243.7
-46.11 1043.15 2223.0
-40.23 1040.22 2216.7
-34.22 1032.19 2199.6
-28.07 1016.08 2165.3
-22.93 1037.77 2211.5
-17.22 1039.06 2214.3
-11.31 1023.36 2180.8
-5.70 1031.87 2198.9
0.00 1011.48 2155.5
5.43 983.44 2095.7
10.98 993.62 2117.4
16.72 1008.48 2149.1
21.66 980.00 2088.4
25.96 939.62 2002.3
31.40 947.24 2018.6
37.37 966.32 2059.2
59.39 977.17 2082.4
72.43 1008.46 2149.0
74.94 968.90 2064.7
79.73 962.03 2050.1
85.18 963.64 2053.5
89.18 949.55 2023.5
93.53 940.54 2004.3
97.96 933.23 1988.7
102.17 924.65 1970.4
109.24 941.51 2006.4
120.20 988.92 2107.4
125.54 987.95 2105.3
124.46 938.62 2000.2
128.51 930.44 1982.8
139.12 968.47 2063.8
148.18 993.34 2116.8
151.09 976.66 2081.3
151.36 944.72 2013.2
153.75 927.62 1976.8
159.21 929.58 1981.0
170.46 964.16 2054.6
180.62 990.67 2111.1
177.86 946.87 2017.8
172.17 890.38 1897.4
186.61 912.88 1945.4
194.99 928.78 1979.2
196.62 912.50 1944.6
196.10 887.35 1891.0
203.45 898.15 1914.0
223.77 964.32 2055.0
236.97 997.49 2125.7
228.04 938.09 1999.1
227.77 896.24 1909.9
255.03 982.15 2093.0
263.64 994.14 2118.5
251.92 930.58 1983.1
248.37 899.10 1916.0
250.18 887.89 1892.1
248.83 866.14 1845.8
268.18 866.81 1847.2
276.07 876.65 1868.2
256.55 800.61 1706.1
263.50 808.35 1722.6
269.55 813.14 1732.8
295.45 835.58 1780.6
301.17 838.65 1787.2
307.53 843.39 1797.3
314.10 848.54 1808.3
345.15 918.71 1957.8
335.75 868.15 1850.0
335.48 855.25 1822.5
366.57 921.52 1963.8
376.42 933.31 1988.9
356.44 871.83 1857.9
345.06 821.78 1751.2
377.73 887.92 1892.2
385.90 895.49 1908.3
417.85 957.35 2040.1
412.75 922.32 1965.5
404.06 891.88 1900.6
400.20 872.73 1859.8
425.35 916.52 1953.1
479.32 1020.68 2175.1
478.41 1006.89 2145.7
-56.28 1012.95 2170.6
-52.76 1055.29 2261.3
-41.60 1069.76 2292.3
-34.26 1027.93 2202.7
-22.64 1018.69 2182.9
-17.80 1068.18 2289.0
0.00 1017.89 2181.2
5.33 959.52 2056.1
10.45 940.06 2014.4
16.32 978.96 2097.8
21.62 973.02 2085.0
25.64 923.10 1978.1
30.78 923.49 1978.9
37.31 959.40 2055.9
40.61 913.69 1957.9
52.61 947.00 2029.3
60.04 982.46 2105.3
64.59 968.87 2076.1
72.23 1000.08 2143.0
77.88 1001.27 2145.6
79.35 952.17 2040.4
81.25 914.06 1958.7
86.84 919.47 1970.3
93.08 930.78 1994.5
100.02 947.59 2030.5
107.29 965.65 2069.3
111.27 953.72 2043.7
118.41 968.81 2076.0
126.80 992.33 2126.4
128.47 963.49 2064.6
129.75 934.24 2001.9
137.49 951.83 2039.6
146.11 974.06 2087.3
148.35 953.66 2043.6
151.99 943.38 2021.5
157.98 947.87 2031.2
161.62 938.43 2010.9
170.70 960.20 2057.6
178.94 976.05 2091.5
174.22 922.34 1976.4
176.36 906.99 1943.5
188.78 943.89 2022.6
189.83 923.48 1978.9
186.56 883.70 1893.6
196.26 905.83 1941.1
205.18 923.32 1978.5
210.46 923.96 1979.9
228.11 977.62 2094.9
231.56 947.29 2029.9
225.41 901.64 1932.1
243.04 951.03 2037.9
261.66 981.22 2102.6
255.60 938.95 2012.0
256.55 923.57 1979.1
260.06 917.86 1966.8
258.17 893.68 1915.0
265.91 903.08 1935.2
267.32 891.07 1909.4
255.01 819.68 1756.5
270.50 854.22 1830.5
264.30 806.35 1727.9
271.07 813.20 1742.6
282.30 833.03 1785.1
299.23 868.74 1861.6
308.35 881.00 1887.9
306.14 847.78 1816.7
290.67 792.74 1698.7
322.03 865.14 1853.9
359.34 911.00 1952.1
339.24 848.10 1817.4
348.38 859.03 1840.8
329.38 801.19 1716.8
350.88 842.10 1804.5
421.35 960.05 2057.2
404.71 910.60 1951.3
422.66 905.69 1940.8
471.95 999.42 2141.6
461.84 966.64 2071.4
450.57 932.22 1997.6
-64.34 1046.98 2256.1
-57.44 1028.10 2215.4
-39.49 1009.73 2175.8
-34.30 1023.24 2204.9
-22.58 1010.24 2176.9
-16.96 1011.95 2180.6
-11.70 1046.90 2255.9
-5.75 1029.23 2217.8
0.00 1007.34 2170.6
5.47 979.13 2109.9
10.35 926.09 1995.6
15.54 927.34 1998.3
21.15 946.26 2039.0
25.67 918.88 1980.0
36.06 922.18 1987.1
42.38 948.24 2043.3
49.07 975.97 2103.1
55.53 994.02 2141.9
59.40 966.61 2082.9
62.65 934.57 2013.8
68.82 947.54 2041.8
76.01 971.88 2094.2
79.18 944.87 2036.0
82.16 919.13 1980.6
89.32 940.50 2026.6
94.14 936.20 2017.4
99.45 936.95 2019.0
107.64 963.34 2075.8
112.56 959.45 2067.4
114.34 930.33 2004.7
116.66 907.93 1956.4
123.07 917.90 1977.9
129.36 926.18 1995.8
135.18 930.67 2005.4
141.56 938.52 2022.3
148.76 950.98 2049.2
157.58 972.67 2095.9
173.42 970.08 2090.4
168.29 912.83 1967.0
173.91 915.60 1973.0
187.77 960.31 2069.3
195.71 973.13 2096.9
190.88 923.45 1989.9
192.62 907.33 1955.1
209.06 959.53 2067.6
220.09 984.89 2122.3
226.98 990.96 2135.3
231.77 987.80 2128.5
229.89 957.00 2062.2
235.80 959.28 2067.1
247.10 982.91 2118.0
242.85 945.00 2036.3
237.08 902.92 1945.6
261.80 976.30 2103.8
266.03 952.37 2052.2
258.43 889.58 1916.9
278.87 875.75 1887.1
292.80 859.21 1851.5
305.15 881.00 1898.4
313.78 891.53 1921.1
317.17 873.44 1882.1
309.89 827.90 1784.0
347.40 914.48 1970.5
369.45 918.50 1979.2
361.07 885.36 1907.8
363.13 878.38 1892.8
369.19 858.26 1849.4
389.17 893.10 1924.5
420.48 952.73 2053.0
392.16 877.45 1890.8
451.82 951.47 2050.3
483.09 1005.51 2166.7
512.90 1020.10 2198.1
491.86 957.00 2062.2
524.32 1009.17 2174.6
520.84 991.82 2137.2
-46.83 1041.91 2257.7
-35.35 1048.69 2272.4
-30.24 1076.38 2332.4
-23.53 1047.07 2268.9
-17.00 1008.55 2185.5
-11.32 1007.30 2182.8
-5.65 1006.05 2180.1
0.00 998.51 2163.7
5.68 1011.50 2191.9
11.17 994.31 2154.6
16.14 957.85 2075.6
21.10 938.97 2034.7
26.34 937.69 2031.9
31.89 946.04 2050.0
37.57 955.23 2069.9
43.57 969.43 2100.7
49.01 969.38 2100.6
53.85 958.44 2076.9
57.96 937.86 2032.3
61.56 913.09 1978.6
68.91 943.60 2044.7
77.47 984.99 2134.4
80.28 952.67 2064.4
82.69 919.92 1993.4
91.49 957.94 2075.8
98.13 970.41 2102.8
102.14 956.91 2073.6
108.82 968.53 2098.7
112.87 956.70 2073.1
113.89 921.44 1996.7
116.51 901.66 1953.8
123.14 913.25 1979.0
130.30 927.77 2010.4
137.27 939.77 2036.4
141.70 934.20 2024.3
146.86 933.64 2023.1
152.83 938.09 2032.8
160.12 950.06 2058.7
172.78 992.10 2149.8
173.44 964.77 2090.6
169.46 914.05 1980.7
176.96 926.41 2007.5
189.19 962.15 2084.9
195.06 964.47 2089.9
190.37 915.85 1984.6
192.18 900.22 1950.7
206.71 943.43 2044.3
213.93 951.98 2062.9
221.05 959.70 2079.6
226.79 961.14 2082.7
231.02 956.33 2072.3
244.69 989.87 2145.0
248.36 961.05 2082.5
240.17 909.58 1971.0
262.39 973.05 2108.5
257.34 817.96 1772.5
284.27 829.52 1797.5
296.35 850.81 1843.6
284.60 804.10 1742.4
296.60 812.24 1760.1
298.60 805.32 1745.1
303.33 805.86 1746.2
327.66 857.70 1858.6
319.69 824.71 1787.1
311.68 792.56 1717.4
338.10 847.64 1836.8
352.43 871.28 1888.0
357.18 870.94 1887.3
367.25 883.39 1914.2
341.12 809.59 1754.3
373.11 851.45 1845.0
399.31 899.70 1949.6
374.21 832.61 1804.2
440.53 933.51 2022.9
467.75 979.52 2122.5
480.38 994.27 2154.5
495.77 1014.33 2198.0
492.31 995.81 2157.9
495.41 990.83 2147.1
485.41 960.03 2080.3
506.93 980.80 2125.3
536.24 1015.43 2200.4
-68.03 1003.49 2186.8
-42.15 1065.89 2322.8
-35.58 1049.67 2287.4
-28.71 1016.33 2214.8
-23.65 1046.39 2280.3
-18.05 1064.76 2320.3
-11.92 1055.18 2299.4
-5.91 1046.01 2279.4
11.38 1006.80 2194.0
16.28 960.49 2093.1
22.10 977.99 2131.2
33.94 1001.29 2182.0
38.90 983.74 2143.7
44.56 985.78 2148.2
49.57 974.89 2124.5
54.46 964.00 2100.7
58.74 945.18 2059.7
60.74 895.93 1952.4
66.20 901.29 1964.1
75.77 957.91 2087.5
79.62 939.49 2047.3
87.62 912.24 1987.9
100.47 987.99 2153.0
118.60 954.23 2079.4
120.79 929.54 2025.6
129.52 955.24 2081.6
138.96 983.84 2144.0
139.73 951.23 2072.9
137.46 901.14 1963.7
146.74 927.64 2021.5
157.21 959.53 2091.0
154.43 911.11 1985.5
155.69 888.91 1937.1
162.63 899.57 1960.3
165.21 886.11 1931.0
169.54 882.62 1923.4
177.95 899.91 1961.1
196.86 967.88 2109.2
207.50 992.62 2163.1
195.58 910.99 1985.2
194.65 883.39 1925.1
226.22 953.36 2077.5
243.47 957.65 2086.9
249.57 960.31 2092.7
255.70 962.97 2098.5
264.22 974.32 2123.2
258.63 863.72 1882.2
259.04 804.40 1752.9
268.65 819.85 1786.6
280.08 840.24 1831.0
283.33 808.87 1762.7
299.85 842.43 1835.8
295.41 816.98 1780.3
311.57 848.44 1848.9
310.26 832.07 1813.2
313.60 828.47 1805.4
328.01 806.36 1757.2
368.03 892.36 1944.6
365.20 873.51 1903.5
366.33 842.08 1835.0
391.54 888.50 1936.2
371.69 832.77 1814.7
419.20 893.95 1948.1
454.35 957.37 2086.3
470.55 979.84 2135.3
479.84 987.57 2152.1
493.63 1004.28 2188.5
483.44 972.36 2119.0
480.49 955.58 2082.4
497.27 977.97 2131.2
512.20 996.26 2171.0
517.58 995.78 2170.0
517.17 984.29 2144.9
-35.25 1033.97 2266.0
-29.72 1046.04 2292.4
-11.95 1051.49 2304.4
-5.91 1039.88 2279.0
0.00 1020.37 2236.2
5.58 982.18 2152.5
10.46 920.32 2016.9
15.55 912.42 1999.6
21.95 965.95 2116.9
28.47 1002.04 2196.0
33.66 987.48 2164.1
38.46 967.10 2119.5
43.83 964.16 2113.0
48.58 950.00 2082.0
53.22 936.67 2052.8
60.51 968.16 2121.8
65.95 967.26 2119.8
66.66 902.47 1977.8
71.19 894.93 1961.3
79.34 930.95 2040.2
85.23 937.51 2054.6
87.58 906.73 1987.2
94.72 926.13 2029.7
106.46 986.17 2161.3
111.91 984.82 2158.3
117.84 987.61 2164.4
122.24 977.96 2143.3
123.78 947.16 2075.8
132.53 971.91 2130.0
138.74 976.75 2140.6
135.70 918.60 2013.2
136.52 889.88 1950.2
149.59 940.28 2060.7
161.25 978.65 2144.8
159.09 933.35 2045.5
158.68 900.90 1974.4
164.22 903.23 1979.5
169.01 901.41 1975.5
175.70 909.52 1993.3
177.38 891.97 1954.8
188.76 922.82 2022.4
209.25 969.16 2124.0
199.41 899.92 1972.2
205.22 880.93 1930.6
236.49 945.97 2073.1
241.28 943.67 2068.1
269.39 1008.80 2210.8
269.77 863.28 1891.9
266.35 837.09 1834.5
259.83 802.27 1758.2
284.90 864.54 1894.7
292.34 872.07 1911.2
311.10 883.12 1935.4
320.42 895.14 1961.7
308.23 847.63 1857.6
312.78 846.92 1856.1
301.48 803.96 1761.9
303.29 796.70 1746.0
335.35 819.75 1796.5
369.74 891.43 1953.6
362.45 862.05 1889.2
374.54 856.09 1876.2
414.71 935.76 2050.8
408.68 910.47 1995.3
404.03 888.87 1948.0
407.03 884.41 1938.2
416.71 883.63 1936.5
455.26 942.67 2065.9
493.81 1010.58 2214.8
486.94 973.88 2134.3
487.31 963.67 2111.9
506.88 991.23 2172.3
508.28 983.04 2154.4
532.22 1007.22 2207.4
-59.08 1033.87 2278.7
-53.94 1048.80 2311.6
-42.07 1051.78 2318.2
-35.30 1029.51 2269.1
-11.27 986.22 2173.7
-5.36 937.89 2067.2
0.00 963.51 2123.6
5.54 970.11 2138.2
10.60 927.55 2044.4
15.99 932.91 2056.2
21.29 931.65 2053.4
26.20 917.17 2021.5
31.73 925.40 2039.7
36.97 924.13 2036.9
43.62 954.25 2103.2
50.28 977.75 2155.0
52.61 920.69 2029.3
57.22 910.31 2006.4
66.38 968.08 2133.7
71.26 959.34 2114.5
73.83 922.93 2034.2
80.13 934.83 2060.4
88.07 963.23 2123.0
92.68 954.06 2102.8
93.83 912.28 2010.7
98.36 905.99 1996.9
104.47 914.15 2014.9
111.17 926.42 2041.9
119.93 953.96 2102.6
126.61 963.33 2123.3
130.96 954.95 2104.8
132.57 928.01 2045.4
133.63 899.43 1982.4
138.49 897.64 1978.5
149.21 932.55 2055.4
158.95 959.20 2114.1
161.37 941.32 2074.7
165.77 935.80 2062.6
168.90 923.69 2035.9
170.81 905.81 1996.5
183.07 942.30 2076.9
190.89 954.47 2103.7
188.69 917.23 2021.7
194.15 918.28 2024.0
204.00 939.49 2070.7
205.20 920.77 2029.5
202.80 887.25 1955.6
221.99 947.51 2088.4
236.85 963.92 2124.6
222.05 883.14 1946.5
234.22 910.87 2007.6
259.95 928.39 2046.3
255.22 893.26 1968.8
284.62 873.82 1926.0
295.24 861.12 1898.0
301.35 864.52 1905.5
315.81 850.26 1874.0
318.36 807.43 1779.6
319.57 787.66 1736.1
342.71 832.98 1836.0
349.20 837.13 1845.1
360.04 851.45 1876.7
349.94 816.53 1799.7
363.09 825.20 1818.8
408.58 916.69 2020.5
413.83 916.71 2020.5
418.33 915.10 2017.0
451.60 963.79 2124.3
430.30 896.47 1975.9
454.71 936.17 2063.4
485.91 988.78 2179.4
490.53 986.70 2174.8
479.87 954.28 2103.3
484.06 951.81 2097.9
501.74 975.61 2150.3
503.92 969.08 2135.9
516.00 981.52 2163.4
-62.39 986.97 2187.9
-56.82 988.68 2191.6
-53.57 1035.60 2295.7
-41.50 1031.58 2286.7
-33.76 978.98 2170.2
-28.52 992.58 2200.3
-23.49 1021.80 2265.1
-17.58 1019.77 2260.6
-11.11 966.33 2142.1
-5.31 923.16 2046.4
0.00 951.53 2109.3
5.36 933.44 2069.2
21.11 918.18 2035.4
26.14 909.53 2016.2
31.80 922.24 2044.4
37.63 935.37 2073.5
45.16 982.20 2177.3
53.75 935.23 2073.2
56.52 894.07 1981.9
63.22 916.62 2031.9
70.75 946.97 2099.2
76.55 951.42 2109.1
80.67 935.73 2074.3
86.11 936.47 2075.9
95.34 975.83 2163.2
101.45 980.66 2173.9
102.77 941.13 2086.2
105.80 920.49 2040.5
110.44 915.04 2028.4
116.82 923.97 2048.2
123.53 934.53 2071.6
127.98 927.84 2056.8
135.41 942.49 2089.3
142.65 954.67 2116.3
145.19 935.65 2074.1
154.04 957.25 2122.0
169.94 985.66 2185.0
167.68 941.20 2086.4
164.32 893.47 1980.6
170.28 871.42 1931.7
186.22 925.75 2052.2
193.62 935.82 2074.5
206.62 971.67 2154.0
214.85 934.62 2071.8
221.82 941.37 2086.8
230.63 955.47 2118.0
232.93 942.57 2089.4
228.05 901.85 1999.2
232.33 898.36 1991.4
256.03 968.44 2146.8
271.13 1003.75 2225.1
257.32 932.80 2067.8
252.61 897.02 1988.5
253.12 880.84 1952.6
301.03 1007.28 2232.9
289.21 838.70 1859.2
287.31 793.52 1759.0
304.03 826.58 1832.3
310.34 830.76 1841.6
324.15 829.45 1838.7
365.49 921.68 2043.1
350.74 871.83 1932.6
362.89 889.34 1971.5
363.47 866.36 1920.5
348.32 819.03 1815.6
392.16 909.80 2016.8
409.80 926.04 2052.8
402.44 897.75 1990.1
410.92 905.05 2006.3
417.42 907.90 2012.6
448.03 962.43 2133.5
463.50 971.67 2153.9
460.65 942.98 2090.3
486.17 983.65 2180.5
492.20 984.40 2182.2
483.57 956.16 2119.6
477.72 933.98 2070.4
525.41 1004.64 2227.0
544.75 1008.37 2235.3
530.56 971.75 2154.1
576.14 1044.25 2314.8
567.54 1018.06 2256.8
-69.52 1002.23 2234.5
-59.95 1037.13 2312.4
-41.69 1030.33 2297.2
-10.56 913.41 2036.5
-5.45 942.07 2100.4
0.00 952.30 2123.2
5.29 915.88 2042.0
22.17 958.81 2137.7
33.81 974.71 2173.2
38.48 950.94 2120.2
44.14 954.59 2128.3
48.27 927.95 2068.9
52.83 913.99 2037.8
58.42 918.84 2048.6
64.92 935.96 2086.8
72.42 963.71 2148.7
77.68 959.96 2140.3
80.96 933.71 2081.8
86.20 931.99 2077.9
95.39 970.75 2164.4
102.31 983.33 2192.4
104.12 948.07 2113.8
108.41 937.75 2090.8
114.26 941.32 2098.7
119.85 942.43 2101.2
125.60 944.77 2106.4
130.65 941.78 2099.8
138.91 961.26 2143.2
153.49 983.45 2192.7
153.86 950.63 2119.5
156.25 932.10 2078.2
164.37 947.87 2113.3
166.68 930.16 2073.9
165.15 892.86 1990.7
183.09 905.01 2017.8
191.77 921.55 2054.6
206.99 967.84 2157.9
216.16 958.87 2137.9
208.56 902.03 2011.1
216.33 912.82 2035.2
227.29 936.23 2087.4
232.35 934.79 2084.2
229.41 902.00 2011.1
236.47 909.11 2026.9
242.10 910.51 2030.0
250.46 902.71 2012.7
274.96 970.77 2164.4
282.02 975.78 2175.6
289.73 982.83 2191.3
273.11 908.62 2025.8
291.80 855.61 1907.6
283.72 818.06 1823.9
311.55 829.20 1848.7
352.48 923.92 2059.9
357.44 883.39 1969.6
366.55 893.14 1991.3
378.31 884.42 1971.9
382.04 881.25 1964.8
416.79 924.42 2061.1
425.08 930.87 2075.4
436.04 942.93 2102.3
458.98 945.28 2107.6
481.58 980.16 2185.3
488.62 982.91 2191.5
475.72 945.98 2109.1
496.05 975.19 2174.2
518.71 997.07 2223.0
546.73 1039.40 2317.4
561.42 1044.37 2328.5
565.69 1030.15 2296.8
-77.07 1019.72 2286.8
-60.41 1039.06 2330.1
-42.18 1036.35 2324.1
-34.63 992.82 2226.4
-10.93 939.96 2107.9
-5.62 966.04 2166.4
0.00 974.19 2184.6
5.69 978.66 2194.7
11.17 960.73 2154.5
16.98 973.35 2182.8
33.58 962.68 2158.8
38.02 934.14 2094.8
43.35 932.07 2090.2
48.24 921.85 2067.3
53.57 921.39 2066.2
58.90 920.93 2065.2
65.21 934.71 2096.1
72.36 957.44 2147.1
77.06 946.79 2123.2
81.92 939.38 2106.6
89.00 956.80 2145.6
95.60 967.29 2169.2
99.56 951.33 2133.4
99.91 904.44 2028.2
112.59 922.14 2067.9
123.34 964.32 2162.5
126.49 945.90 2121.2
128.79 923.01 2069.9
136.56 939.55 2107.0
146.00 965.84 2165.9
150.83 960.82 2154.7
151.82 932.63 2091.5
155.58 922.73 2069.3
164.74 944.52 2118.1
166.10 921.61 2066.7
163.50 878.81 1970.8
173.10 902.20 2023.2
190.35 962.92 2159.4
198.55 975.73 2188.1
201.12 960.93 2154.9
199.08 925.43 2075.3
197.87 895.63 2008.5
203.13 895.84 2009.0
209.14 899.30 2016.7
210.94 884.91 1984.4
214.75 879.43 1972.2
227.91 911.64 2044.4
236.16 923.17 2070.2
235.53 900.26 2018.9
270.24 968.36 2171.6
285.48 1002.08 2247.2
280.64 965.41 2164.9
265.35 861.13 1931.1
311.75 992.98 2226.8
303.62 916.19 2054.6
275.61 803.48 1801.8
285.85 793.00 1778.3
331.28 890.30 1996.5
342.87 907.30 2034.6
345.25 899.73 2017.7
352.27 891.03 1998.2
338.77 844.47 1893.8
335.37 824.06 1848.0
358.64 856.75 1921.3
381.94 887.76 1990.8
404.10 891.10 1998.3
401.94 875.11 1962.5
402.57 865.53 1941.0
422.90 876.37 1965.3
469.55 961.46 2156.1
486.66 962.13 2157.6
499.16 975.63 2187.9
496.76 960.02 2152.9
512.06 967.86 2170.4
558.72 1033.32 2317.3
561.83 1028.04 2305.4
564.67 1022.35 2292.7
565.23 1012.70 2271.0
-66.12 1027.87 2318.5
-57.32 980.12 2210.8
-52.33 994.36 2242.9
-48.40 1034.52 2333.5
-35.59 1014.34 2288.0
-16.73 953.62 2151.0
-11.87 1015.24 2290.0
-5.93 1013.22 2285.5
0.00 963.37 2173.0
5.38 919.20 2073.4
11.03 942.69 2126.4
27.93 955.20 2154.6
32.52 926.80 2090.5
37.67 920.29 2075.8
42.26 903.23 2037.4
46.32 880.09 1985.2
68.77 904.58 2040.4
74.29 907.35 2046.7
79.98 911.73 2056.5
86.02 919.35 2073.7
91.55 920.88 2077.2
99.31 943.47 2128.1
103.69 933.25 2105.1
103.79 887.40 2001.7
112.45 915.63 2065.3
123.36 958.83 2162.8
126.17 938.07 2115.9
130.56 930.26 2098.3
140.72 962.50 2171.0
147.31 968.83 2185.3
149.25 945.23 2132.1
154.15 941.44 2123.6
162.10 955.85 2156.1
167.88 956.91 2158.4
164.72 908.64 2049.6
164.71 880.19 1985.4
178.10 922.86 2081.6
191.33 962.28 2170.6
194.52 950.38 2143.7
202.17 960.29 2166.1
205.38 949.19 2141.0
203.98 917.91 2070.5
209.58 918.93 2072.8
220.85 944.15 2129.7
227.77 949.98 2142.8
221.09 900.16 2030.4
223.06 887.04 2000.8
238.77 927.95 2093.1
247.85 941.82 2124.4
254.16 944.81 2131.1
275.78 1003.37 2263.2
284.13 991.56 2236.6
285.03 974.79 2198.8
289.45 970.50 2189.1
310.84 1002.91 2262.2
297.22 907.59 2047.2
325.81 913.35 2060.2
318.83 879.36 1983.5
333.31 904.71 2040.7
348.22 916.09 2066.4
324.24 840.08 1894.9
322.61 823.36 1857.2
330.00 829.86 1871.9
335.05 830.35 1873.0
354.35 865.62 1952.5
370.39 892.07 2012.2
363.52 863.35 1947.4
369.27 865.01 1951.1
404.12 885.95 1998.4
409.49 886.37 1999.3
468.62 953.97 2151.8
500.11 994.40 2243.0
472.16 928.04 2093.3
485.33 943.08 2127.2
485.86 933.51 2105.7
520.97 978.96 2208.2
-64.07 990.18 2246.6
-58.56 995.48 2258.7
-52.56 992.71 2252.4
-47.59 1011.31 2294.6
-36.01 1020.26 2314.9
-28.75 977.55 2218.0
-22.85 971.12 2203.4
-17.77 1007.03 2284.9
-5.94 1009.07 2289.5
0.00 930.43 2111.1
5.33 905.82 2055.2
11.12 944.94 2144.0
17.22 975.57 2213.5
22.37 950.55 2156.7
27.38 930.77 2111.8
32.44 919.04 2085.2
36.75 892.39 2024.8
51.87 881.78 2000.7
67.63 884.43 2006.7
78.45 889.13 2017.4
86.07 914.44 2074.8
91.84 918.39 2083.7
100.13 945.70 2145.7
125.93 973.06 2207.8
129.84 959.65 2177.4
135.01 956.30 2169.8
138.90 944.50 2143.0
138.58 906.12 2055.9
143.00 900.35 2042.8
150.13 911.48 2068.1
157.52 923.41 2095.1
162.15 918.83 2084.7
169.87 931.54 2113.6
182.06 967.17 2194.4
183.81 946.89 2148.4
183.63 918.17 2083.2
182.54 886.64 2011.7
184.83 872.80 1980.3
200.24 920.03 2087.5
211.54 946.35 2147.2
215.49 939.32 2131.2
224.75 955.17 2167.2
235.83 977.84 2218.6
232.70 941.90 2137.1
220.02 869.85 1973.6
239.38 904.32 2051.8
257.98 953.40 2163.2
274.49 992.84 2252.7
281.84 998.19 2264.8
281.86 977.89 2218.7
288.24 980.02 2223.6
297.17 990.56 2247.5
296.66 969.86 2200.5
289.80 849.43 1927.3
317.30 914.26 2074.4
321.39 895.69 2032.2
333.83 915.34 2076.8
350.38 902.49 2047.7
339.70 861.93 1955.7
337.96 844.89 1917.0
359.28 885.17 2008.4
406.65 946.98 2148.6
388.19 891.78 2023.4
384.17 870.77 1975.7
402.44 900.18 2042.4
450.66 934.29 2119.8
486.09 995.60 2258.9
484.78 958.28 2174.2
494.83 966.91 2193.8
506.57 956.85 2171.0
549.51 1026.56 2329.2
570.48 1031.72 2340.9
-93.48 987.33 2253.4
-80.34 969.85 2213.5
-62.83 965.24 2203.0
-57.43 970.51 2215.0
-51.79 972.57 2219.7
-45.95 970.61 2215.3
-40.42 975.87 2227.3
-35.57 1001.99 2286.9
-29.62 1001.22 2285.1
-23.15 977.97 2232.0
-17.70 996.85 2275.1
-5.78 976.00 2227.6
0.00 913.40 2084.7
5.30 896.54 2046.2
10.48 885.70 2021.5
21.21 896.10 2045.2
27.70 936.21 2136.7
32.99 929.36 2121.1
37.61 908.06 2072.5
56.00 946.44 2160.1
66.17 931.88 2126.9
69.61 904.94 2065.4
73.76 890.43 2032.3
81.16 914.42 2087.0
88.81 938.00 2140.8
94.79 942.33 2150.7
99.84 937.42 2139.5
107.36 954.97 2179.6
114.19 964.88 2202.2
116.25 935.51 2135.1
122.55 941.41 2148.6
128.87 946.90 2161.1
132.12 930.35 2123.4
133.64 903.38 2061.8
136.62 888.03 2026.8
144.54 904.72 2064.9
153.59 927.00 2115.7
162.82 948.87 2165.6
171.75 967.53 2208.2
188.83 967.02 2207.1
191.94 954.04 2177.4
194.98 941.45 2148.7
191.22 897.68 2048.8
201.22 919.09 2097.7
214.52 954.07 2177.5
220.40 955.06 2179.8
223.54 944.46 2155.6
227.72 938.66 2142.3
238.78 960.80 2192.9
239.73 942.21 2150.4
227.89 875.32 1997.8
231.53 869.52 1984.5
241.07 885.66 2021.4
247.91 891.41 2034.5
276.67 974.11 2223.2
294.29 994.70 2270.2
288.19 954.98 2179.6
290.69 944.75 2156.2
302.07 895.60 2044.1
303.04 882.99 2015.3
299.46 843.48 1925.1
334.08 868.60 1982.4
340.18 871.06 1988.1
344.11 867.97 1981.0
339.55 843.87 1926.0
357.99 876.82 2001.2
439.34 928.10 2118.2
455.02 949.37 2166.8
456.42 940.68 2146.9
476.33 958.33 2187.2
515.29 978.47 2233.2
505.57 949.35 2166.7
544.51 989.48 2258.3
542.01 964.21 2200.7
-87.12 975.72 2240.2
-81.58 978.99 2247.7
-75.39 974.28 2236.9
-70.91 992.71 2279.2
-64.74 988.78 2270.2
-57.29 962.49 2209.8
-52.59 981.71 2253.9
-47.51 997.73 2290.7
-39.48 947.46 2175.3
-29.00 974.28 2236.9
-24.06 1010.64 2320.3
-17.37 972.72 2233.3
-11.21 941.59 2161.8
-5.71 959.97 2204.0
0.00 953.58 2189.3
5.75 966.76 2219.6
11.72 984.72 2260.8
16.59 928.80 2132.4
22.28 935.57 2148.0
28.28 950.32 2181.9
32.83 919.15 2110.3
38.61 926.70 2127.6
43.25 908.29 2085.4
58.68 896.17 2057.5
74.12 957.92 2199.3
76.00 911.95 2093.8
82.45 923.44 2120.2
88.93 933.74 2143.8
94.64 935.25 2147.3
99.17 925.58 2125.1
107.37 949.42 2179.8
116.06 928.47 2131.7
121.05 924.37 2122.3
129.10 942.99 2165.0
133.95 937.68 2152.8
135.01 907.26 2083.0
137.98 891.58 2047.0
149.99 933.29 2142.8
172.91 968.29 2223.1
178.64 968.13 2222.7
177.77 933.31 2142.8
187.44 954.24 2190.9
206.24 962.44 2209.7
201.24 913.72 2097.8
199.61 882.50 2026.2
217.19 935.59 2148.0
232.40 952.26 2186.3
238.31 953.24 2188.6
253.79 991.54 2276.5
258.48 986.93 2265.9
247.27 923.16 2119.5
239.12 873.30 2005.0
248.81 889.35 2041.9
281.01 983.54 2258.1
293.51 966.87 2219.9
295.01 953.12 2188.3
310.97 985.72 2263.1
310.07 947.12 2174.5
302.08 890.34 2044.1
321.06 898.96 2063.9
338.10 901.60 2070.0
316.78 806.35 1851.3
344.74 864.42 1984.6
365.55 903.13 2073.5
369.49 899.63 2065.5
390.30 936.71 2150.6
392.36 915.51 2101.9
403.12 927.74 2130.0
430.46 939.18 2156.3
436.23 939.57 2157.2
454.27 919.49 2111.1
458.56 917.11 2105.6
511.84 977.16 2243.5
494.85 934.11 2144.6
535.53 999.65 2295.1
552.23 1008.42 2315.2
545.37 964.44 2214.3
575.33 986.28 2264.4
-58.61 978.72 2260.5
-52.32 970.83 2242.3
-41.21 983.23 2270.9
-32.97 917.72 2119.6
-28.24 943.17 2178.4
-23.61 985.71 2276.7
-17.15 954.74 2205.1
-11.01 918.99 2122.6
-5.57 929.73 2147.4
0.00 956.35 2208.9
23.32 973.79 2249.1
28.76 960.65 2218.8
33.14 922.49 2130.6
38.73 924.04 2134.2
44.61 931.15 2150.7
58.92 894.46 2065.9
72.49 931.27 2150.9
73.44 876.00 2023.3
78.89 878.32 2028.6
87.22 910.40 2102.7
95.29 936.12 2162.1
101.27 939.60 2170.2
122.73 931.64 2151.8
124.09 900.97 2080.9
132.66 923.06 2132.0
138.46 924.92 2136.3
145.26 898.48 2075.2
160.59 957.81 2212.2
166.16 956.86 2210.0
185.43 938.37 2167.3
200.57 957.01 2210.4
196.53 911.69 2105.7
190.90 861.64 1990.1
214.53 918.63 2121.7
227.85 951.26 2197.1
224.17 913.08 2108.9
228.59 908.92 2099.3
241.71 938.74 2168.2
255.18 968.54 2237.0
255.38 947.76 2189.0
246.41 894.59 2066.2
253.37 900.28 2079.3
276.40 961.62 2221.0
290.18 988.99 2284.2
297.91 995.03 2298.2
289.03 928.22 2143.9
286.87 903.90 2087.7
326.42 956.34 2208.8
315.79 850.60 1964.6
315.88 837.34 1934.0
340.03 860.39 1987.2
379.39 918.24 2120.8
376.36 897.90 2073.8
366.27 861.50 1989.8
369.09 856.07 1977.2
386.04 883.14 2039.7
413.37 932.87 2154.6
420.75 900.84 2080.6
477.59 949.50 2193.0
492.97 968.53 2237.0
504.70 968.79 2237.6
504.52 957.45 2211.4
527.41 989.64 2285.7
497.07 922.33 2130.3
544.39 988.18 2282.4
579.37 1018.47 2352.3
-76.74 979.91 2276.9
-70.64 977.21 2270.6
-63.55 959.10 2228.5
-45.14 936.73 2176.6
-41.39 981.43 2280.4
-35.77 989.77 2299.8
-28.47 945.13 2196.1
-22.26 923.81 2146.5
-16.70 924.22 2147.5
-11.01 913.56 2122.7
-5.54 919.50 2136.5
0.00 938.87 2181.5
5.58 925.82 2151.2
10.88 902.89 2097.9
16.15 893.78 2076.8
21.74 902.07 2096.0
28.43 943.94 2193.3
34.87 964.87 2241.9
39.82 944.28 2194.1
44.88 931.19 2163.7
49.82 918.90 2135.1
56.23 933.47 2169.0
60.81 917.61 2132.1
69.22 883.90 2053.8
77.34 917.02 2130.8
83.28 921.68 2141.6
92.71 961.89 2235.0
104.32 962.10 2235.5
106.63 931.59 2164.6
108.85 903.46 2099.3
118.67 938.10 2179.7
124.42 938.77 2181.3
125.08 902.73 2097.6
133.52 923.53 2145.9
142.93 949.05 2205.2
144.98 925.64 2150.8
147.26 905.38 2103.7
156.02 924.96 2149.2
165.08 944.92 2195.6
180.51 908.01 2109.8
184.49 900.74 2092.9
193.20 916.32 2129.2
198.17 913.78 2123.2
197.84 887.60 2062.4
205.67 898.44 2087.6
227.12 966.73 2246.3
234.10 947.81 2202.3
235.47 930.67 2162.5
237.56 917.08 2130.9
238.23 898.77 2088.4
245.18 904.44 2101.5
244.47 882.20 2049.9
256.32 886.45 2059.7
276.78 937.65 2178.7
293.58 974.68 2264.8
299.73 975.58 2266.8
281.06 897.23 2084.8
285.96 879.06 2042.6
310.91 938.37 2180.4
322.81 956.89 2223.4
322.82 940.13 2184.5
305.39 874.04 2030.9
297.89 838.14 1947.5
336.95 887.82 2062.9
347.09 886.41 2059.7
354.48 891.56 2071.6
378.53 924.07 2147.1
361.09 868.72 2018.5
354.18 839.92 1951.6
364.10 851.29 1978.0
385.65 889.13 2066.0
401.47 912.93 2121.3
421.21 944.87 2195.5
422.50 935.14 2172.9
415.49 907.53 2108.7
423.85 913.75 2123.2
416.94 887.33 2061.8
401.02 842.66 1958.0
476.26 941.18 2186.9
487.26 951.59 2211.1
507.01 978.65 2274.0
501.30 956.51 2222.5
510.52 963.02 2237.7
538.25 1003.94 2332.7
506.11 933.49 2169.0
570.58 1007.62 2341.3
-78.42 995.36 2326.8
-68.88 947.08 2214.0
-45.53 939.04 2195.1
-41.56 979.58 2289.9
-35.75 983.16 2298.3
-28.39 936.78 2189.9
-22.39 923.43 2158.7
-16.90 929.74 2173.4
-11.24 927.00 2167.0
-5.70 940.78 2199.2
0.00 958.48 2240.6
5.71 942.35 2202.9
11.26 928.97 2171.6
16.93 931.32 2177.1
22.11 912.03 2132.0
28.13 928.13 2169.7
33.88 931.64 2177.9
37.90 893.46 2088.6
43.89 905.22 2116.1
50.15 919.33 2149.1
56.38 930.29 2174.7
60.73 910.97 2129.5
71.11 902.59 2110.0
80.85 952.84 2227.4
95.73 987.26 2307.9
99.81 968.70 2264.5
108.85 945.32 2209.8
113.95 940.11 2197.6
133.46 957.43 2238.2
136.05 935.32 2186.5
138.60 914.77 2138.4
145.11 920.92 2152.8
152.22 930.20 2174.5
153.63 905.34 2116.4
156.13 888.32 2076.6
167.05 918.77 2147.8
177.82 946.46 2212.5
178.28 919.23 2148.9
178.09 890.44 2081.5
187.00 907.52 2121.5
200.95 947.32 2214.5
206.39 945.96 2211.3
205.84 917.95 2145.8
208.56 905.61 2117.0
224.37 949.27 2219.1
248.54 976.41 2282.5
247.87 951.14 2223.4
241.37 905.14 2115.9
241.14 884.19 2066.9
258.64 927.75 2168.8
277.45 974.02 2276.9
266.56 916.32 2142.0
263.34 886.77 2073.0
287.70 949.40 2219.4
302.66 979.19 2289.0
305.68 969.93 2267.4
310.08 965.36 2256.7
291.58 890.95 2082.7
298.89 880.66 2058.7
344.18 930.99 2176.3
342.84 912.39 2132.8
357.27 921.08 2153.2
369.19 909.20 2125.4
364.96 885.57 2070.2
350.71 838.66 1960.5
361.77 840.73 1965.3
390.40 894.66 2091.4
414.86 937.70 2192.0
412.73 920.28 2151.3
395.44 869.96 2033.7
400.54 869.60 2032.8
419.18 898.24 2099.8
433.40 916.81 2143.2
436.92 912.55 2133.2
441.32 910.22 2127.8
441.33 899.01 2101.6
518.61 961.47 2247.6
520.62 954.46 2231.2
562.27 997.58 2332.0
-65.75 980.22 2305.4
-56.58 927.86 2182.3
-52.49 956.47 2249.5
-48.38 991.73 2332.5
-39.59 927.61 2181.7
-22.17 908.91 2137.7
-17.24 942.58 2216.9
-11.80 967.64 2275.8
-5.76 944.95 2222.4
0.00 930.87 2189.3
5.70 933.99 2196.7
11.48 941.42 2214.1
28.28 927.67 2181.8
44.66 915.44 2153.0
51.29 934.56 2198.0
57.82 948.20 2230.1
63.88 952.45 2240.1
68.31 933.61 2195.8
73.16 922.99 2170.8
79.05 926.05 2178.0
86.12 941.61 2214.6
92.39 947.00 2227.3
101.64 980.54 2306.1
117.59 964.20 2267.7
122.65 957.84 2252.8
118.93 886.61 2085.2
145.75 919.32 2162.2
152.68 927.38 2181.1
154.31 903.81 2125.7
156.34 884.15 2079.4
166.85 912.10 2145.2
188.19 964.45 2268.3
185.63 922.53 2169.7
193.40 932.89 2194.1
195.14 914.38 2150.5
203.04 899.98 2116.7
224.92 970.71 2283.0
225.14 946.73 2226.6
229.81 942.24 2216.1
233.07 932.29 2192.7
229.93 897.81 2111.6
242.79 926.01 2177.9
250.26 932.78 2193.8
253.11 922.44 2169.5
275.68 982.88 2311.6
277.04 966.68 2273.5
260.57 872.10 2051.1
302.46 918.58 2160.4
292.22 871.36 2049.4
312.81 916.07 2154.5
320.99 923.54 2172.1
337.06 863.73 2031.4
367.63 899.88 2116.4
364.01 877.91 2064.8
371.01 881.83 2074.0
387.45 907.73 2134.9
362.60 837.55 1969.8
385.55 866.18 2037.2
396.59 878.93 2067.2
441.29 927.85 2182.2
463.74 938.93 2208.3
495.06 944.07 2220.4
542.08 987.78 2323.2
532.13 948.59 2231.0
-93.28 950.27 2248.7
-82.47 960.16 2272.1
-38.83 904.13 2139.5
-16.80 912.79 2160.0
-11.43 931.49 2204.2
-5.55 904.64 2140.7
10.97 894.12 2115.8
17.54 953.28 2255.8
28.44 927.15 2194.0
32.84 892.10 2111.0
39.83 927.48 2194.7
58.75 957.70 2266.2
62.18 921.45 2180.5
68.15 925.67 2190.5
74.97 940.00 2224.4
96.56 983.72 2327.8
106.88 916.94 2169.8
111.45 908.28 2149.3
118.16 917.12 2170.2
140.83 918.19 2172.8
147.62 925.44 2189.9
147.67 891.50 2109.6
154.45 899.13 2127.7
161.26 906.37 2144.8
164.93 896.12 2120.5
172.83 908.77 2150.5
186.00 947.43 2241.9
191.38 945.31 2236.9
199.81 957.93 2266.8
202.49 943.01 2231.5
217.27 931.96 2205.3
231.84 968.96 2292.9
226.98 924.96 2188.8
220.33 875.93 2072.8
233.01 883.26 2090.1
243.07 900.46 2130.8
248.21 899.08 2127.5
256.94 910.46 2154.5
259.88 864.49 2045.7
288.23 939.62 2223.5
301.28 962.92 2278.6
312.41 960.82 2273.6
303.25 915.36 2166.1
315.67 935.53 2213.8
333.90 971.90 2299.8
337.47 965.03 2283.6
315.84 887.61 2100.4
318.80 880.76 2084.2
341.69 928.25 2196.6
339.48 907.14 2146.6
329.40 866.01 2049.3
353.12 859.07 2032.9
364.98 874.89 2070.3
389.23 919.49 2175.8
