ply
format ascii 1.0
element vertex 2007
property float x
property float y
property float z
end_header
1618.02 -1040.61 2447.4
1648.19 -1055.87 2483.3
1625.92 -1029.54 2421.4
1675.26 -1056.70 2485.3
1629.94 -1020.27 2399.6
1577.08 -1088.78 2545.2
1584.20 -1071.28 2504.3
1578.95 -1063.38 2485.8
1601.12 -1060.98 2480.2
1631.14 -1072.26 2506.6
1644.15 -1076.53 2516.6
1614.86 -1053.17 2462.0
1626.92 -1036.45 2422.9
1525.42 -1086.78 2525.2
1559.14 -1082.92 2516.2
1549.17 -1071.51 2489.7
1588.87 -1094.41 2543.0
1594.33 -1093.63 2541.1
1572.72 -1074.37 2496.4
1596.65 -1086.25 2524.0
1590.95 -1077.95 2504.7
1635.45 -1085.94 2523.3
1630.01 -1078.01 2504.9
1622.44 -1068.75 2483.3
1640.06 -1076.09 2500.4
1666.28 -1076.27 2500.8
1605.55 -1033.03 2400.3
1616.88 -1036.30 2407.9
1679.31 -1072.17 2491.3
1519.96 -1089.41 2516.2
1547.47 -1099.69 2539.9
1584.11 -1062.44 2453.9
1616.62 -1050.49 2426.3
1604.97 -1038.88 2399.5
1672.44 -1078.37 2490.7
1678.69 -1078.23 2490.4
1631.83 -1032.25 2384.2
1503.46 -1122.58 2577.4
1521.42 -1130.97 2596.6
1527.85 -1078.49 2476.1
1556.42 -1094.05 2511.9
1587.00 -1097.18 2519.0
1591.89 -1096.05 2516.4
1573.55 -1070.27 2457.3
1593.52 -1079.48 2478.4
1578.93 -1065.30 2445.8
1656.86 -1100.21 2526.0
1629.48 -1061.06 2436.1
1659.23 -1076.26 2471.0
1623.63 -1037.15 2381.2
1651.98 -1051.26 2413.6
1489.12 -1128.53 2575.7
1512.70 -1126.20 2570.4
1517.98 -1087.03 2481.0
1524.20 -1077.78 2459.9
1567.64 -1103.88 2519.4
1603.29 -1110.47 2534.5
1571.49 -1084.01 2474.1
1559.12 -1071.10 2444.6
1576.49 -1078.65 2461.8
1594.42 -1086.52 2479.8
1595.26 -1078.40 2461.3
1619.65 -1081.90 2469.3
1623.31 -1080.08 2465.1
1649.23 -1093.02 2494.6
1629.93 -1067.66 2436.8
1603.08 -1046.02 2387.4
1492.57 -1142.96 2593.3
1488.35 -1114.62 2529.0
1511.38 -1121.98 2545.7
1497.51 -1102.06 2500.5
1548.29 -1134.53 2574.1
1521.62 -1105.45 2508.2
1521.23 -1100.46 2496.8
1501.73 -1081.75 2454.4
1544.81 -1098.82 2493.1
1574.35 -1105.95 2509.3
1584.73 -1108.66 2515.4
1571.58 -1094.95 2484.3
1571.37 -1090.34 2473.9
1585.74 -1095.83 2486.3
1578.40 -1086.35 2464.8
1626.47 -1101.60 2499.4
1574.77 -1058.15 2400.8
1630.44 -1091.24 2475.9
1626.34 -1084.23 2460.0
1628.92 -1081.71 2454.3
1638.77 -1084.01 2459.5
1612.09 -1062.23 2410.1
1603.02 -1052.17 2387.3
1605.93 -1050.03 2382.4
1612.50 -1050.29 2383.0
1612.21 -1046.09 2373.5
1470.03 -1132.32 2554.1
1487.36 -1140.53 2572.6
1488.35 -1136.19 2562.8
1525.05 -1138.79 2568.7
1478.64 -1094.57 2469.0
1505.72 -1109.82 2503.3
1501.59 -1097.31 2475.1
1542.98 -1122.77 2532.6
1523.09 -1103.59 2489.3
1547.48 -1098.01 2476.7
1526.45 -1078.60 2432.9
1552.15 -1092.25 2463.7
1553.93 -1089.03 2456.4
1569.74 -1095.62 2471.3
1601.22 -1113.05 2510.6
1609.10 -1114.00 2512.8
1634.86 -1104.98 2492.4
1597.78 -1071.45 2416.8
1595.10 -1065.48 2403.3
1623.75 -1059.78 2390.5
1523.06 -1154.04 2588.0
1482.66 -1118.50 2508.3
1529.37 -1138.75 2553.7
1481.10 -1088.67 2441.4
1509.27 -1104.66 2477.2
1475.14 -1075.10 2410.9
1489.06 -1076.13 2413.2
1534.29 -1090.49 2445.4
1578.45 -1117.26 2505.5
1587.68 -1114.62 2499.6
1599.63 -1109.42 2487.9
1560.74 -1078.10 2417.7
1601.79 -1093.28 2451.7
1627.09 -1064.10 2386.3
1647.67 -1069.43 2398.2
1463.55 -1145.68 2554.4
1512.00 -1157.41 2580.5
1483.13 -1130.31 2520.1
1528.01 -1154.35 2573.7
1485.69 -1107.86 2470.0
1478.55 -1093.12 2437.2
1492.12 -1098.46 2449.1
1494.35 -1086.23 2421.8
1526.67 -1105.08 2463.8
1506.60 -1081.50 2411.3
1534.17 -1096.74 2445.2
1564.35 -1113.71 2483.1
1583.18 -1122.50 2502.7
1567.48 -1106.83 2467.8
1604.55 -1119.30 2495.6
1606.23 -1081.24 2410.7
1608.70 -1078.70 2405.0
1593.90 -1056.49 2355.5
1484.52 -1148.03 2544.9
1503.79 -1157.78 2566.5
1499.98 -1149.76 2548.7
1488.50 -1135.96 2518.1
1495.93 -1136.65 2519.7
1529.15 -1156.84 2564.4
1491.79 -1118.84 2480.2
1448.90 -1077.39 2388.3
1497.82 -1109.02 2458.4
1492.38 -1095.67 2428.8
1526.09 -1115.71 2473.3
1536.68 -1109.47 2459.4
1536.82 -1100.44 2439.4
1557.82 -1106.37 2452.6
1595.87 -1084.69 2404.5
1457.67 -1138.81 2510.0
1487.12 -1151.53 2538.1
1458.94 -1119.80 2468.1
1502.89 -1148.50 2531.4
1525.62 -1160.80 2558.5
1492.60 -1125.88 2481.5
1495.18 -1104.04 2433.4
1470.10 -1080.95 2382.5
1487.58 -1080.19 2380.8
1569.89 -1125.95 2481.7
1555.92 -1106.85 2439.6
1578.41 -1091.79 2406.4
1610.44 -1088.13 2398.3
1624.48 -1085.05 2391.5
1450.54 -1149.98 2520.2
1440.68 -1131.96 2480.8
1495.39 -1164.55 2552.2
1476.78 -1139.97 2498.3
1480.37 -1137.75 2493.4
1459.14 -1116.56 2447.0
1503.26 -1145.34 2510.1
1491.47 -1131.46 2479.7
1477.97 -1097.56 2405.4
1551.23 -1092.06 2393.3
1569.59 -1091.89 2392.9
1587.52 -1100.01 2410.7
1427.64 -1138.25 2480.5
1496.52 -1182.52 2576.9
1452.41 -1112.88 2425.2
1485.07 -1133.01 2469.0
1449.32 -1077.86 2348.8
1469.16 -1088.04 2371.0
1494.49 -1093.08 2382.0
1524.49 -1110.43 2419.8
1556.12 -1106.16 2410.5
1620.86 -1090.84 2377.1
1409.13 -1161.23 2516.3
1458.45 -1138.61 2467.3
1470.05 -1142.66 2476.1
1484.06 -1148.53 2488.8
1483.31 -1142.98 2476.8
1468.61 -1126.78 2441.7
1498.48 -1144.76 2480.6
1500.11 -1136.26 2462.2
1464.55 -1099.96 2383.5
1529.86 -1144.18 2479.4
1532.79 -1141.57 2473.7
1501.25 -1113.43 2412.7
1536.58 -1134.90 2459.3
1507.65 -1099.84 2383.3
1559.22 -1123.65 2434.9
1557.88 -1118.16 2423.0
1568.12 -1120.99 2429.1
1559.11 -1110.09 2405.5
1392.46 -1159.30 2498.1
1413.80 -1160.87 2501.5
1428.67 -1157.16 2493.5
1456.46 -1163.87 2507.9
1489.93 -1169.73 2520.6
1457.07 -1138.93 2454.2
1453.10 -1111.56 2395.2
1495.09 -1129.20 2433.2
1477.02 -1101.61 2373.8
1483.16 -1101.60 2373.8
1520.46 -1124.64 2423.4
1548.11 -1131.07 2437.3
1525.50 -1101.07 2372.6
1528.57 -1094.46 2358.4
1430.36 -1124.30 2409.2
1439.54 -1112.09 2383.1
1461.63 -1124.33 2409.3
1438.87 -1102.12 2361.7
1440.65 -1098.80 2354.6
1494.58 -1098.06 2353.0
1512.66 -1106.83 2371.8
1535.34 -1118.87 2397.6
1342.87 -1174.20 2502.3
1413.09 -1157.33 2466.3
1430.13 -1166.01 2484.8
1425.92 -1157.36 2466.4
1420.76 -1137.87 2424.8
1422.84 -1134.51 2417.7
1458.85 -1158.13 2468.0
1450.56 -1146.52 2443.2
1500.60 -1146.03 2442.2
1473.24 -1120.41 2387.6
1475.51 -1117.44 2381.3
1473.33 -1111.13 2367.8
1473.24 -1101.88 2348.1
1340.45 -1184.28 2509.9
1386.53 -1190.33 2522.7
1370.77 -1171.27 2482.3
1395.20 -1186.57 2514.7
1399.50 -1184.69 2510.7
1399.53 -1168.42 2476.2
1436.85 -1172.67 2485.3
1421.44 -1154.92 2447.6
1236.15 -1209.70 2549.7
1234.03 -1201.21 2531.8
1317.92 -1199.90 2529.1
1364.35 -1194.62 2517.9
1349.84 -1143.62 2410.4
1378.77 -1131.46 2384.8
1413.82 -1155.04 2434.5
1374.00 -1117.52 2355.4
1225.96 -1212.78 2542.3
1238.48 -1205.71 2527.5
1317.69 -1206.24 2528.6
1325.82 -1201.73 2519.2
1358.41 -1201.67 2519.0
1351.86 -1173.31 2459.6
1377.94 -1190.33 2495.3
1253.66 -1214.28 2531.7
1288.75 -1210.25 2523.3
1328.33 -1204.61 2511.5
1309.42 -1181.68 2463.7
1344.12 -1207.09 2516.7
1361.57 -1193.79 2489.0
1339.22 -1168.66 2436.6
1337.60 -1161.77 2422.2
1350.53 -1135.67 2367.8
1363.64 -1141.51 2380.0
1379.56 -1149.63 2396.9
1377.14 -1122.34 2340.0
1389.40 -1127.36 2350.5
1386.55 -1115.27 2325.3
1219.53 -1226.12 2542.6
1258.06 -1218.75 2527.4
1254.06 -1208.58 2506.3
1290.60 -1218.53 2526.9
1297.68 -1219.03 2527.9
1302.52 -1211.34 2512.0
1279.85 -1161.23 2408.1
1343.44 -1213.01 2515.5
1356.63 -1213.14 2515.7
1357.07 -1207.73 2504.5
1338.53 -1185.56 2458.5
1308.31 -1153.29 2391.6
1316.39 -1154.95 2395.1
1378.82 -1204.04 2496.9
1347.16 -1128.70 2340.6
1364.87 -1138.41 2360.8
1396.10 -1159.26 2404.0
1399.12 -1156.61 2398.5
1396.52 -1149.35 2383.4
1215.29 -1235.10 2547.6
1210.89 -1217.40 2511.1
1205.57 -1205.57 2486.7
1275.17 -1235.53 2548.5
1270.76 -1224.91 2526.6
1316.12 -1212.38 2500.7
1304.65 -1184.32 2442.8
1311.53 -1184.81 2443.8
1313.17 -1180.59 2435.1
1320.90 -1181.86 2437.8
1319.40 -1174.89 2423.4
1340.90 -1171.72 2416.8
1329.32 -1156.20 2384.8
1364.66 -1154.72 2381.8
1344.70 -1132.70 2336.4
1385.92 -1151.86 2375.9
1387.95 -1148.44 2368.8
1404.91 -1157.35 2387.2
1412.56 -1158.55 2389.7
1404.19 -1146.65 2365.1
1423.14 -1157.07 2386.6
1204.78 -1230.98 2525.6
1213.55 -1213.55 2489.8
1247.58 -1240.98 2546.1
1221.93 -1209.06 2480.6
1270.10 -1230.82 2525.2
1268.48 -1216.70 2496.3
1321.44 -1223.79 2510.8
1295.07 -1170.55 2401.6
1330.43 -1185.41 2432.1
1346.79 -1188.71 2438.8
1307.22 -1148.40 2356.1
1343.46 -1174.75 2410.2
1340.81 -1167.00 2394.3
1353.78 -1162.15 2384.4
1353.21 -1156.38 2372.5
1326.93 -1128.80 2315.9
1343.62 -1137.84 2334.5
1368.68 -1153.86 2367.3
1362.40 -1143.44 2346.0
1349.55 -1117.69 2293.1
1393.61 -1149.11 2357.6
1188.78 -1221.08 2492.0
1200.56 -1226.52 2503.1
1220.53 -1227.02 2504.1
1230.80 -1230.80 2511.8
1245.96 -1239.40 2529.4
1225.84 -1213.01 2475.5
1286.50 -1240.56 2531.7
1280.17 -1221.98 2493.8
1256.91 -1193.75 2436.2
1302.89 -1225.11 2500.2
1281.88 -1193.47 2435.7
1314.57 -1200.26 2449.5
1311.00 -1191.24 2431.1
1347.42 -1206.93 2463.1
1324.80 -1175.53 2399.0
1325.36 -1165.08 2377.7
1341.96 -1174.22 2396.4
1307.68 -1138.95 2324.4
1330.72 -1107.96 2261.1
1377.49 -1136.88 2320.2
1226.29 -1239.34 2515.9
1230.55 -1237.06 2511.3
1233.58 -1233.58 2504.3
1263.77 -1257.15 2552.1
1225.66 -1212.89 2462.3
1232.06 -1200.47 2437.0
1291.63 -1252.09 2541.8
1300.41 -1254.21 2546.1
1254.83 -1204.13 2444.5
1269.71 -1212.29 2461.0
1301.11 -1236.05 2509.3
1256.48 -1187.72 2411.2
1335.25 -1243.61 2524.6
1326.81 -1229.73 2496.4
1319.55 -1217.06 2470.7
1281.37 -1176.14 2387.7
1284.98 -1162.60 2360.2
1309.30 -1178.99 2393.4
1298.81 -1164.03 2363.1
1286.36 -1142.10 2318.5
1329.19 -1174.63 2384.6
1348.49 -1186.17 2408.0
1319.68 -1155.48 2345.7
1354.20 -1169.54 2374.2
1345.04 -1135.81 2305.8
1352.98 -1137.46 2309.1
1353.46 -1132.85 2299.8
1346.16 -1112.05 2257.5
1182.69 -1221.04 2465.8
1254.88 -1241.87 2507.9
1242.61 -1223.40 2470.6
1234.72 -1209.40 2442.3
1290.12 -1257.21 2538.9
1297.64 -1258.12 2540.7
1270.48 -1225.57 2475.0
1299.27 -1247.04 2518.3
1317.29 -1258.01 2540.5
1259.23 -1196.58 2416.4
1283.99 -1208.09 2439.7
1334.98 -1249.91 2524.1
1300.74 -1206.03 2435.5
1274.24 -1175.74 2374.4
1308.90 -1190.48 2404.1
1336.81 -1198.73 2420.8
1267.94 -1131.67 2285.3
1323.16 -1170.02 2362.8
1327.95 -1163.48 2349.6
1302.80 -1115.85 2253.4
1379.03 -1155.24 2332.9
1341.94 -1119.26 2260.3
1369.82 -1127.74 2277.4
1162.30 -1232.94 2476.9
1186.82 -1252.03 2515.2
1207.70 -1253.39 2518.0
1250.12 -1243.64 2498.4
1233.34 -1220.62 2452.1
1257.45 -1225.53 2462.0
1308.65 -1262.62 2536.5
1293.85 -1242.10 2495.3
1274.23 -1217.17 2445.2
1279.85 -1216.49 2443.8
1288.45 -1218.63 2448.1
1282.93 -1207.47 2425.7
1298.38 -1216.04 2442.9
1341.59 -1244.37 2499.9
1297.72 -1197.90 2406.5
1313.95 -1201.32 2413.4
1345.66 -1218.71 2448.3
1335.70 -1204.01 2418.8
1274.90 -1143.83 2297.9
1292.49 -1148.88 2308.0
1348.10 -1192.79 2396.2
1301.13 -1145.95 2302.1
1303.16 -1142.49 2295.2
1353.43 -1129.82 2269.7
1168.67 -1239.30 2476.8
1207.68 -1246.43 2491.0
1265.09 -1239.41 2477.0
1302.53 -1269.63 2537.4
1288.26 -1249.42 2497.0
1277.19 -1232.48 2463.1
1258.36 -1208.27 2414.8
1246.10 -1190.58 2379.4
1239.66 -1178.59 2355.4
1269.88 -1201.40 2401.0
1324.75 -1247.21 2492.6
1312.27 -1217.63 2433.5
1295.62 -1173.97 2346.2
1304.95 -1176.89 2352.0
1313.85 -1179.41 2357.1
1335.31 -1193.12 2384.5
1334.40 -1186.82 2371.9
1296.45 -1147.77 2293.8
1306.61 -1151.49 2301.3
1326.80 -1163.96 2326.2
1303.39 -1133.13 2264.6
1330.99 -1151.93 2302.2
1360.12 -1171.89 2342.0
1358.10 -1154.69 2307.7
1373.98 -1152.95 2304.2
1132.07 -1247.85 2481.0
1159.79 -1250.00 2485.3
1158.25 -1227.87 2441.3
1198.89 -1264.05 2513.2
1178.01 -1235.32 2456.1
1179.21 -1223.35 2432.3
1217.25 -1256.09 2497.4
1208.37 -1233.81 2453.1
1234.32 -1253.71 2492.6
1226.74 -1233.09 2451.7
1265.23 -1265.23 2515.5
1248.01 -1241.61 2468.6
1267.78 -1254.85 2494.9
1297.24 -1271.03 2527.1
1289.67 -1257.27 2499.7
1288.70 -1250.04 2485.4
1242.93 -1199.65 2385.2
1256.47 -1200.77 2387.4
1325.02 -1247.83 2481.0
1313.66 -1219.38 2424.4
1304.75 -1205.34 2396.5
1281.71 -1167.38 2321.0
1283.43 -1163.49 2313.3
1294.38 -1162.54 2311.4
1307.25 -1168.69 2323.6
1358.08 -1176.20 2338.5
1364.91 -1166.49 2319.2
1132.19 -1254.41 2481.3
1168.64 -1218.64 2410.5
1228.54 -1274.29 2520.6
1205.99 -1244.27 2461.2
1201.68 -1233.30 2439.5
1246.47 -1259.38 2491.1
1269.86 -1276.41 2524.8
1278.68 -1265.70 2503.6
1249.06 -1230.13 2433.2
1222.48 -1197.91 2369.5
1263.66 -1232.07 2437.1
1261.69 -1224.03 2421.2
1242.71 -1199.64 2372.9
1325.97 -1273.72 2519.4
1302.36 -1238.83 2450.4
1298.51 -1229.17 2431.3
1291.65 -1205.13 2383.8
1304.52 -1211.34 2396.1
1316.56 -1216.73 2406.7
1339.21 -1231.82 2436.6
1330.81 -1207.02 2387.5
1295.53 -1169.58 2313.5
1304.86 -1125.88 2227.0
1308.46 -1124.01 2223.3
1332.10 -1139.30 2253.6
1111.22 -1266.28 2491.9
1141.98 -1243.49 2447.1
1158.98 -1248.13 2456.2
1193.40 -1250.84 2461.6
1180.84 -1231.09 2422.7
1208.93 -1253.71 2467.2
1197.84 -1229.20 2419.0
1209.53 -1228.33 2417.3
1225.80 -1238.43 2437.2
1232.70 -1239.02 2438.3
1282.96 -1276.45 2512.0
1220.93 -1208.60 2378.4
1224.35 -1205.89 2373.1
1293.20 -1267.34 2494.0
1293.89 -1261.70 2482.9
1273.37 -1235.55 2431.5
1262.82 -1219.28 2399.5
1292.48 -1217.91 2396.8
1264.46 -1185.81 2333.6
1298.61 -1212.04 2385.2
1275.56 -1184.88 2331.8
1265.92 -1170.38 2303.2
1333.89 -1227.43 2415.5
1339.04 -1220.71 2402.3
1284.62 -1165.68 2294.0
1283.32 -1153.81 2270.6
1272.74 -1133.90 2231.4
1331.01 -1180.44 2323.0
1350.84 -1192.64 2347.0
1363.50 -1156.91 2276.7
1367.62 -1155.40 2273.7
1069.37 -1253.96 2455.2
1088.08 -1260.89 2468.7
1110.22 -1264.24 2475.3
1146.34 -1254.60 2456.4
1144.05 -1245.18 2438.0
1194.14 -1271.60 2489.7
1200.78 -1271.79 2490.1
1203.84 -1268.22 2483.1
1219.47 -1271.08 2488.7
1199.93 -1224.79 2398.1
1231.68 -1250.72 2448.8
1247.63 -1260.43 2467.8
1271.91 -1278.40 2503.0
1240.85 -1240.85 2429.5
1215.30 -1209.16 2367.5
1257.95 -1245.30 2438.2
1303.40 -1283.85 2513.7
1282.25 -1256.73 2460.6
1229.58 -1199.15 2347.9
1251.98 -1185.77 2321.7
1302.06 -1227.31 2403.0
1296.20 -1215.96 2380.8
1236.81 -1154.75 2260.9
1249.79 -1155.91 2263.2
1279.76 -1178.10 2306.6
1331.26 -1186.69 2323.5
1100.06 -1288.83 2510.7
1065.91 -1241.48 2418.5
1091.89 -1264.29 2462.9
1091.06 -1248.72 2432.6
1103.94 -1256.21 2447.2
1140.50 -1268.65 2471.4
1152.65 -1253.98 2442.8
1180.20 -1276.93 2487.5
1138.39 -1225.01 2386.4
1146.77 -1227.35 2390.9
1192.61 -1269.56 2473.2
1190.89 -1260.95 2456.4
1201.21 -1258.41 2451.4
1229.42 -1281.18 2495.8
1193.72 -1237.47 2410.7
1170.20 -1206.77 2350.8
1215.95 -1247.45 2430.1
1240.40 -1265.98 2466.2
1201.83 -1220.32 2377.2
1173.59 -1185.56 2309.5
1206.27 -1212.39 2361.8
1243.32 -1243.32 2422.1
1302.59 -1283.15 2499.6
1256.39 -1231.52 2399.1
1256.83 -1225.88 2388.1
1256.37 -1219.42 2375.5
1272.73 -1205.74 2348.9
1269.82 -1197.26 2332.3
1260.27 -1182.62 2303.8
1276.95 -1192.62 2323.3
1272.10 -1182.52 2303.6
1248.14 -1154.82 2249.7
1275.04 -1174.22 2287.4
1302.09 -1193.58 2325.2
1250.52 -1141.02 2222.8
1320.62 -1183.18 2304.9
1359.25 -1160.05 2259.8
1139.47 -1273.91 2469.2
1183.67 -1266.40 2454.6
1199.96 -1270.17 2461.9
1192.66 -1242.62 2408.5
1167.14 -1209.69 2344.7
1207.57 -1245.11 2413.4
1237.27 -1269.16 2460.0
1202.42 -1227.08 2378.4
1183.72 -1195.74 2317.7
1203.22 -1209.30 2343.9
1220.33 -1220.33 2365.3
1255.94 -1249.66 2422.2
1232.96 -1220.69 2366.0
1221.97 -1203.82 2333.3
1258.29 -1233.49 2390.8
1280.82 -1243.33 2409.9
1261.91 -1219.03 2362.8
1265.18 -1216.28 2357.5
1236.87 -1183.36 2293.7
1233.03 -1174.03 2275.6
1259.15 -1193.20 2312.7
1284.99 -1211.91 2349.0
1314.30 -1222.18 2368.9
1319.23 -1221.06 2366.7
1337.52 -1232.25 2388.4
1274.50 -1168.78 2265.4
1287.27 -1175.08 2277.6
1293.79 -1175.63 2278.7
1308.31 -1172.76 2273.1
1289.67 -1150.87 2230.7
1312.58 -1166.09 2260.2
1338.37 -1183.71 2294.4
1346.80 -1175.49 2278.4
1353.70 -1156.16 2240.9
1082.94 -1266.59 2442.7
1104.98 -1284.86 2477.9
1093.88 -1264.60 2438.9
1095.23 -1237.55 2386.7
1187.98 -1270.57 2450.4
1187.51 -1256.62 2423.5
1144.30 -1204.53 2323.0
1174.33 -1204.45 2322.9
1186.74 -1210.96 2335.4
1207.02 -1183.36 2282.2
1257.95 -1227.27 2366.9
1280.00 -1236.72 2385.1
1215.06 -1162.74 2242.4
1231.96 -1173.30 2262.8
1238.90 -1174.31 2264.7
1277.41 -1205.10 2324.1
1300.82 -1210.06 2333.7
1328.11 -1207.38 2328.5
1294.37 -1171.38 2259.1
1273.09 -1146.92 2211.9
1295.89 -1162.24 2241.5
1324.30 -1161.67 2240.4
1104.99 -1298.85 2492.5
1109.11 -1296.11 2487.2
1082.16 -1257.30 2412.7
1087.92 -1256.74 2411.7
1132.87 -1301.19 2496.9
1147.44 -1288.47 2472.5
1124.24 -1255.40 2409.1
1158.02 -1271.92 2440.8
1129.99 -1227.72 2356.0
1145.05 -1230.78 2361.8
1161.74 -1235.50 2370.9
1164.74 -1194.46 2292.1
1180.40 -1204.37 2311.2
1216.86 -1235.29 2370.5
1236.50 -1248.93 2396.7
1222.00 -1228.11 2356.7
1197.25 -1197.25 2297.5
1208.89 -1202.91 2308.4
1231.57 -1219.44 2340.1
1214.47 -1196.61 2296.3
1223.18 -1199.31 2301.4
1235.25 -1182.31 2268.8
1253.98 -1194.55 2292.3
1254.40 -1189.32 2282.3
1231.72 -1140.90 2189.4
1279.74 -1158.69 2223.5
1299.53 -1145.63 2198.4
1288.21 -1101.83 2114.4
1080.21 -1276.04 2436.6
1119.90 -1292.69 2468.4
1118.66 -1283.92 2451.6
1107.17 -1263.55 2412.7
1097.02 -1244.93 2377.2
1103.43 -1245.21 2377.7
1153.10 -1245.59 2378.4
1174.16 -1261.59 2409.0
1165.08 -1245.22 2377.7
1148.26 -1220.78 2331.1
1160.73 -1208.60 2307.8
1153.05 -1194.44 2280.8
1163.70 -1193.23 2278.4
1201.71 -1225.99 2341.0
1253.20 -1259.44 2404.9
1265.57 -1259.33 2404.7
1204.07 -1192.27 2276.6
1225.27 -1201.48 2294.2
1285.83 -1248.74 2384.4
1257.54 -1215.42 2320.8
1290.22 -1241.07 2369.8
1273.83 -1219.50 2328.6
1240.63 -1182.11 2257.2
1248.43 -1183.96 2260.7
1265.06 -1194.13 2280.2
1258.31 -1182.22 2257.4
1321.16 -1224.20 2337.6
1300.01 -1182.89 2258.7
1316.85 -1141.65 2180.0
1093.46 -1298.08 2466.4
1060.45 -1251.58 2378.1
1127.50 -1278.67 2429.6
1123.19 -1252.78 2380.4
1142.76 -1267.65 2408.6
1127.06 -1243.44 2362.6
1159.55 -1258.77 2391.7
1175.08 -1268.84 2410.9
1165.62 -1251.97 2378.8
1192.79 -1274.40 2421.4
1165.54 -1238.77 2353.8
1154.47 -1201.84 2283.6
1204.93 -1204.93 2289.5
1281.53 -1244.74 2365.1
1267.41 -1225.16 2327.9
1214.35 -1168.31 2219.9
1228.92 -1171.22 2225.4
1301.25 -1211.71 2302.3
1291.40 -1191.61 2264.1
1284.76 -1180.12 2242.3
1323.37 -1183.45 2248.6
1299.67 -1157.16 2198.7
1340.67 -1178.16 2238.6
1058.39 -1292.89 2444.5
1052.78 -1263.33 2388.7
1087.70 -1297.61 2453.5
1090.48 -1278.49 2417.3
1075.82 -1239.93 2344.4
1116.16 -1279.20 2418.6
1108.20 -1255.96 2374.7
1107.15 -1240.98 2346.4
1148.68 -1280.50 2421.1
1157.51 -1283.33 2426.5
1156.21 -1274.95 2410.6
1174.44 -1288.09 2435.5
1156.53 -1261.67 2385.5
1148.28 -1239.41 2343.4
1199.39 -1281.02 2422.1
1156.23 -1215.83 2298.8
1158.34 -1211.80 2291.2
1189.20 -1231.46 2328.4
1213.63 -1250.41 2364.2
1233.86 -1246.08 2356.0
1204.29 -1210.23 2288.2
1221.02 -1221.02 2308.7
1217.33 -1193.92 2257.4
1260.11 -1229.96 2325.6
1235.52 -1200.21 2269.3
1218.82 -1172.83 2217.5
1233.06 -1138.21 2152.1
1269.24 -1166.33 2205.2
1308.36 -1196.89 2263.0
1253.18 -1141.29 2157.9
1306.56 -1174.18 2220.1
1318.03 -1179.29 2229.8
1272.06 -1128.26 2133.3
1293.23 -1142.07 2159.4
1260.98 -1108.79 2096.5
1303.46 -1136.35 2148.6
1032.57 -1245.16 2342.8
1058.26 -1268.67 2387.0
1084.50 -1292.57 2432.0
1103.58 -1307.71 2460.5
1098.72 -1294.47 2435.6
1091.52 -1278.64 2405.8
1078.20 -1255.86 2362.9
1124.29 -1287.60 2422.7
1124.33 -1280.49 2409.3
1138.47 -1289.43 2426.1
1119.22 -1260.65 2372.0
1114.79 -1248.81 2349.7
1142.68 -1266.21 2382.4
1129.49 -1244.87 2342.3
1169.48 -1268.48 2386.7
1159.84 -1244.86 2342.2
1176.48 -1249.63 2351.2
1202.28 -1270.45 2390.4
1149.15 -1208.08 2273.0
1207.19 -1249.86 2351.7
1208.53 -1238.75 2330.7
1195.13 -1218.91 2293.4
1212.62 -1230.63 2315.5
1221.03 -1221.03 2297.4
1206.28 -1177.55 2215.6
1210.07 -1175.66 2212.0
1220.39 -1180.09 2220.4
1248.88 -1190.79 2240.5
1221.63 -1159.42 2181.5
1256.39 -1165.43 2192.8
1258.19 -1161.84 2186.0
1264.51 -1162.44 2187.2
1315.99 -1183.24 2226.3
1316.34 -1178.39 2217.2
1261.21 -1124.12 2115.1
1293.35 -1118.72 2104.9
1305.46 -1115.08 2098.1
1346.46 -1131.25 2128.5
1024.98 -1271.96 2381.6
1056.55 -1295.53 2425.7
1087.88 -1302.93 2439.6
1090.78 -1298.85 2432.0
1071.08 -1268.06 2374.3
1089.40 -1282.37 2401.1
1102.60 -1290.54 2416.4
1127.86 -1283.64 2403.5
1154.10 -1285.11 2406.2
1171.52 -1297.49 2429.4
1138.71 -1254.41 2348.7
1154.51 -1265.05 2368.7
1170.80 -1276.11 2389.4
1148.12 -1244.80 2330.8
1155.60 -1246.35 2333.7
1179.57 -1265.58 2369.7
1172.19 -1251.15 2342.6
1153.84 -1212.71 2270.7
1150.52 -1203.09 2252.7
1214.89 -1257.62 2354.8
1206.21 -1242.40 2326.3
1216.33 -1228.26 2299.8
1215.28 -1221.21 2286.6
1287.95 -1239.81 2321.4
1287.01 -1227.43 2298.2
1273.12 -1208.59 2263.0
1280.95 -1210.44 2266.4
1270.87 -1195.43 2238.3
1254.83 -1174.98 2200.0
1291.40 -1203.75 2253.9
1299.32 -1200.27 2247.4
1311.06 -1179.38 2208.3
1314.15 -1177.02 2203.9
1269.57 -1132.17 2119.9
1297.04 -1127.39 2110.9
1316.08 -1139.13 2132.9
1326.09 -1124.17 2104.9
1341.46 -1132.54 2120.6
1445.78 -1149.93 2153.1
1011.39 -1300.36 2423.0
1037.61 -1270.92 2368.2
1064.92 -1281.62 2388.1
1053.38 -1260.40 2348.6
1039.06 -1236.12 2303.3
1059.80 -1253.59 2335.9
1090.01 -1282.00 2388.8
1075.09 -1257.31 2342.8
1130.08 -1264.47 2356.2
1163.39 -1274.19 2374.3
1199.58 -1273.40 2372.8
1187.54 -1254.19 2337.0
1195.09 -1230.77 2293.4
1229.03 -1229.03 2290.1
1254.21 -1207.54 2250.1
1239.43 -1187.79 2213.3
1241.82 -1184.59 2207.3
1257.11 -1193.67 2224.2
1244.72 -1176.51 2192.3
1233.54 -1160.65 2162.7
1277.67 -1196.73 2229.9
1297.20 -1209.55 2253.8
1357.11 -1160.83 2163.0
1350.23 -1150.20 2143.2
1366.91 -1127.29 2100.5
1368.01 -1123.72 2093.9
1424.19 -1147.11 2137.5
795.53 -1302.92 2416.1
1010.84 -1282.04 2377.4
1024.69 -1291.74 2395.4
1044.54 -1293.23 2398.2
1073.80 -1313.82 2436.3
1072.01 -1303.97 2418.1
1082.93 -1309.58 2428.5
1053.12 -1266.18 2348.0
1074.79 -1255.93 2329.0
1114.33 -1280.56 2374.7
1098.62 -1248.70 2315.6
1121.32 -1253.95 2325.3
1159.16 -1268.97 2353.2
1141.11 -1242.68 2304.4
1169.40 -1266.85 2349.2
1155.97 -1245.81 2310.2
1160.17 -1243.89 2306.7
1187.52 -1266.69 2348.9
1212.74 -1248.76 2315.7
1218.64 -1236.47 2292.9
1168.53 -1157.41 2146.3
1209.06 -1191.87 2210.2
1230.26 -1207.04 2238.3
1239.20 -1204.45 2233.5
1228.01 -1188.03 2203.1
1229.07 -1183.55 2194.8
1232.75 -1181.63 2191.2
1252.45 -1195.00 2216.0
1275.38 -1211.32 2246.3
1267.56 -1193.00 2212.3
1220.61 -1143.64 2120.8
1262.06 -1146.32 2125.7
1222.23 -1105.32 2049.7
1292.42 -1153.75 2139.5
1317.00 -1170.66 2170.9
1273.16 -1126.89 2089.7
1289.22 -1136.26 2107.1
1323.91 -1157.03 2145.6
1294.21 -1126.34 2088.7
1423.17 -1165.43 2161.2
1407.74 -1148.27 2129.4
1434.56 -1165.58 2161.4
1402.81 -1135.35 2105.4
802.03 -1299.42 2398.1
807.75 -1298.61 2396.6
821.46 -1300.64 2400.4
1006.70 -1306.84 2411.8
1018.05 -1305.35 2409.1
1009.69 -1271.23 2346.1
1030.30 -1289.42 2379.6
1052.85 -1309.79 2417.3
1030.51 -1266.92 2338.1
1065.92 -1302.79 2404.3
1090.67 -1325.29 2445.9
1063.29 -1277.17 2357.1
1073.75 -1282.37 2366.6
1092.21 -1282.43 2366.7
1096.27 -1272.89 2349.1
1118.64 -1291.69 2383.8
1137.94 -1271.82 2347.2
1165.93 -1296.17 2392.1
1163.97 -1253.97 2314.2
1177.33 -1249.04 2305.1
1195.87 -1262.31 2329.6
1172.38 -1231.29 2272.4
1176.43 -1229.37 2268.8
1197.95 -1245.63 2298.8
1157.72 -1168.91 2157.2
1157.57 -1152.06 2126.2
1157.28 -1146.31 2115.6
1175.22 -1158.59 2138.2
1198.05 -1175.55 2169.5
1211.37 -1183.06 2183.4
1227.82 -1193.55 2202.7
1231.78 -1180.93 2179.4
1277.85 -1219.50 2250.6
1241.27 -1173.87 2166.4
1288.71 -1191.77 2199.4
1307.84 -1198.85 2212.5
1298.50 -1174.83 2168.2
1261.29 -1136.25 2097.0
1290.86 -1157.90 2136.9
1321.67 -1175.45 2169.3
1314.19 -1163.84 2147.9
1319.94 -1159.11 2139.2
1338.31 -1151.06 2124.3
1372.26 -1151.82 2125.7
1379.08 -1148.32 2119.3
1383.84 -1143.17 2109.8
793.83 -1302.37 2392.1
815.79 -1307.75 2402.0
818.05 -1301.44 2390.4
841.65 -1319.01 2422.7
839.16 -1305.37 2397.6
1025.21 -1304.81 2396.6
1015.46 -1276.92 2345.4
1052.94 -1293.08 2375.1
1092.50 -1318.53 2421.8
1091.42 -1302.27 2391.9
1092.24 -1260.28 2314.8
1091.20 -1252.20 2300.0
1100.14 -1255.60 2306.2
1107.16 -1256.78 2308.4
1134.08 -1280.41 2351.8
1132.19 -1271.45 2335.3
1126.29 -1258.09 2310.8
1136.88 -1263.20 2320.2
1145.53 -1266.11 2325.5
1160.57 -1276.02 2343.7
1175.69 -1285.91 2361.9
1170.36 -1273.45 2339.0
1178.31 -1256.07 2307.1
1159.68 -1176.48 2160.9
1175.38 -1186.69 2179.6
1167.10 -1172.69 2153.9
1172.08 -1172.08 2152.8
1157.13 -1151.64 2115.3
1162.88 -1151.91 2115.8
1243.26 -1225.75 2251.4
1205.30 -1171.82 2152.3
1215.56 -1160.31 2131.2
1213.23 -1152.84 2117.5
1232.94 -1166.29 2142.2
1252.75 -1179.72 2166.8
1243.58 -1165.86 2141.4
1235.67 -1153.29 2118.3
1301.33 -1209.20 2221.0
1289.34 -1192.78 2190.8
1278.86 -1172.76 2154.0
1300.41 -1187.33 2180.8
1284.36 -1167.60 2144.6
1272.83 -1152.13 2116.2
1250.87 -1127.39 2070.7
1244.71 -1117.04 2051.7
1295.55 -1157.73 2126.4
1326.94 -1170.83 2150.5
1328.00 -1147.65 2107.9
1331.20 -1145.71 2104.4
1325.65 -1122.53 2061.8
1395.03 -1162.52 2135.2
1401.18 -1163.03 2136.2
1417.51 -1167.36 2144.1
776.90 -1301.01 2378.3
824.13 -1317.36 2408.2
858.42 -1275.54 2331.7
1034.18 -1276.09 2332.7
1080.55 -1317.89 2409.1
1061.66 -1287.42 2353.4
1089.49 -1313.61 2401.3
1099.69 -1318.38 2410.0
1059.88 -1263.47 2309.7
1105.23 -1302.81 2381.6
1119.60 -1305.17 2385.9
1074.40 -1245.59 2277.0
1133.12 -1271.74 2324.8
1145.26 -1184.56 2165.4
1198.19 -1203.90 2200.8
1215.38 -1215.38 2221.8
1154.91 -1149.46 2101.2
1233.07 -1198.97 2191.8
1183.43 -1145.43 2093.9
1223.90 -1179.19 2155.6
1248.06 -1197.00 2188.2
1237.77 -1181.76 2160.3
1231.87 -1170.83 2140.3
1228.59 -1162.48 2125.1
1256.12 -1183.22 2163.0
1284.26 -1204.35 2201.6
1286.49 -1201.10 2195.7
1231.16 -1129.46 2064.7
1261.04 -1141.97 2087.6
1270.83 -1136.21 2077.0
1302.01 -1154.31 2110.1
1295.25 -1143.51 2090.4
1337.18 -1151.61 2105.2
1355.01 -1139.07 2082.3
1400.35 -1172.51 2143.4
1408.01 -1174.27 2146.6
1394.36 -1144.79 2092.7
1426.29 -1157.49 2115.9
1450.26 -1167.96 2135.1
796.83 -1299.44 2364.2
822.37 -1310.85 2385.0
823.95 -1303.57 2371.7
824.30 -1294.45 2355.1
867.22 -1313.22 2389.3
873.54 -1295.04 2356.2
873.47 -1285.93 2339.6
873.31 -1276.83 2323.1
907.78 -1291.60 2350.0
972.69 -1272.90 2315.9
980.69 -1252.44 2278.7
998.30 -1252.31 2278.5
1013.17 -1263.48 2298.8
1017.26 -1261.17 2294.6
1012.24 -1247.64 2270.0
1029.04 -1261.02 2294.3
1051.10 -1280.65 2330.0
1053.73 -1276.52 2322.5
1095.90 -1297.94 2361.5
1109.48 -1306.72 2377.5
1070.26 -1253.56 2280.7
1095.02 -1261.65 2295.5
1144.18 -1297.14 2360.0
1208.75 -1220.27 2220.2
1159.20 -1148.36 2089.3
1239.50 -1222.21 2223.7
1267.82 -1227.30 2233.0
1213.89 -1169.74 2128.2
1197.65 -1148.88 2090.3
1184.86 -1131.49 2058.6
1217.60 -1147.25 2087.3
1207.73 -1132.91 2061.2
1225.44 -1134.47 2064.1
1260.21 -1161.58 2113.4
1288.07 -1147.36 2087.5
1300.38 -1129.84 2055.6
1354.88 -1144.36 2082.1
1380.81 -1161.63 2113.5
1383.93 -1159.66 2109.9
1404.03 -1171.87 2132.1
1406.67 -1169.47 2127.7
1431.14 -1175.98 2139.6
1412.95 -1156.55 2104.2
1425.64 -1162.45 2115.0
735.27 -1316.07 2383.2
832.15 -1322.74 2395.3
831.67 -1312.20 2376.2
861.94 -1320.81 2391.8
836.08 -1272.03 2303.5
851.51 -1277.26 2312.9
867.43 -1292.04 2339.7
888.66 -1287.65 2331.8
892.47 -1275.81 2310.3
897.84 -1274.93 2308.7
903.52 -1274.50 2308.0
980.53 -1297.22 2349.1
1009.15 -1310.67 2373.4
1043.16 -1307.02 2366.8
1018.83 -1269.07 2298.1
1016.73 -1259.09 2280.0
1035.37 -1274.77 2308.4
1036.88 -1269.29 2298.5
1079.89 -1270.81 2301.3
1080.08 -1243.55 2251.9
1117.71 -1279.96 2317.8
1158.27 -1191.84 2158.3
1186.01 -1197.25 2168.1
1166.84 -1166.84 2113.0
1189.62 -1184.06 2144.2
1235.57 -1218.41 2206.4
1190.25 -1168.31 2115.7
1188.98 -1145.94 2075.1
1212.45 -1147.79 2078.5
1196.64 -1127.80 2042.3
1247.56 -1155.35 2092.2
1254.60 -1156.84 2094.9
1271.43 -1167.31 2113.8
1266.37 -1157.67 2096.4
1264.98 -1151.46 2085.1
1288.96 -1168.29 2115.6
1320.12 -1166.74 2112.8
1337.33 -1177.07 2131.5
1346.39 -1156.38 2094.0
1369.70 -1171.67 2121.7
1337.84 -1139.84 2064.1
1320.10 -1120.25 2028.6
1332.01 -1125.87 2038.8
800.31 -1317.43 2374.5
819.63 -1338.94 2413.3
806.02 -1287.23 2320.1
850.56 -1309.49 2360.2
862.74 -1282.12 2310.9
864.71 -1276.19 2300.2
901.19 -1294.33 2332.9
970.11 -1297.52 2338.7
1015.47 -1301.27 2345.4
1006.19 -1281.70 2310.1
1030.02 -1304.29 2350.9
1033.89 -1301.49 2345.8
1005.57 -1258.43 2268.2
1075.71 -1315.43 2370.9
1031.19 -1246.75 2247.1
1083.69 -1295.58 2335.2
1127.92 -1194.93 2153.7
1138.25 -1182.46 2131.3
1174.93 -1203.04 2168.4
1177.61 -1194.36 2152.7
1178.25 -1189.37 2143.7
1160.15 -1165.60 2100.9
1227.67 -1221.96 2202.5
1199.73 -1188.62 2142.4
1185.67 -1169.28 2107.5
1233.48 -1210.85 2182.4
1201.11 -1173.69 2115.5
1176.94 -1144.84 2063.5
1203.17 -1165.06 2099.9
1227.94 -1173.13 2114.4
1235.48 -1175.08 2118.0
1205.17 -1141.18 2056.9
1215.34 -1145.74 2065.1
1238.39 -1162.35 2095.0
1213.62 -1124.31 2026.5
1229.38 -1133.99 2043.9
1250.80 -1148.81 2070.6
1272.33 -1163.59 2097.3
1287.40 -1167.39 2104.1
1291.19 -1146.54 2066.5
1310.71 -1159.05 2089.1
1318.52 -1156.41 2084.3
1340.14 -1170.57 2109.8
1330.19 -1157.15 2085.7
1356.29 -1175.09 2118.0
1367.30 -1170.41 2109.5
1352.14 -1152.82 2077.9
1369.10 -1162.65 2095.6
1356.28 -1147.21 2067.7
1430.94 -1177.77 2122.8
1438.06 -1174.60 2117.1
842.10 -1331.25 2388.3
863.86 -1298.80 2330.1
878.93 -1312.29 2354.3
864.47 -1281.81 2299.6
969.19 -1262.89 2265.6
979.62 -1268.78 2276.2
970.28 -1249.16 2241.0
1034.75 -1316.40 2361.7
1032.54 -1305.86 2342.7
1041.79 -1294.71 2322.7
1045.92 -1277.69 2292.2
1056.74 -1269.27 2277.1
1083.44 -1272.89 2283.6
1069.18 -1242.56 2229.2
1172.01 -1199.92 2152.7
1139.05 -1160.64 2082.2
1161.62 -1178.05 2113.5
1162.59 -1173.50 2105.3
1155.17 -1149.82 2062.8
1182.41 -1171.51 2101.7
1245.67 -1228.53 2204.0
1230.26 -1207.79 2166.8
1200.88 -1173.58 2105.4
1221.36 -1188.20 2131.6
1199.72 -1161.89 2084.5
1208.77 -1160.21 2081.4
1215.78 -1161.75 2084.2
1206.40 -1147.68 2059.0
1238.06 -1172.61 2103.7
1268.97 -1196.62 2146.8
1248.96 -1172.61 2103.7
1247.71 -1166.34 2092.4
1262.63 -1175.18 2108.3
1256.69 -1164.60 2089.3
1256.26 -1159.21 2079.6
1250.33 -1134.27 2034.9
1325.46 -1177.57 2112.6
1318.09 -1166.21 2092.2
1303.39 -1148.48 2060.4
1311.55 -1146.27 2056.4
1349.04 -1169.53 2098.2
1394.24 -1189.53 2134.0
1405.55 -1189.74 2134.4
1416.58 -1171.40 2101.5
766.66 -1314.28 2346.9
883.32 -1324.98 2366.0
866.73 -1291.13 2305.6
994.40 -1309.70 2338.7
985.04 -1289.50 2302.7
968.64 -1252.85 2237.2
985.79 -1267.44 2263.3
1025.45 -1302.92 2326.6
1015.91 -1283.25 2291.5
1025.42 -1287.74 2299.5
1060.75 -1287.21 2298.6
1074.51 -1296.61 2315.4
1049.94 -1252.97 2237.4
1182.70 -1228.19 2193.2
1182.22 -1221.81 2181.8
1152.94 -1185.88 2117.6
1141.12 -1162.65 2076.2
1175.44 -1191.99 2128.6
1176.42 -1187.42 2120.4
1164.69 -1170.11 2089.5
1156.77 -1156.77 2065.7
1210.09 -1193.51 2131.3
1218.04 -1190.48 2125.9
1181.61 -1134.34 2025.6
1249.95 -1194.65 2133.3
1232.86 -1173.12 2094.9
1218.36 -1154.24 2061.1
1214.76 -1145.80 2046.1
1228.17 -1153.41 2059.7
1280.06 -1196.94 2137.4
1284.08 -1190.39 2125.7
1308.79 -1153.88 2060.5
1301.98 -1129.43 2016.8
1373.40 -1172.55 2093.8
1407.81 -1178.63 2104.7
727.58 -1326.76 2358.3
789.14 -1317.25 2341.4
800.39 -1296.16 2303.9
828.89 -1312.91 2333.7
845.00 -1319.17 2344.8
871.91 -1313.93 2335.5
895.58 -1295.61 2302.9
948.92 -1286.97 2287.6
980.84 -1305.79 2321.0
996.55 -1264.63 2247.9
1035.30 -1306.17 2321.7
1041.98 -1306.99 2323.2
1053.99 -1277.74 2271.2
1055.65 -1272.65 2262.1
1076.19 -1229.12 2184.7
1074.19 -1214.05 2158.0
1102.64 -1220.79 2169.9
1130.26 -1202.29 2137.1
1124.35 -1167.39 2075.0
1168.60 -1196.16 2126.2
1187.83 -1210.13 2151.0
1163.14 -1163.14 2067.5
1214.78 -1198.21 2129.8
1205.65 -1157.64 2057.7
1208.65 -1140.34 2026.9
1262.29 -1185.79 2107.7
1259.21 -1162.76 2066.8
1284.56 -1181.14 2099.5
1289.73 -1180.90 2099.0
1275.01 -1162.51 2066.3
1370.03 -1193.96 2122.2
1365.31 -1171.03 2081.5
807.85 -1294.94 2291.2
819.90 -1285.89 2275.2
844.55 -1315.08 2326.8
851.23 -1306.81 2312.2
858.06 -1299.00 2298.4
894.42 -1317.46 2331.0
896.81 -1294.73 2290.8
915.26 -1304.10 2307.4
925.86 -1285.59 2274.6
953.27 -1315.27 2327.1
927.54 -1271.72 2250.1
970.64 -1267.06 2241.9
1005.71 -1274.68 2255.3
1021.70 -1287.46 2277.9
1005.25 -1259.46 2228.4
1019.07 -1269.47 2246.1
1062.31 -1251.80 2214.8
1062.17 -1218.70 2156.3
1084.03 -1211.88 2144.2
1134.59 -1224.46 2166.5
1156.43 -1183.57 2094.1
1199.10 -1221.52 2161.3
1202.77 -1219.55 2157.8
1234.01 -1200.96 2124.9
1228.43 -1190.21 2105.9
1179.60 -1137.84 2013.2
1262.42 -1196.56 2117.1
1270.90 -1199.38 2122.1
1249.24 -1173.86 2076.9
1263.24 -1181.91 2091.2
1271.22 -1184.29 2095.4
1260.93 -1169.71 2069.6
1241.14 -1146.47 2028.5
1316.74 -1171.63 2073.0
1308.23 -1159.32 2051.2
1298.17 -1145.75 2027.2
1324.64 -1164.40 2060.2
1340.95 -1174.00 2077.2
1345.76 -1164.19 2059.8
1366.64 -1177.58 2083.5
1354.80 -1153.69 2041.3
686.04 -1317.92 2321.2
700.47 -1333.93 2349.4
717.05 -1353.74 2384.3
720.79 -1349.17 2376.2
713.18 -1323.61 2331.2
758.32 -1297.44 2285.1
791.24 -1312.75 2312.1
825.50 -1329.30 2341.2
840.60 -1324.40 2332.6
845.54 -1313.28 2313.0
848.84 -1309.13 2305.7
861.93 -1320.02 2324.9
861.21 -1309.76 2306.8
897.64 -1328.27 2339.4
906.87 -1315.27 2316.5
919.38 -1324.64 2333.0
927.64 -1277.69 2250.3
981.08 -1294.31 2279.6
970.40 -1272.56 2241.3
1000.85 -1296.96 2284.3
979.89 -1262.33 2223.3
1002.54 -1283.95 2261.4
989.20 -1259.50 2218.3
1011.68 -1258.86 2217.2
1014.93 -1241.73 2187.0
1022.81 -1244.42 2191.7
1071.82 -1228.95 2164.5
1068.93 -1200.49 2114.4
1088.47 -1216.20 2142.0
1073.63 -1193.53 2102.1
1095.70 -1211.91 2134.5
1129.87 -1218.92 2146.8
1144.88 -1217.13 2143.7
1132.53 -1198.19 2110.3
1152.99 -1196.70 2107.7
1156.14 -1194.32 2103.5
1160.58 -1193.27 2101.6
1166.74 -1194.00 2102.9
1141.06 -1162.29 2047.1
1201.13 -1179.58 2077.5
1221.23 -1183.41 2084.3
1182.24 -1140.57 2008.8
1277.89 -1216.77 2143.0
1251.40 -1181.28 2080.5
1231.91 -1157.89 2039.3
1253.31 -1172.97 2065.9
1259.84 -1174.06 2067.8
1257.99 -1152.72 2030.2
1283.48 -1171.17 2062.7
1313.91 -1179.29 2077.0
1333.28 -1177.37 2073.6
1365.76 -1201.21 2115.6
1334.75 -1159.96 2043.0
1395.16 -1193.51 2102.1
1387.22 -1177.52 2073.9
667.74 -1335.49 2341.4
803.83 -1339.71 2348.8
813.24 -1315.53 2306.5
811.63 -1303.34 2285.1
844.93 -1346.98 2361.6
849.31 -1344.23 2356.8
827.51 -1300.37 2279.9
859.53 -1322.35 2318.4
830.42 -1268.70 2224.3
869.57 -1310.31 2297.3
885.31 -1324.96 2323.0
885.04 -1315.60 2306.6
903.67 -1299.40 2278.2
928.74 -1309.76 2296.3
946.61 -1277.63 2240.0
962.46 -1291.11 2263.6
963.09 -1284.12 2251.4
1026.55 -1283.19 2249.8
1050.10 -1305.21 2288.4
1047.75 -1280.58 2245.2
1057.33 -1199.03 2102.2
1048.63 -1183.07 2074.2
1115.11 -1214.48 2129.3
1132.15 -1226.96 2151.2
1099.60 -1185.85 2079.1
1137.10 -1214.38 2129.1
1158.11 -1230.85 2158.0
1151.68 -1218.12 2135.7
1188.50 -1227.56 2152.2
1178.71 -1211.76 2124.5
1180.99 -1208.46 2118.7
1241.35 -1187.38 2081.8
1221.08 -1152.95 2021.4
1300.06 -1201.73 2106.9
1312.35 -1208.02 2118.0
1255.74 -1151.10 2018.2
1310.08 -1186.09 2079.5
1308.42 -1170.14 2051.5
1285.75 -1145.21 2007.8
1345.80 -1193.85 2093.1
1341.78 -1180.77 2070.2
1349.54 -1159.76 2033.3
650.61 -1356.45 2367.4
764.86 -1300.25 2269.4
840.20 -1316.90 2298.4
863.86 -1344.46 2346.5
848.00 -1274.89 2225.1
879.73 -1313.65 2292.7
916.79 -1290.51 2252.4
946.02 -1282.64 2238.6
960.13 -1293.83 2258.1
958.67 -1284.03 2241.0
998.18 -1260.55 2200.1
1034.40 -1298.88 2266.9
1031.71 -1288.17 2248.3
1043.03 -1259.61 2198.4
1030.30 -1237.49 2159.8
1032.39 -1233.29 2152.5
1071.54 -1220.67 2130.4
1071.35 -1214.20 2119.2
1063.13 -1180.66 2060.6
1084.40 -1198.26 2091.3
1115.27 -1226.24 2140.2
1133.52 -1240.14 2164.4
1115.32 -1214.22 2119.2
1143.62 -1226.90 2141.3
1147.07 -1212.93 2116.9
1157.06 -1206.18 2105.2
1133.41 -1175.98 2052.5
1142.38 -1152.81 2012.0
1195.36 -1174.11 2049.2
1203.93 -1151.81 2010.3
1246.89 -1187.77 2073.0
1231.15 -1167.74 2038.1
1264.57 -1179.20 2058.1
1313.11 -1214.22 2119.2
1283.77 -1172.37 2046.1
1328.98 -1203.71 2100.8
1331.77 -1191.58 2079.7
1343.68 -1197.39 2089.8
1326.30 -1177.16 2054.5
1339.66 -1184.26 2066.9
1322.59 -1164.51 2032.4
1334.00 -1156.13 2017.8
1372.86 -1185.17 2068.5
1338.34 -1150.87 2008.6
639.29 -1351.64 2348.4
644.13 -1349.02 2343.9
665.05 -1318.22 2290.3
686.01 -1324.30 2300.9
727.42 -1357.04 2357.8
788.53 -1326.16 2304.1
829.13 -1314.76 2284.3
892.10 -1338.15 2325.0
922.06 -1295.56 2251.0
1007.42 -1222.12 2123.4
1023.59 -1234.98 2145.7
1036.40 -1243.67 2160.8
1020.34 -1217.83 2115.9
1028.10 -1214.04 2109.3
1080.12 -1236.01 2147.5
1077.97 -1227.23 2132.2
1045.12 -1183.76 2056.7
1053.63 -1187.34 2062.9
1079.23 -1210.05 2102.4
1101.33 -1228.62 2134.7
1117.00 -1239.87 2154.2
1110.94 -1227.01 2131.9
1097.75 -1206.44 2096.1
1116.36 -1220.85 2121.2
1110.91 -1208.93 2100.5
1118.66 -1193.95 2074.4
1148.99 -1220.46 2120.5
1156.48 -1222.56 2124.1
1160.55 -1221.05 2121.5
1166.75 -1221.79 2122.8
1170.37 -1219.82 2119.4
1180.59 -1219.03 2118.0
1160.55 -1187.29 2062.9
1162.38 -1172.95 2037.9
1152.83 -1158.05 2012.1
1191.38 -1191.38 2070.0
1217.18 -1211.72 2105.3
1231.57 -1209.77 2101.9
1202.27 -1175.79 2042.9
1229.63 -1151.80 2001.2
1269.03 -1183.72 2056.7
1326.71 -1202.16 2088.7
1325.79 -1177.30 2045.5
1329.93 -1162.38 2019.6
1371.16 -1193.71 2074.0
1368.72 -1186.93 2062.2
1377.23 -1189.67 2067.0
1471.96 -1067.89 1855.4
673.12 -1340.23 2318.1
679.51 -1340.97 2319.4
669.29 -1309.22 2264.5
683.31 -1313.61 2272.1
711.69 -1333.68 2306.8
768.40 -1298.13 2245.3
812.54 -1342.19 2321.5
873.55 -1325.18 2292.1
863.08 -1266.22 2190.1
898.04 -1308.91 2264.0
919.47 -1297.74 2244.6
1000.99 -1226.49 2121.4
1044.45 -1272.75 2201.4
1017.00 -1225.89 2120.4
1038.63 -1245.24 2153.8
1044.54 -1245.63 2154.5
1053.95 -1250.16 2162.4
1056.78 -1240.32 2145.3
1026.02 -1197.91 2072.0
1057.73 -1222.14 2113.9
1091.88 -1255.10 2170.9
1061.72 -1214.17 2100.1
1086.20 -1229.56 2126.7
1099.74 -1238.60 2142.4
1112.53 -1246.71 2156.4
1093.03 -1218.72 2108.0
1100.30 -1202.78 2080.4
1088.87 -1184.48 2048.8
1123.31 -1198.55 2073.1
1140.92 -1211.55 2095.6
1152.64 -1218.19 2107.1
1185.02 -1246.51 2156.0
1168.22 -1211.69 2095.8
1166.94 -1199.21 2074.2
1198.09 -1225.57 2119.8
1153.55 -1174.62 2031.7
1153.57 -1164.01 2013.3
1192.54 -1197.91 2072.0
1217.88 -1217.88 2106.5
1193.04 -1187.71 2054.3
1196.54 -1180.66 2042.1
1244.33 -1222.40 2114.3
1202.67 -1176.29 2034.6
1293.83 -1217.40 2105.7
1261.19 -1176.76 2035.4
1261.75 -1167.51 2019.4
1278.69 -1178.29 2038.0
1298.08 -1191.24 2060.4
1326.58 -1197.68 2071.6
1315.85 -1173.74 2030.2
1353.58 -1174.51 2031.5
1375.07 -1188.53 2055.8
1372.19 -1167.93 2020.1
1445.08 -1111.21 1922.0
1447.48 -1109.23 1918.6
1463.56 -1117.72 1933.3
1486.73 -1108.83 1917.9
664.21 -1364.98 2350.4
667.72 -1347.48 2320.3
665.77 -1319.76 2272.6
662.89 -1302.51 2242.8
671.34 -1307.65 2251.7
707.85 -1332.43 2294.4
745.68 -1325.65 2282.7
748.14 -1319.56 2272.2
770.71 -1317.85 2269.3
811.95 -1337.33 2302.8
822.11 -1344.18 2314.6
807.19 -1310.23 2256.1
814.55 -1303.29 2244.2
823.76 -1308.67 2253.5
829.37 -1308.31 2252.8
833.45 -1305.54 2248.1
827.06 -1286.53 2215.3
827.31 -1278.04 2200.7
856.41 -1313.95 2262.5
874.23 -1332.16 2293.9
887.26 -1316.20 2266.4
888.70 -1301.10 2240.4
989.46 -1231.33 2120.3
1004.33 -1242.93 2140.3
1024.96 -1261.49 2172.2
1062.68 -1233.37 2123.8
1087.26 -1255.39 2161.7
1072.33 -1231.81 2121.1
1077.35 -1231.25 2120.1
1070.34 -1204.80 2074.6
1047.41 -1173.09 2020.0
1089.30 -1196.09 2059.6
1077.42 -1177.28 2027.2
1149.14 -1237.53 2131.0
1161.31 -1244.65 2143.2
1155.63 -1232.68 2122.6
1149.01 -1219.81 2100.4
1161.61 -1227.37 2113.4
1148.84 -1208.17 2080.4
1119.49 -1171.80 2017.8
1128.94 -1160.01 1997.5
1170.53 -1181.07 2033.7
1187.71 -1193.04 2054.3
1244.29 -1233.28 2123.6
1230.72 -1209.13 2082.1
1199.37 -1173.19 2020.2
1237.09 -1179.18 2030.5
1282.19 -1196.71 2060.7
1290.42 -1175.01 2023.3
1332.45 -1189.12 2047.6
1341.02 -1173.39 2020.5
1329.98 -1159.20 1996.1
1494.11 -1079.61 1859.0
628.23 -1321.04 2264.6
661.83 -1353.74 2320.7
646.27 -1310.00 2245.7
720.70 -1351.31 2316.5
718.45 -1335.96 2290.2
716.86 -1322.07 2266.4
722.59 -1321.81 2266.0
720.55 -1307.45 2241.3
741.58 -1334.84 2288.3
754.40 -1347.15 2309.4
758.79 -1323.46 2268.8
758.34 -1312.51 2250.0
797.21 -1299.80 2228.2
835.17 -1351.90 2317.5
850.62 -1357.38 2326.9
830.95 -1316.65 2257.1
847.15 -1305.54 2238.1
860.52 -1317.12 2257.9
871.95 -1299.26 2227.3
872.62 -1291.70 2214.3
988.87 -1236.09 2119.0
1029.28 -1279.49 2193.4
1000.19 -1236.50 2119.7
1006.79 -1237.86 2122.0
1037.79 -1269.03 2175.5
1034.95 -1258.72 2157.8
1039.72 -1257.72 2156.1
1037.20 -1234.76 2116.7
1050.07 -1243.50 2131.7
1045.01 -1218.28 2088.5
1067.10 -1237.61 2121.6
1047.71 -1208.89 2072.4
1038.55 -1192.21 2043.8
1096.69 -1215.55 2083.8
1121.11 -1236.52 2119.7
1085.49 -1179.88 2022.7
1122.32 -1214.04 2081.2
1130.14 -1216.65 2085.7
1152.44 -1234.76 2116.7
1169.74 -1247.36 2138.3
1164.41 -1235.81 2118.5
1127.67 -1169.24 2004.4
1149.85 -1186.77 2034.5
1184.76 -1206.20 2067.8
1213.54 -1229.94 2108.5
1196.92 -1207.65 2070.3
1205.24 -1199.91 2057.0
1200.87 -1190.29 2040.5
1181.42 -1165.88 1998.6
1176.86 -1156.30 1982.2
1251.44 -1224.23 2098.7
1230.51 -1193.38 2045.8
1188.42 -1147.61 1967.3
1234.19 -1186.73 2034.4
1281.23 -1221.51 2094.0
1264.37 -1200.35 2057.7
1252.43 -1169.28 2004.5
1281.85 -1153.66 1977.7
1331.80 -1193.85 2046.6
1351.56 -1206.75 2068.7
1309.77 -1164.82 1996.8
1313.13 -1158.64 1986.2
1473.11 -1116.00 1913.1
1472.08 -1085.96 1861.7
1469.72 -1080.67 1852.6
633.10 -1324.82 2261.1
648.46 -1332.29 2273.8
637.15 -1297.26 2214.0
732.43 -1356.79 2315.6
733.24 -1347.25 2299.3
743.58 -1333.72 2276.3
752.53 -1308.24 2232.8
758.70 -1308.90 2233.9
766.01 -1311.51 2238.3
833.72 -1355.54 2313.5
836.40 -1312.69 2240.4
842.15 -1294.73 2209.7
840.40 -1283.31 2190.2
852.83 -1276.41 2178.5
884.61 -1315.27 2244.8
912.72 -1305.53 2228.2
999.12 -1254.45 2141.0
1029.78 -1285.81 2194.5
992.81 -1232.83 2104.1
976.27 -1205.67 2057.7
978.17 -1201.45 2050.5
983.48 -1201.44 2050.5
1061.90 -1269.79 2167.1
1036.05 -1225.91 2092.3
1047.61 -1207.95 2061.6
1092.44 -1228.31 2096.4
1117.13 -1249.86 2133.1
1097.51 -1198.25 2045.0
1143.21 -1242.14 2120.0
1133.32 -1225.51 2091.6
1138.62 -1225.37 2091.3
1142.63 -1223.86 2088.8
1119.63 -1193.57 2037.1
1126.78 -1178.94 2012.1
1209.40 -1242.38 2120.4
1206.55 -1222.78 2086.9
1153.54 -1163.84 1986.3
1239.43 -1228.55 2096.8
1189.02 -1173.45 2002.7
1258.89 -1226.33 2093.0
1227.19 -1170.23 1997.2
1272.69 -1193.48 2036.9
1290.88 -1200.57 2049.0
1270.06 -1176.37 2007.7
1269.26 -1170.83 1998.3
1262.68 -1141.47 1948.1
1302.75 -1173.00 2002.0
1313.08 -1177.60 2009.8
1329.34 -1187.47 2026.7
1357.52 -1207.87 2061.5
1345.70 -1192.66 2035.5
1420.00 -1114.31 1901.8
1445.20 -1130.15 1928.8
1470.55 -1104.13 1884.4
649.31 -1364.76 2319.0
657.59 -1369.48 2327.0
667.82 -1378.13 2341.7
642.97 -1314.90 2234.3
730.87 -1359.89 2310.7
739.75 -1343.39 2282.7
741.72 -1336.26 2270.6
819.51 -1328.77 2257.8
842.46 -1337.33 2272.4
844.12 -1330.67 2261.0
912.80 -1311.42 2228.3
953.15 -1257.94 2137.5
945.71 -1240.91 2108.5
945.39 -1233.36 2095.7
1008.59 -1279.05 2173.3
1021.28 -1287.95 2188.5
1014.91 -1272.84 2162.8
1007.67 -1256.82 2135.6
1020.36 -1265.70 2150.6
1010.31 -1246.41 2117.9
1004.30 -1232.30 2093.9
993.20 -1212.13 2059.6
984.25 -1194.79 2030.2
1047.67 -1251.68 2126.8
1022.89 -1215.69 2065.7
1016.16 -1182.92 2010.0
1060.65 -1228.41 2087.3
1026.91 -1183.30 2010.6
1145.60 -1256.29 2134.7
1118.31 -1214.62 2063.9
1100.55 -1172.89 1992.9
1096.56 -1163.18 1976.4
1125.84 -1188.68 2019.8
1131.83 -1189.47 2021.1
1176.53 -1213.97 2062.8
1189.25 -1221.53 2075.6
1156.52 -1172.01 1991.5
1185.35 -1195.88 2032.0
1183.69 -1188.93 2020.2
1199.16 -1199.16 2037.6
1231.05 -1225.65 2082.6
1193.34 -1167.62 1984.0
1201.54 -1170.60 1989.1
1270.99 -1212.25 2059.8
1294.68 -1214.44 2063.5
1298.63 -1208.15 2052.9
1292.65 -1197.68 2035.1
1290.92 -1191.21 2024.1
1306.54 -1200.75 2040.3
1331.64 -1213.99 2062.8
1273.30 -1156.16 1964.5
1302.12 -1177.62 2001.0
1292.33 -1164.12 1978.0
1327.18 -1176.83 1999.7
1328.59 -1173.50 1994.0
1305.28 -1144.01 1943.9
1427.19 -1065.70 1810.8
635.14 -1328.55 2247.6
648.70 -1320.56 2234.0
671.48 -1331.28 2252.2
667.18 -1311.35 2218.4
678.96 -1311.88 2219.4
815.68 -1328.39 2247.3
805.07 -1301.82 2202.3
822.65 -1320.87 2234.6
844.48 -1337.09 2262.0
818.38 -1286.84 2177.0
828.14 -1293.25 2187.8
844.42 -1292.13 2185.9
843.17 -1281.62 2168.1
890.74 -1301.85 2202.4
933.24 -1222.86 2068.8
988.45 -1245.12 2106.4
962.22 -1192.32 2017.1
981.20 -1189.96 2013.1
1006.23 -1201.15 2032.0
1025.98 -1193.48 2019.1
1050.89 -1216.26 2057.6
1076.78 -1239.93 2097.6
1055.75 -1209.61 2046.3
1108.68 -1263.90 2138.2
1117.49 -1261.33 2133.8
1139.53 -1186.36 2007.0
1191.32 -1234.65 2088.7
1146.14 -1182.44 2000.4
1140.20 -1165.77 1972.2
1222.10 -1243.92 2104.4
1227.20 -1238.06 2094.5
1187.24 -1192.47 2017.3
1294.97 -1220.06 2064.0
1273.37 -1194.76 2021.2
1258.99 -1166.87 1974.0
1285.36 -1144.78 1936.7
1306.56 -1159.12 1960.9
1343.71 -1182.88 2001.1
1355.12 -1188.34 2010.3
1345.25 -1161.80 1965.5
1471.30 -1129.49 1910.8
1450.41 -1106.00 1871.1
1466.58 -1107.22 1873.1
1497.90 -1116.09 1888.1
1501.63 -1108.00 1874.4
638.24 -1340.89 2258.5
661.33 -1352.18 2277.5
666.64 -1350.97 2275.5
666.02 -1337.89 2253.5
677.22 -1348.55 2271.4
674.48 -1331.51 2242.7
669.32 -1310.04 2206.6
676.46 -1312.78 2211.2
726.44 -1363.56 2296.7
732.83 -1342.54 2261.3
740.97 -1346.68 2268.3
790.93 -1331.78 2243.2
809.39 -1352.93 2278.8
792.95 -1306.37 2200.4
842.46 -1330.50 2241.0
857.63 -1336.03 2250.3
838.14 -1296.85 2184.3
854.90 -1313.91 2213.1
855.94 -1306.74 2201.0
845.15 -1264.96 2130.6
879.72 -1283.16 2161.3
926.63 -1263.09 2127.5
1005.82 -1231.73 2074.6
1044.80 -1272.65 2143.6
1032.05 -1250.47 2106.2
1008.99 -1216.10 2048.3
1018.10 -1208.00 2034.7
1009.05 -1191.09 2006.2
1051.70 -1235.07 2080.3
1051.02 -1227.98 2068.3
1049.09 -1219.50 2054.1
1083.43 -1253.06 2110.6
1073.81 -1235.69 2081.3
1040.44 -1191.30 2006.6
1045.18 -1190.78 2005.7
1056.49 -1197.70 2017.3
1059.18 -1194.84 2012.5
1089.17 -1222.65 2059.4
1063.43 -1176.45 1981.5
1072.71 -1181.01 1989.2
1171.44 -1236.22 2082.2
1146.96 -1204.83 2029.3
1147.70 -1200.10 2021.4
1175.26 -1223.34 2060.5
1137.38 -1167.98 1967.3
1219.58 -1214.28 2045.3
1268.07 -1209.95 2038.0
1286.37 -1222.32 2058.8
1237.00 -1165.73 1963.5
1325.44 -1190.30 2004.9
1272.36 -1138.17 1917.1
1301.06 -1150.36 1937.6
1338.93 -1179.29 1986.3
1309.59 -1098.52 1850.3
1336.55 -1117.04 1881.5
1386.23 -1121.72 1889.4
1400.97 -1129.65 1902.7
1424.62 -1124.96 1894.8
1486.53 -1134.72 1911.3
1482.71 -1128.04 1900.0
1480.51 -1122.64 1890.9
1490.03 -1118.74 1884.3
1498.87 -1114.42 1877.1
1497.07 -1109.48 1868.7
608.08 -1319.42 2212.7
628.99 -1339.51 2246.4
640.62 -1351.76 2266.9
659.25 -1378.43 2311.7
640.18 -1326.51 2224.6
668.26 -1348.25 2261.0
731.63 -1304.46 2187.6
757.44 -1340.09 2247.4
754.69 -1325.03 2222.1
779.96 -1319.05 2212.1
804.55 -1340.91 2248.7
798.34 -1320.99 2215.3
830.36 -1364.16 2287.7
841.75 -1299.34 2179.0
840.18 -1288.27 2160.5
860.71 -1269.00 2128.1
880.83 -1282.22 2150.3
904.14 -1275.77 2139.5
944.40 -1248.35 2093.5
988.57 -1249.30 2095.1
1006.82 -1265.40 2122.1
995.61 -1244.51 2087.1
990.71 -1231.70 2065.6
1022.07 -1263.85 2119.5
1016.38 -1250.09 2096.4
997.06 -1219.81 2045.6
1033.77 -1258.02 2109.7
1061.01 -1284.38 2153.9
1043.43 -1256.48 2107.1
1046.48 -1253.59 2102.3
1042.39 -1242.23 2083.2
1044.17 -1237.93 2076.0
1057.73 -1234.91 2071.0
1050.52 -1220.31 2046.5
1053.34 -1217.43 2041.7
1032.13 -1186.95 1990.5
1023.77 -1171.47 1964.6
1045.41 -1184.46 1986.4
1100.14 -1240.35 2080.1
1130.77 -1268.67 2127.6
1138.66 -1271.32 2132.0
1140.29 -1266.99 2124.8
1127.18 -1246.40 2090.2
1070.45 -1178.01 1975.5
1127.86 -1223.62 2052.0
1135.20 -1225.81 2055.7
1149.01 -1234.92 2071.0
1143.02 -1222.77 2050.6
1162.94 -1238.32 2076.7
1178.19 -1248.77 2094.2
1135.03 -1186.62 1990.0
1160.96 -1192.05 1999.1
1187.05 -1213.43 2034.9
1148.11 -1168.43 1959.5
1186.44 -1202.12 2016.0
1232.90 -1238.29 2076.6
1189.96 -1159.71 1944.8
1218.44 -1177.49 1974.7
1252.03 -1204.89 2020.6
1220.29 -1169.44 1961.2
1235.11 -1178.74 1976.8
1258.54 -1196.13 2005.9
