ply
format ascii 1.0
element vertex 2087
property float x
property float y
property float z
end_header
-223.01 -701.84 2530.0
-219.71 -712.38 2568.0
-212.85 -711.72 2565.6
-203.31 -701.73 2529.6
-196.26 -700.00 2523.4
-191.63 -707.06 2548.8
-188.55 -720.52 2597.3
-183.53 -727.31 2621.8
-173.00 -711.96 2566.5
-165.50 -708.33 2553.4
-162.49 -724.45 2611.5
-153.97 -716.29 2582.1
-145.65 -708.38 2553.6
-144.39 -735.70 2652.1
-138.48 -740.87 2670.7
-130.20 -733.21 2643.1
-124.75 -741.58 2673.2
-115.37 -726.17 2617.7
-103.80 -694.19 2502.4
-97.03 -692.12 2495.0
-92.56 -707.41 2550.1
-85.47 -703.46 2535.8
-78.60 -700.85 2526.4
-71.29 -693.41 2499.6
-63.64 -680.90 2454.5
-57.59 -684.68 2468.1
-51.71 -691.67 2493.3
-45.79 -699.98 2523.3
-39.40 -702.69 2533.0
-32.29 -690.95 2490.7
-25.89 -692.57 2496.6
-20.40 -727.60 2622.9
-13.56 -725.48 2615.2
6.64 -710.51 2561.3
13.82 -739.38 2665.3
-371.56 -743.12 2654.0
-357.45 -728.39 2601.4
-334.44 -722.39 2580.0
-322.63 -711.11 2539.7
-311.38 -700.61 2502.2
-302.65 -695.46 2483.8
-295.39 -693.51 2476.8
-290.83 -697.99 2492.8
-289.25 -709.98 2535.6
-280.83 -705.34 2519.1
-270.20 -694.80 2481.4
-265.06 -698.20 2493.6
-257.76 -695.96 2485.6
-245.27 -679.22 2425.8
-238.85 -678.85 2424.5
-236.12 -689.21 2461.4
-224.42 -673.25 2404.5
-220.93 -681.72 2434.7
-224.64 -713.57 2548.5
-214.78 -724.88 2588.9
-204.71 -713.20 2547.1
-197.18 -709.83 2535.1
-194.47 -724.22 2586.5
-177.87 -738.85 2638.7
-164.89 -712.32 2544.0
-157.00 -706.51 2523.3
-153.41 -720.34 2572.7
-149.66 -734.71 2624.0
-145.65 -749.08 2675.3
-137.14 -740.56 2644.9
-128.64 -731.22 2611.5
-122.65 -735.89 2628.2
-115.21 -731.93 2614.0
-105.41 -711.53 2541.2
-97.63 -702.97 2510.6
-92.46 -713.27 2547.4
-86.55 -718.99 2567.8
-80.49 -724.44 2587.3
-72.80 -714.79 2552.8
-64.97 -701.63 2505.8
-58.70 -704.37 2515.6
-52.60 -710.06 2535.9
-46.27 -713.87 2549.5
-39.50 -710.93 2539.1
-32.96 -712.04 2543.0
-26.97 -728.23 2600.8
-20.60 -741.46 2648.1
-13.29 -717.48 2562.4
0.00 -725.57 2591.3
6.82 -736.63 2630.8
13.64 -736.35 2629.8
20.42 -734.99 2625.0
-357.53 -749.45 2652.0
-347.99 -743.75 2631.9
-328.90 -716.99 2537.2
-306.18 -695.28 2460.4
-301.87 -700.08 2477.3
-298.61 -707.57 2503.9
-297.78 -721.28 2552.4
-291.57 -722.29 2555.9
-278.72 -706.53 2500.2
-262.62 -681.56 2411.8
-252.87 -672.27 2378.9
-248.35 -676.77 2394.9
-230.35 -678.60 2401.3
-225.52 -682.82 2416.3
-229.13 -713.58 2525.1
-223.98 -718.07 2541.0
-212.11 -700.60 2479.2
-207.87 -708.06 2505.6
-200.10 -703.59 2489.8
-194.66 -707.25 2502.7
-193.90 -728.80 2579.0
-191.57 -745.75 2639.0
-186.17 -751.58 2659.6
-176.26 -738.95 2614.9
-162.85 -710.02 2512.5
-155.52 -706.33 2499.5
-152.96 -724.89 2565.2
-146.77 -727.17 2573.2
-139.70 -725.09 2565.9
-133.91 -729.80 2582.5
-128.27 -735.87 2604.0
-122.79 -743.56 2631.2
-115.64 -741.46 2623.8
-108.77 -741.00 2622.1
-103.59 -752.75 2663.7
-95.65 -744.67 2635.1
-87.14 -730.60 2585.3
-80.56 -731.74 2589.4
-72.53 -718.75 2543.4
-64.92 -707.65 2504.1
-58.95 -713.94 2526.4
-52.98 -721.86 2554.4
-46.66 -726.52 2570.9
-39.74 -721.93 2554.7
-33.13 -722.22 2555.7
-26.75 -729.04 2579.8
-20.12 -730.96 2586.6
-13.43 -731.79 2589.6
-6.81 -742.67 2628.1
27.28 -743.45 2630.8
-358.81 -744.70 2611.3
-350.10 -740.59 2596.9
-347.76 -750.07 2630.1
-334.24 -735.33 2578.4
-321.23 -721.13 2528.6
-318.21 -729.24 2557.1
-310.86 -727.55 2551.1
-304.79 -728.84 2555.7
-296.57 -724.96 2542.1
-283.85 -709.62 2488.3
-279.28 -714.44 2505.2
-270.46 -708.36 2483.8
-257.68 -691.35 2424.2
-250.17 -687.97 2412.4
-241.65 -681.59 2390.0
-237.78 -688.30 2413.5
-240.85 -716.05 2510.8
-240.74 -735.60 2579.4
-230.54 -724.56 2540.7
-211.84 -685.36 2403.2
-200.97 -690.84 2422.4
-195.96 -695.35 2438.2
-193.63 -709.97 2489.5
-186.63 -707.91 2482.3
-180.07 -733.61 2572.4
-176.27 -745.77 2615.0
-165.54 -728.37 2554.0
-160.73 -736.69 2583.2
-156.86 -750.21 2630.6
-149.41 -747.03 2619.5
-143.37 -750.97 2633.3
-138.30 -760.65 2667.2
-131.02 -758.55 2659.8
-124.05 -758.09 2658.2
-117.55 -760.64 2667.2
-111.17 -764.28 2679.9
-103.59 -759.69 2663.9
-93.63 -735.64 2579.5
-86.88 -735.15 2577.8
-81.76 -749.47 2628.0
-73.55 -735.54 2579.2
-65.87 -724.62 2540.9
-59.45 -726.58 2547.8
-53.08 -729.91 2559.4
-47.60 -748.04 2623.0
-33.68 -740.97 2598.2
-26.69 -733.86 2573.3
-20.25 -742.65 2604.1
-13.63 -749.52 2628.2
-6.70 -737.18 2584.9
0.00 -729.51 2558.0
6.90 -759.12 2661.9
-351.94 -765.98 2661.7
-340.32 -755.51 2625.3
-328.28 -743.66 2584.2
-322.39 -745.53 2590.7
-312.16 -737.23 2561.8
-297.64 -718.21 2495.7
-282.00 -695.60 2417.1
-272.10 -686.44 2385.3
-270.04 -697.08 2422.3
-274.75 -726.14 2523.3
-260.81 -723.75 2515.0
-246.52 -701.63 2438.1
-241.39 -705.10 2450.2
-243.26 -729.77 2535.9
-237.90 -733.52 2548.9
-223.17 -707.78 2459.5
-212.54 -693.88 2411.2
-211.17 -710.28 2468.2
-207.59 -720.07 2502.2
-201.06 -719.94 2501.7
-198.04 -732.76 2546.3
-190.83 -730.41 2538.1
-181.08 -717.85 2494.5
-180.88 -743.63 2584.1
-179.90 -768.04 2668.9
-171.83 -762.92 2651.1
-165.04 -763.31 2652.4
-159.16 -768.11 2669.1
-149.63 -754.97 2623.4
-141.44 -747.61 2597.9
-137.01 -760.41 2642.4
-129.99 -759.40 2638.8
-122.35 -754.51 2621.9
-115.10 -751.55 2611.6
-109.42 -759.09 2637.8
-102.44 -758.06 2634.2
-94.40 -748.45 2600.8
-89.44 -763.72 2653.8
-82.63 -764.33 2656.0
-72.90 -735.63 2556.3
-65.01 -721.58 2507.4
-58.44 -720.80 2504.7
-51.39 -713.09 2477.9
-45.37 -719.48 2500.1
-39.79 -736.10 2557.9
-32.85 -729.22 2534.0
-26.09 -723.98 2515.8
-19.86 -734.78 2553.3
-13.54 -751.66 2612.0
-6.75 -749.74 2605.3
0.00 -730.10 2537.0
6.73 -747.25 2596.6
14.02 -777.94 2703.3
-354.89 -764.37 2632.4
-328.54 -750.96 2586.2
-316.00 -737.34 2539.3
-304.05 -724.53 2495.2
-264.17 -704.44 2426.0
-272.16 -743.46 2560.4
-266.78 -746.98 2572.5
-253.12 -726.90 2503.3
-248.94 -733.73 2526.9
-243.46 -736.95 2538.0
-231.13 -719.07 2476.4
-225.63 -722.00 2486.5
-224.46 -739.38 2546.3
-216.92 -736.20 2535.4
-207.05 -724.67 2495.7
-203.54 -735.38 2532.6
-203.72 -760.54 2619.2
-200.92 -775.98 2672.4
-195.49 -781.96 2693.0
-184.78 -766.51 2639.8
-173.32 -746.60 2571.2
-169.35 -758.68 2612.8
-166.78 -778.28 2680.3
-145.78 -777.49 2677.6
-127.68 -752.62 2591.9
-103.89 -727.23 2504.5
-101.51 -757.95 2610.3
-89.87 -774.25 2666.4
-80.72 -753.40 2594.6
-70.96 -722.51 2488.3
-59.05 -734.87 2530.8
-53.97 -755.54 2602.0
-46.28 -740.52 2550.3
-39.43 -736.09 2535.0
-32.56 -729.42 2512.0
-25.85 -723.87 2492.9
-19.92 -743.68 2561.1
-13.78 -771.85 2658.2
-6.91 -774.09 2665.9
0.00 -759.32 2615.0
6.73 -753.74 2595.8
13.58 -760.42 2618.8
-351.28 -748.96 2556.5
-339.75 -752.78 2569.5
-323.26 -761.00 2597.6
-310.22 -745.86 2545.9
-297.57 -730.99 2495.2
-288.18 -723.65 2470.1
-275.32 -707.08 2413.5
-265.09 -696.64 2377.9
-258.88 -713.50 2435.5
-261.34 -738.30 2520.1
-255.07 -739.04 2522.6
-249.90 -743.13 2536.6
-243.11 -742.46 2534.3
-233.20 -731.99 2498.6
-230.07 -742.79 2535.4
-225.31 -748.83 2556.1
-214.31 -733.85 2504.9
-207.54 -732.88 2501.6
-206.86 -754.04 2573.9
-203.87 -767.92 2621.2
-197.83 -770.87 2631.3
-188.68 -789.65 2695.4
-176.10 -765.37 2612.5
-171.47 -775.03 2645.5
-142.34 -765.92 2614.4
-139.36 -787.36 2687.6
-128.82 -766.11 2615.0
-102.82 -774.58 2644.0
-89.87 -781.18 2666.5
-81.98 -771.96 2635.0
-73.18 -751.78 2566.1
-57.82 -726.02 2478.2
-53.65 -757.82 2586.7
-46.67 -753.36 2571.5
-40.12 -755.64 2579.3
-33.42 -755.38 2578.4
-26.45 -747.25 2550.7
-20.31 -764.98 2611.2
-13.60 -768.64 2623.7
-6.58 -743.63 2538.3
0.00 -749.25 2557.5
6.78 -766.12 2615.1
13.43 -758.80 2590.1
-361.75 -778.11 2632.7
-347.86 -762.61 2580.3
-345.05 -771.29 2609.6
-300.88 -762.22 2578.9
-285.46 -739.60 2502.4
-272.35 -722.05 2443.0
-263.39 -714.90 2418.9
-256.98 -714.52 2417.6
-252.75 -720.34 2437.2
-249.77 -730.11 2470.3
-248.13 -744.39 2518.6
-245.59 -756.69 2560.2
-239.99 -759.97 2571.3
-226.96 -739.24 2501.2
-214.33 -740.40 2505.1
-221.04 -787.45 2664.3
-212.79 -782.51 2647.6
-202.02 -767.68 2597.4
-190.43 -748.59 2532.8
-182.79 -744.20 2518.0
-181.18 -764.97 2588.2
-174.88 -766.79 2594.4
-169.92 -774.83 2621.6
-167.50 -795.60 2691.9
-161.91 -802.51 2715.3
-147.74 -765.55 2590.2
-126.51 -759.04 2568.2
-120.27 -761.68 2577.1
-113.93 -764.03 2585.1
-108.87 -775.72 2624.6
-102.97 -782.59 2647.9
-95.18 -775.01 2622.2
-87.61 -768.28 2599.4
-80.34 -763.23 2582.4
-74.58 -772.92 2615.2
-67.23 -766.46 2593.3
-58.97 -746.95 2527.3
-52.60 -749.54 2536.0
-45.68 -743.90 2517.0
-39.33 -747.34 2528.6
-33.71 -768.62 2600.6
-27.42 -781.39 2643.8
-20.71 -786.79 2662.1
-13.63 -777.17 2629.5
-6.69 -762.15 2578.7
0.00 -780.86 2642.0
6.95 -792.77 2682.3
13.69 -780.57 2641.0
20.54 -780.56 2641.0
-350.31 -774.72 2598.4
-339.53 -765.61 2567.9
-338.03 -777.47 2607.7
-330.28 -775.15 2599.9
-314.40 -753.25 2526.4
-302.25 -739.56 2480.5
-304.20 -760.49 2550.7
-301.00 -769.22 2580.0
-294.17 -768.86 2578.8
-270.57 -740.85 2484.8
-255.38 -716.31 2402.5
-254.95 -732.97 2458.4
-255.48 -753.34 2526.7
-248.90 -753.24 2526.4
-241.85 -751.70 2521.2
-235.81 -753.29 2526.6
-222.47 -730.97 2451.7
-211.64 -737.54 2473.7
-205.59 -788.11 2643.4
-194.25 -770.30 2583.6
-181.59 -773.42 2594.1
-178.18 -788.09 2643.3
-175.94 -809.31 2714.5
-169.16 -810.57 2718.7
-159.11 -795.57 2668.4
-147.96 -773.43 2594.1
-115.03 -778.18 2610.0
-109.63 -787.96 2642.9
-103.46 -793.18 2660.3
-95.01 -780.40 2617.5
-87.10 -770.47 2584.2
-78.53 -752.54 2524.0
-71.66 -749.16 2512.7
-66.76 -767.78 2575.2
-60.65 -774.96 2599.3
-53.44 -768.15 2576.4
-45.84 -753.04 2525.7
-38.71 -741.93 2488.5
-32.58 -749.38 2513.5
-27.22 -782.55 2624.7
0.00 -804.30 2697.7
6.89 -792.58 2658.4
14.13 -812.29 2724.5
-336.31 -780.25 2594.4
-329.08 -779.05 2590.4
-313.59 -757.83 2519.9
-289.57 -746.46 2482.1
-290.38 -765.55 2545.6
-286.83 -773.78 2572.9
-269.86 -745.33 2478.3
-256.01 -724.32 2408.4
-257.04 -745.42 2478.6
-259.25 -771.11 2564.0
-254.17 -775.88 2579.9
-245.26 -790.29 2627.8
-234.43 -776.97 2583.5
-223.24 -761.64 2532.5
-216.06 -759.50 2525.4
-215.34 -780.61 2595.6
-214.64 -803.16 2670.6
-208.20 -805.03 2676.8
-197.63 -790.53 2628.6
-189.32 -784.34 2608.0
-188.21 -808.61 2688.7
-171.30 -827.97 2753.1
-154.13 -812.67 2702.2
-146.31 -808.18 2687.3
-117.31 -800.50 2661.8
-107.96 -782.74 2602.7
-102.31 -791.16 2630.7
-94.35 -781.73 2599.4
-89.00 -794.17 2640.7
-82.49 -797.40 2651.5
-73.30 -772.99 2570.3
-66.72 -773.90 2573.3
-61.12 -787.77 2619.4
-54.39 -788.67 2622.4
-45.58 -755.31 2511.5
-26.49 -768.34 2554.8
-20.52 -793.41 2638.2
-13.64 -790.83 2629.6
-6.92 -802.65 2668.9
0.00 -814.75 2709.1
6.89 -799.77 2659.3
14.04 -814.16 2707.2
-344.44 -774.99 2554.9
-341.19 -782.72 2580.4
-341.98 -800.24 2638.2
-332.59 -794.15 2618.1
-326.85 -796.69 2626.4
-312.83 -778.75 2567.3
-294.02 -747.82 2465.4
-288.26 -749.47 2470.8
-284.75 -757.18 2496.2
-276.55 -752.47 2480.7
-266.87 -743.43 2450.9
-260.08 -742.17 2446.7
-251.92 -736.87 2429.2
-245.39 -736.18 2427.0
-247.79 -762.94 2515.2
-232.66 -800.63 2639.4
-215.50 -787.93 2597.6
-183.67 -795.89 2623.8
-177.92 -800.65 2639.5
-169.06 -791.22 2608.4
-166.43 -811.33 2674.7
-134.10 -825.78 2722.4
-116.22 -799.86 2636.9
-90.53 -756.58 2494.2
-87.71 -789.42 2602.5
-68.70 -803.81 2649.9
-62.06 -806.76 2659.6
-54.99 -804.19 2651.2
-45.95 -767.95 2531.7
-38.68 -754.34 2486.8
-33.44 -782.52 2579.7
-26.55 -776.44 2559.7
-19.41 -757.01 2495.6
-12.98 -759.05 2502.4
-6.60 -772.70 2547.4
0.00 -813.05 2680.4
7.08 -827.86 2729.2
13.81 -807.82 2663.1
-339.69 -785.95 2569.1
-321.26 -773.65 2528.9
-317.63 -780.84 2552.4
-314.11 -788.62 2577.8
-304.80 -781.87 2555.8
-295.15 -773.95 2529.8
-287.69 -771.54 2522.0
-277.31 -760.98 2487.5
-265.85 -746.92 2441.5
-239.74 -744.44 2433.4
-241.06 -768.79 2513.0
-237.89 -779.74 2548.8
-234.96 -792.15 2589.4
-234.26 -813.02 2657.6
-226.03 -808.23 2641.9
-192.04 -781.41 2554.3
-192.79 -812.48 2655.8
-187.47 -819.33 2678.2
-175.99 -798.74 2610.9
-169.19 -798.57 2610.3
-168.44 -828.19 2707.1
-135.59 -800.00 2615.0
-120.55 -790.25 2583.1
-116.94 -811.67 2653.2
-109.95 -810.88 2650.6
-85.91 -779.81 2549.0
-81.51 -801.50 2619.9
-75.43 -809.16 2645.0
-68.53 -808.63 2643.2
-59.81 -784.11 2563.1
-39.55 -777.78 2542.4
-33.92 -800.63 2617.1
-26.67 -786.90 2572.2
-19.47 -765.85 2503.4
-13.02 -767.91 2510.1
-6.55 -772.60 2525.5
0.00 -801.86 2621.1
7.03 -829.06 2710.0
13.93 -821.74 2686.1
21.07 -828.75 2709.0
-335.35 -798.13 2587.0
-323.92 -786.67 2549.8
-317.40 -786.90 2550.6
-311.11 -787.71 2553.2
-300.39 -777.09 2518.8
-289.73 -766.17 2483.4
-284.23 -768.73 2491.7
-275.94 -763.65 2475.2
-267.52 -757.98 2456.9
-260.11 -754.95 2447.0
-252.25 -750.44 2432.4
-248.79 -759.13 2460.6
-241.81 -757.25 2454.5
-234.04 -752.73 2439.8
-233.36 -771.40 2500.3
-233.06 -792.42 2568.5
-230.98 -808.45 2620.4
-221.06 -797.15 2583.8
-212.35 -789.67 2559.6
-212.49 -815.69 2643.9
-208.05 -825.25 2674.9
-203.08 -833.34 2701.1
-188.81 -832.15 2697.2
-178.57 -817.28 2649.0
-172.96 -823.29 2668.5
-169.63 -841.07 2726.2
-164.63 -851.79 2760.9
-149.47 -847.01 2745.4
-136.78 -813.85 2637.9
-128.59 -805.41 2610.6
-107.37 -798.59 2588.5
-88.58 -810.89 2628.3
-83.08 -823.92 2670.6
-76.06 -822.80 2666.9
-68.13 -810.77 2627.9
-58.54 -773.97 2508.7
-45.36 -771.10 2499.4
-39.34 -780.27 2529.1
-33.22 -790.61 2562.6
-26.98 -802.72 2601.9
-20.36 -807.75 2618.2
-13.62 -810.41 2626.8
-6.87 -818.09 2651.7
0.00 -827.82 2683.2
7.01 -834.01 2703.3
-339.90 -815.76 2622.1
-328.02 -803.32 2582.1
-321.42 -803.56 2582.9
-313.66 -800.84 2574.1
-301.87 -787.48 2531.2
-288.86 -770.28 2475.9
-281.32 -767.24 2466.1
-276.48 -771.58 2480.1
-271.88 -776.80 2496.9
-263.35 -770.79 2477.5
-254.23 -762.70 2451.5
-253.61 -780.33 2508.2
-249.04 -786.43 2527.8
-240.53 -780.10 2507.5
-240.47 -801.58 2576.5
-236.52 -810.92 2606.5
-230.15 -812.28 2610.9
-219.68 -798.82 2567.6
-210.53 -789.51 2537.7
-214.48 -830.24 2668.6
-204.22 -845.06 2716.3
-196.38 -841.65 2705.3
-186.67 -829.64 2666.7
-176.51 -814.65 2618.5
-173.70 -833.76 2679.9
-164.97 -860.69 2766.5
-156.35 -852.80 2741.2
-132.87 -839.18 2697.4
-88.97 -821.26 2639.8
-68.18 -818.17 2629.8
-58.96 -786.14 2526.9
-51.66 -774.89 2490.7
-46.19 -791.86 2545.3
-40.34 -806.74 2593.1
-33.43 -802.32 2578.9
-26.60 -797.88 2564.6
-19.93 -797.01 2561.8
-13.24 -794.64 2554.2
-6.76 -810.69 2605.8
6.97 -836.24 2687.9
14.08 -844.85 2715.6
-343.96 -816.07 2601.4
-330.69 -800.27 2551.0
-326.10 -805.27 2567.0
-319.42 -805.20 2566.8
-311.47 -801.87 2556.1
-303.91 -799.42 2548.3
-295.17 -793.69 2530.1
-283.50 -779.62 2485.2
-274.91 -773.57 2465.9
-274.47 -790.74 2520.7
-270.02 -796.90 2540.3
-258.58 -782.20 2493.4
-255.05 -791.32 2522.5
-255.22 -812.67 2590.6
-252.02 -824.18 2627.2
-247.22 -830.92 2648.7
-238.16 -823.35 2624.6
-232.74 -828.29 2640.4
-223.10 -818.02 2607.6
-210.06 -794.31 2532.0
-210.34 -821.02 2617.2
-191.66 -858.93 2738.0
-178.88 -832.49 2653.7
-173.88 -841.58 2682.7
-169.08 -852.46 2717.4
-156.95 -825.69 2632.1
-150.36 -827.00 2636.2
-148.01 -852.81 2718.5
-141.92 -858.60 2737.0
-132.16 -841.66 2683.0
-125.18 -841.46 2682.3
-119.87 -853.21 2719.8
-112.79 -853.00 2719.1
-102.42 -826.16 2633.6
-85.47 -795.48 2535.8
-82.84 -835.34 2662.8
-75.67 -832.40 2653.5
-67.88 -821.39 2618.3
-59.65 -801.98 2556.5
-52.12 -788.26 2512.7
-46.40 -802.06 2556.7
-39.77 -802.09 2556.8
0.00 -841.09 2681.2
7.07 -856.06 2728.9
28.19 -852.72 2718.2
-342.71 -819.81 2591.9
-333.88 -814.68 2575.7
-329.71 -820.91 2595.4
-323.31 -821.75 2598.0
-317.82 -824.98 2608.2
-312.73 -829.40 2622.2
-303.03 -821.54 2597.4
-290.32 -804.97 2545.0
-282.42 -801.28 2533.3
-282.22 -819.79 2591.8
-276.38 -822.39 2600.1
-263.70 -804.29 2542.8
-251.51 -786.77 2487.4
-242.97 -780.05 2466.2
-243.00 -801.25 2533.2
-241.27 -817.64 2585.1
-231.09 -805.50 2546.7
-224.53 -805.67 2547.2
-222.85 -823.87 2604.7
-217.56 -829.44 2622.4
-212.63 -836.82 2645.7
-209.88 -853.51 2698.5
-200.06 -841.64 2660.9
-191.68 -835.16 2640.4
-188.86 -853.36 2698.0
-180.61 -847.47 2679.4
-176.40 -860.85 2721.7
-172.22 -875.43 2767.7
-159.05 -843.64 2667.2
-151.88 -842.25 2662.8
-150.54 -874.58 2765.1
-145.42 -887.04 2804.5
-136.90 -879.01 2779.1
-96.32 -839.37 2653.8
-87.01 -816.53 2581.5
-80.62 -819.61 2591.3
-73.58 -816.05 2580.0
-66.03 -805.55 2546.8
-60.05 -814.04 2573.7
-54.29 -827.95 2617.6
-47.70 -831.31 2628.3
-40.26 -818.67 2588.3
-32.77 -799.70 2528.3
-26.12 -796.71 2518.9
-13.40 -817.25 2583.8
-6.86 -836.55 2644.8
0.00 -856.76 2708.7
-320.12 -837.76 2627.1
-315.32 -843.13 2644.0
-305.67 -835.51 2620.1
-298.21 -833.62 2614.1
-283.04 -828.92 2599.4
-266.00 -797.99 2502.4
-257.70 -792.44 2485.0
-250.17 -789.00 2474.2
-237.72 -790.27 2478.2
-241.98 -826.76 2592.6
-237.55 -834.81 2617.9
-226.04 -817.73 2564.3
-219.27 -817.29 2562.9
-212.91 -818.36 2566.3
-206.44 -819.12 2568.7
-203.66 -835.03 2618.5
-194.77 -826.08 2590.5
-190.71 -837.74 2627.1
-192.98 -879.11 2756.8
-164.20 -878.13 2753.7
-156.92 -877.34 2751.2
-121.83 -881.50 2764.3
-110.97 -853.06 2675.1
-102.15 -837.65 2626.8
-97.22 -854.12 2678.4
-83.22 -853.04 2675.0
-74.12 -828.81 2599.0
-66.20 -814.28 2553.5
-60.01 -820.10 2571.7
-54.11 -831.99 2609.0
-47.37 -832.33 2610.1
-40.72 -834.79 2617.8
-33.73 -829.66 2601.7
-27.11 -833.63 2614.2
-20.64 -846.41 2654.2
-13.96 -858.57 2692.4
0.00 -866.48 2717.2
7.08 -870.73 2730.5
-351.22 -837.54 2605.2
-341.58 -830.51 2583.4
-338.41 -839.26 2610.6
-329.07 -850.09 2644.3
-316.20 -834.22 2594.9
-309.44 -834.15 2594.7
-303.13 -835.29 2598.3
-299.17 -843.12 2622.6
-291.50 -840.60 2614.8
-274.28 -809.77 2518.9
-260.76 -788.65 2453.2
-256.24 -794.33 2470.8
-252.19 -801.83 2494.2
-244.94 -799.27 2486.2
-242.28 -811.95 2525.7
-246.13 -847.80 2637.2
-227.79 -855.96 2662.5
-219.44 -850.33 2645.0
-212.93 -851.71 2649.3
-209.49 -865.91 2693.5
-200.76 -858.43 2670.2
-196.98 -872.32 2713.4
-168.47 -870.42 2707.5
-160.23 -863.83 2687.0
-153.22 -904.71 2814.2
-141.65 -878.23 2731.8
-134.72 -879.25 2735.0
-127.07 -875.37 2722.9
-118.64 -865.37 2691.8
-109.82 -851.09 2647.4
-101.93 -842.60 2621.0
-97.63 -864.70 2689.7
-61.03 -840.83 2615.5
-53.09 -822.82 2559.5
-46.21 -818.57 2546.3
-33.97 -842.50 2620.7
0.00 -870.42 2707.5
-360.76 -867.21 2675.9
-346.19 -848.51 2618.3
-316.48 -824.16 2543.1
-316.19 -840.93 2594.9
-311.69 -846.99 2613.6
-307.31 -853.65 2634.1
-296.47 -842.23 2598.9
-282.95 -822.53 2538.1
-271.80 -808.94 2496.2
-263.79 -804.23 2481.6
-254.67 -795.84 2455.7
-244.01 -802.66 2476.8
-247.09 -834.77 2575.9
-245.95 -853.99 2635.2
-239.34 -854.79 2637.6
-233.14 -857.12 2644.8
-226.97 -859.75 2652.9
-222.34 -868.52 2680.0
-195.31 -871.92 2690.5
-185.24 -857.61 2646.3
-178.41 -857.75 2646.8
-167.01 -907.69 2800.9
-151.14 -899.62 2776.0
-143.41 -896.34 2765.9
-127.73 -887.00 2737.0
-109.66 -856.69 2643.5
-104.22 -868.47 2679.9
-97.45 -870.09 2684.9
-91.55 -880.33 2716.4
-61.91 -859.92 2653.5
-53.70 -839.00 2588.9
-46.68 -833.49 2571.9
-40.25 -838.46 2587.2
-35.12 -877.94 2709.1
7.01 -876.16 2703.6
-360.23 -872.87 2672.1
-346.68 -856.50 2621.9
-320.47 -841.23 2575.2
-314.23 -842.39 2578.8
-304.25 -833.37 2551.1
-297.49 -832.98 2549.9
-284.82 -815.61 2496.8
-273.67 -801.93 2454.9
-259.77 -798.32 2443.8
-253.59 -798.82 2445.4
-251.04 -811.06 2482.8
-255.20 -846.19 2590.4
-247.81 -843.90 2583.4
-235.69 -824.91 2525.2
-231.34 -832.82 2549.5
-226.86 -840.73 2573.7
-220.07 -840.28 2572.3
-214.63 -845.09 2587.0
-210.63 -856.09 2620.7
-208.37 -875.14 2679.0
-208.80 -907.20 2777.1
-202.60 -911.69 2790.9
-179.49 -869.84 2662.8
-177.35 -893.84 2736.2
-153.45 -920.70 2818.5
-129.23 -904.58 2769.1
-118.63 -879.24 2691.5
-113.95 -897.32 2746.9
-105.43 -885.62 2711.1
-96.07 -864.59 2646.7
-88.63 -859.07 2629.8
-81.44 -855.10 2617.7
-75.23 -861.68 2637.8
-68.47 -862.67 2640.8
-61.98 -867.69 2656.2
-55.59 -875.49 2680.1
-47.90 -862.18 2639.3
-40.97 -860.35 2633.7
-34.50 -869.39 2661.4
-28.29 -891.15 2728.0
-364.83 -874.21 2655.1
-346.75 -846.87 2572.1
-333.62 -847.39 2573.6
-335.79 -870.31 2643.2
-329.85 -872.73 2650.6
-313.53 -847.19 2573.0
-281.37 -812.13 2466.5
-277.68 -820.12 2490.8
-270.67 -818.46 2485.8
-267.41 -828.31 2515.7
-265.26 -842.21 2557.9
-266.82 -868.87 2638.9
-259.29 -866.58 2631.9
-239.64 -822.55 2498.2
-235.33 -830.20 2521.4
-238.38 -864.97 2627.0
-232.03 -866.71 2632.3
-223.39 -859.71 2611.0
-206.64 -904.96 2748.5
-193.59 -910.57 2765.5
-168.57 -930.79 2826.9
-162.34 -937.17 2846.3
-154.67 -935.41 2841.0
-145.85 -926.16 2812.9
-138.81 -927.83 2817.9
-129.92 -916.69 2784.1
-122.93 -918.35 2789.1
-113.82 -903.44 2743.9
-93.86 -851.41 2585.8
-87.45 -854.29 2594.6
-82.91 -877.49 2665.0
-40.95 -866.83 2632.7
-33.57 -852.79 2590.0
-26.87 -853.12 2591.0
-20.66 -874.72 2656.6
-14.21 -902.57 2741.2
-363.90 -878.86 2648.4
-350.04 -861.64 2596.5
-347.03 -870.97 2624.6
-349.60 -894.99 2697.0
-340.20 -888.69 2678.0
-323.62 -862.98 2600.5
-318.80 -868.23 2616.3
-313.57 -872.54 2629.3
-303.98 -864.64 2605.5
-301.28 -876.46 2641.1
-296.09 -881.38 2656.0
-287.12 -875.03 2636.8
-275.23 -859.26 2589.3
-264.96 -847.88 2555.0
-261.26 -857.48 2583.9
-248.67 -837.61 2524.0
-237.80 -845.51 2547.9
-216.59 -924.10 2784.7
-200.36 -915.94 2760.1
-172.50 -919.98 2772.2
-166.74 -927.97 2796.3
-149.03 -953.81 2874.2
-141.64 -954.24 2875.5
-122.62 -923.29 2782.2
-110.94 -887.51 2674.4
-82.43 -879.31 2649.7
-62.77 -892.70 2690.1
-54.81 -877.00 2642.7
-48.31 -883.34 2661.8
-40.99 -874.55 2635.4
-33.78 -864.82 2606.0
-27.20 -870.51 2623.2
-20.60 -879.03 2648.9
-13.93 -891.65 2686.9
-7.03 -899.21 2709.7
-361.31 -896.34 2680.1
-346.29 -893.42 2671.4
-319.25 -876.24 2620.0
-318.50 -893.18 2670.6
-312.87 -896.89 2681.7
-300.94 -882.31 2638.1
-286.82 -860.46 2572.8
-279.71 -859.10 2568.7
-270.01 -849.53 2540.1
-262.02 -845.00 2526.6
-260.68 -862.25 2578.2
-250.15 -849.19 2539.1
-239.45 -834.85 2496.2
-237.97 -852.72 2549.7
-206.54 -918.75 2747.1
-198.85 -950.07 2840.7
-172.13 -925.18 2766.3
-164.75 -924.04 2762.9
-161.66 -947.92 2834.3
-151.96 -933.47 2791.1
-143.66 -926.62 2770.6
-137.29 -932.12 2787.1
-129.02 -924.61 2764.6
-119.56 -907.28 2712.8
-111.83 -901.67 2696.0
-102.39 -880.52 2632.8
-80.01 -860.12 2571.8
-74.38 -872.23 2608.0
-69.32 -894.17 2673.6
-61.48 -881.22 2634.9
-53.96 -870.16 2601.8
-47.74 -879.72 2630.4
-40.67 -874.36 2614.4
-33.62 -867.41 2593.6
-27.30 -880.44 2632.5
-20.87 -897.27 2682.9
-367.48 -901.36 2674.4
-362.18 -905.44 2686.5
-344.92 -896.80 2660.8
-327.84 -869.79 2580.7
-327.92 -888.12 2635.1
-324.74 -898.21 2665.0
-317.69 -897.82 2663.9
-309.55 -894.26 2653.3
-295.34 -872.59 2589.0
-281.56 -851.21 2525.6
-274.77 -850.48 2523.4
-266.09 -843.70 2503.3
-259.27 -842.63 2500.1
-264.68 -882.25 2617.7
-260.64 -891.68 2645.6
-244.25 -858.16 2546.2
-236.64 -854.53 2535.4
-206.59 -926.10 2747.8
-206.50 -958.76 2844.7
-195.92 -943.31 2798.8
-188.50 -942.50 2796.4
-177.41 -960.96 2851.2
-136.53 -934.14 2771.6
-122.14 -934.02 2771.3
-113.87 -925.18 2745.0
-106.91 -926.54 2749.1
-99.03 -919.60 2728.5
-90.21 -902.12 2676.6
-81.33 -881.12 2614.3
-73.70 -870.96 2584.2
-66.93 -870.06 2581.5
-60.84 -878.73 2607.2
-54.88 -891.87 2646.2
-34.64 -900.60 2672.1
-26.84 -872.20 2587.8
-20.90 -905.75 2687.4
-361.14 -909.79 2678.8
-355.17 -912.30 2686.2
-346.12 -906.83 2670.0
-334.16 -893.36 2630.4
-328.72 -897.13 2641.5
-321.05 -894.83 2634.7
-313.07 -891.57 2625.1
-304.37 -886.05 2608.9
-298.76 -889.48 2619.0
-292.88 -892.27 2627.2
-281.94 -879.38 2589.2
-268.59 -858.16 2526.8
-257.61 -865.30 2547.8
-260.72 -898.80 2646.4
-251.29 -889.71 2619.6
-241.65 -879.33 2589.1
-189.31 -953.82 2808.4
-181.14 -949.15 2794.7
-178.86 -976.26 2874.5
-171.15 -974.79 2870.2
-159.57 -950.20 2797.7
-150.90 -941.33 2771.6
-135.30 -932.88 2746.8
-113.27 -927.39 2730.6
-103.26 -901.77 2655.1
-96.90 -906.67 2669.6
-89.25 -899.35 2648.0
-81.95 -894.59 2634.0
-75.50 -899.15 2647.5
-67.51 -884.42 2604.1
-60.46 -879.97 2591.0
-54.33 -889.66 2619.5
-34.88 -913.89 2690.8
-26.85 -879.18 2588.6
-14.44 -945.78 2784.7
-374.76 -916.09 2676.9
-361.61 -917.95 2682.3
-352.91 -913.41 2669.0
-341.71 -902.11 2636.0
-328.05 -883.73 2582.3
-320.51 -881.41 2575.6
-313.47 -880.37 2572.5
-306.32 -879.01 2568.5
-304.35 -892.76 2608.7
-305.18 -915.53 2675.3
-286.64 -900.86 2632.4
-271.28 -873.38 2552.1
-258.38 -852.65 2491.5
-256.17 -867.03 2533.5
-257.17 -893.34 2610.4
-247.93 -884.51 2584.6
-238.03 -872.77 2550.3
-242.59 -914.89 2673.4
-224.36 -955.33 2791.5
-201.49 -985.07 2878.4
-186.36 -946.13 2764.7
-179.52 -947.89 2769.8
-178.72 -982.93 2872.2
-148.42 -979.57 2862.4
-135.71 -942.81 2755.0
-127.57 -935.48 2733.5
-123.24 -956.93 2796.2
-114.28 -942.79 2754.9
-103.95 -914.73 2672.9
-97.33 -917.72 2681.6
-89.75 -911.32 2662.9
-82.38 -906.21 2648.0
-76.14 -913.72 2670.0
-68.34 -902.12 2636.1
-60.87 -892.79 2608.8
-54.37 -897.04 2621.2
-47.25 -890.93 2603.4
-40.07 -881.58 2576.0
-33.91 -895.20 2615.9
-27.60 -910.77 2661.3
-377.22 -929.09 2694.5
-364.17 -913.87 2650.3
-347.42 -888.60 2577.0
-339.62 -903.38 2619.9
-338.17 -917.88 2662.0
-327.51 -907.46 2631.7
-317.80 -899.30 2608.1
-308.66 -892.42 2588.1
-304.99 -901.41 2614.2
-302.26 -913.64 2649.7
-292.11 -903.50 2620.3
-286.21 -906.32 2628.4
-276.76 -897.79 2603.7
-267.05 -887.95 2575.2
-269.00 -917.36 2660.5
-261.24 -914.33 2651.7
-242.59 -872.00 2528.9
-242.31 -920.77 2670.3
-231.78 -934.14 2709.1
-214.83 -985.23 2857.3
-189.96 -971.73 2818.1
-181.52 -965.70 2800.6
-180.34 -999.36 2898.2
-149.13 -991.74 2876.2
-137.37 -961.58 2788.7
-129.32 -955.50 2771.0
-116.07 -964.81 2798.1
-105.52 -935.58 2713.3
-100.07 -950.65 2757.0
-93.25 -953.98 2766.7
-82.82 -917.89 2662.0
-74.03 -895.14 2596.0
-67.16 -893.24 2590.5
-60.45 -893.29 2590.6
-53.95 -896.92 2601.2
-46.87 -890.45 2582.4
-39.95 -885.59 2568.3
-33.97 -903.55 2620.4
-27.78 -923.78 2679.1
-372.25 -941.17 2709.1
-348.29 -897.51 2583.5
-326.58 -893.10 2570.8
-319.54 -892.05 2567.7
-318.46 -907.95 2613.5
-318.15 -926.79 2667.7
-309.79 -922.47 2655.3
-302.23 -920.43 2649.4
-292.19 -910.55 2621.0
-286.49 -914.05 2631.1
-284.04 -928.31 2672.1
-263.90 -930.60 2678.7
-249.70 -904.34 2603.1
-247.93 -922.84 2656.4
-245.53 -940.04 2705.9
-237.57 -936.30 2695.1
-208.45 -997.58 2871.5
-187.61 -1005.59 2894.6
-178.67 -997.55 2871.4
-165.22 -1006.34 2896.7
-152.03 -970.09 2792.4
-139.48 -934.49 2689.9
-134.89 -951.31 2738.3
-110.88 -928.66 2673.1
-97.86 -936.70 2696.2
-85.51 -954.88 2748.6
-74.27 -904.76 2604.3
-53.12 -889.82 2561.3
-33.52 -898.46 2586.2
-27.38 -917.18 2640.1
-7.16 -959.56 2762.1
-363.54 -943.80 2696.6
-345.63 -914.91 2614.0
-312.84 -898.58 2567.4
-282.17 -906.99 2591.4
-268.54 -884.20 2526.3
-265.46 -895.92 2559.8
-261.64 -905.67 2587.6
-259.71 -922.65 2636.2
-257.62 -939.97 2685.6
-252.82 -948.07 2708.8
-247.90 -956.17 2731.9
-236.38 -938.59 2681.7
-228.67 -935.48 2672.8
-226.00 -953.45 2724.1
-209.39 -974.73 2784.9
-204.25 -984.78 2813.7
-199.56 -997.80 2850.8
-185.20 -1000.08 2857.4
-175.24 -985.72 2816.3
-169.65 -995.75 2845.0
-162.62 -997.87 2851.0
-150.73 -968.96 2768.5
-139.27 -940.04 2685.8
-135.71 -964.24 2755.0
-122.32 -971.38 2775.4
-110.60 -933.19 2666.2
-102.67 -924.03 2640.1
-97.48 -939.96 2685.6
-92.40 -959.51 2741.5
-77.71 -953.71 2724.9
-67.13 -906.21 2589.2
-53.55 -903.67 2581.9
-46.76 -901.72 2576.4
-40.31 -907.04 2591.6
-34.59 -933.83 2668.1
-28.55 -963.59 2753.1
-14.24 -960.98 2745.7
-373.32 -940.21 2666.6
-352.04 -938.77 2662.5
-333.47 -907.03 2572.5
-324.16 -899.70 2551.7
-326.14 -924.07 2620.8
-318.98 -923.01 2617.8
-316.64 -936.15 2655.0
-312.24 -943.67 2676.4
-298.33 -922.10 2615.2
-289.22 -914.73 2594.3
-274.70 -889.49 2522.7
-266.62 -884.41 2508.3
-268.46 -912.76 2588.7
-262.19 -914.29 2593.1
-257.47 -921.46 2613.4
-259.04 -952.13 2700.4
-248.63 -966.12 2740.0
-228.09 -939.99 2665.9
-224.32 -984.12 2791.1
-207.84 -1009.52 2863.1
-195.84 -986.46 2797.7
-179.32 -975.48 2766.6
-174.86 -990.89 2810.3
-167.60 -991.03 2810.7
-159.21 -984.19 2791.3
-148.55 -962.07 2728.5
-135.60 -970.60 2752.8
-123.10 -984.76 2792.9
-111.41 -946.98 2685.8
-105.52 -956.70 2713.3
-93.18 -974.81 2764.7
-84.02 -952.28 2700.8
-78.61 -971.96 2756.6
-71.03 -966.04 2739.8
-62.11 -938.50 2661.7
-55.03 -935.55 2653.4
-48.75 -947.23 2686.5
-42.66 -966.89 2742.2
-7.14 -970.65 2752.9
0.00 -970.98 2753.8
-368.44 -934.75 2631.7
-346.07 -929.64 2617.3
-336.47 -921.94 2595.7
-336.02 -939.49 2645.1
-329.96 -941.75 2651.4
-315.64 -920.07 2590.4
-309.57 -921.98 2595.8
-301.50 -917.91 2584.3
-273.78 -914.84 2575.7
-275.83 -944.71 2659.8
-268.99 -944.93 2660.4
-263.36 -949.48 2673.2
-253.37 -964.23 2714.7
-235.05 -975.83 2747.4
-226.78 -1002.23 2821.7
-193.03 -1017.11 2863.6
-186.00 -1019.27 2869.7
-178.94 -1021.42 2875.7
-169.43 -1009.20 2841.3
-157.84 -982.93 2767.4
-136.88 -986.97 2778.8
-121.63 -980.16 2759.6
-112.69 -964.87 2716.5
-93.10 -981.18 2762.4
-80.94 -924.04 2601.6
-73.10 -910.39 2563.1
-69.44 -951.27 2678.2
-63.73 -970.06 2731.1
-56.59 -969.11 2728.5
-50.25 -983.54 2769.1
-42.72 -975.55 2746.6
-35.91 -983.94 2770.2
-21.30 -972.61 2738.3
-14.27 -977.65 2752.5
-382.56 -959.88 2682.9
-360.02 -955.43 2670.5
-343.20 -928.65 2595.6
-335.84 -926.92 2590.8
-327.20 -921.50 2575.6
-313.86 -902.36 2522.1
-302.18 -906.54 2533.8
-297.76 -913.14 2552.3
-285.99 -896.97 2507.1
-276.19 -907.48 2536.4
-270.38 -910.05 2543.6
-264.04 -910.93 2546.1
-267.16 -945.35 2642.3
-248.44 -952.36 2661.9
-236.06 -958.12 2678.0
-234.62 -981.15 2742.3
-225.30 -971.60 2715.6
-190.34 -1010.25 2823.7
-171.53 -1029.19 2876.6
-131.44 -954.66 2668.3
-125.59 -962.85 2691.2
-117.26 -951.84 2660.4
-110.92 -956.65 2673.9
-105.97 -974.91 2724.9
-99.12 -977.02 2730.8
-90.74 -963.29 2692.4
-80.55 -926.32 2589.1
-67.57 -932.51 2606.4
-62.49 -958.15 2678.1
-55.98 -965.61 2698.9
-49.55 -976.77 2730.1
-41.93 -964.35 2695.4
-34.48 -951.58 2659.7
-14.28 -985.66 2754.9
-364.74 -956.57 2654.4
-350.16 -936.02 2597.4
-342.18 -932.60 2587.9
-333.15 -926.14 2570.0
-322.19 -913.96 2536.2
-317.91 -920.61 2554.6
-316.16 -935.02 2594.6
-312.41 -944.03 2619.6
-306.36 -946.31 2625.9
-288.64 -911.83 2530.3
-277.59 -918.70 2549.3
-276.13 -936.13 2597.7
-267.61 -929.95 2580.5
-268.75 -957.84 2657.9
-268.37 -981.69 2724.1
-257.59 -967.72 2685.4
-253.40 -978.40 2715.0
-189.04 -1010.65 2804.5
-179.85 -999.97 2774.8
-177.82 -1029.90 2857.9
-164.61 -994.84 2760.6
-158.60 -1002.08 2780.7
-152.64 -1010.33 2803.6
-124.96 -964.96 2677.7
-117.70 -962.35 2670.5
-110.75 -962.11 2669.8
-105.33 -976.09 2708.6
-98.56 -978.54 2715.4
-90.32 -965.74 2679.9
-83.03 -961.75 2668.8
-76.70 -969.27 2689.7
-68.59 -953.40 2645.6
-60.29 -931.09 2583.7
-54.29 -943.34 2617.7
-48.40 -961.00 2666.7
-41.98 -972.57 2698.8
-35.34 -982.43 2726.2
-28.74 -998.73 2771.4
-373.94 -969.47 2671.0
-366.62 -968.42 2668.1
-356.70 -979.17 2697.7
-334.25 -955.01 2631.2
-322.53 -940.71 2591.8
-315.90 -940.97 2592.5
-307.59 -936.14 2579.2
-304.91 -948.60 2613.5
-289.47 -921.03 2537.5
-278.38 -927.95 2556.6
-277.89 -948.88 2614.3
-270.59 -947.07 2609.3
-269.28 -966.65 2663.2
-266.59 -982.16 2706.0
-255.86 -968.11 2667.2
-252.05 -980.21 2700.6
-184.20 -1031.53 2842.0
-160.93 -1024.13 2821.6
-137.33 -1011.89 2787.9
-128.58 -1000.07 2755.3
-119.42 -983.47 2709.6
-111.04 -971.64 2677.0
-104.59 -976.16 2689.4
-97.01 -970.10 2672.7
-90.63 -975.98 2688.9
-84.98 -991.40 2731.4
-78.38 -997.60 2748.5
-70.07 -980.95 2702.6
-61.97 -963.95 2655.8
-56.16 -982.76 2707.6
-49.57 -991.34 2731.2
-42.59 -993.76 2737.9
-35.55 -995.50 2742.7
-28.67 -1003.37 2764.4
-21.52 -1004.08 2766.3
-14.01 -980.89 2702.5
-375.46 -980.36 2681.8
-364.27 -969.09 2651.0
-352.61 -956.11 2615.5
-344.82 -953.33 2607.9
-342.87 -966.90 2645.0
-327.23 -941.61 2575.8
-322.15 -946.31 2588.7
-322.12 -966.36 2643.5
-305.11 -935.23 2558.4
-293.77 -920.46 2518.0
-297.22 -952.45 2605.5
-301.78 -989.57 2707.0
-293.31 -984.70 2693.7
-281.14 -966.83 2644.8
-273.76 -965.01 2639.8
-272.46 -985.06 2694.7
-267.93 -994.17 2719.6
-255.73 -974.56 2666.0
-252.19 -987.76 2702.1
-176.48 -1036.82 2836.3
-167.02 -1023.94 2801.0
-158.61 -1016.53 2780.8
-136.75 -1014.84 2776.2
-126.68 -992.31 2714.5
-116.39 -965.32 2640.7
-108.54 -956.49 2616.5
-102.64 -964.81 2639.3
-96.49 -971.76 2658.3
-91.41 -991.40 2712.0
-83.36 -979.46 2679.4
-74.78 -958.59 2622.3
-70.11 -988.51 2704.1
-49.78 -1002.73 2743.0
-41.93 -985.27 2695.3
-34.36 -968.82 2650.3
-27.80 -979.83 2680.4
-20.88 -981.57 2685.1
-378.53 -977.29 2654.6
-372.54 -979.65 2661.0
-354.51 -949.81 2580.0
-319.21 -944.34 2565.1
-323.33 -976.87 2653.5
-311.09 -960.31 2608.5
-301.03 -949.92 2580.3
-306.66 -989.67 2688.2
-287.45 -995.57 2704.3
-282.45 -1002.68 2723.6
-270.35 -984.34 2673.8
-253.38 -999.45 2714.8
-231.53 -996.27 2706.2
-158.74 -1024.61 2783.1
-149.66 -1011.97 2748.8
-140.90 -1000.36 2717.3
-132.85 -992.89 2697.0
-123.82 -976.77 2653.2
-116.16 -970.31 2635.7
-110.82 -983.53 2671.6
-104.96 -993.63 2699.0
-98.89 -1003.04 2724.5
-91.74 -1002.08 2722.0
-82.09 -971.42 2638.7
-67.54 -959.11 2605.2
-62.61 -987.84 2683.3
-55.50 -985.12 2675.9
-48.79 -989.66 2688.2
-41.91 -991.77 2693.9
-34.24 -972.45 2641.5
-27.60 -979.73 2661.3
-21.42 -1013.96 2754.2
-14.24 -1011.21 2746.7
-7.09 -1006.73 2734.6
-394.73 -990.29 2671.1
-381.59 -974.43 2628.3
-386.83 -1005.75 2712.8
-362.65 -978.46 2639.2
-341.87 -940.13 2535.8
-327.46 -936.55 2526.2
-322.19 -940.27 2536.2
-314.43 -936.74 2526.7
-307.74 -936.31 2525.5
-309.16 -961.09 2592.3
-307.04 -997.89 2691.6
-298.06 -991.23 2673.6
-292.62 -996.31 2687.4
-287.41 -1002.44 2703.9
-278.34 -995.06 2684.0
-254.86 -985.00 2656.8
-250.12 -993.52 2679.8
-245.68 -1003.78 2707.5
-135.32 -1018.48 2747.2
-126.20 -1002.62 2704.4
-118.67 -998.21 2692.5
-99.25 -1013.77 2734.4
-89.04 -979.45 2641.9
-80.97 -964.93 2602.7
-67.46 -964.71 2602.1
-62.38 -991.17 2673.5
-54.73 -978.36 2638.9
-47.72 -974.93 2629.7
-41.65 -992.70 2677.6
-34.69 -992.03 2675.8
-28.19 -1007.70 2718.1
-394.68 -997.08 2670.8
-380.55 -996.34 2668.8
-378.04 -1008.10 2700.3
-362.73 -985.52 2639.8
-345.34 -956.33 2561.6
-331.92 -937.17 2510.3
-326.11 -939.18 2515.7
-322.98 -949.18 2542.4
-317.87 -953.62 2554.3
-312.81 -958.40 2567.1
-316.12 -989.59 2650.7
-310.63 -994.03 2662.6
-296.48 -970.29 2599.0
-289.71 -970.19 2598.7
-285.78 -979.82 2624.5
-283.70 -996.42 2669.0
-278.01 -1000.83 2680.8
-267.73 -988.53 2647.8
-264.50 -1002.33 2684.8
-260.37 -1013.35 2714.3
-249.82 -999.28 2676.6
-216.34 -1074.23 2877.4
-210.20 -1081.04 2895.6
-195.69 -1083.83 2903.1
-178.01 -1068.08 2860.9
-143.42 -1032.66 2766.0
-134.98 -1022.99 2740.2
-127.41 -1019.26 2730.2
-116.09 -983.37 2634.0
-108.23 -974.03 2609.0
-104.86 -1006.62 2696.3
-96.96 -997.27 2671.3
-87.96 -974.28 2609.7
-80.93 -971.20 2601.4
-60.67 -970.69 2600.1
-41.79 -1002.99 2686.6
-35.06 -1009.67 2704.5
-28.79 -1036.27 2775.7
-366.16 -983.20 2615.4
-359.87 -984.55 2619.0
-344.80 -961.46 2557.6
-333.36 -947.78 2521.2
-317.87 -940.64 2502.2
-315.18 -952.09 2532.7
-312.55 -964.24 2565.0
-310.86 -979.89 2606.6
-300.93 -969.66 2579.4
-287.42 -947.16 2519.5
-281.69 -972.49 2586.9
-284.35 -1005.64 2675.1
-281.25 -1019.54 2712.1
-273.72 -1017.67 2707.1
-267.50 -1020.70 2715.2
-259.71 -1017.77 2707.4
-256.66 -1033.77 2749.9
-240.61 -1026.12 2729.6
-202.62 -1088.15 2894.6
-192.00 -1070.76 2848.3
-181.43 -1052.31 2799.2
-171.53 -1036.30 2756.7
-162.90 -1026.96 2731.8
-143.21 -1038.24 2761.8
-132.74 -1013.05 2694.8
-124.24 -1000.86 2662.4
-101.78 -983.92 2617.3
-95.65 -990.68 2635.3
-88.20 -983.73 2616.8
-81.53 -985.21 2620.7
-60.70 -978.00 2601.6
-42.56 -1028.45 2735.8
-28.48 -1032.38 2746.2
-21.16 -1022.55 2720.1
-14.20 -1029.25 2737.9
-7.06 -1024.33 2724.8
0.00 -1032.43 2746.4
7.15 -1036.64 2757.6
-400.80 -1008.90 2665.4
-394.70 -1010.99 2670.9
-382.02 -1014.10 2679.1
-363.38 -982.48 2595.6
-362.37 -998.23 2637.2
-351.89 -988.00 2610.2
-338.11 -967.92 2557.1
-327.12 -955.20 2523.5
-322.09 -959.69 2535.4
-321.15 -976.84 2580.7
-310.70 -965.15 2549.8
-301.95 -958.37 2531.9
-302.84 -982.56 2595.8
-299.37 -993.37 2624.4
-291.09 -988.34 2611.1
-289.96 -1007.95 2662.9
-283.32 -1008.90 2665.4
-270.78 -988.35 2611.1
-266.80 -998.80 2638.7
-264.33 -1015.59 2683.1
-257.70 -1016.87 2686.5
-256.18 -1038.95 2744.8
-202.45 -1094.72 2892.1
-188.69 -1059.56 2799.2
-178.99 -1088.85 2876.6
-133.18 -1023.41 2703.7
-121.96 -989.22 2613.4
-117.50 -1009.12 2666.0
-95.20 -992.77 2622.8
-88.81 -997.45 2635.1
-83.06 -1010.62 2669.9
-75.88 -1007.15 2660.8
-69.93 -1021.01 2697.4
-56.40 -1029.26 2719.2
-34.53 -1008.14 2663.4
-28.66 -1046.04 2763.5
-21.09 -1026.59 2712.1
-14.02 -1023.78 2704.7
-365.54 -995.08 2611.0
-355.70 -986.56 2588.6
-350.22 -990.04 2597.8
-341.13 -983.26 2580.0
-334.30 -982.84 2578.9
-333.96 -1001.87 2628.8
-332.43 -1018.07 2671.3
-321.41 -1005.26 2637.7
-304.24 -972.26 2551.1
-297.71 -972.51 2551.8
-304.31 -1016.67 2667.7
-288.71 -1035.15 2716.1
-276.72 -1016.96 2668.4
-274.19 -1033.50 2711.8
-269.42 -1042.24 2734.8
-260.43 -1034.67 2714.9
-210.41 -1104.65 2898.5
-198.16 -1078.89 2830.9
-181.18 -1065.35 2795.4
-179.30 -1098.21 2881.6
-149.02 -1043.17 2737.2
-141.12 -1037.24 2721.6
-133.71 -1034.52 2714.5
-125.12 -1021.82 2681.2
-95.62 -1004.05 2634.5
-88.71 -1003.06 2631.9
-83.55 -1023.43 2685.4
-76.96 -1028.48 2698.6
-35.28 -1037.32 2721.8
-20.94 -1025.97 2692.0
-399.29 -1018.87 2655.3
-389.80 -1012.11 2637.7
-384.02 -1014.92 2645.1
-381.64 -1026.96 2676.4
-371.32 -1017.69 2652.3
-362.65 -1012.68 2639.2
-358.04 -1019.03 2655.8
-343.29 -996.22 2596.3
-330.65 -978.73 2550.7
-324.84 -981.14 2557.0
-318.07 -980.71 2555.9
-318.53 -1003.04 2614.1
-312.50 -1005.45 2620.4
-299.51 -985.06 2567.2
-299.60 -1007.75 2626.4
-268.83 -1047.01 2728.7
-260.92 -1043.67 2720.0
-216.44 -1104.59 2878.8
-206.78 -1092.98 2848.5
-198.97 -1090.66 2842.4
-177.40 -1050.22 2737.1
-169.69 -1046.44 2727.2
-164.31 -1057.31 2755.5
-154.85 -1041.71 2714.9
-146.00 -1028.96 2681.7
-141.19 -1044.83 2723.0
-135.94 -1058.91 2759.7
-120.55 -1049.46 2735.1
-112.03 -1036.32 2700.8
-104.93 -1035.34 2698.3
-96.15 -1016.45 2649.1
-88.50 -1007.58 2625.9
-82.72 -1020.19 2658.8
-75.64 -1017.75 2652.4
-48.11 -1017.25 2651.1
-42.16 -1039.85 2710.0
-28.49 -1054.24 2747.5
-391.51 -1023.43 2649.3
-386.92 -1029.48 2665.0
-370.87 -1023.34 2649.1
-358.27 -1007.21 2607.4
-333.97 -995.23 2576.3
-319.85 -972.61 2517.8
-318.37 -988.28 2558.3
-324.36 -1028.29 2661.9
-314.12 -1017.46 2633.9
-296.87 -982.98 2544.6
-294.69 -997.93 2583.3
-295.41 -1023.62 2649.8
-292.15 -1036.42 2683.0
-290.39 -1055.32 2731.9
-271.94 -1038.95 2689.5
-263.93 -1034.87 2679.0
-261.32 -1052.33 2724.1
-223.53 -1110.19 2873.9
-191.97 -1100.12 2847.9
-179.72 -1071.15 2772.9
-170.07 -1055.83 2733.2
-162.84 -1054.90 2730.8
-153.81 -1041.72 2696.7
-145.37 -1031.42 2670.0
-138.17 -1029.38 2664.7
-130.91 -1026.62 2657.6
-125.47 -1038.61 2688.6
-118.10 -1035.12 2679.6
-109.27 -1017.57 2634.2
-101.87 -1011.90 2619.5
-94.82 -1009.11 2612.3
-88.68 -1016.39 2631.1
-82.47 -1024.03 2650.9
-74.99 -1015.81 2629.6
-67.50 -1005.79 2603.7
-61.65 -1020.61 2642.1
-55.54 -1034.36 2677.6
-47.80 -1017.47 2633.9
-40.89 -1015.34 2628.4
-34.54 -1029.43 2664.9
-27.92 -1039.91 2692.0
-21.30 -1057.94 2738.7
-7.09 -1055.81 2733.2
-396.23 -1042.70 2681.2
-389.80 -1044.12 2684.9
-382.31 -1042.65 2681.1
-362.15 -1005.96 2586.8
-351.99 -996.20 2561.7
-357.05 -1029.95 2648.4
-336.56 -1009.68 2596.3
-325.69 -997.01 2563.7
-327.08 -1022.13 2628.3
-315.39 -1028.45 2644.6
-297.81 -992.69 2552.6
-295.39 -1007.00 2589.4
-293.29 -1023.11 2630.9
-287.65 -1027.33 2641.7
-280.67 -1026.86 2640.5
-269.76 -1011.59 2601.2
-275.18 -1058.37 2721.5
-225.13 -1089.36 2801.2
-214.60 -1109.99 2854.3
-196.35 -1090.82 2805.0
-185.72 -1071.45 2755.2
-150.21 -1072.91 2758.9
-142.59 -1069.42 2749.9
-130.20 -1027.90 2643.2
-116.44 -1027.39 2641.9
-110.60 -1036.91 2666.3
-102.54 -1025.41 2636.8
-94.90 -1016.81 2614.6
-88.60 -1022.32 2628.8
-82.17 -1027.10 2641.1
-75.46 -1028.98 2646.0
-68.51 -1027.60 2642.4
-27.44 -1028.94 2645.8
-20.99 -1049.25 2698.1
-14.26 -1069.20 2749.4
-388.93 -1048.73 2678.9
-372.10 -1021.60 2609.6
-346.78 -1006.98 2572.2
-344.61 -1020.30 2606.3
-334.23 -1009.38 2578.4
-329.76 -1016.19 2595.7
-318.97 -1003.43 2563.2
-309.03 -992.84 2536.1
-311.48 -1022.45 2611.8
-309.21 -1037.58 2650.4
-296.50 -1017.55 2599.2
-284.57 -999.31 2552.6
-279.64 -1005.36 2568.1
-273.04 -1005.60 2568.7
-268.46 -1013.45 2588.8
-257.84 -1052.25 2687.9
-252.05 -1057.20 2700.5
-221.04 -1112.59 2842.0
-154.71 -1061.87 2712.4
-145.47 -1045.99 2671.9
-141.93 -1071.60 2737.3
-133.39 -1060.07 2707.8
-121.73 -1021.21 2608.6
-115.97 -1030.06 2631.2
-110.93 -1046.91 2674.2
-103.50 -1041.91 2661.4
-96.37 -1039.45 2655.2
-90.44 -1050.46 2683.3
-70.04 -1057.59 2701.5
-48.51 -1046.45 2673.1
-42.63 -1072.74 2740.2
-391.00 -1061.30 2693.1
-374.67 -1035.47 2627.6
-353.90 -996.16 2527.8
-342.48 -1020.71 2590.2
-339.93 -1033.38 2622.3
-335.92 -1042.05 2644.3
-325.59 -1031.05 2616.4
-309.77 -1001.82 2542.2
-305.80 -1010.47 2564.2
-310.24 -1047.91 2659.2
-304.37 -1051.46 2668.2
-286.70 -1013.44 2571.7
-276.07 -999.09 2535.3
-275.56 -1021.59 2592.4
-276.30 -1049.93 2664.3
-272.82 -1063.31 2698.2
-258.49 -1033.97 2623.8
-159.75 -1055.75 2679.1
-129.33 -1034.65 2625.5
-121.58 -1026.71 2605.4
-102.54 -1039.09 2636.8
-69.83 -1061.46 2693.6
-61.03 -1030.73 2615.6
-54.77 -1040.68 2640.8
-404.63 -1067.39 2690.9
-381.32 -1023.54 2580.3
-355.66 -1007.69 2540.4
-358.42 -1034.70 2608.5
-347.91 -1023.67 2580.7
-343.27 -1029.82 2596.2
-337.00 -1031.22 2599.7
-330.35 -1031.51 2600.4
-324.74 -1035.09 2609.5
-313.78 -1021.45 2575.1
-310.16 -1031.62 2600.7
-289.95 -1031.68 2600.9
-276.93 -1008.82 2543.2
-273.35 -1020.07 2571.6
-273.08 -1044.53 2633.3
-268.93 -1055.05 2659.8
-261.37 -1052.34 2653.0
-254.63 -1052.94 2654.5
-249.27 -1059.40 2670.8
-247.10 -1080.20 2723.2
-249.32 -1121.94 2828.4
-244.81 -1135.02 2861.4
-233.05 -1114.28 2809.1
-232.14 -1145.73 2888.4
-162.32 -1079.79 2722.2
-153.17 -1065.21 2685.4
-144.45 -1052.45 2653.2
-122.04 -1037.33 2615.1
-116.62 -1049.60 2646.0
-84.26 -1074.36 2708.5
-75.18 -1045.69 2636.2
-68.52 -1048.33 2642.8
-61.24 -1041.01 2624.4
-47.75 -1043.69 2631.2
-41.99 -1070.65 2699.1
-35.34 -1081.37 2726.1
-412.94 -1077.84 2699.6
-389.06 -1033.03 2587.4
-353.15 -1007.14 2522.5
-359.76 -1045.33 2618.2
-353.07 -1045.64 2619.0
-346.51 -1046.32 2620.6
-338.26 -1041.83 2609.4
-323.97 -1018.19 2550.2
-304.71 -1020.13 2555.1
-306.57 -1049.15 2627.7
-295.83 -1035.41 2593.3
-287.94 -1031.24 2582.9
-285.64 -1047.35 2623.2
-279.01 -1047.97 2624.8
-275.81 -1061.87 2659.6
-271.22 -1070.97 2682.4
-262.96 -1065.67 2669.1
-259.91 -1081.78 2709.5
-259.50 -1110.08 2780.4
-239.60 -1118.14 2800.5
-233.35 -1159.23 2903.4
-215.59 -1144.83 2867.4
-203.75 -1120.60 2806.7
-175.75 -1082.62 2711.6
-166.09 -1065.75 2669.3
-157.37 -1053.68 2639.1
-149.91 -1049.37 2628.3
-146.35 -1073.20 2688.0
-140.69 -1083.33 2713.3
-130.38 -1056.78 2646.9
-126.04 -1078.38 2701.0
-110.25 -1061.18 2657.9
-89.57 -1061.07 2657.6
-82.92 -1064.12 2665.2
-74.48 -1042.69 2611.6
-68.46 -1054.24 2640.5
-60.71 -1038.73 2601.6
-40.76 -1046.28 2620.6
-34.13 -1051.13 2632.7
-27.75 -1068.22 2675.5
-394.94 -1055.44 2626.4
-392.33 -1066.87 2654.9
-379.70 -1050.95 2615.3
-362.54 -1021.71 2542.5
-361.34 -1037.19 2581.0
-365.13 -1067.84 2657.3
-351.65 -1048.18 2608.4
-339.02 -1030.35 2564.0
-338.32 -1048.79 2609.9
-331.18 -1047.60 2606.9
-316.48 -1021.96 2543.1
-306.94 -1012.24 2518.9
-302.90 -1020.66 2539.9
-299.63 -1032.04 2568.2
-286.20 -1008.21 2508.9
-283.68 -1046.91 2605.2
-277.96 -1077.10 2680.3
-266.22 -1058.04 2632.9
-261.18 -1065.33 2651.0
-261.01 -1093.41 2720.9
-239.47 -1124.77 2799.0
-212.89 -1137.85 2831.5
-179.84 -1072.15 2668.0
-165.08 -1066.13 2653.0
-160.60 -1082.28 2693.2
-151.47 -1067.16 2655.6
-146.21 -1079.21 2685.6
-141.48 -1096.47 2728.5
-131.91 -1076.10 2677.9
-124.55 -1072.49 2668.9
-117.48 -1071.11 2665.4
-109.04 -1056.31 2628.6
-81.95 -1058.51 2634.1
-77.11 -1086.54 2703.8
-69.86 -1082.88 2694.7
-61.15 -1053.12 2620.7
-40.94 -1057.73 2632.1
-34.84 -1080.13 2687.9
-27.74 -1074.94 2675.0
-20.99 -1084.28 2698.2
-397.42 -1087.66 2689.3
-377.50 -1051.60 2600.1
-365.11 -1035.57 2560.5
-368.75 -1065.27 2633.9
-349.79 -1069.94 2645.5
-320.44 -1041.42 2575.0
-308.24 -1023.08 2529.6
-301.32 -1021.86 2526.6
-298.93 -1036.29 2562.3
-285.74 -1013.06 2504.8
-283.93 -1054.60 2607.5
-274.46 -1070.39 2646.6
-266.63 -1066.53 2637.0
-265.76 -1091.03 2697.6
-259.27 -1093.14 2702.8
-259.56 -1124.74 2781.0
-260.53 -1161.21 2871.1
-247.27 -1134.54 2805.2
-242.50 -1146.34 2834.4
-240.79 -1173.84 2902.4
-232.79 -1171.44 2896.4
-221.94 -1154.07 2853.5
-213.67 -1149.40 2841.9
-206.47 -1150.34 2844.2
-166.14 -1079.91 2670.1
-162.16 -1099.89 2719.5
-153.50 -1088.43 2691.2
-146.18 -1085.94 2685.0
-139.53 -1088.32 2690.9
-108.56 -1058.42 2617.0
-101.78 -1058.52 2617.2
-95.24 -1061.23 2623.9
-87.66 -1051.94 2601.0
-82.39 -1071.13 2648.4
-63.00 -1091.94 2699.9
-54.96 -1071.76 2649.9
-47.69 -1062.80 2627.8
-41.80 -1086.84 2687.2
-35.23 -1099.24 2717.9
-27.73 -1081.28 2673.5
-20.66 -1074.17 2655.9
-13.83 -1078.69 2667.1
-399.21 -1080.62 2654.8
-388.93 -1071.26 2631.8
-369.70 -1036.48 2546.4
-359.15 -1025.22 2518.7
-359.29 -1044.60 2566.4
-361.08 -1069.60 2627.8
-354.49 -1070.29 2629.5
-346.80 -1067.61 2622.9
-337.48 -1059.68 2603.4
-318.44 -1020.29 2506.6
-312.37 -1021.70 2510.1
-311.55 -1040.71 2556.8
-300.17 -1024.49 2517.0
-293.94 -1025.51 2519.5
-293.26 -1046.39 2570.7
-295.08 -1077.40 2646.9
-288.39 -1078.04 2648.5
-275.71 -1055.78 2593.8
-274.88 -1078.92 2650.7
-266.21 -1129.57 2775.1
-257.77 -1124.18 2761.9
-249.24 -1118.02 2746.7
-238.64 -1135.37 2789.3
-234.29 -1149.49 2824.0
-223.30 -1130.90 2778.4
-218.86 -1145.38 2814.0
-216.12 -1170.02 2874.5
-196.56 -1142.93 2807.9
-180.64 -1090.81 2679.9
-171.92 -1079.68 2652.5
-149.09 -1063.93 2613.8
-147.56 -1103.22 2710.4
-140.55 -1103.35 2710.7
-126.43 -1044.72 2566.6
-108.92 -1068.77 2625.7
-105.54 -1104.66 2713.9
-96.29 -1079.88 2653.0
-86.49 -1044.54 2566.2
-81.14 -1061.58 2608.1
-76.68 -1094.43 2688.8
-70.07 -1100.15 2702.8
-62.21 -1085.14 2665.9
-55.10 -1081.42 2656.8
-48.66 -1091.27 2681.0
-41.45 -1084.52 2664.4
-33.89 -1064.20 2614.5
-27.54 -1080.82 2655.3
-21.22 -1110.62 2728.6
-13.89 -1090.66 2679.5
-388.52 -1058.37 2583.7
-393.73 -1091.39 2664.3
-388.28 -1095.50 2674.4
-366.68 -1053.37 2571.5
-358.07 -1047.68 2557.6
-353.06 -1052.51 2569.4
-340.43 -1034.40 2525.2
-317.81 -1046.11 2553.8
-314.97 -1058.83 2584.8
-300.89 -1033.49 2523.0
-292.92 -1028.48 2510.8
-290.58 -1043.44 2547.3
-292.77 -1075.75 2626.1
-286.43 -1077.52 2630.5
-276.84 -1066.83 2604.4
-256.16 -1124.28 2744.6
-259.31 -1170.59 2857.7
-235.46 -1162.57 2838.1
-223.10 -1137.07 2775.9
-217.88 -1147.48 2801.3
-164.17 -1080.80 2638.5
-150.16 -1078.44 2632.7
-146.52 -1102.42 2691.3
-137.65 -1087.41 2654.6
-130.87 -1088.29 2656.8
-124.08 -1089.16 2658.9
-116.02 -1078.29 2632.3
-112.20 -1107.93 2704.7
-105.19 -1108.03 2705.0
-92.68 -1045.99 2553.5
-82.10 -1081.01 2639.0
-76.16 -1093.96 2670.6
-68.26 -1078.49 2632.9
-61.29 -1075.90 2626.5
-54.90 -1084.29 2647.0
-48.83 -1102.15 2690.6
-41.90 -1103.33 2693.5
-34.58 -1092.75 2667.7
-402.49 -1103.38 2676.7
-368.79 -1085.88 2634.2
-353.88 -1061.63 2575.4
-343.59 -1050.60 2548.6
-332.47 -1036.53 2514.5
-325.09 -1033.80 2507.9
-330.23 -1071.56 2599.5
-317.15 -1072.90 2602.7
-302.70 -1046.29 2538.2
-294.27 -1039.74 2522.3
-290.74 -1050.61 2548.7
-290.86 -1075.52 2609.1
-259.32 -1178.07 2857.9
-254.81 -1191.60 2890.7
-238.21 -1147.75 2784.3
-231.11 -1148.35 2785.7
-225.64 -1157.29 2807.5
-222.70 -1180.30 2863.3
-175.26 -1114.66 2704.0
-164.71 -1091.22 2647.2
-157.60 -1089.47 2642.9
-151.55 -1095.32 2657.1
-145.49 -1101.54 2672.2
-135.32 -1075.79 2609.7
-127.20 -1064.48 2582.3
-124.74 -1101.91 2673.1
-102.40 -1085.47 2633.2
-93.24 -1058.89 2568.7
-88.73 -1085.26 2632.7
-83.64 -1108.19 2688.3
-76.04 -1099.12 2666.3
-67.21 -1068.71 2592.6
-54.37 -1080.63 2621.5
-49.47 -1123.74 2726.1
-41.37 -1096.34 2659.6
-27.29 -1084.97 2632.0
-393.87 -1086.55 2619.4
-378.01 -1061.09 2558.0
-367.78 -1050.79 2533.2
-367.98 -1070.49 2580.7
-361.66 -1071.58 2583.3
-349.15 -1054.04 2541.0
-341.06 -1049.41 2529.8
-342.36 -1074.06 2589.2
-330.02 -1100.08 2652.0
-320.33 -1090.48 2628.8
-309.22 -1075.53 2592.8
-301.07 -1070.47 2580.6
-298.02 -1083.70 2612.5
-291.83 -1085.87 2617.7
-288.71 -1099.86 2651.4
-234.45 -1136.73 2740.3
