ply
format ascii 1.0
element vertex 2064
property float x
property float y
property float z
end_header
-265.67 -975.92 2091.3
-258.30 -968.61 2075.6
-252.21 -965.92 2069.8
-244.22 -955.65 2047.8
-237.40 -949.58 2034.8
-235.06 -961.59 2060.6
-235.10 -984.12 2108.8
-234.79 -1006.23 2156.2
-226.47 -994.25 2130.5
-218.00 -981.00 2102.1
-211.23 -974.90 2089.1
-202.48 -959.10 2055.2
-202.90 -987.10 2115.2
-197.83 -1017.41 2180.2
-188.79 -999.48 2141.7
-182.34 -994.60 2131.3
-176.40 -992.25 2126.2
-168.45 -978.08 2095.9
-161.07 -966.43 2070.9
-157.16 -975.45 2090.2
-155.24 -997.97 2138.5
-149.08 -993.90 2129.8
-142.61 -987.29 2115.6
-137.49 -989.96 2121.3
-131.17 -983.76 2108.1
-129.60 -1014.29 2173.5
-121.52 -1041.57 2231.9
-114.85 -1033.66 2215.0
-108.45 -1027.43 2201.6
-100.39 -1003.88 2151.2
-93.30 -987.92 2117.0
-87.37 -982.94 2106.3
-82.06 -984.71 2110.1
-77.48 -996.20 2134.7
-73.05 -1011.49 2167.5
-67.44 -1011.56 2167.6
-61.43 -1005.29 2154.2
-55.55 -999.85 2142.5
-49.72 -994.40 2130.9
-45.04 -1013.48 2171.7
-40.17 -1032.97 2213.5
-34.08 -1022.44 2190.9
-28.68 -1032.61 2212.7
-23.48 -1056.74 2264.5
-17.75 -1065.22 2282.6
-12.00 -1079.61 2313.5
-6.02 -1083.01 2320.7
0.00 -1076.67 2307.1
5.99 -1077.93 2309.9
11.66 -1049.59 2249.1
16.98 -1018.71 2182.9
22.74 -1023.34 2192.9
28.19 -1014.86 2174.7
32.57 -977.19 2094.0
38.12 -980.12 2100.2
45.42 -1021.93 2189.9
51.22 -1024.42 2195.2
54.89 -988.01 2117.2
58.93 -964.28 2066.3
63.29 -949.42 2034.5
74.95 -963.66 2065.0
83.50 -1002.04 2147.2
91.95 -1034.49 2216.8
98.25 -1040.31 2229.2
99.16 -991.63 2124.9
101.45 -961.11 2059.5
109.17 -982.55 2105.5
116.24 -996.37 2135.1
123.21 -1008.08 2160.2
131.60 -1029.92 2207.0
136.29 -1022.18 2190.4
141.01 -1015.29 2175.6
148.22 -1026.12 2198.8
155.35 -1035.68 2219.3
163.97 -1054.09 2258.8
174.22 -1081.35 2317.2
190.24 -1104.61 2367.0
194.54 -1094.30 2344.9
201.82 -1100.85 2359.0
207.82 -1100.23 2357.6
238.00 -1189.98 2550.0
-486.95 -1159.70 2471.3
-458.83 -1137.64 2424.3
-463.71 -1165.72 2484.2
-453.01 -1154.86 2461.0
-433.18 -1120.08 2386.9
-416.44 -1092.40 2327.9
-408.82 -1088.19 2319.0
-404.20 -1091.94 2326.9
-385.14 -1056.23 2250.8
-374.92 -1044.00 2224.8
-380.86 -1077.13 2295.4
-369.63 -1061.95 2263.0
-352.51 -1029.10 2193.0
-349.07 -1035.75 2207.2
-343.45 -1036.09 2207.9
-326.18 -1000.65 2132.4
-314.55 -981.61 2091.8
-315.06 -1000.44 2132.0
-315.49 -1019.70 2173.0
-304.19 -1001.05 2133.2
-292.83 -981.53 2091.7
-290.09 -990.67 2111.1
-288.33 -1003.61 2138.7
-283.58 -1006.42 2144.7
-271.91 -984.33 2097.6
-260.15 -960.96 2047.8
-258.49 -974.72 2077.2
-257.89 -993.13 2116.4
-245.81 -967.20 2061.1
-231.74 -953.31 2031.5
-231.05 -972.55 2072.5
-230.04 -991.38 2112.6
-221.26 -976.80 2081.6
-200.97 -983.14 2095.1
-200.04 -1005.77 2143.3
-190.02 -982.68 2094.1
-184.86 -984.13 2097.2
-182.01 -998.29 2127.4
-178.10 -1007.37 2146.7
-172.42 -1006.69 2145.3
-164.35 -991.60 2113.1
-159.85 -997.70 2126.1
-156.79 -1013.54 2159.9
-149.32 -1000.97 2133.1
-141.86 -987.55 2104.5
-135.89 -983.87 2096.6
-129.18 -974.25 2076.1
-127.48 -1003.22 2137.9
-126.03 -1036.86 2209.6
-118.98 -1025.53 2185.4
-113.61 -1028.19 2191.1
-108.48 -1033.39 2202.2
-100.54 -1011.00 2154.5
-93.37 -994.12 2118.5
-87.92 -994.63 2119.6
-83.21 -1004.06 2139.7
-77.73 -1004.99 2141.6
-72.37 -1007.61 2147.2
-68.24 -1029.34 2193.5
-63.49 -1044.69 2226.3
-57.39 -1038.80 2213.7
-51.38 -1033.34 2202.1
-44.83 -1014.27 2161.4
-38.44 -993.93 2118.1
-33.50 -1010.53 2153.5
-28.95 -1047.94 2233.2
-23.61 -1068.35 2276.7
-17.74 -1070.50 2281.3
-12.05 -1090.90 2324.7
0.00 -1066.28 2272.3
5.76 -1042.06 2220.6
11.31 -1023.36 2180.8
16.62 -1002.96 2137.3
22.62 -1023.75 2181.6
28.48 -1030.95 2197.0
33.33 -1005.43 2142.6
39.42 -1019.41 2172.4
44.90 -1015.97 2165.1
48.36 -972.60 2072.6
53.15 -961.93 2049.9
58.48 -962.30 2050.7
64.10 -966.91 2060.5
70.23 -977.89 2083.9
74.65 -965.08 2056.6
80.25 -968.40 2063.7
89.20 -1009.07 2150.3
95.96 -1021.71 2177.3
98.81 -993.60 2117.4
103.22 -983.31 2095.5
111.08 -1005.27 2142.3
118.39 -1020.43 2174.6
121.95 -1003.34 2138.1
126.46 -995.16 2120.7
135.20 -1019.63 2172.9
144.33 -1044.94 2226.8
151.66 -1055.82 2250.0
158.61 -1063.30 2265.9
163.35 -1055.93 2250.2
169.22 -1056.19 2250.8
179.95 -1085.68 2313.6
186.20 -1087.19 2316.8
188.58 -1066.67 2273.1
193.67 -1062.25 2263.7
207.06 -1102.28 2349.0
-473.68 -1149.48 2436.1
-463.79 -1140.68 2417.5
-452.31 -1127.67 2389.9
-441.46 -1115.90 2364.9
-437.30 -1120.96 2375.7
-423.20 -1100.33 2331.9
-419.39 -1106.22 2344.4
-423.85 -1134.44 2404.2
-411.10 -1116.72 2366.7
-384.00 -1058.92 2244.2
-367.47 -1028.92 2180.6
-368.18 -1047.00 2218.9
-365.76 -1056.65 2239.4
-356.19 -1045.60 2215.9
-341.93 -1020.18 2162.1
-326.40 -990.08 2098.3
-321.89 -992.94 2104.3
-322.06 -1010.59 2141.7
-314.22 -1003.29 2126.3
-307.24 -998.52 2116.2
-304.65 -1008.13 2136.5
-301.34 -1015.62 2152.4
-291.77 -1001.94 2123.4
-283.57 -992.48 2103.4
-281.28 -1003.78 2127.3
-271.88 -989.64 2097.4
-260.12 -966.17 2047.6
-258.91 -981.69 2080.5
-261.68 -1013.33 2147.6
-252.21 -997.89 2114.8
-237.77 -961.64 2038.0
-231.21 -956.35 2026.8
-227.21 -961.67 2038.1
-223.35 -967.84 2051.2
-221.05 -981.23 2079.5
-214.77 -977.20 2071.0
-204.07 -952.33 2018.3
-200.92 -962.31 2039.4
-198.96 -978.66 2074.1
-190.09 -961.00 2036.7
-186.89 -971.82 2059.6
-188.42 -1008.58 2137.5
-182.29 -1005.36 2130.7
-175.23 -996.61 2112.1
-170.65 -1001.88 2123.3
-163.56 -992.26 2102.9
-157.52 -988.59 2095.1
-152.97 -994.28 2107.2
-149.74 -1009.34 2139.1
-146.10 -1022.69 2167.4
-139.33 -1014.31 2149.6
-131.98 -1000.81 2121.0
-124.98 -989.01 2096.0
-119.00 -984.44 2086.3
-115.13 -997.77 2114.6
-112.80 -1026.44 2175.4
-107.52 -1029.96 2182.8
-99.43 -1005.34 2130.6
-93.72 -1003.30 2126.3
-89.41 -1017.04 2155.4
-84.46 -1024.80 2171.9
-78.61 -1021.90 2165.7
-72.33 -1012.59 2146.0
-67.50 -1023.75 2169.6
-64.20 -1062.21 2251.2
-59.30 -1079.34 2287.4
-52.17 -1055.07 2236.0
-44.75 -1018.00 2157.5
-38.99 -1013.78 2148.5
-34.52 -1047.10 2219.1
-29.46 -1072.30 2272.5
-23.73 -1079.59 2288.0
-17.47 -1059.98 2246.4
-11.63 -1058.71 2243.7
-5.91 -1075.79 2279.9
0.00 -1048.48 2222.1
5.57 -1013.49 2147.9
22.06 -1003.63 2127.0
28.74 -1046.28 2217.4
34.69 -1052.22 2230.0
39.75 -1033.41 2190.1
43.98 -1000.51 2120.4
47.95 -969.75 2055.2
53.33 -970.55 2056.9
59.12 -978.17 2073.0
65.25 -989.63 2097.3
71.17 -996.38 2111.6
75.33 -979.25 2075.3
79.65 -966.38 2048.1
87.20 -991.88 2102.1
96.14 -1029.31 2181.4
101.24 -1023.67 2169.5
103.96 -995.86 2110.5
109.94 -1000.44 2120.2
116.16 -1006.72 2133.6
118.69 -981.89 2080.9
123.53 -977.50 2071.6
132.54 -1005.07 2130.1
143.19 -1042.42 2209.2
152.37 -1066.56 2260.4
158.58 -1068.96 2265.5
162.53 -1056.45 2238.9
168.78 -1059.26 2244.9
180.05 -1092.30 2314.9
188.12 -1104.46 2340.7
192.51 -1094.90 2320.4
198.26 -1093.43 2317.3
212.97 -1140.03 2416.1
221.88 -1121.73 2377.3
-495.29 -1192.61 2513.7
-471.20 -1165.26 2456.1
-454.06 -1138.26 2399.1
-441.69 -1122.63 2366.2
-435.89 -1123.49 2368.0
-419.23 -1095.99 2310.1
-412.92 -1095.13 2308.2
-411.01 -1106.11 2331.4
-392.09 -1070.94 2257.3
-375.07 -1039.97 2192.0
-367.56 -1034.83 2181.1
-356.99 -1020.78 2151.5
-344.67 -1001.19 2110.2
-343.63 -1014.26 2137.8
-337.35 -1012.05 2133.1
-322.46 -983.51 2073.0
-319.38 -990.62 2088.0
-326.45 -1030.01 2171.0
-324.49 -1041.80 2195.8
-309.01 -1009.82 2128.4
-298.48 -993.11 2093.2
-295.52 -1001.48 2110.9
-286.44 -989.01 2084.6
-279.06 -982.06 2069.9
-277.80 -996.80 2101.0
-269.40 -986.01 2078.2
-258.50 -965.41 2034.8
-257.20 -980.57 2066.8
-260.11 -1012.78 2134.7
-255.18 -1015.16 2139.7
-245.18 -997.08 2101.6
-239.59 -996.47 2100.3
-237.00 -1008.65 2126.0
-230.18 -1002.91 2113.9
-225.42 -1006.12 2120.6
-220.34 -1008.05 2124.7
-210.42 -987.35 2081.1
-205.42 -989.26 2085.1
-201.78 -998.01 2103.5
-195.36 -993.08 2093.1
-194.55 -1017.20 2144.0
-192.12 -1034.05 2179.5
-182.19 -1010.31 2129.5
-174.01 -995.10 2097.4
-168.31 -993.56 2094.2
-165.29 -1008.26 2125.1
-163.33 -1030.66 2172.4
-154.65 -1010.72 2130.3
-147.44 -999.32 2106.3
-144.98 -1020.43 2150.8
-139.25 -1019.29 2148.4
-131.62 -1003.59 2115.3
-124.70 -992.17 2091.2
-118.42 -985.01 2076.1
-114.08 -994.12 2095.3
-109.41 -1001.08 2110.0
-101.99 -982.34 2070.5
-96.38 -979.87 2065.3
-92.91 -1000.10 2107.9
-88.31 -1010.04 2128.9
-82.97 -1012.27 2133.6
-78.82 -1030.34 2171.7
-74.14 -1043.70 2199.8
-67.49 -1029.20 2169.3
-62.64 -1042.12 2196.5
-58.40 -1068.75 2252.6
-51.78 -1052.95 2219.3
-45.51 -1041.00 2194.1
-40.69 -1063.76 2242.1
-35.65 -1087.37 2291.9
-30.12 -1102.41 2323.6
-24.02 -1099.00 2316.4
-17.54 -1069.88 2255.0
-11.48 -1050.17 2213.5
-5.72 -1047.18 2207.2
0.00 -1042.90 2198.1
5.63 -1029.61 2170.1
10.90 -997.02 2101.5
21.83 -998.70 2105.0
28.16 -1030.83 2172.7
34.70 -1058.23 2230.5
40.51 -1059.05 2232.2
46.03 -1053.00 2219.4
51.51 -1047.38 2207.6
56.29 -1030.19 2171.4
61.33 -1020.27 2150.5
66.95 -1021.06 2152.1
72.29 -1017.57 2144.8
75.81 -990.93 2088.6
79.46 -969.43 2043.3
86.77 -992.48 2091.9
95.49 -1027.94 2166.6
100.26 -1019.27 2148.4
102.61 -988.34 2083.2
108.42 -992.09 2091.1
114.52 -997.97 2103.4
119.29 -992.29 2091.5
126.58 -1007.15 2122.8
132.07 -1007.02 2122.5
138.96 -1017.15 2143.9
147.90 -1040.97 2194.1
154.07 -1044.24 2201.0
158.51 -1035.96 2183.5
165.29 -1043.07 2198.5
176.57 -1077.11 2270.2
184.68 -1090.18 2297.8
193.07 -1104.10 2327.1
203.61 -1129.12 2379.9
212.05 -1141.30 2405.6
214.89 -1123.57 2368.2
220.23 -1119.51 2359.6
-508.85 -1200.37 2516.3
-491.01 -1173.32 2459.6
-490.78 -1188.21 2490.8
-492.99 -1209.46 2535.4
-485.58 -1207.40 2531.0
-468.10 -1179.86 2473.3
-454.88 -1162.48 2436.9
-418.41 -1115.76 2338.9
-389.71 -1054.51 2210.5
-387.53 -1064.25 2231.0
-384.93 -1073.14 2249.6
-372.01 -1053.08 2207.6
-355.61 -1022.36 2143.2
-337.83 -1002.60 2101.7
-336.73 -1015.72 2129.2
-326.45 -1001.13 2098.6
-321.80 -1003.58 2103.8
-327.20 -1038.03 2176.0
-328.80 -1061.39 2225.0
-316.50 -1039.94 2180.0
-294.48 -985.17 2065.2
-280.86 -975.06 2044.0
-281.56 -996.28 2088.5
-279.77 -1009.38 2115.9
-270.76 -996.40 2088.7
-260.06 -976.56 2047.1
-259.51 -994.79 2085.3
-263.02 -1029.71 2158.6
-258.13 -1032.54 2164.5
-249.55 -1020.37 2139.0
-245.60 -1027.04 2153.0
-237.67 -1017.01 2131.9
-225.64 -988.53 2072.2
-219.56 -985.32 2065.5
-213.13 -980.40 2055.2
-207.76 -980.18 2054.7
-206.63 -1000.54 2097.4
-205.98 -1024.34 2147.3
-202.47 -1034.84 2169.3
-195.25 -1026.45 2151.7
-186.61 -1009.91 2117.0
-181.23 -1010.52 2118.3
-177.34 -1019.72 2137.6
-169.08 -1003.57 2103.8
-163.93 -1005.46 2107.7
-164.52 -1043.85 2188.2
-158.15 -1039.29 2178.6
-147.61 -1005.93 2108.7
-142.04 -1005.21 2107.2
-136.07 -1001.48 2099.4
-128.57 -985.71 2066.3
-121.35 -970.79 2035.0
-111.76 -979.20 2052.7
-108.27 -996.08 2088.1
-104.55 -1012.53 2122.5
-102.34 -1046.19 2193.1
-96.11 -1040.26 2180.7
-89.12 -1024.87 2148.4
-83.42 -1023.23 2145.0
-79.01 -1038.38 2176.7
-75.80 -1072.88 2249.1
-70.40 -1079.41 2262.7
-65.25 -1091.53 2288.1
-42.03 -1104.66 2315.7
-35.52 -1089.20 2283.3
-29.86 -1098.70 2303.2
-23.71 -1090.55 2286.1
-17.38 -1066.03 2234.7
-11.44 -1052.27 2205.8
-5.71 -1050.55 2202.2
0.00 -1048.84 2198.6
5.75 -1058.74 2219.4
11.38 -1047.10 2195.0
16.62 -1019.53 2137.2
22.37 -1028.98 2157.0
28.16 -1036.28 2172.3
33.90 -1039.69 2179.5
39.85 -1047.40 2195.6
45.50 -1046.50 2193.7
51.73 -1057.64 2217.1
57.41 -1056.30 2214.3
61.88 -1035.15 2169.9
66.89 -1025.61 2150.0
72.91 -1032.00 2163.3
77.14 -1013.85 2125.3
79.87 -979.77 2053.9
86.28 -992.17 2079.9
94.04 -1017.89 2133.8
97.88 -1000.59 2097.5
102.25 -990.16 2075.7
110.19 -1013.71 2125.0
118.09 -1034.67 2169.0
124.83 -1044.01 2188.5
129.73 -1037.86 2175.6
132.27 -1014.08 2125.8
138.87 -1022.12 2142.6
147.51 -1043.89 2188.3
151.08 -1029.56 2158.2
152.46 -1001.91 2100.3
170.45 -1045.40 2191.4
178.78 -1061.12 2224.4
186.97 -1075.10 2253.7
199.56 -1112.69 2332.5
210.01 -1136.52 2382.5
216.72 -1139.31 2388.3
-472.85 -1198.32 2498.4
-451.12 -1159.12 2416.7
-449.77 -1171.93 2443.4
-447.32 -1182.19 2464.8
-415.93 -1115.17 2325.1
-395.14 -1075.00 2241.3
-399.99 -1104.44 2302.7
-393.85 -1103.98 2301.7
-376.15 -1070.59 2232.1
-366.65 -1059.84 2209.7
-358.13 -1051.64 2192.6
-345.82 -1031.88 2151.4
-335.98 -1018.95 2124.4
-328.77 -1013.71 2113.5
-326.95 -1025.17 2137.4
-323.39 -1031.49 2150.6
-316.46 -1027.10 2141.4
-314.63 -1039.41 2167.1
-302.48 -1017.42 2121.3
-276.33 -983.10 2049.7
-277.60 -1006.99 2099.5
-269.79 -998.24 2081.3
-260.26 -982.61 2048.7
-256.91 -990.17 2064.5
-257.96 -1015.36 2117.0
-254.78 -1024.64 2136.3
-247.10 -1015.86 2118.0
-240.75 -1012.24 2110.5
-230.73 -992.68 2069.7
-210.96 -975.70 2034.3
-209.54 -993.99 2072.4
-207.13 -1008.42 2102.5
-205.34 -1026.72 2140.6
-200.92 -1032.52 2152.8
-192.61 -1018.07 2122.6
-184.92 -1006.19 2097.8
-180.75 -1013.27 2112.6
-174.55 -1009.14 2104.0
-164.21 -979.98 2043.2
-157.61 -971.94 2026.4
-157.19 -1002.73 2090.6
-154.60 -1021.45 2129.7
-147.27 -1009.08 2103.9
-142.99 -1017.43 2121.3
-138.38 -1024.05 2135.1
-129.73 -1000.00 2085.0
-121.33 -975.95 2034.8
-113.16 -996.92 2078.5
-110.26 -1019.92 2126.5
-107.16 -1043.36 2175.3
-89.66 -1036.75 2161.6
-82.18 -1013.49 2113.1
-78.08 -1031.73 2151.1
-75.21 -1070.28 2231.5
-70.35 -1084.61 2261.4
-53.36 -1096.91 2287.0
-47.87 -1106.90 2307.8
-41.57 -1098.73 2290.8
-34.54 -1065.04 2220.6
-28.58 -1057.29 2204.4
-23.08 -1067.26 2225.2
-17.23 -1062.53 2215.3
-11.37 -1051.30 2191.9
-5.69 -1052.60 2194.6
0.00 -1038.34 2164.9
5.59 -1034.87 2157.7
11.40 -1054.76 2199.1
17.15 -1057.77 2205.4
22.72 -1050.83 2190.9
28.13 -1040.86 2170.1
33.69 -1038.67 2165.6
39.36 -1040.36 2169.1
44.20 -1022.16 2131.1
49.45 -1016.49 2119.3
55.15 -1020.33 2127.3
59.71 -1004.27 2093.8
64.38 -992.54 2069.4
69.98 -995.93 2076.5
76.93 -1016.60 2119.6
82.53 -1017.82 2122.1
84.88 -981.43 2046.2
95.85 -985.14 2054.0
104.58 -1018.30 2123.1
110.92 -1025.97 2139.1
116.99 -1030.61 2148.8
123.42 -1037.83 2163.8
127.83 -1028.20 2143.7
132.08 -1018.14 2122.8
140.43 -1039.16 2166.6
148.81 -1058.87 2207.7
152.06 -1041.88 2172.3
154.14 -1018.43 2123.4
161.45 -1029.92 2147.3
175.38 -1081.52 2254.9
186.18 -1111.10 2316.6
188.28 -1088.49 2269.4
194.44 -1090.02 2272.6
203.54 -1107.50 2309.1
207.61 -1097.38 2288.0
216.02 -1110.09 2314.5
228.09 -1140.46 2377.8
-472.03 -1186.45 2460.4
-469.53 -1196.33 2480.9
-454.23 -1189.96 2467.7
-442.52 -1175.84 2438.4
-421.09 -1135.10 2353.9
-410.12 -1121.79 2326.3
-406.55 -1128.63 2340.5
-392.55 -1106.28 2294.1
-377.88 -1081.33 2242.4
-371.46 -1079.55 2238.7
-365.49 -1079.06 2237.7
-354.65 -1063.94 2206.3
-342.55 -1044.51 2166.0
-332.19 -1029.79 2135.5
-330.44 -1041.74 2160.3
-326.96 -1048.52 2174.4
-314.16 -1025.16 2125.9
-307.45 -1021.17 2117.6
-303.96 -1027.93 2131.7
-289.76 -998.07 2069.7
-272.24 -992.87 2059.0
-265.00 -985.81 2044.3
-257.16 -976.15 2024.3
-255.09 -988.49 2049.9
-252.24 -998.24 2070.1
-245.76 -993.74 2060.7
-236.72 -978.43 2029.0
-229.57 -970.46 2012.5
-230.50 -997.05 2067.6
-229.19 -1015.00 2104.8
-223.60 -1014.36 2103.5
-222.19 -1033.18 2142.5
-215.96 -1029.94 2135.8
-209.49 -1025.40 2126.4
-207.81 -1044.65 2166.3
-203.32 -1050.48 2178.4
-192.50 -1022.97 2121.4
-182.84 -1000.22 2074.2
-176.41 -994.34 2062.0
-168.42 -978.92 2030.0
-164.05 -984.28 2041.1
-163.46 -1013.48 2101.7
-159.73 -1024.47 2124.5
-154.12 -1023.77 2123.0
-149.14 -1027.39 2130.5
-147.21 -1053.11 2183.9
-139.82 -1040.25 2157.2
-128.54 -996.16 2065.8
-122.07 -987.17 2047.1
-117.60 -994.24 2061.8
-115.30 -1021.25 2117.8
-112.39 -1045.23 2167.5
-106.65 -1044.04 2165.1
-101.97 -1053.69 2185.1
-96.16 -1052.05 2181.7
-87.63 -1018.73 2112.6
-80.03 -992.33 2057.8
-75.84 -1007.60 2089.5
-73.07 -1045.45 2168.0
-68.32 -1058.98 2196.0
-62.81 -1062.09 2202.5
-56.61 -1053.03 2183.7
-50.64 -1046.57 2170.3
-45.99 -1069.20 2217.2
-41.14 -1093.13 2266.9
-35.22 -1091.87 2264.2
-29.19 -1085.82 2251.7
-23.61 -1098.01 2277.0
-17.79 -1103.24 2287.8
-11.83 -1100.21 2281.6
-5.94 -1105.44 2292.4
0.00 -1096.32 2273.5
5.69 -1057.66 2193.3
11.21 -1042.88 2162.7
17.21 -1066.76 2212.2
23.25 -1081.07 2241.8
28.02 -1042.39 2161.6
32.63 -1011.52 2097.6
39.03 -1037.11 2150.7
44.72 -1039.67 2156.0
48.79 -1008.35 2091.1
53.00 -985.72 2044.1
57.96 -980.02 2032.3
63.11 -978.22 2028.6
69.64 -996.39 2066.2
77.54 -1030.18 2136.3
82.93 -1028.36 2132.5
84.94 -987.47 2047.8
97.22 -1004.65 2083.4
103.86 -1016.70 2108.4
107.82 -1002.71 2079.3
114.57 -1014.74 2104.3
121.80 -1029.81 2135.5
128.02 -1035.32 2147.0
134.19 -1039.96 2156.6
141.80 -1054.99 2187.8
149.57 -1070.02 2218.9
156.06 -1075.07 2229.4
161.81 -1074.91 2229.1
166.28 -1066.51 2211.7
176.32 -1093.20 2267.0
185.64 -1113.82 2309.8
186.45 -1083.74 2247.4
192.09 -1082.68 2245.2
200.49 -1096.78 2274.4
207.00 -1100.03 2281.2
218.65 -1129.69 2342.7
-499.99 -1230.23 2537.5
-453.71 -1178.38 2430.6
-449.82 -1201.65 2478.6
-419.72 -1137.49 2346.2
-402.97 -1108.18 2285.8
-394.72 -1101.68 2272.4
-390.03 -1105.08 2279.4
-383.95 -1104.61 2278.4
-371.68 -1086.00 2240.0
-360.18 -1069.10 2205.2
-348.42 -1050.89 2167.6
-335.17 -1027.48 2119.3
-332.00 -1034.73 2134.3
-336.93 -1067.90 2202.7
-333.34 -1074.72 2216.8
-320.57 -1051.70 2169.3
-314.27 -1049.42 2164.6
-311.29 -1058.39 2183.1
-295.47 -1023.21 2110.5
-277.81 -980.20 2021.8
-278.55 -1001.70 2066.2
-284.25 -1042.26 2149.8
-273.89 -1024.35 2112.9
-262.80 -1002.95 2068.7
-254.50 -991.50 2045.1
-245.56 -977.01 2015.2
-247.76 -1007.19 2077.5
-247.34 -1027.83 2120.0
-236.69 -1005.94 2074.9
-234.76 -1020.93 2105.8
-235.59 -1048.95 2163.6
-232.23 -1059.18 2184.7
-229.21 -1071.57 2210.3
-221.27 -1060.94 2188.3
-211.84 -1042.47 2150.3
-207.77 -1050.07 2165.9
-199.01 -1033.76 2132.3
-184.49 -985.70 2033.1
-178.54 -981.97 2025.4
-175.93 -996.93 2056.3
-169.81 -992.32 2046.8
-167.49 -1010.33 2084.0
-166.93 -1040.53 2146.2
-163.01 -1051.14 2168.1
-136.18 -1018.66 2101.1
-126.39 -984.82 2031.3
-121.36 -986.68 2035.2
-115.38 -980.71 2022.8
-111.96 -996.94 2056.3
-110.69 -1034.97 2134.8
-106.32 -1046.41 2158.4
-100.48 -1043.90 2153.2
-93.60 -1029.61 2123.7
-87.47 -1022.29 2108.6
-82.01 -1022.38 2108.8
-75.80 -1012.43 2088.3
-71.09 -1022.53 2109.1
-67.41 -1050.51 2166.8
-62.90 -1069.33 2205.6
-56.77 -1061.54 2189.6
-50.80 -1055.49 2177.1
-45.98 -1074.73 2216.8
-41.05 -1096.58 2261.9
-35.68 -1111.89 2293.4
-29.99 -1121.52 2313.3
-23.78 -1111.51 2292.7
-17.55 -1093.65 2255.8
-11.79 -1102.83 2274.7
-5.99 -1119.41 2308.9
0.00 -1116.80 2303.6
5.80 -1084.95 2237.9
11.30 -1056.15 2178.5
17.15 -1069.22 2205.4
23.05 -1077.49 2222.5
27.61 -1032.53 2129.7
32.33 -1007.64 2078.4
38.96 -1040.75 2146.7
44.88 -1049.00 2163.7
49.18 -1021.91 2107.8
53.64 -1003.10 2069.0
58.93 -1001.73 2066.2
64.75 -1009.08 2081.4
72.09 -1036.92 2138.8
78.21 -1044.70 2154.8
81.55 -1016.71 2097.1
86.80 -1014.44 2092.4
94.20 -1036.15 2137.2
100.19 -1040.85 2146.9
104.11 -1024.62 2113.4
108.22 -1011.87 2087.1
115.19 -1025.70 2115.7
123.48 -1049.54 2164.8
130.95 -1064.66 2196.0
136.90 -1066.70 2200.2
144.28 -1079.19 2226.0
152.21 -1094.72 2258.0
158.98 -1101.09 2271.2
163.87 -1094.40 2257.4
167.20 -1078.12 2223.8
177.12 -1104.06 2277.3
186.60 -1125.64 2321.8
189.02 -1104.56 2278.3
196.50 -1113.50 2296.8
206.69 -1136.78 2344.8
215.58 -1151.79 2375.7
222.61 -1156.35 2385.1
229.78 -1161.34 2395.4
-499.50 -1219.57 2502.1
-469.23 -1192.09 2445.8
-435.55 -1137.27 2333.3
-451.38 -1195.19 2452.1
-432.95 -1162.77 2385.6
-412.15 -1122.97 2304.0
-403.82 -1116.46 2290.6
-396.02 -1111.23 2279.9
-390.86 -1113.35 2284.2
-381.03 -1102.04 2261.0
-365.41 -1073.39 2202.2
-360.26 -1075.05 2205.6
-354.51 -1074.97 2205.5
-344.12 -1060.58 2176.0
-344.13 -1078.28 2212.3
-337.82 -1076.45 2208.5
-323.49 -1048.56 2151.3
-314.59 -1037.59 2128.8
-312.53 -1049.20 2152.6
-317.08 -1083.84 2223.7
-307.54 -1070.68 2196.7
-288.57 -1023.59 2100.1
-289.46 -1046.50 2147.1
-292.94 -1079.85 2215.5
-279.63 -1051.42 2157.2
-271.16 -1040.38 2134.5
-265.59 -1040.22 2134.2
-252.83 -1011.30 2074.9
-252.09 -1030.29 2113.8
-254.39 -1062.78 2180.5
-245.53 -1049.09 2152.4
-237.12 -1036.69 2127.0
-231.95 -1038.24 2130.1
-223.15 -1023.20 2099.3
-214.87 -1009.90 2072.0
-216.06 -1041.54 2136.9
-215.15 -1064.45 2183.9
-209.02 -1062.04 2179.0
-198.14 -1034.74 2123.0
-179.82 -1024.40 2101.7
-181.83 -1068.27 2191.7
-172.72 -1047.48 2149.1
-165.92 -1039.78 2133.3
-163.05 -1057.00 2168.6
-147.03 -1063.16 2181.2
-136.74 -1028.31 2109.8
-131.24 -1028.01 2109.1
-124.61 -1018.52 2089.7
-116.90 -998.95 2049.5
-112.18 -1004.32 2060.5
-109.97 -1033.75 2120.9
-105.81 -1046.99 2148.1
-100.13 -1045.78 2145.6
-93.15 -1030.12 2113.5
-87.04 -1022.77 2098.4
-84.16 -1054.82 2164.2
-80.12 -1075.93 2207.4
-73.01 -1055.86 2166.3
-67.06 -1050.68 2155.6
-62.89 -1074.83 2205.2
-57.01 -1071.83 2199.0
-51.15 -1068.38 2192.0
-46.32 -1088.58 2233.4
-40.91 -1098.70 2254.2
-35.14 -1100.93 2258.7
-29.55 -1111.03 2279.5
-23.42 -1100.55 2258.0
-16.94 -1061.58 2178.0
-11.18 -1050.64 2155.6
-5.71 -1074.30 2204.1
0.00 -1079.56 2214.9
5.79 -1088.32 2232.9
11.69 -1099.27 2255.3
17.31 -1084.80 2225.6
22.68 -1065.94 2187.0
27.92 -1049.70 2153.6
33.60 -1052.74 2159.9
39.38 -1057.52 2169.7
44.16 -1037.76 2129.1
49.53 -1034.65 2122.8
55.31 -1039.85 2133.4
60.35 -1031.47 2116.2
65.97 -1033.59 2120.6
72.50 -1048.41 2151.0
77.81 -1044.83 2143.7
81.82 -1025.49 2104.0
87.79 -1031.53 2116.4
95.33 -1054.20 2162.9
101.43 -1059.35 2173.4
105.24 -1041.30 2136.4
109.37 -1028.06 2109.2
117.32 -1050.27 2154.8
126.78 -1083.40 2222.8
133.76 -1093.33 2243.2
139.05 -1089.25 2234.8
144.19 -1084.30 2224.6
149.51 -1081.09 2218.0
157.25 -1094.92 2246.4
163.11 -1095.20 2247.0
168.24 -1090.66 2237.7
180.36 -1130.26 2318.9
188.72 -1144.49 2348.1
189.35 -1112.40 2282.3
195.76 -1115.27 2288.2
204.58 -1131.22 2320.9
213.00 -1144.11 2347.3
219.46 -1146.08 2351.4
223.71 -1136.69 2332.1
233.41 -1154.79 2369.2
241.05 -1161.96 2384.0
-500.07 -1227.44 2505.0
-485.06 -1222.35 2494.6
-468.97 -1214.19 2477.9
-441.73 -1159.54 2366.4
-432.99 -1152.60 2352.2
-429.94 -1160.85 2369.1
-424.12 -1161.71 2370.8
-413.74 -1149.96 2346.9
-403.64 -1138.63 2323.7
-396.69 -1135.99 2318.3
-385.13 -1119.85 2285.4
-367.40 -1084.98 2214.2
-360.91 -1082.73 2209.7
-361.87 -1103.13 2251.3
-357.56 -1107.84 2260.9
-349.18 -1099.92 2244.7
-334.49 -1071.50 2186.7
-326.11 -1062.67 2168.7
-323.09 -1071.29 2186.3
-307.04 -1036.27 2114.8
-299.62 -1029.59 2101.2
-305.85 -1070.49 2184.7
-301.26 -1074.29 2192.4
-286.16 -1040.08 2122.6
-274.96 -1018.96 2079.5
-276.81 -1046.33 2135.4
-274.76 -1081.86 2207.9
-258.99 -1041.46 2125.4
-251.41 -1032.97 2108.1
-247.26 -1038.47 2119.3
-248.03 -1065.42 2174.3
-238.04 -1071.17 2186.1
-223.01 -1028.04 2098.0
-211.87 -1001.10 2043.1
-210.96 -1022.35 2086.4
-207.45 -1031.77 2105.6
-198.34 -1013.12 2067.6
-198.19 -1040.51 2123.5
-191.26 -1032.81 2107.8
-180.23 -1001.86 2044.6
-183.46 -1050.74 2144.4
-183.65 -1084.71 2213.7
-172.40 -1051.10 2145.1
-166.03 -1046.01 2134.7
-163.82 -1067.69 2179.0
-159.57 -1077.07 2198.1
-152.64 -1068.45 2180.5
-142.05 -1032.59 2107.3
-133.06 -1005.93 2052.9
-129.26 -1017.93 2077.4
-124.21 -1020.69 2083.0
-118.83 -1020.82 2083.3
-115.93 -1043.35 2129.3
-110.84 -1047.42 2137.6
-104.11 -1035.66 2113.6
-99.69 -1046.76 2136.2
-94.00 -1045.10 2132.9
-87.96 -1039.04 2120.5
-85.09 -1072.10 2188.0
-73.97 -1075.34 2194.6
-66.24 -1043.31 2129.2
-60.67 -1042.49 2127.5
-56.28 -1063.67 2170.8
-51.66 -1084.84 2214.0
-45.87 -1083.57 2211.4
-39.60 -1069.10 2181.8
-34.35 -1081.89 2207.9
-29.16 -1102.16 2249.3
-23.28 -1099.99 2244.9
-16.95 -1067.89 2179.4
-11.22 -1060.43 2164.1
-5.75 -1087.27 2218.9
0.00 -1084.64 2213.5
5.74 -1085.51 2215.3
11.67 -1103.11 2251.2
17.36 -1093.85 2232.3
22.84 -1079.31 2202.7
28.20 -1066.08 2175.7
33.48 -1054.61 2152.3
38.78 -1047.10 2136.9
43.02 -1016.26 2074.0
47.64 -1000.38 2041.6
54.63 -1032.44 2107.0
61.03 -1048.65 2140.1
65.68 -1034.51 2111.2
71.18 -1034.88 2112.0
77.37 -1044.48 2131.6
82.44 -1038.68 2119.8
88.37 -1043.87 2130.4
95.90 -1066.20 2175.9
99.77 -1047.64 2138.0
101.15 -1006.21 2053.5
106.33 -1004.79 2050.6
115.24 -1037.20 2116.7
121.95 -1047.62 2138.0
125.55 -1031.68 2105.5
135.84 -1069.77 2183.2
146.13 -1104.77 2254.6
149.24 -1084.85 2214.0
154.45 -1081.18 2206.5
163.01 -1100.34 2245.6
170.97 -1114.22 2273.9
180.39 -1136.43 2319.2
185.43 -1130.54 2307.2
187.44 -1107.09 2259.4
195.26 -1118.30 2282.3
204.69 -1137.84 2322.1
213.60 -1153.42 2353.9
219.49 -1152.32 2351.7
222.80 -1138.07 2322.6
233.53 -1161.50 2370.4
-459.62 -1212.89 2462.3
-442.98 -1185.45 2406.5
-432.08 -1172.80 2380.9
-424.01 -1167.56 2370.2
-411.77 -1150.52 2335.6
-403.55 -1144.38 2323.2
-399.18 -1149.15 2332.9
-387.29 -1132.07 2298.2
-369.24 -1096.18 2225.3
-356.63 -1075.56 2183.5
-351.95 -1078.55 2189.5
-348.91 -1086.77 2206.2
-341.50 -1081.43 2195.4
-332.11 -1069.51 2171.2
-328.72 -1076.85 2186.1
-323.55 -1078.50 2189.4
-304.28 -1032.37 2095.8
-290.18 -1002.43 2035.0
-291.09 -1024.21 2079.2
-290.19 -1040.29 2111.9
-278.19 -1016.45 2063.5
-271.03 -1009.71 2049.8
-277.68 -1055.19 2142.1
-280.35 -1087.08 2206.9
-268.49 -1062.77 2157.5
-253.62 -1025.26 2081.4
-247.11 -1020.69 2072.1
-241.18 -1018.30 2067.2
-240.56 -1038.76 2108.8
-244.20 -1079.02 2190.5
-235.56 -1065.63 2163.3
-229.62 -1064.10 2160.2
-226.85 -1077.54 2187.5
-215.35 -1049.16 2129.9
-201.60 -1008.00 2046.3
-191.48 -1010.60 2051.6
-192.36 -1044.27 2119.9
-188.40 -1052.83 2137.3
-184.04 -1059.63 2151.1
-176.49 -1047.92 2127.3
-164.68 -1009.31 2049.0
-158.35 -1002.86 2035.9
-159.01 -1041.82 2115.0
-157.13 -1066.23 2164.5
-151.79 -1068.15 2168.4
-142.51 -1041.40 2114.1
-120.88 -998.57 2027.2
-118.55 -1023.84 2078.5
-113.47 -1026.61 2084.1
-106.17 -1008.63 2047.6
-101.31 -1013.15 2056.8
-98.75 -1042.39 2116.1
-94.58 -1057.06 2145.9
-89.73 -1065.54 2163.1
-84.06 -1064.75 2161.5
-77.62 -1053.35 2138.4
-71.83 -1049.89 2131.4
-65.36 -1034.94 2101.0
-60.41 -1043.40 2118.2
-56.69 -1077.04 2186.5
-51.25 -1081.95 2196.4
-44.83 -1064.77 2161.6
-38.61 -1048.02 2127.6
-33.46 -1059.55 2151.0
-28.35 -1077.25 2186.9
-22.62 -1074.63 2181.6
-17.00 -1076.86 2186.1
-11.61 -1102.94 2239.1
-5.82 -1106.05 2245.4
0.00 -1078.21 2188.8
5.60 -1064.07 2160.1
11.26 -1069.36 2170.9
16.70 -1057.86 2147.5
21.93 -1041.49 2114.3
27.58 -1048.09 2127.7
33.39 -1057.34 2146.5
38.58 -1047.14 2125.8
42.64 -1012.64 2055.7
53.36 -1013.86 2058.2
60.36 -1042.52 2116.4
65.67 -1039.80 2110.9
70.63 -1032.22 2095.5
76.25 -1034.80 2100.7
82.04 -1039.13 2109.5
88.69 -1053.18 2138.0
96.75 -1081.34 2195.2
101.18 -1068.00 2168.1
104.14 -1041.40 2114.1
110.96 -1054.09 2139.9
116.39 -1053.09 2137.9
118.96 -1027.38 2085.6
122.91 -1015.34 2061.2
133.48 -1056.68 2145.1
144.24 -1096.24 2225.5
147.64 -1078.89 2190.2
151.23 -1064.18 2160.4
158.10 -1072.85 2178.0
166.15 -1088.55 2209.8
175.96 -1114.39 2262.3
183.30 -1123.46 2280.7
187.92 -1115.78 2265.1
197.51 -1137.17 2308.5
209.21 -1169.13 2373.4
216.06 -1172.87 2381.0
219.85 -1160.32 2355.5
226.17 -1161.41 2357.8
-443.37 -1209.77 2443.1
-426.27 -1179.98 2382.9
-418.22 -1174.70 2372.2
-413.14 -1177.75 2378.4
-396.90 -1166.29 2355.3
-383.14 -1143.42 2309.1
-375.25 -1137.66 2297.4
-362.71 -1117.39 2256.5
-352.77 -1104.57 2230.6
-341.16 -1086.03 2193.2
-327.57 -1060.43 2141.5
-325.99 -1073.51 2167.9
-321.91 -1078.68 2178.3
-310.55 -1059.20 2139.0
-303.07 -1052.47 2125.4
-290.80 -1028.56 2077.1
-274.55 -1008.43 2036.5
-276.40 -1035.15 2090.4
-274.28 -1047.77 2115.9
-268.76 -1047.60 2115.6
-262.68 -1045.23 2110.8
-253.03 -1028.29 2076.6
-248.46 -1031.63 2083.3
-244.15 -1036.30 2092.7
-240.62 -1044.49 2109.3
-241.36 -1072.11 2165.1
-227.84 -1036.14 2092.4
-217.25 -1012.07 2043.8
-222.82 -1063.99 2148.7
-219.10 -1073.05 2167.0
-208.25 -1046.75 2113.9
-201.36 -1039.44 2099.1
-191.62 -1016.65 2053.1
-183.90 -1003.58 2026.7
-183.96 -1033.40 2086.9
-183.32 -1061.02 2142.7
-181.28 -1082.00 2185.0
-174.64 -1075.99 2172.9
-159.02 -1012.42 2044.5
-151.99 -1001.07 2021.6
-154.18 -1051.70 2123.9
-152.39 -1077.99 2176.9
-143.75 -1056.00 2132.5
-131.92 -1007.85 2035.3
-125.27 -996.91 2013.2
-124.28 -1032.04 2084.2
-119.86 -1040.59 2101.4
-112.91 -1026.97 2073.9
-104.76 -1000.48 2020.4
-99.18 -997.04 2013.5
-98.57 -1045.91 2112.2
-96.22 -1081.04 2183.1
-90.53 -1080.69 2182.4
-84.15 -1071.47 2163.8
-75.55 -1030.75 2081.5
-63.35 -1008.27 2036.1
-60.17 -1044.71 2109.7
-55.07 -1051.87 2124.2
-48.44 -1027.96 2075.9
-44.66 -1066.17 2153.1
-40.56 -1106.59 2234.7
-34.01 -1082.67 2186.4
-27.92 -1066.72 2154.2
-22.87 -1092.04 2205.3
-17.66 -1124.46 2270.8
-11.70 -1117.82 2257.4
-5.70 -1088.54 2198.2
0.00 -1092.98 2207.2
5.81 -1109.39 2240.4
11.21 -1070.78 2162.4
27.10 -1035.22 2090.6
34.07 -1084.44 2190.0
40.77 -1112.36 2246.3
44.71 -1067.50 2155.8
48.63 -1031.96 2084.0
54.10 -1033.23 2086.6
59.83 -1038.94 2098.1
65.80 -1047.31 2115.0
71.49 -1050.34 2121.1
76.56 -1044.50 2109.3
81.71 -1040.43 2101.1
87.67 -1046.55 2113.4
94.92 -1066.41 2153.6
100.82 -1069.85 2160.5
105.31 -1058.66 2137.9
111.17 -1061.66 2144.0
115.84 -1053.56 2127.6
120.22 -1043.69 2107.7
126.25 -1048.44 2117.3
134.23 -1068.24 2157.3
142.12 -1085.82 2192.8
146.64 -1077.26 2175.5
151.57 -1072.23 2165.3
157.88 -1076.94 2174.8
165.51 -1090.06 2201.3
174.87 -1113.35 2248.4
181.89 -1120.69 2263.2
188.40 -1124.49 2270.8
200.59 -1161.01 2344.6
209.94 -1179.39 2381.7
214.38 -1169.88 2362.5
221.79 -1176.73 2376.3
232.28 -1199.05 2421.4
-478.81 -1225.74 2462.4
-438.97 -1221.48 2453.9
-401.87 -1187.07 2384.7
-389.07 -1167.20 2344.8
-383.12 -1167.59 2345.6
-371.60 -1150.77 2311.8
-354.09 -1114.53 2239.0
-335.30 -1072.95 2155.5
-328.46 -1068.87 2147.3
-334.60 -1107.63 2225.1
-334.30 -1126.08 2262.2
-326.48 -1119.34 2248.7
-312.64 -1091.38 2192.5
-293.98 -1045.27 2099.9
-283.74 -1027.88 2064.9
-284.21 -1049.40 2108.2
-283.05 -1065.62 2140.7
-277.46 -1065.46 2140.4
-275.38 -1079.02 2167.7
-272.37 -1089.49 2188.7
-266.22 -1087.55 2184.8
-264.98 -1105.99 2221.8
-260.11 -1109.80 2229.5
-255.51 -1114.94 2239.8
-238.96 -1092.39 2194.5
-219.59 -1028.31 2065.8
-218.16 -1047.16 2103.7
-217.62 -1071.35 2152.3
-209.53 -1058.70 2126.8
-207.14 -1074.89 2159.4
-201.17 -1072.88 2155.3
-188.41 -1033.56 2076.3
-184.63 -1042.63 2094.6
-183.82 -1069.48 2148.5
-181.17 -1087.00 2183.7
-168.79 -1080.24 2170.1
-156.47 -1035.95 2081.2
-154.80 -1061.46 2132.4
-150.67 -1071.40 2152.4
-139.75 -1031.96 2073.1
-132.88 -1020.54 2050.2
-130.98 -1047.81 2105.0
-129.21 -1078.65 2166.9
-124.02 -1082.34 2174.3
-114.99 -1051.31 2112.0
-104.84 -1006.47 2021.9
-99.65 -1007.02 2023.0
-99.63 -1062.77 2135.0
-96.16 -1086.03 2181.7
-89.40 -1072.76 2155.1
-82.70 -1058.60 2126.7
-73.88 -1013.25 2035.6
-58.27 -1017.02 2043.1
-53.41 -1025.54 2060.2
-43.25 -1038.12 2085.5
-39.49 -1083.16 2176.0
-33.21 -1062.70 2134.9
-27.84 -1068.97 2147.5
-23.27 -1117.12 2244.2
-17.62 -1127.39 2264.9
-11.45 -1099.34 2208.5
-5.70 -1094.00 2197.8
0.00 -1123.41 2256.9
5.82 -1116.72 2243.4
10.99 -1055.22 2119.9
16.18 -1035.60 2080.4
22.22 -1066.77 2143.1
28.27 -1085.46 2180.6
45.00 -1080.00 2169.6
48.85 -1042.08 2093.5
54.27 -1042.03 2093.4
59.42 -1037.07 2083.4
64.65 -1034.33 2077.9
70.21 -1036.93 2083.1
75.25 -1031.96 2073.1
81.69 -1045.69 2100.7
89.14 -1069.65 2148.8
93.44 -1055.30 2120.0
96.13 -1025.37 2059.9
113.77 -1040.18 2089.7
122.44 -1068.54 2146.6
128.47 -1072.42 2154.4
136.32 -1090.53 2190.8
146.26 -1123.30 2256.6
153.24 -1131.60 2273.3
155.17 -1103.42 2216.7
157.91 -1082.80 2175.3
166.68 -1103.54 2216.9
177.33 -1134.92 2280.0
183.86 -1138.74 2287.6
189.76 -1138.55 2287.3
196.95 -1145.90 2302.0
200.37 -1131.48 2273.1
211.48 -1160.14 2330.6
238.26 -1203.85 2418.5
-441.37 -1234.56 2467.3
-434.04 -1231.91 2462.0
-407.50 -1191.64 2381.5
-386.56 -1147.80 2293.9
-373.41 -1126.06 2250.4
-367.84 -1126.87 2252.1
-364.25 -1133.89 2266.1
-353.17 -1117.42 2233.2
-339.64 -1092.51 2183.4
-338.42 -1107.04 2212.4
-333.46 -1109.60 2217.6
-321.78 -1089.53 2177.5
-314.68 -1084.53 2167.5
-302.20 -1060.44 2119.3
-292.19 -1044.32 2087.1
-290.52 -1057.94 2114.3
-290.74 -1079.11 2156.6
-288.99 -1093.63 2185.6
-288.81 -1114.81 2228.0
-280.83 -1129.18 2256.7
-266.49 -1094.32 2187.0
-259.51 -1088.81 2176.0
-248.84 -1067.26 2132.9
-248.65 -1090.66 2179.7
-232.70 -1095.41 2189.2
-225.23 -1086.74 2171.9
-219.74 -1087.41 2173.2
-215.20 -1092.98 2184.3
-216.24 -1127.98 2254.3
-190.81 -1083.12 2164.6
-181.42 -1061.00 2120.4
-174.91 -1054.94 2108.3
-169.47 -1055.12 2108.7
-168.13 -1081.63 2161.7
-164.90 -1097.42 2193.2
-156.58 -1079.28 2157.0
-146.45 -1046.84 2092.1
-138.70 -1029.57 2057.6
-134.42 -1037.75 2074.0
-133.68 -1074.97 2148.3
-132.75 -1113.98 2226.3
-125.88 -1104.28 2206.9
-115.31 -1059.72 2117.9
-106.86 -1031.22 2060.9
-103.11 -1047.43 2093.3
-98.57 -1056.92 2112.3
-91.18 -1035.11 2068.7
-87.41 -1054.43 2107.3
-83.28 -1071.51 2141.4
-74.75 -1030.45 2059.4
-62.97 -1012.70 2023.9
-60.68 -1064.65 2127.7
-55.95 -1079.92 2158.2
-49.51 -1061.64 2121.7
-43.04 -1038.42 2075.3
-27.48 -1060.90 2120.2
-23.06 -1112.83 2224.0
-17.51 -1126.72 2251.8
-11.79 -1137.93 2274.2
5.76 -1111.53 2221.4
11.53 -1112.42 2223.2
23.03 -1111.04 2220.4
27.61 -1065.82 2130.1
34.18 -1099.35 2197.1
39.74 -1095.73 2189.8
43.73 -1054.97 2108.4
48.53 -1040.61 2079.7
54.03 -1042.79 2084.0
59.23 -1039.15 2076.8
64.38 -1035.51 2069.5
70.02 -1039.47 2077.4
76.76 -1058.18 2114.8
85.33 -1097.90 2194.2
91.16 -1099.59 2197.6
93.30 -1059.25 2116.9
96.65 -1036.35 2071.2
101.44 -1030.44 2059.4
106.77 -1030.33 2059.1
115.11 -1057.93 2114.3
125.11 -1097.58 2193.5
132.49 -1111.75 2221.8
137.40 -1104.91 2208.2
144.03 -1111.91 2222.2
154.22 -1144.81 2287.9
159.88 -1142.86 2284.0
163.12 -1124.38 2247.1
172.34 -1146.98 2292.3
179.44 -1154.39 2307.1
181.52 -1130.10 2258.5
185.34 -1117.86 2234.1
190.19 -1112.31 2223.0
195.76 -1111.22 2220.8
209.33 -1154.28 2306.9
-404.07 -1187.71 2361.4
-379.77 -1133.47 2253.6
-363.50 -1101.85 2190.7
-360.68 -1110.66 2208.2
-361.04 -1129.71 2246.1
-362.05 -1151.43 2289.3
-359.80 -1163.37 2313.0
-344.98 -1134.35 2255.3
-325.93 -1090.17 2167.5
-314.65 -1070.90 2129.2
-308.06 -1067.21 2121.8
-309.60 -1092.03 2171.2
-313.49 -1126.23 2239.2
-296.32 -1084.63 2156.5
-281.60 -1050.58 2088.8
-282.36 -1074.07 2135.5
-284.95 -1105.60 2198.2
-284.51 -1126.43 2239.6
-269.38 -1088.76 2164.7
-255.83 -1055.98 2099.5
-250.55 -1056.68 2100.9
-242.78 -1046.66 2081.0
-245.25 -1081.33 2149.9
-244.49 -1103.04 2193.1
-231.98 -1071.54 2130.4
-223.86 -1059.25 2106.0
-219.00 -1062.16 2111.8
-219.24 -1090.58 2168.3
-220.15 -1123.92 2234.6
-196.26 -1119.86 2226.5
-185.80 -1092.28 2171.7
-178.35 -1081.27 2149.8
-169.59 -1061.28 2110.1
-165.18 -1068.18 2123.8
-163.32 -1092.56 2172.2
-155.77 -1079.27 2145.8
-149.54 -1074.50 2136.3
-145.35 -1084.52 2156.3
-137.93 -1070.31 2128.0
-134.15 -1084.36 2155.9
-132.51 -1117.70 2222.2
-124.88 -1101.23 2189.5
-114.51 -1057.82 2103.2
-106.15 -1029.66 2047.2
-101.73 -1038.74 2065.3
-96.39 -1038.85 2065.5
-90.18 -1029.07 2046.0
-87.62 -1062.39 2112.3
-71.60 -1068.47 2124.4
-65.51 -1059.11 2105.7
-62.27 -1098.26 2183.6
-56.66 -1099.22 2185.5
-50.37 -1085.79 2158.8
-44.07 -1068.77 2125.0
-38.50 -1067.02 2121.5
-33.54 -1084.58 2156.4
-27.91 -1082.81 2152.9
-22.67 -1099.46 2186.0
-17.26 -1116.11 2219.1
-11.65 -1129.60 2245.9
23.42 -1135.86 2258.3
28.01 -1086.86 2160.9
34.82 -1125.91 2238.6
40.06 -1110.15 2207.2
43.41 -1052.60 2092.8
48.81 -1052.10 2091.8
55.13 -1069.57 2126.5
60.06 -1059.18 2105.9
64.85 -1048.33 2084.3
70.70 -1055.00 2097.6
77.81 -1078.27 2143.8
84.16 -1088.52 2164.2
87.80 -1064.63 2116.7
101.16 -1032.91 2053.6
110.96 -1076.34 2140.0
118.34 -1093.28 2173.7
127.02 -1120.07 2227.0
131.82 -1111.86 2210.6
133.98 -1083.01 2153.3
141.11 -1094.98 2177.1
151.84 -1132.96 2252.6
162.84 -1170.02 2326.2
180.92 -1169.93 2326.1
182.98 -1145.09 2276.7
187.00 -1133.70 2254.0
194.87 -1145.60 2277.7
203.72 -1162.41 2311.1
211.05 -1169.81 2325.8
221.44 -1193.32 2372.6
244.79 -1217.67 2421.0
253.87 -1231.28 2448.1
270.61 -1249.98 2485.2
-449.35 -1234.12 2441.1
-451.17 -1256.84 2486.1
-426.48 -1241.25 2455.2
-403.50 -1192.17 2358.1
-383.10 -1149.30 2273.3
-366.93 -1118.00 2211.4
-365.22 -1130.43 2236.0
-364.65 -1146.88 2268.6
-365.87 -1169.59 2313.5
-360.67 -1172.19 2318.6
-342.06 -1130.54 2236.2
-330.38 -1110.76 2197.1
-326.35 -1116.47 2208.4
-316.74 -1102.93 2181.6
-317.49 -1125.63 2226.5
-325.07 -1173.86 2321.9
-308.31 -1134.33 2243.7
-289.79 -1086.71 2149.5
-288.40 -1102.69 2181.2
-284.31 -1108.81 2193.3
-276.33 -1099.69 2175.2
-264.58 -1074.86 2126.1
-254.92 -1057.64 2092.0
-260.14 -1102.76 2181.3
-262.21 -1136.23 2247.5
-255.63 -1132.91 2240.9
-245.92 -1115.21 2205.9
-240.16 -1115.02 2205.5
-237.70 -1130.53 2236.2
-224.58 -1094.84 2165.6
-216.50 -1082.48 2141.2
-216.07 -1108.77 2193.2
-214.18 -1128.77 2232.7
-195.59 -1121.77 2218.9
-183.78 -1085.98 2148.1
-181.34 -1105.06 2185.8
-177.35 -1115.60 2206.7
-162.66 -1057.27 2091.3
-151.70 -1020.07 2017.7
-148.50 -1034.18 2045.6
-146.08 -1055.05 2086.9
-147.60 -1106.99 2189.6
-133.23 -1082.51 2141.2
-124.30 -1053.81 2084.5
-122.62 -1086.83 2149.8
-117.25 -1088.76 2153.6
-107.89 -1051.92 2080.7
-102.59 -1052.93 2082.7
-96.33 -1043.57 2064.2
-89.53 -1026.98 2031.4
-85.68 -1044.21 2065.5
-83.90 -1090.74 2157.5
-80.19 -1116.98 2209.4
-71.55 -1073.31 2123.0
-65.28 -1060.76 2098.2
-62.00 -1099.16 2174.2
-56.23 -1096.51 2168.9
-49.72 -1077.17 2130.7
-44.16 -1076.32 2129.0
-39.14 -1090.35 2156.7
-33.95 -1103.47 2182.7
-28.11 -1096.28 2168.5
-22.50 -1096.76 2169.4
-16.87 -1096.33 2168.6
-11.34 -1105.37 2186.4
11.37 -1108.53 2192.7
16.83 -1094.07 2164.1
22.43 -1093.60 2163.2
27.92 -1089.06 2154.2
34.92 -1135.05 2245.2
40.29 -1122.38 2220.1
44.14 -1075.87 2128.1
50.19 -1087.55 2151.2
56.51 -1101.93 2179.6
61.42 -1088.79 2153.6
65.78 -1068.87 2114.3
71.19 -1067.90 2112.3
75.47 -1051.14 2079.2
85.64 -1043.76 2064.6
91.65 -1051.33 2079.6
104.79 -1075.47 2127.3
113.39 -1105.55 2186.8
119.19 -1106.78 2189.2
125.31 -1110.71 2197.0
127.01 -1076.79 2129.9
131.68 -1069.89 2116.3
141.42 -1103.09 2181.9
149.94 -1124.55 2224.4
158.24 -1142.86 2260.6
167.31 -1165.20 2304.8
172.72 -1161.42 2297.3
173.87 -1130.18 2235.5
184.59 -1124.86 2225.0
199.54 -1179.10 2332.3
207.59 -1190.58 2355.0
213.66 -1190.36 2354.6
221.13 -1197.78 2369.2
233.80 -1232.17 2437.3
263.11 -1251.36 2475.2
269.08 -1249.29 2471.1
-481.66 -1258.73 2477.1
-473.06 -1252.97 2465.8
-423.72 -1186.42 2334.8
-419.87 -1192.67 2347.1
-420.45 -1211.89 2384.9
-413.50 -1209.63 2380.5
-399.17 -1185.42 2332.8
-385.68 -1162.98 2288.7
-377.39 -1155.75 2274.4
-380.12 -1182.58 2327.2
-383.99 -1213.91 2388.9
-369.40 -1186.94 2335.8
-349.04 -1140.20 2243.8
-341.03 -1132.93 2229.5
-339.48 -1147.19 2257.6
-331.37 -1139.45 2242.4
-317.95 -1112.84 2190.0
-316.91 -1129.34 2222.5
-322.75 -1171.47 2305.4
-319.17 -1180.34 2322.8
-312.88 -1179.32 2320.8
-306.36 -1177.39 2317.0
-296.65 -1162.85 2288.4
-280.21 -1120.84 2205.7
-259.57 -1059.90 2085.8
-255.09 -1063.76 2093.4
-266.85 -1137.00 2237.5
-219.32 -1102.25 2169.1
-208.76 -1076.75 2119.0
-206.97 -1096.37 2157.6
-206.14 -1122.32 2208.6
-199.65 -1118.01 2200.2
-184.89 -1065.83 2097.5
-175.07 -1039.82 2046.3
-175.03 -1072.08 2109.8
-175.17 -1107.50 2179.5
-164.08 -1071.98 2109.6
-152.88 -1033.27 2033.4
-149.83 -1048.80 2064.0
-147.92 -1073.82 2113.2
-149.72 -1128.69 2221.2
-134.20 -1095.97 2156.8
-120.24 -1024.63 2016.4
-114.36 -1018.87 2005.1
-116.55 -1087.77 2140.7
-114.47 -1121.83 2207.7
-105.60 -1089.36 2143.8
-96.02 -1045.56 2057.6
-88.97 -1025.74 2018.6
-84.96 -1040.77 2048.2
-80.49 -1051.72 2069.7
-74.29 -1040.03 2046.7
-70.82 -1067.73 2101.2
-50.91 -1108.74 2181.9
-44.61 -1092.94 2150.8
-38.92 -1089.81 2144.7
-33.21 -1084.87 2134.9
-28.44 -1114.80 2193.8
-23.57 -1154.69 2272.3
-17.58 -1148.82 2260.8
-11.71 -1147.48 2258.2
-5.82 -1139.78 2243.0
0.00 -1108.53 2181.5
5.73 -1123.02 2210.0
11.33 -1109.88 2184.2
16.45 -1074.98 2115.5
21.48 -1052.31 2070.9
32.68 -1067.65 2101.1
39.41 -1103.40 2171.4
45.29 -1109.70 2183.8
50.20 -1093.34 2151.6
55.04 -1078.79 2123.0
61.25 -1091.41 2147.8
67.04 -1094.97 2154.8
73.91 -1114.37 2193.0
79.66 -1115.19 2194.6
81.32 -1062.59 2091.1
86.92 -1064.76 2095.4
96.51 -1112.65 2189.6
104.17 -1134.28 2232.2
107.93 -1113.34 2191.0
109.76 -1075.67 2116.8
116.06 -1083.24 2131.7
122.79 -1093.98 2152.9
125.07 -1065.80 2097.4
140.00 -1097.64 2160.1
148.58 -1120.10 2204.3
153.84 -1116.78 2197.7
159.06 -1113.45 2191.2
166.53 -1125.48 2214.9
170.10 -1111.30 2187.0
185.95 -1138.94 2241.4
202.53 -1202.89 2367.2
211.68 -1220.29 2401.4
216.17 -1210.58 2382.3
221.98 -1208.55 2378.3
231.00 -1223.66 2408.1
241.57 -1245.98 2452.0
-448.92 -1245.58 2438.8
-428.40 -1205.63 2360.5
-426.52 -1217.74 2384.3
-414.28 -1200.20 2349.9
-398.91 -1190.70 2331.3
-398.35 -1207.30 2363.8
-387.67 -1193.30 2336.4
-389.08 -1216.65 2382.1
-360.07 -1182.23 2314.7
-347.30 -1159.62 2270.5
-345.89 -1174.85 2300.3
-337.16 -1165.28 2281.6
-325.06 -1143.52 2239.0
-325.78 -1166.87 2284.7
-329.97 -1203.76 2356.9
-323.95 -1204.10 2357.6
-308.03 -1166.95 2284.8
-292.13 -1128.42 2209.4
-285.22 -1123.75 2200.2
-270.70 -1088.33 2130.9
-260.07 -1067.36 2089.8
-266.91 -1118.73 2190.4
-259.60 -1111.77 2176.8
-246.89 -1080.82 2116.2
-257.22 -1151.66 2254.9
-247.67 -1161.69 2274.5
-241.26 -1159.23 2269.7
-232.30 -1144.08 2240.0
-215.33 -1087.69 2129.6
-196.71 -1047.34 2050.6
-199.38 -1091.06 2136.2
-194.93 -1097.16 2148.2
-186.11 -1078.31 2111.3
-181.80 -1085.31 2125.0
-173.01 -1065.08 2085.4
-164.85 -1047.57 2051.1
-163.98 -1076.78 2108.3
-161.68 -1098.28 2150.4
-151.87 -1068.49 2092.0
-143.85 -1049.57 2055.0
-146.75 -1111.92 2177.1
-145.22 -1144.32 2240.5
-136.22 -1118.12 2189.2
-125.47 -1074.66 2104.1
-116.02 -1038.90 2034.1
-115.41 -1082.63 2119.7
-114.63 -1129.10 2210.7
-106.81 -1107.40 2168.2
-100.07 -1095.24 2144.4
-95.58 -1107.62 2168.6
-88.97 -1095.44 2144.8
-81.93 -1075.98 2106.7
-74.53 -1048.79 2053.5
-70.14 -1062.96 2081.2
-67.58 -1109.41 2172.2
-62.43 -1118.11 2189.2
-57.41 -1130.91 2214.3
-51.44 -1125.96 2204.6
-44.69 -1100.55 2154.8
-38.65 -1087.86 2130.0
-33.22 -1090.62 2135.4
-28.59 -1126.59 2205.8
0.00 -1114.38 2181.9
5.61 -1105.74 2165.0
11.48 -1131.20 2214.8
17.19 -1128.91 2210.3
22.59 -1112.51 2178.2
27.92 -1100.21 2154.1
33.96 -1115.18 2183.5
40.40 -1136.98 2226.1
46.00 -1132.84 2218.0
50.61 -1107.77 2169.0
55.74 -1098.17 2150.1
62.38 -1117.20 2187.4
67.86 -1113.95 2181.1
74.34 -1126.61 2205.8
81.35 -1144.71 2241.3
84.35 -1107.80 2169.0
86.72 -1067.71 2090.5
92.99 -1077.62 2109.9
99.37 -1087.52 2129.3
101.28 -1050.15 2056.1
113.33 -1063.10 2081.5
121.35 -1086.60 2127.5
124.99 -1070.57 2096.1
130.74 -1073.16 2101.2
141.76 -1117.07 2187.2
148.85 -1127.82 2208.2
152.06 -1109.50 2172.3
161.41 -1135.66 2223.6
173.57 -1179.06 2308.5
178.90 -1174.79 2300.2
183.55 -1166.43 2283.8
192.83 -1187.11 2324.3
204.29 -1219.56 2387.8
212.24 -1229.77 2407.8
215.55 -1213.22 2375.4
233.91 -1245.39 2438.4
237.48 -1199.59 2348.7
250.42 -1233.31 2414.7
275.05 -1260.11 2467.2
-463.61 -1274.94 2483.6
-446.52 -1245.21 2425.7
-441.19 -1247.92 2431.0
-419.48 -1203.72 2344.9
-410.24 -1230.73 2397.5
-402.09 -1224.82 2386.0
-382.45 -1183.22 2305.0
-379.77 -1193.55 2325.1
-384.48 -1227.85 2391.9
-353.76 -1207.66 2352.6
-343.59 -1193.53 2325.1
-329.98 -1166.71 2272.8
-320.15 -1152.55 2245.2
-314.67 -1153.79 2247.6
-311.11 -1162.27 2264.2
-296.51 -1129.04 2199.4
-283.41 -1100.31 2143.5
-280.22 -1109.68 2161.7
-268.40 -1084.56 2112.8
-259.47 -1070.31 2085.0
-262.10 -1104.17 2151.0
-251.63 -1083.10 2109.9
-237.47 -1068.62 2081.7
-240.81 -1108.85 2160.1
-229.00 -1079.56 2103.0
-230.09 -1111.16 2164.6
-227.83 -1127.77 2197.0
-216.63 -1099.81 2142.5
-207.62 -1081.83 2107.5
-203.39 -1088.42 2120.3
-207.03 -1138.69 2218.2
-203.98 -1153.92 2247.9
-195.84 -1140.48 2221.7
-187.00 -1122.01 2185.7
-174.30 -1078.48 2100.9
-171.45 -1095.06 2133.2
-167.05 -1140.52 2221.8
-151.19 -1069.14 2082.7
-140.78 -1032.38 2011.1
-142.17 -1082.66 2109.1
-143.97 -1140.26 2221.3
-137.73 -1136.30 2213.6
-130.21 -1120.94 2183.6
-124.01 -1116.05 2174.1
-118.14 -1113.90 2169.9
-112.44 -1113.11 2168.4
-106.96 -1114.59 2171.3
-102.46 -1127.02 2195.5
-91.38 -1130.88 2203.0
-84.82 -1119.56 2181.0
-77.91 -1101.85 2146.5
-69.23 -1054.45 2054.1
-62.83 -1036.72 2019.6
-58.26 -1048.65 2042.8
-53.84 -1066.06 2076.7
-49.81 -1095.79 2134.7
-44.66 -1105.43 2153.4
-38.47 -1088.12 2119.7
-32.97 -1088.16 2119.8
-28.11 -1113.31 2168.8
-23.53 -1164.94 2269.4
5.72 -1132.56 2206.3
11.16 -1104.69 2152.0
16.92 -1116.55 2175.1
22.48 -1112.88 2167.9
28.09 -1112.39 2167.0
34.54 -1139.76 2220.3
40.66 -1150.22 2240.7
45.83 -1134.19 2209.5
51.57 -1134.60 2210.3
58.11 -1150.52 2241.3
64.04 -1152.74 2245.6
68.61 -1132.13 2205.4
74.12 -1128.86 2199.1
80.20 -1134.25 2209.6
84.19 -1111.35 2165.0
87.59 -1083.87 2111.4
93.76 -1091.99 2127.3
99.88 -1098.73 2140.4
105.56 -1099.99 2142.8
113.36 -1122.23 2186.2
117.13 -1104.32 2151.3
119.95 -1079.57 2103.1
127.19 -1094.94 2133.0
137.24 -1132.20 2205.6
146.85 -1163.05 2265.7
152.10 -1158.34 2256.5
154.27 -1131.28 2203.8
163.05 -1152.99 2246.1
173.52 -1184.72 2307.9
176.37 -1164.03 2267.6
180.65 -1153.82 2247.7
190.20 -1176.85 2292.6
198.61 -1191.68 2321.5
203.58 -1185.55 2309.5
210.25 -1189.43 2317.1
235.79 -1261.78 2458.0
243.77 -1237.62 2411.0
257.51 -1274.65 2483.1
-469.73 -1280.49 2481.9
-467.88 -1293.18 2506.5
-449.81 -1278.74 2478.5
-408.71 -1213.94 2352.9
-408.78 -1251.50 2425.7
-383.23 -1191.60 2309.6
-375.06 -1184.73 2296.3
-383.51 -1230.96 2385.9
-354.26 -1194.87 2316.0
-347.30 -1191.60 2309.6
-340.50 -1188.77 2304.2
-332.96 -1183.21 2293.4
-329.63 -1192.65 2311.7
-318.42 -1173.43 2274.4
-309.46 -1161.92 2252.1
-298.47 -1142.21 2213.9
-289.65 -1130.22 2190.7
-290.80 -1157.39 2243.3
-282.03 -1145.39 2220.1
-268.43 -1112.87 2157.0
-267.10 -1130.93 2192.0
-263.70 -1140.78 2211.1
-252.56 -1116.88 2164.8
-247.91 -1121.25 2173.3
-241.64 -1118.31 2167.6
-230.20 -1090.72 2114.1
-232.11 -1126.56 2183.6
-235.12 -1169.72 2267.2
-229.20 -1169.51 2266.8
-215.69 -1129.55 2189.4
-207.00 -1113.33 2157.9
-210.54 -1163.80 2255.8
-207.70 -1180.93 2289.0
-199.15 -1165.60 2259.2
-190.52 -1148.90 2226.9
-176.98 -1100.62 2133.3
-173.83 -1115.90 2162.9
-165.80 -1137.75 2205.3
-154.25 -1096.29 2124.9
-148.08 -1091.41 2115.4
-145.67 -1114.91 2161.0
-143.88 -1145.27 2219.8
-136.59 -1132.60 2195.3
-128.38 -1110.76 2153.0
-120.28 -1088.00 2108.8
-112.80 -1068.89 2071.8
-108.27 -1077.25 2088.0
-104.18 -1091.10 2114.8
-98.54 -1089.38 2111.5
-92.99 -1088.56 2109.9
-87.49 -1088.20 2109.2
-82.27 -1091.50 2115.6
-77.31 -1098.91 2130.0
-70.24 -1075.16 2083.9
-62.93 -1043.61 2022.8
-57.72 -1044.13 2023.8
-52.54 -1045.56 2026.6
-47.77 -1056.16 2047.1
-43.81 -1089.67 2112.1
-38.73 -1101.17 2134.4
-33.24 -1102.59 2137.1
-28.38 -1129.67 2189.6
-22.56 -1122.36 2175.4
-16.57 -1099.00 2130.1
-11.32 -1126.06 2182.6
-5.81 -1156.33 2241.3
0.00 -1168.72 2265.3
5.73 -1141.20 2212.0
10.94 -1088.47 2109.7
16.26 -1078.83 2091.0
21.71 -1080.18 2093.7
27.22 -1083.36 2099.8
32.93 -1092.04 2116.7
38.09 -1082.84 2098.8
44.60 -1109.38 2150.3
52.12 -1152.42 2233.7
56.53 -1124.86 2180.3
59.95 -1084.46 2102.0
66.22 -1098.15 2128.5
73.83 -1130.16 2190.5
82.57 -1173.61 2274.8
91.95 -1143.64 2216.7
97.22 -1138.04 2205.8
104.30 -1153.05 2234.9
111.13 -1163.93 2256.0
117.79 -1172.06 2271.8
120.29 -1139.87 2209.4
122.66 -1109.52 2150.5
129.23 -1118.09 2167.2
137.42 -1139.47 2208.6
144.97 -1153.97 2236.7
152.00 -1163.42 2255.0
156.65 -1154.56 2237.8
161.46 -1147.53 2224.2
167.40 -1148.73 2226.5
173.36 -1149.93 2228.9
181.39 -1164.38 2256.9
187.28 -1164.64 2257.4
191.35 -1153.92 2236.6
202.58 -1185.72 2298.2
217.11 -1234.40 2392.6
224.26 -1239.65 2402.8
249.52 -1273.17 2467.7
263.05 -1276.74 2474.7
-461.35 -1281.54 2471.5
-442.03 -1262.94 2435.7
-435.40 -1262.03 2433.9
-437.74 -1287.48 2483.0
-426.58 -1273.38 2455.8
-418.86 -1269.26 2447.9
-411.62 -1266.51 2442.6
-393.91 -1230.95 2374.0
-349.05 -1183.20 2281.9
-348.39 -1201.36 2316.9
-345.48 -1212.22 2337.8
-340.93 -1217.59 2348.2
-337.57 -1227.54 2367.4
-326.47 -1209.16 2331.9
-319.31 -1204.92 2323.8
-309.80 -1191.54 2298.0
-296.93 -1164.43 2245.7
-294.39 -1177.55 2271.0
-291.15 -1188.37 2291.9
-282.65 -1177.69 2271.3
-280.70 -1194.46 2303.6
-276.90 -1203.91 2321.8
-256.62 -1140.55 2199.6
-243.73 -1107.84 2136.6
-242.97 -1130.08 2179.4
-237.08 -1128.96 2177.3
-234.59 -1144.33 2206.9
