ply
format ascii 1.0
element vertex 2101
property float x
property float y
property float z
end_header
1917.22 -14.15 2728.8
1992.52 -14.60 2815.2
1985.58 -14.34 2764.9
1982.12 -14.26 2750.1
1996.76 -14.31 2760.5
2030.24 -14.50 2796.8
2022.02 -14.39 2775.5
1785.10 -22.04 2833.5
1776.45 -21.84 2808.2
1756.45 -21.51 2765.3
1783.05 -21.57 2773.2
1819.58 -21.92 2818.6
1881.29 -21.62 2780.2
1912.35 -21.49 2762.6
1937.12 -21.52 2767.3
2000.59 -21.98 2826.6
1976.65 -21.56 2772.4
1983.15 -21.56 2771.5
2010.06 -21.77 2798.9
2001.39 -21.60 2776.9
2006.71 -21.58 2774.2
2025.52 -21.70 2790.3
2003.16 -21.39 2749.6
1741.38 -29.89 2882.7
1780.22 -29.79 2873.0
1737.52 -28.96 2792.4
1800.53 -29.64 2858.0
1803.06 -29.44 2838.6
1755.60 -28.55 2752.7
1762.82 -28.55 2752.8
1767.59 -28.28 2727.1
1812.67 -28.43 2741.9
1793.83 -28.03 2702.8
1845.70 -28.50 2748.7
1818.74 -27.98 2698.1
1900.65 -28.58 2756.0
1839.47 -27.56 2657.3
1936.27 -28.79 2776.4
1887.20 -27.96 2696.0
1994.78 -29.23 2818.4
2010.29 -29.24 2819.6
1983.23 -28.54 2751.7
1986.75 -28.48 2746.7
2000.23 -28.57 2755.4
1986.64 -28.28 2727.0
2010.50 -28.32 2730.6
1737.40 -37.44 2888.5
1754.59 -37.49 2892.2
1748.09 -37.19 2869.2
1743.59 -36.94 2849.7
1782.66 -37.45 2889.1
1773.33 -37.10 2861.9
1741.18 -36.27 2798.3
1798.73 -36.71 2831.8
1794.28 -36.47 2813.3
1762.57 -35.39 2730.3
1757.22 -35.14 2711.1
1784.03 -35.12 2709.2
1743.48 -34.05 2626.9
1809.74 -35.21 2716.1
1826.84 -35.40 2731.2
1777.65 -34.32 2647.4
1797.46 -34.57 2666.6
1883.35 -35.94 2772.7
1865.16 -35.46 2735.4
1869.43 -35.41 2731.3
1833.48 -34.59 2668.7
1820.00 -34.21 2639.1
1818.94 -34.06 2627.7
1842.94 -34.38 2652.4
1874.45 -34.84 2687.7
1916.40 -35.49 2737.7
1955.65 -36.08 2783.5
1914.37 -35.19 2714.7
1947.37 -35.67 2751.4
1972.66 -35.61 2746.9
1997.25 -35.67 2751.3
2026.64 -36.06 2781.9
2019.54 -35.81 2762.3
2033.07 -35.92 2771.0
1730.14 -44.75 2876.5
1745.95 -44.96 2890.3
1733.80 -44.46 2857.9
1722.55 -43.98 2827.3
1714.32 -43.58 2801.9
1719.61 -43.35 2786.9
1761.69 -43.14 2773.5
1713.58 -41.79 2686.8
1778.92 -43.21 2777.9
1788.88 -43.28 2782.2
1718.05 -41.40 2661.4
1717.48 -41.22 2649.8
1772.48 -42.37 2723.8
1763.76 -41.99 2699.6
1765.91 -41.88 2692.2
1777.39 -41.99 2699.1
1744.76 -41.05 2639.1
1769.97 -41.48 2666.8
1794.72 -41.90 2693.6
1772.87 -41.23 2650.5
1754.75 -40.65 2613.3
1799.10 -41.52 2669.0
1812.81 -41.67 2679.0
1860.26 -41.96 2697.5
1855.89 -41.71 2681.1
1876.55 -42.01 2700.8
1915.59 -42.73 2746.7
2001.04 -43.98 2827.2
2003.60 -43.87 2820.5
2001.49 -43.67 2807.3
1973.14 -42.89 2757.5
1941.70 -42.06 2703.8
1932.28 -41.70 2681.0
1964.39 -42.24 2715.7
2039.49 -43.70 2809.5
2043.08 -43.62 2804.4
2008.28 -42.73 2746.9
1709.88 -51.15 2818.5
1736.03 -51.71 2849.4
1746.86 -51.38 2831.0
1751.64 -51.30 2826.9
1775.94 -51.80 2854.2
1782.70 -51.14 2818.1
1733.03 -49.11 2706.3
1786.87 -50.23 2768.0
1715.79 -48.04 2647.2
1723.78 -47.88 2638.4
1755.99 -48.58 2677.1
1786.13 -49.22 2712.3
1777.24 -48.79 2688.3
1772.13 -48.46 2670.1
1765.28 -48.08 2649.4
1757.68 -47.32 2607.6
1764.01 -47.31 2606.9
1879.51 -49.46 2725.4
1909.59 -49.88 2748.3
1908.85 -49.49 2726.9
1915.31 -49.47 2726.1
1926.37 -49.58 2731.7
1911.45 -49.01 2700.6
1952.01 -49.87 2747.9
1985.76 -50.55 2785.2
1974.25 -50.07 2759.0
1961.47 -49.57 2731.3
1957.36 -49.29 2715.8
1999.50 -50.17 2764.3
2032.97 -50.82 2800.5
1991.80 -49.62 2734.0
2035.74 -50.00 2755.1
1739.44 -58.47 2819.0
1716.82 -57.47 2770.7
1755.56 -57.80 2786.6
1712.08 -56.13 2706.4
1686.04 -54.83 2643.6
1747.52 -56.60 2728.9
1767.94 -56.57 2727.7
1726.01 -55.01 2652.4
1722.08 -54.67 2635.8
1746.06 -55.21 2662.0
1769.02 -55.72 2686.4
1789.31 -56.14 2706.5
1810.22 -56.57 2727.5
1814.01 -56.47 2722.5
1798.88 -55.78 2689.4
1739.59 -53.73 2590.7
1736.39 -53.43 2576.0
1781.88 -54.62 2633.3
1784.30 -54.48 2626.8
1776.00 -54.02 2604.7
1767.64 -53.36 2572.8
1840.28 -55.35 2668.5
1853.49 -55.54 2677.6
1833.65 -54.74 2639.0
1851.98 -55.08 2655.5
1846.86 -54.72 2638.4
1844.54 -54.45 2625.3
1843.90 -54.23 2614.8
1857.56 -54.24 2614.9
1898.05 -55.22 2662.2
1900.29 -55.08 2655.7
1922.91 -55.54 2677.6
1956.13 -56.29 2714.1
1977.75 -56.71 2734.2
1990.03 -56.86 2741.4
1980.55 -56.39 2718.6
1982.78 -56.25 2712.0
1987.95 -56.20 2709.5
2004.96 -56.48 2723.0
2038.64 -57.23 2759.1
1722.92 -67.13 2876.9
1735.17 -65.62 2812.1
1727.28 -65.04 2787.6
1774.75 -66.55 2852.3
1774.24 -66.26 2839.6
1752.96 -65.19 2794.0
1779.47 -65.91 2824.5
1756.37 -64.78 2776.5
1713.26 -62.94 2697.3
1732.21 -63.37 2716.0
1749.22 -63.48 2720.6
1708.11 -61.74 2646.0
1737.96 -62.57 2681.4
1762.48 -63.20 2708.4
1743.89 -62.28 2669.2
1758.60 -62.56 2681.1
1776.10 -62.93 2697.1
1791.44 -63.23 2709.7
1821.76 -64.05 2744.8
1827.03 -63.49 2720.9
1807.85 -62.58 2682.0
1838.96 -63.41 2717.7
1792.10 -61.56 2638.3
1764.72 -60.16 2578.3
1823.62 -61.93 2654.3
1838.50 -62.20 2665.9
1797.08 -60.58 2596.1
1810.18 -60.79 2605.3
1857.63 -62.15 2663.6
1857.68 -61.92 2653.8
1864.01 -61.90 2653.0
1861.12 -61.58 2639.2
1839.11 -60.63 2598.4
1927.51 -62.63 2684.0
1975.35 -63.95 2740.7
2011.66 -64.89 2781.1
2007.58 -64.53 2765.5
1978.71 -63.37 2716.1
2011.03 -64.18 2750.7
2048.79 -65.16 2792.4
2014.37 -63.84 2735.8
1996.38 -63.04 2701.9
2039.02 -64.16 2749.9
2048.78 -64.02 2743.9
1709.49 -73.37 2829.9
1751.15 -74.84 2886.5
1754.54 -74.66 2879.8
1738.58 -73.67 2841.5
1768.53 -74.62 2878.3
1738.78 -72.75 2806.2
1751.42 -72.98 2814.8
1749.79 -72.61 2800.5
1730.56 -71.51 2758.3
1757.00 -72.30 2788.9
1735.98 -71.15 2744.2
1711.04 -69.84 2693.8
1749.34 -71.11 2742.9
1761.93 -71.33 2751.4
1707.51 -68.85 2655.7
1695.56 -68.09 2626.5
1746.58 -69.86 2694.7
1735.13 -69.13 2666.4
1760.49 -69.04 2662.9
1806.65 -70.30 2711.5
1764.82 -68.40 2638.4
1776.79 -68.60 2646.1
1795.48 -69.06 2663.6
1851.01 -70.65 2725.0
1802.89 -68.55 2644.1
1835.23 -69.52 2681.3
1854.68 -69.99 2699.5
1832.18 -68.88 2656.8
1873.83 -70.18 2707.0
1914.93 -70.92 2735.6
1917.39 -70.75 2729.0
1908.29 -70.16 2706.1
1904.88 -69.78 2691.4
1922.84 -70.18 2706.8
1915.31 -69.65 2686.4
1932.71 -70.03 2701.0
1975.83 -71.33 2751.3
2018.06 -72.07 2780.0
2026.31 -72.11 2781.4
2010.73 -70.80 2730.9
2003.43 -70.30 2711.4
2059.18 -72.00 2777.1
1706.30 -80.55 2824.7
1723.58 -81.02 2841.1
1703.47 -79.74 2796.0
1730.66 -80.67 2828.6
1755.02 -80.77 2832.4
1726.51 -79.13 2774.8
1679.24 -75.70 2654.5
1702.37 -76.43 2680.1
1711.62 -76.54 2683.7
1694.99 -75.49 2646.9
1714.99 -76.07 2667.3
1775.72 -78.45 2750.7
1768.24 -77.80 2728.1
1773.08 -76.49 2682.0
1744.17 -74.36 2607.6
1714.28 -72.81 2553.0
1712.69 -72.46 2540.8
1759.23 -74.14 2599.8
1817.77 -76.32 2676.1
1838.85 -76.91 2696.8
1838.53 -76.61 2686.2
1825.15 -75.76 2656.6
1862.17 -77.01 2700.2
1881.02 -76.63 2687.2
1865.57 -75.72 2655.3
1881.12 -76.07 2667.6
1905.94 -76.80 2692.9
1943.59 -78.03 2736.0
1959.90 -78.40 2749.0
1924.48 -76.70 2689.5
1914.51 -76.03 2665.9
1950.04 -77.16 2705.6
1975.74 -77.90 2731.4
1984.49 -77.96 2733.7
2024.45 -79.25 2778.9
2041.52 -79.35 2782.5
2031.97 -78.70 2759.7
2021.35 -77.47 2716.6
2061.76 -78.75 2761.3
1703.65 -88.50 2844.7
1717.52 -87.33 2807.1
1742.25 -87.84 2823.6
1714.90 -86.10 2767.6
1706.88 -85.34 2743.2
1664.19 -81.85 2630.7
1713.00 -83.90 2696.9
1747.54 -85.25 2740.0
1746.65 -84.86 2727.6
1740.96 -83.57 2686.1
1698.42 -81.20 2610.0
1721.41 -81.33 2614.1
1769.13 -83.25 2676.0
1803.25 -84.53 2716.9
1818.11 -84.89 2728.7
1788.54 -83.19 2673.9
1735.37 -80.40 2584.4
1716.51 -79.22 2546.5
1751.29 -80.52 2588.1
1796.89 -82.30 2645.4
1776.80 -81.07 2605.8
1738.49 -79.02 2540.0
1807.51 -81.85 2630.9
1821.91 -81.58 2622.1
1857.36 -82.86 2663.2
1891.24 -84.06 2701.8
1826.97 -80.90 2600.3
1823.26 -80.14 2576.0
1868.81 -81.85 2630.8
1905.83 -83.16 2673.1
1891.80 -82.25 2643.8
1883.50 -81.60 2622.7
1918.38 -82.81 2661.7
1944.59 -83.64 2688.4
1953.86 -83.74 2691.5
1948.41 -83.21 2674.5
1950.57 -83.00 2668.0
1995.88 -84.63 2720.3
2058.39 -86.37 2776.0
2037.96 -85.21 2738.9
1732.66 -97.09 2880.7
1720.79 -95.60 2836.5
1710.03 -94.60 2806.7
1725.77 -95.06 2820.6
1734.74 -95.15 2823.3
1721.68 -94.04 2790.2
1704.27 -92.70 2750.5
1715.22 -92.91 2756.6
1701.83 -91.80 2723.7
1666.22 -88.77 2634.0
1740.23 -92.34 2739.7
1729.44 -90.29 2679.0
1719.65 -89.42 2653.2
1720.13 -89.09 2643.3
1707.99 -88.11 2614.3
1726.44 -88.71 2632.1
1779.58 -91.08 2702.4
1800.93 -91.45 2713.5
1748.72 -88.46 2624.5
1801.77 -90.79 2693.7
1809.72 -90.49 2684.7
1844.84 -91.19 2705.6
1763.24 -86.83 2576.2
1798.91 -88.25 2618.4
1838.83 -89.53 2656.4
1763.62 -85.55 2538.3
1800.65 -87.02 2581.9
1872.79 -90.17 2675.4
1849.85 -88.74 2632.9
1809.48 -86.48 2566.0
1839.33 -87.59 2598.7
1839.76 -87.29 2589.9
1859.82 -86.97 2580.4
1924.76 -89.05 2642.0
1935.13 -89.21 2646.8
1986.90 -91.27 2708.0
2067.09 -93.63 2778.1
2087.87 -94.24 2796.3
1744.95 -103.51 2851.9
1739.43 -101.89 2807.2
1737.29 -101.34 2792.1
1734.22 -99.91 2752.7
1725.96 -99.03 2728.4
1742.80 -99.59 2743.8
1737.65 -98.89 2724.5
1754.52 -99.45 2739.9
1720.09 -97.10 2675.3
1683.79 -94.67 2608.3
1692.36 -94.77 2611.1
1722.75 -96.09 2647.4
1740.68 -96.70 2664.3
1730.17 -95.74 2637.7
1754.18 -96.69 2663.8
1783.68 -97.55 2687.5
1750.27 -95.35 2626.9
1821.11 -98.82 2722.6
1829.72 -98.52 2714.4
1785.78 -94.34 2599.3
1748.36 -92.02 2535.2
1802.30 -94.50 2603.7
1830.25 -95.61 2634.1
1789.67 -93.14 2566.2
1780.96 -92.35 2544.2
1835.95 -94.85 2613.1
1875.62 -96.54 2659.8
1891.77 -97.01 2672.8
1874.96 -95.80 2639.4
1858.03 -94.59 2606.1
1860.76 -94.39 2600.4
1858.21 -93.92 2587.5
1857.96 -93.57 2577.8
1886.69 -94.33 2599.0
1936.42 -96.48 2658.0
1971.00 -97.85 2695.9
2026.90 -99.92 2752.8
2072.44 -101.45 2795.0
2039.52 -99.49 2741.0
1700.58 -111.39 2864.4
1661.53 -108.36 2786.4
1658.12 -107.67 2768.7
1661.42 -106.96 2750.4
1685.82 -108.07 2778.8
1684.32 -107.51 2764.5
1696.84 -107.85 2773.3
1738.69 -110.04 2829.7
1749.26 -110.25 2834.9
1725.09 -108.27 2784.1
1741.39 -108.84 2798.7
1777.67 -109.28 2810.1
1762.50 -107.91 2774.8
1712.27 -104.41 2684.7
1686.49 -102.42 2633.6
1695.11 -102.53 2636.4
1700.48 -102.44 2634.1
1741.17 -104.47 2686.4
1768.44 -105.26 2706.8
1710.31 -101.40 2607.5
1679.85 -99.20 2551.0
1680.60 -98.86 2542.1
1738.79 -101.88 2619.8
1795.04 -104.77 2694.1
1768.76 -102.83 2644.3
1701.61 -98.55 2534.1
1727.36 -99.66 2562.6
1789.62 -102.85 2644.8
1777.47 -101.76 2616.8
1787.73 -101.96 2621.9
1834.14 -104.21 2679.8
1790.76 -101.36 2606.5
1775.45 -99.74 2564.9
1848.38 -103.45 2660.2
1851.88 -103.26 2655.4
1828.42 -101.58 2612.0
1871.45 -103.59 2663.6
1884.71 -103.94 2672.6
1869.12 -102.70 2640.8
1961.73 -105.09 2702.4
1941.59 -103.64 2665.1
1963.21 -104.43 2685.2
1963.60 -104.08 2676.3
2033.02 -106.63 2741.8
1672.66 -116.36 2805.1
1700.61 -117.79 2839.6
1723.54 -118.86 2865.5
1748.35 -118.53 2857.5
1731.23 -116.88 2817.6
1721.81 -115.27 2778.8
1749.56 -115.67 2788.6
1764.33 -116.17 2800.5
1734.17 -112.79 2719.1
1724.09 -111.68 2692.3
1749.03 -112.84 2720.3
1753.01 -111.30 2683.2
1729.37 -109.37 2636.5
1729.75 -108.96 2626.7
1687.09 -105.86 2551.9
1699.98 -106.25 2561.4
1758.89 -109.50 2639.8
1740.29 -107.92 2601.8
1698.70 -104.94 2529.8
1749.58 -107.67 2595.5
1814.13 -111.21 2681.0
1804.29 -110.19 2656.3
1744.25 -106.11 2558.1
1718.29 -104.14 2510.5
1748.19 -105.55 2544.5
1769.68 -106.45 2566.1
1757.69 -105.33 2539.2
1774.68 -105.95 2554.2
1818.59 -108.17 2607.6
1837.46 -108.89 2624.9
1865.58 -110.14 2655.3
1865.00 -109.71 2644.7
1859.76 -109.00 2627.6
1929.14 -111.83 2696.0
1939.00 -112.00 2700.0
1956.31 -111.79 2694.9
1915.57 -109.07 2629.4
1921.78 -109.04 2628.6
1946.32 -110.04 2652.7
1948.41 -109.77 2646.2
1961.17 -110.10 2654.2
2054.32 -114.93 2770.6
2036.39 -112.74 2717.9
1721.21 -128.90 2924.7
1753.87 -130.20 2954.1
1738.54 -128.50 2915.6
1732.15 -126.92 2879.8
1711.09 -123.78 2808.5
1738.94 -124.73 2830.1
1724.83 -122.69 2783.6
1732.05 -122.18 2772.1
1691.92 -117.88 2674.6
1709.73 -118.63 2691.7
1685.14 -116.45 2642.2
1694.31 -116.61 2645.8
1710.52 -117.25 2660.4
1715.40 -117.12 2657.2
1756.13 -119.42 2709.5
1763.79 -119.46 2710.4
1708.05 -115.23 2614.4
1702.93 -114.43 2596.2
1712.03 -114.58 2599.8
1677.04 -111.80 2536.7
1679.52 -111.10 2520.7
1693.59 -110.73 2512.5
1755.75 -114.36 2594.7
1783.38 -115.72 2625.5
1758.19 -113.65 2578.6
1730.58 -111.44 2528.4
1762.77 -113.08 2565.8
1788.84 -114.32 2593.9
1781.45 -113.43 2573.5
1789.94 -113.54 2576.1
1819.02 -114.96 2608.3
1788.04 -112.58 2554.3
1765.47 -110.75 2512.8
1823.39 -113.96 2585.7
1885.02 -117.38 2663.3
1853.73 -115.01 2609.5
1805.13 -111.19 2522.7
1871.24 -114.84 2605.6
1911.33 -116.88 2651.9
1915.27 -116.70 2647.8
1927.40 -117.02 2655.1
1941.32 -117.45 2664.7
1995.96 -120.32 2730.0
2056.65 -122.68 2783.4
2053.43 -121.63 2759.7
2069.99 -122.19 2772.3
1694.65 -135.57 2905.1
1724.66 -136.16 2917.7
1706.49 -132.97 2849.4
1659.39 -128.75 2758.8
1682.20 -129.96 2784.8
1752.39 -133.09 2852.0
1735.19 -131.23 2812.1
1673.69 -122.96 2635.0
1655.98 -121.17 2596.5
1700.64 -123.93 2655.7
1750.91 -127.08 2723.2
1723.38 -124.58 2669.6
1732.61 -124.75 2673.2
1736.94 -124.56 2669.2
1678.95 -119.92 2569.8
1678.68 -119.43 2559.2
1689.91 -119.76 2566.2
1678.01 -118.45 2538.2
1679.27 -118.07 2530.1
1685.48 -118.05 2529.6
1734.89 -119.65 2563.9
1812.43 -124.52 2668.3
1801.40 -123.29 2641.9
1788.57 -121.95 2613.2
1802.80 -122.45 2624.0
1812.52 -122.65 2628.3
1799.51 -121.32 2599.6
1801.78 -121.01 2593.2
1828.60 -122.36 2622.0
1793.63 -119.58 2562.3
1780.27 -118.25 2533.9
1853.20 -122.64 2628.0
1857.64 -122.03 2615.0
1830.87 -118.97 2549.4
1860.94 -120.49 2582.0
1874.71 -120.95 2591.8
1895.55 -121.86 2611.2
1911.75 -122.46 2624.2
1971.04 -125.81 2695.9
2030.36 -128.23 2747.9
2011.75 -126.61 2713.2
2053.27 -128.78 2759.5
1638.31 -137.13 2783.8
1744.38 -144.73 2938.1
1724.93 -142.49 2892.7
1675.02 -137.77 2796.9
1679.83 -137.57 2792.8
1709.23 -138.19 2805.4
1699.41 -136.82 2777.5
1717.72 -137.71 2795.6
1704.61 -136.08 2762.6
1674.25 -131.45 2668.5
1694.65 -132.50 2689.9
1696.97 -132.14 2682.6
1673.54 -129.78 2634.7
1663.36 -128.47 2608.1
1715.04 -131.93 2678.2
1728.11 -131.86 2676.9
1736.81 -132.00 2679.6
1740.06 -131.72 2674.0
1683.71 -125.95 2556.8
1725.25 -128.55 2609.6
1720.56 -127.70 2592.4
1719.13 -127.10 2580.1
1775.97 -130.79 2655.1
1755.30 -128.27 2604.0
1800.82 -131.09 2661.3
1816.80 -130.26 2644.4
1790.82 -127.92 2596.8
1741.35 -123.92 2515.6
1736.06 -123.08 2498.6
1754.71 -123.94 2516.1
1762.54 -124.03 2517.9
1792.76 -125.69 2551.6
1827.70 -127.67 2591.8
1837.38 -127.88 2596.0
1870.22 -129.69 2632.7
1860.83 -128.57 2610.0
1857.75 -127.89 2596.2
1911.74 -131.13 2662.0
1914.54 -130.85 2656.3
1898.57 -129.29 2624.7
1898.33 -128.82 2615.1
1892.77 -127.98 2598.1
1943.51 -129.57 2630.3
1707.55 -149.79 2888.7
1700.35 -148.50 2864.0
1660.10 -143.11 2760.0
1698.93 -145.83 2812.5
1682.50 -143.80 2773.4
1709.18 -144.23 2781.7
1740.64 -146.27 2821.0
1718.57 -143.81 2773.5
1721.65 -143.47 2766.9
1742.70 -144.62 2789.1
1758.52 -145.33 2802.8
1743.49 -143.50 2767.4
1711.23 -140.26 2705.1
1685.70 -137.61 2653.9
1669.11 -135.70 2617.1
1680.40 -136.06 2624.1
1687.38 -136.08 2624.4
1678.10 -134.79 2599.5
1706.22 -136.50 2632.4
1713.74 -136.55 2633.5
1693.45 -133.34 2571.6
1737.77 -136.30 2628.6
1736.43 -135.66 2616.3
1702.35 -132.48 2555.0
1726.93 -133.87 2581.8
1791.70 -137.29 2647.8
1780.68 -135.93 2621.5
1809.53 -137.61 2653.8
1798.99 -136.29 2628.4
1788.35 -134.97 2603.0
1765.70 -132.76 2560.4
1771.90 -132.73 2559.7
1823.13 -136.05 2623.9
1812.85 -134.78 2599.4
1789.88 -132.58 2557.0
1789.73 -132.08 2547.3
1790.12 -131.63 2538.5
1791.05 -131.21 2530.5
1818.56 -132.74 2560.0
1836.31 -133.55 2575.6
1859.91 -134.78 2599.3
1926.14 -139.07 2682.1
1935.99 -139.28 2686.1
1932.95 -138.56 2672.3
1947.47 -139.11 2682.7
1940.85 -138.14 2664.1
1927.39 -136.21 2626.9
2025.28 -142.12 2741.0
2025.71 -141.66 2732.0
2022.52 -140.94 2718.2
1642.83 -151.31 2779.2
1652.21 -149.55 2746.9
1716.84 -154.74 2842.1
1721.19 -154.47 2837.1
1695.38 -151.50 2782.7
1667.27 -148.36 2725.0
1696.99 -150.37 2761.8
1761.59 -154.14 2831.1
1755.76 -152.99 2810.1
1757.81 -152.54 2801.7
1730.00 -149.51 2746.0
1752.72 -150.85 2770.7
1744.15 -148.89 2734.7
1730.87 -147.16 2702.9
1742.32 -147.54 2709.8
1736.99 -146.49 2690.7
1708.77 -143.54 2636.4
1666.72 -139.45 2561.3
1675.75 -139.65 2564.9
1746.16 -144.94 2662.1
1749.33 -144.63 2656.5
1717.22 -141.42 2597.5
1750.07 -143.56 2636.8
1750.94 -143.07 2627.9
1699.00 -138.29 2540.0
1710.78 -138.71 2547.8
1772.85 -143.19 2630.0
1771.93 -142.57 2618.6
1724.94 -138.26 2539.4
1715.94 -137.01 2516.6
1728.29 -137.48 2525.1
1742.92 -138.12 2536.9
1805.24 -142.52 2617.7
1841.85 -143.26 2631.2
1844.70 -142.95 2625.6
1848.10 -142.68 2620.7
1852.06 -142.47 2616.7
1821.86 -139.63 2564.7
1781.62 -136.05 2498.9
1787.66 -136.02 2498.3
1830.98 -138.81 2549.6
1884.99 -142.39 2615.4
1929.85 -145.26 2668.0
1947.89 -146.09 2683.3
1948.32 -145.60 2674.4
1969.36 -146.65 2693.6
2035.19 -149.96 2754.4
2039.81 -149.78 2751.0
2042.02 -149.42 2744.4
2041.57 -148.35 2724.8
1698.60 -164.62 2886.2
1684.84 -162.57 2850.3
1693.88 -162.73 2853.1
1690.13 -161.66 2834.4
1675.53 -159.57 2797.7
1717.42 -162.86 2855.3
1747.64 -165.01 2893.1
1714.28 -161.17 2825.7
1730.02 -161.96 2839.5
1741.12 -162.31 2845.7
1700.47 -157.85 2767.5
1699.90 -157.13 2754.9
1703.49 -156.81 2749.2
1701.06 -155.28 2722.5
1743.30 -158.48 2778.6
1727.70 -156.42 2742.4
1763.75 -159.03 2788.1
1727.32 -154.48 2708.3
1726.92 -153.82 2696.8
1747.54 -155.02 2718.0
1736.27 -153.41 2689.6
1704.25 -149.97 2629.4
1691.07 -148.22 2598.7
1732.40 -151.24 2651.6
1759.68 -153.02 2682.7
1717.29 -148.74 2607.8
1685.09 -145.38 2548.9
1715.10 -147.39 2584.1
1745.78 -149.44 2620.1
1722.71 -146.90 2575.5
1691.71 -143.14 2509.7
1729.77 -145.80 2556.3
1722.53 -144.64 2535.9
1709.02 -142.96 2506.4
1721.35 -143.45 2515.0
1747.84 -145.10 2544.0
1827.74 -151.17 2650.3
1829.62 -150.19 2633.3
1777.65 -145.38 2548.9
1756.32 -143.11 2509.0
1781.93 -144.66 2536.2
1810.51 -146.44 2567.4
1827.07 -147.24 2581.4
1805.49 -144.97 2541.6
1787.83 -143.03 2507.6
1820.62 -145.12 2544.3
1806.33 -143.46 2515.3
1798.37 -142.32 2495.2
1914.25 -150.41 2637.0
1950.49 -152.71 2677.3
1984.35 -154.26 2704.6
2031.69 -155.74 2730.5
2065.53 -157.78 2766.3
1729.07 -171.42 2874.7
1689.61 -166.79 2797.0
1689.22 -166.03 2784.4
1736.59 -169.96 2850.3
1747.18 -170.28 2855.6
1701.33 -165.11 2768.9
1689.23 -163.24 2737.6
1678.58 -161.54 2709.0
1697.18 -161.97 2716.3
1747.88 -166.12 2785.9
1739.22 -164.62 2760.7
1667.99 -157.23 2636.8
1677.14 -155.54 2608.5
1687.88 -155.91 2614.6
1674.19 -154.03 2583.0
1680.54 -153.99 2582.5
1722.93 -157.25 2637.1
1747.99 -158.91 2664.9
1704.48 -154.34 2588.3
1670.05 -150.63 2526.1
1699.45 -152.69 2560.6
1728.43 -154.68 2594.1
1736.41 -154.80 2596.0
1726.03 -153.28 2570.5
1725.72 -150.92 2530.9
1731.32 -150.84 2529.5
1753.32 -152.17 2552.0
1749.31 -151.26 2536.6
1776.68 -149.68 2510.2
1795.48 -150.72 2527.5
1818.38 -152.08 2550.5
1815.21 -151.27 2536.8
1912.89 -157.13 2635.1
2007.79 -163.18 2736.5
2066.08 -165.57 2776.7
1657.52 -174.48 2804.1
1680.75 -176.15 2830.9
1702.53 -177.66 2855.2
1704.40 -177.08 2845.9
1676.89 -173.47 2787.9
1716.27 -176.78 2841.2
1674.54 -170.29 2736.8
1710.54 -173.22 2783.9
1765.18 -177.26 2848.8
1733.05 -173.31 2785.3
1714.45 -170.73 2743.9
1700.98 -168.69 2711.1
1727.85 -170.65 2742.6
1690.22 -166.25 2671.9
1654.45 -161.41 2594.1
1716.40 -165.44 2658.8
1770.14 -169.93 2731.1
1725.02 -164.94 2650.8
1720.01 -163.81 2632.7
1754.91 -166.47 2675.5
1718.02 -162.33 2608.9
1706.76 -160.64 2581.7
1762.78 -165.26 2656.0
1749.28 -163.36 2625.4
1714.57 -159.49 2563.3
1743.65 -161.57 2596.7
1741.03 -160.71 2582.9
1735.56 -159.59 2564.9
1771.54 -162.28 2608.1
1798.67 -164.14 2637.9
1806.72 -164.25 2639.7
1792.72 -162.36 2609.3
1749.69 -157.87 2537.1
1744.15 -155.61 2500.9
1766.84 -157.05 2524.1
1761.47 -156.00 2507.1
1779.05 -156.98 2522.8
1799.00 -158.15 2541.8
1806.28 -158.21 2542.7
1835.59 -160.20 2574.6
1835.94 -159.65 2565.8
1803.64 -156.27 2511.5
1799.17 -155.32 2496.3
1829.18 -157.35 2528.8
1944.96 -166.71 2679.3
1985.87 -169.01 2716.2
2008.18 -170.30 2737.0
2011.61 -169.99 2732.1
2001.95 -168.59 2709.4
1633.18 -179.87 2775.1
1662.91 -182.34 2813.2
1696.34 -185.19 2857.2
1655.79 -179.98 2776.8
1744.76 -186.41 2876.0
1722.15 -183.21 2826.6
1669.13 -176.81 2728.0
1730.20 -182.51 2815.9
1715.53 -179.45 2768.6
1703.31 -177.43 2737.5
1702.07 -176.56 2724.1
1702.91 -175.92 2714.2
1746.80 -179.71 2772.7
1767.43 -181.09 2793.9
1758.68 -179.46 2768.8
1776.68 -180.56 2785.7
1765.65 -178.71 2757.2
1695.12 -170.88 2636.4
1718.36 -172.53 2661.8
1768.96 -175.49 2707.6
1709.26 -168.90 2605.9
1732.65 -170.54 2631.1
1774.00 -172.57 2662.5
1722.70 -166.93 2575.5
1735.11 -167.48 2584.0
1758.70 -169.11 2609.1
1779.02 -170.40 2629.1
1815.11 -173.20 2672.2
1833.23 -172.95 2668.3
1831.69 -172.15 2656.1
1826.13 -170.99 2638.1
1820.49 -169.82 2620.1
1860.49 -172.91 2667.7
1845.10 -170.84 2635.9
1799.74 -166.03 2561.6
1805.33 -165.93 2560.1
1814.95 -166.20 2564.3
1804.35 -164.63 2540.0
1815.10 -165.01 2545.9
1879.33 -170.23 2626.4
1910.62 -172.44 2660.5
1942.03 -174.64 2694.5
1929.31 -171.65 2648.3
1953.24 -173.16 2671.6
2029.82 -179.31 2766.5
2028.56 -178.57 2755.1
2013.61 -176.63 2725.2
1677.94 -191.34 2838.6
1673.20 -188.33 2793.8
1683.50 -186.26 2763.2
1718.42 -189.32 2808.6
1720.58 -188.76 2800.2
1696.49 -185.33 2749.4
1688.50 -183.69 2725.0
1716.81 -185.99 2759.2
1685.99 -181.89 2698.4
1697.10 -181.58 2693.8
1720.24 -183.30 2719.4
1726.88 -183.26 2718.7
1757.13 -185.71 2755.1
1763.83 -185.67 2754.4
1712.73 -179.56 2663.8
1680.79 -175.50 2603.6
1750.72 -182.07 2701.1
1730.53 -178.55 2648.8
1736.98 -178.50 2648.1
1778.38 -180.62 2679.5
1780.43 -180.12 2672.1
1774.68 -178.84 2653.2
1776.65 -178.35 2645.9
1791.98 -179.20 2658.4
1781.05 -177.42 2632.1
1787.97 -177.43 2632.2
1815.70 -179.50 2662.9
1822.10 -179.45 2662.2
1813.23 -177.90 2639.2
1819.58 -177.85 2638.5
1823.13 -175.56 2604.5
1790.35 -171.77 2548.2
1805.70 -172.60 2560.6
1924.97 -180.68 2680.5
1943.79 -179.85 2668.1
2011.95 -185.50 2751.9
2031.30 -185.96 2758.8
1972.44 -179.94 2669.5
2028.47 -183.76 2726.2
2062.89 -186.23 2762.8
2059.70 -185.30 2749.0
1682.38 -201.89 2884.1
1651.99 -196.49 2807.0
1683.81 -199.40 2848.6
1713.81 -199.45 2849.3
1670.20 -193.54 2764.9
1667.17 -192.37 2748.1
1727.95 -198.53 2836.1
1751.93 -197.09 2815.6
1722.42 -191.38 2734.0
1744.57 -193.05 2757.8
1751.82 -193.06 2758.0
1769.80 -194.25 2774.9
1765.22 -192.96 2756.6
1743.83 -189.85 2712.2
1740.14 -188.69 2695.6
1711.41 -184.83 2640.5
1675.39 -180.22 2574.6
1680.08 -180.01 2571.5
1748.90 -184.45 2635.1
1749.77 -183.83 2626.1
1735.61 -181.63 2594.8
1731.35 -180.49 2578.4
1761.63 -182.94 2613.4
1768.52 -182.95 2613.6
1755.78 -180.94 2584.8
1762.05 -180.89 2584.2
1797.63 -183.85 2626.4
1818.10 -185.24 2646.3
1825.03 -185.25 2646.4
1806.37 -181.31 2590.1
1796.00 -179.60 2565.7
1816.53 -180.98 2585.5
1860.72 -184.70 2638.6
1843.37 -182.31 2604.4
1815.84 -178.28 2546.9
1880.05 -183.92 2627.4
1860.10 -181.31 2590.1
1931.99 -186.30 2661.4
1933.57 -185.79 2654.1
1953.39 -187.03 2671.8
1951.40 -186.18 2659.7
2053.69 -192.53 2750.5
1678.55 -209.82 2890.4
1709.94 -209.08 2880.1
1683.26 -204.92 2822.9
1689.68 -204.81 2821.4
1691.46 -204.14 2812.2
1657.59 -199.20 2744.0
1665.39 -199.28 2745.2
1728.23 -205.92 2836.6
1757.46 -205.89 2836.3
1708.46 -199.32 2745.7
1724.86 -198.75 2737.9
1735.27 -199.13 2743.1
1751.06 -200.12 2756.8
1738.83 -195.53 2693.5
1680.24 -188.19 2592.4
1673.54 -186.69 2571.7
1713.16 -190.35 2622.2
1734.90 -192.00 2645.0
1731.46 -190.87 2629.3
1708.69 -187.62 2584.6
1752.86 -190.97 2630.8
1745.04 -188.65 2598.8
1711.75 -184.34 2539.4
1738.09 -186.46 2568.6
1748.26 -186.84 2573.8
1760.70 -187.45 2582.2
1801.92 -191.11 2632.7
1812.79 -191.54 2638.6
1808.93 -190.41 2623.0
1845.36 -193.52 2665.8
1838.64 -192.10 2646.2
1785.02 -185.80 2559.5
1775.74 -184.15 2536.8
1798.52 -185.82 2559.8
1843.81 -189.80 2614.6
1875.97 -191.71 2640.8
1841.69 -187.52 2583.2
1824.06 -185.05 2549.2
1810.96 -183.06 2521.7
1857.88 -187.12 2577.7
1964.49 -195.75 2696.6
2033.78 -200.51 2762.2
2058.51 -201.53 2776.2
2044.08 -199.42 2747.2
2065.39 -200.80 2766.2
1678.39 -216.33 2877.2
1717.77 -216.59 2880.7
1705.85 -214.15 2848.4
1715.40 -214.42 2852.0
1685.74 -209.81 2790.6
1666.72 -205.68 2735.7
1712.00 -210.37 2798.1
1724.07 -210.96 2805.9
1692.73 -203.69 2709.2
1690.35 -202.56 2694.2
1719.83 -205.25 2729.9
1687.02 -200.51 2666.8
1661.46 -196.66 2615.7
1670.58 -196.94 2619.4
1663.57 -195.32 2597.8
1713.68 -200.39 2665.3
1735.89 -202.17 2689.0
1690.87 -196.14 2608.8
1696.72 -196.04 2607.4
1699.83 -195.62 2601.8
1681.02 -192.69 2562.8
1690.06 -192.96 2566.5
1682.04 -191.29 2544.3
1768.13 -199.52 2653.7
1779.86 -199.29 2650.7
1744.43 -194.57 2587.9
1770.30 -196.70 2616.2
1792.34 -198.39 2638.7
1819.51 -200.63 2668.5
1821.03 -199.28 2650.6
1766.77 -192.62 2561.9
1749.68 -190.04 2527.6
1810.49 -195.91 2605.7
1827.61 -197.03 2620.6
1776.66 -190.83 2538.1
1762.71 -188.63 2508.9
1774.55 -189.20 2516.4
1786.98 -189.83 2524.8
1846.25 -195.41 2599.0
1856.94 -195.11 2595.1
1824.12 -190.97 2540.0
1871.07 -195.18 2596.0
2043.59 -208.68 2775.5
1638.31 -217.47 2796.1
1646.74 -217.63 2798.1
1704.24 -222.29 2858.0
1675.36 -217.58 2797.4
1669.38 -215.87 2775.4
1702.52 -219.21 2818.4
1721.85 -220.75 2838.2
1715.80 -219.04 2816.2
1738.31 -220.97 2841.1
1718.08 -217.48 2796.1
1740.60 -216.67 2785.8
1761.18 -218.33 2807.1
1739.59 -213.88 2749.9
1687.44 -206.63 2656.6
1672.49 -203.96 2622.4
1656.24 -200.35 2575.9
1749.72 -210.81 2710.4
1771.51 -212.58 2733.2
1705.20 -203.81 2620.4
1693.67 -200.04 2571.9
1706.58 -200.77 2581.4
1728.34 -202.54 2604.1
1732.47 -202.23 2600.2
1715.50 -199.48 2564.7
1733.45 -200.79 2581.5
1771.53 -204.41 2628.1
1811.45 -208.21 2677.0
1796.78 -204.96 2635.1
1739.44 -197.66 2541.4
1795.92 -203.31 2614.0
1809.59 -204.09 2624.0
1753.42 -197.01 2533.0
1772.10 -198.37 2550.5
1805.10 -201.31 2588.3
1776.42 -197.38 2537.7
1795.76 -198.79 2555.9
1843.91 -203.37 2614.8
1822.49 -200.27 2574.9
1847.74 -202.31 2601.1
1862.50 -202.45 2602.9
1841.35 -199.42 2564.0
1901.17 -205.16 2637.8
1933.75 -207.93 2673.4
1655.77 -228.13 2838.5
1645.62 -225.73 2808.6
1663.04 -226.12 2813.4
1690.35 -228.82 2847.1
1668.22 -224.85 2797.6
1665.88 -223.56 2781.6
1651.13 -220.63 2745.1
1674.41 -222.78 2771.9
1718.49 -227.66 2832.7
1735.79 -228.98 2849.0
1741.70 -228.78 2846.6
1706.33 -223.19 2777.0
1680.65 -218.91 2723.7
1710.46 -221.86 2760.5
1751.47 -226.23 2814.9
1738.12 -222.65 2770.3
1708.17 -217.91 2711.4
1742.01 -221.32 2753.8
1761.01 -222.82 2772.4
1746.29 -220.06 2738.1
1708.83 -214.47 2668.5
1657.08 -207.13 2577.3
1674.79 -208.51 2594.3
1737.06 -215.40 2680.0
1714.20 -211.71 2634.2
1658.97 -204.08 2539.2
1685.48 -206.52 2569.6
1719.50 -207.41 2580.7
1705.28 -204.90 2549.4
1726.53 -206.65 2571.2
1764.59 -210.39 2617.8
1800.57 -213.86 2660.9
1750.44 -206.33 2567.2
1780.41 -208.27 2591.4
1829.16 -213.17 2652.4
1802.02 -209.22 2603.2
1764.45 -204.10 2539.5
1744.92 -201.09 2502.0
1784.76 -204.92 2549.7
1835.94 -207.72 2584.5
1823.59 -205.57 2557.8
1814.63 -203.82 2536.0
1824.22 -204.15 2540.2
1843.74 -205.60 2558.1
1836.41 -204.05 2538.8
2038.83 -221.77 2759.3
1678.14 -237.61 2864.1
1637.91 -229.88 2770.9
1691.61 -236.38 2849.3
1695.03 -235.83 2842.6
1716.36 -237.76 2865.9
1720.28 -237.28 2860.1
1650.94 -226.74 2733.0
1680.51 -228.84 2758.3
1748.20 -237.04 2857.2
1702.94 -229.93 2771.5
1669.92 -224.53 2706.3
1694.44 -226.87 2734.6
1732.76 -231.04 2784.8
1739.55 -230.98 2784.1
1693.85 -223.98 2699.8
1711.01 -223.48 2693.7
1726.71 -224.61 2707.4
1727.57 -222.02 2676.1
1703.71 -218.07 2628.6
1728.64 -220.38 2656.4
1718.75 -218.25 2630.7
1731.19 -218.96 2639.3
1751.01 -218.88 2638.2
1710.95 -213.04 2567.9
1733.32 -214.98 2591.3
1719.05 -212.39 2560.1
1719.17 -211.59 2550.4
1734.90 -212.71 2563.9
1733.85 -211.77 2552.6
1752.99 -213.29 2570.9
1801.50 -218.36 2632.1
1795.98 -216.87 2614.1
1764.90 -212.32 2559.2
1739.87 -208.52 2513.5
1808.54 -214.35 2583.6
1833.11 -216.46 2609.1
1794.52 -211.12 2544.8
1836.97 -215.32 2595.4
1837.82 -213.86 2577.7
1788.25 -207.33 2499.1
1801.85 -208.16 2509.0
1827.73 -210.39 2535.9
2033.81 -228.36 2752.5
2033.08 -227.48 2741.9
2063.28 -230.05 2772.9
1650.52 -239.94 2804.5
1636.15 -233.74 2732.0
1723.61 -245.17 2865.6
1732.16 -245.33 2867.5
1638.80 -231.11 2701.3
1664.68 -233.76 2732.3
1732.43 -241.22 2819.5
1675.94 -232.38 2716.1
1676.84 -231.53 2706.2
1697.72 -233.44 2728.5
1692.25 -231.72 2708.4
1698.36 -231.59 2706.9
1699.14 -230.75 2697.1
1692.42 -228.89 2675.4
1720.37 -231.72 2708.5
1743.07 -233.83 2733.0
1735.94 -227.33 2657.1
1715.61 -223.77 2615.6
1685.79 -219.02 2560.0
1673.16 -214.01 2501.4
1676.53 -213.61 2496.8
1700.51 -215.83 2522.7
1743.58 -220.45 2576.7
1749.29 -220.33 2575.3
1780.27 -223.38 2610.9
1822.83 -226.99 2653.2
1757.84 -218.08 2549.0
1747.27 -214.35 2505.4
1773.95 -216.82 2534.2
1809.04 -218.68 2555.9
1856.21 -223.56 2613.0
1786.01 -214.32 2505.1
1796.70 -214.82 2510.9
1872.01 -223.02 2606.7
1675.01 -245.48 2784.8
1726.20 -251.89 2857.6
1669.57 -242.59 2752.0
1683.60 -243.59 2763.4
1746.24 -250.52 2842.0
1695.04 -242.15 2747.1
1717.01 -244.26 2771.0
1738.47 -245.26 2782.4
1730.94 -243.19 2758.9
1720.13 -240.68 2730.4
1701.21 -237.05 2689.3
1722.23 -239.00 2711.4
1740.65 -240.58 2729.2
1713.42 -235.85 2675.7
1692.99 -232.10 2633.1
1722.70 -235.23 2668.6
1735.13 -234.10 2655.8
1685.80 -226.55 2570.1
1733.81 -225.86 2562.3
1782.08 -231.26 2623.6
1744.04 -225.46 2557.8
1718.15 -221.28 2510.3
1777.37 -228.04 2587.0
1786.46 -228.34 2590.5
1743.89 -222.07 2519.3
1753.43 -222.45 2523.6
1798.36 -227.30 2578.6
1826.31 -229.98 2609.0
1778.10 -223.08 2530.8
1762.95 -220.37 2500.0
1775.35 -221.11 2508.3
1773.59 -219.28 2487.6
1880.60 -231.67 2628.2
2002.20 -241.40 2738.6
2037.68 -241.40 2738.5
1636.59 -254.58 2805.6
1656.03 -255.33 2813.9
1702.03 -261.28 2879.4
1707.57 -260.98 2876.1
1674.79 -254.86 2808.7
1659.16 -251.39 2770.4
1665.99 -251.33 2769.8
1653.22 -248.34 2736.8
1657.39 -247.90 2732.0
1705.23 -250.77 2763.6
1713.88 -248.90 2743.0
1717.41 -248.39 2737.3
1716.66 -247.26 2724.9
1665.75 -238.94 2633.2
1668.52 -237.39 2616.1
1676.87 -234.76 2587.2
1710.96 -238.58 2629.3
1680.85 -233.45 2572.7
1641.78 -227.12 2503.0
1644.67 -226.63 2497.5
1659.64 -227.79 2510.4
1663.21 -225.63 2486.5
1688.79 -228.22 2515.0
1729.69 -231.07 2546.4
1747.13 -232.51 2562.3
1748.81 -230.11 2535.9
1781.08 -233.48 2573.0
1734.95 -226.58 2497.0
1810.59 -234.71 2586.6
1836.30 -237.16 2613.6
1780.50 -229.11 2524.9
1756.07 -225.14 2481.1
1783.46 -227.81 2510.6
1868.26 -237.78 2620.4
1853.46 -232.51 2562.4
2014.16 -245.63 2706.9
2037.18 -247.57 2728.4
1672.19 -260.60 2792.2
1673.92 -259.75 2783.0
1693.14 -261.60 2802.9
1667.99 -255.52 2737.7
1654.85 -251.37 2693.2
1667.11 -249.03 2668.2
1649.30 -245.35 2628.8
1700.96 -251.99 2699.9
1699.04 -250.68 2685.8
1676.05 -241.35 2585.9
1692.74 -242.78 2601.2
1641.86 -234.55 2513.0
1639.87 -233.34 2500.1
1680.04 -238.12 2551.2
1673.66 -236.28 2531.6
1701.19 -237.37 2543.3
1741.87 -242.11 2594.1
1692.46 -234.34 2510.8
1668.91 -229.32 2457.0
1743.48 -238.65 2557.0
1718.73 -234.37 2511.1
1731.55 -234.34 2510.8
1760.93 -237.43 2543.9
1832.00 -243.37 2607.5
1847.96 -243.69 2610.9
1835.72 -241.19 2584.2
1837.87 -240.59 2577.8
1971.10 -252.53 2705.6
2029.83 -259.13 2776.4
2004.17 -253.16 2712.4
1601.18 -269.29 2807.3
1618.11 -268.48 2798.8
1633.88 -267.49 2788.5
1616.01 -259.97 2710.1
1614.02 -258.52 2695.0
1625.69 -255.96 2668.3
1670.73 -260.83 2719.1
1714.58 -266.55 2778.7
1687.78 -261.29 2723.9
1717.11 -264.72 2759.6
1682.66 -258.33 2693.1
1660.28 -252.80 2635.4
1719.53 -260.75 2718.2
1719.22 -259.64 2706.6
1689.39 -254.10 2648.9
1716.31 -257.10 2680.2
1711.00 -255.27 2661.1
1693.72 -251.68 2623.7
1688.23 -249.86 2604.7
1654.39 -243.87 2542.3
1654.12 -242.87 2531.8
1702.46 -248.98 2595.5
1711.55 -249.32 2599.1
1672.83 -242.72 2530.3
1664.17 -240.52 2507.4
1699.09 -244.62 2550.0
1740.80 -249.65 2602.5
1748.25 -249.75 2603.6
1726.16 -245.65 2560.8
1692.18 -239.89 2500.8
1715.12 -242.21 2525.0
1784.19 -251.01 2616.7
1787.70 -250.55 2611.9
1776.51 -248.04 2585.8
1800.31 -250.42 2610.5
1806.04 -250.27 2609.0
1756.00 -242.43 2527.3
1808.20 -246.88 2573.6
1858.83 -249.19 2597.7
1853.40 -247.57 2580.8
2013.06 -265.06 2763.2
2008.26 -262.56 2737.2
2016.89 -261.84 2729.6
2042.70 -263.34 2745.3
1659.45 -271.81 2758.9
1677.59 -273.60 2777.1
1699.62 -271.37 2754.5
1673.08 -262.72 2666.7
1715.23 -268.23 2722.6
1736.78 -268.28 2723.2
1747.35 -267.74 2717.7
1726.40 -263.47 2674.3
1717.20 -261.01 2649.4
1699.21 -257.25 2611.2
1712.70 -258.26 2621.5
1733.32 -260.34 2642.6
1718.38 -257.08 2609.5
1684.63 -251.04 2548.2
1679.86 -249.35 2531.0
1705.98 -252.25 2560.4
1739.95 -256.27 2601.3
1719.61 -252.30 2560.9
1674.61 -244.75 2484.3
1715.91 -249.83 2535.8
1828.51 -259.27 2631.6
1774.39 -250.66 2544.3
1790.26 -251.96 2557.5
1749.45 -245.31 2490.0
1823.74 -253.85 2576.7
2039.21 -269.06 2731.1
1661.32 -281.70 2786.1
1661.54 -280.52 2774.4
1661.77 -273.46 2704.5
1665.82 -272.97 2699.7
1661.80 -266.71 2637.8
1733.29 -277.04 2740.0
1706.85 -271.70 2687.2
1657.17 -262.72 2598.3
1669.49 -263.60 2607.1
1735.18 -272.87 2698.7
1753.74 -273.58 2705.8
1704.89 -264.90 2619.9
1703.67 -263.66 2607.7
1711.15 -263.77 2608.7
1708.76 -262.37 2594.8
1686.53 -257.94 2551.0
1674.05 -255.03 2522.3
1694.07 -257.08 2542.5
1735.76 -262.38 2595.0
1719.86 -258.98 2561.3
1660.39 -249.06 2463.2
1688.24 -252.27 2494.9
1771.08 -263.63 2607.4
1781.88 -264.23 2613.3
1741.49 -257.27 2544.4
1744.29 -256.71 2538.9
1795.73 -263.28 2603.9
1802.58 -263.30 2604.0
1819.09 -264.72 2618.1
1840.78 -266.88 2639.5
1836.25 -265.24 2623.2
1776.08 -255.60 2527.9
1775.06 -253.58 2507.9
1856.16 -264.20 2613.0
1861.83 -264.04 2611.4
1845.81 -259.88 2570.2
1845.55 -258.91 2560.6
1973.73 -274.91 2718.9
2010.12 -274.11 2711.0
1627.37 -277.00 2671.1
1643.34 -278.53 2685.8
1670.32 -281.91 2718.4
1635.42 -273.71 2639.4
1653.75 -274.48 2646.8
1721.16 -284.49 2743.3
1665.21 -274.11 2643.2
1655.21 -271.35 2616.5
1670.74 -272.77 2630.3
1659.00 -269.76 2601.2
1682.07 -272.40 2626.7
1712.18 -272.86 2631.1
1672.84 -265.53 2560.5
1691.16 -267.38 2578.3
1699.67 -267.67 2581.1
1705.45 -267.52 2579.7
1719.47 -268.67 2590.7
1687.68 -262.67 2532.9
1672.85 -259.36 2500.9
1721.77 -265.91 2564.1
1723.57 -265.17 2557.0
1692.96 -259.46 2501.9
1716.45 -262.05 2526.9
1755.74 -267.03 2575.0
1743.99 -264.24 2548.0
1712.95 -258.56 2493.2
1731.49 -260.37 2510.8
1729.10 -259.04 2497.9
1734.62 -258.90 2496.5
1789.15 -266.05 2565.4
1821.64 -269.87 2602.3
1795.81 -265.06 2556.0
1759.48 -258.75 2495.1
1812.74 -265.60 2561.2
1874.30 -273.62 2638.5
1855.14 -269.84 2602.0
1849.76 -268.08 2585.1
1978.07 -282.58 2724.9
1994.44 -283.91 2737.7
1970.27 -279.47 2694.9
2047.17 -286.32 2760.9
2044.66 -284.97 2747.9
2062.34 -283.48 2733.6
1604.48 -287.26 2702.5
1620.46 -287.61 2705.8
1612.25 -283.70 2669.0
1671.09 -291.55 2742.8
1691.88 -293.93 2765.2
1634.79 -279.28 2627.3
1712.01 -291.25 2740.0
1735.29 -291.59 2743.1
1717.60 -286.27 2693.1
1722.57 -285.93 2690.0
1714.05 -283.37 2665.9
1705.45 -280.82 2641.8
1740.65 -284.33 2674.9
1706.30 -277.61 2611.7
1735.64 -281.27 2646.1
1730.58 -279.35 2628.0
1720.51 -276.63 2602.5
1703.73 -272.86 2567.0
1641.52 -261.88 2463.7
1692.57 -267.94 2520.7
1741.63 -274.64 2583.7
1756.29 -275.89 2595.5
1753.08 -274.34 2580.9
1770.01 -275.93 2595.9
1761.11 -273.51 2573.1
1731.81 -267.94 2520.7
1728.34 -266.40 2506.2
1706.67 -262.07 2465.5
1723.29 -262.66 2471.0
1759.03 -267.11 2512.9
1741.08 -263.41 2478.1
1757.44 -264.91 2492.2
1868.25 -280.58 2639.6
1850.18 -275.85 2595.1
1860.45 -276.37 2600.0
1960.22 -288.06 2710.0
2014.02 -292.82 2754.7
2012.79 -291.61 2743.3
2024.41 -291.23 2739.8
1664.02 -297.40 2731.2
1701.44 -300.25 2757.4
1685.71 -286.64 2632.4
1638.68 -276.40 2538.4
1698.04 -285.27 2619.8
1677.67 -277.41 2547.6
1658.11 -273.10 2508.1
1661.15 -270.42 2483.4
1703.91 -276.31 2537.5
1738.51 -280.84 2579.1
1721.96 -273.95 2515.9
1693.14 -268.35 2464.4
1703.52 -267.97 2460.9
1732.28 -271.48 2493.2
1717.85 -268.21 2463.2
1764.81 -273.51 2511.8
1864.46 -287.90 2643.9
1818.82 -278.80 2560.4
1793.17 -273.87 2515.1
1855.28 -281.31 2583.4
1889.99 -285.54 2622.3
1607.01 -297.85 2671.7
1641.96 -301.73 2706.5
1675.04 -303.91 2726.1
1614.84 -291.76 2617.1
1707.76 -305.97 2744.6
1702.15 -302.45 2713.0
1680.14 -297.31 2666.9
1721.29 -303.34 2721.0
1724.74 -302.71 2715.3
1727.08 -301.89 2708.0
1743.36 -303.50 2722.4
1670.84 -289.70 2598.7
1646.45 -284.33 2550.4
1731.82 -297.87 2671.9
1650.31 -280.49 2516.0
1649.11 -277.00 2484.7
1684.51 -281.84 2528.2
1710.09 -285.02 2556.6
1738.55 -288.64 2589.1
1748.75 -289.22 2594.3
1744.13 -284.08 2548.2
1730.59 -280.81 2518.9
1755.96 -283.86 2546.2
1808.05 -291.18 2611.9
1839.42 -294.03 2637.5
1779.50 -283.40 2542.1
1800.54 -285.69 2562.7
1831.40 -289.52 2597.0
1776.07 -279.75 2509.4
1887.07 -295.07 2646.8
1885.84 -293.81 2635.5
1889.21 -293.27 2630.7
1865.18 -288.50 2587.9
1874.86 -288.96 2592.0
1953.01 -299.93 2690.4
2000.40 -306.11 2745.8
2029.59 -306.22 2746.8
1613.83 -307.40 2694.7
1683.56 -313.88 2751.6
1679.38 -311.78 2733.2
1680.87 -310.75 2724.1
1667.13 -306.92 2690.5
1711.61 -313.80 2750.8
1705.50 -310.09 2718.3
1646.90 -298.20 2614.1
1656.55 -298.72 2618.7
1679.02 -301.54 2643.3
1697.29 -303.58 2661.3
1727.97 -307.82 2698.4
1675.34 -297.24 2605.7
1663.39 -293.93 2576.7
1649.77 -284.67 2495.4
1675.20 -287.92 2524.0
1719.50 -294.39 2580.7
1734.87 -294.73 2583.6
1690.53 -286.09 2507.9
1695.57 -285.84 2505.8
1719.05 -288.70 2530.8
1728.60 -289.20 2535.2
1709.48 -284.91 2497.6
1718.97 -285.41 2502.0
1770.31 -292.83 2567.0
1837.40 -299.43 2624.9
1791.03 -290.79 2549.2
1753.58 -283.67 2486.7
1758.47 -283.42 2484.5
1856.76 -298.17 2613.8
2005.27 -312.88 2742.8
1998.60 -309.64 2714.4
2016.63 -310.25 2719.7
2031.89 -311.51 2730.8
2043.02 -312.13 2736.2
1587.65 -314.73 2697.7
1634.44 -318.40 2729.1
1631.97 -313.84 2690.1
1604.98 -307.34 2634.3
1657.75 -316.10 2709.4
1678.30 -316.00 2708.6
1684.96 -315.93 2708.0
1675.80 -312.91 2682.1
1694.56 -315.10 2700.9
1694.82 -313.86 2690.2
1665.77 -307.21 2633.2
1649.31 -302.94 2596.6
1644.49 -300.82 2578.5
1653.01 -301.16 2581.3
1646.42 -295.17 2530.1
1694.94 -301.47 2584.0
1728.65 -306.26 2625.1
1677.95 -290.41 2489.3
1709.20 -293.56 2516.3
1761.34 -301.37 2583.2
1713.63 -292.10 2503.7
1696.08 -288.01 2468.7
1721.92 -291.30 2496.9
1776.74 -299.45 2566.7
1809.63 -301.60 2585.2
1783.24 -296.11 2538.1
1757.25 -290.72 2491.9
1864.83 -304.05 2606.1
1963.42 -317.82 2724.2
1984.39 -317.78 2723.9
1985.49 -316.83 2715.7
2003.97 -316.42 2712.1
2023.36 -318.36 2728.8
2027.14 -316.74 2714.9
1614.06 -322.81 2706.8
1626.92 -323.97 2716.6
1680.11 -330.28 2769.4
1628.95 -318.86 2673.7
1660.50 -323.66 2713.9
1674.48 -325.01 2725.2
1621.11 -313.32 2627.2
1621.22 -308.17 2584.0
1678.95 -312.68 2621.8
1692.85 -311.48 2611.8
1636.54 -298.73 2504.9
1701.13 -309.30 2593.5
1709.72 -307.22 2576.0
1686.23 -301.82 2530.7
1673.08 -298.30 2501.3
1703.09 -302.48 2536.3
1691.50 -299.27 2509.4
1664.20 -293.31 2459.4
1734.57 -304.54 2553.6
1750.40 -303.84 2547.7
1727.78 -298.79 2505.4
1756.55 -302.63 2537.5
1815.52 -311.62 2613.0
1860.63 -317.00 2658.0
1808.05 -306.90 2573.4
1753.45 -296.54 2486.5
1847.08 -307.85 2581.3
1877.07 -311.72 2613.8
1856.53 -307.19 2575.9
1978.77 -325.08 2725.9
2008.02 -328.72 2756.3
1976.87 -322.47 2703.9
2025.62 -329.25 2760.8
1665.80 -334.58 2745.8
1632.72 -326.54 2679.9
1635.73 -325.76 2673.4
1621.51 -321.57 2639.0
1678.44 -328.69 2697.5
1613.39 -314.64 2582.2
1625.09 -315.62 2590.2
1650.07 -319.15 2619.2
1644.30 -316.73 2599.3
1597.24 -305.16 2504.4
1682.87 -318.93 2617.4
1659.63 -313.26 2570.9
1689.51 -315.11 2586.0
1718.23 -319.20 2619.5
1683.05 -311.43 2555.8
1691.63 -306.98 2519.3
1703.38 -307.92 2527.0
1703.43 -306.75 2517.4
1707.36 -306.28 2513.6
1725.29 -308.32 2530.3
1739.33 -309.65 2541.2
1697.07 -300.99 2470.1
1710.47 -302.23 2480.3
1777.13 -312.83 2567.3
1816.88 -317.45 2605.2
1807.74 -314.68 2582.5
1749.33 -303.39 2489.8
1882.11 -321.67 2639.8
1907.51 -324.83 2665.8
1884.08 -318.53 2614.1
1586.87 -337.03 2708.3
1608.24 -340.07 2732.7
1600.11 -332.49 2671.8
1621.11 -335.40 2695.2
1628.82 -335.55 2696.4
1631.89 -334.75 2689.9
1646.84 -336.37 2703.0
1650.30 -334.24 2685.8
1612.04 -319.74 2569.4
1625.84 -321.15 2580.7
1612.03 -317.12 2548.3
1632.17 -318.47 2559.2
1658.36 -322.27 2589.7
1616.33 -312.84 2513.9
1645.77 -317.26 2549.4
1675.73 -320.46 2575.1
1654.57 -313.91 2522.5
1659.15 -313.54 2519.5
1650.20 -308.21 2476.7
1704.98 -317.21 2549.0
1738.95 -322.28 2589.7
1728.23 -316.62 2544.3
1718.19 -313.59 2519.9
1704.12 -309.84 2489.8
1715.75 -309.61 2487.9
1827.81 -327.37 2630.7
1839.89 -325.88 2618.7
1828.97 -322.76 2593.6
1854.17 -326.01 2619.7
1890.97 -331.27 2662.0
1951.72 -335.78 2698.2
1597.54 -346.37 2726.5
1590.72 -343.37 2702.9
1588.96 -335.60 2641.7
1622.79 -341.27 2686.4
1644.92 -344.45 2711.4
1649.39 -341.01 2684.4
1616.21 -329.98 2597.5
1588.41 -321.62 2531.7
1609.54 -323.23 2544.3
1641.45 -328.29 2584.2
1649.44 -328.55 2586.2
1629.02 -323.17 2543.9
1624.03 -320.88 2525.9
1618.94 -316.05 2487.8
1700.34 -328.02 2582.1
1670.10 -319.67 2516.3
1663.06 -317.08 2496.0
1659.82 -315.24 2481.5
1731.67 -325.10 2559.1
1732.32 -323.98 2550.3
1715.01 -319.53 2515.2
1750.37 -324.88 2557.4
1820.52 -334.10 2630.0
1885.24 -340.87 2683.3
1849.79 -333.23 2623.1
1852.62 -332.52 2617.5
1867.53 -333.97 2628.9
1910.76 -340.46 2680.0
1933.34 -342.00 2692.1
1946.68 -343.12 2700.9
1993.90 -348.93 2746.7
1611.09 -348.72 2690.1
1621.61 -343.56 2650.3
1628.43 -339.26 2617.1
1618.72 -333.07 2569.4
1592.19 -322.31 2486.4
1648.92 -332.44 2564.6
1658.49 -333.03 2569.1
1632.39 -326.48 2518.5
1624.74 -322.37 2486.9
1626.00 -321.34 2478.9
1656.76 -326.13 2515.9
1699.07 -330.56 2550.0
1663.90 -319.98 2468.4
1699.52 -325.58 2511.6
1819.69 -336.98 2599.6
1829.94 -337.63 2604.6
1868.29 -343.44 2649.4
1857.96 -340.29 2625.1
1847.42 -335.89 2591.2
1612.52 -359.12 2716.0
1642.98 -361.17 2731.6
1653.37 -357.30 2702.2
1614.00 -345.86 2615.7
1663.74 -353.54 2673.9
1625.96 -334.37 2528.9
1623.60 -332.55 2515.0
1618.49 -330.17 2497.1
1621.98 -329.57 2492.5
1675.23 -337.69 2554.0
1631.77 -327.64 2477.9
1684.35 -334.25 2527.9
1711.01 -338.22 2558.0
1859.19 -351.18 2656.0
1836.39 -345.59 2613.7
1899.39 -356.14 2693.5
1913.83 -357.53 2704.0
1930.12 -357.95 2707.2
1581.28 -363.83 2698.8
1590.31 -361.12 2678.6
1591.80 -355.25 2635.1
1647.83 -366.18 2716.2
1646.27 -364.28 2702.1
1671.51 -365.20 2708.9
1624.49 -351.97 2610.8
1581.47 -341.23 2531.1
1596.69 -340.28 2524.0
1592.33 -337.96 2506.9
1617.81 -341.98 2536.6
1618.04 -339.27 2516.5
1618.90 -338.08 2507.8
1616.48 -336.23 2494.0
1640.02 -339.76 2520.2
1684.94 -344.95 2558.7
1688.36 -341.61 2533.9
1719.08 -345.14 2560.1
1697.01 -339.40 2517.5
1671.44 -333.01 2470.1
1729.44 -338.09 2507.8
1775.72 -345.83 2565.3
1845.01 -356.66 2645.5
1911.67 -364.13 2701.0
1910.60 -362.60 2689.6
1590.64 -374.68 2726.8
1620.82 -375.13 2730.0
1595.50 -362.92 2641.2
1654.40 -368.42 2681.2
1612.53 -356.10 2591.6
1575.18 -343.56 2500.3
1619.13 -351.70 2559.5
1636.14 -353.94 2575.8
1616.88 -348.35 2535.2
1585.41 -338.82 2465.8
1594.80 -339.45 2470.4
1603.66 -339.98 2474.2
1634.74 -345.18 2512.1
1670.85 -351.41 2557.4
1687.50 -353.51 2572.7
1677.98 -350.13 2548.1
1670.55 -347.21 2526.9
1707.54 -353.51 2572.7
1683.68 -345.87 2517.1
1679.94 -342.45 2492.2
1717.81 -348.83 2538.6
1729.60 -349.88 2546.3
1768.96 -355.13 2584.5
1750.42 -347.46 2528.7
1850.97 -362.00 2634.5
1635.07 -380.58 2718.4
1627.43 -377.17 2694.1
1626.55 -370.61 2647.2
1591.20 -356.53 2546.7
1608.63 -358.95 2563.9
1619.24 -359.83 2570.2
1625.09 -359.65 2568.9
1643.71 -362.29 2587.8
1625.55 -356.83 2548.8
1606.16 -351.14 2508.2
1625.83 -354.01 2528.7
1675.10 -357.53 2553.8
1690.40 -357.97 2556.9
1701.63 -358.94 2563.8
1701.30 -357.47 2553.4
1715.23 -353.52 2525.1
1714.69 -352.07 2514.8
1754.56 -356.19 2544.2
1753.32 -353.28 2523.4
1820.85 -364.17 2601.2
1893.48 -375.91 2685.1
1590.16 -378.61 2655.2
1595.69 -376.67 2641.5
1638.83 -385.19 2701.4
1653.75 -385.41 2702.9
1615.73 -374.96 2629.6
1666.22 -369.53 2591.5
1650.17 -361.59 2535.8
1669.35 -358.65 2515.2
1684.05 -357.62 2508.0
1682.44 -355.90 2495.9
1711.96 -360.76 2530.0
1730.99 -363.37 2548.3
1707.55 -357.09 2504.3
1706.96 -355.62 2493.9
1773.24 -368.03 2581.0
1828.95 -372.56 2612.8
1586.03 -381.19 2625.5
1637.36 -391.85 2698.9
1634.75 -389.56 2683.2
1635.56 -386.46 2661.9
1618.18 -380.75 2622.5
1672.07 -370.10 2549.2
1658.34 -364.18 2508.4
1756.60 -376.89 2596.0
1721.07 -367.86 2533.7
1725.02 -367.31 2529.9
1750.27 -371.27 2557.2
1746.37 -369.05 2541.9
1736.78 -365.64 2518.4
1762.70 -369.71 2546.4
1763.79 -368.55 2538.5
1746.10 -363.50 2503.7
1610.23 -395.62 2677.1
1645.14 -400.74 2711.8
1636.68 -393.63 2663.7
1657.86 -397.05 2686.8
1645.16 -392.36 2655.1
1631.28 -387.43 2621.7
1680.37 -397.43 2689.4
1616.14 -372.96 2523.8
1617.91 -370.37 2506.2
1683.80 -380.86 2577.2
1677.27 -373.45 2527.1
1704.96 -378.14 2558.9
1760.78 -383.07 2592.2
1750.31 -379.34 2567.0
1760.48 -380.10 2572.1
1738.06 -373.85 2529.8
1802.99 -383.47 2594.9
1813.24 -382.79 2590.3
1779.53 -374.29 2532.8
1614.83 -405.46 2696.4
1593.39 -391.59 2604.2
1636.23 -400.43 2662.9
1642.30 -400.22 2661.6
1587.38 -378.88 2519.7
1605.87 -381.72 2538.6
1631.22 -383.04 2547.3
1685.66 -389.52 2590.4
1631.25 -375.45 2496.8
1681.83 -384.04 2554.0
1724.23 -386.12 2567.8
1710.54 -381.58 2537.6
1763.83 -388.98 2586.8
1752.73 -385.07 2560.8
1765.71 -386.46 2570.0
1774.20 -386.86 2572.7
1765.19 -383.45 2550.0
1824.62 -394.88 2626.0
1782.50 -381.49 2537.0
1624.14 -413.04 2700.2
1614.39 -407.05 2661.1
1617.08 -402.56 2631.8
1625.97 -401.39 2624.1
1625.45 -396.29 2590.7
1611.79 -391.34 2558.4
1609.14 -389.09 2543.7
1610.15 -387.75 2534.9
1603.12 -384.49 2513.6
1601.36 -382.51 2500.7
1621.59 -379.66 2482.0
1713.40 -393.35 2571.5
1727.42 -395.03 2582.5
1708.29 -389.15 2544.1
1689.02 -383.28 2505.7
1741.32 -393.63 2573.4
1763.76 -397.18 2596.6
1739.33 -390.19 2550.9
1741.63 -389.23 2544.6
1769.18 -393.89 2575.1
1797.40 -398.67 2606.3
1806.52 -399.19 2609.7
1806.62 -396.25 2590.5
1839.62 -401.99 2628.0
1596.08 -414.57 2665.1
1578.59 -394.65 2537.0
1651.65 -388.62 2498.3
1691.28 -396.39 2548.2
1726.68 -403.12 2591.5
1738.45 -401.18 2579.0
1761.42 -404.92 2603.1
1751.02 -401.00 2577.8
1752.83 -399.89 2570.7
1783.74 -405.39 2606.1
1760.84 -398.68 2563.0
1737.23 -391.86 2519.1
1804.91 -405.60 2607.4
1618.52 -414.83 2623.1
1585.36 -404.63 2558.6
1649.12 -408.93 2585.7
1596.18 -394.20 2492.6
1658.85 -403.15 2549.2
1725.54 -412.78 2610.1
1717.12 -409.16 2587.2
1702.56 -404.11 2555.3
1731.32 -406.19 2568.4
1725.54 -400.22 2530.7
1750.21 -404.40 2557.1
1749.67 -399.74 2527.6
1621.14 -427.70 2660.8
1592.07 -418.25 2602.0
1596.48 -417.64 2598.3
1596.19 -415.82 2586.9
1615.69 -419.13 2607.5
1601.23 -413.65 2573.4
1613.73 -403.43 2509.8
1625.88 -404.84 2518.6
1639.98 -401.89 2500.2
1704.83 -411.28 2558.7
1741.97 -418.61 2604.3
1752.45 -417.89 2599.8
1746.92 -410.26 2552.3
1758.75 -411.48 2559.9
1770.61 -412.70 2567.5
1787.56 -415.09 2582.4
1884.89 -436.06 2712.8
1580.08 -438.52 2684.8
1554.17 -416.65 2550.9
1554.52 -413.23 2530.0
1549.95 -410.28 2511.9
1567.21 -413.11 2529.3
1596.05 -418.96 2565.1
1561.98 -406.63 2489.6
1643.80 -417.58 2556.6
1613.59 -408.26 2499.5
1659.61 -413.26 2530.2
1698.56 -421.30 2579.4
1686.86 -416.75 2551.5
1727.42 -423.45 2592.6
1688.58 -412.33 2524.5
1694.79 -412.25 2524.0
1727.02 -418.47 2562.1
1727.73 -417.04 2553.3
1747.34 -420.16 2572.4
1864.08 -441.49 2703.0
1881.54 -442.30 2708.0
1797.86 -421.06 2577.9
1812.62 -422.94 2589.5
1828.55 -425.09 2602.6
1586.11 -447.19 2695.1
1594.67 -441.81 2662.7
1571.16 -424.28 2557.0
1564.56 -420.72 2535.6
1585.17 -420.96 2537.0
1619.40 -428.27 2581.1
1591.50 -419.16 2526.2
1648.72 -427.20 2574.6
1634.06 -420.00 2531.2
1634.41 -418.41 2521.7
1602.85 -408.69 2463.1
1608.99 -408.63 2462.7
1647.72 -416.81 2512.0
1625.06 -409.46 2467.8
1667.05 -415.14 2502.0
1703.69 -420.99 2537.2
1748.12 -430.31 2593.4
