ply
format ascii 1.0
element vertex 2085
property float x
property float y
property float z
end_header
-1312.59 113.27 2570.0
-1283.31 111.31 2525.5
-1247.50 109.88 2493.1
-1252.56 110.90 2516.3
-1251.34 111.96 2540.3
-1268.01 114.05 2587.8
-1301.12 117.65 2669.5
-1260.92 115.87 2628.9
-1244.61 114.99 2609.1
-1244.23 115.58 2622.5
-1253.60 117.09 2656.8
-1235.22 116.02 2632.3
-1197.08 113.06 2565.2
-1184.04 112.45 2551.4
-1196.17 114.24 2592.0
-1217.29 116.91 2652.7
-1219.48 117.79 2672.6
-1214.56 117.99 2677.0
-1195.99 118.21 2682.0
-1144.02 113.73 2580.5
-1139.62 113.96 2585.7
-1194.95 120.20 2727.3
-1194.20 120.84 2741.8
-1144.54 116.51 2643.5
-1127.31 115.45 2619.4
-1139.25 117.38 2663.2
-1163.90 120.65 2737.4
-1150.88 120.03 2723.4
-1111.99 116.69 2647.6
-1098.45 115.99 2631.6
-1104.88 117.39 2663.5
-1109.64 118.64 2691.8
-1113.26 124.51 2825.0
-1099.82 124.65 2828.1
-1369.26 107.92 2601.7
-1370.46 108.55 2616.9
-1354.51 107.82 2599.3
-1336.54 107.46 2590.6
-1359.52 109.86 2648.4
-1289.93 105.84 2551.5
-1291.43 107.06 2580.9
-1315.46 109.62 2642.7
-1281.58 107.36 2588.1
-1289.43 108.58 2617.6
-1285.27 108.81 2623.0
-1295.54 110.26 2658.0
-1264.40 108.77 2622.0
-1243.32 107.53 2592.2
-1247.31 108.46 2614.7
-1224.21 107.04 2580.3
-1210.22 106.39 2564.8
-1216.23 107.51 2591.8
-1203.53 106.98 2579.0
-1210.23 108.18 2607.8
-1240.66 111.52 2688.4
-1230.32 111.22 2681.1
-1200.51 109.14 2631.0
-1210.96 110.72 2669.0
-1203.02 111.91 2697.8
-1181.38 110.54 2664.8
-1210.66 113.94 2746.9
-1190.72 113.40 2733.8
-1162.51 111.38 2685.0
-1166.52 112.44 2710.5
-1168.83 113.34 2732.3
-1145.76 113.16 2728.0
-1121.64 111.47 2687.2
-1118.00 111.80 2695.2
-1120.41 112.75 2718.0
-1078.39 109.20 2632.6
-1084.65 111.25 2681.8
-1087.23 112.23 2705.6
-1058.58 109.98 2651.4
-1107.14 116.54 2809.5
-1090.15 116.28 2803.2
-1324.28 99.82 2566.8
-1338.64 101.41 2607.7
-1345.09 102.42 2633.6
-1342.84 102.77 2642.6
-1274.71 98.05 2521.4
-1278.12 99.34 2554.3
-1271.57 101.45 2608.8
-1234.27 99.01 2545.8
-1239.33 99.95 2570.0
-1268.06 102.82 2643.8
-1271.01 104.18 2678.9
-1214.58 100.10 2574.1
-1225.69 103.29 2656.0
-1234.18 104.59 2689.5
-1198.54 102.15 2626.7
-1203.63 103.17 2652.9
-1226.27 105.71 2718.3
-1216.32 105.46 2711.9
-1199.18 106.44 2736.9
-1186.03 105.90 2723.0
-1181.28 106.10 2728.4
-1133.86 104.99 2699.7
-1089.41 101.50 2609.9
-1105.85 103.67 2665.9
-1130.03 106.61 2741.3
-1112.58 105.62 2716.1
-1113.32 106.37 2735.2
-1108.70 107.99 2776.9
-1100.64 107.91 2774.7
-1098.08 108.36 2786.5
-1067.05 106.00 2725.7
-1360.91 95.26 2624.6
-1348.67 94.88 2614.1
-1326.87 93.82 2584.8
-1292.92 91.88 2531.5
-1253.42 90.45 2492.1
-1271.06 92.20 2540.2
-1299.19 94.73 2610.0
-1279.57 93.79 2584.0
-1248.56 92.00 2534.7
-1269.21 94.02 2590.2
-1265.54 94.24 2596.5
-1248.32 93.46 2574.8
-1272.86 95.81 2639.6
-1277.67 96.69 2663.9
-1269.89 96.62 2662.0
-1259.04 96.85 2668.3
-1207.51 93.40 2573.2
-1175.50 92.98 2561.6
-1199.88 95.45 2629.6
-1185.14 94.81 2612.2
-1187.33 95.53 2632.0
-1195.96 96.78 2666.5
-1185.07 97.59 2688.8
-1149.14 95.19 2622.7
-1136.64 94.72 2609.6
-1136.90 95.31 2625.9
-1146.17 96.67 2663.2
-1157.24 98.19 2705.2
-1170.07 99.88 2751.9
-1148.66 99.27 2734.9
-1126.07 97.92 2697.8
-1116.46 98.93 2725.5
-1127.36 100.53 2769.7
-1106.94 100.63 2772.5
-1081.57 98.97 2726.7
-1063.00 97.91 2697.5
-1087.80 101.53 2797.2
-1337.76 87.39 2592.9
-1336.55 87.75 2603.7
-1318.47 87.01 2581.5
-1276.93 84.69 2512.9
-1268.58 84.57 2509.3
-1281.81 85.89 2548.5
-1304.70 87.88 2607.5
-1297.06 87.82 2605.7
-1242.40 84.56 2509.0
-1241.15 85.37 2533.0
-1253.37 86.67 2571.5
-1250.59 86.94 2579.5
-1256.45 87.82 2605.5
-1242.75 87.33 2591.1
-1237.71 87.45 2594.6
-1255.35 89.18 2645.9
-1251.88 89.42 2653.1
-1222.89 87.83 2606.0
-1198.74 86.58 2568.7
-1178.81 87.07 2583.4
-1176.56 87.40 2593.2
-1177.14 87.95 2609.4
-1182.55 88.86 2636.6
-1198.02 90.55 2686.6
-1176.81 89.47 2654.5
-1149.68 87.92 2608.5
-1143.21 87.94 2609.2
-1129.14 87.37 2592.4
-1127.06 87.74 2603.1
-1155.74 90.51 2685.5
-1139.66 90.34 2680.4
-1096.02 87.41 2593.6
-1127.08 90.44 2683.5
-1140.11 93.22 2765.8
-1091.54 89.81 2664.7
-1099.56 91.05 2701.4
-1122.40 93.53 2775.2
-1095.71 91.90 2726.6
-1068.86 90.23 2677.1
-1052.75 91.24 2707.1
-1335.10 80.51 2587.8
-1329.79 80.59 2590.5
-1346.75 82.04 2636.9
-1335.88 81.79 2628.9
-1295.28 79.71 2562.1
-1279.20 79.13 2543.3
-1281.08 79.65 2560.3
-1254.83 78.43 2520.9
-1255.79 78.90 2536.0
-1284.52 81.13 2607.7
-1262.79 80.18 2577.1
-1227.61 78.36 2518.7
-1214.48 77.93 2505.0
-1222.51 79.30 2548.9
-1247.26 81.34 2614.6
-1241.73 81.42 2617.2
-1214.85 80.10 2574.6
-1225.52 81.25 2611.6
-1240.68 82.71 2658.6
-1216.49 81.55 2621.3
-1199.58 80.87 2599.4
-1205.27 81.71 2626.5
-1212.09 82.64 2656.4
-1166.73 80.00 2571.6
-1153.32 80.46 2586.4
-1169.60 82.08 2638.2
-1179.60 83.27 2676.4
-1187.42 84.31 2710.1
-1187.10 84.79 2725.5
-1167.25 83.87 2696.0
-1179.93 85.30 2741.7
-1105.05 81.35 2614.9
-1102.00 81.63 2623.8
-1134.33 84.55 2717.5
-1135.98 85.20 2738.5
-1136.00 85.74 2755.8
-1123.45 85.33 2742.6
-1109.06 84.77 2724.7
-1108.99 85.31 2742.0
-1087.21 84.17 2705.5
-1065.60 83.03 2668.9
-1058.88 83.05 2669.5
-1415.84 76.72 2690.2
-1402.11 76.73 2690.6
-1345.72 74.39 2608.4
-1331.24 73.96 2593.3
-1341.37 74.90 2626.3
-1327.81 74.52 2613.0
-1282.73 72.36 2537.3
-1265.35 71.75 2515.8
-1265.95 72.15 2530.0
-1254.91 71.90 2521.0
-1269.18 73.09 2563.0
-1273.55 73.73 2585.4
-1230.76 71.63 2511.8
-1225.50 71.70 2514.3
-1239.85 72.93 2557.4
-1227.54 73.39 2573.3
-1236.24 74.31 2605.7
-1202.13 72.66 2547.7
-1204.79 73.22 2567.4
-1212.22 74.91 2626.8
-1187.84 73.82 2588.5
-1207.19 75.45 2645.6
-1175.07 73.86 2589.9
-1143.22 73.11 2563.7
-1161.17 74.69 2619.2
-1155.89 74.79 2622.6
-1148.58 74.76 2621.4
-1163.63 76.19 2671.6
-1160.58 76.45 2680.5
-1138.51 75.44 2645.4
-1145.30 76.35 2677.3
-1170.32 78.50 2752.5
-1151.82 77.73 2725.6
-1128.78 76.65 2687.6
-1143.64 78.14 2739.9
-1114.60 76.63 2687.0
-1083.50 74.96 2628.4
-1100.79 76.64 2687.3
-1119.31 78.42 2749.9
-1122.38 80.17 2811.2
-1101.71 79.21 2777.4
-1070.19 77.45 2715.7
-1053.98 77.29 2710.2
-1068.24 79.40 2784.0
-1435.73 70.04 2701.4
-1413.23 69.96 2698.5
-1408.66 70.08 2703.2
-1339.38 67.31 2596.1
-1328.12 67.08 2587.3
-1307.34 66.36 2559.7
-1269.46 64.77 2498.2
-1303.55 66.85 2578.4
-1299.97 67.71 2611.6
-1265.70 66.27 2556.0
-1223.70 64.41 2484.2
-1243.41 66.49 2564.7
-1220.65 65.63 2531.3
-1226.32 66.65 2570.7
-1225.17 66.95 2582.3
-1211.59 67.69 2610.8
-1204.34 67.66 2609.7
-1186.29 67.79 2614.7
-1190.11 68.40 2638.2
-1164.78 67.33 2597.0
-1162.42 67.58 2606.8
-1176.23 68.79 2653.1
-1166.03 68.59 2645.6
-1137.81 67.33 2596.9
-1130.16 67.27 2594.8
-1128.07 67.55 2605.5
-1111.31 66.95 2582.2
-1108.30 67.99 2622.6
-1127.69 69.61 2685.0
-1126.38 69.96 2698.5
-1082.11 67.63 2608.7
-1079.63 68.33 2635.6
-1080.56 68.83 2654.7
-1092.63 70.04 2701.6
-1103.25 72.11 2781.3
-1054.86 69.40 2676.8
-1051.87 70.12 2704.8
-1076.76 72.27 2787.4
-1430.89 63.44 2718.8
-1398.46 62.31 2670.3
-1324.08 60.19 2579.4
-1281.49 58.55 2509.1
-1270.89 58.36 2501.0
-1333.84 61.56 2638.4
-1304.94 61.17 2621.5
-1263.55 59.54 2551.7
-1223.32 57.95 2483.4
-1227.82 58.78 2519.1
-1262.23 60.75 2603.5
-1252.84 60.62 2598.1
-1243.05 60.47 2591.7
-1263.83 61.82 2649.3
-1254.80 61.71 2644.8
-1229.14 60.78 2604.9
-1216.81 60.50 2593.1
-1184.29 59.88 2566.3
-1175.88 59.79 2562.4
-1171.89 60.27 2582.9
-1211.55 62.67 2685.7
-1219.67 63.45 2719.3
-1186.51 62.08 2660.8
-1173.05 61.74 2646.0
-1183.84 62.67 2686.0
-1177.20 62.69 2686.8
-1153.38 61.79 2648.1
-1134.49 61.14 2620.3
-1114.14 60.41 2588.8
-1126.65 62.21 2666.0
-1115.75 61.99 2656.5
-1084.08 60.98 2613.4
-1103.06 62.44 2675.9
-1113.04 63.40 2717.2
-1100.97 63.11 2704.8
-1099.90 64.28 2754.8
-1107.00 65.12 2790.8
-1089.38 64.50 2764.4
-1097.38 65.41 2803.1
-1095.05 65.70 2815.9
-1432.73 56.19 2708.9
-1366.23 53.84 2595.9
-1340.41 53.35 2572.2
-1359.22 54.64 2634.5
-1311.36 52.98 2554.6
-1296.55 52.65 2538.6
-1313.52 53.61 2584.9
-1298.26 53.26 2568.0
-1272.73 52.48 2530.5
-1278.23 52.98 2554.6
-1270.25 52.93 2551.8
-1273.81 53.35 2572.4
-1278.17 53.82 2594.8
-1255.15 53.13 2561.5
-1276.07 54.30 2618.1
-1273.75 54.78 2641.4
-1236.62 53.48 2578.3
-1231.61 53.55 2581.8
-1254.00 54.82 2643.1
-1262.48 55.49 2675.6
-1230.80 54.70 2637.4
-1194.88 53.40 2574.8
-1199.01 53.89 2598.2
-1167.59 52.77 2544.4
-1206.27 55.46 2674.0
-1218.50 56.35 2716.7
-1192.67 55.47 2674.6
-1171.08 54.79 2641.5
-1175.43 55.31 2666.9
-1180.46 55.88 2694.2
-1166.61 55.55 2678.4
-1147.65 54.98 2650.7
-1126.84 54.31 2618.3
-1106.95 53.67 2587.7
-1115.35 54.41 2623.2
-1141.89 56.04 2702.1
-1125.87 55.60 2680.6
-1117.64 55.53 2677.6
-1144.28 57.21 2758.5
-1140.08 57.36 2765.7
-1127.50 57.09 2752.5
-1136.08 57.89 2791.1
-1116.74 57.27 2761.2
-1087.84 56.15 2707.1
-1105.88 57.45 2769.8
-1110.37 58.06 2799.3
-1091.63 57.45 2770.1
-1116.39 59.15 2851.7
-1102.45 59.19 2853.9
-1095.64 59.22 2855.4
-1432.16 48.90 2694.7
-1410.81 48.41 2667.5
-1346.47 46.89 2583.8
-1340.02 47.14 2597.3
-1296.34 45.83 2525.3
-1284.33 45.64 2514.6
-1286.85 45.96 2532.4
-1257.26 45.13 2486.9
-1245.38 44.94 2476.1
-1261.28 45.75 2520.7
-1281.44 46.72 2574.3
-1289.70 48.02 2646.0
-1262.34 47.25 2603.7
-1260.77 47.45 2614.5
-1246.18 47.15 2598.2
-1218.74 46.37 2554.8
-1218.91 46.62 2569.1
-1229.25 47.28 2605.2
-1237.31 47.85 2636.7
-1228.32 47.77 2632.1
-1216.39 47.57 2621.1
-1238.02 48.69 2682.7
-1218.10 48.17 2654.5
-1193.31 47.46 2615.2
-1230.24 49.21 2711.6
-1217.32 49.26 2714.1
-1210.23 49.25 2714.0
-1179.09 49.42 2723.3
-1162.46 49.02 2701.1
-1147.89 48.70 2683.4
-1110.31 47.39 2611.4
-1090.95 46.85 2581.6
-1116.23 48.23 2657.7
-1145.80 49.82 2745.0
-1138.22 50.11 2761.2
-1132.09 50.16 2763.7
-1101.31 49.74 2740.6
-1110.75 50.49 2782.0
-1104.52 50.53 2784.5
-1067.48 49.16 2708.8
-1074.52 49.81 2744.7
-1111.10 51.85 2857.1
-1106.10 51.96 2863.3
-1415.79 41.44 2663.9
-1426.29 41.95 2696.8
-1405.20 41.95 2696.5
-1326.31 39.99 2570.7
-1274.92 38.63 2483.6
-1266.63 38.58 2480.0
-1272.40 38.95 2504.0
-1259.56 38.76 2491.4
-1264.74 39.12 2514.6
-1278.77 39.75 2555.6
-1298.41 40.58 2608.4
-1288.68 40.91 2630.0
-1235.42 39.43 2534.7
-1226.61 39.36 2530.1
-1243.88 40.13 2579.5
-1270.44 41.20 2648.8
-1244.01 41.47 2665.7
-1201.70 40.28 2589.5
-1192.82 40.21 2584.8
-1224.40 41.51 2668.2
-1192.19 42.33 2721.0
-1156.32 41.30 2654.8
-1163.64 41.81 2687.6
-1175.94 42.50 2732.4
-1159.65 42.43 2727.4
-1112.40 40.95 2632.3
-1110.86 41.14 2644.9
-1125.43 41.94 2696.2
-1120.62 42.02 2701.5
-1126.07 42.49 2731.7
-1093.96 42.08 2704.8
-1069.66 41.41 2661.8
-1082.99 42.19 2712.5
-1107.20 44.89 2885.5
-1091.64 44.86 2884.0
-1432.41 35.11 2708.3
-1335.52 33.56 2588.6
-1293.23 32.66 2519.3
-1293.96 32.84 2533.5
-1273.34 32.48 2505.8
-1252.65 32.28 2490.5
-1278.81 33.13 2555.7
-1271.72 33.12 2554.8
-1265.51 33.13 2555.6
-1283.60 33.78 2605.8
-1264.52 33.45 2580.6
-1228.45 32.67 2520.4
-1239.74 33.15 2557.1
-1232.19 33.12 2555.2
-1231.56 33.29 2567.7
-1261.87 34.29 2645.2
-1250.98 34.56 2665.9
-1233.89 34.27 2644.1
-1208.05 33.74 2603.1
-1197.96 34.03 2625.4
-1213.39 34.67 2674.4
-1188.72 34.16 2635.1
-1183.03 34.19 2637.6
-1177.98 34.65 2672.7
-1128.02 33.37 2574.5
-1119.06 33.71 2600.2
-1135.78 34.42 2655.1
-1164.77 35.51 2739.4
-1164.59 35.72 2755.8
-1119.41 34.55 2665.3
-1093.11 33.95 2618.8
-1101.88 34.43 2656.3
-1120.39 35.23 2717.9
-1100.33 34.82 2686.2
-1081.25 34.88 2690.7
-1063.74 34.54 2664.3
-1078.79 35.25 2719.6
-1120.13 37.84 2919.2
-1109.96 37.75 2912.4
-1079.96 37.50 2892.8
-1432.29 27.95 2694.9
-1394.57 27.34 2636.8
-1378.29 27.29 2631.8
-1391.41 27.69 2670.1
-1340.85 26.82 2585.9
-1312.17 26.38 2543.3
-1307.41 26.41 2546.9
-1331.29 27.03 2606.6
-1336.34 27.27 2629.8
-1264.14 25.93 2500.5
-1248.63 25.75 2482.6
-1259.15 26.10 2516.4
-1237.44 25.78 2485.9
-1252.23 26.22 2528.8
-1292.03 27.20 2622.9
-1264.63 27.05 2608.5
-1218.32 26.20 2526.5
-1200.59 26.24 2530.5
-1228.08 26.99 2602.7
-1220.01 26.96 2599.9
-1222.09 27.16 2618.8
-1221.97 27.31 2633.1
-1204.20 27.06 2609.4
-1194.83 27.31 2633.5
-1197.79 27.54 2655.2
-1168.33 27.01 2604.9
-1179.80 27.44 2645.7
-1190.10 28.00 2700.2
-1142.50 27.04 2607.6
-1124.62 27.10 2613.1
-1117.72 27.10 2612.8
-1122.55 27.38 2640.1
-1156.05 28.37 2735.6
-1143.83 28.24 2723.4
-1110.09 27.58 2659.5
-1113.40 27.84 2684.1
-1114.70 28.04 2704.1
-1079.51 27.33 2635.3
-1084.26 27.98 2698.2
-1076.38 27.96 2695.9
-1063.55 27.99 2698.9
-1095.03 29.01 2797.2
-1100.34 29.34 2829.4
-1110.89 29.82 2875.7
-1109.28 30.18 2910.6
-1091.88 30.33 2924.7
-1300.28 19.60 2520.3
-1337.58 20.27 2605.7
-1294.04 20.01 2572.8
-1253.80 19.49 2505.8
-1251.72 19.56 2514.6
-1289.09 20.25 2603.2
-1300.89 20.54 2640.9
-1280.41 20.32 2613.1
-1272.31 20.30 2610.4
-1241.10 19.91 2559.9
-1220.95 19.69 2531.9
-1196.59 19.40 2494.8
-1209.33 19.93 2562.9
-1220.88 20.24 2601.7
-1233.95 20.57 2644.2
-1243.47 20.84 2679.5
-1243.19 20.95 2693.9
-1216.57 20.62 2651.1
-1175.18 20.03 2575.5
-1180.80 20.24 2602.6
-1205.63 20.79 2672.6
-1197.00 20.76 2668.8
-1174.53 20.49 2633.9
-1169.64 20.52 2638.3
-1182.87 20.87 2683.8
-1166.60 20.71 2662.6
-1138.44 20.33 2613.8
-1142.27 20.52 2638.3
-1145.59 20.70 2661.9
-1122.46 20.41 2623.9
-1124.13 20.56 2643.9
-1155.30 21.26 2733.8
-1155.86 21.40 2752.0
-1135.53 21.16 2720.4
-1132.58 21.24 2730.3
-1127.68 21.28 2735.6
-1118.96 21.25 2731.6
-1109.87 21.21 2726.7
-1098.92 21.13 2717.1
-1103.67 21.36 2746.5
-1095.68 21.34 2744.3
-1072.20 21.02 2703.0
-1077.87 21.27 2735.2
-1106.36 21.98 2826.1
-1107.66 22.76 2926.3
-1406.31 13.79 2659.0
-1386.94 13.66 2635.3
-1381.58 13.68 2638.1
-1303.14 13.03 2513.2
-1316.34 13.23 2551.4
-1349.47 13.63 2628.8
-1354.07 13.75 2651.2
-1311.92 13.39 2581.8
-1330.05 13.64 2630.9
-1280.67 13.27 2559.4
-1269.12 13.22 2549.6
-1241.62 13.00 2507.4
-1238.16 13.17 2540.3
-1253.33 13.40 2585.2
-1277.86 13.74 2650.0
-1267.96 13.71 2643.6
-1228.36 13.35 2575.0
-1195.91 13.07 2520.7
-1195.26 13.13 2533.1
-1231.09 13.60 2623.5
-1225.76 13.85 2671.1
-1180.18 13.41 2586.4
-1160.57 13.26 2558.0
-1158.36 13.31 2567.8
-1164.68 13.46 2596.7
-1155.41 13.43 2591.0
-1147.36 13.42 2588.0
-1157.48 13.62 2626.2
-1163.41 13.77 2655.3
-1155.23 13.75 2652.3
-1134.74 13.59 2620.9
-1112.80 13.41 2585.7
-1116.97 13.54 2611.1
-1146.06 13.98 2695.4
-1159.60 14.23 2744.0
-1140.00 14.07 2714.3
-1103.19 13.70 2643.0
-1084.32 13.55 2614.0
-1105.21 13.90 2681.1
-1123.52 14.22 2742.8
-1115.54 14.21 2740.6
-1104.56 14.16 2731.1
-1091.76 14.09 2716.8
-1067.14 13.86 2672.8
-1069.64 13.98 2696.6
-1096.16 14.71 2837.6
-1105.55 15.14 2920.7
-1103.46 15.33 2955.7
-1331.69 6.66 2568.3
-1323.69 6.65 2565.7
-1366.83 6.90 2662.7
-1310.12 6.68 2578.2
-1302.54 6.68 2576.5
-1317.43 6.79 2619.3
-1278.00 6.62 2554.1
-1294.53 6.74 2600.6
-1294.00 6.77 2613.2
-1236.40 6.51 2510.0
-1249.64 6.61 2550.3
-1259.20 6.70 2583.5
-1252.03 6.70 2582.5
-1270.06 6.83 2633.8
-1254.99 6.78 2616.6
-1240.00 6.74 2599.4
-1231.07 6.73 2594.8
-1217.89 6.69 2581.1
-1241.30 6.86 2645.2
-1239.03 6.96 2684.9
-1172.80 6.63 2555.7
-1162.34 6.60 2547.3
-1179.18 6.74 2599.0
-1170.29 6.73 2594.2
-1169.20 6.76 2606.8
-1163.56 6.76 2609.3
-1157.91 6.77 2611.8
-1155.07 6.79 2620.7
-1147.76 6.79 2619.6
-1129.68 6.72 2593.7
-1115.97 6.72 2593.0
-1163.39 7.05 2719.6
-1140.20 6.95 2681.7
-1102.77 6.77 2609.5
-1099.35 6.79 2617.5
-1079.71 6.71 2586.7
-1101.03 6.92 2671.0
-1118.22 7.08 2729.8
-1109.14 7.06 2724.9
-1085.07 6.96 2682.9
-1066.41 6.92 2671.0
-1104.31 7.22 2784.0
-1109.30 7.35 2833.6
-1093.13 7.29 2810.9
-1091.52 7.43 2864.0
-1358.40 -0.00 2593.8
-1367.44 -0.00 2624.1
-1379.57 -0.00 2660.6
-1351.66 -0.00 2619.9
-1267.80 -0.00 2507.7
-1313.25 -0.00 2638.2
-1285.02 -0.00 2608.7
-1270.76 -0.00 2593.4
-1253.50 -0.00 2571.8
-1214.08 -0.00 2504.2
-1218.24 -0.00 2540.0
-1234.84 -0.00 2588.6
-1215.21 -0.00 2561.3
-1192.29 -0.00 2526.8
-1198.39 -0.00 2553.8
-1220.02 -0.00 2614.3
-1202.66 -0.00 2591.5
-1172.98 -0.00 2585.3
-1180.57 -0.00 2617.0
-1172.06 -0.00 2613.2
-1160.31 -0.00 2602.0
-1186.29 -0.00 2707.5
-1116.10 -0.00 2562.5
-1112.10 -0.00 2568.6
-1156.69 -0.00 2687.7
-1153.90 -0.00 2713.9
-1088.76 -0.00 2576.4
-1085.10 -0.00 2615.9
-1114.75 -0.00 2704.2
-1131.11 -0.00 2761.3
-1118.19 -0.00 2747.1
-1090.33 -0.00 2695.9
-1067.90 -0.00 2674.7
-1113.16 -0.00 2806.3
-1087.43 -0.00 2777.7
-1112.18 -0.00 2918.3
-1097.44 -0.00 2960.1
-1374.83 -6.84 2638.3
-1362.20 -6.85 2640.3
-1305.18 -6.59 2542.6
-1272.52 -6.49 2504.2
-1275.81 -6.64 2563.0
-1272.70 -6.66 2570.1
-1234.64 -6.50 2506.4
-1225.44 -6.48 2500.9
-1234.22 -6.57 2532.2
-1222.80 -6.54 2522.2
-1213.59 -6.52 2516.7
-1237.26 -6.69 2579.6
-1267.98 -6.89 2658.0
-1257.65 -6.87 2650.8
-1184.18 -6.51 2509.6
-1156.94 -6.57 2535.5
-1178.76 -6.74 2598.1
-1174.81 -6.75 2604.3
-1154.05 -6.67 2573.0
-1150.94 -6.69 2581.0
-1187.09 -7.02 2709.3
-1116.10 -6.64 2562.5
-1110.51 -6.65 2564.9
-1148.78 -6.92 2669.3
-1164.85 -7.10 2739.6
-1122.63 -6.89 2656.5
-1095.86 -6.76 2609.2
-1107.06 -6.88 2652.2
-1140.66 -7.13 2749.8
-1117.81 -7.12 2746.2
-1103.82 -7.08 2729.2
-1089.53 -7.03 2711.3
-1085.69 -7.05 2719.3
-1120.16 -7.32 2823.9
-1122.99 -7.39 2849.7
-1069.20 -7.08 2731.2
-1056.89 -7.05 2717.7
-1092.56 -7.33 2828.3
-1101.22 -7.44 2870.0
-1099.35 -7.48 2884.6
-1097.42 -7.52 2899.2
-1099.98 -7.59 2926.1
-1083.42 -7.63 2942.9
-1387.61 -13.74 2649.6
-1288.12 -13.08 2522.1
-1289.90 -13.23 2551.4
-1306.64 -13.47 2597.9
-1266.35 -13.12 2530.8
-1255.75 -13.08 2522.7
-1278.01 -13.38 2580.9
-1268.65 -13.35 2575.5
-1235.55 -13.07 2521.5
-1219.32 -12.97 2501.6
-1221.48 -13.06 2519.5
-1226.61 -13.19 2543.7
-1265.36 -13.68 2638.2
-1210.63 -13.30 2565.7
-1189.99 -13.22 2550.0
-1211.49 -13.54 2610.6
-1213.87 -13.64 2630.4
-1212.41 -13.70 2642.1
-1219.62 -13.86 2672.9
-1217.18 -13.91 2682.8
-1190.43 -13.68 2638.9
-1185.96 -13.71 2644.2
-1198.17 -13.93 2686.9
-1169.65 -13.68 2638.3
-1135.29 -13.36 2575.9
-1127.69 -13.35 2573.8
-1119.52 -13.49 2601.3
-1150.79 -13.95 2690.2
-1148.41 -14.00 2701.0
-1115.61 -13.69 2639.9
-1096.63 -13.54 2611.0
-1107.43 -13.76 2653.1
-1140.26 -14.25 2748.8
-1116.67 -14.23 2743.4
-1082.44 -13.88 2676.4
-1082.81 -13.97 2694.5
-1094.95 -14.22 2742.5
-1116.47 -14.59 2814.6
-1105.75 -14.55 2806.0
-1072.47 -14.20 2739.5
-1082.61 -14.43 2783.9
-1100.48 -14.77 2848.8
-1089.75 -14.73 2840.1
-1097.92 -14.94 2880.8
-1104.13 -15.13 2917.0
-1333.13 -20.30 2610.2
-1286.27 -19.79 2544.3
-1328.64 -20.55 2641.6
-1315.11 -20.44 2628.3
-1275.34 -19.93 2562.1
-1267.34 -19.91 2559.3
-1263.77 -19.95 2565.6
-1237.29 -19.64 2525.1
-1225.43 -19.55 2514.2
-1231.06 -19.75 2539.2
-1237.02 -19.95 2565.2
-1261.48 -20.68 2658.9
-1239.20 -20.43 2626.2
-1251.46 -20.74 2666.9
-1225.07 -20.42 2625.1
-1195.48 -20.04 2576.0
-1207.15 -20.35 2615.8
-1216.99 -20.63 2652.0
-1209.22 -20.61 2650.1
-1193.61 -20.46 2630.8
-1176.84 -20.29 2608.8
-1181.86 -20.49 2635.0
-1188.28 -20.85 2680.3
-1146.97 -20.24 2602.4
-1133.29 -20.12 2586.5
-1136.84 -20.30 2610.1
-1140.68 -20.49 2634.6
-1145.59 -20.70 2661.9
-1153.92 -20.98 2697.5
-1137.44 -20.81 2675.2
-1092.24 -20.10 2584.6
-1071.06 -19.83 2550.1
-1079.30 -20.11 2585.7
-1092.35 -20.48 2633.4
-1121.96 -21.17 2721.7
-1100.79 -21.17 2721.7
-1074.96 -20.81 2675.0
-1067.13 -20.79 2672.8
-1067.78 -20.94 2691.9
-1093.64 -21.58 2775.2
-1096.88 -21.79 2801.9
-1081.15 -21.62 2780.1
-1089.96 -22.40 2879.5
-1105.94 -22.88 2941.9
-1364.37 -27.02 2605.2
-1372.46 -27.31 2633.7
-1333.94 -26.68 2572.6
-1305.30 -26.24 2530.0
-1305.59 -26.38 2543.4
-1312.64 -26.65 2570.1
-1320.94 -26.96 2599.5
-1304.74 -26.76 2580.8
-1303.90 -26.88 2592.4
-1308.37 -27.12 2614.8
-1283.78 -26.75 2579.0
-1252.68 -26.23 2529.7
-1227.07 -25.83 2491.1
-1239.03 -26.22 2528.6
-1264.84 -26.91 2595.0
-1258.09 -26.91 2595.0
-1254.37 -26.98 2601.2
-1259.70 -27.24 2626.4
-1248.99 -27.15 2618.2
-1222.88 -26.73 2577.5
-1211.01 -26.62 2566.5
-1245.92 -27.53 2655.1
-1241.54 -27.59 2660.4
-1210.19 -27.04 2607.7
-1225.15 -27.53 2654.8
-1204.87 -27.23 2625.6
-1166.03 -26.50 2555.4
-1172.52 -26.80 2584.3
-1176.82 -27.05 2608.7
-1181.83 -27.33 2635.0
-1161.18 -27.65 2666.0
-1151.38 -27.58 2659.3
-1143.59 -27.56 2657.2
-1159.01 -28.10 2709.4
-1151.50 -28.09 2708.2
-1112.07 -27.29 2631.5
-1096.21 -27.07 2610.0
-1107.01 -27.50 2652.1
-1123.75 -28.09 2709.0
-1109.40 -28.45 2743.0
-1093.21 -28.21 2720.4
-1094.17 -28.42 2740.5
-1072.55 -28.04 2703.9
-1074.18 -28.27 2725.8
-1097.59 -29.08 2803.7
-1101.79 -29.38 2833.2
-1092.51 -29.33 2828.2
-1075.38 -29.06 2802.6
-1067.97 -29.06 2802.2
-1093.48 -29.96 2888.8
-1110.84 -30.64 2955.0
-1330.94 -33.44 2579.7
-1330.21 -33.59 2591.3
-1337.17 -33.94 2618.1
-1347.63 -34.38 2652.0
-1334.04 -34.21 2638.8
-1309.71 -33.76 2604.0
-1289.10 -33.40 2576.3
-1314.49 -34.23 2640.7
-1283.16 -33.77 2604.9
-1276.40 -33.77 2604.9
-1256.94 -33.79 2606.6
-1220.75 -32.99 2545.2
-1211.93 -32.93 2540.5
-1186.84 -32.43 2501.5
-1179.41 -32.40 2499.5
-1217.85 -33.64 2595.3
-1238.55 -34.40 2654.0
-1232.05 -34.41 2654.8
-1233.08 -34.64 2672.0
-1199.42 -33.88 2613.7
-1159.77 -32.95 2541.7
-1161.75 -33.19 2560.6
-1161.99 -33.39 2575.8
-1163.39 -33.62 2593.8
-1182.62 -34.38 2652.1
-1158.75 -34.49 2660.4
-1131.49 -33.88 2613.4
-1123.80 -33.85 2611.2
-1136.56 -34.44 2656.9
-1141.23 -35.01 2700.6
-1104.31 -34.08 2629.3
-1093.50 -33.96 2619.7
-1094.99 -34.22 2639.7
-1091.42 -34.32 2647.7
-1114.36 -35.26 2720.4
-1104.92 -35.19 2714.5
-1081.62 -34.67 2674.3
-1094.30 -35.30 2723.1
-1094.52 -35.54 2741.4
-1072.89 -35.06 2704.8
-1098.72 -36.14 2788.1
-1097.89 -36.84 2842.1
-1087.17 -36.73 2833.4
-1086.81 -36.97 2851.7
-1100.88 -37.70 2908.4
-1104.83 -38.10 2939.0
-1091.85 -37.91 2924.6
-1338.20 -39.95 2568.0
-1349.52 -40.49 2602.6
-1351.07 -40.74 2618.7
-1332.46 -40.38 2595.7
-1328.03 -40.45 2600.2
-1325.85 -40.59 2609.2
-1305.58 -40.17 2582.5
-1275.52 -39.45 2536.0
-1285.93 -39.98 2570.0
-1304.33 -41.19 2647.9
-1300.12 -41.27 2653.3
-1233.89 -39.80 2558.8
-1215.52 -39.42 2534.3
-1223.95 -39.91 2565.7
-1220.67 -40.02 2572.8
-1234.84 -40.71 2617.0
-1236.93 -41.00 2635.9
-1221.17 -40.71 2616.8
-1192.86 -39.98 2570.4
-1174.80 -39.60 2545.7
-1173.11 -39.77 2556.4
-1163.47 -39.66 2549.8
-1143.95 -39.22 2521.4
-1134.30 -39.34 2529.0
-1158.56 -40.41 2598.1
-1141.59 -40.06 2575.0
-1127.93 -39.81 2559.2
-1155.68 -41.03 2637.6
-1159.91 -41.43 2663.1
-1142.18 -41.04 2638.1
-1143.92 -41.35 2658.0
-1132.99 -41.20 2648.5
-1123.66 -41.11 2642.7
-1122.90 -41.33 2657.2
-1098.08 -40.67 2614.5
-1065.73 -39.72 2553.2
-1056.33 -40.11 2578.7
-1080.38 -41.29 2654.2
-1096.59 -42.18 2711.3
-1101.98 -43.22 2778.1
-1121.41 -44.27 2845.7
-1088.85 -43.85 2818.7
-1073.52 -43.52 2797.8
-1080.37 -44.10 2834.8
-1100.49 -45.23 2907.4
-1107.26 -45.82 2945.4
-1096.01 -45.67 2935.7
-1342.11 -46.97 2588.4
-1301.36 -46.01 2535.1
-1328.90 -47.22 2601.9
-1333.50 -47.63 2624.2
-1319.52 -47.37 2610.0
-1278.18 -46.12 2541.3
-1274.25 -46.22 2546.6
-1315.30 -47.95 2642.3
-1262.75 -46.52 2563.5
-1248.60 -46.24 2548.2
-1279.18 -47.63 2624.5
-1249.25 -46.76 2576.8
-1237.25 -47.07 2593.6
-1192.78 -46.91 2584.7
-1158.89 -45.83 2525.4
-1165.92 -46.37 2555.2
-1162.91 -46.52 2563.1
-1159.86 -46.66 2571.1
-1182.13 -47.83 2635.6
-1158.11 -47.13 2597.1
-1097.05 -45.44 2503.8
-1123.94 -46.83 2580.5
-1131.02 -47.41 2612.3
-1126.10 -47.49 2616.6
-1110.14 -47.10 2595.1
-1100.53 -46.97 2588.4
-1098.73 -47.18 2600.0
-1089.13 -47.06 2593.2
-1071.47 -46.59 2567.0
-1066.94 -46.68 2572.1
-1080.68 -47.58 2621.6
-1078.27 -47.77 2632.3
-1084.11 -48.34 2663.4
-1103.29 -49.51 2727.9
-1127.01 -51.56 2841.2
-1107.81 -51.02 2811.2
-1104.04 -51.18 2820.2
-1106.39 -51.63 2845.0
-1103.94 -51.86 2857.7
-1085.30 -51.33 2828.5
-1091.37 -51.97 2863.6
-1375.52 -54.75 2639.6
-1316.74 -52.67 2539.4
-1301.31 -52.58 2535.0
-1327.93 -53.93 2600.0
-1333.00 -54.41 2623.2
-1341.12 -55.02 2652.8
-1319.90 -54.43 2624.3
-1271.96 -52.72 2542.0
-1269.80 -52.91 2550.9
-1297.33 -54.34 2619.9
-1264.03 -53.22 2566.1
-1233.59 -52.22 2517.5
-1246.72 -53.05 2557.9
-1236.11 -52.88 2549.7
-1215.68 -52.86 2548.4
-1238.57 -54.15 2610.6
-1229.63 -54.05 2606.0
-1226.64 -54.22 2614.0
-1238.84 -55.06 2654.6
-1199.43 -53.91 2599.1
-1162.17 -52.53 2532.6
-1163.38 -52.88 2549.6
-1169.06 -53.44 2576.7
-1174.61 -54.00 2603.8
-1177.17 -54.44 2624.6
-1136.89 -52.88 2549.5
-1093.17 -51.44 2480.3
-1084.97 -51.36 2476.3
-1085.56 -51.69 2492.4
-1090.05 -52.22 2517.7
-1083.76 -52.23 2518.2
-1083.35 -52.53 2532.5
-1089.92 -53.17 2563.4
-1085.06 -53.25 2567.6
-1071.66 -52.92 2551.6
-1072.19 -53.28 2568.7
-1086.05 -54.30 2618.2
-1096.64 -55.18 2660.3
-1090.73 -55.23 2662.7
-1087.08 -55.39 2670.7
-1092.75 -56.04 2701.8
-1106.85 -57.13 2754.4
-1083.46 -56.65 2731.4
-1078.12 -57.12 2753.9
-1112.14 -59.31 2859.8
-1115.42 -59.89 2887.5
-1102.09 -59.57 2872.2
-1097.01 -59.70 2878.5
-1113.50 -61.01 2941.7
-1421.11 -63.01 2700.2
-1400.41 -62.70 2687.4
-1341.54 -60.37 2587.2
-1301.86 -58.88 2523.3
-1315.41 -59.79 2562.5
-1331.51 -60.83 2607.0
-1323.88 -60.79 2605.3
-1319.40 -60.90 2609.8
-1324.79 -61.46 2634.0
-1302.33 -60.73 2602.7
-1269.74 -59.52 2550.8
-1267.54 -59.73 2559.7
-1276.78 -60.48 2592.0
-1287.64 -61.32 2627.8
-1258.92 -60.27 2582.9
-1208.11 -58.46 2505.3
-1224.45 -59.57 2552.9
-1222.94 -59.82 2563.6
-1216.23 -59.81 2563.5
-1206.10 -59.64 2556.1
-1201.10 -59.72 2559.6
-1194.81 -59.74 2560.3
-1180.09 -59.33 2542.9
-1198.53 -60.60 2597.1
-1182.00 -60.44 2590.4
-1157.85 -59.55 2552.0
-1162.63 -60.14 2577.3
-1162.80 -60.49 2592.5
-1150.27 -60.19 2579.5
-1136.58 -59.82 2563.7
-1137.47 -60.22 2580.8
-1134.26 -60.40 2588.8
-1112.66 -59.61 2554.6
-1096.75 -59.11 2533.1
-1093.58 -59.29 2541.0
-1096.28 -59.80 2562.7
-1087.52 -59.68 2557.8
-1067.50 -58.94 2526.1
-1069.29 -59.40 2545.9
-1083.31 -60.56 2595.3
-1083.70 -60.96 2612.5
-1080.20 -61.14 2620.4
-1087.27 -61.93 2654.3
-1096.44 -62.85 2693.7
-1087.82 -62.76 2689.7
-1084.43 -62.97 2698.6
-1101.75 -64.39 2759.5
-1084.51 -63.79 2734.1
-1060.05 -62.77 2690.0
-1092.64 -65.12 2791.0
-1098.31 -65.90 2824.2
-1073.57 -64.85 2779.1
-1083.41 -65.88 2823.6
-1104.08 -67.60 2897.0
-1096.81 -67.61 2897.6
-1107.46 -68.74 2946.0
-1402.42 -69.08 2664.7
-1384.01 -68.52 2642.7
-1408.19 -70.06 2702.3
-1399.91 -70.00 2699.8
-1332.97 -66.98 2583.6
-1322.19 -66.78 2575.7
-1320.08 -67.01 2584.6
-1294.37 -66.04 2547.2
-1300.39 -66.69 2572.2
-1314.84 -67.78 2614.2
-1303.15 -67.52 2604.4
-1282.15 -66.78 2575.8
-1290.99 -67.59 2607.1
-1312.06 -69.06 2663.6
-1303.41 -68.96 2660.0
-1256.23 -66.82 2577.4
-1215.93 -65.02 2508.0
-1223.68 -65.79 2537.6
-1259.41 -68.08 2625.8
-1222.17 -66.79 2576.0
-1183.20 -65.37 2521.4
-1198.97 -66.61 2569.2
-1169.93 -65.36 2521.0
-1173.76 -65.94 2543.5
-1192.91 -67.40 2599.6
-1166.59 -66.28 2556.6
-1157.79 -66.16 2551.9
-1173.26 -67.43 2600.8
-1170.10 -67.64 2608.8
-1153.47 -67.06 2586.7
-1136.52 -66.46 2563.6
-1132.57 -66.62 2569.7
-1143.03 -67.63 2608.8
-1135.35 -67.58 2606.7
-1121.72 -67.17 2590.8
-1120.40 -67.49 2603.3
-1105.65 -67.01 2584.6
-1079.25 -65.81 2538.3
-1067.83 -65.51 2526.9
-1077.75 -66.53 2566.1
-1079.79 -67.07 2586.9
-1068.70 -66.79 2576.3
-1058.42 -66.57 2567.6
-1058.79 -67.01 2584.7
-1079.80 -68.78 2652.8
-1085.51 -69.58 2684.0
-1050.45 -67.77 2614.0
-1086.30 -71.00 2738.6
-1060.57 -70.70 2727.2
-1120.40 -76.22 2939.8
-1433.77 -76.93 2697.7
-1412.42 -76.16 2670.5
-1377.67 -74.65 2617.7
-1343.59 -73.17 2565.5
-1355.91 -74.20 2602.0
-1385.11 -76.18 2671.3
-1354.43 -74.87 2625.2
-1323.94 -73.55 2579.1
-1301.36 -72.66 2548.0
-1285.24 -72.13 2529.3
-1301.22 -73.40 2573.8
-1315.21 -74.57 2614.9
-1302.19 -74.22 2602.4
-1268.27 -72.66 2547.9
-1263.41 -72.76 2551.4
-1299.61 -75.24 2638.3
-1280.69 -74.93 2627.5
-1258.60 -74.04 2596.0
-1247.50 -73.78 2587.0
-1263.66 -75.14 2634.7
-1261.11 -75.39 2643.6
-1191.24 -71.60 2510.8
-1177.19 -71.54 2508.6
-1201.86 -73.45 2575.4
-1185.01 -72.82 2553.5
-1142.27 -70.59 2475.2
-1136.64 -71.04 2491.0
-1162.26 -73.06 2561.7
-1152.22 -72.84 2554.2
-1126.26 -71.61 2511.1
-1117.98 -71.50 2507.1
-1108.90 -71.33 2501.3
-1097.02 -70.98 2489.0
-1098.03 -71.47 2506.1
-1108.54 -72.58 2545.1
-1113.71 -73.36 2572.3
-1120.33 -74.24 2603.2
-1114.24 -74.28 2604.7
-1087.01 -72.91 2556.5
-1073.60 -72.45 2540.5
-1074.59 -72.97 2558.5
-1067.40 -72.93 2557.2
-1059.83 -72.86 2554.9
-1053.79 -72.90 2556.4
-1055.84 -74.45 2610.6
-1037.71 -73.64 2582.3
-1083.65 -77.91 2731.9
-1051.45 -77.11 2703.7
-1439.83 -83.47 2682.9
-1427.83 -83.17 2673.5
-1435.09 -84.01 2700.2
-1358.03 -80.28 2580.3
-1326.13 -79.57 2557.5
-1314.02 -79.24 2546.9
-1298.29 -78.68 2529.1
-1301.73 -79.29 2548.7
-1310.52 -80.24 2579.0
-1311.96 -80.74 2595.1
-1311.99 -81.15 2608.5
-1292.71 -80.38 2583.5
-1252.16 -78.26 2515.5
-1273.91 -80.46 2586.1
-1287.42 -81.74 2627.4
-1267.47 -80.90 2600.4
-1249.36 -80.17 2577.0
-1242.21 -80.14 2576.0
-1232.03 -79.92 2568.7
-1204.22 -78.54 2524.4
-1186.88 -77.83 2501.6
-1193.10 -78.67 2528.5
-1155.90 -77.49 2490.8
-1147.64 -77.37 2486.9
-1134.40 -76.91 2472.1
-1157.31 -78.91 2536.3
-1160.12 -79.55 2557.0
-1129.13 -77.87 2503.0
-1110.23 -77.01 2475.3
-1107.32 -77.26 2483.2
-1109.24 -77.84 2502.0
-1109.05 -78.29 2516.3
-1085.52 -77.08 2477.5
-1069.75 -76.41 2456.1
-1086.23 -78.05 2508.8
-1103.27 -79.75 2563.5
-1122.81 -81.66 2624.8
-1123.70 -82.22 2642.9
-1092.99 -80.47 2586.4
-1076.84 -79.77 2563.9
-1074.26 -80.07 2573.6
-1071.25 -80.34 2582.5
-1064.39 -80.33 2582.1
-1044.64 -79.34 2550.2
-1050.27 -80.28 2580.3
-1078.63 -82.97 2666.9
-1069.32 -82.79 2661.0
-1061.52 -82.72 2658.7
-1092.79 -85.71 2754.9
-1089.89 -86.61 2784.0
-1052.46 -84.20 2706.3
-1062.57 -85.58 2750.7
-1434.06 -90.94 2698.2
-1334.03 -86.28 2560.0
-1359.63 -88.38 2622.1
-1362.05 -88.98 2640.0
-1336.55 -87.75 2603.7
-1331.65 -87.88 2607.3
-1343.04 -89.08 2643.0
-1345.70 -89.71 2661.8
-1334.35 -89.42 2653.0
-1304.26 -87.85 2606.6
-1261.87 -85.44 2535.0
-1249.94 -85.07 2524.2
-1264.55 -86.52 2567.1
-1262.71 -86.85 2577.0
-1263.00 -87.34 2591.3
-1264.54 -87.91 2608.3
-1237.78 -86.51 2566.8
-1208.17 -84.90 2519.0
-1208.44 -85.38 2533.2
-1216.79 -86.44 2564.7
-1196.43 -85.46 2535.6
-1147.82 -83.36 2473.4
-1157.20 -84.51 2507.6
-1160.17 -85.21 2528.2
-1160.14 -85.69 2542.5
-1143.11 -84.92 2519.5
-1129.05 -84.35 2502.8
-1126.11 -84.62 2510.7
-1121.09 -84.73 2514.1
-1119.29 -85.09 2524.7
-1113.00 -85.11 2525.3
-1086.25 -83.56 2479.2
-1071.86 -83.44 2475.6
-1089.76 -85.34 2532.1
-1111.33 -87.56 2597.9
-1090.31 -87.49 2596.0
-1073.03 -86.64 2570.7
-1077.30 -87.53 2597.1
-1076.88 -88.05 2612.4
-1067.29 -87.82 2605.5
-1085.24 -89.86 2666.2
-1072.56 -90.54 2686.4
-1079.45 -91.72 2721.3
-1081.06 -93.07 2761.5
-1060.72 -91.93 2727.6
-1345.64 -93.26 2569.5
-1367.65 -95.26 2624.5
-1395.88 -97.71 2692.1
-1359.29 -96.60 2661.4
-1339.32 -95.67 2635.7
-1321.25 -94.86 2613.5
-1289.35 -93.05 2563.5
-1291.19 -93.66 2580.5
-1279.59 -93.30 2570.6
-1267.15 -92.88 2558.9
-1280.36 -94.34 2599.2
-1273.17 -94.31 2598.3
-1267.29 -94.37 2600.1
-1271.86 -95.22 2623.4
-1247.24 -93.88 2586.4
-1211.54 -91.68 2526.0
-1207.49 -91.87 2531.2
-1231.27 -94.20 2595.2
-1225.77 -94.29 2597.8
-1204.54 -93.17 2566.9
-1209.64 -94.08 2592.1
-1202.43 -94.05 2591.0
-1185.17 -93.22 2568.2
-1173.84 -92.85 2558.0
-1160.88 -92.34 2544.1
-1159.13 -92.73 2554.8
-1159.79 -93.32 2571.0
-1142.79 -92.48 2547.9
-1124.26 -91.51 2521.2
-1111.50 -91.00 2507.2
-1093.97 -90.09 2482.1
-1076.14 -89.15 2456.1
-1062.25 -89.05 2453.4
-1069.92 -90.23 2486.0
-1078.23 -91.49 2520.5
-1082.08 -92.37 2545.0
-1092.44 -93.83 2585.1
-1083.64 -93.65 2580.1
-1077.18 -93.67 2580.6
-1092.53 -95.60 2633.8
-1092.03 -96.15 2649.1
-1080.09 -95.70 2636.7
-1068.20 -95.25 2624.3
-1062.35 -95.34 2626.7
-1093.01 -98.72 2719.9
-1091.89 -99.91 2752.7
-1076.92 -99.19 2732.8
-1059.12 -98.20 2705.4
-1046.15 -97.64 2690.1
-1072.85 -100.80 2777.3
-1433.06 -105.37 2709.6
-1412.66 -104.38 2684.2
-1404.42 -104.29 2681.7
-1414.20 -105.54 2713.8
-1395.77 -104.68 2691.8
-1367.81 -103.10 2651.2
-1374.69 -104.14 2678.0
-1355.09 -103.18 2653.2
-1311.14 -100.34 2580.2
-1272.45 -97.88 2516.9
-1269.18 -98.64 2536.5
-1265.24 -98.85 2541.8
-1259.95 -98.95 2544.4
-1278.49 -100.93 2595.4
-1277.91 -101.42 2608.0
-1268.50 -101.21 2602.6
-1267.84 -101.70 2615.1
-1241.93 -100.16 2575.4
-1208.85 -98.01 2520.4
-1215.14 -99.06 2547.3
-1245.74 -102.11 2625.7
-1248.27 -102.88 2645.5
-1235.01 -102.35 2631.8
-1219.69 -101.64 2613.6
-1194.34 -100.08 2573.6
-1181.31 -99.55 2559.8
-1172.07 -99.33 2554.2
-1158.30 -98.72 2538.5
-1154.08 -98.92 2543.7
-1153.94 -99.48 2558.0
-1137.38 -98.62 2535.9
-1125.79 -98.18 2524.6
-1119.92 -98.24 2526.1
-1107.18 -97.69 2512.1
-1092.49 -96.97 2493.4
-1078.68 -96.31 2476.6
-1074.86 -96.54 2482.6
-1070.23 -96.71 2486.8
-1066.35 -96.94 2492.8
-1065.96 -97.50 2507.1
-1069.39 -98.41 2530.6
-1066.53 -98.75 2539.4
-1067.47 -99.45 2557.4
-1084.79 -101.70 2615.1
-1087.75 -102.62 2638.8
-1073.56 -101.92 2620.8
-1059.07 -101.18 2601.9
-1043.90 -100.38 2581.1
-1064.23 -102.99 2648.3
-1095.85 -107.44 2762.7
-1080.49 -106.63 2741.9
-1060.85 -105.38 2709.8
-1046.06 -104.61 2689.9
-1069.52 -107.67 2768.7
-1421.86 -112.07 2701.6
-1417.75 -112.30 2707.2
-1394.74 -111.58 2689.8
-1341.58 -107.87 2600.3
-1326.20 -107.17 2583.5
-1358.16 -110.31 2659.2
-1361.74 -111.16 2679.8
-1303.46 -106.95 2578.3
-1269.83 -104.73 2524.7
-1282.04 -106.28 2562.2
-1276.72 -106.39 2564.8
-1270.93 -106.47 2566.6
-1289.87 -108.62 2618.5
-1287.35 -110.15 2655.3
-1237.49 -106.45 2566.2
-1222.57 -105.74 2549.0
-1242.15 -108.01 2603.9
-1250.34 -109.32 2635.4
-1234.10 -108.49 2615.4
-1220.90 -107.92 2601.8
-1204.80 -107.09 2581.7
-1189.61 -106.33 2563.4
-1187.07 -106.70 2572.3
-1178.64 -106.54 2568.5
-1166.08 -106.01 2555.5
-1162.65 -106.30 2562.6
-1163.30 -106.97 2578.7
-1121.74 -103.75 2501.0
-1087.44 -101.16 2438.6
-1100.38 -102.96 2482.1
-1106.28 -104.12 2510.0
-1103.23 -104.45 2517.9
-1098.94 -104.66 2523.1
-1087.87 -104.23 2512.6
-1076.85 -103.79 2502.1
-1063.50 -103.13 2486.1
-1053.75 -102.80 2478.3
-1077.86 -105.80 2550.6
-1099.71 -108.61 2618.4
-1080.07 -107.34 2587.6
-1078.18 -107.82 2599.2
-1092.22 -109.91 2649.6
-1091.27 -110.51 2664.0
-1064.62 -108.50 2615.5
-1037.07 -106.37 2564.2
-1032.46 -106.58 2569.3
-1042.28 -108.29 2610.5
-1053.75 -110.20 2656.5
-1054.02 -110.95 2674.7
-1060.39 -112.36 2708.7
-1075.30 -114.70 2765.1
-1417.20 -117.52 2666.5
-1387.50 -116.77 2649.4
-1415.34 -119.71 2716.0
-1401.51 -119.13 2702.9
-1360.70 -116.24 2637.4
-1344.80 -115.46 2619.7
-1374.41 -118.60 2691.0
-1357.44 -118.34 2685.0
-1301.15 -114.02 2587.0
-1295.34 -114.10 2588.8
-1309.11 -115.91 2629.9
-1322.70 -117.73 2671.1
-1303.00 -116.58 2645.2
-1283.40 -115.44 2619.2
-1277.64 -116.15 2635.3
-1244.76 -113.77 2581.3
-1241.48 -114.08 2588.4
-1245.05 -115.03 2610.0
-1239.95 -115.19 2613.5
-1231.00 -114.98 2608.9
-1223.33 -114.90 2606.9
-1216.94 -114.93 2607.7
-1209.70 -114.89 2606.7
-1192.40 -113.88 2583.9
-1171.45 -112.51 2552.8
-1168.88 -112.90 2561.7
-1175.75 -114.22 2591.5
-1171.41 -114.45 2596.7
-1125.32 -110.58 2509.0
-1083.27 -107.69 2443.5
-1091.67 -109.17 2476.9
-1091.90 -109.84 2492.1
-1086.87 -109.98 2495.4
-1074.67 -109.40 2482.1
-1072.40 -109.82 2491.8
-1066.55 -109.89 2493.2
-1057.56 -109.62 2487.3
-1082.42 -112.89 2561.4
-1096.14 -115.74 2626.1
-1081.14 -114.87 2606.3
-1083.36 -115.83 2628.1
-1094.28 -118.49 2688.4
-1060.94 -115.62 2623.2
-1051.74 -115.35 2617.2
-1049.59 -115.86 2628.8
-1047.76 -116.42 2641.4
-1040.00 -116.32 2639.1
-1038.44 -116.91 2652.6
-1062.16 -120.38 2731.3
-1392.29 -123.45 2645.4
-1400.35 -124.78 2673.9
-1385.66 -124.09 2659.1
-1334.24 -120.08 2573.2
-1340.42 -121.24 2598.1
-1365.66 -124.15 2660.4
-1347.92 -123.16 2639.1
-1323.47 -121.54 2604.5
-1342.89 -123.96 2656.3
-1346.37 -124.92 2676.9
-1323.38 -123.42 2644.8
-1322.79 -124.01 2657.4
-1325.68 -124.93 2677.1
-1296.69 -122.84 2632.4
-1248.99 -118.95 2549.0
-1239.27 -118.65 2542.6
-1261.39 -121.42 2601.8
-1267.20 -122.63 2627.8
-1241.36 -120.78 2588.2
-1226.86 -120.02 2571.8
-1242.40 -122.20 2618.6
-1235.10 -122.83 2632.0
-1221.47 -122.15 2617.4
-1182.66 -118.93 2548.4
-1136.61 -114.94 2463.0
-1148.83 -116.83 2503.5
-1178.30 -120.51 2582.3
-1163.67 -119.69 2564.8
-1140.07 -117.94 2527.2
-1137.48 -118.35 2536.1
-1132.81 -118.55 2540.3
-1108.27 -116.66 2499.9
-1091.16 -115.53 2475.7
-1083.77 -115.43 2473.5
-1070.80 -114.73 2458.5
-1070.20 -115.35 2471.8
-1079.80 -117.09 2509.0
-1086.48 -118.53 2539.8
-1088.33 -119.45 2559.7
-1076.87 -118.92 2548.2
-1060.04 -117.78 2523.9
-1058.31 -118.32 2535.4
-1056.15 -118.82 2546.1
-1060.41 -120.05 2572.4
-1081.59 -123.22 2640.4
-1090.03 -124.97 2678.0
-1073.95 -123.92 2655.4
-1069.51 -124.20 2661.5
-1072.45 -125.35 2686.1
-1072.33 -126.16 2703.4
-1067.00 -126.35 2707.6
-1040.52 -124.03 2657.9
-1058.41 -127.86 2739.9
-1398.82 -131.57 2671.0
-1304.10 -124.51 2527.7
-1329.94 -127.62 2590.8
-1310.98 -126.44 2566.8
-1285.33 -124.60 2529.4
-1300.39 -126.70 2572.2
-1336.36 -130.88 2657.0
-1345.61 -132.47 2689.2
-1310.64 -129.70 2633.0
-1280.77 -127.41 2586.4
-1266.10 -126.61 2570.3
-1235.67 -124.22 2521.8
-1235.64 -124.88 2535.1
-1264.32 -128.46 2607.8
-1270.11 -129.74 2633.9
-1247.28 -128.10 2600.5
-1231.90 -127.21 2582.4
-1246.13 -129.38 2626.5
-1241.84 -129.64 2631.8
-1212.48 -127.28 2583.8
-1200.64 -126.73 2572.8
-1164.04 -123.56 2508.3
-1132.05 -121.52 2466.9
-1179.01 -127.28 2583.9
-1182.12 -128.34 2605.5
-1148.99 -125.46 2547.0
-1137.77 -124.96 2536.7
-1131.06 -124.94 2536.4
-1104.11 -122.68 2490.5
-1099.51 -122.89 2494.7
-1103.70 -124.08 2519.0
-1097.02 -124.07 2518.7
-1103.03 -125.49 2547.6
-1093.90 -125.21 2541.8
-1082.05 -124.60 2529.5
-1086.27 -125.85 2554.8
-1074.81 -125.28 2543.4
-1059.15 -124.22 2521.8
-1058.20 -124.88 2535.2
-1054.89 -125.27 2543.0
-1057.25 -126.34 2564.8
-1067.08 -128.32 2605.0
-1063.55 -128.71 2612.9
-1041.62 -126.86 2575.4
-1033.64 -126.70 2572.2
-1049.37 -129.47 2628.3
-1063.74 -132.10 2681.7
-1075.31 -134.41 2728.7
-1065.53 -134.07 2721.8
-1081.45 -138.83 2818.5
-1410.73 -139.68 2693.7
-1361.84 -135.51 2613.3
-1314.02 -133.40 2572.8
-1333.61 -136.08 2624.5
-1283.57 -131.65 2538.9
-1290.04 -133.68 2578.2
-1279.34 -133.26 2570.1
-1257.59 -131.68 2539.6
-1251.85 -131.77 2541.3
-1233.79 -130.56 2517.9
-1243.83 -132.32 2551.9
-1253.72 -134.09 2586.0
-1240.47 -133.38 2572.4
-1232.03 -133.19 2568.7
-1231.33 -133.84 2581.2
-1222.02 -133.55 2575.7
-1194.39 -131.25 2531.3
-1166.95 -128.94 2486.8
-1157.43 -128.60 2480.2
-1156.76 -129.25 2492.6
-1143.48 -128.48 2477.9
-1135.68 -128.33 2474.8
-1161.47 -131.98 2545.4
-1177.87 -134.61 2596.1
-1157.08 -133.00 2565.0
-1123.34 -129.87 2504.5
-1096.36 -127.48 2458.6
-1097.10 -128.32 2474.7
-1119.53 -131.71 2540.1
-1086.67 -130.92 2525.0
-1067.00 -129.33 2494.3
-1063.48 -129.69 2501.2
-1066.53 -130.86 2523.8
-1068.70 -131.94 2544.5
-1065.01 -132.30 2551.5
-1056.30 -132.04 2546.4
-1051.04 -132.21 2549.7
-1054.85 -133.52 2575.1
-1067.20 -135.95 2621.9
-1063.60 -136.36 2629.8
-1022.35 -131.92 2544.1
-1050.48 -139.14 2683.3
-1086.61 -145.85 2812.9
-1376.58 -144.54 2654.8
-1355.12 -143.00 2626.6
-1327.83 -140.83 2586.7
-1330.24 -141.80 2604.5
-1349.30 -144.57 2655.3
-1301.01 -140.11 2573.4
-1274.25 -138.65 2546.6
-1261.39 -137.96 2534.0
-1261.42 -139.42 2560.8
-1271.45 -141.27 2594.8
-1256.38 -140.34 2577.7
-1245.74 -139.90 2569.5
-1220.38 -137.78 2530.7
-1207.11 -137.77 2530.4
-1202.62 -138.01 2534.8
-1179.34 -136.08 2499.4
-1152.65 -134.48 2470.0
-1156.21 -135.65 2491.4
-1150.47 -135.73 2493.0
-1149.30 -136.36 2504.5
-1151.80 -137.43 2524.2
-1144.31 -137.32 2522.1
-1137.64 -137.30 2521.9
-1117.89 -135.70 2492.4
-1092.98 -133.45 2451.0
-1095.76 -134.57 2471.6
-1106.51 -136.69 2510.6
-1111.47 -138.11 2536.7
-1116.71 -139.59 2563.9
-1093.65 -137.53 2526.0
-1070.76 -135.46 2488.0
-1062.55 -135.23 2483.9
-1065.31 -136.41 2505.5
-1075.73 -138.59 2545.6
-1063.94 -137.92 2533.2
-1043.34 -136.09 2499.6
-1048.91 -137.67 2528.6
-1061.96 -140.26 2576.2
-1068.73 -142.05 2609.0
-1083.26 -144.89 2661.3
-1064.60 -143.31 2632.3
-1031.48 -142.51 2617.5
-1097.64 -154.70 2841.4
-1092.29 -154.99 2846.7
-1086.56 -155.22 2851.0
-1349.57 -149.95 2629.0
-1353.71 -151.18 2650.5
-1353.58 -152.71 2677.4
-1331.88 -151.04 2648.1
-1329.52 -151.55 2657.1
-1294.63 -148.34 2600.8
-1256.41 -144.72 2537.3
-1268.77 -146.91 2575.7
-1283.60 -149.41 2619.6
-1273.74 -149.05 2613.3
-1273.04 -149.77 2625.8
-1259.71 -149.00 2612.3
-1219.22 -144.99 2542.0
-1203.96 -143.95 2523.8
-1211.89 -145.69 2554.3
-1200.94 -145.17 2545.2
-1176.01 -142.94 2506.1
-1167.72 -142.72 2502.3
-1168.27 -143.59 2517.4
-1159.12 -143.26 2511.7
-1149.16 -142.83 2504.2
-1143.37 -142.92 2505.8
-1144.17 -143.84 2521.8
-1144.90 -144.76 2538.0
-1125.52 -143.13 2509.4
-1101.39 -140.88 2469.9
-1087.13 -139.86 2452.2
-1080.20 -139.79 2450.9
-1071.30 -141.13 2474.3
-1077.34 -142.78 2503.3
-1069.89 -142.65 2501.0
-1072.99 -143.94 2523.6
-1076.77 -145.33 2548.0
-1056.85 -143.52 2516.3
-1046.67 -143.02 2507.6
-1065.62 -146.52 2568.9
-1080.85 -149.55 2622.0
-1089.80 -151.74 2660.4
-1093.29 -153.20 2686.0
-1062.59 -149.85 2627.3
-1046.80 -150.52 2639.0
-1079.32 -156.22 2738.9
-1085.62 -160.29 2810.3
-1082.78 -163.16 2860.6
-1066.10 -161.75 2835.9
-1381.22 -158.05 2650.5
-1357.42 -156.10 2617.9
-1347.64 -157.34 2638.6
-1358.82 -160.27 2687.8
-1338.45 -158.68 2661.1
-1336.96 -159.33 2671.9
-1307.82 -156.67 2627.3
-1273.54 -153.36 2571.9
-1273.91 -154.21 2586.1
-1277.29 -155.44 2606.7
-1267.02 -155.01 2599.5
-1264.61 -155.54 2608.4
-1267.44 -157.57 2642.5
-1230.04 -153.76 2578.5
-1216.88 -152.94 2564.9
-1210.16 -152.93 2564.7
-1189.02 -151.09 2533.8
-1178.13 -150.54 2524.6
-1176.11 -151.12 2534.3
-1172.78 -151.54 2541.3
-1167.34 -151.69 2543.8
-1167.27 -152.54 2558.1
-1174.56 -154.37 2588.8
-1154.20 -152.57 2558.6
-1114.35 -148.15 2484.5
-1107.76 -148.13 2484.2
-1110.87 -149.42 2505.7
-1091.34 -147.65 2476.1
-1068.19 -146.24 2452.5
-1081.88 -149.00 2498.8
-1094.57 -151.66 2543.3
-1092.13 -152.24 2553.0
-1076.37 -150.95 2531.5
-1060.31 -149.61 2509.1
-1058.64 -150.30 2520.6
-1072.31 -153.19 2569.0
-1083.08 -155.69 2611.0
-1086.80 -157.21 2636.5
-1073.76 -156.31 2621.3
-1057.01 -154.85 2596.8
-1061.71 -156.53 2625.1
-1046.54 -155.29 2604.3
-1033.68 -154.38 2589.0
-1057.34 -158.95 2665.6
-1079.54 -163.35 2739.4
-1061.38 -163.84 2747.6
-1077.03 -168.52 2826.0
-1061.74 -168.41 2824.3
-1370.58 -164.47 2643.3
-1345.48 -162.27 2607.9
-1365.20 -165.48 2659.5
-1357.92 -165.43 2658.7
-1338.42 -163.89 2633.9
-1340.63 -165.00 2651.8
-1338.29 -165.56 2660.8
-1331.43 -165.57 2660.9
-1300.54 -162.57 2612.7
-1256.10 -157.84 2536.6
-1245.96 -157.38 2529.4
-1254.73 -159.33 2560.7
-1249.80 -159.55 2564.2
-1243.54 -159.60 2565.0
-1256.36 -162.11 2605.4
-1252.16 -162.44 2610.7
-1220.43 -159.19 2558.3
-1224.43 -160.58 2580.8
-1234.29 -162.76 2615.8
-1207.53 -160.11 2573.3
-1191.07 -158.81 2552.3
-1200.33 -160.94 2586.5
-1205.68 -162.56 2612.6
-1170.52 -158.71 2550.8
-1143.91 -155.99 2506.9
-1151.30 -157.89 2537.6
-1131.47 -156.06 2508.2
-1110.12 -154.00 2475.1
-1119.00 -156.14 2509.4
-1128.53 -158.39 2545.6
-1117.37 -157.75 2535.2
-1097.43 -155.85 2504.7
-1094.36 -156.34 2512.6
-1097.20 -157.68 2534.2
-1098.76 -158.86 2553.1
-1093.95 -159.12 2557.3
-1075.84 -157.44 2530.3
-1060.55 -156.16 2509.6
-1061.21 -157.22 2526.7
-1062.55 -158.39 2545.6
-1059.21 -158.88 2553.5
-1062.31 -160.35 2577.0
-1048.64 -159.29 2560.0
-1054.24 -161.16 2590.0
-1088.14 -167.41 2690.5
-1085.86 -168.13 2702.1
-1085.00 -169.09 2717.5
-1095.65 -175.30 2817.4
-1057.63 -170.36 2737.9
-1048.94 -170.10 2733.7
-1076.53 -175.76 2824.7
-1068.78 -178.13 2862.8
-1368.64 -173.69 2679.7
-1345.48 -171.62 2647.8
-1342.71 -172.14 2655.9
-1344.84 -173.30 2673.8
-1340.19 -173.60 2678.4
-1301.25 -169.43 2614.1
-1250.18 -163.64 2524.7
-1251.09 -164.62 2539.8
-1270.81 -168.10 2593.5
-1257.94 -167.28 2580.9
-1245.12 -166.46 2568.2
-1230.61 -165.40 2552.0
-1199.33 -162.07 2500.5
-1200.92 -163.17 2517.5
-1236.67 -168.94 2606.6
-1217.93 -169.16 2609.8
-1218.24 -170.15 2625.1
-1213.46 -170.43 2629.5
-1169.11 -165.13 2547.7
-1128.00 -160.23 2472.1
-1122.69 -160.38 2474.5
-1122.69 -161.31 2488.7
-1119.36 -161.76 2495.7
-1113.56 -161.85 2497.2
-1108.96 -162.13 2501.4
-1115.20 -164.00 2530.3
-1111.70 -164.45 2537.3
-1095.80 -163.07 2515.9
-1084.76 -162.39 2505.4
-1084.80 -163.37 2520.6
-1079.27 -163.53 2523.0
-1060.84 -161.71 2495.0
-1045.25 -160.31 2473.4
-1059.13 -163.45 2521.7
-1076.24 -167.12 2578.4
-1056.39 -165.06 2546.7
-1043.14 -164.02 2530.5
-1048.49 -165.90 2559.6
-1074.03 -171.02 2638.7
-1088.92 -176.77 2727.3
-1072.87 -175.31 2704.7
-1058.01 -174.02 2684.8
-1062.53 -175.92 2714.1
-1070.89 -178.48 2753.7
-1053.53 -176.77 2727.2
-1055.23 -178.25 2750.1
-1093.44 -185.96 2869.1
-1077.95 -185.85 2867.4
-1397.75 -180.80 2682.3
-1378.99 -180.17 2672.8
-1322.68 -175.46 2602.9
-1355.14 -180.68 2680.5
-1349.38 -181.78 2696.8
-1272.16 -172.27 2555.7
-1270.38 -172.93 2565.5
-1318.40 -180.41 2676.5
-1310.17 -180.23 2673.8
-1271.33 -175.82 2608.3
-1254.53 -174.43 2587.6
-1232.61 -172.30 2556.1
-1216.86 -171.02 2537.1
-1235.56 -174.59 2590.1
-1233.93 -175.31 2600.8
-1220.32 -174.33 2586.2
-1225.00 -175.97 2610.5
-1217.33 -175.84 2608.6
-1209.67 -175.71 2606.6
-1199.07 -175.15 2598.3
-1170.61 -171.95 2551.0
-1143.18 -168.88 2505.3
-1132.84 -168.31 2496.9
-1129.10 -168.72 2502.9
-1118.39 -168.08 2493.5
-1106.49 -167.26 2481.3
-1102.32 -167.60 2486.4
-1108.20 -169.49 2514.4
-1110.34 -170.82 2534.2
-1100.43 -170.30 2526.5
-1082.62 -168.55 2500.5
-1075.57 -168.46 2499.2
-1066.16 -168.00 2492.3
-1076.75 -172.81 2563.7
-1105.31 -178.50 2648.0
-1099.83 -178.72 2651.4
-1087.11 -177.77 2637.2
-1096.76 -180.48 2677.5
-1079.52 -178.77 2652.1
-1063.88 -177.31 2630.5
-1074.38 -180.22 2673.6
-1071.73 -180.94 2684.3
-1067.56 -181.41 2691.3
-1064.81 -182.14 2702.1
-1053.64 -181.42 2691.4
-1045.05 -181.14 2687.3
-1040.42 -181.55 2693.3
-1056.86 -185.66 2754.4
-1079.77 -190.98 2833.2
-1072.64 -191.02 2833.8
-1078.84 -193.45 2869.8
-1303.06 -179.50 2564.3
-1340.54 -185.61 2651.6
-1321.06 -184.81 2640.2
-1287.55 -181.06 2586.6
-1322.46 -186.95 2670.6
-1327.47 -188.64 2694.9
-1281.44 -183.06 2615.2
-1257.15 -180.55 2579.3
-1251.30 -180.67 2581.0
-1232.00 -178.84 2554.8
-1219.27 -177.95 2542.1
-1233.67 -181.03 2586.1
-1227.76 -181.15 2587.8
-1217.16 -180.57 2579.5
-1225.25 -182.77 2611.0
-1216.31 -182.45 2606.4
-1207.39 -182.12 2601.7
-1182.17 -179.32 2561.7
-1140.06 -173.91 2484.4
-1130.99 -173.50 2478.6
-1138.44 -175.65 2509.2
-1136.73 -176.39 2519.8
-1128.84 -176.18 2516.8
-1120.55 -175.90 2512.9
-1121.17 -177.03 2529.0
-1126.14 -178.86 2555.1
-1128.59 -180.31 2575.8
-1109.43 -178.30 2547.2
-1082.85 -175.07 2501.0
-1081.33 -175.88 2512.5
-1077.39 -176.30 2518.6
-1055.07 -173.70 2481.4
-1057.76 -175.21 2503.0
-1072.73 -178.79 2554.1
-1078.23 -180.82 2583.2
-1086.28 -183.31 2618.7
-1091.13 -185.29 2646.9
-1095.08 -187.13 2673.3
-1075.22 -184.91 2641.6
-1059.98 -183.46 2620.8
-1070.12 -186.41 2663.0
-1068.98 -187.42 2677.4
-1067.39 -188.36 2690.9
-1075.62 -191.06 2729.5
-1074.21 -192.08 2744.0
-1087.56 -195.76 2796.6
-1110.38 -201.21 2874.4
-1069.21 -195.06 2786.5
-1407.03 -196.98 2713.6
-1325.71 -187.47 2582.6
-1324.99 -191.24 2634.4
-1317.29 -191.11 2632.6
-1317.60 -192.15 2647.0
-1293.98 -191.70 2640.8
-1262.21 -187.99 2589.6
-1246.32 -186.62 2570.7
-1218.81 -183.48 2527.5
-1212.62 -183.53 2528.2
-1230.90 -187.31 2580.3
-1236.99 -189.27 2607.2
-1237.42 -190.37 2622.5
-1227.18 -189.84 2615.1
-1201.78 -186.94 2575.2
-1186.62 -185.62 2557.0
-1156.91 -181.99 2506.9
-1130.73 -178.87 2464.1
-1137.03 -180.89 2491.9
-1135.80 -181.73 2503.4
-1125.89 -181.18 2495.8
-1124.99 -182.08 2508.2
-1123.22 -182.85 2518.9
-1124.23 -184.09 2535.9
-1129.99 -186.12 2563.9
-1129.22 -187.09 2577.3
-1106.07 -184.35 2539.4
-1089.03 -182.59 2515.3
-1096.93 -185.03 2548.8
-1104.30 -187.40 2581.5
-1091.99 -186.44 2568.3
-1081.29 -185.74 2558.7
-1081.06 -186.85 2573.9
-1078.83 -187.62 2584.6
-1076.94 -188.46 2596.2
-1063.58 -187.30 2580.1
-1049.15 -185.92 2561.2
-1060.00 -189.04 2604.2
-1078.14 -193.51 2665.7
-1082.23 -195.50 2693.1
-1074.73 -195.40 2691.8
-1091.50 -199.75 2751.7
-1086.91 -205.63 2832.7
-1410.04 -204.46 2719.4
