ply
format ascii 1.0
element vertex 2082
property float x
property float y
property float z
end_header
1463.86 -143.99 2314.1
1507.77 -147.70 2373.7
1578.66 -152.77 2455.3
1143.85 -171.24 2641.9
1141.34 -168.84 2604.9
1148.21 -168.85 2605.2
1168.02 -170.76 2634.6
1192.02 -173.26 2673.1
1202.29 -171.76 2649.9
1199.50 -169.42 2613.9
1164.94 -163.62 2524.4
1174.54 -164.04 2530.9
1212.02 -168.34 2597.2
1166.23 -161.08 2485.3
1144.93 -154.72 2387.1
1157.76 -155.61 2400.9
1177.18 -157.38 2428.1
1205.89 -160.36 2474.1
1218.10 -161.12 2485.9
1222.41 -160.84 2481.6
1222.27 -159.98 2468.3
1213.61 -158.02 2438.1
1192.32 -154.45 2382.9
1195.46 -154.05 2376.8
1225.15 -157.07 2423.4
1219.30 -155.52 2399.5
1192.90 -151.38 2335.6
1200.82 -150.10 2315.9
1204.63 -149.83 2311.7
1216.29 -150.53 2322.5
1248.44 -153.75 2372.1
1261.66 -154.61 2385.5
1251.96 -152.68 2355.6
1250.60 -151.77 2341.6
1236.91 -149.39 2304.8
1225.44 -147.29 2272.4
1250.93 -149.63 2308.6
1265.10 -150.61 2323.6
1247.70 -147.83 2280.8
1234.46 -145.57 2246.0
1269.81 -149.04 2299.5
1314.58 -153.57 2369.4
1292.54 -150.30 2318.8
1243.95 -143.98 2221.3
1243.44 -143.25 2210.2
1269.40 -145.57 2246.0
1283.67 -146.54 2260.9
1272.77 -144.63 2231.5
1255.29 -142.00 2190.9
1264.05 -142.35 2196.2
1280.81 -143.59 2215.4
1311.69 -146.39 2258.6
1341.22 -149.02 2299.2
1332.04 -147.35 2273.4
1319.71 -145.34 2242.4
1323.52 -145.12 2239.0
1320.17 -144.12 2223.6
1319.83 -143.46 2213.4
1319.44 -142.80 2203.1
1311.81 -141.36 2181.0
1379.97 -148.07 2284.4
1373.05 -146.07 2253.6
1347.08 -142.70 2201.6
1450.55 -153.01 2360.7
1469.10 -153.03 2361.1
1428.01 -148.13 2285.5
1504.44 -155.42 2397.9
1563.18 -160.82 2481.2
1547.50 -158.56 2446.3
1589.81 -160.26 2472.6
1161.01 -179.68 2665.6
1168.42 -179.76 2666.7
1157.71 -177.06 2626.7
1182.02 -179.72 2666.2
1192.72 -178.22 2644.0
1173.67 -174.37 2586.9
1170.52 -172.92 2565.3
1187.68 -174.46 2588.2
1182.34 -172.70 2562.1
1140.76 -165.70 2458.1
1131.65 -163.46 2425.0
1166.06 -167.50 2484.9
1172.19 -167.46 2484.2
1142.37 -162.30 2407.8
1134.57 -160.32 2378.4
1157.29 -162.65 2412.9
1175.81 -164.36 2438.3
1207.93 -167.95 2491.5
1227.60 -168.88 2505.3
1198.87 -164.06 2433.8
1211.03 -164.85 2445.6
1215.23 -164.56 2441.3
1196.18 -161.14 2390.6
1201.13 -160.98 2388.1
1239.84 -165.31 2452.4
1242.64 -164.84 2445.4
1218.17 -160.77 2385.1
1196.63 -157.13 2331.1
1200.04 -156.79 2326.0
1224.10 -159.13 2360.8
1226.61 -158.67 2353.8
1237.43 -159.27 2362.8
1253.39 -160.53 2381.5
1250.29 -159.35 2364.0
1239.14 -157.16 2331.5
1235.86 -155.98 2314.0
1248.55 -156.82 2326.5
1263.65 -157.96 2343.3
1257.42 -156.43 2320.6
1241.06 -153.66 2279.5
1242.27 -153.08 2270.9
1248.24 -153.09 2271.1
1277.85 -155.98 2314.0
1303.55 -157.64 2338.6
1258.91 -151.54 2248.1
1241.81 -148.79 2207.3
1254.01 -149.56 2218.8
1258.37 -149.40 2216.3
1238.48 -146.37 2171.4
1242.22 -146.14 2168.1
1270.36 -148.78 2207.2
1284.15 -149.72 2221.1
1313.03 -152.40 2261.0
1299.80 -150.20 2228.2
1269.41 -145.40 2157.0
1308.11 -149.17 2213.0
1320.00 -149.87 2223.3
1333.98 -150.80 2237.1
1325.94 -149.24 2214.0
1312.16 -147.05 2181.5
1299.27 -144.98 2150.9
1381.82 -152.23 2258.4
1433.58 -155.30 2304.0
1449.07 -155.69 2309.6
1544.37 -165.24 2451.4
1571.86 -167.49 2484.8
1565.76 -166.16 2465.0
1145.23 -186.27 2661.0
1161.84 -185.62 2651.7
1154.32 -183.33 2619.0
1183.05 -186.80 2668.5
1181.93 -184.46 2635.2
1178.59 -182.88 2612.6
1173.91 -181.12 2587.4
1175.32 -180.31 2575.8
1197.08 -182.61 2608.6
1193.88 -181.09 2587.1
1155.72 -174.33 2490.4
1127.26 -169.09 2415.6
1143.85 -170.63 2437.6
1157.12 -171.66 2452.3
1134.51 -167.39 2391.2
1130.97 -165.96 2370.8
1155.83 -168.69 2409.8
1181.28 -171.48 2449.7
1226.10 -175.16 2502.3
1179.29 -167.58 2394.0
1173.21 -165.85 2369.2
1201.71 -168.99 2414.2
1207.62 -168.94 2413.4
1178.54 -164.02 2343.2
1183.38 -163.85 2340.8
1191.38 -164.12 2344.5
1171.69 -160.59 2294.1
1184.16 -161.48 2306.8
1223.66 -166.02 2371.8
1254.71 -169.39 2419.8
1262.41 -169.58 2422.5
1236.79 -165.31 2361.6
1215.56 -161.68 2309.7
1231.45 -162.99 2328.4
1237.57 -163.00 2328.5
1238.51 -162.33 2319.0
1256.40 -163.88 2341.1
1261.58 -163.76 2339.5
1247.26 -161.13 2301.8
1242.80 -159.79 2282.7
1255.99 -160.72 2296.0
1263.45 -160.91 2298.7
1297.46 -164.47 2349.5
1276.16 -160.26 2289.5
1239.72 -154.96 2213.8
1232.34 -153.33 2190.5
1262.19 -156.33 2233.2
1286.78 -158.64 2266.4
1285.29 -157.74 2253.4
1309.05 -159.93 2284.7
1335.41 -162.42 2320.2
1344.43 -162.78 2325.4
1351.95 -162.96 2328.0
1315.72 -157.89 2255.5
1266.72 -150.67 2152.4
1298.29 -153.74 2196.3
1304.54 -153.81 2197.3
1324.09 -155.44 2220.5
1321.15 -154.42 2206.0
1308.90 -152.33 2176.1
1298.59 -150.48 2149.7
1313.54 -151.56 2165.2
1366.98 -157.06 2243.7
1391.54 -159.20 2274.3
1436.07 -163.60 2337.2
1488.24 -167.43 2391.8
1478.96 -165.69 2367.0
1474.88 -164.55 2350.8
1488.30 -165.37 2362.4
1569.00 -173.62 2480.3
1575.48 -172.92 2470.3
1591.87 -174.01 2485.9
1173.76 -199.18 2743.8
1191.71 -199.81 2752.4
1143.24 -189.41 2609.2
1154.56 -189.05 2604.3
1131.53 -183.14 2522.8
1168.56 -188.04 2590.4
1176.61 -188.26 2593.3
1190.88 -189.46 2609.9
1201.47 -190.06 2618.2
1187.85 -186.85 2574.0
1161.84 -181.74 2503.6
1146.08 -178.28 2455.9
1133.50 -175.35 2415.5
1139.90 -174.41 2402.6
1179.78 -179.53 2473.1
1168.17 -176.80 2435.6
1157.70 -174.28 2400.8
1168.84 -175.01 2410.9
1176.08 -175.16 2412.9
1192.11 -176.61 2432.9
1187.93 -175.06 2411.6
1157.09 -169.63 2336.7
1160.62 -169.26 2331.6
1209.67 -175.50 2417.6
1219.62 -176.03 2424.9
1205.27 -173.06 2384.1
1197.08 -171.01 2355.8
1170.16 -166.32 2291.1
1174.41 -166.08 2287.8
1192.83 -167.84 2312.0
1203.53 -168.49 2321.1
1213.35 -169.02 2328.4
1188.46 -164.74 2269.3
1199.58 -165.46 2279.3
1248.53 -171.37 2360.7
1216.78 -166.19 2289.4
1237.82 -167.43 2306.5
1273.23 -170.58 2349.8
1267.92 -169.06 2328.8
1279.43 -168.19 2316.9
1224.96 -160.27 2207.9
1245.85 -162.25 2235.1
1272.70 -164.98 2272.7
1259.08 -162.46 2238.0
1283.62 -164.87 2271.2
1296.95 -165.82 2284.3
1283.63 -163.37 2250.5
1322.26 -167.53 2307.8
1345.75 -168.22 2317.3
1355.77 -168.72 2324.2
1335.54 -165.47 2279.4
1291.85 -159.35 2195.1
1268.15 -155.74 2145.4
1283.98 -156.99 2162.7
1312.66 -159.80 2201.4
1338.41 -162.23 2234.8
1356.05 -163.66 2254.5
1369.11 -164.53 2266.5
1413.80 -169.17 2330.4
1434.83 -170.96 2355.0
1417.40 -168.17 2316.6
1406.10 -166.12 2288.4
1422.98 -167.41 2306.2
1476.73 -173.01 2383.2
1499.12 -174.90 2409.3
1430.10 -166.15 2288.8
1488.75 -170.84 2353.4
1173.96 -206.33 2744.3
1189.83 -207.86 2764.7
1188.96 -202.82 2697.6
1169.34 -198.31 2637.6
1124.81 -188.55 2507.8
1163.04 -193.84 2578.2
1169.83 -193.86 2578.4
1187.38 -195.65 2602.2
1200.45 -196.68 2616.0
1189.33 -193.77 2577.2
1168.38 -189.29 2517.7
1173.32 -189.04 2514.3
1180.79 -189.19 2516.3
1157.61 -184.45 2453.3
1174.36 -186.10 2475.2
1201.93 -189.43 2519.6
1177.05 -184.51 2454.1
1156.22 -180.27 2397.7
1156.91 -179.41 2386.3
1179.40 -181.93 2419.7
1210.81 -185.78 2471.0
1197.45 -182.77 2430.9
1157.36 -175.72 2337.2
1154.67 -174.40 2319.6
1196.09 -179.72 2390.4
1217.64 -182.02 2420.9
1214.54 -180.62 2402.4
1236.68 -182.98 2433.7
1240.33 -182.59 2428.5
1213.42 -177.72 2363.8
1198.60 -174.67 2323.2
1201.52 -174.22 2317.2
1203.94 -173.70 2310.3
1177.17 -169.00 2247.8
1185.93 -169.42 2253.3
1246.01 -177.13 2355.9
1228.78 -173.83 2312.0
1201.77 -168.36 2239.3
1268.80 -176.90 2352.9
1275.90 -177.04 2354.7
1243.88 -171.77 2284.7
1247.49 -171.46 2280.4
1277.99 -174.82 2325.2
1244.51 -169.44 2253.6
1220.42 -165.38 2199.7
1270.45 -171.36 2279.2
1293.97 -173.73 2310.7
1275.54 -170.46 2267.2
1278.03 -170.01 2261.3
1267.20 -167.80 2231.9
1252.79 -165.14 2196.5
1286.36 -168.80 2245.1
1290.24 -168.54 2241.7
1249.65 -162.51 2161.5
1278.91 -165.57 2202.2
1326.92 -171.03 2274.7
1328.29 -170.44 2267.0
1301.29 -166.24 2211.1
1304.02 -165.86 2206.0
1351.56 -171.16 2276.5
1354.90 -170.84 2272.2
1356.68 -170.32 2265.3
1373.86 -171.73 2284.1
1384.92 -172.37 2292.6
1408.94 -174.61 2322.4
1408.67 -173.84 2312.1
1403.66 -172.48 2294.1
1403.29 -171.71 2283.8
1411.93 -169.90 2259.8
1448.00 -172.81 2298.4
1443.20 -171.53 2281.4
1153.36 -209.70 2696.2
1158.88 -209.44 2692.7
1127.51 -202.55 2604.2
1131.24 -199.63 2566.7
1183.70 -207.67 2670.0
1185.83 -206.83 2659.2
1145.45 -198.63 2553.8
1124.71 -193.91 2493.2
1149.03 -196.98 2532.6
1180.98 -201.30 2588.2
1194.85 -202.52 2603.8
1185.38 -199.78 2568.6
1155.59 -193.67 2490.1
1152.89 -192.15 2470.5
1171.28 -194.13 2496.0
1159.98 -191.21 2458.4
1152.36 -188.91 2428.9
1157.07 -188.65 2425.5
1173.84 -190.35 2447.4
1193.73 -192.54 2475.5
1181.96 -189.62 2438.0
1192.76 -190.33 2447.1
1211.05 -192.23 2471.5
1184.92 -187.09 2405.5
1162.49 -182.59 2347.6
1177.60 -184.00 2365.7
1195.01 -185.75 2388.3
1192.34 -184.38 2370.6
1189.59 -183.01 2353.0
1212.53 -185.59 2386.2
1225.61 -186.64 2399.7
1210.04 -183.34 2357.2
1204.36 -181.56 2334.4
1217.40 -182.61 2347.8
1230.96 -183.73 2362.2
1213.56 -180.23 2317.3
1181.10 -174.55 2244.2
1199.18 -176.35 2267.4
1238.89 -181.30 2331.0
1234.67 -179.81 2311.8
1223.29 -177.29 2279.4
1245.40 -179.62 2309.5
1255.26 -180.18 2316.6
1227.47 -175.35 2254.5
1210.91 -172.17 2213.6
1218.21 -172.39 2216.4
1245.77 -175.46 2255.9
1282.68 -179.81 2311.9
1298.92 -181.24 2330.3
1285.00 -178.47 2294.6
1251.37 -173.00 2224.3
1237.10 -170.24 2188.8
1256.67 -172.15 2213.3
1271.88 -173.44 2229.9
1285.17 -174.46 2243.0
1267.65 -171.30 2202.5
1274.71 -170.72 2195.0
1299.07 -173.21 2227.0
1275.64 -169.33 2177.1
1319.82 -174.43 2242.6
1349.59 -176.03 2263.3
1343.16 -174.44 2242.7
1352.58 -174.90 2248.7
1364.60 -175.70 2259.0
1389.07 -178.09 2289.7
1415.21 -180.67 2322.8
1437.83 -182.78 2350.0
1383.76 -175.16 2252.1
1475.70 -183.70 2361.8
1501.67 -184.63 2373.8
1448.82 -177.41 2280.9
1162.07 -219.66 2733.1
1175.13 -220.78 2747.1
1172.09 -217.57 2707.1
1129.42 -208.40 2593.0
1120.26 -205.49 2556.8
1140.70 -208.01 2588.1
1174.20 -212.87 2648.6
1163.21 -208.44 2593.5
1138.87 -202.90 2524.6
1159.96 -205.48 2556.7
1171.67 -206.37 2567.8
1164.28 -203.91 2537.2
1159.27 -201.89 2512.1
1133.99 -196.39 2443.5
1128.23 -194.31 2417.6
1144.82 -196.07 2439.6
1120.20 -190.80 2374.1
1143.14 -192.59 2396.3
1202.54 -201.51 2507.2
1193.08 -197.78 2460.9
1155.85 -190.59 2371.4
1147.70 -187.26 2329.9
1168.05 -189.58 2358.8
1198.30 -193.48 2407.3
1231.42 -197.79 2461.0
1234.73 -197.30 2454.9
1235.75 -196.45 2444.3
1203.30 -190.32 2368.0
1166.89 -183.62 2284.7
1194.36 -187.00 2326.7
1233.89 -192.21 2391.6
1244.30 -192.87 2399.7
1256.11 -193.73 2410.5
1248.07 -191.54 2383.2
1225.04 -187.08 2327.7
1221.37 -185.60 2309.3
1236.82 -187.03 2327.1
1235.41 -185.91 2313.2
1226.87 -183.73 2286.1
1251.36 -186.50 2320.5
1263.62 -187.43 2332.0
1233.00 -182.01 2264.7
1213.11 -178.23 2217.6
1221.38 -178.60 2222.2
1248.47 -181.70 2260.8
1287.32 -186.48 2320.3
1291.14 -185.30 2305.6
1258.03 -179.72 2236.1
1249.09 -176.81 2200.0
1264.77 -178.22 2217.4
1277.54 -179.20 2229.7
1290.84 -180.25 2242.8
1291.22 -179.50 2233.4
1293.55 -179.02 2227.4
1280.28 -176.39 2194.8
1257.79 -172.53 2146.7
1303.43 -178.00 2214.8
1364.04 -185.46 2307.6
1341.99 -181.67 2260.4
1301.36 -175.40 2182.4
1300.41 -174.51 2171.4
1368.31 -182.84 2274.9
1429.23 -189.34 2355.9
1411.89 -186.25 2317.4
1461.90 -191.22 2379.2
1349.02 -175.71 2186.3
1366.27 -177.21 2205.0
1433.12 -185.11 2303.2
1439.54 -185.17 2303.9
1482.54 -189.91 2363.0
1509.46 -191.78 2386.1
1496.22 -189.32 2355.6
1179.81 -230.21 2774.8
1178.06 -228.47 2753.9
1180.94 -227.65 2744.0
1169.28 -221.40 2668.7
1153.79 -215.91 2602.5
1117.60 -207.93 2506.2
1126.28 -208.33 2511.1
1136.21 -208.96 2518.7
1153.99 -211.02 2543.5
1164.01 -211.64 2551.0
1168.24 -211.21 2545.8
1175.78 -211.38 2547.8
1152.26 -205.99 2482.9
1147.85 -204.06 2459.7
1175.54 -207.83 2505.1
1159.59 -203.88 2457.5
1117.78 -195.46 2356.0
1145.09 -199.15 2400.4
1186.35 -203.01 2447.0
1134.69 -193.14 2328.0
1140.02 -192.00 2314.3
1173.17 -196.55 2369.1
1215.43 -202.57 2441.7
1218.45 -198.93 2397.8
1179.85 -191.65 2310.1
1206.00 -194.91 2349.4
1220.10 -193.28 2329.8
1212.30 -191.10 2303.5
1223.04 -191.85 2312.5
1223.98 -191.06 2303.0
1207.02 -187.50 2260.0
1189.41 -183.87 2216.3
1206.18 -185.57 2236.7
1245.83 -190.75 2299.2
1241.38 -189.16 2280.1
1220.57 -185.11 2231.2
1229.35 -185.56 2236.7
1227.05 -184.35 2222.0
1236.79 -184.94 2229.2
1278.60 -190.30 2293.8
1288.01 -190.82 2300.0
1272.50 -187.65 2261.8
1267.63 -186.07 2242.9
1253.81 -183.21 2208.3
1244.31 -180.99 2181.6
1280.80 -185.46 2235.4
1318.50 -190.05 2290.8
1286.52 -184.61 2225.2
1257.78 -179.68 2165.8
1291.13 -183.63 2213.4
1315.08 -186.21 2244.4
1299.68 -183.22 2208.4
1295.81 -181.87 2192.2
1307.66 -182.73 2202.6
1300.65 -180.96 2181.2
1303.28 -180.54 2176.2
1373.24 -189.41 2283.1
1404.41 -192.88 2324.9
1346.22 -184.10 2219.1
1360.81 -185.30 2233.5
1449.91 -194.95 2349.8
1409.14 -188.67 2274.2
1419.73 -189.30 2281.7
1425.58 -189.29 2281.6
1474.37 -194.96 2349.9
1493.86 -195.12 2351.8
1165.46 -227.58 2660.0
1153.58 -222.62 2602.1
1116.18 -214.15 2503.1
1126.49 -214.88 2511.6
1120.84 -212.57 2484.6
1124.54 -212.06 2478.6
1140.63 -213.87 2499.8
1150.56 -214.51 2507.3
1165.54 -216.08 2525.7
1148.70 -211.77 2475.2
1147.65 -210.40 2459.3
1181.69 -215.45 2518.2
1172.57 -212.61 2485.0
1138.09 -205.23 2398.8
1150.90 -206.41 2412.6
1202.13 -214.43 2506.4
1201.34 -213.14 2491.3
1150.47 -203.02 2373.0
1141.91 -200.44 2342.8
1163.49 -203.15 2374.5
1182.55 -205.39 2400.7
1210.13 -209.08 2443.8
1224.10 -210.39 2459.1
1224.75 -209.41 2447.7
1224.90 -208.36 2435.4
1228.58 -207.91 2430.2
1230.44 -207.17 2421.4
1222.28 -204.75 2393.1
1199.88 -199.98 2337.4
1198.73 -198.78 2323.5
1225.52 -202.21 2363.5
1215.60 -199.58 2332.7
1205.09 -196.87 2301.1
1221.85 -198.63 2321.6
1233.09 -199.47 2331.5
1235.94 -198.96 2325.5
1224.20 -196.11 2292.2
1212.79 -193.34 2259.9
1206.45 -191.41 2237.2
1223.77 -193.23 2258.5
1241.65 -195.12 2280.6
1242.38 -194.31 2271.1
1242.59 -193.42 2260.8
1233.11 -191.05 2233.0
1227.87 -189.35 2213.1
1253.62 -192.42 2249.0
1272.20 -194.36 2271.8
1266.42 -192.59 2251.0
1273.80 -192.82 2253.8
1269.36 -191.27 2235.7
1257.94 -188.69 2205.5
1292.99 -193.07 2256.7
1294.30 -191.53 2238.7
1271.60 -187.33 2189.6
1314.04 -192.73 2252.6
1327.98 -193.91 2266.5
1299.98 -188.98 2208.9
1293.07 -187.15 2187.5
1301.35 -187.53 2191.9
1313.21 -188.42 2202.3
1336.38 -190.91 2231.4
1354.01 -192.60 2251.1
1331.48 -188.58 2204.2
1331.53 -187.78 2194.8
1402.11 -196.89 2301.3
1444.21 -201.09 2350.4
1382.13 -191.64 2239.9
1413.18 -194.31 2271.2
1491.53 -200.08 2338.6
1118.84 -225.09 2553.6
1122.39 -224.48 2546.6
1112.97 -221.29 2510.5
1107.92 -217.74 2470.2
1117.76 -218.41 2477.8
1102.09 -214.12 2429.1
1118.76 -214.90 2438.0
1141.52 -218.04 2473.6
1129.18 -214.48 2433.2
1130.16 -213.47 2421.8
1168.77 -219.55 2490.7
1168.10 -218.22 2475.6
1158.40 -215.22 2441.6
1197.90 -221.35 2511.1
1189.84 -218.67 2480.7
1133.58 -207.21 2350.7
1135.59 -205.37 2329.9
1158.02 -208.32 2363.3
1181.02 -211.34 2397.6
1201.95 -213.96 2427.3
1208.78 -214.05 2428.3
1229.88 -216.66 2457.9
1217.57 -212.29 2408.4
1184.16 -205.41 2330.3
1182.16 -204.03 2314.6
1165.97 -200.22 2271.4
1170.63 -200.01 2269.0
1202.36 -204.40 2318.8
1198.34 -202.70 2299.6
1196.09 -201.32 2283.9
1225.35 -205.23 2328.2
1248.72 -208.12 2361.0
1244.61 -206.42 2341.8
1226.80 -202.48 2297.1
1223.42 -200.95 2279.7
1225.64 -200.35 2272.8
1238.76 -201.52 2286.2
1256.21 -203.39 2307.3
1247.43 -201.01 2280.3
1237.10 -198.40 2250.8
1232.42 -196.72 2231.7
1232.50 -195.82 2221.5
1230.59 -194.61 2207.7
1220.83 -192.17 2180.1
1232.96 -193.18 2191.6
1257.88 -196.18 2225.6
1275.06 -197.95 2245.7
1284.89 -198.57 2252.7
1303.18 -200.49 2274.5
1322.05 -202.48 2297.0
1303.56 -198.75 2254.7
1297.43 -196.93 2234.1
1315.83 -198.84 2255.7
1302.05 -195.88 2222.2
1290.15 -193.24 2192.2
1297.93 -193.55 2195.7
1304.69 -193.71 2197.5
1314.52 -194.32 2204.5
1305.93 -192.22 2180.6
1290.57 -189.13 2145.6
1323.01 -193.06 2190.1
1381.48 -200.73 2277.2
1425.75 -206.28 2340.1
1427.80 -204.83 2323.7
1354.15 -193.45 2194.6
1404.00 -198.90 2256.4
1505.38 -210.63 2389.5
1439.98 -200.65 2276.3
1478.43 -204.34 2318.1
1121.37 -230.87 2544.3
1086.09 -222.30 2449.8
1110.99 -223.47 2462.8
1110.94 -222.19 2448.6
1122.00 -223.12 2458.9
1154.71 -228.33 2516.3
1172.62 -230.57 2541.0
1153.72 -225.59 2486.1
1134.58 -220.61 2431.2
1153.73 -223.10 2458.6
1182.34 -227.37 2505.7
1202.61 -230.01 2534.8
1168.92 -221.15 2437.1
1137.26 -214.00 2358.4
1142.66 -213.87 2356.9
1155.47 -215.11 2370.6
1171.84 -217.01 2391.5
1167.15 -215.00 2369.4
1162.36 -213.00 2347.3
1171.25 -213.51 2352.9
1194.87 -216.69 2388.0
1235.65 -222.93 2456.7
1224.09 -219.71 2421.3
1172.65 -209.40 2307.7
1152.92 -204.83 2257.4
1173.04 -207.36 2285.1
1214.75 -213.65 2354.5
1209.48 -211.66 2332.6
1167.72 -203.33 2240.8
1187.91 -203.81 2246.0
1207.43 -206.15 2271.8
1193.24 -202.74 2234.2
1191.15 -201.40 2219.5
1215.96 -204.61 2254.9
1253.26 -209.88 2312.9
1275.53 -212.59 2342.8
1270.65 -210.77 2322.8
1256.56 -207.45 2286.2
1248.59 -205.17 2261.0
1227.45 -200.75 2212.4
1212.83 -196.52 2165.8
1246.43 -201.04 2215.5
1213.03 -194.75 2146.2
1230.83 -195.81 2158.0
1299.98 -205.88 2268.9
1309.88 -206.51 2275.9
1282.88 -201.35 2218.9
1256.65 -196.35 2163.9
1252.31 -194.80 2146.8
1273.10 -197.16 2172.8
1297.52 -200.06 2204.7
1280.96 -196.64 2167.0
1261.72 -192.84 2125.2
1267.84 -192.93 2126.2
1307.84 -196.46 2165.0
1353.84 -202.50 2231.6
1389.71 -206.98 2281.0
1406.00 -208.52 2297.9
1386.32 -204.73 2256.2
1390.05 -204.42 2252.8
1438.92 -210.72 2322.2
1457.49 -212.55 2342.4
1479.84 -214.91 2368.4
1157.13 -249.44 2672.6
1145.20 -243.95 2613.7
1123.84 -236.60 2535.0
1108.64 -232.04 2486.1
1116.87 -232.41 2490.1
1125.52 -232.87 2495.0
1121.43 -230.69 2471.7
1128.39 -230.81 2472.9
1157.39 -235.40 2522.2
1172.81 -237.20 2541.4
1148.46 -230.98 2474.7
1123.82 -224.76 2408.2
1129.37 -224.63 2406.7
1146.82 -226.84 2430.5
1161.37 -228.47 2447.9
1161.40 -227.23 2434.6
1145.43 -222.89 2388.2
1137.05 -220.07 2357.9
1135.48 -218.60 2342.1
1142.59 -218.79 2344.2
1163.28 -221.58 2374.0
1162.96 -220.35 2360.9
1164.79 -219.54 2352.2
1181.24 -221.48 2373.0
1157.18 -215.85 2312.7
1152.58 -213.88 2291.6
1200.93 -221.71 2375.5
1208.09 -221.89 2377.4
1183.08 -216.20 2316.4
1198.76 -217.96 2335.3
1214.07 -219.63 2353.2
1184.02 -213.12 2283.5
1173.49 -210.18 2251.9
1173.46 -209.13 2240.7
1185.51 -207.18 2219.7
1190.93 -207.12 2219.1
1223.31 -211.73 2268.5
1217.42 -209.70 2246.8
1196.19 -205.06 2197.1
1233.11 -210.39 2254.2
1262.09 -214.32 2296.3
1248.36 -210.99 2260.6
1220.94 -205.39 2200.6
1208.32 -202.32 2167.7
1229.17 -204.86 2194.9
1246.21 -206.74 2215.1
1261.10 -205.43 2201.0
1253.46 -203.26 2177.8
1255.71 -202.72 2172.0
1259.93 -202.49 2169.5
1250.08 -200.01 2143.0
1263.80 -201.31 2156.9
1290.21 -204.61 2192.3
1276.68 -201.58 2159.8
1258.95 -197.91 2120.5
1266.08 -198.17 2123.2
1274.76 -198.66 2128.5
1324.10 -204.58 2192.0
1343.78 -206.74 2215.0
1327.75 -203.40 2179.3
1347.47 -204.68 2193.0
1436.92 -217.35 2328.7
1447.60 -218.05 2336.2
1421.43 -213.21 2284.4
1388.20 -207.37 2221.8
1402.41 -208.62 2235.2
1505.94 -223.10 2390.4
1492.79 -220.25 2359.8
1507.50 -218.83 2344.6
1086.36 -239.26 2494.2
1092.59 -239.21 2493.7
1112.48 -242.13 2524.1
1105.04 -239.10 2492.6
1088.53 -234.16 2441.1
1095.03 -234.20 2441.4
1103.58 -234.67 2446.4
1100.62 -232.70 2425.9
1136.85 -239.00 2491.5
1130.62 -233.70 2436.3
1114.75 -229.14 2388.8
1129.15 -230.82 2406.2
1132.99 -230.33 2401.1
1134.66 -229.41 2391.6
1164.60 -234.19 2441.3
1177.09 -235.42 2454.2
1161.05 -230.96 2407.7
1153.08 -228.15 2378.4
1144.54 -225.26 2348.2
1149.46 -225.03 2345.8
1162.29 -226.34 2359.5
1178.27 -228.25 2379.5
1203.65 -231.95 2418.0
1186.83 -227.53 2371.9
1157.28 -220.72 2300.9
1180.92 -224.07 2335.9
1211.92 -228.78 2385.0
1209.59 -227.18 2368.3
1179.42 -220.40 2297.6
1151.25 -214.05 2231.4
1172.79 -216.97 2261.8
1213.79 -223.43 2329.2
1214.38 -222.44 2318.8
1163.87 -212.13 2211.4
1194.20 -214.49 2236.0
1211.91 -216.62 2258.2
1225.92 -218.07 2273.3
1201.05 -212.63 2216.6
1249.86 -218.14 2274.0
1277.99 -222.00 2314.3
1251.17 -216.32 2255.1
1240.60 -213.50 2225.7
1251.82 -214.43 2235.4
1257.21 -214.36 2234.7
1233.18 -209.30 2181.9
1213.85 -205.08 2137.9
1246.68 -209.67 2185.7
1275.73 -213.58 2226.5
1273.62 -212.27 2212.8
1283.41 -212.94 2219.9
1293.74 -213.70 2227.7
1289.52 -212.05 2210.6
1261.05 -206.46 2152.2
1244.99 -202.93 2115.5
1283.55 -208.30 2171.4
1316.22 -212.66 2217.0
1326.60 -213.41 2224.7
1371.06 -218.66 2279.5
1403.74 -222.91 2323.8
1391.62 -220.04 2293.9
1343.07 -211.46 2204.4
1303.03 -204.29 2129.6
1358.71 -212.12 2211.3
1415.21 -220.01 2293.6
1384.35 -214.31 2234.2
1386.43 -213.74 2228.2
1383.20 -212.36 2213.8
1366.14 -208.87 2177.4
1423.86 -216.80 2260.1
1478.15 -224.15 2336.6
1516.40 -226.24 2358.5
1532.08 -227.66 2373.3
1147.16 -261.03 2649.5
1089.16 -244.90 2485.8
1097.94 -243.99 2476.6
1108.58 -244.92 2486.0
1115.59 -245.04 2487.3
1123.83 -245.43 2491.2
1136.60 -246.81 2505.2
1156.80 -245.58 2492.7
1168.86 -246.76 2504.7
1169.11 -245.45 2491.4
1157.41 -241.66 2452.9
1140.84 -236.89 2404.6
1156.22 -238.78 2423.7
1193.65 -245.18 2488.7
1202.35 -245.64 2493.4
1195.87 -243.01 2466.6
1188.83 -240.29 2439.1
1207.96 -242.87 2465.2
1226.71 -241.53 2451.6
1178.08 -230.76 2342.3
1186.53 -231.22 2347.0
1202.21 -233.08 2365.9
1199.83 -231.44 2349.2
1169.18 -224.39 2277.6
1149.65 -219.53 2228.3
1182.64 -224.70 2280.8
1217.69 -230.21 2336.7
1210.90 -227.79 2312.2
1182.67 -221.39 2247.2
1175.12 -218.90 2221.9
1207.21 -223.78 2271.4
1240.43 -228.82 2322.6
1230.99 -225.98 2293.8
1216.22 -222.19 2255.4
1224.08 -222.56 2259.1
1216.70 -220.16 2234.7
1193.44 -214.93 2181.6
1220.35 -218.74 2220.3
1280.64 -228.47 2319.1
1286.21 -228.39 2318.3
1261.22 -222.91 2262.7
1257.43 -221.21 2245.4
1265.28 -221.57 2249.0
1245.20 -217.05 2203.2
1217.06 -211.18 2143.6
1245.46 -215.12 2183.6
1281.93 -220.42 2237.4
1286.30 -220.18 2234.9
1308.61 -222.99 2263.4
1321.41 -223.17 2265.3
1281.97 -215.55 2187.9
1264.97 -211.76 2149.4
1305.62 -217.60 2208.8
1325.84 -219.05 2223.5
1337.78 -220.07 2233.8
1368.24 -224.11 2274.8
1400.91 -228.47 2319.1
1389.29 -225.61 2290.0
1410.75 -228.12 2315.5
1417.93 -227.35 2307.7
1374.66 -219.48 2227.8
1437.93 -225.79 2291.9
1493.72 -233.59 2371.0
1139.97 -264.64 2617.3
1099.32 -253.69 2509.0
1094.74 -251.15 2483.9
1120.31 -255.51 2527.0
1127.00 -255.54 2527.3
1127.17 -254.10 2513.1
1181.21 -263.24 2603.5
1144.64 -253.64 2508.5
1130.78 -247.75 2450.3
1171.98 -253.93 2511.4
1137.56 -245.11 2424.2
1174.59 -251.70 2489.3
1170.13 -248.02 2452.9
1161.53 -244.86 2421.7
1178.74 -247.16 2444.4
1182.59 -246.64 2439.3
1176.80 -244.12 2414.4
1195.01 -246.59 2438.8
1212.64 -245.04 2423.5
1172.47 -235.70 2331.1
1190.78 -238.16 2355.4
1201.96 -239.17 2365.4
1194.15 -236.41 2338.1
1172.13 -230.87 2283.4
1161.74 -227.68 2251.8
1175.99 -229.32 2268.0
1193.05 -231.49 2289.4
1211.12 -233.83 2312.6
1207.94 -232.07 2295.2
1186.53 -226.84 2243.4
1205.57 -229.35 2268.3
1243.47 -235.41 2328.3
1239.22 -233.48 2309.1
1231.11 -230.83 2283.0
1246.14 -232.53 2299.8
1256.94 -233.43 2308.7
1251.52 -231.32 2287.8
1241.22 -228.34 2258.3
1263.53 -231.35 2288.1
1276.78 -232.68 2301.3
1259.52 -228.47 2259.6
1268.86 -229.10 2265.8
1290.92 -232.01 2294.6
1275.84 -228.25 2257.4
1255.19 -223.53 2210.7
1241.27 -220.04 2176.2
1236.12 -218.14 2157.4
1245.30 -218.77 2163.7
1272.46 -222.54 2200.9
1273.47 -220.74 2183.1
1305.90 -225.35 2228.8
1355.05 -231.79 2292.4
1332.22 -225.90 2234.2
1356.97 -229.10 2265.8
1317.14 -221.42 2189.8
1272.38 -212.97 2106.3
1300.15 -216.69 2143.1
1367.98 -227.03 2245.3
1422.66 -235.10 2325.2
1406.19 -231.40 2288.6
1381.73 -226.42 2239.3
1486.91 -239.63 2369.9
1510.97 -238.57 2359.5
1506.16 -236.86 2342.5
1099.08 -260.14 2508.5
1153.52 -271.42 2617.2
1173.73 -274.56 2647.5
1171.36 -272.41 2626.8
1157.07 -267.53 2579.8
1165.51 -267.93 2583.6
1171.49 -267.77 2582.1
1116.70 -253.80 2447.3
1160.50 -259.33 2500.7
1131.31 -251.40 2424.2
1118.71 -247.23 2384.0
1175.61 -258.38 2491.5
1177.21 -254.53 2454.4
1169.41 -251.49 2425.0
1169.74 -250.21 2412.7
1161.28 -247.08 2382.6
1166.27 -246.83 2380.2
1193.25 -251.21 2422.4
1161.19 -243.18 2345.0
1131.74 -234.56 2261.8
1159.25 -239.02 2304.8
1198.16 -245.78 2370.0
1209.75 -245.64 2368.6
1175.52 -237.48 2290.0
1162.87 -233.74 2254.0
1173.91 -234.78 2264.0
1210.29 -240.85 2322.5
1240.16 -244.37 2356.4
1214.68 -238.17 2296.7
1211.86 -236.46 2280.2
1227.27 -238.30 2297.9
1249.33 -241.42 2327.9
1269.14 -244.07 2353.5
1256.32 -240.44 2318.6
1240.49 -236.28 2278.5
1249.36 -236.84 2283.9
1239.32 -231.65 2233.8
1253.45 -233.20 2248.7
1295.86 -239.97 2314.0
1281.46 -235.13 2267.3
1256.91 -229.57 2213.7
1240.53 -225.55 2175.0
1260.63 -228.17 2200.2
1296.73 -233.64 2253.0
1261.24 -226.23 2181.5
1230.06 -218.68 2108.7
1295.58 -229.31 2211.2
1335.21 -235.28 2268.8
1305.63 -229.06 2208.8
1320.04 -230.58 2223.4
1378.90 -239.81 2312.4
1329.21 -229.17 2209.9
1278.83 -219.54 2117.0
1300.42 -222.29 2143.5
1333.51 -226.98 2188.7
1349.09 -228.66 2204.9
1354.30 -228.57 2204.1
1353.74 -227.52 2193.9
1375.70 -230.24 2220.2
1387.24 -231.21 2229.5
1422.02 -236.02 2275.9
1525.99 -249.14 2402.4
1478.48 -240.40 2318.2
1501.56 -243.17 2344.8
1535.04 -244.63 2358.9
1157.51 -285.89 2689.6
1163.53 -282.28 2655.6
1180.01 -281.28 2646.2
1159.67 -274.83 2585.5
1183.39 -275.68 2593.5
1132.91 -262.43 2468.8
1144.26 -259.20 2438.4
1166.43 -262.77 2472.0
1180.64 -264.51 2488.5
1180.33 -263.01 2474.3
1161.02 -257.31 2420.7
1147.54 -252.95 2379.7
1143.43 -250.70 2358.5
1148.82 -250.54 2357.0
1166.02 -252.95 2379.6
1160.00 -250.32 2354.9
1127.04 -239.42 2252.4
1156.76 -244.47 2299.9
1198.36 -251.96 2370.4
1216.29 -253.14 2381.4
1190.73 -246.56 2319.6
1186.36 -244.43 2299.5
1240.57 -254.32 2392.5
1222.81 -245.76 2312.0
1202.26 -240.45 2262.1
1236.86 -246.17 2315.9
1260.37 -248.44 2337.2
1210.99 -237.56 2234.9
1209.77 -236.19 2222.0
1231.89 -239.37 2251.9
1226.32 -237.17 2231.2
1214.88 -233.85 2200.0
1237.61 -237.11 2230.7
1260.13 -238.09 2239.9
1248.86 -234.88 2209.7
1241.90 -232.50 2187.3
1266.42 -236.02 2220.4
1291.73 -236.43 2224.3
1307.09 -238.18 2240.7
1301.36 -236.09 2221.0
1269.28 -229.25 2156.7
1259.76 -226.54 2131.2
1293.34 -231.56 2178.4
1325.58 -236.30 2223.0
1308.86 -232.31 2185.5
1319.70 -233.22 2194.1
1337.79 -235.41 2214.6
1375.06 -240.93 2266.6
1387.29 -241.01 2267.4
1339.95 -231.81 2180.8
1387.99 -239.11 2249.4
1468.52 -250.87 2360.1
1491.41 -253.73 2387.0
1493.22 -252.98 2380.0
1435.01 -242.12 2277.8
1512.19 -254.10 2390.5
1514.08 -252.35 2374.0
1529.20 -253.84 2388.0
1133.48 -285.07 2617.9
1162.64 -290.66 2669.3
1167.44 -288.43 2648.8
1170.37 -287.46 2639.9
1167.58 -285.11 2618.3
1175.69 -285.43 2621.3
1194.27 -285.00 2617.3
1145.52 -271.82 2496.3
1122.52 -264.86 2432.4
1130.38 -263.76 2422.2
1159.22 -268.99 2470.3
1173.39 -270.78 2486.8
1134.72 -260.43 2391.7
1173.11 -256.62 2356.7
1189.59 -258.87 2377.4
1183.79 -256.28 2353.6
1164.41 -250.80 2303.2
1141.67 -244.64 2246.7
1156.26 -246.51 2263.9
1160.92 -246.26 2261.5
1181.99 -249.47 2291.0
1203.89 -250.31 2298.8
1199.30 -248.13 2278.7
1199.74 -247.01 2268.4
1197.33 -245.31 2252.8
1250.19 -254.89 2340.9
1264.35 -255.30 2344.6
1219.75 -245.12 2251.1
1219.98 -244.00 2240.8
1234.98 -245.82 2257.6
1223.18 -242.33 2225.5
1239.17 -244.34 2244.0
1290.00 -253.18 2325.1
1278.78 -248.65 2283.5
1246.19 -241.20 2215.1
1232.44 -237.44 2180.6
1213.62 -232.75 2137.5
1226.70 -234.19 2150.7
1285.77 -243.25 2234.0
1315.04 -247.68 2274.6
1324.37 -247.22 2270.4
1290.02 -239.74 2201.7
1303.87 -241.24 2215.5
1346.14 -247.97 2277.3
1315.95 -241.35 2216.5
1278.90 -233.54 2144.7
1260.50 -229.18 2104.7
1269.14 -229.76 2110.0
1285.01 -231.63 2127.2
1316.94 -236.37 2170.8
1390.48 -248.51 2282.2
1386.49 -246.75 2266.1
1356.36 -240.37 2207.5
1433.21 -252.92 2322.7
1469.11 -254.97 2341.6
1437.38 -248.44 2281.6
1500.95 -253.17 2325.1
1174.53 -295.35 2649.3
1160.42 -290.10 2602.3
1159.53 -288.21 2585.3
1165.12 -287.93 2582.8
1117.66 -274.62 2463.4
1119.24 -273.45 2452.9
1142.35 -277.52 2489.4
1139.35 -275.24 2468.9
1142.12 -274.36 2461.1
1161.67 -277.51 2489.3
1173.11 -277.16 2486.2
1127.14 -260.57 2337.4
1126.41 -259.01 2323.4
1141.32 -261.05 2341.6
1151.92 -262.08 2350.9
1120.79 -253.65 2275.3
1143.64 -257.47 2309.5
1197.23 -268.13 2405.2
1196.44 -266.57 2391.1
1180.39 -261.63 2346.9
1153.38 -254.33 2281.4
1141.86 -250.51 2247.1
1163.70 -254.00 2278.4
1156.57 -251.17 2253.1
1168.96 -252.59 2265.7
1192.38 -256.36 2299.6
1195.75 -252.05 2260.9
1243.31 -260.79 2339.3
1263.98 -263.84 2366.7
1268.29 -263.46 2363.3
1274.47 -263.47 2363.4
1257.41 -258.70 2320.6
1231.13 -252.09 2261.3
1217.51 -248.12 2225.6
1194.63 -242.31 2173.5
1197.04 -241.66 2167.7
1266.06 -254.39 2281.9
1275.59 -253.94 2277.8
1235.11 -243.62 2185.3
1221.72 -239.88 2151.8
1221.74 -237.71 2132.3
1235.34 -239.28 2146.3
1258.96 -242.76 2177.6
1255.70 -241.05 2162.2
1351.05 -255.93 2295.7
1303.62 -243.72 2186.2
1261.18 -233.75 2096.8
1280.62 -236.34 2120.0
1310.99 -240.91 2161.0
1385.53 -253.52 2274.1
1389.84 -253.23 2271.5
1406.25 -254.07 2279.0
1424.28 -255.18 2289.0
1404.29 -250.56 2247.5
1459.91 -258.34 2317.3
1514.95 -265.89 2385.1
1530.61 -267.54 2399.9
1500.68 -260.20 2334.0
1146.36 -302.04 2647.7
1127.53 -295.30 2588.7
1142.01 -295.58 2591.1
1166.21 -298.33 2615.3
1117.80 -282.66 2477.9
1105.47 -277.95 2436.6
1133.84 -283.46 2484.9
1146.64 -285.04 2498.7
1135.32 -280.64 2460.2
1163.62 -286.03 2507.4
1183.45 -286.11 2508.1
1158.07 -278.44 2440.9
1169.24 -279.60 2451.0
1160.22 -275.94 2419.0
1146.75 -271.27 2378.0
1157.39 -272.33 2387.3
1182.46 -276.75 2426.0
1203.30 -280.13 2455.7
1180.75 -273.44 2397.0
1147.79 -264.41 2317.9
1147.30 -262.92 2304.8
1179.70 -268.95 2357.6
1196.66 -271.41 2379.2
1178.25 -265.86 2330.6
1176.75 -264.17 2315.8
1187.87 -265.31 2325.8
1169.94 -259.99 2279.1
1151.81 -254.67 2232.5
1145.39 -251.99 2209.0
1164.63 -254.94 2234.9
1194.11 -260.10 2280.1
1197.37 -259.53 2275.1
1220.60 -263.27 2307.9
1236.95 -262.93 2304.9
1200.51 -253.95 2226.2
1228.69 -258.67 2267.6
1244.18 -260.69 2285.2
1240.64 -258.71 2267.9
1227.44 -254.75 2233.2
1191.00 -246.03 2156.7
1218.47 -250.53 2196.2
1252.86 -256.40 2247.7
1221.82 -248.89 2181.8
1219.79 -247.33 2168.2
1239.74 -250.22 2193.5
1247.98 -250.74 2198.0
1257.23 -251.45 2204.2
1263.53 -251.56 2205.3
1270.82 -251.87 2208.0
1274.13 -251.40 2203.8
1249.93 -245.52 2152.3
1282.42 -249.68 2188.7
1344.70 -260.65 2284.9
1358.73 -262.21 2298.6
1344.36 -258.30 2264.4
1281.93 -245.24 2149.8
1331.30 -251.40 2203.9
1378.34 -259.17 2272.0
1403.88 -262.85 2304.2
1351.11 -251.90 2208.2
1377.69 -255.77 2242.2
1421.35 -260.58 2284.3
1406.11 -256.72 2250.4
1427.77 -259.60 2275.7
1403.36 -254.11 2227.6
1396.86 -251.89 2208.2
1442.59 -259.08 2271.1
1508.35 -269.79 2365.0
1497.15 -266.70 2337.9
1180.40 -310.63 2662.6
1169.05 -302.34 2591.5
1143.00 -293.91 2519.3
1159.15 -296.37 2540.4
1162.54 -295.56 2533.4
1140.05 -288.21 2470.4
1156.64 -290.77 2492.4
1193.36 -291.86 2501.6
1162.52 -282.78 2423.8
1153.38 -279.04 2391.8
1168.83 -281.27 2410.9
1165.62 -279.00 2391.5
1156.19 -275.28 2359.6
1149.70 -272.30 2334.0
1132.51 -266.82 2287.0
1147.03 -268.83 2304.3
1196.77 -279.04 2391.8
1174.03 -272.33 2334.2
1145.84 -263.07 2254.9
1180.80 -269.73 2311.9
1171.48 -266.25 2282.1
1160.21 -262.36 2248.8
1145.59 -257.76 2209.3
1159.76 -259.65 2225.6
1201.68 -267.70 2294.6
1216.09 -269.58 2310.6
1235.20 -272.47 2335.5
1224.91 -266.28 2282.4
1195.98 -258.75 2217.8
1232.20 -265.31 2274.0
1271.96 -272.56 2336.3
1275.08 -270.65 2319.9
1236.42 -261.22 2239.0
1219.16 -256.36 2197.4
1204.63 -252.13 2161.1
1225.37 -254.11 2178.1
1227.71 -253.43 2172.2
1217.74 -250.22 2144.7
1234.77 -252.57 2164.9
1251.87 -254.91 2184.9
1301.73 -262.68 2251.6
1280.63 -257.27 2205.2
1259.85 -251.97 2159.7
1290.19 -256.90 2202.0
1324.22 -262.51 2250.1
1319.95 -260.52 2233.0
1285.65 -252.64 2165.5
1281.65 -250.76 2149.4
1315.42 -256.25 2196.4
1359.62 -263.72 2260.5
1394.29 -269.28 2308.1
1364.10 -262.33 2248.5
1309.87 -250.83 2149.9
1293.17 -246.58 2113.5
1355.51 -257.38 2206.1
1442.44 -271.59 2327.9
1422.10 -266.64 2285.5
1442.72 -269.39 2309.0
1467.66 -272.91 2339.3
1443.91 -267.39 2291.9
1439.66 -265.51 2275.8
1510.58 -277.45 2378.2
1508.56 -275.96 2365.3
1176.07 -316.37 2652.8
1177.37 -314.88 2640.3
1168.59 -307.17 2575.7
1179.09 -308.17 2584.0
1170.12 -304.10 2549.9
1134.35 -293.15 2458.1
1136.26 -292.00 2448.4
1174.28 -300.09 2516.3
1164.86 -296.04 2482.3
1123.90 -284.06 2381.9
1111.48 -279.39 2342.7
1135.58 -282.36 2367.6
1195.42 -295.64 2479.0
1191.53 -293.10 2457.7
1168.82 -285.99 2398.0
1171.66 -285.17 2391.1
1176.67 -284.88 2388.7
1159.15 -279.17 2340.8
1174.22 -281.32 2358.9
1207.16 -287.72 2412.5
1167.94 -276.93 2322.1
1142.69 -269.56 2260.3
1193.76 -280.17 2349.2
1203.70 -278.24 2333.1
1166.83 -268.37 2250.3
1161.78 -265.88 2229.4
1186.17 -270.12 2265.0
1222.28 -276.97 2322.4
1221.41 -272.74 2287.0
1209.10 -268.69 2253.0
1218.36 -269.45 2259.3
1223.38 -269.26 2257.8
1230.29 -269.49 2259.7
1254.86 -273.57 2293.9
1240.46 -267.89 2246.3
1253.62 -269.47 2259.5
1245.51 -266.48 2234.5
1266.06 -268.38 2250.4
1253.86 -264.58 2218.5
1241.03 -260.67 2185.8
1256.66 -262.76 2203.2
1253.07 -260.82 2187.0
1257.34 -260.53 2184.6
1285.34 -263.95 2213.3
1261.07 -257.82 2161.8
1286.38 -261.83 2195.5
1293.14 -262.05 2197.3
1262.96 -254.81 2136.6
1257.43 -252.58 2117.9
1313.59 -261.58 2193.4
1357.27 -269.11 2256.5
1374.44 -271.35 2275.3
1329.23 -261.30 2191.0
1302.33 -254.92 2137.6
1316.25 -256.56 2151.3
1349.89 -259.81 2178.5
1439.13 -275.83 2312.9
1390.74 -265.45 2225.9
1378.37 -260.93 2187.9
1465.95 -276.37 2317.4
1522.68 -284.73 2387.5
1529.93 -282.64 2369.9
1141.45 -311.91 2559.7
1166.41 -315.07 2585.6
1200.32 -322.37 2645.6
1206.30 -320.32 2628.8
1188.20 -313.74 2574.8
1206.26 -316.73 2599.3
1173.14 -306.32 2513.9
1164.10 -295.74 2427.1
1212.49 -304.74 2500.9
1195.97 -298.99 2453.7
1205.49 -299.78 2460.2
1196.80 -294.50 2416.9
1171.27 -286.72 2353.0
1163.71 -283.39 2325.7
1181.05 -286.13 2348.2
1208.79 -291.35 2391.0
1211.93 -290.62 2385.0
1210.53 -288.81 2370.1
1223.58 -290.45 2383.6
1198.39 -283.04 2322.8
1187.14 -278.98 2289.5
1208.36 -282.55 2318.8
1199.72 -279.14 2290.8
1204.85 -278.96 2289.3
1240.19 -285.73 2344.9
1229.08 -281.79 2312.6
1196.76 -273.05 2240.8
1191.88 -270.62 2220.9
1196.36 -270.33 2218.5
1195.61 -268.87 2206.5
1182.93 -264.75 2172.7
1188.71 -264.78 2173.0
1197.85 -265.56 2179.4
1210.36 -267.08 2191.8
1246.57 -273.78 2246.8
1262.65 -276.02 2265.2
1262.76 -274.77 2254.9
1273.56 -275.84 2263.7
1279.98 -275.96 2264.7
1285.42 -275.87 2264.0
1296.28 -276.93 2272.7
1288.37 -274.00 2248.6
1280.37 -271.07 2224.6
1306.61 -275.38 2260.0
1297.03 -272.14 2233.4
1268.29 -264.93 2174.2
1282.06 -266.62 2188.1
1277.21 -264.44 2170.2
1297.59 -267.49 2195.2
1350.05 -277.09 2274.0
1344.23 -274.69 2254.3
1345.49 -273.76 2246.6
1345.17 -272.51 2236.4
1307.78 -263.80 2164.9
1279.92 -257.08 2109.8
1320.62 -263.01 2158.4
1325.23 -262.81 2156.8
1382.05 -272.93 2239.8
1385.16 -270.14 2216.9
1419.36 -273.40 2243.7
1441.12 -276.46 2268.8
1473.67 -281.56 2310.6
1442.00 -274.39 2251.8
1141.55 -318.57 2560.0
1135.46 -313.23 2517.0
1171.68 -321.38 2582.5
1190.85 -324.78 2609.8
1191.75 -317.80 2553.7
1132.61 -300.36 2413.6
1137.32 -299.95 2410.3
1173.10 -307.70 2472.6
1205.30 -314.43 2526.6
1193.97 -306.47 2462.7
1167.79 -298.16 2395.9
1197.75 -304.19 2444.4
1195.62 -300.47 2414.5
1153.26 -288.32 2316.8
1157.20 -287.80 2312.7
1188.79 -294.13 2363.6
1191.45 -293.28 2356.7
1169.76 -286.47 2302.0
1176.32 -286.62 2303.2
1195.58 -289.84 2329.1
1184.88 -285.80 2296.6
1186.38 -284.73 2288.0
1188.31 -283.78 2280.3
1162.07 -276.14 2218.9
1175.39 -277.92 2233.3
1217.57 -286.49 2302.1
1238.11 -289.90 2329.5
1236.74 -288.17 2315.7
1221.21 -283.18 2275.5
1216.83 -280.81 2256.5
1219.00 -279.96 2249.7
1192.72 -271.33 2180.3
1202.38 -269.69 2167.2
1220.72 -272.53 2190.0
1224.57 -272.13 2186.7
1254.24 -277.44 2229.4
1279.19 -281.66 2263.3
1277.75 -280.06 2250.4
1282.67 -279.86 2248.8
1315.74 -285.77 2296.4
1293.22 -277.12 2226.9
1286.53 -274.46 2205.5
1323.98 -281.20 2259.6
1317.26 -278.54 2238.3
1339.79 -282.06 2266.6
1354.11 -282.60 2270.9
1285.92 -266.05 2137.9
1307.48 -269.35 2164.4
1344.10 -275.71 2215.5
1340.03 -273.71 2199.4
1387.79 -282.26 2268.2
1349.02 -268.68 2159.1
1349.88 -267.75 2151.5
1414.33 -279.37 2245.0
1496.66 -294.42 2365.9
1510.12 -295.86 2377.4
1160.26 -330.54 2601.9
1161.42 -328.96 2589.5
1171.92 -330.02 2597.9
1178.76 -330.05 2598.1
1156.72 -322.04 2535.0
1137.72 -314.96 2479.3
1183.41 -325.77 2564.4
1174.51 -317.96 2502.9
1151.01 -309.89 2439.3
1159.59 -310.49 2444.1
1177.18 -313.49 2467.7
1172.09 -310.44 2443.7
1195.37 -314.91 2478.9
1195.82 -313.34 2466.6
1162.70 -303.04 2385.5
1183.88 -306.93 2416.1
1184.11 -305.38 2403.8
1126.09 -288.89 2274.1
1123.30 -286.68 2256.6
1164.46 -295.64 2327.2
1162.59 -293.64 2311.5
1133.76 -284.89 2242.6
1136.60 -284.15 2236.7
1165.17 -289.81 2281.3
1194.83 -295.69 2327.6
1195.05 -294.26 2316.3
1183.80 -290.03 2283.0
1172.86 -285.92 2250.7
1209.37 -290.49 2286.6
1248.06 -298.32 2348.3
1257.09 -297.57 2342.4
1223.60 -288.25 2269.0
1197.39 -280.73 2209.8
1195.65 -278.99 2196.1
1185.74 -275.36 2167.6
1188.63 -273.44 2152.5
1195.33 -273.70 2154.5
1198.16 -273.07 2149.5
1249.55 -282.16 2221.1
1298.44 -291.85 2297.4
1296.64 -288.80 2273.3
1303.07 -288.92 2274.3
1330.36 -292.32 2301.1
1298.40 -284.03 2235.8
1312.27 -285.78 2249.6
1333.91 -286.67 2256.6
1302.73 -278.75 2194.2
1285.05 -273.77 2155.1
1261.60 -267.61 2106.6
1299.46 -273.28 2151.2
1351.51 -283.01 2227.8
1383.31 -287.21 2260.9
1411.53 -291.84 2297.2
1392.37 -286.67 2256.5
1358.84 -277.43 2183.8
1514.04 -302.81 2383.6
1170.39 -342.22 2640.0
1154.69 -335.66 2589.4
1140.79 -329.71 2543.5
1139.75 -327.51 2526.5
1161.61 -331.89 2560.3
1155.58 -328.29 2532.5
1141.48 -320.64 2473.5
1184.40 -330.84 2552.2
1161.71 -322.70 2489.4
1129.05 -311.89 2406.0
1155.45 -315.70 2435.4
1208.51 -328.40 2533.4
1187.67 -320.99 2476.2
1192.46 -320.55 2472.8
1201.14 -321.16 2477.5
1175.45 -312.62 2411.6
1168.71 -309.18 2385.1
1141.22 -300.32 2316.8
1118.14 -291.18 2246.3
1180.60 -305.85 2359.4
1201.57 -309.68 2389.0
1149.15 -294.65 2273.0
1129.55 -288.15 2222.9
1142.27 -289.92 2236.5
1155.95 -291.91 2251.9
1181.54 -296.87 2290.1
1194.92 -298.73 2304.5
1199.64 -298.42 2302.1
1180.84 -292.29 2254.8
1153.97 -284.23 2192.6
1183.05 -289.96 2236.9
1202.51 -293.30 2262.6
1195.86 -290.26 2239.1
1236.09 -298.57 2303.3
1248.76 -300.18 2315.7
1212.71 -290.12 2238.1
1199.15 -285.51 2202.5
1205.95 -285.77 2204.5
1219.45 -287.61 2218.7
1210.91 -284.25 2192.8
1199.37 -280.23 2161.7
1214.31 -282.40 2178.5
1243.39 -287.82 2220.3
1271.16 -292.90 2259.5
1265.70 -286.36 2209.0
1279.93 -288.27 2223.8
1292.73 -289.85 2236.0
1286.11 -287.08 2214.6
1284.90 -285.53 2202.7
1324.34 -293.00 2260.3
1347.24 -295.45 2279.2
1327.27 -289.80 2235.6
1321.90 -287.37 2216.8
1314.91 -284.61 2195.6
1319.63 -284.40 2194.0
1300.18 -279.01 2152.3
1339.91 -285.09 2199.2
1414.11 -299.60 2311.2
1348.75 -284.55 2195.1
1433.08 -298.56 2303.2
1163.23 -346.93 2623.8
1181.39 -344.29 2603.9
1168.04 -338.47 2559.8
1122.19 -323.34 2445.5
1142.70 -325.57 2462.3
1129.60 -314.81 2380.9
1200.06 -332.62 2515.6
1194.21 -329.22 2489.9
1188.69 -325.93 2465.0
1186.95 -323.71 2448.3
1162.95 -315.48 2386.0
1160.09 -313.04 2367.5
1155.84 -310.25 2346.4
1140.91 -304.64 2304.0
1130.23 -300.22 2270.5
1171.39 -309.54 2341.1
1187.29 -308.94 2336.5
1165.01 -301.60 2281.0
1165.63 -300.24 2270.7
1179.86 -302.38 2286.9
1196.44 -305.09 2307.4
1203.00 -305.24 2308.5
1203.11 -303.75 2297.3
1195.30 -300.30 2271.2
1198.53 -299.63 2266.1
1192.87 -296.76 2244.4
1181.04 -292.39 2211.4
1215.10 -299.37 2264.2
1240.89 -304.26 2301.1
1218.55 -297.35 2248.9
1236.84 -300.38 2271.7
1273.20 -306.29 2316.5
1242.29 -297.45 2249.6
1221.23 -291.04 2201.1
1229.96 -291.76 2206.6
1239.67 -292.70 2213.7
1246.97 -293.07 2216.5
1281.66 -299.84 2267.7
1291.03 -300.65 2273.8
1269.90 -294.39 2226.5
1267.35 -292.47 2211.9
1281.10 -294.31 2225.8
1293.40 -295.80 2237.1
1278.80 -291.16 2202.0
1268.06 -287.43 2173.8
1267.76 -286.09 2163.7
1259.85 -283.05 2140.7
1294.32 -289.52 2189.6
1328.47 -295.86 2237.6
1337.86 -296.65 2243.6
1347.77 -297.56 2250.5
1351.06 -297.00 2246.2
1331.20 -291.38 2203.7
1319.93 -287.68 2175.7
1403.69 -304.63 2303.9
1341.61 -287.49 2174.3
1409.56 -300.78 2274.8
1455.76 -304.28 2301.3
1146.38 -350.66 2601.0
1170.14 -355.83 2639.4
1149.49 -345.51 2562.9
1155.03 -345.18 2560.4
1197.37 -353.77 2624.1
1143.82 -336.04 2492.6
1137.52 -332.31 2464.9
1169.95 -339.87 2521.1
1155.61 -333.84 2476.3
1131.80 -325.16 2411.9
1131.42 -323.26 2397.8
1122.90 -319.08 2366.8
1134.76 -320.69 2378.8
1117.90 -314.22 2330.7
1135.09 -315.64 2341.3
1156.97 -320.01 2373.7
1141.86 -314.16 2330.3
1126.56 -308.32 2287.0
1143.24 -311.25 2308.7
1164.87 -315.49 2340.1
1153.75 -310.85 2305.8
1176.38 -315.32 2338.9
1209.90 -320.99 2381.0
1197.66 -316.13 2344.9
1209.29 -317.59 2355.8
1199.57 -313.46 2325.1
1191.09 -309.68 2297.1
1204.05 -311.50 2310.5
1209.69 -311.41 2309.9
1203.30 -308.24 2286.4
1208.89 -308.15 2285.7
1211.20 -307.23 2278.9
1206.46 -304.54 2259.0
1237.32 -310.82 2305.6
1211.13 -301.33 2235.2
1205.65 -298.54 2214.5
1267.76 -312.43 2317.5
1255.41 -306.48 2273.4
1235.85 -300.30 2227.5
1232.54 -298.10 2211.2
1230.61 -296.26 2197.5
1232.04 -295.24 2189.9
1259.82 -300.51 2229.0
1277.45 -303.32 2249.9
1265.15 -299.03 2218.1
1291.72 -303.93 2254.5
1303.91 -302.69 2245.3
1262.73 -291.83 2164.7
1266.19 -288.78 2142.1
1300.24 -295.25 2190.0
1309.54 -296.07 2196.1
1320.38 -297.23 2204.7
1325.63 -297.12 2203.9
1360.66 -303.67 2252.5
1435.01 -310.92 2306.3
1386.16 -299.09 2218.5
1416.18 -304.30 2257.2
1168.16 -355.82 2589.5
1179.48 -357.22 2599.7
1200.32 -361.46 2630.6
1176.60 -352.31 2564.0
1167.54 -347.64 2530.0
1193.85 -353.49 2572.5
1176.68 -346.47 2521.5
1149.18 -336.50 2448.9
1164.98 -339.25 2469.0
1174.48 -340.15 2475.5
1192.97 -343.63 2500.8
1177.24 -337.26 2454.5
1114.31 -317.52 2310.8
1117.02 -316.59 2304.0
1124.04 -316.88 2306.2
1153.93 -318.53 2318.2
1175.63 -322.84 2349.5
1161.34 -317.27 2309.0
1168.37 -317.56 2311.1
1192.48 -322.46 2346.7
1174.96 -314.51 2288.9
1149.64 -304.65 2217.2
1206.01 -318.00 2314.3
1208.90 -317.19 2308.4
1199.74 -313.23 2279.6
1203.45 -312.66 2275.4
1203.88 -311.25 2265.1
1203.79 -309.71 2254.0
1241.68 -317.92 2313.7
1203.24 -305.13 2220.6
1168.77 -294.98 2146.7
1202.62 -302.08 2198.4
1240.49 -310.12 2257.0
1234.44 -307.16 2235.4
1227.33 -303.96 2212.1
1237.53 -305.06 2220.1
1241.93 -304.73 2217.7
1238.39 -299.70 2181.1
1251.04 -301.39 2193.4
1304.71 -312.89 2277.1
1314.54 -311.03 2263.6
1265.41 -298.07 2169.3
1248.63 -291.53 2121.6
1280.01 -297.55 2165.4
1301.57 -299.93 2182.8
1300.66 -298.42 2171.8
1297.65 -296.45 2157.4
1407.87 -316.17 2301.0
1354.51 -302.91 2204.4
1372.23 -305.58 2223.9
1372.76 -304.42 2215.5
1411.03 -311.60 2267.7
1445.81 -317.96 2314.0
1419.52 -310.89 2262.5
1459.22 -318.27 2316.2
1463.04 -316.50 2303.3
1152.15 -361.72 2583.7
1147.19 -358.08 2557.7
1136.81 -352.80 2520.0
1161.52 -358.41 2560.1
1194.62 -366.53 2618.1
1182.46 -360.75 2576.8
1184.66 -359.39 2567.1
1201.02 -362.32 2588.0
1175.50 -352.65 2518.9
1146.74 -342.12 2443.7
1160.83 -344.42 2460.2
1187.75 -350.48 2503.5
1205.21 -351.79 2512.8
1129.07 -327.80 2341.4
1143.96 -330.34 2359.6
1164.58 -334.51 2389.3
1132.05 -323.44 2310.3
1113.65 -316.51 2260.8
1152.72 -324.20 2315.7
1172.64 -328.10 2343.5
1152.54 -320.81 2291.5
1149.23 -318.25 2273.2
1164.73 -320.89 2292.1
1177.58 -322.79 2305.6
1126.14 -307.13 2193.8
1164.85 -314.51 2246.5
1191.00 -319.97 2285.5
1163.91 -311.14 2222.5
1170.29 -311.31 2223.6
1188.27 -314.54 2246.7
1193.30 -314.33 2245.2
1197.85 -314.00 2242.9
1205.67 -314.52 2246.6
1193.25 -309.79 2212.8
1165.55 -301.15 2151.1
1208.67 -306.42 2188.7
1257.49 -315.83 2256.0
1281.85 -320.46 2289.0
1282.00 -319.02 2278.7
1275.76 -316.01 2257.2
1262.56 -311.32 2223.7
1273.33 -312.54 2232.5
1304.85 -318.83 2277.4
1326.15 -322.58 2304.1
1302.33 -315.36 2252.6
1238.42 -298.55 2132.5
1259.97 -298.42 2131.5
1307.67 -308.36 2202.6
1331.23 -312.55 2232.5
1300.83 -304.09 2172.1
1264.56 -294.34 2102.4
1277.30 -296.03 2114.5
1321.48 -302.37 2159.8
1387.59 -312.21 2230.1
1151.31 -366.02 2566.9
1147.24 -360.56 2528.6
1197.56 -374.24 2624.5
1206.51 -374.90 2629.2
1176.00 -363.37 2548.3
1162.67 -357.24 2505.4
1175.99 -359.33 2520.0
1187.69 -360.90 2531.0
1163.03 -351.47 2464.8
1149.56 -345.50 2423.0
1165.80 -348.47 2443.8
1124.65 -334.36 2344.8
1105.12 -325.04 2279.5
1152.94 -337.30 2365.5
1144.81 -333.15 2336.4
1192.66 -345.24 2421.2
1197.60 -341.28 2393.4
1159.78 -328.80 2305.9
1143.08 -322.41 2261.0
1166.64 -327.37 2295.9
1187.18 -331.44 2324.4
1177.02 -326.95 2292.9
1189.92 -328.87 2306.4
1212.21 -331.70 2326.2
1175.08 -319.95 2243.8
1170.42 -317.11 2223.9
1184.69 -319.40 2240.0
1185.98 -318.19 2231.5
1202.66 -321.10 2251.9
1223.63 -325.12 2280.1
1210.81 -320.17 2245.3
1184.61 -311.74 2186.2
1172.87 -307.18 2154.3
1184.33 -308.71 2165.0
1211.13 -314.21 2203.5
1242.87 -320.93 2250.7
1249.41 -319.62 2241.5
1284.89 -327.17 2294.5
1297.22 -328.79 2305.8
1315.63 -330.41 2317.1
1292.65 -323.16 2266.3
1289.20 -320.84 2250.1
1289.15 -319.38 2239.8
1241.37 -306.17 2147.2
1260.05 -305.30 2141.0
1308.51 -312.90 2194.4
1337.20 -318.38 2232.8
1315.38 -311.84 2186.9
1341.63 -316.69 2221.0
1381.39 -324.69 2277.0
1358.95 -316.71 2221.1
1377.19 -319.60 2241.4
1361.10 -314.54 2205.9
1371.00 -315.50 2212.6
1401.91 -321.27 2253.1
1415.08 -322.94 2264.8
1396.64 -317.42 2226.0
1383.33 -313.10 2195.8
1174.49 -380.18 2618.6
1172.82 -377.46 2599.8
1155.49 -369.76 2546.8
1175.79 -374.12 2576.8
1176.51 -368.07 2535.2
1163.06 -361.84 2492.3
1178.91 -364.75 2512.3
1155.49 -355.53 2448.8
1150.07 -351.93 2424.0
1175.27 -357.69 2463.7
1146.19 -346.95 2389.7
1107.73 -333.51 2297.1
1109.55 -332.27 2288.6
1126.10 -335.43 2310.4
1140.55 -337.94 2327.6
1148.51 -334.98 2307.3
1140.89 -331.04 2280.1
1139.39 -328.90 2265.4
1164.23 -334.34 2302.9
1159.46 -327.93 2258.7
1168.66 -328.87 2265.2
1197.96 -335.43 2310.4
1215.07 -338.53 2331.7
1201.89 -333.20 2295.0
1169.62 -322.65 2222.4
1158.84 -318.11 2191.1
1185.17 -323.76 2229.9
1228.01 -333.83 2299.3
1229.85 -332.71 2291.6
1199.17 -322.85 2223.7
1182.85 -316.94 2183.0
1181.08 -314.95 2169.3
1240.18 -329.15 2267.1
1260.48 -329.85 2271.9
1246.17 -324.58 2235.6
1261.27 -327.00 2252.3
1285.67 -331.79 2285.3
1299.59 -332.31 2288.9
1262.31 -321.31 2213.1
1260.73 -319.46 2200.4
1260.59 -317.99 2190.2
1255.93 -315.39 2172.3
1265.65 -316.41 2179.4
1257.89 -313.07 2156.4
1267.59 -314.09 2163.4
1260.71 -311.01 2142.2
1289.42 -312.59 2153.0
1265.42 -305.45 2103.8
1369.86 -326.44 2248.4
1337.36 -317.34 2185.8
1418.39 -335.15 2308.4
1427.23 -333.02 2293.8
1423.12 -330.68 2277.7
1434.81 -330.66 2277.5
1146.65 -380.00 2571.4
1151.41 -379.37 2567.1
1165.93 -381.94 2584.6
1165.37 -379.58 2568.6
1189.42 -385.21 2606.7
1174.04 -375.96 2544.1
1181.08 -371.94 2516.9
1190.24 -372.77 2522.5
1144.12 -352.51 2385.4
1129.79 -346.23 2342.9
1163.70 -354.71 2400.3
1155.72 -350.41 2371.2
1144.13 -345.06 2335.0
1157.35 -347.20 2349.5
1123.11 -335.17 2268.1
1154.49 -337.47 2283.6
1195.60 -347.70 2352.8
1150.85 -332.99 2253.3
1139.19 -324.67 2197.0
1189.97 -337.45 2283.5
1196.02 -337.49 2283.8
1180.82 -331.56 2243.7
1164.07 -325.25 2201.0
1187.16 -330.09 2233.7
1208.97 -334.52 2263.7
1186.82 -326.81 2211.5
1191.76 -326.59 2210.0
1210.39 -330.11 2233.8
1215.83 -330.01 2233.1
1271.67 -338.72 2292.1
1291.93 -334.73 2265.1
1247.56 -321.77 2177.4
1268.98 -324.36 2194.9
1286.21 -327.30 2214.8
1285.03 -325.54 2202.9
1253.32 -314.71 2129.6
1257.48 -313.00 2118.0
1295.60 -321.08 2172.7
1292.13 -318.84 2157.5
1274.78 -313.20 2119.4
1346.78 -326.66 2210.5
1406.21 -336.78 2279.0
1419.51 -337.13 2281.4
1411.71 -332.51 2250.1
1186.32 -397.73 2645.0
1191.23 -397.08 2640.7
1170.32 -387.88 2579.5
1174.24 -386.96 2573.4
1193.00 -390.93 2599.8
1120.11 -364.98 2427.2
1138.04 -366.70 2438.7
1185.34 -379.83 2526.0
1182.68 -376.90 2506.5
