ply
format ascii 1.0
element vertex 2082
property float x
property float y
property float z
end_header
-681.59 -428.10 2172.7
-673.81 -426.74 2165.8
-677.94 -432.97 2197.4
-674.72 -434.57 2205.5
-652.93 -424.13 2152.5
-635.06 -416.08 2111.7
-624.97 -413.02 2096.2
-628.87 -419.25 2127.8
-641.45 -431.42 2189.5
-638.12 -433.01 2197.6
-620.08 -424.56 2154.7
-607.08 -419.44 2128.7
-599.02 -417.67 2119.7
-587.56 -413.47 2098.4
-584.07 -414.85 2105.5
-588.35 -421.84 2140.9
-578.01 -418.37 2123.3
-571.85 -417.89 2120.9
-582.92 -430.12 2182.9
-585.16 -436.00 2212.8
-575.05 -432.71 2196.1
-559.84 -425.48 2159.4
-549.94 -422.18 2142.6
-553.18 -428.99 2177.2
-551.21 -431.88 2191.9
-533.99 -422.74 2145.5
-520.51 -416.41 2113.4
-525.10 -424.55 2154.7
-527.64 -431.19 2188.4
-516.11 -426.35 2163.8
-509.43 -425.46 2159.3
-505.01 -426.45 2164.3
-496.14 -423.67 2150.2
-484.72 -418.62 2124.6
-485.73 -424.32 2153.5
-501.99 -443.62 2251.4
-495.15 -442.72 2246.9
-480.38 -434.63 2205.8
-480.49 -439.96 2232.9
-474.53 -439.81 2232.1
-458.69 -430.38 2184.2
-456.44 -433.62 2200.7
-461.21 -443.69 2251.8
-453.06 -441.44 2240.4
-443.24 -437.48 2220.3
-448.13 -448.13 2274.4
-841.26 -440.66 2207.4
-836.92 -441.39 2211.1
-813.55 -432.02 2164.1
-778.69 -416.38 2085.8
-783.14 -421.69 2112.4
-805.47 -436.77 2187.9
-818.33 -446.89 2238.6
-807.48 -444.11 2224.7
-763.37 -422.87 2118.3
-739.94 -412.86 2068.2
-752.92 -423.17 2119.8
-751.94 -425.73 2132.6
-740.82 -422.54 2116.6
-735.91 -422.87 2118.3
-719.45 -416.52 2086.5
-702.82 -409.98 2053.7
-708.46 -416.42 2086.0
-722.10 -427.70 2142.5
-722.07 -431.00 2159.0
-708.96 -426.49 2136.4
-692.58 -419.91 2103.5
-680.01 -415.56 2081.7
-675.11 -415.87 2083.2
-669.60 -415.80 2082.9
-667.67 -417.97 2093.7
-674.86 -425.94 2133.6
-673.34 -428.49 2146.4
-667.96 -428.61 2147.0
-674.73 -436.59 2187.0
-665.80 -434.46 2176.3
-639.80 -421.07 2109.2
-631.66 -419.29 2100.4
-631.14 -422.59 2116.9
-626.35 -423.06 2119.2
-630.95 -429.94 2153.7
-626.33 -430.60 2157.0
-608.11 -421.85 2113.1
-604.92 -423.44 2121.2
-605.69 -427.87 2143.3
-596.02 -424.94 2128.7
-594.04 -427.48 2141.4
-594.33 -431.73 2162.6
-580.58 -425.76 2132.8
-563.91 -417.51 2091.4
-564.41 -421.94 2113.6
-572.59 -432.25 2165.2
-569.56 -434.22 2175.1
-555.39 -427.65 2142.2
-546.02 -424.68 2127.4
-546.15 -429.12 2149.6
-540.18 -428.80 2148.0
-533.98 -428.29 2145.4
-531.31 -430.64 2157.2
-525.09 -430.12 2154.6
-517.50 -428.47 2146.3
-510.63 -427.37 2140.8
-508.29 -430.09 2154.5
-505.44 -432.43 2166.2
-498.77 -431.52 2161.6
-494.31 -432.52 2166.6
-501.48 -443.84 2223.3
-490.48 -444.31 2225.7
-474.52 -434.97 2178.9
-472.41 -438.26 2195.4
-475.53 -446.54 2236.8
-468.96 -445.80 2233.2
-453.44 -436.43 2186.2
-443.66 -432.43 2166.1
-439.03 -433.41 2171.0
-433.04 -433.04 2169.2
-438.81 -444.59 2227.1
-838.16 -441.73 2184.4
-810.09 -429.85 2125.6
-804.55 -429.83 2125.5
-809.04 -435.21 2152.1
-800.68 -433.70 2144.7
-780.75 -425.86 2105.9
-780.33 -428.63 2119.6
-782.55 -432.90 2140.7
-760.86 -423.91 2096.3
-759.03 -425.93 2106.3
-776.01 -438.61 2169.0
-771.33 -439.15 2171.6
-752.91 -431.81 2135.3
-750.88 -433.84 2145.4
-754.27 -439.06 2171.2
-735.46 -431.32 2132.9
-717.13 -423.76 2095.5
-711.29 -423.52 2094.3
-713.30 -427.98 2116.4
-716.14 -433.01 2141.3
-706.79 -430.70 2129.8
-694.11 -426.30 2108.1
-684.28 -423.60 2094.7
-675.71 -421.64 2085.1
-667.19 -419.68 2075.4
-669.15 -424.34 2098.4
-680.77 -435.25 2152.3
-679.20 -437.83 2165.1
-674.07 -438.15 2166.7
-667.19 -437.32 2162.6
-645.39 -426.61 2109.6
-636.66 -424.44 2098.9
-645.51 -434.05 2146.4
-632.53 -429.02 2121.5
-615.49 -421.13 2082.5
-625.69 -431.89 2135.7
-626.31 -436.18 2156.9
-612.18 -430.18 2127.3
-611.91 -433.90 2145.7
-614.22 -439.53 2173.5
-605.80 -437.52 2163.6
-600.58 -437.81 2165.0
-597.95 -440.00 2175.8
-590.62 -438.75 2169.6
-580.00 -435.00 2151.1
-574.78 -435.27 2152.5
-577.59 -441.68 2184.2
-563.33 -435.04 2151.3
-534.05 -425.06 2102.0
-538.01 -432.63 2139.4
-541.07 -439.62 2174.0
-541.61 -444.69 2199.0
-538.31 -446.69 2208.9
-523.69 -439.23 2172.0
-509.25 -431.75 2135.0
-508.50 -435.86 2155.3
-506.76 -439.19 2171.8
-495.67 -434.41 2148.2
-486.44 -431.16 2132.1
-482.46 -432.55 2139.0
-477.60 -433.17 2142.1
-478.21 -438.83 2170.0
-478.67 -444.48 2198.0
-464.76 -436.76 2159.8
-455.31 -433.10 2141.7
-460.27 -443.22 2191.8
-456.41 -445.00 2200.5
-447.18 -441.52 2183.4
-443.29 -443.29 2192.1
-441.09 -446.82 2209.5
-834.24 -442.32 2159.6
-823.71 -439.68 2146.7
-814.63 -437.79 2137.5
-810.11 -438.35 2140.2
-816.63 -444.92 2172.3
-799.98 -438.88 2142.8
-773.23 -427.17 2085.6
-765.39 -425.82 2079.0
-760.28 -425.97 2079.8
-744.77 -420.27 2051.9
-748.04 -425.14 2075.7
-764.75 -437.79 2137.5
-760.13 -438.32 2140.1
-751.91 -436.77 2132.5
-759.29 -444.33 2169.4
-762.95 -449.80 2196.1
-745.04 -442.54 2160.7
-720.94 -431.47 2106.6
-709.39 -427.80 2088.7
-710.47 -431.75 2108.0
-712.38 -436.27 2130.1
-706.77 -436.21 2129.8
-696.86 -433.48 2116.5
-681.22 -427.11 2085.4
-667.53 -421.88 2059.8
-673.79 -429.27 2095.9
-691.21 -443.95 2167.5
-695.55 -450.40 2199.1
-686.53 -448.23 2188.5
-669.09 -440.49 2150.7
-650.10 -431.58 2107.2
-643.94 -431.11 2104.9
-650.89 -439.49 2145.8
-644.64 -439.02 2143.5
-616.81 -423.72 2068.8
-621.53 -434.52 2121.5
-627.39 -442.53 2160.6
-616.50 -438.77 2142.3
-612.43 -439.83 2147.5
-609.66 -441.86 2157.4
-597.32 -436.93 2133.3
-588.24 -434.30 2120.5
-589.09 -439.04 2143.6
-585.45 -440.48 2150.6
-582.28 -442.31 2159.6
-584.13 -448.02 2187.4
-584.08 -452.38 2208.7
-566.29 -442.94 2162.6
-542.31 -428.43 2091.8
-537.46 -428.88 2094.0
-533.07 -429.72 2098.1
-529.86 -431.54 2107.0
-537.26 -442.12 2158.6
-541.36 -450.18 2198.0
-536.43 -450.83 2201.2
-520.68 -442.30 2159.5
-506.05 -434.54 2121.6
-504.43 -437.91 2138.1
-502.50 -441.09 2153.6
-491.90 -436.63 2131.8
-483.59 -434.13 2119.6
-480.29 -436.13 2129.4
-482.70 -443.41 2165.0
-491.06 -456.40 2228.3
-485.33 -456.44 2228.5
-465.56 -443.13 2163.5
-446.73 -430.39 2101.4
-441.51 -430.60 2102.4
-448.42 -442.81 2162.0
-451.89 -451.89 2206.3
-447.55 -453.29 2213.2
-445.09 -456.66 2229.6
-854.77 -455.88 2198.0
-830.33 -445.82 2149.5
-833.54 -450.56 2172.4
-813.56 -442.76 2134.7
-799.66 -438.17 2112.6
-794.15 -438.15 2112.5
-768.38 -426.88 2058.2
-762.98 -426.84 2058.0
-774.20 -436.17 2103.0
-769.71 -436.71 2105.6
-755.82 -431.90 2082.4
-749.36 -431.29 2079.4
-756.13 -438.34 2113.4
-750.26 -438.11 2112.3
-740.47 -435.57 2100.1
-740.14 -438.60 2114.7
-736.84 -439.90 2121.0
-727.75 -437.74 2110.5
-711.71 -431.34 2079.7
-697.39 -425.89 2053.4
-695.72 -428.14 2064.2
-702.72 -435.79 2101.2
-701.81 -438.63 2114.8
-697.77 -439.54 2119.2
-688.52 -437.15 2107.7
-672.67 -430.51 2075.7
-677.98 -437.41 2108.9
-684.03 -444.90 2145.0
-676.89 -443.86 2140.0
-668.88 -442.24 2132.2
-652.17 -434.78 2096.3
-643.14 -432.36 2084.6
-647.65 -439.09 2117.0
-650.58 -444.84 2144.8
-640.95 -442.03 2131.2
-629.97 -438.24 2113.0
-635.76 -446.15 2151.1
-623.17 -441.18 2127.1
-600.56 -428.97 2068.3
-598.58 -431.41 2080.0
-603.53 -438.93 2116.3
-603.24 -442.74 2134.6
-592.27 -438.72 2115.3
-591.36 -442.14 2131.7
-600.50 -453.21 2185.1
-595.21 -453.50 2186.5
-590.43 -454.17 2189.8
-585.62 -454.85 2193.0
-578.79 -453.95 2188.7
-574.21 -454.82 2192.9
-562.97 -450.37 2171.4
-552.56 -446.51 2152.8
-543.20 -443.43 2137.9
-534.15 -440.53 2124.0
-535.82 -446.51 2152.8
-529.37 -445.79 2149.3
-514.12 -437.55 2109.6
-511.01 -439.58 2119.4
-508.53 -442.20 2132.0
-503.28 -442.45 2133.2
-497.81 -442.49 2133.5
-490.34 -440.76 2125.1
-485.75 -441.59 2129.1
-483.72 -444.80 2144.6
-487.37 -453.37 2185.9
-489.98 -461.15 2223.4
-479.04 -456.23 2199.7
-469.25 -452.29 2180.7
-459.96 -448.74 2163.6
-445.72 -440.22 2122.5
-443.02 -443.02 2136.0
-446.35 -452.00 2179.3
-442.86 -454.22 2190.0
-446.98 -464.40 2239.1
-862.22 -462.51 2202.4
-844.43 -455.99 2171.4
-852.94 -463.68 2208.0
-851.79 -466.18 2219.9
-828.57 -456.56 2174.1
-782.97 -434.39 2068.5
-765.03 -436.39 2078.1
-760.93 -437.13 2081.6
-759.16 -439.23 2091.6
-764.98 -445.78 2122.8
-763.05 -447.88 2132.8
-749.26 -442.99 2109.5
-741.43 -441.59 2102.8
-743.04 -445.82 2123.0
-738.75 -446.56 2126.5
-729.01 -443.98 2114.2
-718.36 -440.81 2099.1
-708.42 -438.03 2085.9
-697.59 -434.65 2069.8
-694.30 -435.96 2076.0
-703.95 -445.47 2121.3
-710.01 -452.84 2156.4
-704.94 -453.18 2158.0
-693.51 -449.40 2140.0
-679.46 -443.84 2113.5
-666.13 -438.67 2088.9
-663.26 -440.36 2097.0
-660.64 -442.25 2105.9
-645.16 -435.48 2073.7
-638.50 -434.61 2069.6
-642.76 -441.21 2101.0
-645.44 -446.84 2127.8
-644.60 -450.11 2143.4
-643.12 -452.98 2157.0
-646.57 -459.41 2187.7
-630.31 -451.81 2151.5
-610.94 -441.84 2104.0
-612.12 -446.68 2127.1
-604.85 -445.39 2120.9
-592.55 -440.34 2096.8
-595.42 -446.57 2126.5
-608.11 -460.34 2192.1
-588.62 -462.90 2204.3
-574.00 -455.82 2170.6
-561.27 -450.13 2143.5
-557.28 -451.40 2149.5
-553.99 -453.27 2158.4
-546.55 -451.74 2151.1
-539.62 -450.61 2145.8
-538.39 -454.27 2163.2
-529.35 -451.34 2149.2
-515.26 -444.00 2114.3
-512.82 -446.65 2126.9
-507.37 -446.71 2127.2
-499.21 -444.35 2116.0
-499.56 -449.61 2141.0
-497.59 -452.86 2156.5
-487.91 -449.09 2138.5
-481.11 -447.93 2133.0
-472.21 -444.76 2117.9
-462.54 -440.77 2098.9
-463.17 -446.63 2126.8
-465.10 -453.90 2161.4
-466.25 -460.57 2193.2
-462.41 -462.41 2201.9
-454.34 -460.02 2190.6
-451.44 -462.87 2204.1
-450.60 -467.93 2228.2
-850.79 -465.10 2187.8
-857.50 -471.91 2219.8
-854.56 -473.47 2227.1
-839.37 -468.22 2202.4
-801.01 -449.88 2116.2
-774.79 -438.15 2061.0
-773.85 -440.66 2072.8
-762.62 -437.31 2057.0
-754.18 -435.51 2048.6
-757.89 -440.76 2073.2
-763.49 -447.18 2103.5
-771.94 -455.39 2142.1
-773.27 -459.48 2161.3
-761.38 -455.71 2143.6
-756.09 -455.87 2144.4
-756.29 -459.38 2160.8
-750.95 -459.54 2161.6
-728.98 -449.45 2114.1
-706.91 -439.14 2065.7
-713.76 -446.78 2101.6
-718.24 -453.04 2131.0
-709.83 -451.21 2122.4
-714.73 -457.88 2153.8
-700.48 -452.28 2127.4
-673.87 -438.55 2062.9
-676.26 -443.63 2086.7
-676.74 -447.52 2105.1
-669.68 -446.45 2100.0
-672.70 -452.14 2126.8
-668.83 -453.26 2132.0
-653.00 -446.22 2098.9
-642.82 -442.95 2083.6
-643.02 -446.84 2101.9
-651.10 -456.32 2146.5
-655.29 -463.22 2178.9
-646.45 -460.94 2168.2
-642.09 -461.86 2172.5
-638.82 -463.57 2180.5
-631.13 -462.08 2173.5
-624.83 -461.58 2171.2
-609.40 -454.28 2136.8
-594.39 -447.16 2103.4
-593.81 -450.86 2120.8
-585.81 -448.94 2111.7
-574.22 -444.21 2089.5
-588.97 -459.96 2163.6
-584.29 -465.16 2188.1
-566.96 -455.79 2143.9
-554.79 -450.43 2118.7
-551.35 -452.11 2126.7
-550.31 -455.81 2144.1
-545.32 -456.29 2146.3
-531.95 -449.69 2115.3
-524.41 -447.93 2107.0
-522.76 -451.22 2122.5
-516.40 -450.47 2118.9
-519.23 -457.81 2153.5
-518.25 -461.92 2172.8
-508.41 -458.12 2154.9
-507.55 -462.43 2175.2
-508.35 -468.37 2203.1
-501.82 -467.60 2199.5
-488.84 -460.75 2167.3
-473.25 -451.24 2122.6
-462.94 -446.60 2100.7
-463.15 -452.12 2126.7
-461.37 -455.81 2144.1
-458.69 -458.69 2157.6
-454.93 -460.55 2166.3
-446.56 -457.72 2153.0
-448.46 -465.49 2189.6
-452.89 -476.12 2239.6
-862.13 -477.04 2216.9
-842.26 -469.18 2180.3
-836.96 -469.37 2181.3
-820.12 -463.06 2151.9
-796.48 -452.79 2104.2
-782.36 -447.83 2081.2
-786.51 -453.34 2106.7
-779.30 -452.32 2102.0
-766.35 -447.94 2081.6
-766.62 -451.27 2097.1
-763.80 -452.82 2104.3
-762.93 -455.56 2117.1
-766.63 -461.09 2142.7
-758.06 -459.26 2134.3
-741.71 -452.66 2103.6
-731.01 -449.43 2088.6
-735.80 -455.76 2118.0
-724.48 -452.12 2101.1
-702.45 -441.69 2052.6
-709.01 -449.22 2087.6
-718.52 -458.75 2131.9
-716.33 -460.89 2141.8
-706.37 -458.03 2128.6
-677.77 -442.96 2058.5
-663.55 -440.60 2047.5
-684.21 -457.98 2128.3
-683.89 -465.27 2162.2
-662.35 -454.34 2111.4
-655.01 -453.05 2105.4
-652.03 -454.78 2113.4
-638.41 -449.05 2086.8
-632.30 -448.56 2084.5
-645.94 -462.18 2147.8
-648.09 -467.75 2173.7
-640.39 -466.25 2166.7
-633.27 -465.15 2161.6
-617.44 -457.57 2126.4
-603.40 -451.19 2096.7
-602.92 -454.93 2114.1
-602.89 -459.08 2133.4
-592.99 -455.73 2117.8
-575.84 -446.68 2075.8
-570.30 -446.56 2075.2
-590.74 -466.97 2170.1
-591.09 -471.73 2192.2
-568.85 -458.39 2130.2
-561.92 -457.25 2124.9
-559.73 -459.97 2137.6
-553.05 -459.03 2133.2
-549.06 -460.32 2139.2
-544.32 -461.01 2142.4
-531.68 -454.95 2114.2
-518.00 -447.85 2081.2
-510.09 -445.66 2071.0
-510.81 -451.03 2096.0
-520.57 -464.60 2159.1
-520.71 -469.78 2183.1
-511.97 -466.96 2170.0
-505.07 -465.78 2164.6
-500.83 -467.07 2170.5
-501.13 -472.66 2196.5
-493.98 -471.27 2190.1
-482.17 -465.35 2162.6
-474.92 -463.74 2155.1
-476.24 -470.57 2186.8
-474.93 -474.93 2207.1
-460.08 -465.69 2164.2
-444.24 -455.21 2115.4
-442.36 -458.94 2132.8
-451.18 -474.02 2202.9
-449.37 -478.17 2222.1
-444.20 -478.81 2225.1
-446.77 -487.92 2267.5
-841.87 -474.61 2179.3
-836.21 -474.61 2179.3
-822.88 -470.22 2159.2
-803.04 -462.02 2121.5
-773.02 -447.82 2056.3
-761.47 -444.19 2039.6
-771.10 -452.95 2079.9
-773.77 -457.73 2101.8
-765.58 -456.09 2094.3
-754.41 -452.64 2078.5
-746.63 -451.20 2071.8
-742.50 -451.96 2075.3
-740.65 -454.12 2085.3
-730.28 -451.06 2071.2
-717.71 -446.58 2050.6
-720.34 -451.56 2073.5
-728.29 -459.97 2112.1
-725.26 -461.53 2119.3
-712.76 -457.04 2098.6
-704.41 -455.16 2090.0
-701.69 -456.92 2098.1
-691.53 -453.81 2083.8
-678.98 -449.09 2062.1
-673.52 -449.01 2061.8
-664.74 -446.70 2051.2
-669.49 -453.52 2082.5
-684.50 -467.46 2146.5
-671.45 -462.31 2122.9
-647.96 -449.82 2065.5
-637.24 -446.07 2048.3
-642.19 -453.31 2081.5
-636.66 -453.22 2081.1
-626.02 -449.45 2063.8
-634.63 -459.56 2110.2
-637.14 -465.39 2137.0
-630.92 -464.89 2134.7
-624.70 -464.38 2132.4
-609.49 -457.12 2099.0
-599.04 -453.32 2081.6
-602.35 -459.98 2112.1
-600.72 -462.94 2125.8
-590.32 -459.14 2108.3
-588.11 -461.69 2120.0
-596.73 -472.88 2171.4
-595.07 -476.06 2186.0
-573.47 -463.19 2126.9
-564.52 -460.39 2114.0
-571.14 -470.35 2159.8
-561.92 -467.34 2146.0
-548.84 -461.02 2116.9
-549.03 -465.84 2139.1
-548.62 -470.25 2159.3
-534.28 -462.67 2124.5
-518.68 -453.85 2084.0
-514.98 -455.35 2090.9
-520.04 -464.72 2133.9
-522.83 -472.23 2168.4
-515.46 -470.63 2161.1
-506.09 -467.16 2145.1
-499.03 -465.76 2138.7
-494.42 -466.64 2142.7
-493.69 -471.25 2163.9
-483.83 -467.14 2145.0
-469.36 -458.45 2105.1
-460.36 -454.95 2089.0
-459.55 -459.55 2110.2
-473.45 -479.15 2200.2
-474.29 -485.86 2231.0
-450.85 -467.55 2146.9
-441.53 -463.61 2128.8
-453.69 -482.41 2215.1
-455.34 -490.36 2251.7
-442.82 -483.08 2218.2
-437.85 -483.94 2222.2
-438.82 -491.48 2256.8
-855.99 -485.06 2201.1
-835.47 -476.61 2162.8
-828.10 -475.60 2158.2
-813.42 -470.34 2134.3
-806.47 -469.52 2130.6
-788.51 -462.23 2097.5
-772.06 -455.73 2068.0
-777.20 -461.97 2096.3
-772.39 -462.34 2098.0
-756.81 -456.23 2070.3
-757.05 -459.64 2085.8
-761.20 -465.48 2112.3
-748.41 -460.98 2091.8
-738.00 -457.88 2077.8
-734.16 -458.85 2082.2
-727.71 -458.19 2079.2
-725.13 -459.97 2087.3
-727.29 -464.81 2109.2
-719.84 -463.53 2103.4
-703.28 -456.33 2070.7
-698.13 -456.47 2071.4
-698.55 -460.29 2088.7
-685.02 -454.90 2064.2
-669.77 -448.27 2034.2
-679.27 -458.23 2079.4
-685.53 -466.16 2115.4
-668.26 -458.08 2078.7
-660.67 -456.56 2071.8
-662.85 -461.82 2095.7
-653.50 -459.07 2083.2
-632.86 -448.27 2034.2
-627.73 -448.38 2034.7
-636.63 -458.59 2081.0
-640.20 -465.10 2110.5
-638.82 -468.10 2124.2
-630.67 -466.15 2115.3
-625.06 -466.05 2114.9
-619.72 -466.16 2115.3
-615.19 -466.88 2118.6
-615.78 -471.54 2139.8
-610.63 -471.85 2141.2
-601.22 -468.84 2127.5
-595.03 -468.31 2125.1
-596.44 -473.81 2150.1
-586.84 -470.58 2135.4
-567.28 -459.23 2083.9
-560.70 -458.27 2079.5
-566.50 -467.50 2121.4
-562.35 -468.63 2126.5
-543.80 -457.65 2076.7
-538.99 -458.14 2078.9
-547.53 -470.10 2133.2
-549.55 -476.65 2162.9
-536.87 -470.45 2134.8
-521.25 -461.52 2094.3
-517.99 -463.47 2103.1
-515.84 -466.45 2116.7
-511.33 -467.35 2120.7
-506.34 -467.82 2122.9
-499.55 -466.61 2117.4
-490.78 -463.51 2103.3
-485.37 -463.55 2103.5
-483.44 -466.95 2119.0
-472.60 -461.74 2095.3
-465.93 -460.51 2089.7
-464.33 -464.33 2107.0
-449.74 -455.10 2065.2
-449.55 -460.39 2089.1
-465.30 -482.32 2188.7
-457.85 -480.46 2180.2
-436.74 -464.03 2105.7
-436.39 -469.53 2130.7
-447.35 -487.50 2212.2
-445.27 -491.53 2230.5
-436.29 -487.96 2214.3
-432.62 -490.30 2224.9
-853.10 -489.11 2193.7
-822.36 -474.65 2128.8
-807.01 -468.94 2103.2
-800.47 -468.30 2100.4
-800.88 -471.75 2115.8
-797.77 -473.16 2122.2
-794.63 -474.57 2128.5
-782.61 -470.66 2110.9
-762.21 -461.62 2070.4
-756.77 -461.58 2070.2
-767.37 -471.38 2114.2
-769.79 -476.27 2136.1
-755.63 -470.90 2112.0
-742.22 -465.92 2089.7
-735.43 -465.05 2085.8
-732.53 -466.65 2092.9
-733.12 -470.51 2110.3
-723.75 -467.99 2098.9
-705.23 -459.47 2060.7
-705.45 -463.12 2077.1
-716.84 -474.22 2126.9
-705.03 -470.02 2108.1
-679.75 -456.71 2048.4
-666.37 -451.25 2023.9
-678.02 -462.77 2075.6
-699.97 -481.58 2159.9
-697.87 -484.00 2170.8
-671.93 -469.81 2107.1
-655.74 -462.24 2073.2
-655.51 -465.90 2089.6
-643.58 -461.23 2068.6
-630.30 -455.51 2043.0
-631.16 -460.00 2063.1
-621.42 -456.77 2048.6
-617.22 -461.57 2070.2
-628.62 -474.22 2126.9
-621.60 -473.08 2121.8
-615.97 -472.97 2121.3
-616.01 -477.27 2140.6
-610.59 -477.37 2141.0
-600.65 -473.91 2125.5
-594.20 -473.16 2122.2
-596.66 -479.56 2150.8
-587.83 -476.92 2139.0
-558.26 -457.24 2050.7
-552.09 -460.97 2067.5
-552.32 -465.68 2088.6
-546.00 -464.91 2085.1
-553.18 -475.74 2133.7
-555.51 -482.57 2164.3
-551.43 -483.91 2170.4
-546.13 -484.19 2171.6
-537.27 -481.30 2158.7
-523.33 -473.75 2124.8
-511.41 -467.88 2098.5
-506.03 -467.94 2098.7
-500.19 -467.57 2097.1
-493.68 -466.55 2092.5
-485.64 -464.05 2081.3
-476.11 -460.06 2063.4
-470.36 -459.67 2061.6
-467.63 -462.25 2073.2
-468.88 -468.88 2102.9
-471.45 -476.99 2139.3
-460.32 -471.28 2113.7
-446.23 -462.36 2073.7
-447.79 -469.63 2106.3
-449.98 -477.75 2142.7
-439.09 -472.02 2117.0
-440.08 -479.08 2148.7
-453.70 -500.23 2243.6
-448.86 -501.32 2248.5
-436.82 -494.30 2216.9
-439.10 -503.51 2258.3
-833.60 -486.73 2157.9
-811.87 -477.25 2115.9
-801.13 -474.14 2102.1
-804.65 -479.48 2125.8
-804.61 -482.77 2140.4
-791.50 -478.20 2120.1
-771.00 -469.07 2079.6
-759.80 -465.51 2063.9
-763.79 -471.28 2089.4
-761.32 -473.10 2097.5
-750.84 -469.95 2083.5
-739.44 -466.17 2066.8
-727.78 -462.17 2049.0
-730.51 -467.31 2071.8
-736.37 -474.55 2103.9
-731.80 -475.12 2106.5
-717.01 -469.02 2079.4
-703.93 -463.95 2056.9
-710.13 -471.61 2090.9
-710.24 -475.31 2107.3
-687.62 -463.75 2056.0
-678.80 -461.37 2045.5
-681.33 -466.74 2069.3
-679.19 -468.97 2079.2
-686.65 -477.91 2118.8
-688.24 -482.88 2140.8
-665.95 -471.04 2088.3
-648.33 -462.33 2049.8
-645.52 -464.14 2057.7
-651.67 -472.46 2094.7
-655.92 -479.54 2126.0
-645.43 -475.86 2109.7
-624.51 -464.38 2058.8
-616.63 -466.49 2068.2
-622.21 -474.84 2105.2
-610.02 -469.66 2082.2
-606.66 -471.24 2089.3
-608.66 -477.06 2115.1
-607.60 -480.55 2130.5
-601.93 -480.44 2130.0
-600.49 -483.72 2144.6
-608.37 -494.65 2193.0
-600.73 -493.06 2186.0
-571.57 -473.59 2099.7
-552.31 -466.51 2068.3
-551.78 -470.63 2086.6
-545.96 -470.28 2085.0
-552.16 -480.38 2129.8
-553.52 -486.43 2156.6
-554.03 -491.84 2180.6
-553.23 -496.19 2199.9
-538.17 -487.72 2162.3
-518.85 -475.16 2106.6
-516.23 -477.79 2118.3
-520.18 -486.62 2157.4
-507.86 -480.25 2129.2
-494.99 -473.23 2098.1
-490.26 -473.92 2101.1
-483.76 -472.89 2096.6
-482.93 -477.44 2116.7
-485.22 -485.22 2151.2
-473.09 -478.59 2121.8
-461.95 -472.82 2096.2
-465.90 -482.53 2139.3
-466.95 -489.46 2170.0
-453.03 -480.66 2131.0
-439.10 -471.63 2091.0
-436.87 -475.10 2106.3
-447.10 -492.37 2182.9
-843.77 -498.33 2184.3
-808.67 -480.83 2107.5
-797.60 -477.48 2092.8
-801.83 -483.29 2118.3
-797.33 -483.90 2121.0
-780.51 -476.98 2090.7
-772.32 -475.27 2083.2
-772.94 -479.01 2099.5
-768.11 -479.39 2101.2
-757.27 -476.00 2086.4
-745.16 -471.76 2067.8
-731.82 -466.67 2045.5
-722.84 -464.30 2035.1
-727.87 -470.98 2064.3
-733.41 -478.08 2095.5
-728.54 -478.45 2097.1
-717.92 -475.02 2082.1
-708.95 -472.64 2071.6
-709.46 -476.58 2088.9
-703.32 -476.10 2086.8
-694.72 -473.91 2077.2
-699.69 -481.04 2108.4
-695.04 -481.61 2110.9
-685.83 -478.99 2099.5
-686.30 -483.16 2117.7
-679.81 -482.45 2114.6
-674.22 -482.37 2114.3
-672.75 -485.26 2127.0
-664.79 -483.48 2119.2
-666.14 -488.51 2141.2
-665.38 -492.04 2156.7
-649.38 -484.28 2122.7
-636.38 -478.65 2098.0
-628.28 -476.63 2089.1
-620.22 -474.60 2080.2
-610.53 -471.29 2065.7
-597.27 -473.51 2075.5
-600.05 -480.04 2104.1
-607.73 -490.64 2150.6
-596.54 -495.24 2170.7
-573.33 -480.50 2106.1
-556.02 -470.48 2062.2
-549.00 -469.05 2055.9
-538.00 -468.76 2054.6
-548.68 -482.84 2116.3
-543.76 -483.35 2118.6
-538.35 -483.42 2118.9
-541.27 -491.05 2152.3
-530.34 -486.14 2130.8
-519.05 -480.80 2107.4
-524.05 -490.60 2150.3
-523.57 -495.42 2171.5
-507.13 -485.08 2126.2
-495.17 -478.85 2098.9
-491.11 -480.20 2104.8
-488.99 -483.50 2119.2
-492.88 -492.88 2160.3
-472.42 -489.09 2143.7
-465.85 -488.04 2139.1
-461.36 -489.16 2144.0
-442.23 -474.59 2080.2
-433.25 -470.69 2063.1
-436.44 -480.08 2104.2
-439.42 -489.48 2145.4
-442.96 -499.75 2190.5
-442.46 -505.67 2216.4
-442.77 -512.68 2247.1
-856.45 -504.79 2187.7
-857.16 -508.58 2204.1
-829.96 -495.75 2148.5
-808.27 -486.05 2106.5
-808.69 -489.62 2121.9
-808.70 -492.97 2136.5
-800.38 -491.27 2129.1
-785.59 -485.54 2104.3
-779.41 -485.09 2102.3
-773.23 -484.63 2100.3
-761.69 -480.78 2083.6
-760.22 -483.28 2094.5
-757.05 -484.73 2100.7
-739.03 -476.62 2065.6
-725.09 -471.04 2041.4
-730.75 -478.21 2072.5
-736.59 -485.61 2104.6
-735.55 -488.54 2117.2
-729.34 -488.06 2115.2
-711.12 -479.47 2078.0
-701.56 -476.63 2065.7
-696.10 -476.56 2065.4
-688.47 -474.99 2058.6
-690.10 -479.84 2079.6
-682.16 -478.05 2071.8
-674.56 -476.47 2065.0
-676.92 -481.97 2088.8
-682.15 -489.61 2121.9
-688.41 -498.12 2158.8
-680.65 -496.54 2151.9
-666.49 -490.23 2124.6
-665.22 -493.37 2138.2
-662.44 -495.44 2147.2
-644.76 -486.30 2107.6
-630.38 -479.52 2078.2
-635.27 -487.40 2112.3
-640.26 -495.51 2147.5
-619.07 -483.31 2094.6
-601.28 -482.11 2089.4
-599.47 -485.02 2102.0
-603.43 -492.71 2135.3
-607.75 -500.83 2170.5
-595.47 -495.29 2146.5
-586.65 -492.57 2134.7
-573.79 -486.36 2107.8
-561.06 -480.14 2080.9
-558.78 -482.83 2092.5
-553.19 -482.69 2091.9
-556.76 -490.61 2126.2
-560.64 -498.97 2162.5
-548.81 -493.38 2138.2
-533.50 -484.50 2099.8
-526.22 -482.82 2092.5
-523.22 -485.07 2102.2
-520.17 -487.32 2112.0
-530.24 -502.03 2175.7
-513.88 -497.12 2154.5
-497.82 -486.88 2110.1
-494.62 -489.12 2119.8
-492.90 -492.90 2136.1
-489.57 -495.14 2145.9
-490.92 -502.21 2176.5
-492.75 -509.94 2210.0
-478.88 -501.41 2173.1
-462.07 -489.58 2121.8
-447.78 -480.14 2080.9
-439.97 -477.53 2069.5
-442.64 -486.35 2107.8
-438.97 -488.36 2116.5
-434.48 -489.48 2121.3
-436.34 -497.88 2157.7
-433.82 -501.42 2173.1
-428.76 -502.10 2176.0
-429.83 -510.07 2210.6
-818.48 -491.09 2104.7
-805.96 -486.82 2086.4
-796.66 -484.46 2076.2
-800.63 -490.18 2100.8
-803.10 -495.06 2121.7
-790.69 -490.77 2103.3
-772.89 -483.06 2070.3
-779.01 -490.29 2101.2
-784.65 -497.31 2131.3
-771.36 -492.36 2110.1
-768.17 -493.82 2116.4
-763.62 -494.43 2119.0
-743.91 -485.16 2079.3
-735.83 -483.39 2071.7
-747.59 -494.73 2120.3
-738.48 -492.32 2109.9
-721.71 -484.73 2077.4
-716.87 -485.10 2079.0
-700.01 -477.28 2045.5
-692.72 -475.91 2039.6
-689.19 -477.13 2044.9
-681.62 -475.55 2038.1
-683.91 -480.87 2060.9
-684.25 -484.90 2078.2
-685.73 -489.81 2099.2
-672.35 -484.09 2074.7
-661.48 -480.11 2057.6
-670.85 -490.87 2103.7
-665.87 -491.22 2105.2
-655.04 -487.22 2088.1
-657.04 -492.78 2111.9
-661.81 -500.53 2145.1
-652.42 -497.61 2132.6
-636.57 -489.67 2098.6
-639.15 -495.89 2125.2
-643.27 -503.43 2157.5
-621.23 -490.45 2101.9
-606.87 -483.35 2071.5
-616.05 -495.04 2121.6
-614.19 -497.99 2134.2
-602.36 -492.84 2112.2
-608.95 -502.80 2154.9
-595.15 -500.59 2145.4
-579.10 -491.69 2107.2
-576.82 -494.42 2118.9
-575.24 -497.80 2133.4
-572.32 -500.09 2143.2
-566.36 -499.73 2141.7
-560.41 -499.38 2140.2
-554.71 -499.24 2139.6
-546.09 -496.45 2127.6
-533.69 -490.12 2100.5
-522.13 -484.45 2076.2
-514.46 -482.30 2067.0
-507.06 -480.37 2058.7
-512.63 -490.82 2103.5
-528.72 -511.67 2192.9
-519.48 -508.19 2178.0
-501.13 -495.63 2124.1
-495.23 -495.23 2122.4
-491.97 -497.50 2132.1
-487.57 -498.65 2137.1
-478.21 -494.70 2120.1
-468.93 -490.74 2103.2
-467.08 -494.55 2119.5
-462.24 -495.25 2122.5
-447.94 -485.72 2081.7
-439.73 -482.63 2068.4
-447.40 -497.11 2130.5
-449.03 -505.16 2165.0
-433.26 -493.59 2115.4
-423.35 -488.48 2093.5
-429.19 -501.65 2149.9
-432.86 -512.60 2196.8
-434.06 -520.87 2232.3
-847.45 -514.12 2179.2
-819.98 -500.79 2122.7
-797.66 -490.45 2078.8
-790.84 -489.57 2075.1
-786.10 -489.97 2076.8
-768.64 -482.39 2044.7
-766.35 -484.29 2052.7
-786.76 -500.67 2122.1
-789.31 -505.82 2144.0
-773.32 -499.09 2115.5
-761.78 -495.16 2098.8
-749.65 -490.78 2080.2
-743.53 -490.30 2078.2
-750.16 -498.28 2112.0
-752.72 -503.66 2134.8
-734.22 -494.92 2097.8
-723.58 -491.39 2082.8
-725.41 -496.33 2103.8
-701.86 -483.86 2050.9
-688.28 -478.12 2026.6
-692.26 -484.58 2054.0
-692.40 -488.44 2070.3
-697.38 -495.79 2101.5
-700.38 -501.84 2127.1
-692.04 -499.80 2118.5
-668.69 -486.81 2063.4
-659.34 -483.87 2051.0
-669.91 -495.62 2100.8
-665.82 -496.63 2105.0
-655.86 -493.25 2090.7
-656.99 -498.21 2111.7
-661.74 -506.04 2144.9
-650.93 -501.99 2127.7
-633.12 -492.42 2087.2
-633.75 -497.17 2107.3
-634.85 -502.36 2129.3
-623.94 -498.06 2111.1
-620.25 -499.50 2117.2
-618.71 -502.70 2130.8
-605.77 -496.62 2105.0
-598.03 -494.73 2097.0
-608.89 -508.34 2154.6
-591.70 -503.22 2133.0
-573.11 -492.01 2085.4
-568.31 -492.54 2087.7
-565.53 -494.84 2097.4
-562.20 -496.70 2105.3
-563.57 -502.79 2131.1
-564.55 -508.66 2156.0
-552.20 -502.51 2129.9
-537.56 -494.12 2094.4
-528.84 -491.07 2081.4
-520.42 -488.23 2069.4
-520.30 -493.20 2090.5
-520.30 -498.40 2112.5
-505.89 -489.74 2075.8
-502.39 -491.58 2083.6
-508.80 -503.27 2133.2
-505.78 -505.78 2143.8
-497.40 -502.93 2131.7
-491.92 -502.97 2131.9
-486.87 -503.47 2134.0
-476.88 -498.80 2114.2
-472.07 -499.51 2117.2
-474.37 -507.85 2152.6
-471.10 -510.36 2163.2
-458.56 -502.76 2131.0
-441.51 -489.97 2076.8
-439.75 -494.04 2094.0
-445.81 -507.11 2149.4
-434.20 -500.15 2119.9
-425.24 -496.11 2102.8
-432.38 -511.00 2165.9
-439.59 -526.35 2231.0
-822.73 -507.99 2129.8
-801.80 -498.42 2089.6
-787.65 -492.95 2066.7
-777.06 -489.66 2052.9
-767.56 -487.00 2041.8
-772.10 -493.29 2068.1
-776.52 -499.58 2094.5
-764.63 -495.39 2077.0
-762.20 -497.32 2085.0
-764.05 -502.09 2105.0
-755.88 -500.30 2097.5
-754.32 -502.88 2108.3
-742.26 -498.45 2089.8
-727.35 -492.03 2062.9
-728.68 -496.59 2082.0
-738.25 -506.86 2125.0
-730.75 -505.48 2119.3
-699.28 -487.38 2043.3
-685.41 -481.35 2018.1
-689.41 -487.89 2045.5
-687.71 -490.46 2056.3
-690.87 -496.56 2081.9
-695.43 -503.78 2112.1
-689.55 -503.48 2110.9
-679.46 -500.08 2096.6
-683.17 -506.87 2125.1
-682.29 -510.33 2139.6
-666.64 -502.71 2107.6
-660.48 -502.18 2105.4
-666.48 -510.97 2142.3
-667.71 -516.22 2164.3
-654.00 -509.90 2137.8
-638.72 -502.24 2105.7
-641.27 -508.60 2132.3
-638.68 -510.95 2142.2
-624.16 -503.71 2111.8
-614.71 -500.47 2098.3
-606.41 -498.13 2088.4
-602.20 -499.12 2092.6
-603.32 -504.59 2115.5
-592.65 -500.22 2097.2
-577.34 -491.81 2061.9
-572.36 -492.12 2063.3
-569.95 -494.68 2074.0
-573.63 -502.61 2107.2
-578.67 -511.90 2146.2
-564.91 -504.58 2115.5
-556.03 -501.52 2102.6
-566.47 -515.99 2163.3
-563.15 -518.10 2172.2
-546.47 -507.83 2129.1
-535.51 -502.72 2107.7
-529.88 -502.56 2107.0
-532.72 -510.52 2140.4
-534.46 -517.58 2170.0
-522.68 -511.56 2144.7
-510.10 -504.62 2115.6
-508.52 -508.52 2132.0
-507.07 -512.64 2149.3
-500.22 -511.34 2143.8
-490.55 -507.09 2126.0
-481.62 -503.51 2111.0
-483.25 -511.03 2142.5
-491.09 -525.35 2202.6
-481.00 -526.81 2208.7
-471.21 -522.30 2189.8
-457.26 -513.02 2150.9
-442.50 -502.60 2107.2
-434.68 -499.89 2095.8
-436.88 -508.78 2133.1
-443.14 -522.68 2191.4
-443.01 -529.30 2219.1
-441.41 -534.34 2240.2
-436.55 -535.50 2245.1
-830.32 -514.80 2135.1
-803.32 -501.40 2079.5
-797.19 -500.94 2077.6
-794.54 -502.67 2084.8
-785.29 -500.22 2074.6
-776.77 -498.21 2066.3
-775.80 -501.03 2078.0
-775.10 -504.08 2090.7
-758.16 -496.54 2059.4
-750.75 -495.17 2053.7
-759.66 -504.63 2092.9
-759.78 -508.35 2108.3
-765.75 -516.05 2140.3
-760.80 -516.45 2142.0
-732.48 -500.89 2077.4
-721.21 -496.84 2060.6
-731.14 -507.43 2104.6
-724.65 -506.71 2101.6
-692.60 -487.96 2023.8
-696.51 -498.28 2066.6
-709.60 -511.57 2121.7
-699.71 -508.38 2108.5
-691.40 -506.30 2099.9
-698.56 -515.61 2138.5
-701.03 -521.57 2163.2
-692.35 -519.26 2153.6
-678.67 -513.14 2128.2
-668.34 -509.47 2113.0
-667.41 -512.97 2127.5
-662.94 -513.78 2130.9
-654.14 -511.22 2120.3
-651.09 -513.14 2128.2
-645.73 -513.27 2128.8
-640.65 -513.62 2130.2
-630.82 -510.14 2115.8
-617.19 -503.50 2088.2
-608.90 -501.13 2078.4
-603.91 -501.46 2079.8
-602.68 -504.95 2094.3
-602.45 -509.35 2112.5
-590.21 -503.57 2088.6
-578.87 -498.47 2067.4
-578.30 -502.63 2084.7
-573.51 -503.18 2086.9
-574.34 -508.70 2109.8
-583.93 -522.17 2165.7
-574.65 -518.86 2152.0
-557.97 -508.74 2110.0
-560.48 -516.08 2140.4
-569.68 -529.80 2197.3
-555.59 -527.25 2186.7
-551.43 -528.69 2192.7
-539.01 -522.16 2165.7
-527.18 -516.08 2140.4
-526.77 -521.16 2161.5
-526.02 -526.02 2181.7
-511.62 -517.18 2145.0
-498.07 -509.01 2111.1
-494.63 -511.12 2119.9
-488.09 -510.03 2115.3
-475.50 -502.52 2084.2
-474.20 -506.91 2102.4
-482.13 -521.37 2162.4
-479.91 -525.08 2177.8
-477.20 -528.33 2191.2
-472.79 -529.75 2197.1
-466.31 -528.87 2193.5
-459.86 -527.98 2189.8
-442.54 -514.46 2133.7
-434.29 -511.26 2120.4
-443.08 -528.29 2191.1
-445.61 -538.21 2232.2
-438.15 -536.16 2223.7
-426.46 -528.80 2193.2
-428.30 -538.26 2232.4
-814.85 -514.07 2109.4
-806.91 -512.49 2102.9
-797.95 -510.25 2093.7
-783.50 -504.45 2069.9
-773.28 -501.30 2057.0
-770.61 -503.04 2064.1
-777.74 -511.24 2097.8
-768.54 -508.75 2087.6
-748.68 -499.12 2048.1
-745.29 -500.41 2053.3
-750.13 -507.28 2081.6
-760.42 -517.97 2125.4
-751.58 -515.69 2116.0
-720.43 -497.94 2043.2
-717.61 -499.67 2050.3
-735.87 -516.21 2118.2
-738.87 -522.21 2142.8
-715.26 -509.35 2090.0
-685.93 -492.19 2019.6
-690.23 -499.09 2047.9
-706.75 -515.00 2113.2
-700.26 -514.25 2110.1
-694.69 -514.18 2109.8
-703.94 -525.16 2154.9
-701.86 -527.80 2165.7
-688.40 -521.85 2141.3
-678.30 -518.38 2127.1
-670.62 -516.71 2120.2
-659.76 -512.54 2103.1
-645.22 -505.42 2073.9
-641.44 -506.68 2079.1
-643.32 -512.48 2102.9
-639.44 -513.74 2108.0
-635.53 -515.00 2113.2
-635.48 -519.44 2131.4
-632.86 -521.83 2141.3
-616.78 -513.07 2105.3
-604.12 -507.03 2080.5
-596.70 -505.31 2073.5
-589.84 -504.04 2068.3
-589.88 -508.71 2087.4
-589.57 -513.15 2105.6
-575.38 -505.47 2074.1
-557.72 -494.58 2029.4
-560.73 -501.98 2059.8
-572.46 -517.41 2123.1
-577.85 -527.36 2163.9
-576.07 -530.89 2178.4
-558.44 -519.74 2132.7
-546.89 -514.08 2109.4
-543.68 -516.22 2118.2
-537.55 -515.61 2115.7
-540.44 -523.73 2149.0
-535.42 -524.26 2151.2
-520.37 -514.89 2112.8
-517.03 -517.03 2121.5
-522.08 -527.69 2165.3
-512.91 -524.06 2150.4
-495.78 -512.12 2101.4
-489.05 -510.78 2095.9
-488.47 -515.91 2117.0
-481.51 -514.34 2110.5
-472.44 -510.45 2094.5
-472.75 -516.73 2120.3
-464.36 -513.53 2107.2
-454.58 -508.69 2087.3
-461.88 -523.09 2146.4
-468.48 -537.03 2203.6
-462.99 -537.30 2204.7
-446.83 -525.03 2154.4
-433.07 -515.30 2114.4
-435.31 -524.61 2152.6
-440.79 -538.10 2208.0
-436.77 -540.22 2216.7
-432.15 -541.63 2222.5
-835.81 -529.35 2149.2
-817.58 -521.28 2116.5
-797.40 -511.85 2078.2
-778.09 -502.85 2041.6
-769.63 -500.79 2033.3
-765.67 -501.65 2036.8
-762.37 -502.95 2042.1
-768.52 -510.56 2072.9
-775.54 -518.85 2106.6
-771.69 -519.94 2111.0
-754.86 -512.23 2079.7
-746.10 -509.92 2070.4
-751.48 -517.32 2100.4
-738.14 -511.85 2078.2
-716.80 -500.71 2032.9
-724.30 -509.70 2069.4
-737.39 -522.78 2122.5
-734.98 -524.99 2131.5
-718.02 -516.76 2098.1
-694.64 -503.75 2045.3
-684.57 -500.26 2031.1
-686.60 -505.64 2053.0
-681.47 -505.78 2053.5
-676.65 -506.15 2055.1
-685.11 -516.55 2097.3
-682.56 -518.75 2106.2
-685.64 -525.29 2132.7
-676.13 -526.49 2137.6
-657.36 -516.11 2095.5
-646.02 -511.43 2076.5
-645.39 -515.23 2091.9
-649.52 -522.92 2123.1
-648.41 -526.49 2137.6
-643.31 -526.84 2139.1
-642.36 -530.65 2154.5
-626.72 -522.27 2120.5
-598.11 -502.83 2041.6
-587.51 -498.33 2023.3
-581.83 -497.97 2021.8
-578.84 -499.90 2029.7
-582.15 -507.37 2060.0
-582.95 -512.78 2082.0
-570.37 -506.41 2056.1
-558.69 -500.72 2033.0
-567.57 -513.51 2084.9
-574.16 -524.48 2129.4
-573.76 -529.20 2148.6
-576.49 -536.93 2180.0
-562.56 -529.14 2148.4
-542.43 -515.31 2092.2
-529.59 -508.19 2063.3
-518.56 -502.69 2041.0
-517.84 -507.16 2059.2
-520.78 -515.36 2092.4
-513.79 -513.79 2086.1
-506.83 -512.22 2079.7
-507.42 -518.33 2104.5
-504.05 -520.48 2113.2
-491.92 -513.54 2085.1
-490.32 -517.56 2101.4
-495.19 -528.57 2146.1
-493.34 -532.59 2162.4
-488.85 -533.80 2167.3
-480.10 -530.34 2153.3
-462.84 -517.29 2100.3
-449.35 -508.19 2063.3
-453.02 -518.52 2105.3
-447.99 -519.01 2107.3
-431.56 -506.15 2055.0
-429.60 -510.15 2071.3
-431.26 -518.60 2105.6
-434.29 -528.94 2147.6
-440.34 -543.28 2205.8
-442.34 -552.93 2245.0
-815.04 -525.13 2109.9
-787.56 -510.85 2052.5
-783.23 -511.49 2055.1
-787.84 -518.03 2081.4
-781.37 -517.32 2078.5
-775.93 -517.28 2078.4
-771.16 -517.70 2080.0
-767.39 -518.80 2084.4
-754.90 -513.97 2065.1
-730.54 -500.94 2012.7
-727.21 -502.25 2018.0
-736.97 -512.68 2059.9
-741.33 -519.47 2087.2
-737.78 -520.79 2092.4
-724.88 -515.47 2071.1
-717.50 -514.03 2065.3
-725.38 -523.58 2103.7
-718.26 -522.37 2098.8
-700.84 -513.59 2063.5
-696.63 -514.43 2066.9
-693.63 -516.19 2074.0
-683.25 -512.43 2058.9
-669.88 -506.37 2034.5
-669.62 -510.19 2049.9
-665.69 -511.25 2054.1
-667.09 -516.46 2075.1
-674.30 -526.29 2114.5
-659.91 -519.27 2086.4
-647.39 -513.63 2063.7
-642.20 -513.76 2064.2
-636.14 -513.19 2061.9
-635.21 -516.78 2076.4
-636.47 -522.23 2098.3
-633.98 -524.67 2108.1
-632.00 -527.58 2119.7
-615.62 -518.42 2082.9
-598.32 -508.31 2042.3
-598.84 -513.29 2062.3
-595.49 -515.02 2069.3
-594.25 -518.62 2083.7
-595.04 -524.07 2105.7
-592.84 -526.97 2117.3
-579.93 -520.31 2090.5
-568.43 -514.80 2068.4
-569.04 -520.26 2090.3
-566.75 -523.15 2102.0
-558.13 -520.20 2090.1
-552.80 -520.28 2090.4
-555.35 -527.85 2120.8
-550.91 -528.87 2124.9
-540.16 -523.80 2104.5
-530.24 -519.41 2086.9
-521.10 -515.73 2072.1
-516.26 -516.26 2074.3
-518.61 -524.07 2105.6
-521.04 -532.13 2138.0
-512.37 -528.90 2125.0
-499.25 -520.95 2093.1
-492.53 -519.59 2087.7
-496.22 -529.30 2126.6
-492.06 -530.76 2132.5
-480.52 -524.21 2106.2
-484.08 -534.16 2146.2
-483.84 -540.10 2170.1
-475.12 -536.60 2156.0
-470.59 -537.82 2160.9
-451.94 -522.73 2100.2
-425.40 -510.48 2051.0
-426.92 -518.78 2084.4
-429.80 -528.99 2125.4
-438.94 -547.26 2198.8
-443.96 -560.80 2253.2
-826.53 -538.08 2139.6
-791.67 -518.87 2063.2
-780.03 -514.72 2046.7
-785.35 -521.77 2074.8
-780.26 -521.97 2075.6
-770.40 -518.95 2063.6
-761.27 -516.38 2053.4
-758.23 -517.94 2059.6
-746.80 -513.76 2042.9
-723.51 -504.90 2007.7
-731.33 -514.05 2044.1
-733.76 -519.52 2065.8
-729.61 -520.38 2069.3
-714.84 -513.62 2042.4
-703.70 -509.39 2025.6
-708.17 -516.49 2053.8
-716.61 -526.60 2094.0
-714.84 -529.31 2104.8
-712.09 -531.33 2112.8
-710.84 -534.51 2125.4
-702.78 -532.58 2117.8
-692.33 -528.78 2102.7
-685.26 -527.54 2097.7
-674.02 -523.04 2079.8
-659.58 -515.96 2051.7
-650.88 -513.30 2041.1
-648.98 -515.99 2051.8
-649.06 -520.32 2069.0
-650.21 -525.59 2090.0
-650.40 -530.16 2108.1
-644.81 -530.06 2107.7
-642.04 -532.29 2116.6
-624.95 -522.58 2078.0
-609.14 -513.80 2043.1
-615.82 -523.99 2083.6
-622.03 -533.96 2123.2
-615.03 -532.66 2118.1
-603.22 -527.14 2096.1
-604.57 -533.12 2119.9
-608.18 -541.23 2152.2
-597.75 -536.87 2134.8
-576.74 -522.84 2079.0
-565.53 -517.51 2057.9
-566.67 -523.49 2081.6
-567.94 -529.72 2106.4
-563.08 -530.28 2108.6
-556.46 -529.18 2104.3
-557.98 -535.88 2130.9
-547.67 -531.24 2112.4
-530.92 -520.19 2068.5
-529.93 -524.52 2085.7
-529.09 -529.09 2103.9
-525.58 -531.06 2111.7
-529.23 -540.37 2148.8
-524.42 -541.15 2151.9
-508.43 -530.30 2108.7
-505.49 -532.97 2119.3
-508.75 -542.29 2156.4
-503.43 -542.59 2157.6
-490.68 -534.79 2126.6
-474.41 -522.93 2079.4
-472.47 -526.78 2094.7
-474.05 -534.68 2126.1
-467.73 -533.77 2122.5
-465.36 -537.38 2136.9
-448.61 -524.28 2084.8
-433.13 -512.36 2037.4
-437.64 -524.09 2084.0
-436.19 -528.89 2103.1
-427.44 -524.84 2087.0
-434.94 -540.88 2150.8
-437.32 -565.61 2249.1
-828.83 -541.50 2131.3
-813.46 -535.03 2105.8
-790.55 -523.47 2060.3
-771.29 -514.20 2023.8
-769.08 -516.23 2031.8
-762.04 -515.03 2027.1
-750.59 -510.82 2010.5
-753.41 -516.32 2032.2
-760.84 -525.09 2066.7
-750.07 -521.32 2051.9
-730.07 -511.05 2011.4
-724.44 -510.75 2010.3
-727.32 -516.50 2032.9
-728.80 -521.33 2051.9
-722.74 -520.80 2049.8
-717.66 -520.96 2050.4
-716.71 -524.16 2063.0
-710.32 -523.39 2060.0
-707.40 -525.19 2067.1
-707.88 -529.56 2084.3
-707.03 -533.00 2097.8
-704.89 -535.50 2107.6
-696.57 -533.31 2099.0
-684.64 -528.31 2079.3
-675.22 -525.17 2067.0
-673.64 -528.13 2078.7
-668.73 -528.51 2080.1
-656.13 -522.77 2057.5
-650.37 -522.43 2056.2
-649.86 -526.33 2071.6
-650.71 -531.42 2091.6
-657.77 -541.69 2132.0
-659.51 -547.73 2155.8
-653.24 -547.16 2153.5
-633.55 -535.24 2106.6
-606.85 -517.14 2035.4
-603.08 -518.44 2040.5
-610.75 -529.68 2084.7
-604.93 -529.31 2083.3
-599.38 -529.19 2082.8
-606.36 -540.21 2126.2
-598.59 -538.18 2118.2
-576.71 -523.32 2059.7
-574.85 -526.50 2072.2
-582.96 -538.97 2121.3
-576.29 -537.87 2117.0
-569.13 -536.30 2110.8
-572.53 -544.73 2144.0
-574.51 -551.98 2172.5
-567.25 -550.40 2166.3
-547.35 -536.40 2111.2
-530.85 -525.49 2068.3
-529.86 -529.86 2085.5
-526.89 -532.32 2095.1
-521.06 -531.91 2093.5
-519.40 -535.81 2108.9
-509.63 -531.32 2091.2
-501.08 -528.02 2078.2
-505.20 -538.15 2118.1
-503.55 -542.28 2134.3
-493.87 -537.77 2116.6
-488.21 -537.58 2115.9
-478.23 -532.58 2096.2
-467.28 -526.36 2071.7
-459.62 -523.75 2061.4
-456.39 -526.19 2071.0
-456.83 -532.96 2097.7
-444.67 -525.04 2066.5
-433.08 -517.58 2037.1
-439.77 -532.07 2094.2
-440.86 -540.06 2125.6
-431.86 -535.73 2108.6
-438.33 -550.73 2167.6
-445.26 -566.70 2230.5
-434.25 -559.95 2203.9
-435.58 -569.16 2240.1
-827.18 -542.32 2112.9
-812.51 -536.26 2089.3
-813.02 -540.20 2104.7
-792.90 -530.39 2066.4
-776.41 -522.89 2037.2
-765.56 -519.11 2022.5
-751.01 -512.76 1997.8
-745.75 -512.71 1997.6
-753.34 -521.54 2032.0
-763.78 -532.49 2074.6
-755.00 -530.10 2065.3
-730.00 -516.21 2011.2
-724.95 -520.08 2026.3
-728.39 -526.36 2050.7
-715.55 -520.88 2029.4
-704.09 -516.33 2011.7
-711.85 -525.92 2049.0
-714.04 -531.50 2070.8
-713.61 -535.21 2085.2
-715.92 -541.04 2107.9
-699.19 -532.46 2074.5
-680.76 -522.45 2035.5
-679.35 -525.43 2047.1
-673.93 -525.34 2046.8
-668.20 -525.01 2045.5
-670.26 -530.85 2068.2
-672.51 -536.92 2091.9
-668.15 -537.78 2095.2
-649.42 -526.99 2053.2
-636.12 -520.46 2027.8
-634.18 -523.20 2038.4
-637.92 -530.71 2067.7
-642.94 -539.42 2101.6
-640.46 -541.93 2111.4
-633.18 -540.39 2105.4
-618.71 -532.63 2075.2
-610.16 -529.88 2064.5
-613.40 -537.41 2093.8
-609.46 -538.72 2098.9
-606.02 -540.50 2105.9
-601.21 -541.09 2108.2
-581.61 -528.25 2058.1
-573.24 -525.47 2047.3
-584.90 -541.17 2108.4
-585.20 -546.55 2129.4
-571.11 -538.48 2098.0
-568.30 -540.98 2107.7
-575.95 -553.58 2156.8
-566.43 -555.21 2163.2
-553.36 -547.83 2134.4
-543.09 -543.09 2115.9
-536.48 -541.96 2111.5
-528.24 -539.13 2100.5
-518.64 -534.85 2083.8
-513.53 -535.15 2085.0
-506.11 -533.03 2076.8
-499.87 -532.12 2073.2
-499.50 -537.50 2094.2
-493.67 -537.07 2092.5
-482.12 -530.33 2066.2
-473.75 -526.98 2053.2
-472.34 -531.38 2070.3
-469.35 -534.09 2080.9
-464.83 -535.10 2084.8
-464.88 -541.45 2109.6
-459.24 -541.24 2108.7
-440.74 -525.70 2048.2
-435.72 -532.55 2074.9
-434.69 -537.93 2095.8
-423.82 -531.12 2069.3
-429.81 -545.52 2125.4
-435.32 -559.69 2180.6
-428.55 -558.24 2175.0
-435.14 -574.38 2237.8
-845.76 -556.42 2146.2
-809.01 -535.77 2066.5
-804.67 -536.45 2069.2
-815.03 -547.00 2109.8
-803.26 -542.74 2093.4
-783.60 -533.06 2056.1
-770.30 -527.60 2035.0
-757.09 -522.13 2013.9
-753.16 -523.03 2017.4
-757.98 -530.06 2044.5
-765.03 -538.75 2078.1
-773.26 -548.41 2115.3
-763.74 -545.53 2104.2
-740.76 -532.92 2055.5
-735.35 -532.86 2055.3
-743.26 -542.53 2092.6
-735.18 -540.57 2085.1
-716.21 -530.53 2046.3
-717.18 -535.21 2064.4
-725.98 -545.85 2105.4
-732.39 -554.84 2140.1
-723.01 -551.92 2128.8
-694.76 -534.43 2061.4
-678.22 -525.75 2027.9
-679.27 -530.68 2046.9
-676.88 -532.98 2055.8
-674.15 -535.04 2063.7
-675.57 -540.45 2084.6
-677.18 -546.11 2106.4
-676.62 -550.10 2121.8
-662.51 -543.04 2094.6
-640.69 -529.50 2042.3
-630.94 -525.78 2028.0
-636.41 -534.80 2062.8
-643.71 -545.51 2104.1
-631.36 -539.62 2081.4
-614.09 -529.39 2041.9
-610.31 -530.71 2047.0
-612.84 -537.58 2073.5
-613.32 -542.76 2093.5
-606.94 -541.91 2090.2
-598.96 -539.60 2081.3
-589.16 -535.60 2065.9
-582.86 -534.73 2062.5
-587.03 -543.55 2096.5
-586.37 -548.01 2113.8
-574.83 -542.29 2091.7
-567.72 -540.69 2085.5
-571.75 -549.76 2120.5
-566.60 -550.10 2121.8
-554.00 -543.14 2095.0
-561.67 -556.11 2145.0
-553.86 -559.45 2157.9
-545.48 -556.61 2146.9
-530.76 -547.18 2110.5
-515.05 -536.51 2069.4
-513.69 -540.73 2085.7
-509.72 -542.25 2091.5
-500.71 -538.40 2076.7
-497.18 -540.41 2084.4
-499.61 -549.02 2117.7
-495.27 -550.30 2122.6
-478.48 -537.61 2073.7
-468.61 -532.51 2054.0
-471.63 -542.11 2091.0
-473.21 -550.24 2122.3
-466.07 -548.31 2114.9
-453.60 -540.00 2082.8
-441.49 -531.92 2051.7
-436.19 -531.94 2051.8
-435.26 -537.36 2072.7
-425.77 -532.21 2052.8
-418.70 -530.01 2044.3
-428.39 -549.22 2118.4
-436.95 -567.47 2188.8
-432.79 -569.46 2196.5
-428.21 -570.95 2202.2
-429.82 -580.83 2240.4
-830.17 -555.28 2120.6
-814.79 -548.62 2095.2
-816.67 -553.58 2114.1
-802.81 -547.86 2092.3
-780.05 -535.95 2046.8
-777.09 -537.58 2053.0
-772.73 -538.25 2055.6
-762.25 -534.63 2041.7
-760.60 -537.21 2051.6
-763.93 -543.36 2075.1
-767.49 -549.76 2099.5
-767.94 -554.02 2115.8
-755.15 -548.71 2095.5
-737.22 -539.56 2060.6
-733.75 -540.94 2065.8
-746.06 -554.06 2115.9
-748.19 -559.76 2137.7
-730.16 -550.34 2101.7
-720.19 -546.91 2088.6
-724.43 -554.30 2116.8
-713.23 -549.90 2100.0
-700.25 -544.04 2077.7
-700.00 -548.06 2093.0
-690.80 -545.08 2081.7
-679.23 -540.17 2062.9
-673.46 -539.84 2061.6
-670.99 -542.16 2070.5
-675.30 -550.04 2100.6
-676.82 -555.76 2122.4
-679.39 -562.45 2148.0
-645.84 -543.59 2075.9
-634.61 -538.62 2057.0
-633.12 -541.90 2069.5
-612.41 -528.66 2018.9
-612.89 -533.64 2037.9
-626.31 -550.06 2100.7
-608.63 -539.22 2059.3
-590.06 -527.39 2014.1
-584.68 -527.25 2013.6
-576.88 -524.91 2004.6
-584.82 -536.97 2050.7
-595.70 -551.98 2108.0
-594.27 -555.75 2122.4
-588.62 -555.61 2121.9
-568.07 -541.27 2067.1
-552.61 -531.56 2030.0
-555.51 -539.49 2060.3
-549.76 -539.08 2058.7
-543.22 -548.65 2095.3
-546.06 -557.09 2127.5
-536.80 -553.23 2112.8
-521.23 -542.72 2072.6
-512.17 -538.85 2057.8
-517.09 -549.75 2099.5
-516.52 -554.99 2119.5
-511.31 -555.30 2120.7
-502.05 -551.16 2104.9
-497.98 -552.70 2110.7
-500.26 -561.40 2144.0
-489.52 -555.52 2121.5
-475.65 -545.92 2084.8
-475.82 -552.39 2109.6
-468.28 -549.96 2100.3
-452.44 -537.61 2053.1
-448.58 -539.37 2059.8
-444.89 -541.37 2067.5
-448.41 -552.31 2109.3
-457.50 -570.46 2178.6
-442.43 -558.57 2133.1
-429.14 -548.65 2095.3
-430.44 -557.36 2128.5
-429.48 -563.34 2151.4
-430.28 -571.81 2183.7
-430.91 -580.29 2216.1
-833.95 -563.33 2130.2
-829.46 -564.04 2132.9
-820.07 -561.39 2122.9
-797.49 -549.62 2078.4
-778.57 -540.24 2042.9
-778.03 -543.55 2055.5
-778.45 -547.60 2070.7
-771.66 -546.59 2067.0
-762.87 -544.14 2057.7
-759.14 -545.30 2062.1
-757.06 -547.66 2071.0
-751.28 -547.36 2069.9
-749.79 -550.21 2080.6
-742.36 -548.70 2074.9
-729.43 -543.08 2053.7
-733.05 -549.79 2079.0
-737.83 -557.47 2108.1
-722.73 -550.14 2080.4
-707.44 -542.55 2051.7
-705.79 -545.39 2062.4
-709.08 -552.11 2087.8
-711.62 -558.35 2111.4
-706.36 -558.52 2112.0
-692.54 -551.87 2086.9
-681.26 -547.15 2069.1
-675.78 -547.06 2068.7
-673.89 -549.89 2079.4
-678.47 -558.10 2110.5
-678.19 -562.40 2126.7
-657.85 -559.17 2114.5
-642.82 -550.98 2083.6
-636.72 -550.38 2081.3
-619.37 -539.96 2041.9
-623.42 -548.18 2073.0
-639.79 -567.46 2145.9
-623.93 -558.25 2111.0
-598.43 -540.17 2042.7
-586.49 -534.13 2019.8
-579.49 -532.50 2013.7
-587.66 -544.92 2060.6
-598.24 -559.82 2117.0
-597.05 -563.88 2132.3
-590.08 -562.51 2127.1
-567.98 -546.55 2066.8
-546.69 -531.07 2008.2
-544.08 -533.62 2017.9
-546.43 -541.12 2046.3
-532.53 -532.53 2013.8
-526.94 -542.91 2053.0
-521.21 -542.48 2051.4
-524.93 -551.99 2087.4
-535.26 -568.71 2150.6
-523.73 -562.32 2126.4
-508.42 -551.68 2086.2
-509.42 -558.71 2112.8
-506.24 -561.27 2122.4
-494.78 -554.59 2097.2
-489.61 -554.89 2098.3
-486.83 -557.93 2109.8
-480.53 -556.98 2106.2
-472.13 -553.53 2093.2
-456.83 -541.82 2048.9
-448.41 -538.10 2034.8
-452.02 -548.88 2075.6
-452.97 -556.66 2105.0
-461.83 -574.47 2172.4
-447.46 -570.52 2157.4
-432.57 -558.50 2112.0
-432.67 -565.79 2139.6
-431.87 -572.08 2163.3
-433.57 -581.89 2200.4
-842.93 -571.20 2139.0
-840.91 -573.60 2148.0
-830.05 -569.97 2134.4
-816.11 -564.15 2112.6
-783.48 -545.26 2041.9
-756.02 -529.73 1983.7
-765.91 -540.33 2023.4
-776.64 -551.68 2065.9
-767.83 -549.21 2056.7
-757.71 -545.76 2043.8
-759.71 -551.06 2063.6
-762.95 -557.33 2087.1
-753.17 -554.12 2075.1
-747.72 -554.06 2074.9
-749.77 -559.61 2095.6
-745.56 -560.53 2099.1
-734.56 -556.32 2083.3
-725.23 -553.33 2072.1
-723.27 -555.95 2081.9
-720.94 -558.32 2090.8
-712.92 -556.29 2083.2
-709.29 -557.69 2088.4
-708.73 -561.53 2102.8
-700.42 -559.25 2094.3
-693.66 -558.18 2090.3
-689.35 -559.08 2093.6
-678.70 -554.81 2077.6
-672.30 -553.97 2074.5
-668.58 -555.35 2079.7
-661.01 -553.53 2072.8
-656.39 -554.16 2075.2
-651.75 -554.80 2077.6
-638.18 -547.77 2051.3
-631.01 -546.17 2045.3
-635.77 -554.95 2078.2
-628.56 -553.35 2072.2
-626.12 -555.95 2081.9
-635.26 -568.97 2130.7
-631.25 -570.34 2135.8
-616.32 -561.78 2103.7
-603.97 -555.44 2080.0
-597.90 -554.80 2077.6
-594.22 -556.40 2083.6
-592.35 -559.75 2096.1
-586.25 -559.11 2093.7
-574.19 -552.73 2069.9
-569.44 -553.32 2072.1
-564.42 -553.67 2073.4
-556.86 -551.51 2065.3
-554.34 -554.34 2075.9
-553.01 -558.43 2091.2
-547.91 -558.76 2092.4
-540.14 -556.34 2083.4
-534.57 -556.17 2082.7
-523.52 -550.23 2060.5
-522.72 -555.06 2078.6
-532.36 -571.18 2138.9
-520.17 -563.97 2112.0
-500.08 -547.96 2052.0
-496.17 -549.53 2057.9
-505.93 -566.42 2121.1
-507.15 -574.03 2149.6
-492.83 -564.02 2112.1
-480.87 -556.51 2084.0
-473.57 -554.29 2075.7
-464.60 -550.04 2059.8
-464.13 -555.87 2081.6
-469.59 -569.03 2130.9
-460.80 -565.03 2115.9
-449.84 -558.24 2090.5
-448.87 -563.82 2111.4
-442.22 -562.33 2105.8
-432.65 -557.04 2086.0
-429.19 -559.58 2095.5
-431.63 -569.97 2134.4
-433.87 -580.37 2173.4
-436.66 -591.79 2216.2
-815.52 -565.43 2097.1
-811.10 -566.14 2099.7
-785.82 -552.20 2048.0
-756.97 -535.54 1986.2
-766.50 -546.00 2025.0
-777.56 -557.70 2068.4
-770.10 -556.19 2062.8
-765.36 -556.63 2064.4
-772.67 -565.90 2098.8
-769.50 -567.57 2105.0
-753.73 -559.91 2076.6
-750.24 -561.33 2081.9
-753.58 -567.92 2106.3
-747.73 -567.62 2105.2
-734.78 -561.89 2083.9
-726.73 -559.85 2076.4
-726.35 -563.73 2090.8
-721.47 -564.16 2092.3
-710.62 -559.88 2076.5
-705.45 -560.05 2077.1
-702.75 -562.20 2085.1
-695.09 -560.38 2078.3
-688.98 -559.80 2076.2
-689.55 -564.67 2094.2
-685.51 -565.82 2098.5
-671.60 -558.77 2072.4
-661.37 -554.69 2057.2
-656.20 -554.84 2057.8
-654.25 -557.72 2068.5
-648.18 -557.11 2066.2
-632.91 -548.52 2034.3
-620.07 -541.91 2009.8
-619.25 -545.78 2024.2
-610.76 -542.90 2013.5
-606.78 -544.01 2017.6
-618.55 -559.39 2074.7
-616.33 -562.26 2085.3
-612.41 -563.63 2090.4
-611.17 -567.51 2104.8
-595.93 -558.35 2070.8
-583.77 -551.93 2047.0
-578.04 -551.53 2045.5
-568.41 -547.35 2030.0
-562.46 -546.69 2027.6
-563.97 -553.32 2052.2
-573.23 -567.77 2105.7
-579.20 -579.20 2148.1
-568.49 -574.01 2128.9
-559.10 -570.06 2114.2
-553.70 -570.15 2114.6
-545.15 -566.95 2102.7
-541.22 -568.55 2108.6
-531.77 -564.33 2093.0
-520.52 -558.08 2069.8
-519.88 -563.21 2088.8
-522.86 -572.39 2122.9
-517.64 -572.71 2124.1
-504.48 -564.15 2092.3
-504.72 -570.55 2116.1
-505.73 -577.97 2143.6
