ply
format ascii 1.0
element vertex 2009
property float x
property float y
property float z
end_header
-1386.28 -1164.06 2040.9
-1390.08 -1185.34 2078.2
-1376.95 -1187.96 2082.8
-1348.06 -1167.61 2047.1
-1269.17 -1135.03 1990.0
-1251.14 -1128.08 1977.8
-1238.93 -1126.30 1974.7
-1229.38 -1155.82 2026.4
-1223.44 -1160.16 2034.1
-1239.67 -1196.17 2097.2
-1233.54 -1195.50 2096.0
-1200.23 -1189.41 2085.3
-1162.48 -1157.22 2028.9
-1127.18 -1127.18 1976.2
-1122.17 -1127.30 1976.4
-1145.37 -1155.88 2026.5
-1184.56 -1206.50 2115.3
-1156.59 -1183.49 2074.9
-1113.59 -1144.81 2007.1
-1079.51 -1114.99 1954.9
-1104.69 -1146.37 2009.9
-1122.76 -1170.65 2052.4
-1100.88 -1153.30 2022.0
-1100.42 -1158.34 2030.9
-1091.02 -1153.96 2023.2
-1086.29 -1154.51 2024.1
-1089.55 -1163.59 2040.1
-1051.66 -1128.61 1978.7
-1087.08 -1172.34 2055.4
-1093.99 -1191.48 2089.0
-1002.49 -1097.25 1923.8
-1032.02 -1135.22 1990.3
-1078.43 -1192.24 2090.3
-1068.62 -1187.36 2081.7
-1027.21 -1147.14 2011.2
-1008.31 -1131.78 1984.3
-1057.48 -1193.05 2091.7
-1046.37 -1192.75 2091.2
-1005.29 -1151.90 2019.6
-1038.02 -1195.62 2096.2
-1061.33 -1235.41 2166.0
-1055.40 -1235.04 2165.3
-1019.58 -1199.51 2103.0
-967.04 -1143.81 2005.4
-979.15 -1164.39 2041.5
-998.75 -1194.16 2093.7
-996.78 -1198.31 2100.9
-984.15 -1189.63 2085.7
-956.11 -1162.13 2037.5
-970.59 -1192.90 2091.4
-1001.97 -1245.38 2183.5
-988.97 -1236.21 2167.4
-998.41 -1255.14 2200.6
-987.99 -1249.19 2190.1
-976.17 -1241.37 2176.4
-957.18 -1224.29 2146.5
-944.07 -1214.59 2129.5
-941.75 -1218.74 2136.8
-939.41 -1222.90 2144.0
-920.04 -1204.81 2112.3
-909.10 -1212.14 2125.2
-936.48 -1256.25 2202.5
-921.71 -1267.35 2222.0
-893.35 -1236.08 2167.2
-910.82 -1268.23 2223.5
-922.45 -1309.28 2295.5
-914.52 -1306.45 2290.5
-908.56 -1306.42 2290.5
-834.74 -1275.29 2235.9
-805.58 -1239.35 2172.9
-819.66 -1269.89 2226.4
-809.88 -1263.64 2215.5
-741.64 -1245.49 2183.7
-721.87 -1270.49 2227.5
-722.43 -1281.73 2247.2
-705.01 -1260.99 2210.8
-675.96 -1271.04 2228.4
-630.78 -1250.19 2191.9
-635.04 -1270.08 2226.8
-630.79 -1273.15 2232.2
-609.73 -1242.04 2177.6
-607.83 -1298.28 2276.2
-594.39 -1282.02 2247.7
-577.76 -1258.49 2206.4
-560.90 -1233.97 2163.5
-539.43 -1210.96 2123.1
-555.73 -1260.42 2209.8
-531.24 -1217.42 2134.4
-521.48 -1220.49 2139.8
-519.45 -1228.80 2154.4
-517.14 -1236.63 2168.1
-483.34 -1236.45 2167.8
-479.05 -1239.88 2173.8
-479.74 -1256.46 2202.9
-456.12 -1270.20 2227.0
-450.34 -1270.20 2227.0
-441.83 -1262.38 2213.3
-393.28 -1291.38 2264.1
-386.51 -1288.37 2258.8
-373.54 -1264.28 2216.6
-364.06 -1251.45 2194.1
-359.75 -1256.26 2202.5
-360.37 -1278.73 2241.9
-358.61 -1293.35 2267.6
-342.39 -1255.45 2201.1
-324.01 -1208.18 2118.2
-319.13 -1210.50 2122.3
-317.92 -1227.06 2151.3
-313.18 -1230.36 2157.1
-314.93 -1259.71 2208.6
-289.81 -1275.15 2235.6
-276.29 -1240.50 2174.9
-275.23 -1261.49 2211.7
-271.77 -1272.14 2230.4
-257.71 -1232.51 2160.9
-251.36 -1228.85 2154.5
-249.08 -1245.40 2183.5
-246.94 -1263.42 2215.1
-246.05 -1288.85 2259.7
-238.04 -1277.28 2239.4
-228.51 -1256.81 2203.5
-227.13 -1281.25 2246.3
-221.01 -1279.52 2243.3
-211.33 -1256.56 2203.1
-214.22 -1309.13 2295.2
-206.51 -1336.27 2342.8
-193.51 -1290.05 2261.8
-189.97 -1306.08 2289.9
-180.79 -1325.76 2324.4
-167.23 -1268.61 2224.2
-168.41 -1323.19 2319.9
-162.84 -1326.83 2326.3
-155.19 -1313.16 2302.3
-142.43 -1305.58 2289.0
-133.04 -1272.58 2231.1
-127.82 -1278.17 2240.9
-126.32 -1323.34 2320.1
-123.74 -1361.10 2386.3
-117.01 -1354.80 2375.3
-80.64 -1267.22 2221.7
-74.71 -1264.33 2216.7
-73.16 -1341.18 2351.4
-47.28 -1300.33 2279.8
-39.41 -1238.46 2171.3
-23.38 -1286.13 2254.9
-17.74 -1301.01 2281.0
-11.90 -1308.46 2294.1
-6.00 -1320.86 2315.8
0.00 -1320.86 2315.8
5.89 -1295.59 2271.5
11.49 -1263.87 2215.9
17.31 -1269.30 2225.4
22.83 -1255.41 2201.0
27.66 -1217.23 2134.1
32.33 -1185.49 2078.5
37.53 -1179.51 2068.0
44.89 -1234.45 2164.3
62.18 -1243.68 2180.5
65.00 -1191.61 2089.2
69.71 -1179.65 2068.2
77.49 -1217.70 2134.9
83.49 -1224.54 2146.9
87.54 -1203.65 2110.3
93.65 -1211.96 2124.9
99.15 -1211.86 2124.7
103.75 -1201.35 2106.3
109.52 -1204.69 2112.1
116.87 -1224.36 2146.6
123.96 -1239.57 2173.3
127.25 -1217.17 2134.0
129.15 -1183.87 2075.6
146.82 -1196.27 2097.4
162.87 -1279.67 2243.6
169.57 -1286.41 2255.4
172.76 -1266.94 2221.3
179.12 -1271.19 2228.7
185.66 -1276.43 2237.9
194.62 -1297.46 2274.8
196.59 -1272.05 2230.2
201.24 -1264.91 2217.7
210.91 -1288.88 2259.7
220.39 -1243.24 2179.7
223.94 -1231.65 2159.4
241.99 -1298.49 2276.6
251.99 -1319.92 2314.1
258.03 -1320.13 2314.5
263.18 -1315.90 2307.1
264.36 -1292.44 2266.0
304.94 -1242.34 2178.1
306.81 -1227.25 2151.7
313.06 -1229.86 2156.3
317.92 -1227.06 2151.3
326.38 -1238.01 2170.5
383.25 -1221.97 2142.4
400.25 -1240.20 2174.4
430.73 -1230.65 2157.6
444.98 -1255.07 2200.4
506.74 -1238.70 2171.7
508.33 -1228.93 2154.6
520.79 -1245.36 2183.4
523.34 -1238.01 2170.5
556.45 -1249.18 2190.1
555.12 -1233.59 2162.8
559.80 -1231.55 2159.2
572.66 -1247.38 2187.0
579.13 -1236.99 2168.7
639.98 -1245.97 2184.5
-1652.86 -1167.04 2036.8
-1548.84 -1129.68 1971.7
-1533.54 -1122.23 1958.6
-1417.75 -1143.51 1995.8
-1408.01 -1148.23 2004.0
-1413.56 -1157.03 2019.4
-1356.20 -1157.22 2019.7
-1316.58 -1141.04 1991.5
-1324.10 -1152.07 2010.7
-1327.60 -1183.06 2064.8
-1277.37 -1142.91 1994.7
-1243.88 -1117.47 1950.3
-1260.76 -1137.25 1984.9
-1266.91 -1147.49 2002.7
-1249.00 -1135.92 1982.5
-1247.43 -1139.18 1988.2
-1219.64 -1132.52 1976.6
-1239.03 -1180.28 2060.0
-1210.35 -1168.07 2038.7
-1196.59 -1159.85 2024.3
-1167.73 -1152.09 2010.8
-1179.26 -1168.68 2039.7
-1173.24 -1167.95 2038.4
-1133.84 -1133.84 1978.9
-1107.47 -1117.58 1950.5
-1152.71 -1168.57 2039.5
-1155.95 -1193.76 2083.5
-1130.39 -1172.84 2047.0
-1135.97 -1184.19 2066.8
-1133.74 -1187.47 2072.5
-1104.15 -1161.98 2028.0
-1092.61 -1155.34 2016.4
-1092.14 -1160.40 2025.3
-1099.22 -1173.56 2048.2
-1064.81 -1153.54 2013.3
-1065.47 -1159.95 2024.5
-1072.71 -1173.61 2048.3
-1062.12 -1167.81 2038.2
-1077.01 -1190.10 2077.1
-1052.57 -1174.84 2050.5
-979.53 -1104.47 1927.7
-1057.29 -1198.26 2091.3
-1070.48 -1225.78 2139.4
-1026.55 -1181.60 2062.3
-1055.57 -1240.85 2165.7
-1015.51 -1200.15 2094.6
-980.02 -1164.43 2032.3
-1008.18 -1204.37 2102.0
-1019.60 -1224.62 2137.4
-1008.39 -1217.78 2125.4
-972.60 -1181.02 2061.2
-961.14 -1206.89 2106.4
-956.05 -1207.36 2107.2
-957.88 -1216.61 2123.4
-957.81 -1223.56 2135.5
-940.01 -1207.80 2108.0
-925.91 -1196.65 2088.5
-916.55 -1191.51 2079.6
-911.64 -1213.69 2118.3
-942.92 -1294.32 2259.0
-925.88 -1278.87 2232.0
-924.46 -1284.94 2242.6
-885.31 -1262.29 2203.1
-882.18 -1265.98 2209.5
-883.57 -1276.27 2227.5
-819.41 -1257.57 2194.9
-803.92 -1260.04 2199.2
-790.02 -1247.10 2176.6
-768.82 -1249.33 2180.5
-780.21 -1277.23 2229.2
-720.79 -1244.49 2172.0
-720.81 -1254.32 2189.2
-732.49 -1295.04 2260.3
-710.68 -1276.91 2228.6
-667.99 -1210.05 2111.9
-645.22 -1261.89 2202.4
-635.09 -1275.96 2227.0
-608.45 -1233.66 2153.1
-603.42 -1234.78 2155.1
-611.71 -1263.45 2205.1
-601.90 -1254.90 2190.2
-590.55 -1242.96 2169.3
-583.39 -1239.71 2163.7
-566.62 -1277.80 2230.2
-554.50 -1263.34 2204.9
-551.30 -1282.50 2238.4
-534.16 -1255.85 2191.9
-522.42 -1268.75 2214.4
-501.86 -1274.85 2225.0
-480.73 -1235.36 2156.1
-466.41 -1227.11 2141.7
-458.38 -1266.26 2210.0
-453.52 -1268.71 2214.3
-437.24 -1238.84 2162.2
-425.62 -1271.10 2218.5
-398.02 -1274.82 2225.0
-385.73 -1253.63 2188.0
-382.71 -1281.51 2236.6
-369.80 -1257.33 2194.4
-367.22 -1268.06 2213.2
-369.74 -1297.01 2263.7
-355.55 -1267.38 2212.0
-339.32 -1229.35 2145.6
-338.54 -1246.96 2176.3
-334.18 -1251.76 2184.7
-326.41 -1243.75 2170.7
-322.15 -1249.04 2180.0
-319.46 -1260.73 2200.4
-322.93 -1297.59 2264.7
-287.38 -1296.15 2262.2
-274.29 -1262.86 2204.1
-258.54 -1215.70 2121.8
-255.78 -1228.84 2144.7
-261.65 -1285.01 2242.7
-258.85 -1300.14 2269.1
-254.56 -1308.34 2283.5
-230.05 -1271.03 2218.3
-219.01 -1241.07 2166.1
-218.63 -1271.53 2219.2
-213.83 -1277.22 2229.1
-208.58 -1280.42 2234.7
-203.05 -1282.14 2237.7
-197.52 -1283.85 2240.7
-190.48 -1275.64 2226.4
-180.29 -1245.10 2173.1
-176.77 -1260.18 2199.4
-162.29 -1328.40 2318.5
-153.27 -1302.77 2273.7
-147.50 -1303.93 2275.8
-139.14 -1281.26 2236.2
-130.62 -1255.10 2190.5
-129.50 -1300.92 2270.5
-112.90 -1313.25 2292.0
-82.91 -1308.82 2284.3
-78.60 -1336.24 2332.2
-73.29 -1349.75 2355.7
-65.83 -1322.49 2308.2
-61.26 -1353.87 2362.9
-53.58 -1315.67 2296.2
-45.65 -1261.05 2200.9
-39.50 -1247.18 2176.7
-23.60 -1303.95 2275.8
-18.13 -1335.29 2330.5
-11.84 -1307.97 2282.8
-5.84 -1289.58 2250.7
0.00 -1315.94 2296.7
5.95 -1315.44 2295.8
11.45 -1265.71 2209.1
17.07 -1257.24 2194.3
23.13 -1278.10 2230.7
28.75 -1270.62 2217.6
34.36 -1265.61 2208.9
40.56 -1280.48 2234.8
45.95 -1269.50 2215.7
51.35 -1260.99 2200.8
57.96 -1280.81 2235.4
62.83 -1262.35 2203.2
65.84 -1212.59 2116.3
70.71 -1202.07 2098.0
78.79 -1243.73 2170.7
85.05 -1253.08 2187.0
88.09 -1216.71 2123.5
93.09 -1210.15 2112.1
98.39 -1208.06 2108.4
102.66 -1194.04 2084.0
108.77 -1201.87 2097.6
116.74 -1228.56 2144.2
123.42 -1239.85 2163.9
126.02 -1210.91 2113.4
130.30 -1199.85 2094.1
137.51 -1215.58 2121.6
143.98 -1223.86 2136.0
157.26 -1287.21 2246.6
168.67 -1285.36 2243.4
172.37 -1269.80 2216.2
178.92 -1275.55 2226.2
180.79 -1248.57 2179.2
184.04 -1232.50 2151.1
191.57 -1245.18 2173.2
203.37 -1284.12 2241.2
211.97 -1301.24 2271.1
228.89 -1297.03 2263.7
224.67 -1241.32 2166.5
236.30 -1273.74 2223.1
251.80 -1324.95 2312.5
269.11 -1321.61 2306.6
269.26 -1293.62 2257.8
270.74 -1273.05 2221.9
273.32 -1258.41 2196.3
282.56 -1274.41 2224.2
290.16 -1282.49 2238.4
295.57 -1256.16 2192.4
293.00 -1221.77 2132.4
299.78 -1226.88 2141.3
314.95 -1265.52 2208.7
324.60 -1236.85 2158.7
339.05 -1270.00 2216.5
388.05 -1242.89 2169.2
384.36 -1213.49 2117.9
563.66 -1258.26 2196.1
574.13 -1268.82 2214.5
-1645.87 -1167.36 2028.2
-1640.05 -1166.96 2027.5
-1555.82 -1114.17 1935.8
-1556.31 -1132.79 1968.2
-1559.04 -1138.51 1978.1
-1556.10 -1140.11 1980.9
-1519.30 -1135.64 1973.1
-1442.57 -1139.68 1980.1
-1398.79 -1129.20 1961.9
-1384.05 -1129.63 1962.7
-1370.45 -1122.66 1950.6
-1377.01 -1157.94 2011.9
-1338.80 -1160.99 2017.2
-1324.42 -1153.03 2003.3
-1350.58 -1189.80 2067.2
-1304.24 -1158.17 2012.3
-1273.90 -1135.77 1973.3
-1255.88 -1124.22 1953.3
-1269.48 -1140.99 1982.4
-1260.05 -1146.44 1991.9
-1261.82 -1152.78 2002.9
-1281.23 -1175.34 2042.1
-1282.05 -1185.90 2060.4
-1280.39 -1199.36 2083.8
-1220.27 -1182.96 2055.3
-1184.82 -1169.02 2031.1
-1151.40 -1141.12 1982.6
-1171.48 -1166.23 2026.3
-1174.87 -1174.87 2041.3
-1158.61 -1163.86 2022.1
-1155.29 -1165.79 2025.5
-1127.66 -1143.11 1986.1
-1135.39 -1156.22 2008.9
-1185.53 -1212.85 2107.3
-1165.37 -1203.31 2090.7
-1121.10 -1163.01 2020.7
-1131.52 -1179.33 2049.0
-1124.76 -1194.73 2075.8
-1097.48 -1171.35 2035.2
-1085.14 -1163.77 2022.0
-1087.54 -1172.01 2036.3
-1071.96 -1172.29 2036.8
-1055.60 -1160.11 2015.6
-1073.07 -1185.18 2059.2
-1097.25 -1224.06 2126.8
-1011.35 -1133.93 1970.2
-977.81 -1107.52 1924.3
-1024.59 -1166.46 2026.7
-1040.03 -1196.30 2078.5
-1017.66 -1176.67 2044.4
-1025.80 -1192.30 2071.6
-1039.72 -1214.83 2110.7
-1024.14 -1202.96 2090.1
-1014.48 -1197.95 2081.4
-995.57 -1181.90 2053.5
-985.25 -1175.95 2043.1
-995.71 -1194.85 2076.0
-991.49 -1196.26 2078.4
-1003.62 -1217.51 2115.4
-991.73 -1209.69 2101.8
-986.30 -1209.72 2101.8
-1011.24 -1247.20 2167.0
-994.84 -1233.83 2143.7
-994.51 -1240.34 2155.0
-981.93 -1231.57 2139.8
-948.81 -1196.80 2079.4
-992.03 -1273.00 2211.8
-958.56 -1237.21 2149.6
-955.50 -1240.47 2155.3
-954.91 -1247.00 2166.6
-941.48 -1236.74 2148.8
-931.66 -1231.12 2139.0
-917.32 -1219.43 2118.7
-934.50 -1280.61 2225.0
-905.92 -1249.16 2170.4
-894.85 -1241.61 2157.2
-930.61 -1299.34 2257.5
-886.07 -1269.09 2205.0
-874.76 -1261.01 2191.0
-815.61 -1215.20 2111.4
-817.94 -1226.91 2131.7
-818.60 -1236.26 2147.9
-823.53 -1278.48 2221.3
-806.14 -1260.31 2189.7
-805.51 -1268.26 2203.5
-810.22 -1284.78 2232.2
-810.61 -1294.65 2249.4
-783.67 -1260.69 2190.4
-762.01 -1234.79 2145.4
-766.86 -1251.79 2174.9
-762.28 -1253.53 2177.9
-765.49 -1287.42 2236.8
-722.60 -1224.56 2127.6
-729.86 -1246.38 2165.5
-734.43 -1263.90 2196.0
-723.92 -1255.54 2181.4
-717.32 -1253.89 2178.6
-721.08 -1270.47 2207.4
-718.48 -1276.02 2217.0
-709.66 -1270.52 2207.5
-699.82 -1263.08 2194.5
-668.88 -1217.14 2114.7
-658.92 -1219.01 2118.0
-635.75 -1238.04 2151.0
-630.02 -1237.74 2150.5
-603.77 -1229.69 2136.5
-593.35 -1219.66 2119.1
-614.81 -1275.58 2216.3
-600.94 -1270.56 2207.5
-585.50 -1249.82 2171.5
-569.11 -1226.63 2131.2
-559.02 -1279.40 2222.9
-552.46 -1277.56 2219.7
-513.60 -1239.33 2153.3
-490.27 -1265.57 2198.9
-466.95 -1219.55 2118.9
-468.80 -1253.90 2178.6
-466.78 -1263.72 2195.7
-462.17 -1266.68 2200.8
-416.39 -1301.95 2262.1
-407.72 -1293.04 2246.6
-391.15 -1258.48 2186.6
-379.47 -1257.36 2184.6
-365.57 -1229.64 2136.4
-359.14 -1226.59 2131.1
-363.12 -1259.57 2188.4
-343.71 -1230.71 2138.3
-318.75 -1241.43 2156.9
-287.23 -1226.27 2130.6
-282.69 -1230.55 2138.0
-278.86 -1263.39 2195.1
-259.19 -1250.89 2173.4
-263.38 -1299.32 2257.5
-257.78 -1300.60 2259.7
-243.70 -1258.18 2186.0
-235.74 -1246.04 2164.9
-241.09 -1305.40 2268.1
-232.30 -1289.27 2240.1
-221.39 -1260.21 2189.6
-205.42 -1302.92 2263.8
-194.32 -1268.83 2204.5
-196.85 -1324.26 2300.8
-184.21 -1319.21 2292.1
-170.98 -1355.64 2355.4
-160.72 -1321.47 2296.0
-157.00 -1340.57 2329.2
-148.97 -1322.81 2298.3
-139.36 -1289.11 2239.8
-131.56 -1269.83 2206.3
-130.05 -1312.32 2280.1
-113.63 -1327.68 2306.8
-109.44 -1349.74 2345.1
-83.45 -1323.25 2299.1
-76.50 -1306.39 2269.8
-68.71 -1271.06 2208.4
-62.47 -1260.66 2190.3
-59.51 -1321.07 2295.3
-54.41 -1342.08 2331.8
-48.60 -1348.63 2343.2
-41.06 -1302.29 2262.7
-33.41 -1236.00 2147.5
-27.73 -1231.04 2138.9
-23.23 -1289.43 2240.3
-17.87 -1322.38 2297.6
-11.72 -1300.44 2259.5
-5.78 -1283.49 2230.0
0.00 -1308.44 2273.3
5.89 -1307.94 2272.5
11.33 -1258.04 2185.8
16.83 -1245.56 2164.1
22.71 -1260.50 2190.1
28.42 -1261.97 2192.6
34.09 -1261.43 2191.7
39.33 -1247.43 2167.3
43.71 -1212.97 2107.5
49.31 -1216.40 2113.4
56.12 -1245.77 2164.5
61.87 -1248.70 2169.5
65.85 -1218.21 2116.6
69.05 -1179.24 2048.9
75.30 -1194.11 2074.7
84.69 -1253.35 2177.6
91.22 -1265.72 2199.1
94.93 -1239.69 2153.9
98.85 -1219.15 2118.2
107.53 -1256.41 2183.0
120.15 -1270.11 2206.8
118.45 -1195.24 2076.7
124.69 -1203.57 2091.2
133.33 -1233.32 2142.8
140.33 -1246.12 2165.1
146.80 -1253.43 2177.8
156.48 -1286.62 2235.4
163.32 -1294.90 2249.8
165.23 -1264.85 2197.6
171.24 -1267.15 2201.6
180.60 -1293.33 2247.1
183.89 -1275.71 2216.5
184.80 -1243.17 2159.9
190.06 -1240.97 2156.1
202.67 -1285.51 2233.5
212.38 -1309.65 2275.5
227.32 -1294.00 2248.3
226.84 -1258.97 2187.4
237.51 -1286.03 2234.4
252.37 -1333.94 2317.7
262.70 -1325.42 2302.9
269.11 -1327.61 2306.7
274.31 -1323.83 2300.1
278.32 -1314.60 2284.0
288.83 -1282.41 2228.1
291.76 -1245.59 2164.2
303.32 -1270.53 2207.5
315.59 -1207.93 2098.7
324.61 -1221.43 2122.2
340.31 -1259.14 2187.7
343.70 -1250.85 2173.3
339.99 -1217.37 2115.1
357.85 -1241.30 2156.7
377.82 -1215.60 2112.0
380.37 -1206.31 2095.9
391.34 -1223.63 2126.0
404.86 -1248.31 2168.9
440.39 -1253.42 2177.8
452.14 -1239.20 2153.0
451.56 -1222.51 2124.1
-1550.57 -1160.32 2007.0
-1460.61 -1159.13 2004.9
-1387.08 -1154.18 1996.3
-1379.68 -1152.32 1993.1
-1347.51 -1133.95 1961.3
-1353.44 -1143.25 1977.4
-1356.94 -1168.33 2020.8
-1338.49 -1156.91 2001.1
-1315.11 -1141.13 1973.8
-1316.25 -1146.57 1983.2
-1355.59 -1185.48 2050.5
-1303.61 -1149.03 1987.4
-1287.40 -1139.25 1970.5
-1316.72 -1179.23 2039.7
-1304.42 -1172.92 2028.8
-1219.29 -1171.99 2027.2
-1185.70 -1144.63 1979.8
-1200.91 -1164.36 2014.0
-1179.71 -1169.22 2022.4
-1161.60 -1156.41 2000.2
-1195.50 -1195.50 2067.8
-1215.29 -1220.76 2111.5
-1176.49 -1197.98 2072.1
-1168.25 -1200.56 2076.6
-1149.50 -1186.75 2052.7
-1089.99 -1130.55 1955.5
-1076.14 -1126.66 1948.7
-1124.58 -1199.91 2075.4
-1111.28 -1191.42 2060.8
-1112.79 -1198.80 2073.5
-1103.32 -1194.37 2065.9
-1079.25 -1185.59 2050.7
-1038.10 -1146.02 1982.2
-1028.48 -1141.05 1973.6
-1064.77 -1187.22 2053.5
-1053.81 -1180.90 2042.6
-1013.65 -1141.63 1974.6
-998.85 -1130.68 1955.7
-982.93 -1118.33 1934.3
-990.75 -1133.01 1959.7
-1058.65 -1229.57 2126.7
-1061.48 -1245.85 2154.9
-1001.69 -1181.88 2044.3
-1025.18 -1216.04 2103.3
-1038.74 -1238.71 2142.5
-1005.88 -1205.98 2085.9
-993.99 -1198.16 2072.4
-967.26 -1172.28 2027.6
-954.41 -1163.02 2011.6
-974.90 -1194.52 2066.1
-1000.03 -1232.09 2131.1
-1012.14 -1253.93 2168.9
-986.05 -1228.44 2124.8
-987.98 -1237.75 2140.9
-976.18 -1229.87 2127.3
-928.42 -1176.35 2034.7
-940.67 -1198.68 2073.3
-992.76 -1272.33 2200.7
-940.70 -1219.63 2109.5
-923.03 -1203.72 2082.0
-947.55 -1242.97 2149.9
-954.39 -1259.34 2178.2
-941.33 -1249.50 2161.2
-923.43 -1233.09 2132.8
-948.26 -1273.86 2203.3
-938.89 -1276.66 2208.2
-921.13 -1260.20 2179.7
-897.01 -1234.77 2135.7
-871.38 -1206.94 2087.6
-864.90 -1205.45 2085.0
-904.47 -1268.54 2194.1
-882.68 -1261.77 2182.4
-872.04 -1254.62 2170.1
-872.90 -1264.01 2186.3
-837.63 -1220.86 2111.7
-824.49 -1225.74 2120.1
-839.52 -1256.47 2173.3
-841.39 -1267.77 2192.8
-842.84 -1278.60 2211.5
-835.83 -1303.43 2254.5
-808.05 -1268.99 2194.9
-800.47 -1265.99 2189.7
-804.30 -1281.13 2215.9
-802.93 -1288.16 2228.1
-785.54 -1269.38 2195.6
-770.93 -1254.87 2170.5
-766.41 -1294.77 2239.5
-752.89 -1281.63 2216.8
-748.43 -1283.85 2220.6
-738.67 -1276.93 2208.7
-718.75 -1252.20 2165.9
-703.41 -1235.13 2136.4
-713.26 -1262.35 2183.4
-717.46 -1279.95 2213.9
-687.20 -1235.86 2137.6
-670.03 -1224.73 2118.4
-669.94 -1244.97 2153.4
-587.23 -1247.16 2157.2
-600.57 -1287.75 2227.4
-551.39 -1242.02 2148.3
-539.85 -1228.44 2124.8
-540.55 -1242.71 2149.5
-526.80 -1223.71 2116.6
-527.81 -1238.96 2143.0
-521.74 -1264.66 2187.4
-527.31 -1292.19 2235.0
-462.99 -1229.14 2126.0
-456.50 -1241.46 2147.3
-445.55 -1257.70 2175.4
-432.93 -1287.24 2226.5
-392.56 -1268.70 2194.4
-360.92 -1219.47 2109.3
-348.93 -1215.79 2102.9
-343.44 -1215.68 2102.7
-317.43 -1199.78 2075.2
-313.30 -1204.59 2083.5
-323.85 -1267.00 2191.5
-292.02 -1252.30 2166.1
-293.53 -1283.46 2219.9
-285.87 -1301.01 2250.3
-264.36 -1228.17 2124.3
-256.29 -1216.02 2103.3
-261.68 -1268.58 2194.2
-263.59 -1306.21 2259.3
-248.91 -1290.84 2232.7
-231.25 -1227.83 2123.7
-228.08 -1240.55 2145.7
-233.92 -1304.11 2255.7
-206.99 -1318.81 2281.1
-200.27 -1313.54 2272.0
-176.69 -1313.39 2271.7
-168.94 -1299.10 2247.0
-162.64 -1295.29 2240.4
-158.79 -1311.45 2268.4
-153.68 -1318.12 2279.9
-144.60 -1289.81 2230.9
-143.83 -1336.45 2311.6
-114.10 -1339.17 2316.3
-107.26 -1328.79 2298.4
-102.83 -1348.92 2333.2
-92.60 -1376.65 2381.1
-82.41 -1312.71 2270.5
-76.44 -1311.30 2268.1
-70.24 -1305.38 2257.9
-48.65 -1356.19 2345.7
-39.05 -1244.13 2151.9
-34.18 -1270.20 2197.0
-30.04 -1339.80 2317.4
-23.65 -1318.31 2280.2
-17.22 -1280.30 2214.5
-11.64 -1297.83 2244.8
-5.91 -1316.86 2277.7
0.00 -1271.82 2199.8
5.42 -1209.25 2091.6
10.85 -1209.24 2091.6
16.63 -1236.25 2138.3
22.72 -1266.76 2191.1
28.74 -1281.75 2217.0
33.66 -1251.18 2164.1
37.92 -1208.10 2089.6
43.43 -1210.56 2093.9
50.49 -1251.04 2163.9
56.41 -1257.99 2175.9
61.01 -1236.90 2139.4
66.72 -1239.83 2144.5
72.10 -1236.75 2139.2
76.04 -1211.16 2094.9
82.74 -1230.08 2127.6
90.91 -1267.00 2191.5
96.58 -1266.89 2191.3
101.40 -1256.28 2172.9
121.94 -1294.90 2239.7
121.18 -1228.28 2124.5
128.83 -1249.13 2160.6
134.80 -1252.48 2166.4
138.60 -1236.34 2138.4
140.63 -1206.20 2086.3
145.36 -1200.54 2076.5
156.87 -1249.33 2160.9
164.20 -1262.64 2183.9
171.25 -1272.94 2201.8
182.13 -1310.19 2266.2
184.33 -1284.52 2221.8
183.48 -1239.89 2144.6
192.21 -1260.64 2180.5
209.42 -1334.27 2307.8
217.29 -1346.01 2328.1
221.47 -1334.79 2308.7
237.94 -1326.54 2294.5
251.59 -1275.12 2205.5
258.60 -1253.64 2168.4
268.67 -1274.75 2204.9
278.39 -1293.36 2237.1
295.49 -1267.22 2191.9
306.06 -1287.76 2227.4
316.36 -1237.70 2140.8
323.99 -1224.59 2118.1
353.66 -1251.86 2165.3
406.81 -1259.97 2179.3
426.11 -1218.25 2107.2
452.16 -1229.64 2126.9
463.16 -1244.40 2152.4
538.59 -1251.11 2164.0
535.02 -1229.99 2127.5
557.90 -1256.68 2173.6
595.30 -1252.38 2166.2
-1574.58 -1137.76 1959.2
-1484.37 -1115.76 1921.3
-1490.89 -1124.44 1936.2
-1429.06 -1139.18 1961.6
-1399.66 -1140.09 1963.2
-1380.79 -1128.82 1943.8
-1404.80 -1152.65 1984.8
-1355.78 -1141.71 1966.0
-1326.68 -1147.40 1975.7
-1321.11 -1155.97 1990.5
-1279.32 -1132.67 1950.4
-1291.26 -1156.97 1992.2
-1313.16 -1181.31 2034.1
-1296.98 -1185.81 2041.9
-1261.23 -1157.85 1993.8
-1285.51 -1199.80 2066.0
-1265.76 -1186.32 2042.8
-1242.34 -1169.26 2013.4
-1233.43 -1180.72 2033.1
-1239.01 -1191.15 2051.1
-1178.21 -1142.50 1967.3
-1171.43 -1140.87 1964.5
-1234.08 -1207.14 2078.6
-1199.37 -1194.04 2056.1
-1181.65 -1181.65 2034.7
-1175.19 -1180.46 2032.7
-1150.48 -1160.84 1998.9
-1186.27 -1202.38 2070.4
-1153.83 -1180.17 2032.2
-1099.96 -1130.24 1946.2
-1141.38 -1178.20 2028.8
-1150.63 -1193.25 2054.7
-1118.09 -1164.89 2005.9
-1113.00 -1165.01 2006.1
-1068.69 -1123.88 1935.3
-1067.60 -1128.03 1942.4
-1160.99 -1232.52 2122.3
-1141.79 -1223.73 2107.2
-1116.17 -1202.03 2069.8
-1123.54 -1215.82 2093.6
-1119.07 -1216.86 2095.4
-1119.18 -1222.91 2105.8
-1113.42 -1222.58 2105.2
-1096.89 -1210.36 2084.2
-1066.01 -1182.11 2035.5
-1017.25 -1133.65 1952.1
-1016.31 -1138.27 1960.0
-1036.93 -1167.20 2009.8
-1028.52 -1163.58 2003.6
-1054.88 -1199.46 2065.4
-1079.36 -1233.55 2124.1
-1006.64 -1156.35 1991.2
-970.39 -1120.45 1929.4
-1013.84 -1176.68 2026.2
-1042.62 -1216.39 2094.5
-1056.53 -1239.07 2133.6
-1008.74 -1189.26 2047.8
-983.96 -1166.17 2008.1
-1040.13 -1239.30 2134.0
-1049.34 -1256.97 2164.4
-1012.62 -1219.50 2099.9
-1008.74 -1221.40 2103.2
-986.16 -1200.54 2067.3
-954.25 -1168.04 2011.3
-958.09 -1179.19 2030.5
-956.58 -1183.83 2038.5
-939.69 -1169.39 2013.6
-944.50 -1181.95 2035.2
-978.87 -1231.84 2121.1
-982.97 -1243.99 2142.1
-953.21 -1213.18 2089.0
-964.22 -1234.21 2125.2
-926.82 -1207.03 2078.4
-922.05 -1214.94 2092.0
-932.90 -1236.51 2129.2
-923.84 -1231.78 2121.1
-913.41 -1225.17 2109.7
-945.23 -1275.49 2196.3
-921.10 -1281.53 2206.7
-914.01 -1279.61 2203.4
-894.84 -1260.65 2170.8
-868.80 -1231.72 2121.0
-859.03 -1241.43 2137.7
-837.76 -1218.56 2098.3
-847.17 -1240.30 2135.7
-855.43 -1260.64 2170.7
-819.71 -1257.63 2165.6
-829.48 -1299.33 2237.4
-808.44 -1275.29 2196.0
-799.05 -1269.41 2185.8
-804.07 -1286.52 2215.3
-801.22 -1291.17 2223.3
-768.21 -1265.28 2178.7
-769.12 -1276.16 2197.5
-773.67 -1293.31 2227.0
-701.45 -1227.54 2113.8
-656.89 -1257.64 2165.6
-630.24 -1217.02 2095.6
-632.64 -1232.27 2121.9
-592.12 -1251.28 2154.6
-568.73 -1213.29 2089.2
-581.08 -1251.55 2155.1
-562.44 -1259.87 2169.4
-534.77 -1209.98 2083.5
-525.97 -1202.21 2070.1
-540.61 -1248.41 2149.7
-515.57 -1215.67 2093.3
-512.24 -1220.65 2101.9
-505.97 -1287.92 2217.7
-498.32 -1283.04 2209.3
-473.78 -1263.42 2175.5
-445.97 -1233.31 2123.7
-444.70 -1245.17 2144.1
-442.98 -1256.03 2162.8
-420.46 -1272.75 2191.6
-417.19 -1280.14 2204.3
-388.46 -1261.08 2171.5
-370.91 -1258.86 2167.7
-361.37 -1245.35 2144.4
-363.74 -1273.09 2192.2
-356.77 -1268.51 2184.3
-332.81 -1285.35 2213.3
-306.43 -1295.10 2230.1
-299.57 -1290.44 2222.1
-292.63 -1285.29 2213.2
-289.08 -1295.09 2230.1
-273.48 -1276.25 2197.6
-263.34 -1255.07 2161.2
-266.83 -1299.32 2237.4
-250.07 -1302.69 2243.1
-231.93 -1236.96 2130.0
-232.04 -1267.73 2182.9
-219.01 -1290.99 2223.0
-211.38 -1279.72 2203.6
-202.65 -1260.93 2171.3
-197.13 -1261.66 2172.5
-198.83 -1309.95 2255.7
-199.21 -1352.24 2328.5
-186.91 -1308.38 2252.9
-177.22 -1280.53 2205.0
-170.12 -1270.20 2187.2
-163.69 -1264.37 2177.2
-158.76 -1270.07 2187.0
-155.16 -1287.29 2216.6
-150.37 -1295.48 2230.7
-143.54 -1286.12 2214.6
-144.26 -1346.45 2318.5
-140.17 -1365.17 2350.7
-132.67 -1350.78 2326.0
-108.52 -1279.44 2203.1
-93.21 -1304.87 2246.9
-89.47 -1336.09 2300.7
-82.88 -1326.15 2283.6
-79.04 -1361.88 2345.1
-57.29 -1283.29 2209.8
-47.61 -1333.12 2295.6
-33.81 -1262.41 2173.8
-29.61 -1326.72 2284.5
-23.23 -1301.14 2240.5
-17.00 -1269.02 2185.2
-11.50 -1287.62 2217.2
-5.81 -1302.19 2242.3
0.00 -1253.99 2159.3
16.46 -1228.85 2116.0
22.66 -1269.00 2185.1
28.28 -1266.96 2181.6
32.68 -1220.23 2101.2
38.05 -1217.68 2096.8
45.06 -1261.82 2172.8
55.99 -1254.17 2159.6
61.51 -1252.60 2156.9
68.26 -1274.12 2193.9
84.46 -1261.31 2171.9
89.05 -1246.66 2146.7
94.87 -1250.07 2152.5
99.80 -1241.93 2138.5
106.31 -1253.35 2158.2
112.79 -1263.26 2175.3
118.09 -1259.62 2169.0
124.09 -1263.50 2175.7
131.52 -1280.91 2205.6
137.39 -1282.26 2208.0
140.24 -1256.53 2163.7
141.06 -1215.26 2092.6
155.38 -1243.00 2140.4
170.50 -1316.99 2267.8
190.27 -1331.92 2293.5
185.64 -1260.08 2169.8
189.63 -1249.36 2151.3
200.19 -1281.18 2206.1
201.12 -1251.42 2154.9
208.99 -1265.21 2178.6
260.44 -1325.89 2283.1
261.98 -1248.58 2150.0
277.55 -1295.22 2230.3
283.15 -1294.41 2228.9
285.07 -1277.12 2199.1
288.66 -1267.82 2183.1
290.65 -1252.04 2155.9
290.15 -1226.28 2111.6
330.62 -1276.88 2198.7
328.88 -1248.63 2150.1
336.22 -1255.24 2161.4
348.40 -1219.40 2099.7
384.96 -1231.88 2121.2
392.68 -1238.89 2133.3
413.80 -1269.74 2186.4
413.10 -1250.45 2153.2
420.35 -1255.45 2161.8
425.99 -1223.37 2106.6
455.52 -1229.37 2116.9
523.91 -1235.32 2127.1
533.18 -1244.08 2142.2
536.57 -1239.09 2133.6
534.34 -1221.34 2103.1
543.00 -1228.61 2115.6
549.97 -1231.94 2121.3
561.17 -1244.58 2143.1
-1555.88 -1155.36 1980.6
-1560.20 -1162.40 1992.7
-1487.76 -1119.55 1919.2
-1464.89 -1106.04 1896.1
-1497.08 -1141.84 1957.4
-1484.18 -1151.52 1974.0
-1374.43 -1128.64 1934.8
-1425.48 -1187.90 2036.4
-1409.21 -1187.54 2035.8
-1345.27 -1142.21 1958.1
-1333.08 -1158.09 1985.3
-1266.63 -1135.43 1946.4
-1275.41 -1161.81 1991.7
-1281.58 -1172.18 2009.4
-1266.52 -1163.13 1993.9
-1289.39 -1188.99 2038.3
-1241.30 -1163.72 1994.9
-1202.36 -1131.93 1940.5
-1203.62 -1137.88 1950.6
-1209.92 -1158.43 1985.9
-1212.38 -1165.75 1998.4
-1233.29 -1190.94 2041.6
-1225.40 -1193.58 2046.1
-1199.23 -1173.16 2011.1
-1227.61 -1216.79 2085.9
-1169.04 -1169.04 2004.1
-1154.13 -1159.28 1987.3
-1149.56 -1159.87 1988.4
-1126.29 -1141.51 1956.9
-1164.35 -1185.43 2032.2
-1103.63 -1144.31 1961.7
-1150.02 -1197.94 2053.6
-1150.04 -1203.53 2063.2
-1170.32 -1230.48 2109.4
-1149.08 -1213.81 2080.8
-1094.07 -1161.16 1990.6
-1133.00 -1208.18 2071.2
-1123.16 -1214.96 2082.8
-1126.71 -1224.68 2099.5
-1097.51 -1198.73 2055.0
-1073.08 -1177.77 2019.0
-1094.10 -1206.73 2068.7
-1098.81 -1223.92 2098.1
-1077.87 -1206.57 2068.4
-1060.32 -1192.86 2044.9
-1065.67 -1204.90 2065.5
-1042.55 -1184.72 2030.9
-1073.32 -1238.45 2123.1
-978.64 -1135.02 1945.7
-962.88 -1122.53 1924.3
-961.05 -1126.23 1930.7
-981.94 -1162.82 1993.4
-1041.87 -1240.32 2126.3
-1041.07 -1245.96 2135.9
-990.40 -1191.65 2042.8
-971.50 -1187.97 2036.5
-998.45 -1227.60 2104.5
-974.90 -1205.24 2066.1
-946.64 -1176.76 2017.3
-976.54 -1220.67 2092.6
-960.94 -1249.78 2142.5
-942.09 -1232.39 2112.7
-958.50 -1268.61 2174.8
-942.25 -1254.47 2150.5
-950.74 -1273.32 2182.8
-959.44 -1292.66 2216.0
-857.93 -1221.73 2094.4
-876.32 -1255.87 2152.9
-904.65 -1304.79 2236.8
-888.00 -1289.04 2209.8
-852.56 -1245.63 2135.4
-844.90 -1250.68 2144.0
-854.65 -1273.49 2183.1
-838.63 -1283.62 2200.5
-793.73 -1231.64 2111.4
-802.89 -1254.51 2150.6
-781.67 -1229.90 2108.4
-771.86 -1223.01 2096.6
-777.75 -1241.10 2127.6
-789.19 -1268.34 2174.3
-752.04 -1235.10 2117.3
-753.14 -1246.00 2136.0
-753.85 -1256.42 2153.9
-736.66 -1236.93 2120.4
-723.90 -1224.65 2099.4
-698.28 -1217.94 2087.9
-699.07 -1228.83 2106.6
-638.38 -1238.23 2122.7
-645.19 -1262.33 2164.0
-633.74 -1250.80 2144.2
-623.36 -1241.21 2127.8
-603.27 -1245.29 2134.8
-577.05 -1248.44 2140.2
-550.86 -1251.95 2146.2
-520.33 -1245.48 2135.1
-448.45 -1261.26 2162.2
-407.03 -1271.97 2180.5
-382.38 -1246.90 2137.5
-389.46 -1288.66 2209.1
-382.38 -1284.10 2201.3
-361.54 -1291.23 2213.5
-352.06 -1277.65 2190.3
-324.46 -1258.68 2157.7
-316.55 -1249.54 2142.1
-313.32 -1258.89 2158.1
-305.98 -1251.73 2145.8
-304.46 -1268.57 2174.7
-303.73 -1289.43 2210.4
-289.63 -1253.22 2148.4
-274.04 -1208.99 2072.6
-278.97 -1255.36 2152.0
-259.59 -1242.74 2130.4
-263.04 -1286.63 2205.6
-262.80 -1313.99 2252.6
-252.99 -1293.72 2217.8
-237.33 -1241.84 2128.9
-231.20 -1238.59 2123.3
-224.74 -1296.56 2222.7
-159.08 -1278.33 2191.4
-162.53 -1354.45 2321.9
-157.12 -1359.66 2330.8
-150.09 -1350.78 2315.6
-143.03 -1340.88 2298.7
-132.09 -1292.23 2215.2
-119.41 -1279.43 2193.3
-120.00 -1350.03 2314.3
-113.04 -1338.58 2294.7
-103.75 -1296.92 2223.3
-97.85 -1295.02 2220.0
-91.70 -1289.59 2210.7
-85.04 -1275.59 2186.7
-80.85 -1299.35 2227.5
-78.83 -1364.41 2339.0
-65.60 -1341.91 2300.4
-55.81 -1255.84 2152.9
-51.51 -1287.63 2207.4
-46.25 -1300.79 2229.9
-38.71 -1244.41 2133.3
-33.28 -1247.98 2139.4
-28.58 -1286.30 2205.1
-23.37 -1314.55 2253.5
-17.75 -1331.20 2282.1
-11.57 -1301.49 2231.1
-5.66 -1272.78 2181.9
0.00 -1269.25 2175.9
5.54 -1247.58 2138.7
11.13 -1252.11 2146.5
17.23 -1292.40 2215.5
22.92 -1289.35 2210.3
27.74 -1248.51 2140.3
33.17 -1243.95 2132.5
39.87 -1281.69 2197.2
45.39 -1276.60 2188.5
49.77 -1244.31 2133.1
55.61 -1251.30 2145.1
62.26 -1273.40 2183.0
67.64 -1268.29 2174.2
72.93 -1262.17 2163.7
78.97 -1269.13 2175.7
82.86 -1242.85 2130.6
86.33 -1214.05 2081.2
90.69 -1200.36 2057.8
97.43 -1217.87 2087.8
106.15 -1257.03 2154.9
112.84 -1269.49 2176.3
118.29 -1267.35 2172.6
123.02 -1258.15 2156.8
129.42 -1266.06 2170.4
137.77 -1291.57 2214.1
143.49 -1291.41 2213.9
146.07 -1264.09 2167.0
152.15 -1267.94 2173.6
160.27 -1287.88 2207.8
196.78 -1341.68 2300.0
191.09 -1264.58 2167.9
207.84 -1263.91 2166.7
220.29 -1304.34 2236.0
228.39 -1317.65 2258.8
258.74 -1265.58 2169.6
261.79 -1253.26 2148.4
279.06 -1308.07 2242.4
286.20 -1287.91 2207.8
287.54 -1268.56 2174.7
296.69 -1283.75 2200.7
301.22 -1255.07 2151.5
332.06 -1288.16 2208.3
333.36 -1271.30 2179.4
335.05 -1256.45 2153.9
350.09 -1250.32 2143.4
340.78 -1198.06 2053.8
350.89 -1214.63 2082.2
361.16 -1212.85 2079.2
390.58 -1255.43 2152.2
399.16 -1264.95 2168.5
415.81 -1215.04 2082.9
426.56 -1230.47 2109.4
-1525.62 -1130.46 1929.4
-1540.19 -1145.01 1954.2
-1484.46 -1118.29 1908.6
-1481.04 -1119.45 1910.6
-1463.66 -1144.59 1953.5
-1437.33 -1127.91 1925.0
-1440.30 -1146.15 1956.1
-1451.77 -1171.78 1999.9
-1414.06 -1166.35 1990.6
-1375.39 -1138.60 1943.2
-1332.42 -1136.33 1939.4
-1349.22 -1168.29 1993.9
-1356.42 -1179.04 2012.3
-1257.38 -1150.48 1963.5
-1204.14 -1138.64 1943.3
-1233.58 -1171.38 1999.2
-1225.32 -1168.45 1994.2
-1197.00 -1146.28 1956.4
-1202.33 -1156.29 1973.4
-1226.65 -1189.80 2030.6
-1223.42 -1191.78 2034.0
-1222.48 -1196.02 2041.2
-1138.29 -1138.29 1942.7
-1145.96 -1151.05 1964.5
-1141.72 -1162.30 1983.7
-1154.88 -1181.00 2015.6
-1153.18 -1195.50 2040.4
-1156.33 -1204.29 2055.4
-1169.41 -1223.55 2088.2
-1157.22 -1216.42 2076.1
-1162.77 -1227.97 2095.8
-1160.33 -1236.96 2111.1
-1142.63 -1223.86 2088.8
-1136.92 -1223.54 2088.2
-1103.98 -1199.52 2047.2
-1092.05 -1192.28 2034.9
-1050.45 -1152.44 1966.9
-1056.66 -1164.90 1988.1
-1108.85 -1228.44 2096.6
-1074.72 -1202.41 2052.1
-1066.60 -1199.26 2046.8
-1062.59 -1200.73 2049.3
-1034.16 -1174.48 2004.5
-1009.74 -1158.38 1977.0
-1055.11 -1235.52 2108.7
-1035.50 -1218.87 2080.3
-975.15 -1153.85 1969.3
-968.48 -1151.99 1966.1
-1026.86 -1227.88 2095.6
-1025.73 -1233.06 2104.5
-996.39 -1204.19 2055.2
-973.41 -1182.75 2018.6
-957.47 -1169.67 1996.3
-994.16 -1221.08 2084.0
-991.13 -1237.54 2112.1
-931.49 -1216.86 2076.8
-935.78 -1229.57 2098.5
-932.83 -1247.45 2129.0
-947.69 -1274.87 2175.8
-939.24 -1271.07 2169.3
-923.86 -1257.79 2146.7
-915.85 -1254.43 2140.9
-894.43 -1232.56 2103.6
-890.98 -1235.35 2108.4
-893.65 -1262.28 2154.3
-882.39 -1262.16 2154.1
-890.35 -1281.64 2187.4
-877.28 -1279.13 2183.1
-869.47 -1301.32 2221.0
-818.35 -1266.76 2162.0
-802.79 -1251.24 2135.5
-774.25 -1240.99 2118.0
-749.82 -1210.43 2065.8
-778.20 -1265.27 2159.4
-779.28 -1276.21 2178.1
-777.97 -1292.81 2206.4
-751.05 -1257.31 2145.9
-726.58 -1234.63 2107.1
-710.36 -1234.94 2107.7
-697.28 -1221.59 2084.9
-660.58 -1254.54 2141.1
-645.38 -1246.63 2127.6
-635.94 -1238.99 2114.6
-642.76 -1263.17 2155.8
-631.34 -1251.60 2136.1
-620.74 -1241.48 2118.8
-586.86 -1275.29 2176.5
-567.36 -1244.88 2124.6
-566.35 -1254.85 2141.7
-501.51 -1231.96 2102.6
-520.41 -1292.45 2205.8
-456.23 -1272.95 2172.5
-390.05 -1224.31 2089.5
-386.74 -1248.63 2131.0
-379.82 -1244.06 2123.2
-373.09 -1239.98 2116.3
-370.25 -1248.89 2131.5
-340.00 -1239.35 2115.2
-330.42 -1224.19 2089.3
-326.03 -1228.06 2095.9
-333.39 -1277.04 2179.5
-330.02 -1285.93 2194.7
-315.31 -1250.19 2133.7
-305.64 -1233.48 2105.2
-296.48 -1218.26 2079.2
-294.53 -1232.64 2103.8
-301.27 -1284.68 2192.6
-280.76 -1244.15 2123.4
-289.44 -1308.27 2232.8
-255.96 -1230.78 2100.6
-260.50 -1308.30 2232.9
-252.61 -1297.52 2214.5
-243.77 -1281.19 2186.6
-221.62 -1284.25 2191.8
-213.71 -1305.39 2227.9
-208.78 -1310.66 2236.9
-198.18 -1279.65 2184.0
-189.97 -1262.73 2155.1
-189.20 -1295.71 2211.4
-182.92 -1291.89 2204.9
-169.94 -1280.18 2184.9
-163.26 -1272.30 2171.4
-160.53 -1295.69 2211.3
-158.98 -1330.68 2271.1
-148.29 -1288.97 2199.9
-148.08 -1338.60 2284.6
-124.16 -1336.18 2280.5
-118.17 -1335.31 2279.0
-113.97 -1355.64 2313.7
-107.18 -1345.67 2296.6
-101.54 -1349.82 2303.7
-95.21 -1344.88 2295.3
-66.00 -1355.95 2314.2
-58.14 -1314.07 2242.7
-51.95 -1304.53 2226.4
-45.41 -1282.85 2189.4
-38.37 -1238.92 2114.5
-33.27 -1253.12 2138.7
-29.10 -1315.33 2244.9
-11.68 -1319.95 2252.8
-5.69 -1285.08 2193.2
0.00 -1275.98 2177.7
5.63 -1273.45 2173.4
11.47 -1295.68 2211.3
17.36 -1307.80 2232.0
22.64 -1278.96 2182.8
28.32 -1279.94 2184.5
34.84 -1312.26 2239.6
45.93 -1297.51 2214.5
50.04 -1256.52 2144.5
55.48 -1253.93 2140.1
60.86 -1250.33 2133.9
64.75 -1219.43 2081.2
70.31 -1222.38 2086.2
76.66 -1237.46 2112.0
81.32 -1225.24 2091.1
85.63 -1209.49 2064.2
91.12 -1211.41 2067.5
99.37 -1247.67 2129.4
108.24 -1287.46 2197.3
115.26 -1302.48 2222.9
119.28 -1283.66 2190.8
122.14 -1254.75 2141.5
129.89 -1276.31 2178.3
140.19 -1320.08 2253.0
150.15 -1305.12 2227.4
152.58 -1277.19 2179.8
156.40 -1262.39 2154.5
165.59 -1290.46 2202.4
176.70 -1331.12 2271.8
197.15 -1350.16 2304.3
190.42 -1265.75 2160.3
195.21 -1260.50 2151.3
202.92 -1273.88 2174.1
206.95 -1264.08 2157.4
210.73 -1253.26 2138.9
221.27 -1282.23 2188.4
237.06 -1339.38 2285.9
241.93 -1333.58 2276.0
242.92 -1307.13 2230.9
263.06 -1292.41 2205.8
257.00 -1235.80 2109.1
265.29 -1249.09 2131.8
280.23 -1292.51 2205.9
287.44 -1299.22 2217.4
288.35 -1277.80 2180.8
308.45 -1267.44 2163.1
312.23 -1260.07 2150.6
315.06 -1249.18 2132.0
318.95 -1242.82 2121.1
320.96 -1229.43 2098.3
324.04 -1220.55 2083.1
338.81 -1255.25 2142.3
340.21 -1220.44 2082.9
340.40 -1202.05 2051.5
348.20 -1210.67 2066.3
414.14 -1231.52 2101.8
416.38 -1222.09 2085.7
441.62 -1247.57 2129.2
529.33 -1220.71 2083.4
551.22 -1221.34 2084.5
556.36 -1220.74 2083.4
-1520.96 -1117.34 1898.6
-1471.41 -1091.53 1854.7
-1506.97 -1125.27 1912.0
-1553.47 -1163.82 1977.5
-1526.46 -1147.37 1949.6
-1474.99 -1112.36 1890.1
-1493.32 -1129.95 1920.0
-1477.84 -1133.35 1925.8
-1483.72 -1141.71 1940.0
-1457.83 -1149.05 1952.4
-1439.45 -1166.98 1982.9
-1425.17 -1159.54 1970.3
-1434.15 -1171.05 1989.8
-1385.02 -1160.15 1971.3
-1375.60 -1156.52 1965.1
-1334.76 -1126.36 1913.9
-1343.71 -1146.70 1948.4
-1342.82 -1154.62 1961.9
-1302.23 -1132.59 1924.5
-1336.68 -1167.03 1983.0
-1304.95 -1161.66 1973.9
-1280.60 -1158.15 1967.9
-1269.89 -1153.06 1959.3
-1277.63 -1169.44 1987.1
-1225.22 -1163.70 1977.3
-1208.24 -1167.11 1983.1
-1230.62 -1193.80 2028.5
-1228.79 -1197.15 2034.2
-1219.70 -1214.35 2063.4
-1162.50 -1167.65 1984.0
-1163.34 -1173.68 1994.3
-1157.39 -1205.17 2047.8
-1127.35 -1179.30 2003.8
-1166.60 -1226.01 2083.2
-1156.26 -1238.08 2103.7
-1142.42 -1229.05 2088.4
-1150.73 -1243.89 2113.6
-1090.19 -1195.52 2031.4
-1077.48 -1187.32 2017.5
-1113.97 -1233.52 2096.0
-1102.42 -1226.72 2084.4
-1034.33 -1156.62 1965.3
-1053.96 -1184.40 2012.5
-1090.59 -1231.66 2092.8
-1051.39 -1193.33 2027.7
-1029.33 -1186.08 2015.4
-1062.03 -1249.12 2122.5
-1062.51 -1256.19 2134.5
-1024.46 -1217.56 2068.8
-996.47 -1190.52 2022.9
-1032.48 -1240.07 2107.1
-1034.43 -1249.01 2122.3
-1010.85 -1227.08 2085.0
-997.04 -1223.40 2078.8
-1014.87 -1252.04 2127.4
-969.55 -1215.95 2066.1
-954.86 -1204.19 2046.1
-967.37 -1226.78 2084.5
-953.10 -1215.47 2065.3
-951.41 -1220.17 2073.3
-962.13 -1240.93 2108.6
-945.01 -1225.81 2082.9
-950.83 -1240.45 2107.7
-959.42 -1258.89 2139.1
-912.61 -1204.44 2046.6
-902.64 -1205.29 2048.0
-929.43 -1248.41 2121.3
-929.53 -1255.98 2134.1
-904.40 -1229.34 2088.9
-913.20 -1248.78 2121.9
-929.46 -1278.72 2172.8
-896.63 -1241.07 2108.8
-881.20 -1227.19 2085.2
-878.12 -1230.45 2090.8
-867.91 -1223.69 2079.3
-886.02 -1257.04 2135.9
-889.49 -1277.94 2171.5
-886.80 -1282.19 2178.7
-867.56 -1270.55 2158.9
-829.72 -1231.03 2091.7
-870.20 -1299.58 2208.2
-850.04 -1277.88 2171.3
-855.15 -1294.13 2199.0
-811.62 -1261.90 2144.2
-782.55 -1225.09 2081.7
-783.78 -1235.55 2099.4
-787.57 -1267.94 2154.5
-751.00 -1226.45 2084.0
-748.54 -1258.65 2138.7
-715.92 -1212.78 2060.7
-743.20 -1268.46 2155.4
-722.73 -1262.00 2144.4
-716.31 -1270.33 2158.5
-667.09 -1251.48 2126.5
-629.50 -1231.86 2093.2
-633.37 -1250.21 2124.3
-593.59 -1224.95 2081.4
-590.90 -1241.99 2110.4
-566.08 -1247.56 2119.8
-560.19 -1246.69 2118.3
-565.43 -1283.52 2180.9
-549.24 -1259.37 2139.9
-526.21 -1244.27 2114.2
-527.82 -1261.21 2143.0
-534.62 -1291.06 2193.7
-522.26 -1274.76 2166.0
-505.19 -1246.51 2118.0
-524.43 -1308.19 2222.8
-491.38 -1297.02 2203.9
-450.55 -1247.24 2119.3
-456.80 -1280.17 2175.2
-450.74 -1295.15 2200.7
-445.37 -1296.14 2202.4
-387.39 -1221.36 2075.3
-385.65 -1268.74 2155.8
-377.03 -1258.63 2138.6
-372.20 -1261.05 2142.8
-330.33 -1229.25 2088.7
-324.61 -1228.11 2086.8
-329.88 -1269.20 2156.6
-332.09 -1299.74 2208.5
-322.79 -1285.52 2184.3
-308.90 -1252.15 2127.6
-296.27 -1222.79 2077.7
-290.00 -1316.62 2237.2
-267.84 -1240.81 2108.4
-261.48 -1236.57 2101.2
-264.55 -1277.72 2171.1
-249.42 -1316.72 2237.3
-238.72 -1290.23 2192.3
-224.69 -1244.03 2113.8
-218.28 -1238.72 2104.8
-220.59 -1283.93 2181.6
-216.66 -1294.29 2199.2
-209.85 -1287.45 2187.6
-213.19 -1344.31 2284.2
-209.65 -1359.71 2310.4
-202.48 -1351.85 2297.0
-163.53 -1280.03 2175.0
-148.06 -1292.71 2196.5
-125.61 -1357.81 2307.2
-117.54 -1334.13 2266.9
-111.42 -1331.22 2262.0
-102.60 -1293.84 2198.5
-95.80 -1279.25 2173.7
-93.57 -1327.51 2255.7
-76.51 -1335.91 2270.0
-69.85 -1321.29 2245.1
-63.93 -1319.34 2241.8
-56.87 -1291.01 2193.7
-51.43 -1297.16 2204.1
-46.34 -1314.96 2234.4
-40.24 -1304.87 2217.2
-33.83 -1280.06 2175.1
-28.97 -1315.09 2234.6
-11.56 -1312.12 2229.5
-5.63 -1278.14 2171.8
0.00 -1289.31 2190.8
5.74 -1303.50 2214.9
11.18 -1268.50 2155.4
16.25 -1229.94 2089.9
21.65 -1228.39 2087.3
27.64 -1254.74 2132.0
33.71 -1275.50 2167.3
39.32 -1274.95 2166.4
44.97 -1275.92 2168.0
50.12 -1264.20 2148.1
55.55 -1261.10 2142.8
60.94 -1257.48 2136.7
65.29 -1235.10 2098.7
71.31 -1245.16 2115.8
77.23 -1252.18 2127.7
81.36 -1231.30 2092.2
86.46 -1226.64 2084.3
92.92 -1240.73 2108.2
102.19 -1288.77 2189.9
115.49 -1310.82 2227.3
114.32 -1235.70 2099.7
119.50 -1233.04 2095.2
129.80 -1281.02 2176.7
138.31 -1308.22 2222.9
142.89 -1297.43 2204.6
147.14 -1284.60 2182.8
151.03 -1269.75 2157.5
155.60 -1261.48 2143.5
165.79 -1297.74 2205.1
172.49 -1305.14 2217.7
175.93 -1288.25 2189.0
190.35 -1350.27 2294.4
195.75 -1346.52 2288.0
194.00 -1295.21 2200.8
206.06 -1336.45 2270.9
219.37 -1310.46 2226.7
226.92 -1320.82 2244.3
237.24 -1346.33 2287.7
236.46 -1309.18 2224.5
239.19 -1292.76 2196.6
257.61 -1299.49 2208.1
258.26 -1274.48 2165.6
263.40 -1272.17 2161.6
265.64 -1256.23 2134.6
274.26 -1270.56 2158.9
284.45 -1291.42 2194.4
289.05 -1286.56 2186.1
288.18 -1258.02 2137.6
289.18 -1238.55 2104.5
306.29 -1241.58 2109.7
324.56 -1292.56 2196.3
317.83 -1243.91 2113.6
352.77 -1251.22 2126.0
409.71 -1240.06 2107.1
416.36 -1243.61 2113.1
436.48 -1254.19 2131.1
449.46 -1244.25 2114.2
510.05 -1244.96 2115.4
510.37 -1232.49 2094.2
519.93 -1242.35 2111.0
528.33 -1223.79 2079.4
549.67 -1260.36 2141.6
547.48 -1230.47 2090.8
551.05 -1214.45 2063.6
-1529.44 -1128.52 1909.2
-1482.11 -1104.32 1868.2
-1459.11 -1090.74 1845.2
-1502.44 -1126.83 1906.3
-1437.54 -1107.29 1873.2
-1452.30 -1122.46 1898.9
-1459.83 -1132.12 1915.2
-1452.53 -1130.29 1912.2
-1427.08 -1178.89 1994.4
-1428.79 -1193.28 2018.7
-1361.10 -1145.13 1937.3
-1332.57 -1133.68 1917.9
-1315.64 -1140.56 1929.5
-1294.29 -1152.73 1950.1
-1291.46 -1154.72 1953.5
-1286.31 -1163.80 1968.8
-1257.01 -1141.83 1931.7
-1246.01 -1145.53 1937.9
-1221.45 -1132.08 1915.2
-1260.48 -1207.52 2042.8
-1194.16 -1158.59 1960.0
-1169.80 -1139.81 1928.2
-1193.55 -1167.94 1975.8
-1225.84 -1204.70 2038.0
-1183.62 -1188.84 2011.2
-1181.13 -1196.88 2024.8
-1146.44 -1172.14 1982.9
-1095.25 -1124.85 1902.9
-1122.69 -1158.25 1959.5
-1188.68 -1231.90 2084.0
-1091.01 -1146.31 1939.2
-1075.20 -1134.94 1920.0
-1124.80 -1192.82 2017.9
-1147.70 -1222.78 2068.6
-1136.89 -1216.95 2058.7
-1117.13 -1201.44 2032.5
-1113.24 -1202.94 2035.0
-1128.44 -1225.17 2072.6
-1101.92 -1207.88 2043.4
-1084.56 -1194.59 2020.9
-1081.07 -1196.52 2024.2
-1109.18 -1233.63 2087.0
-1089.79 -1218.00 2060.5
-1016.44 -1141.62 1931.3
-1031.60 -1164.38 1969.8
-1100.20 -1247.99 2111.3
-1093.19 -1246.24 2108.3
-1064.28 -1219.37 2062.8
-1078.80 -1242.26 2101.6
-1018.76 -1185.09 2004.9
-1017.59 -1189.79 2012.8
-1054.91 -1239.80 2097.4
-1042.81 -1231.92 2084.1
-1023.68 -1215.62 2056.5
-970.36 -1176.82 1990.9
-980.22 -1195.13 2021.8
-999.14 -1224.75 2071.9
-989.21 -1219.13 2062.4
-999.07 -1237.98 2094.3
-996.69 -1241.77 2100.7
-952.12 -1192.77 2017.8
-936.39 -1179.54 1995.5
-966.60 -1224.36 2071.3
-963.09 -1226.73 2075.3
-931.12 -1192.67 2017.7
-933.58 -1202.58 2034.4
-951.31 -1232.38 2084.9
-936.08 -1219.57 2063.2
-944.10 -1237.09 2092.8
-964.95 -1271.73 2151.4
-928.91 -1231.35 2083.1
-905.66 -1207.55 2042.8
-936.86 -1256.50 2125.7
-923.92 -1284.47 2173.0
-884.76 -1237.58 2093.6
-872.45 -1235.51 2090.2
-877.59 -1282.63 2169.9
-849.24 -1265.53 2140.9
-829.48 -1244.23 2104.9
-839.28 -1267.25 2143.8
-823.94 -1269.32 2147.3
-809.25 -1255.17 2123.4
-786.31 -1227.94 2077.3
-771.58 -1213.25 2052.5
-782.67 -1239.23 2096.4
-784.13 -1250.22 2115.0
-793.65 -1274.31 2155.8
-802.67 -1297.94 2195.8
-793.91 -1292.94 2187.3
-783.40 -1285.01 2173.9
-731.34 -1226.07 2074.2
-724.68 -1223.91 2070.5
-721.19 -1227.10 2075.9
-723.36 -1240.04 2097.8
-746.61 -1289.60 2181.7
-656.74 -1237.48 2093.5
-640.61 -1259.13 2130.1
-608.21 -1260.66 2132.7
-582.54 -1229.80 2080.5
-570.00 -1249.61 2114.0
-562.55 -1245.26 2106.6
-541.95 -1235.64 2090.4
-532.90 -1227.28 2076.2
-542.72 -1262.65 2136.1
-537.41 -1289.78 2182.0
-521.72 -1265.46 2140.8
-520.27 -1275.49 2157.8
-515.30 -1277.05 2160.4
-511.91 -1282.60 2169.8
-509.46 -1290.64 2183.4
-499.73 -1280.21 2165.8
-484.88 -1256.29 2125.3
-481.05 -1290.35 2182.9
-464.35 -1260.37 2132.2
-459.86 -1294.42 2189.8
-445.04 -1268.37 2145.7
-430.45 -1242.30 2101.6
-424.99 -1242.27 2101.6
-432.74 -1281.35 2167.7
-396.54 -1238.51 2095.2
-333.21 -1225.36 2073.0
-324.97 -1214.63 2054.8
-326.11 -1239.20 2096.4
-332.38 -1284.47 2173.0
-322.43 -1289.74 2181.9
-304.59 -1240.11 2097.9
-293.99 -1218.73 2061.8
-282.16 -1213.82 2053.4
-276.59 -1261.26 2133.7
-257.99 -1225.44 2073.1
-263.31 -1277.35 2160.9
-262.06 -1298.90 2197.4
-244.75 -1297.73 2195.4
-233.69 -1268.62 2146.2
-229.00 -1273.44 2154.3
-232.08 -1322.86 2237.9
-230.31 -1346.44 2277.8
-220.98 -1325.90 2243.1
-208.13 -1282.54 2169.7
-204.30 -1293.93 2189.0
-203.80 -1327.64 2246.0
-200.06 -1341.56 2269.6
-192.20 -1369.41 2316.7
-182.29 -1340.69 2268.1
-164.18 -1290.82 2183.7
-159.42 -1298.11 2196.0
-152.12 -1284.57 2173.1
-152.24 -1335.03 2258.5
-130.26 -1291.31 2184.5
-123.53 -1280.27 2165.9
-118.35 -1284.98 2173.8
-112.86 -1286.64 2176.6
-107.99 -1295.92 2192.3
-100.79 -1276.71 2159.9
-95.54 -1281.40 2167.8
-95.03 -1354.23 2291.0
-90.47 -1375.18 2326.4
-80.86 -1316.79 2227.7
-73.20 -1283.82 2171.9
-68.30 -1297.63 2195.2
-63.17 -1309.41 2215.2
-56.85 -1296.25 2192.9
-52.09 -1319.71 2232.6
-47.65 -1357.93 2297.2
-41.58 -1354.42 2291.3
-34.95 -1328.00 2246.6
-29.17 -1330.07 2250.1
-23.84 -1359.11 2299.2
-5.74 -1308.78 2214.1
0.00 -1304.20 2206.4
5.80 -1322.01 2236.5
11.34 -1292.49 2186.5
16.34 -1242.10 2101.3
21.58 -1229.86 2080.6
27.08 -1234.92 2089.2
32.52 -1235.91 2090.8
38.32 -1248.08 2111.4
44.20 -1259.73 2131.1
49.10 -1243.91 2104.4
54.29 -1237.74 2093.9
60.67 -1257.52 2127.4
66.15 -1256.94 2126.4
70.82 -1242.11 2101.3
75.11 -1223.21 2069.3
80.30 -1220.58 2064.9
86.50 -1232.69 2085.4
92.13 -1235.64 2090.4
100.43 -1272.14 2152.1
109.73 -1316.76 2227.6
111.70 -1273.42 2154.3
113.81 -1235.68 2090.4
123.04 -1275.19 2157.3
128.93 -1278.10 2162.2
132.22 -1256.10 2125.0
141.17 -1287.44 2178.0
150.73 -1321.83 2236.2
156.87 -1324.70 2241.0
164.41 -1338.74 2264.8
168.25 -1322.81 2237.8
167.55 -1273.37 2154.2
175.17 -1248.10 2111.5
187.45 -1295.10 2191.0
194.61 -1305.03 2207.8
204.19 -1330.17 2250.3
209.11 -1324.36 2240.5
234.48 -1336.54 2261.1
232.37 -1292.19 2186.0
234.81 -1274.70 2156.4
243.89 -1293.17 2187.7
246.77 -1278.72 2163.2
255.12 -1292.61 2186.8
268.95 -1304.68 2207.2
268.53 -1275.53 2157.9
272.21 -1266.63 2142.8
278.15 -1268.34 2145.7
287.94 -1287.24 2177.7
293.16 -1285.40 2174.5
295.20 -1269.91 2148.3
295.30 -1246.84 2109.3
312.65 -1272.93 2153.4
319.78 -1257.08 2126.6
322.20 -1245.11 2106.4
343.91 -1244.64 2105.6
351.53 -1252.31 2118.6
371.05 -1262.69 2136.1
369.71 -1239.63 2097.1
404.80 -1230.60 2081.8
420.37 -1213.23 2052.5
425.36 -1212.27 2050.8
441.95 -1228.84 2078.9
453.72 -1246.36 2108.5
445.92 -1210.35 2047.6
459.43 -1232.36 2084.8
500.55 -1227.16 2076.0
504.68 -1224.12 2070.9
512.52 -1230.04 2080.9
513.49 -1219.53 2063.1
518.81 -1219.47 2063.0
-1517.58 -1139.43 1919.2
-1515.29 -1141.45 1922.6
-1436.31 -1114.97 1878.0
-1429.62 -1113.55 1875.6
-1410.35 -1102.29 1856.6
-1458.52 -1167.84 1967.0
-1472.65 -1187.45 2000.1
-1447.06 -1170.94 1972.3
-1426.73 -1192.41 2008.4
-1389.66 -1165.68 1963.4
-1306.27 -1141.74 1923.1
-1283.27 -1147.92 1933.5
-1269.10 -1139.71 1919.7
-1213.18 -1129.34 1902.2
-1231.53 -1195.00 2012.8
-1186.14 -1155.85 1946.8
-1167.32 -1152.22 1940.7
-1177.53 -1167.34 1966.2
-1199.09 -1215.01 2046.5
-1146.28 -1177.13 1982.7
-1099.58 -1134.25 1910.5
-1137.14 -1178.30 1984.7
-1095.04 -1160.94 1955.4
-1100.43 -1172.08 1974.2
-1142.33 -1222.40 2058.9
-1105.41 -1194.05 2011.2
-1075.60 -1167.36 1966.2
-1091.35 -1190.09 2004.5
-1089.62 -1193.89 2010.9
-1095.84 -1206.48 2032.1
-1109.52 -1227.44 2067.4
-1065.03 -1183.94 1994.2
-1048.70 -1171.48 1973.2
-1050.74 -1191.19 2006.4
-1093.84 -1246.22 2099.1
-1098.27 -1257.51 2118.1
-1078.68 -1241.29 2090.8
-1057.53 -1229.31 2070.6
-1063.44 -1242.48 2092.8
-1044.73 -1246.06 2098.8
-1046.79 -1255.05 2113.9
-1000.60 -1212.36 2042.0
-966.57 -1183.66 1993.7
-995.10 -1225.16 2063.6
-994.35 -1230.84 2073.2
-975.33 -1213.86 2044.6
-945.48 -1183.14 1992.8
-954.58 -1201.09 2023.0
-998.71 -1263.56 2128.3
-960.29 -1228.53 2069.3
-955.29 -1228.99 2070.0
-929.06 -1222.73 2059.5
-946.37 -1252.70 2110.0
-908.62 -1261.05 2124.0
-892.09 -1245.66 2098.1
-885.92 -1244.64 2096.4
-877.99 -1248.81 2103.4
-836.02 -1259.53 2121.5
-830.12 -1258.93 2120.5
-779.31 -1222.35 2058.9
-790.17 -1247.92 2101.9
-798.98 -1270.61 2140.1
-798.81 -1279.21 2154.6
-781.35 -1306.06 2199.8
-735.22 -1237.98 2085.2
-729.31 -1246.36 2099.3
-745.63 -1283.82 2162.4
-660.30 -1239.42 2087.6
-645.10 -1220.89 2056.4
-651.24 -1242.78 2093.3
-651.04 -1252.85 2110.2
-613.87 -1244.04 2095.4
-603.19 -1233.31 2077.3
-541.58 -1240.21 2088.9
-538.14 -1244.79 2096.6
-538.50 -1258.34 2119.5
-539.59 -1273.89 2145.7
-527.91 -1272.55 2143.4
-525.26 -1279.62 2155.3
-509.32 -1267.75 2135.3
-488.68 -1257.38 2117.9
-482.43 -1255.41 2114.5
-473.36 -1260.46 2123.1
-418.70 -1278.44 2153.3
-361.04 -1234.00 2078.5
-321.64 -1207.47 2033.8
-325.21 -1241.23 2090.6
-316.53 -1271.66 2141.9
-304.37 -1244.66 2096.4
-298.65 -1243.48 2094.4
-295.93 -1254.96 2113.8
-301.79 -1303.96 2196.3
-257.91 -1256.63 2116.6
-255.03 -1269.62 2138.5
