ply
format ascii 1.0
element vertex 2113
property float x
property float y
property float z
end_header
-495.43 -918.26 1647.4
-503.78 -941.86 1689.7
-494.93 -933.42 1674.6
-490.36 -932.98 1673.8
-479.64 -920.75 1651.8
-460.75 -892.44 1601.1
-456.57 -953.04 1709.8
-452.84 -963.96 1729.4
-399.94 -877.43 1574.1
-400.99 -888.79 1594.5
-395.98 -886.83 1591.0
-395.61 -895.33 1606.2
-401.42 -918.13 1647.1
-407.84 -942.85 1691.5
-409.96 -958.05 1718.8
-389.13 -919.38 1649.4
-373.45 -892.12 1600.5
-380.33 -918.77 1648.3
-379.93 -928.24 1665.3
-376.94 -931.51 1671.1
-370.09 -925.21 1659.9
-353.08 -893.09 1602.2
-356.33 -923.03 1655.9
-343.97 -901.86 1618.0
-330.02 -898.15 1611.3
-318.49 -877.88 1574.9
-315.48 -892.47 1601.1
-316.47 -907.21 1627.6
-306.91 -891.70 1599.7
-313.31 -922.77 1655.5
-312.51 -933.20 1674.2
-299.19 -932.26 1672.5
-298.00 -942.20 1690.3
-287.87 -923.75 1657.2
-271.32 -925.92 1661.1
-248.13 -889.15 1595.1
-222.37 -885.37 1588.4
-229.51 -931.05 1670.3
-221.97 -917.75 1646.5
-212.02 -893.81 1603.5
-216.13 -929.36 1667.3
-217.70 -955.24 1713.7
-203.37 -910.94 1634.2
-193.33 -903.63 1621.1
-189.48 -905.29 1624.1
-184.72 -902.59 1619.3
-177.75 -888.73 1594.4
-173.37 -887.47 1592.1
-174.17 -913.35 1638.6
-171.76 -923.24 1656.3
-167.33 -922.45 1654.9
-161.44 -913.42 1638.7
-155.14 -901.46 1617.2
-150.97 -901.63 1617.5
-147.20 -904.22 1622.2
-118.55 -878.87 1576.7
-118.97 -913.50 1638.8
-115.77 -921.89 1653.9
-111.91 -925.41 1660.2
-83.88 -901.75 1617.8
-84.30 -953.89 1711.3
-78.69 -939.87 1686.1
-72.98 -922.92 1655.7
-69.45 -933.22 1674.2
-57.44 -949.98 1704.3
-49.98 -895.53 1606.6
-35.03 -941.47 1689.0
-30.83 -946.86 1698.7
-25.96 -930.34 1669.0
4.23 -908.51 1629.9
8.42 -905.10 1623.8
12.57 -901.19 1616.8
17.04 -915.78 1642.9
21.59 -928.42 1665.6
25.84 -925.96 1661.2
29.99 -921.06 1652.4
37.88 -904.92 1623.4
43.69 -939.43 1685.4
48.16 -941.33 1688.8
51.45 -921.81 1653.7
65.50 -880.19 1579.1
70.67 -893.73 1603.4
76.69 -916.03 1643.4
80.00 -905.24 1624.0
83.34 -895.91 1607.3
87.02 -890.95 1598.4
89.42 -873.84 1567.7
92.90 -868.39 1557.9
119.59 -886.64 1590.7
125.19 -897.20 1609.6
132.49 -918.91 1648.5
137.47 -923.62 1657.0
140.18 -913.27 1638.4
142.17 -899.04 1612.9
152.27 -909.39 1631.5
157.72 -916.50 1644.2
174.03 -890.86 1598.2
179.98 -899.88 1614.4
181.94 -889.02 1594.9
186.64 -891.73 1599.8
191.26 -893.94 1603.7
191.14 -874.36 1568.6
197.00 -882.38 1583.0
205.35 -901.04 1616.5
224.80 -895.03 1605.7
232.24 -907.83 1628.7
235.13 -902.75 1619.5
238.50 -899.59 1613.9
242.09 -897.40 1610.0
244.34 -890.38 1597.4
260.02 -887.36 1591.9
267.65 -899.12 1613.0
263.58 -871.86 1564.1
273.95 -866.17 1553.9
291.01 -906.76 1626.8
289.33 -888.66 1594.3
293.84 -889.78 1596.3
301.25 -899.56 1613.8
302.55 -891.07 1598.6
307.08 -892.18 1600.6
311.95 -871.03 1562.6
316.92 -873.57 1567.2
333.19 -906.78 1626.8
348.86 -937.56 1682.0
333.74 -875.05 1569.9
339.52 -879.48 1577.8
367.54 -868.36 1557.9
371.77 -859.48 1541.9
391.84 -896.23 1607.8
394.35 -892.48 1601.1
387.48 -867.80 1556.8
438.81 -849.94 1524.8
461.21 -885.35 1588.3
460.61 -876.38 1572.2
449.93 -848.56 1522.3
450.61 -842.44 1511.4
493.72 -863.00 1548.2
507.71 -880.31 1579.3
505.51 -869.48 1559.9
535.28 -871.86 1564.1
549.67 -888.56 1594.1
551.13 -884.28 1586.4
546.12 -869.75 1560.4
556.00 -878.97 1576.9
557.88 -856.75 1537.0
572.15 -872.42 1565.1
575.21 -870.92 1562.5
560.09 -842.09 1510.7
627.19 -898.97 1612.8
606.02 -862.87 1548.0
619.07 -864.28 1550.5
631.59 -876.08 1571.7
626.50 -836.63 1500.9
643.71 -854.30 1532.6
640.96 -825.19 1480.4
652.85 -835.49 1498.9
708.42 -901.25 1616.9
717.82 -907.83 1628.7
694.05 -872.64 1565.5
703.75 -879.68 1578.2
706.93 -878.56 1576.1
698.00 -862.48 1547.3
706.53 -858.21 1539.6
716.32 -865.21 1552.2
681.08 -818.06 1467.6
737.54 -852.53 1529.5
725.30 -833.90 1496.0
760.82 -860.93 1544.5
779.28 -877.20 1573.7
762.78 -854.15 1532.4
802.25 -884.54 1586.9
806.91 -885.13 1587.9
801.79 -875.05 1569.9
792.50 -860.54 1543.8
785.14 -848.27 1521.8
811.11 -871.94 1564.3
837.26 -895.57 1606.7
820.73 -873.55 1567.2
812.67 -852.31 1529.1
816.77 -852.46 1529.3
772.60 -794.78 1425.9
795.91 -803.39 1441.3
795.45 -799.17 1433.7
964.28 -800.47 1436.1
990.90 -819.39 1470.0
965.23 -795.11 1426.4
996.03 -817.35 1466.3
1035.17 -846.24 1518.2
990.35 -806.53 1446.9
989.15 -799.50 1434.3
1004.06 -802.50 1439.7
1021.39 -813.33 1459.1
1035.12 -821.22 1473.3
1036.32 -819.15 1469.6
1035.39 -815.42 1462.9
1042.35 -817.90 1467.3
1010.20 -789.80 1416.9
1082.31 -828.10 1485.6
1051.40 -782.19 1403.3
1077.55 -798.87 1433.2
1076.84 -795.60 1427.3
1070.93 -785.83 1409.8
1086.76 -794.74 1425.8
1109.32 -808.49 1450.4
1100.86 -794.24 1424.9
1077.04 -774.46 1389.4
1171.04 -817.45 1466.5
1130.59 -786.66 1411.3
1094.03 -756.32 1356.9
1121.19 -772.62 1386.1
1141.86 -772.02 1385.0
1150.08 -775.13 1390.6
-1526.44 -1036.83 1851.5
-1488.47 -1020.66 1822.6
-1432.82 -1001.58 1788.5
-1438.27 -1008.66 1801.2
-1426.39 -1016.83 1815.8
-1447.14 -1048.93 1873.1
-1459.59 -1076.01 1921.4
-1402.11 -1037.18 1852.1
-1399.86 -1039.07 1855.5
-1372.91 -1022.58 1826.0
-1291.79 -982.49 1754.4
-1278.86 -976.09 1743.0
-1228.86 -941.26 1680.8
-1253.66 -963.67 1720.8
-1267.60 -977.86 1746.2
-1210.46 -937.13 1673.4
-1198.83 -931.47 1663.3
-1185.12 -924.13 1650.2
-1136.62 -902.61 1611.8
-1118.43 -891.44 1591.9
-1105.00 -884.00 1578.6
-1100.98 -884.06 1578.7
-1099.71 -893.00 1594.6
-1109.52 -904.37 1614.9
-1027.18 -856.65 1529.7
-1026.75 -859.60 1535.0
-1023.27 -860.03 1535.8
-1027.19 -876.97 1566.0
-1088.51 -933.01 1666.1
-1062.04 -913.95 1632.0
-1045.54 -903.35 1613.1
-1080.65 -937.43 1674.0
-1070.50 -932.37 1664.9
-993.75 -883.34 1577.4
-971.89 -874.70 1562.0
-965.90 -872.95 1558.8
-978.89 -888.40 1586.4
-1011.60 -921.97 1646.4
-973.90 -891.37 1591.7
-937.83 -862.00 1539.3
-962.78 -888.72 1587.0
-977.28 -905.98 1617.8
-989.33 -921.10 1644.8
-1001.26 -936.25 1671.9
-975.70 -916.31 1636.3
-962.24 -907.61 1620.7
-960.76 -910.19 1625.3
-917.08 -884.33 1579.2
-912.92 -884.26 1579.0
-907.27 -886.74 1583.5
-872.30 -880.45 1572.2
-836.15 -868.31 1550.5
-883.99 -945.25 1688.0
-865.88 -930.49 1661.6
-848.70 -916.60 1636.8
-815.62 -885.29 1580.9
-808.94 -882.48 1575.8
-815.75 -908.26 1621.9
-815.02 -912.15 1628.8
-784.90 -887.64 1585.1
-790.52 -898.70 1604.8
-805.87 -921.00 1644.6
-792.87 -910.96 1626.7
-784.93 -911.54 1627.7
-803.49 -943.23 1684.3
-756.86 -908.23 1621.8
-780.64 -942.00 1682.1
-748.13 -907.84 1621.2
-739.31 -902.20 1611.1
-756.05 -927.87 1656.9
-745.71 -920.42 1643.6
-731.03 -907.49 1620.5
-746.34 -931.85 1664.0
-760.00 -954.42 1704.3
-737.04 -930.99 1662.5
-700.26 -889.75 1588.8
-709.77 -912.56 1629.6
-705.72 -912.78 1630.0
-730.14 -950.06 1696.5
-719.63 -947.80 1692.5
-706.43 -936.12 1671.6
-682.99 -910.66 1626.2
-664.56 -891.58 1592.1
-668.06 -901.88 1610.5
-656.95 -903.82 1614.0
-675.85 -935.80 1671.1
-661.41 -921.71 1645.9
-655.96 -920.05 1642.9
-652.81 -921.62 1645.7
-639.89 -909.32 1623.8
-642.91 -919.66 1642.3
-581.91 -891.43 1591.8
-580.27 -895.27 1598.7
-587.60 -913.10 1630.5
-583.15 -912.76 1629.9
-574.56 -905.88 1617.6
-566.03 -898.98 1605.3
-563.97 -902.36 1611.4
-566.24 -912.74 1629.9
-575.34 -948.65 1694.0
-576.94 -958.61 1711.8
-554.36 -928.23 1657.6
-548.73 -925.98 1653.5
-547.26 -930.77 1662.1
-525.67 -930.69 1661.9
-525.36 -937.83 1674.7
-513.98 -925.16 1652.1
-519.08 -942.20 1682.5
-513.47 -939.90 1678.4
-483.63 -908.37 1622.1
-502.41 -951.93 1699.9
-488.36 -933.51 1667.0
-470.25 -915.09 1634.1
-471.34 -925.53 1652.7
-453.17 -898.03 1603.6
-423.65 -879.90 1571.2
-456.10 -956.47 1708.0
-444.57 -950.75 1697.8
-416.55 -899.75 1606.7
-405.16 -883.98 1578.5
-403.42 -889.17 1587.8
-403.35 -898.18 1603.9
-397.26 -893.83 1596.1
-394.36 -896.64 1601.1
-398.08 -914.74 1633.5
-383.68 -910.72 1626.3
-386.22 -926.92 1655.2
-388.41 -942.66 1683.3
-382.65 -939.23 1677.2
-370.74 -920.46 1643.7
-346.29 -879.98 1571.4
-352.62 -906.75 1619.2
-350.23 -911.44 1627.6
-320.69 -876.83 1565.8
-315.63 -909.01 1623.2
-313.18 -914.16 1632.4
-301.78 -958.60 1711.8
-290.10 -935.26 1670.1
-278.48 -911.40 1627.5
-272.76 -906.39 1618.5
-277.67 -937.14 1673.5
-276.24 -947.12 1691.3
-258.89 -901.93 1610.6
-247.82 -877.52 1567.0
-246.79 -888.44 1586.5
-251.74 -921.64 1645.8
-251.06 -934.99 1669.6
-227.72 -928.05 1657.2
-212.18 -916.64 1636.9
-213.06 -939.21 1677.2
-179.70 -924.18 1650.3
-174.17 -917.57 1638.5
-166.08 -896.83 1601.5
-165.74 -917.94 1639.2
-163.92 -931.75 1663.8
-157.63 -920.24 1643.3
-153.40 -920.41 1643.6
-151.46 -934.71 1669.1
-132.84 -896.68 1601.2
-128.36 -894.39 1597.1
-125.26 -901.84 1610.4
-119.86 -892.71 1594.1
-115.55 -891.38 1591.8
-113.08 -904.67 1615.5
-110.03 -914.06 1632.3
-108.41 -936.62 1672.5
-103.16 -928.45 1657.9
-81.24 -923.58 1649.3
-76.61 -919.28 1641.6
-72.32 -918.87 1640.8
-70.06 -945.81 1688.9
-65.48 -942.95 1683.8
-59.67 -920.56 1643.8
-55.70 -925.50 1652.7
-29.38 -906.73 1619.2
-16.90 -912.67 1629.8
0.00 -893.66 1595.8
4.24 -916.13 1635.9
8.51 -919.05 1641.2
12.76 -918.55 1640.3
17.32 -935.15 1669.9
21.53 -930.24 1661.1
25.24 -908.72 1622.7
29.50 -910.15 1625.3
33.27 -898.39 1604.3
45.42 -891.91 1592.7
51.15 -920.68 1644.1
54.08 -898.64 1604.7
57.99 -894.67 1597.6
63.28 -911.21 1627.2
67.49 -911.14 1627.0
70.63 -897.39 1602.5
74.21 -890.47 1590.1
78.75 -895.27 1598.7
83.43 -901.04 1609.0
91.01 -936.09 1671.6
96.74 -908.55 1622.4
119.33 -888.81 1587.2
127.76 -919.88 1642.6
130.46 -909.01 1623.2
130.82 -883.04 1576.9
136.00 -890.20 1589.6
140.48 -892.49 1593.7
172.04 -884.79 1580.0
182.20 -915.23 1634.3
188.57 -925.73 1653.1
185.93 -892.46 1593.7
197.65 -889.41 1588.2
203.81 -898.41 1604.3
230.61 -889.48 1588.4
238.62 -904.25 1614.7
247.03 -919.97 1642.8
245.39 -898.39 1604.3
267.79 -903.78 1613.9
286.84 -897.93 1603.4
291.05 -898.10 1603.8
293.68 -893.44 1595.4
299.16 -897.47 1602.6
298.48 -883.16 1577.1
307.43 -885.40 1581.1
315.31 -896.14 1600.3
327.06 -917.46 1638.3
334.65 -926.74 1654.9
329.31 -900.40 1607.9
344.78 -876.14 1564.5
367.59 -923.25 1648.7
352.59 -875.40 1563.2
381.03 -875.55 1563.5
383.01 -870.84 1555.1
412.29 -908.73 1622.7
402.75 -878.73 1569.2
435.60 -855.36 1527.4
441.52 -859.17 1534.2
454.10 -875.76 1563.9
458.89 -877.18 1566.4
452.96 -858.25 1532.6
452.16 -849.27 1516.5
454.31 -845.96 1510.6
461.04 -851.16 1519.9
491.62 -870.40 1554.3
503.40 -884.02 1578.6
516.38 -899.49 1606.2
519.15 -897.08 1601.9
507.91 -870.71 1554.8
506.67 -861.73 1538.8
511.46 -863.09 1541.2
535.28 -869.33 1552.4
535.20 -862.71 1540.6
546.46 -843.10 1505.5
570.66 -874.21 1561.1
585.65 -890.85 1590.8
577.38 -872.13 1557.4
573.60 -860.40 1536.4
577.20 -859.82 1535.4
651.03 -913.13 1630.6
644.91 -870.63 1554.7
641.97 -861.28 1538.0
653.06 -870.75 1554.9
654.21 -851.26 1520.1
648.11 -838.28 1496.9
662.16 -851.35 1520.3
710.95 -908.67 1622.6
714.62 -907.99 1621.4
768.41 -873.56 1559.9
776.58 -878.22 1568.3
749.72 -843.44 1506.1
768.47 -846.89 1512.3
755.28 -819.80 1463.9
798.41 -862.29 1539.8
826.56 -888.24 1586.1
812.92 -869.26 1552.3
807.41 -854.90 1526.6
784.08 -818.18 1461.0
822.10 -853.72 1524.5
813.49 -817.27 1459.4
825.33 -825.33 1473.8
788.31 -784.68 1401.2
777.96 -770.83 1376.5
785.71 -774.95 1383.8
1004.16 -824.71 1472.7
971.60 -794.94 1419.5
995.55 -796.44 1422.2
1016.52 -810.21 1446.8
980.35 -770.02 1375.0
1098.63 -844.50 1508.0
1046.72 -790.53 1411.7
1066.72 -802.83 1433.6
1073.57 -802.39 1432.8
1067.40 -795.03 1419.7
1115.69 -816.91 1458.8
1152.24 -840.82 1501.5
1120.90 -815.20 1455.7
1121.61 -810.26 1446.9
1107.33 -797.28 1423.7
1097.67 -767.31 1370.2
1131.63 -788.49 1408.0
-1465.52 -1006.38 1788.8
-1485.06 -1023.04 1818.4
-1524.74 -1053.72 1873.0
-1447.78 -1016.73 1807.2
-1495.47 -1053.62 1872.8
-1434.62 -1014.05 1802.5
-1462.12 -1050.60 1867.4
-1490.79 -1081.95 1923.1
-1433.78 -1051.11 1868.3
-1338.35 -998.01 1773.9
-1433.24 -1072.46 1906.3
-1282.85 -966.59 1718.1
-1296.72 -990.81 1761.1
-1265.47 -970.34 1724.8
-1230.05 -946.53 1682.4
-1265.53 -977.30 1737.1
-1259.09 -979.30 1740.7
-1251.07 -976.56 1735.8
-1242.01 -972.98 1729.5
-1163.64 -914.89 1626.2
-1110.46 -876.25 1557.5
-1112.28 -880.89 1565.8
-1125.61 -894.72 1590.3
-1138.85 -908.57 1615.0
-1124.84 -900.71 1601.0
-1098.38 -882.78 1569.1
-1082.95 -873.61 1552.8
-1072.75 -868.61 1543.9
-1114.27 -909.01 1615.8
-1126.60 -922.54 1639.8
-1126.03 -925.56 1645.2
-1100.91 -908.36 1614.6
-1056.14 -884.87 1572.8
-1052.09 -884.90 1572.9
-1042.51 -880.25 1564.6
-1051.15 -901.58 1602.5
-1089.58 -938.25 1667.7
-1040.92 -899.92 1599.6
-1066.50 -929.44 1652.1
-1090.13 -953.86 1695.5
-1058.03 -929.52 1652.2
-996.46 -878.99 1562.4
-969.63 -858.81 1526.5
-1007.18 -906.88 1612.0
-984.40 -890.06 1582.1
-977.82 -902.92 1604.9
-922.28 -870.15 1546.7
-981.16 -929.75 1652.6
-958.54 -912.30 1621.6
-913.64 -881.15 1566.2
-944.73 -915.20 1626.8
-940.92 -915.60 1627.5
-923.00 -906.29 1610.9
-924.55 -911.94 1621.0
-920.73 -912.32 1621.6
-888.18 -884.11 1571.5
-902.78 -911.18 1619.6
-867.67 -896.60 1593.7
-884.37 -918.22 1632.1
-873.25 -911.03 1619.3
-841.45 -890.71 1583.2
-884.54 -940.90 1672.4
-866.36 -926.11 1646.2
-850.38 -913.52 1623.8
-863.84 -932.61 1657.7
-842.98 -914.63 1625.7
-837.82 -927.58 1648.8
-845.12 -940.47 1671.7
-832.26 -930.93 1654.7
-819.06 -920.91 1636.9
-794.12 -906.97 1612.1
-799.56 -922.89 1640.4
-764.05 -891.39 1584.4
-789.48 -926.04 1646.0
-802.73 -946.70 1682.8
-777.99 -922.54 1639.8
-783.64 -944.72 1679.2
-792.65 -960.92 1708.0
-764.21 -931.65 1656.0
-757.54 -928.74 1650.8
-758.65 -935.38 1662.6
-732.86 -908.75 1615.3
-724.48 -903.52 1606.0
-747.45 -937.55 1666.5
-746.23 -941.46 1673.4
-724.54 -930.32 1653.6
-724.34 -935.61 1663.0
-709.06 -926.90 1647.6
-695.88 -915.19 1626.7
-688.00 -910.34 1618.1
-683.96 -910.55 1618.5
-681.30 -912.60 1622.1
-683.74 -921.56 1638.1
-689.50 -935.14 1662.2
-675.88 -922.43 1639.6
-649.19 -908.86 1615.5
-644.14 -907.65 1613.3
-640.73 -908.75 1615.3
-633.09 -903.82 1606.5
-641.63 -922.08 1639.0
-596.08 -879.93 1564.1
-613.73 -912.19 1621.4
-618.03 -924.91 1644.0
-614.49 -926.00 1645.9
-621.69 -943.41 1676.9
-620.50 -948.23 1685.5
-600.45 -924.09 1642.6
-579.90 -918.52 1632.7
-569.27 -908.32 1614.5
-565.74 -909.37 1616.4
-556.87 -922.45 1639.6
-569.59 -950.77 1690.0
-559.39 -941.00 1672.6
-546.22 -926.02 1646.0
-537.04 -917.62 1631.1
-513.97 -914.18 1624.9
-497.39 -892.01 1585.5
-503.50 -910.50 1618.4
-524.26 -956.00 1699.3
-527.62 -970.28 1724.7
-488.94 -906.83 1611.9
-485.17 -923.53 1641.6
-481.18 -924.03 1642.5
-468.10 -906.94 1612.1
-477.06 -932.64 1657.7
-481.46 -949.79 1688.2
-467.29 -930.29 1653.6
-454.00 -912.20 1621.4
-460.60 -934.12 1660.4
-467.95 -957.96 1702.8
-446.68 -923.15 1640.9
-427.10 -891.16 1584.0
-441.79 -930.76 1654.4
-454.79 -967.54 1719.8
-432.97 -930.25 1653.5
-412.77 -923.42 1641.4
-400.19 -933.77 1659.8
-389.96 -919.79 1634.9
-386.30 -921.17 1637.4
-388.80 -937.43 1666.3
-390.76 -952.75 1693.5
-381.46 -940.66 1672.0
-365.33 -911.23 1619.7
-367.01 -926.06 1646.1
-375.15 -957.75 1702.4
-370.90 -958.15 1703.1
-357.23 -933.96 1660.1
-341.41 -903.49 1605.9
-334.86 -897.10 1594.6
-332.10 -900.83 1601.2
-328.25 -925.07 1644.3
-323.10 -922.52 1639.8
-311.78 -902.08 1603.4
-306.25 -898.06 1596.3
-305.56 -933.89 1660.0
-302.40 -951.01 1690.4
-290.67 -927.59 1648.8
-279.16 -904.15 1607.1
-272.28 -895.24 1591.3
-270.57 -903.29 1605.6
-272.93 -925.42 1644.9
-269.46 -928.14 1649.8
-257.50 -901.24 1601.9
-251.78 -895.69 1592.1
-243.03 -878.95 1562.3
-240.11 -883.10 1569.7
-249.75 -934.41 1660.9
-246.54 -938.57 1668.3
-233.87 -906.24 1610.8
-211.10 -898.21 1596.6
-203.87 -884.80 1572.7
-178.84 -924.03 1642.4
-172.59 -913.48 1623.7
-164.19 -890.72 1583.2
-163.80 -911.41 1620.0
-164.17 -937.48 1666.4
-159.96 -938.15 1667.5
-150.23 -905.58 1609.6
-146.00 -931.81 1656.3
-145.15 -954.46 1696.5
-136.88 -928.21 1649.9
-130.53 -913.68 1624.1
-126.27 -913.34 1623.4
-119.79 -896.35 1593.2
-117.51 -910.67 1618.7
-116.92 -939.67 1670.3
-109.55 -914.35 1625.2
-104.23 -904.67 1608.0
-102.45 -926.33 1646.5
-97.73 -922.03 1638.9
-92.15 -908.92 1615.6
-87.21 -901.18 1601.8
-54.61 -911.61 1620.4
-50.44 -912.16 1621.3
-42.47 -921.57 1638.1
-38.81 -935.83 1663.4
-33.82 -917.24 1630.4
-29.61 -917.77 1631.3
-16.91 -917.36 1630.6
-12.59 -911.00 1619.3
16.86 -914.90 1626.2
20.90 -907.04 1612.2
32.75 -888.32 1579.0
44.90 -885.74 1574.4
52.47 -948.92 1686.7
60.67 -940.46 1671.7
64.73 -936.47 1664.6
68.68 -931.49 1655.7
71.47 -912.31 1621.6
75.06 -904.88 1608.4
79.56 -908.71 1615.2
84.87 -920.87 1636.8
98.61 -930.36 1653.7
107.91 -867.24 1541.5
112.27 -870.05 1546.5
117.83 -881.67 1567.2
125.32 -906.49 1611.3
127.10 -889.72 1581.5
137.19 -875.59 1556.3
152.96 -897.10 1594.6
160.15 -914.52 1625.5
171.48 -885.95 1574.8
179.49 -905.77 1610.0
188.96 -931.92 1656.5
189.67 -914.64 1625.8
186.61 -880.29 1564.7
190.83 -881.06 1566.1
196.24 -887.18 1577.0
215.79 -918.18 1632.1
238.45 -892.11 1585.7
242.35 -891.37 1584.4
237.65 -859.52 1527.8
250.14 -889.86 1581.7
270.12 -945.43 1680.5
270.45 -931.54 1655.8
268.10 -895.04 1590.9
271.40 -892.33 1586.1
291.36 -903.22 1605.5
308.95 -931.14 1655.1
315.79 -913.68 1624.1
316.16 -902.71 1604.6
319.68 -900.92 1601.4
317.29 -882.71 1569.0
335.11 -876.13 1557.3
353.28 -901.89 1603.1
372.54 -940.02 1670.9
380.65 -888.19 1578.7
391.01 -902.65 1604.4
385.96 -881.62 1567.1
393.08 -879.36 1563.0
418.13 -925.86 1645.7
412.37 -903.88 1606.6
392.75 -852.27 1514.9
406.05 -872.41 1550.7
422.22 -898.26 1596.6
420.03 -884.92 1572.9
418.63 -873.50 1552.6
463.63 -831.47 1477.9
478.35 -850.84 1512.4
493.51 -870.66 1547.6
502.09 -878.65 1561.8
510.95 -879.97 1564.1
533.46 -911.50 1620.2
511.77 -867.61 1542.2
555.24 -866.82 1540.8
556.46 -862.52 1533.1
570.09 -877.37 1559.5
589.34 -900.61 1600.8
586.03 -889.28 1580.7
577.36 -870.04 1546.5
575.37 -861.08 1530.6
586.16 -871.21 1548.6
600.49 -886.44 1575.6
651.92 -906.83 1611.9
654.96 -905.27 1609.1
649.38 -880.73 1565.5
645.57 -849.03 1509.1
667.27 -872.27 1550.5
665.85 -865.20 1537.9
663.65 -857.22 1523.7
694.93 -892.30 1586.1
717.88 -916.35 1628.8
690.20 -875.86 1556.8
691.31 -857.22 1523.7
728.91 -883.65 1570.7
702.92 -828.99 1473.5
704.63 -826.51 1469.1
699.35 -815.90 1450.3
765.06 -878.40 1561.3
796.09 -909.22 1616.1
782.98 -889.57 1581.2
793.20 -896.48 1593.5
791.48 -889.90 1581.8
753.18 -833.88 1482.2
766.15 -843.93 1500.1
782.03 -848.50 1508.2
807.60 -871.89 1549.8
788.92 -847.51 1506.4
799.23 -833.82 1482.1
807.50 -838.41 1490.3
793.94 -820.40 1458.3
779.81 -801.98 1425.5
758.19 -776.07 1379.5
853.10 -857.05 1523.4
840.43 -840.43 1493.9
815.27 -811.53 1442.5
812.51 -805.09 1431.0
775.87 -765.29 1360.3
966.69 -803.73 1428.6
982.59 -807.66 1435.6
1031.56 -844.71 1501.5
1011.24 -824.96 1466.4
1012.74 -805.00 1430.9
1001.21 -792.93 1409.4
1024.43 -808.37 1436.9
1078.93 -836.17 1486.3
1060.10 -807.17 1434.7
1091.49 -828.16 1472.0
1085.32 -814.93 1448.5
1047.39 -783.73 1393.1
1072.13 -788.65 1401.8
1141.91 -837.14 1488.0
1144.01 -835.86 1485.7
1102.54 -802.86 1427.1
1095.00 -794.70 1412.6
1080.12 -781.29 1388.7
1128.16 -807.96 1436.1
1125.60 -803.47 1428.2
1070.98 -757.01 1345.6
1076.76 -758.63 1348.4
1121.47 -787.57 1399.9
1124.48 -787.14 1399.1
1129.59 -778.17 1383.2
-1438.62 -998.79 1767.2
-1436.72 -1000.65 1770.5
-1452.14 -1021.18 1806.8
-1470.73 -1037.60 1835.9
-1426.41 -1016.20 1798.0
-1438.91 -1035.26 1831.7
-1412.90 -1026.71 1816.6
-1365.22 -1015.76 1797.2
-1284.98 -969.29 1715.0
-1253.49 -958.81 1696.5
-1273.11 -984.18 1741.3
-1243.11 -964.41 1706.4
-1211.64 -943.35 1669.1
-1196.82 -935.15 1654.6
-1205.96 -945.68 1673.2
-1221.40 -961.25 1700.8
-1166.94 -921.71 1630.8
-1136.99 -901.32 1594.7
-1159.78 -922.74 1632.6
-1139.92 -910.27 1610.6
-1120.67 -898.19 1589.2
-1079.80 -871.84 1542.6
-1063.39 -861.78 1524.8
-1053.14 -863.10 1527.1
-1077.43 -886.34 1568.2
-1089.28 -899.48 1591.5
-1118.90 -927.45 1641.0
-1110.66 -924.13 1635.1
-1095.14 -921.77 1630.9
-1106.07 -934.59 1653.6
-1106.88 -938.91 1661.2
-1089.64 -927.90 1641.8
-1071.98 -916.44 1621.5
-1080.75 -927.58 1641.2
-1079.53 -930.19 1645.8
-1057.52 -914.84 1618.7
-1022.31 -887.90 1571.0
-1020.69 -890.04 1574.8
-1033.76 -905.06 1601.3
-1032.06 -907.22 1605.2
-1041.55 -919.26 1626.5
-1017.46 -901.65 1595.3
-983.32 -874.95 1548.1
-971.56 -868.03 1535.8
-1002.61 -910.70 1611.3
-985.13 -898.57 1589.9
-927.77 -871.78 1542.5
-921.85 -869.97 1539.3
-963.40 -913.14 1615.6
-993.62 -945.89 1673.6
-936.38 -907.25 1605.2
-946.60 -921.24 1630.0
-959.42 -937.90 1659.5
-967.18 -949.75 1680.4
-968.60 -955.45 1690.5
-945.61 -941.29 1665.5
-886.07 -886.07 1567.7
-900.98 -909.32 1608.9
-897.60 -910.13 1610.3
-914.62 -940.50 1664.1
-896.48 -926.22 1638.8
-884.45 -918.14 1624.5
-887.83 -926.06 1638.5
-864.38 -905.94 1602.9
-839.39 -897.00 1587.1
-838.91 -900.90 1594.0
-840.88 -907.49 1605.6
-858.50 -931.11 1647.4
-843.44 -919.35 1626.6
-821.38 -918.26 1624.7
-807.42 -907.30 1605.3
-799.22 -907.45 1605.6
-781.86 -892.38 1578.9
-796.14 -913.46 1616.2
-790.99 -917.22 1622.9
-779.20 -913.26 1615.9
-782.18 -921.71 1630.8
-773.98 -916.99 1622.5
-780.31 -929.55 1644.7
-772.10 -924.83 1636.3
-760.31 -920.82 1629.2
-778.03 -947.55 1676.5
-762.36 -933.68 1652.0
-733.44 -903.34 1598.3
-720.86 -903.14 1598.0
-731.45 -921.71 1630.8
-720.90 -913.70 1616.6
-708.87 -914.40 1617.9
-710.87 -922.44 1632.1
-701.17 -915.31 1619.5
-708.02 -929.81 1645.1
-674.96 -891.76 1577.8
-676.17 -909.90 1609.9
-683.07 -924.90 1636.5
-691.54 -942.23 1667.1
-692.61 -955.63 1690.8
-651.05 -921.62 1630.7
-645.44 -925.70 1637.9
-642.28 -927.27 1640.6
-635.26 -923.25 1633.5
-631.78 -924.34 1635.5
-634.30 -934.31 1653.1
-636.42 -943.81 1669.9
-639.72 -955.20 1690.1
-629.54 -946.48 1674.6
-611.09 -925.12 1636.8
-621.68 -947.74 1676.9
-624.15 -958.20 1695.4
-591.65 -914.76 1618.5
-580.19 -923.23 1633.5
-580.14 -929.93 1645.4
-573.61 -926.28 1638.9
-529.01 -900.97 1594.1
-525.19 -901.52 1595.1
-532.57 -936.29 1656.6
-493.98 -889.97 1574.7
-517.89 -940.83 1664.6
-492.59 -902.39 1596.6
-483.51 -908.67 1607.7
-461.90 -891.09 1576.6
-470.06 -914.94 1618.8
-472.68 -928.32 1642.5
-471.32 -934.06 1652.7
-467.52 -935.03 1654.4
-463.71 -936.00 1656.1
-420.52 -907.65 1605.9
-415.45 -905.69 1602.5
-420.25 -944.48 1671.1
-400.23 -908.86 1608.1
-382.41 -926.28 1638.9
-378.92 -928.14 1642.2
-374.04 -970.72 1717.5
-361.08 -948.38 1678.0
-346.87 -922.16 1631.6
-335.67 -938.15 1659.9
-331.49 -938.51 1660.5
-318.01 -912.20 1614.0
-305.60 -888.28 1571.7
-305.73 -925.68 1637.8
-307.60 -944.47 1671.1
-299.47 -932.65 1650.2
-279.16 -908.30 1607.1
-283.04 -934.89 1654.1
-277.10 -929.35 1644.3
-275.64 -938.90 1661.2
-274.09 -948.45 1678.1
-264.01 -928.28 1642.4
-258.19 -922.72 1632.6
-249.07 -904.96 1601.2
-233.90 -879.15 1555.5
-238.36 -911.61 1612.9
-233.74 -909.92 1609.9
-226.18 -896.50 1586.2
-211.33 -903.32 1598.3
-205.22 -894.75 1583.1
-193.32 -916.17 1621.0
-188.15 -911.48 1612.7
-182.23 -902.87 1597.5
-179.77 -911.40 1612.6
-178.55 -926.78 1639.8
-176.46 -938.24 1660.1
-171.74 -935.98 1656.1
-165.81 -926.86 1639.9
-161.08 -924.10 1635.0
-154.71 -911.52 1612.8
-140.25 -899.26 1591.1
-141.20 -932.78 1650.4
-134.57 -916.74 1622.0
-125.59 -912.61 1614.7
-121.35 -912.25 1614.1
-121.54 -946.27 1674.3
-110.43 -925.89 1638.2
-98.82 -897.63 1588.2
-97.93 -928.21 1642.3
-95.82 -949.44 1679.9
-89.77 -931.85 1648.8
-54.76 -918.24 1624.7
-50.01 -908.46 1607.4
-42.78 -932.66 1650.2
-39.50 -956.81 1692.9
-34.73 -946.52 1674.7
-29.84 -929.34 1644.3
-16.30 -888.58 1572.2
-12.53 -910.74 1611.4
-8.29 -903.37 1598.4
-4.18 -910.26 1610.6
0.00 -904.36 1600.1
8.45 -921.08 1629.7
20.77 -905.78 1602.6
41.43 -903.15 1598.0
45.12 -894.25 1582.2
50.63 -919.77 1627.4
69.11 -941.64 1666.1
72.54 -930.25 1645.9
76.96 -932.13 1649.2
80.98 -929.09 1643.9
85.68 -933.92 1652.4
89.15 -925.46 1637.5
90.51 -896.86 1586.8
95.08 -901.18 1594.5
98.98 -899.11 1590.8
105.27 -882.67 1561.7
112.53 -908.58 1607.6
116.43 -906.49 1603.9
117.89 -886.23 1568.0
120.99 -879.22 1555.6
126.26 -887.92 1571.0
129.67 -883.36 1563.0
133.85 -884.20 1564.4
138.64 -888.96 1572.9
141.04 -878.50 1554.4
153.79 -906.13 1603.2
158.00 -906.45 1603.8
162.04 -905.78 1602.6
165.81 -903.64 1598.8
168.53 -896.11 1585.5
172.14 -893.47 1580.8
175.33 -888.87 1572.7
179.46 -889.16 1573.2
187.64 -909.03 1608.4
192.91 -914.21 1617.5
193.36 -896.87 1586.9
213.96 -914.56 1618.2
218.68 -916.77 1622.1
227.91 -903.33 1598.3
249.22 -936.72 1657.4
249.74 -922.79 1632.7
241.69 -878.14 1553.7
243.05 -868.61 1536.9
250.98 -882.48 1561.4
258.61 -894.87 1583.3
262.06 -892.64 1579.4
266.36 -893.32 1580.6
272.28 -899.36 1591.3
278.86 -907.33 1605.4
302.13 -940.91 1664.8
309.03 -948.84 1678.8
291.13 -881.48 1559.6
307.73 -906.57 1604.0
324.97 -874.61 1547.5
332.67 -884.42 1564.8
331.44 -870.52 1540.2
358.12 -867.46 1534.8
367.78 -881.05 1558.9
377.37 -884.59 1565.1
378.14 -876.97 1551.6
397.82 -884.94 1565.8
418.91 -922.45 1632.1
425.80 -928.25 1642.4
415.85 -897.57 1588.1
408.99 -874.12 1546.6
420.04 -889.02 1573.0
432.59 -906.78 1604.4
425.92 -884.30 1564.6
437.22 -851.02 1505.7
445.83 -860.10 1521.8
443.18 -840.11 1486.4
449.57 -844.89 1494.9
493.74 -854.25 1511.5
527.40 -905.30 1601.8
518.19 -882.54 1561.5
512.81 -846.91 1498.5
534.49 -876.07 1550.1
541.06 -880.24 1557.4
538.06 -868.86 1537.3
558.28 -875.57 1549.2
560.72 -873.13 1544.8
567.39 -877.25 1552.1
578.37 -887.92 1571.0
572.23 -872.35 1543.5
563.18 -852.59 1508.5
585.26 -873.88 1546.2
596.43 -884.50 1565.0
587.73 -865.70 1531.7
618.27 -898.55 1589.8
610.35 -881.16 1559.1
634.34 -886.45 1568.4
649.31 -901.59 1595.2
615.02 -848.57 1501.4
655.90 -882.64 1561.7
655.76 -866.40 1533.0
677.14 -889.26 1573.4
704.00 -918.99 1626.0
705.72 -904.98 1601.2
704.65 -898.33 1589.4
692.67 -877.92 1553.3
661.61 -833.71 1475.1
668.58 -837.65 1482.1
694.69 -865.38 1531.1
678.55 -840.48 1487.1
714.65 -875.24 1548.6
721.09 -878.20 1553.8
692.94 -839.22 1484.9
725.65 -859.74 1521.2
740.57 -872.67 1544.0
747.07 -875.60 1549.2
741.54 -864.47 1529.5
749.59 -869.20 1537.9
784.35 -904.70 1600.7
799.68 -917.53 1623.4
763.65 -871.60 1542.1
764.78 -863.85 1528.4
793.88 -878.51 1554.4
774.40 -852.62 1508.6
785.88 -831.66 1471.5
768.69 -809.54 1432.3
778.54 -815.97 1443.7
778.23 -807.88 1429.4
761.47 -786.73 1392.0
810.71 -825.86 1461.2
797.19 -808.31 1430.2
789.23 -796.54 1409.3
809.33 -813.06 1438.6
814.99 -814.99 1442.0
797.17 -793.53 1404.0
936.05 -797.11 1410.3
967.20 -810.96 1434.9
1013.61 -846.62 1497.9
987.41 -815.36 1442.6
1023.53 -842.00 1489.8
1013.03 -805.99 1426.1
1037.85 -822.73 1455.7
1016.25 -802.69 1420.2
1015.37 -784.93 1388.8
1069.18 -806.51 1427.0
1087.10 -817.20 1445.9
1037.30 -774.43 1370.2
1061.29 -789.63 1397.1
1056.06 -783.07 1385.5
1070.75 -791.26 1400.0
1109.92 -817.44 1446.3
1140.35 -837.03 1481.0
1124.58 -822.68 1455.6
1067.32 -778.18 1376.9
1085.34 -783.46 1386.2
1124.49 -809.04 1431.5
1074.07 -765.19 1353.9
1075.30 -763.57 1351.0
1117.20 -788.19 1394.6
1107.02 -778.49 1377.4
1098.56 -767.58 1358.1
1113.70 -770.75 1363.7
1107.30 -759.09 1343.1
-1472.53 -1010.92 1780.5
-1484.05 -1022.04 1800.1
-1443.49 -1003.57 1767.5
-1450.76 -1028.21 1810.9
-1431.21 -1037.86 1827.9
-1388.74 -1024.02 1803.6
-1441.01 -1066.15 1877.8
-1435.82 -1073.19 1890.2
-1366.42 -1024.82 1805.0
-1304.46 -981.70 1729.0
-1194.66 -918.00 1616.8
-1274.73 -982.98 1731.3
-1200.38 -935.53 1647.7
-1192.52 -932.72 1642.8
-1199.06 -941.20 1657.7
-1188.54 -936.29 1649.1
-1182.82 -935.15 1647.0
-1164.42 -923.94 1627.3
-1165.59 -928.23 1634.9
-1169.35 -934.63 1646.1
-1067.48 -888.89 1565.6
-1104.15 -922.93 1625.5
-1080.22 -906.40 1596.4
-1065.93 -904.80 1593.6
-1074.37 -915.52 1612.5
-1078.24 -922.40 1624.6
-1083.05 -930.15 1638.2
-1063.45 -916.91 1614.9
-1035.02 -895.93 1578.0
-1055.15 -916.98 1615.0
-1059.86 -924.74 1628.7
-1009.08 -901.99 1588.6
-1006.40 -903.28 1590.9
-990.73 -892.88 1572.6
-986.52 -900.20 1585.5
-976.70 -894.96 1576.3
-983.93 -905.38 1594.6
-962.80 -889.68 1566.9
-957.95 -896.54 1579.0
-966.37 -908.30 1599.8
-992.48 -945.02 1664.4
-932.69 -911.87 1606.0
-958.11 -940.93 1657.2
-945.73 -932.95 1643.2
-928.49 -920.09 1620.5
-930.45 -926.23 1631.3
-869.69 -877.71 1545.9
-892.29 -904.68 1593.4
-888.51 -905.04 1594.0
-876.47 -896.94 1579.7
-895.65 -920.88 1621.9
-929.74 -960.44 1691.6
-925.31 -960.39 1691.5
-884.50 -922.41 1624.6
-864.77 -919.34 1619.2
-870.12 -929.55 1637.2
-858.26 -921.37 1622.8
-855.03 -926.99 1632.7
-884.54 -963.75 1697.4
-855.40 -936.66 1649.7
-847.94 -942.64 1660.2
-832.22 -929.88 1637.7
-807.61 -921.18 1622.4
-814.74 -934.18 1645.3
-820.59 -945.84 1665.9
-831.05 -962.96 1696.0
-814.44 -948.74 1671.0
-797.17 -933.58 1644.3
-798.96 -940.71 1656.8
-791.07 -936.45 1649.3
-777.84 -925.80 1630.6
-779.19 -932.47 1642.3
-763.78 -919.05 1618.7
-733.73 -887.78 1563.6
-737.40 -897.17 1580.1
-748.47 -915.73 1612.8
-757.54 -932.02 1641.5
-754.24 -933.21 1643.6
-748.70 -936.95 1650.2
-757.05 -952.84 1678.2
-763.08 -965.99 1701.3
-736.84 -938.18 1652.4
-693.54 -904.07 1592.3
-698.03 -915.38 1612.2
-705.93 -931.31 1640.3
-675.38 -907.42 1598.2
-699.17 -945.18 1664.7
-699.35 -957.23 1685.9
-692.44 -953.74 1679.8
-688.24 -953.95 1680.2
-640.66 -893.66 1574.0
-657.14 -928.48 1635.3
-657.62 -935.19 1647.1
-626.05 -920.17 1620.6
-633.98 -938.12 1652.3
-642.39 -957.03 1685.6
-625.63 -938.45 1652.8
-610.72 -941.88 1658.9
-607.72 -943.90 1662.5
-569.49 -890.84 1569.0
-562.07 -891.99 1571.0
-575.74 -927.11 1632.9
-577.69 -937.14 1650.5
-579.27 -946.71 1667.4
-573.58 -944.46 1663.4
-551.08 -914.28 1610.3
-546.03 -956.64 1684.9
-541.98 -957.20 1685.9
-515.57 -933.15 1643.5
-524.92 -957.98 1687.3
-481.46 -886.04 1560.5
-494.14 -932.91 1643.1
-455.13 -889.94 1567.4
-454.21 -904.30 1592.7
-456.29 -916.76 1614.6
-454.94 -922.52 1624.8
-423.40 -918.07 1617.0
-426.89 -934.89 1646.6
-409.55 -924.65 1628.5
-421.38 -961.28 1693.1
-424.31 -978.14 1722.8
-404.49 -942.36 1659.7
-376.63 -916.47 1614.1
-371.04 -913.00 1608.0
-359.68 -937.74 1651.6
-352.42 -929.87 1637.7
-334.76 -916.41 1614.0
-325.62 -902.68 1589.8
-317.67 -915.39 1612.2
-322.94 -943.00 1660.9
-312.17 -923.86 1627.2
-309.20 -927.61 1633.8
-307.64 -935.74 1648.1
-302.05 -931.68 1640.9
-300.40 -939.81 1655.2
-295.59 -938.19 1652.4
-285.97 -948.90 1671.2
-280.57 -945.30 1664.9
-265.34 -907.97 1599.2
-267.04 -958.71 1688.5
-262.47 -958.02 1687.3
-253.16 -939.71 1655.1
-242.98 -917.47 1615.9
-239.12 -918.71 1618.1
-235.49 -920.93 1622.0
-228.76 -910.89 1604.3
-223.58 -906.73 1597.0
-219.25 -923.40 1626.3
-216.69 -930.50 1638.8
-209.58 -917.98 1616.8
-200.74 -935.35 1647.4
-196.20 -934.09 1645.2
-186.93 -909.74 1602.3
-178.42 -908.67 1600.4
-180.90 -943.27 1661.3
-174.16 -953.50 1679.4
-165.11 -927.13 1632.9
-159.54 -919.44 1619.4
-152.71 -903.87 1591.9
-140.73 -880.57 1550.9
-140.94 -907.80 1598.9
-138.74 -920.76 1621.7
-128.01 -934.50 1645.9
-123.11 -929.71 1637.5
-120.84 -945.12 1664.6
-116.54 -945.25 1664.8
-100.33 -915.54 1612.5
-98.44 -937.35 1650.9
-96.55 -961.13 1692.8
-90.71 -945.94 1666.0
-85.59 -937.16 1650.6
-82.60 -952.05 1676.8
-78.38 -953.62 1679.6
-74.07 -954.20 1680.6
-69.61 -952.80 1678.1
-63.98 -934.12 1645.2
-53.76 -905.63 1595.0
-50.52 -921.98 1623.8
-47.40 -943.75 1662.2
-42.85 -938.37 1652.7
-38.12 -927.55 1633.7
-33.25 -910.32 1603.3
-20.70 -906.46 1596.5
-16.29 -891.66 1570.4
0.00 -903.06 1590.5
4.22 -923.30 1626.2
8.63 -945.02 1664.4
12.78 -932.66 1642.7
16.60 -908.95 1600.9
20.85 -913.37 1608.7
25.09 -915.81 1613.0
29.54 -924.17 1627.7
45.92 -914.13 1610.0
50.19 -916.05 1613.4
55.55 -935.74 1648.1
69.94 -957.24 1685.9
73.00 -940.39 1656.3
76.92 -935.86 1648.3
80.37 -926.40 1631.6
84.37 -923.84 1627.1
86.97 -906.98 1597.4
88.87 -884.69 1558.2
94.25 -897.41 1580.6
100.06 -913.08 1608.2
103.09 -903.11 1590.6
120.18 -907.54 1598.4
121.33 -885.73 1560.0
124.31 -878.20 1546.7
130.32 -891.85 1570.8
137.19 -910.42 1603.5
142.16 -915.68 1612.7
144.51 -904.20 1592.5
163.18 -916.31 1613.9
167.06 -914.65 1610.9
170.10 -908.57 1600.2
172.51 -899.53 1584.3
174.46 -888.52 1564.9
174.23 -867.20 1527.4
206.64 -887.34 1562.8
214.60 -903.78 1591.8
214.99 -888.34 1564.6
233.23 -912.11 1606.5
251.71 -934.33 1645.6
243.84 -890.01 1567.5
245.51 -881.43 1552.4
250.15 -883.60 1556.3
254.81 -885.77 1560.1
263.20 -900.64 1586.3
272.59 -918.43 1617.6
277.29 -920.08 1620.5
282.59 -923.68 1626.8
302.13 -894.15 1574.8
301.77 -881.17 1552.0
313.18 -890.72 1568.8
343.48 -928.68 1635.6
339.04 -905.49 1594.8
350.64 -903.41 1591.1
349.85 -890.91 1569.1
372.46 -877.07 1544.7
371.94 -866.53 1526.2
378.86 -873.37 1538.2
406.27 -898.72 1582.9
413.48 -905.51 1594.8
404.09 -876.19 1543.2
422.77 -898.89 1583.2
435.33 -916.71 1614.6
429.16 -895.11 1576.5
424.89 -877.84 1546.1
444.06 -900.45 1585.9
448.65 -901.42 1587.6
442.81 -873.65 1538.7
464.19 -907.65 1598.6
480.68 -923.41 1626.4
475.85 -906.18 1596.0
472.13 -891.35 1569.9
455.02 -851.71 1500.1
466.69 -858.86 1512.7
481.05 -877.91 1546.2
497.13 -857.25 1509.8
517.10 -884.73 1558.2
505.19 -857.65 1510.5
503.73 -848.60 1494.6
523.44 -875.07 1541.2
527.69 -875.48 1541.9
528.48 -870.21 1532.7
541.09 -884.32 1557.5
554.12 -873.04 1537.6
560.76 -877.19 1544.9
571.67 -887.91 1563.8
570.47 -879.81 1549.6
552.32 -845.87 1489.8
557.98 -848.59 1494.6
578.57 -873.84 1539.1
584.67 -877.01 1544.6
584.19 -870.33 1532.9
583.34 -863.19 1520.3
601.21 -883.66 1556.4
616.05 -899.43 1584.1
600.88 -854.50 1505.0
608.32 -859.49 1513.8
658.01 -889.53 1566.7
649.51 -872.66 1537.0
654.41 -873.87 1539.1
691.04 -917.19 1615.4
679.64 -896.63 1579.2
698.14 -910.08 1602.9
691.80 -896.48 1578.9
689.29 -887.96 1563.9
701.09 -897.89 1581.4
682.24 -868.67 1529.9
739.66 -910.03 1602.8
745.11 -911.61 1605.6
744.54 -905.86 1595.5
764.34 -924.81 1628.8
763.40 -918.59 1617.9
763.17 -913.30 1608.6
751.78 -885.16 1559.0
754.44 -883.54 1556.1
735.61 -856.91 1509.2
762.31 -878.67 1547.6
784.28 -867.46 1527.8
811.05 -870.68 1533.5
820.62 -876.66 1544.0
796.11 -846.35 1490.6
755.30 -799.09 1407.4
764.22 -793.19 1397.0
763.72 -788.94 1389.5
816.43 -839.43 1478.4
837.36 -856.92 1509.3
801.71 -816.62 1438.3
784.58 -795.48 1401.0
794.11 -801.42 1411.5
798.38 -802.04 1412.6
780.96 -780.96 1375.5
769.16 -765.66 1348.5
949.78 -787.88 1387.7
972.43 -803.63 1415.4
1027.97 -833.80 1468.5
1017.71 -822.43 1448.5
1035.05 -809.56 1425.8
1029.13 -802.06 1412.6
1023.15 -794.58 1399.4
1035.41 -801.26 1411.2
1029.92 -794.20 1398.8
1019.52 -783.42 1379.8
1114.71 -841.80 1482.6
1112.46 -837.21 1474.5
1096.44 -822.33 1448.3
1099.60 -821.89 1447.6
1073.48 -799.63 1408.4
1065.49 -790.99 1393.1
1097.41 -811.94 1430.0
1119.45 -825.45 1453.8
1125.39 -827.05 1456.6
1089.98 -798.35 1406.1
1101.72 -801.58 1411.8
1136.86 -824.41 1452.0
1125.33 -813.35 1432.5
1109.63 -783.90 1380.6
1143.03 -804.90 1417.6
1154.12 -810.11 1426.8
1131.80 -791.90 1394.7
1122.08 -782.60 1378.3
1138.35 -791.43 1393.9
1105.94 -766.46 1349.9
1105.90 -761.61 1341.4
-1451.98 -1007.69 1766.7
-1541.14 -1072.94 1881.1
-1544.84 -1078.93 1891.6
-1425.52 -998.77 1751.1
-1514.88 -1068.18 1872.8
-1415.62 -1004.64 1761.4
-1421.12 -1011.80 1773.9
-1449.36 -1035.26 1815.1
-1408.08 -1009.04 1769.1
-1385.67 -996.24 1746.6
-1399.02 -1009.13 1769.3
-1507.18 -1090.73 1912.3
-1426.56 -1053.16 1846.5
-1425.47 -1055.91 1851.3
-1469.85 -1092.46 1915.3
-1376.35 -1036.97 1818.1
-1380.72 -1043.85 1830.1
-1260.38 -956.15 1676.4
-1183.38 -926.49 1624.4
-1217.18 -956.35 1676.7
-1199.70 -946.00 1658.6
-1167.95 -924.28 1620.5
-1150.43 -920.35 1613.6
-1166.84 -936.87 1642.6
-1077.84 -875.00 1534.1
-1117.54 -910.58 1596.5
-1113.99 -911.07 1597.3
-1092.02 -903.17 1583.5
-1091.55 -906.19 1588.8
-1037.92 -885.05 1551.7
-1057.45 -905.21 1587.1
-1074.84 -923.69 1619.5
-1059.23 -913.85 1602.2
-1018.37 -882.05 1546.5
-994.06 -864.40 1515.5
-1019.71 -890.22 1560.8
-1046.66 -917.39 1608.4
-1002.29 -882.01 1546.4
-1054.59 -946.98 1660.3
-1062.84 -958.30 1680.1
-1026.85 -929.66 1629.9
-961.42 -881.30 1545.1
-958.32 -882.13 1546.6
-971.26 -897.81 1574.1
-977.04 -906.95 1590.1
-974.29 -908.24 1592.4
-992.59 -929.23 1629.2
-992.55 -933.16 1636.1
-980.79 -930.06 1630.6
-971.83 -929.58 1629.8
-945.87 -916.70 1607.2
-943.01 -917.98 1609.4
-895.85 -875.94 1535.7
-928.54 -916.05 1606.1
-937.73 -929.28 1629.3
-862.88 -870.80 1526.7
-874.18 -886.27 1553.8
-896.29 -912.89 1600.5
-889.45 -910.13 1595.7
-874.37 -898.89 1576.0
-890.95 -920.23 1613.4
-921.58 -956.35 1676.7
-909.88 -948.69 1663.3
-859.40 -913.37 1601.4
-887.12 -947.41 1661.0
-865.97 -929.33 1629.4
-845.13 -920.44 1613.8
-866.82 -948.75 1663.4
-826.68 -909.35 1594.3
-827.69 -924.32 1620.6
-799.54 -897.45 1573.4
-785.67 -886.40 1554.1
-798.30 -905.29 1587.2
-774.51 -882.86 1547.9
-798.18 -924.21 1620.4
-810.29 -943.20 1653.7
-796.91 -932.55 1635.0
-780.50 -918.24 1609.9
-783.52 -926.75 1624.8
-793.39 -943.50 1654.2
-797.77 -953.86 1672.4
-741.03 -910.76 1596.8
-737.09 -911.01 1597.2
-764.62 -950.38 1666.2
-785.21 -981.51 1720.8
-762.71 -969.92 1700.5
-696.82 -907.10 1590.4
-706.66 -925.39 1622.4
-674.11 -888.05 1557.0
-699.88 -944.62 1656.1
-710.14 -964.39 1690.8
-706.95 -966.02 1693.7
-672.22 -924.30 1620.5
-649.95 -899.31 1576.7
-646.27 -917.29 1608.2
-662.90 -965.81 1693.3
-660.24 -968.35 1697.8
-640.69 -945.99 1658.6
-630.50 -937.23 1643.2
-637.66 -954.33 1673.2
-619.69 -933.79 1637.2
-609.96 -925.46 1622.6
-603.26 -928.10 1627.2
-627.46 -972.12 1704.4
-606.80 -953.54 1671.8
-592.10 -937.13 1643.0
-592.37 -944.36 1655.7
-585.50 -940.22 1648.4
-582.77 -942.71 1652.8
-591.06 -963.21 1688.8
-598.32 -982.32 1722.2
-575.57 -952.08 1669.2
-539.11 -898.52 1575.3
-550.64 -924.74 1621.3
-569.81 -964.29 1690.6
-550.70 -939.18 1646.6
-536.79 -922.61 1617.6
-529.34 -916.97 1607.7
-532.58 -929.90 1630.3
-539.78 -950.00 1665.6
-504.55 -925.01 1621.8
-495.45 -915.96 1605.9
-489.00 -911.69 1598.4
-493.28 -927.53 1626.2
-499.19 -946.73 1659.9
-500.42 -957.33 1678.4
-491.02 -955.96 1676.0
-482.53 -947.83 1661.8
-470.47 -932.47 1634.9
-469.37 -938.74 1645.8
-462.96 -934.42 1638.3
-453.52 -923.83 1619.7
-450.49 -926.23 1623.9
-453.24 -940.68 1649.2
-457.93 -959.48 1682.2
-450.83 -953.69 1672.1
-449.35 -978.77 1716.0
-421.17 -926.56 1624.5
-420.64 -934.75 1638.8
-414.21 -929.87 1630.3
-406.13 -921.11 1614.9
-413.54 -947.69 1661.5
-425.74 -985.92 1728.6
-414.82 -970.86 1702.2
-390.30 -923.30 1618.8
-375.42 -907.62 1591.3
-378.81 -925.99 1623.5
-381.25 -942.42 1652.3
-381.02 -952.55 1670.1
-367.43 -929.13 1629.0
-319.67 -890.21 1560.8
-320.93 -905.19 1587.0
-320.53 -927.86 1626.8
-327.76 -961.42 1685.6
-319.56 -950.04 1665.7
-315.03 -949.41 1664.6
-311.79 -952.69 1670.3
-306.62 -950.09 1665.7
-305.36 -959.72 1682.6
-297.57 -948.79 1663.5
-269.78 -899.26 1576.6
-269.98 -913.77 1602.1
-265.11 -956.15 1676.4
-259.64 -952.02 1669.1
-255.39 -952.30 1669.6
-250.49 -950.12 1665.8
-243.82 -941.06 1649.9
-237.48 -932.97 1635.7
-232.94 -931.75 1633.6
-229.73 -935.94 1640.9
-222.81 -924.87 1621.5
-213.49 -920.92 1614.6
-204.43 -899.50 1577.0
-198.41 -928.73 1628.3
-192.79 -922.04 1616.6
-188.64 -922.26 1616.9
-187.75 -938.73 1645.8
-180.53 -923.65 1619.4
-178.63 -935.68 1640.5
-176.71 -948.21 1662.5
-165.89 -912.39 1599.6
-124.64 -914.00 1602.5
-121.35 -920.56 1614.0
-120.26 -944.92 1656.7
-113.37 -923.79 1619.6
-105.96 -932.44 1634.8
-106.00 -971.64 1703.5
-99.16 -948.50 1663.0
-92.78 -927.82 1626.7
-89.19 -934.36 1638.2
-86.21 -948.31 1662.6
-82.25 -952.37 1669.7
-77.12 -942.55 1652.5
-63.67 -933.88 1637.3
-60.13 -944.84 1656.5
-54.75 -926.58 1624.5
-50.92 -933.57 1636.8
-46.66 -933.13 1636.0
-36.56 -893.60 1566.7
-4.09 -900.22 1578.3
0.00 -935.40 1640.0
4.15 -912.61 1600.0
12.74 -934.39 1638.2
21.84 -961.10 1685.1
25.77 -944.73 1656.3
29.52 -927.85 1626.8
32.86 -903.55 1584.1
42.10 -926.25 1623.9
46.73 -934.62 1638.6
50.71 -929.61 1629.8
54.64 -924.60 1621.1
59.40 -933.45 1636.6
76.61 -887.03 1555.2
80.00 -880.01 1542.9
93.57 -895.06 1569.3
99.20 -909.30 1594.2
102.64 -903.25 1583.6
105.21 -890.28 1560.9
108.34 -882.74 1547.7
114.91 -902.89 1583.0
121.15 -919.08 1611.4
124.03 -909.55 1594.7
127.45 -904.46 1585.7
133.98 -921.12 1615.0
137.11 -914.05 1602.6
143.87 -904.36 1585.6
148.12 -905.18 1587.0
149.13 -886.75 1554.7
155.10 -897.93 1574.3
167.72 -946.13 1658.8
178.07 -932.73 1635.3
175.90 -899.98 1577.9
199.04 -912.25 1599.4
205.33 -921.88 1616.3
208.91 -919.19 1611.6
209.04 -901.73 1581.0
210.17 -889.19 1559.0
212.74 -883.06 1548.2
215.12 -876.43 1536.6
227.72 -894.63 1568.5
232.62 -897.81 1574.1
233.13 -884.29 1550.4
240.24 -895.82 1570.6
245.98 -901.94 1581.3
244.97 -883.50 1549.0
260.77 -896.41 1571.6
270.56 -915.73 1605.5
275.37 -917.89 1609.3
278.70 -915.13 1604.5
278.83 -902.09 1581.6
312.82 -930.01 1630.5
316.43 -928.20 1627.4
318.00 -920.53 1613.9
323.09 -923.11 1618.4
312.45 -881.28 1545.1
320.22 -880.60 1543.9
332.35 -902.67 1582.6
325.96 -874.54 1533.3
342.01 -895.73 1570.4
347.25 -898.77 1575.8
361.77 -904.44 1585.7
372.21 -899.85 1577.7
386.48 -924.20 1620.3
383.74 -879.41 1541.8
392.68 -890.62 1561.5
407.53 -914.87 1604.0
408.01 -906.70 1589.7
400.55 -872.49 1529.7
414.39 -893.79 1567.0
413.96 -884.18 1550.2
407.05 -861.07 1509.7
424.80 -890.05 1560.5
445.81 -925.26 1622.2
443.93 -912.74 1600.3
446.90 -910.35 1596.1
462.72 -933.93 1637.4
454.71 -901.23 1580.1
495.93 -924.62 1621.1
496.23 -917.40 1608.4
495.68 -908.75 1593.3
497.42 -904.41 1585.6
474.75 -856.11 1501.0
503.83 -859.25 1506.5
521.48 -882.50 1547.2
523.76 -879.59 1542.1
508.43 -841.02 1474.5
517.43 -849.51 1489.4
540.14 -861.09 1509.7
553.26 -875.67 1535.3
558.39 -877.46 1538.4
563.52 -879.26 1541.6
580.16 -880.25 1543.3
577.21 -869.78 1524.9
607.81 -909.64 1594.8
590.11 -871.31 1527.6
618.50 -861.20 1509.9
612.87 -848.00 1486.7
632.34 -858.73 1505.6
638.54 -861.83 1511.0
658.62 -883.51 1549.0
687.57 -916.76 1607.3
668.47 -885.92 1553.2
745.89 -916.73 1607.3
776.16 -933.09 1635.9
754.93 -892.93 1565.5
768.47 -904.08 1585.1
759.48 -888.75 1558.2
788.24 -884.75 1551.2
773.35 -863.64 1514.2
800.75 -885.25 1552.1
816.01 -897.61 1573.7
787.48 -853.42 1496.3
774.82 -835.59 1465.0
786.75 -844.32 1480.3
751.65 -798.86 1400.6
774.57 -819.26 1436.4
807.30 -841.74 1475.8
828.44 -847.70 1486.2
808.37 -823.34 1443.5
810.95 -822.17 1441.5
807.36 -814.76 1428.5
797.95 -801.60 1405.4
792.44 -792.44 1389.3
982.91 -816.00 1430.6
974.85 -806.27 1413.6
991.81 -808.14 1416.9
1007.51 -817.90 1434.0
1035.26 -810.52 1421.0
1060.94 -827.68 1451.1
1084.58 -843.13 1478.2
1091.61 -845.61 1482.6
1058.14 -816.81 1432.1
1067.91 -810.14 1420.4
1072.68 -810.96 1421.8
1088.25 -808.83 1418.1
1082.45 -801.81 1405.8
1091.65 -800.54 1403.5
1117.15 -816.52 1431.6
1138.24 -829.18 1453.8
1142.51 -829.54 1454.4
1135.32 -810.94 1421.8
1134.87 -800.23 1403.0
1139.03 -800.59 1403.6
1154.16 -808.64 1417.8
1168.75 -816.27 1431.1
1137.59 -791.99 1388.6
1145.20 -794.78 1393.4
1180.78 -816.89 1432.2
1127.80 -777.79 1363.7
-1449.29 -1007.21 1757.9
-1508.39 -1051.59 1835.4
-1523.69 -1072.41 1871.7
-1508.93 -1065.41 1859.5
-1420.65 -1022.68 1784.9
-1412.41 -1020.07 1780.3
-1444.35 -1046.56 1826.6
-1437.17 -1044.79 1823.5
-1446.59 -1076.42 1878.7
-1277.30 -963.42 1681.5
-1318.73 -998.08 1742.0
-1335.89 -1018.04 1776.8
-1387.70 -1061.19 1852.1
-1317.99 -1011.37 1765.2
-1203.31 -929.83 1622.8
-1206.81 -935.80 1633.3
-1171.60 -941.54 1643.3
-1195.80 -964.50 1683.3
-1152.34 -932.84 1628.1
-1086.00 -888.91 1551.4
-1088.98 -901.37 1573.2
-1070.07 -889.04 1551.7
-1046.11 -872.41 1522.6
-1083.02 -906.62 1582.3
-1104.42 -928.05 1619.7
-1078.96 -910.12 1588.4
-1057.17 -895.15 1562.3
-1039.51 -883.59 1542.1
-1049.62 -895.62 1563.1
-1081.42 -933.57 1629.4
-1070.28 -927.58 1618.9
-1058.69 -921.14 1607.7
-1066.42 -931.54 1625.8
-1040.06 -912.11 1591.9
-1018.74 -896.97 1565.5
-1019.58 -901.30 1573.1
-1035.04 -918.65 1603.3
-1045.52 -931.69 1626.1
-1033.07 -924.32 1613.2
-1043.91 -937.82 1636.8
-1064.79 -960.48 1676.3
-1054.23 -954.86 1666.5
-1001.98 -911.27 1590.5
-959.85 -898.84 1568.8
-980.50 -922.09 1609.3
-954.02 -908.79 1586.1
-931.88 -891.54 1556.0
-934.67 -898.10 1567.5
-915.89 -883.90 1542.7
-944.89 -923.99 1612.7
-928.92 -912.41 1592.4
-893.37 -905.66 1580.7
-943.14 -960.53 1676.4
-925.20 -946.62 1652.1
-871.56 -904.29 1578.3
-907.40 -945.92 1650.9
-898.33 -940.90 1642.2
-862.41 -920.73 1607.0
-880.84 -944.98 1649.3
-849.68 -916.00 1598.7
-862.35 -938.81 1638.5
-786.40 -882.21 1539.7
-791.53 -892.49 1557.7
-813.46 -921.92 1609.0
-801.95 -913.57 1594.5
-769.67 -904.77 1579.1
-784.03 -926.58 1617.2
-788.95 -937.41 1636.1
-800.32 -956.06 1668.6
-782.10 -939.37 1639.5
-728.74 -909.90 1588.1
-743.22 -933.25 1628.8
-734.80 -927.95 1619.6
-750.48 -953.20 1663.6
-742.39 -948.37 1655.2
-707.51 -925.21 1614.8
-711.27 -935.66 1633.0
-679.22 -920.91 1607.3
-676.23 -922.51 1610.1
-658.92 -904.48 1578.6
-634.61 -916.65 1599.8
-657.42 -955.86 1668.3
-660.30 -966.40 1686.7
-664.69 -979.31 1709.2
-652.76 -968.19 1689.8
-621.65 -928.28 1620.1
-607.82 -913.80 1594.9
-599.10 -906.86 1582.7
-599.42 -913.60 1594.5
-607.25 -938.47 1637.9
-630.17 -980.76 1711.7
-616.70 -973.50 1699.1
-611.49 -972.23 1696.8
-590.88 -946.26 1651.5
-567.79 -929.50 1622.3
-573.18 -945.31 1649.9
-549.19 -912.56 1592.7
-566.98 -963.86 1682.2
-562.95 -964.44 1683.3
-533.75 -921.55 1608.4
-527.31 -932.28 1627.1
-527.42 -940.01 1640.6
-537.34 -965.47 1685.0
-520.44 -958.49 1672.9
-493.27 -931.73 1626.2
-498.67 -950.04 1658.1
-498.64 -958.26 1672.5
-496.07 -961.67 1678.4
-497.65 -973.28 1698.7
-488.62 -964.15 1682.8
-476.04 -947.78 1654.2
-473.44 -951.18 1660.1
-464.85 -942.50 1645.0
-456.58 -934.30 1630.6
-454.23 -956.05 1668.6
-444.89 -945.39 1650.0
-455.05 -976.37 1704.1
-445.55 -974.91 1701.5
-422.03 -932.70 1627.8
-426.71 -952.55 1662.5
-410.54 -925.82 1615.8
-398.33 -926.63 1617.3
-393.69 -925.59 1615.5
-382.84 -929.76 1622.7
-377.81 -927.74 1619.2
-371.22 -921.80 1608.8
-381.39 -957.80 1671.7
-377.21 -958.21 1672.4
-329.64 -922.17 1609.5
-332.34 -941.62 1643.4
-327.18 -939.04 1638.9
-323.39 -940.37 1641.2
-321.25 -946.60 1652.1
-311.82 -931.26 1625.3
-305.94 -926.20 1616.5
-302.66 -928.98 1621.4
-297.77 -926.86 1617.7
-294.77 -930.62 1624.2
-289.11 -939.61 1639.9
-295.39 -974.33 1700.5
-279.62 -936.30 1634.1
-268.04 -925.58 1615.4
-265.48 -931.29 1625.4
-243.97 -898.64 1568.4
-242.48 -908.27 1585.2
-243.61 -928.25 1620.1
-243.04 -942.32 1644.7
-239.72 -946.04 1651.1
-238.08 -956.66 1669.7
-233.10 -953.96 1665.0
-224.46 -935.95 1633.5
-214.62 -930.02 1623.2
-206.22 -911.48 1590.8
-193.20 -928.18 1620.0
-194.38 -954.61 1666.1
-187.24 -940.47 1641.4
-125.01 -891.20 1555.4
-122.81 -904.73 1579.0
-122.32 -932.15 1626.9
-120.38 -950.14 1658.3
-112.64 -921.99 1609.2
-102.92 -909.82 1587.9
-103.88 -956.60 1669.6
-97.86 -940.33 1641.2
-89.76 -901.71 1573.8
-84.51 -889.39 1552.3
-83.28 -920.27 1606.2
-80.92 -941.23 1642.7
-76.14 -934.86 1631.6
-71.50 -929.47 1622.2
-62.19 -916.21 1599.1
-61.85 -976.40 1704.1
-52.51 -967.09 1687.9
-45.89 -921.92 1609.0
-4.20 -928.66 1620.8
0.00 -967.44 1688.5
4.28 -946.06 1651.2
17.19 -950.00 1658.0
20.98 -927.11 1618.1
25.18 -927.58 1618.9
29.29 -924.57 1613.7
32.66 -902.17 1574.6
36.80 -903.62 1577.1
53.73 -913.36 1594.1
74.56 -915.48 1597.8
78.61 -914.40 1595.9
99.25 -913.91 1595.1
101.97 -901.39 1573.2
106.03 -901.27 1573.0
111.07 -909.09 1586.6
114.47 -903.51 1576.9
117.70 -896.93 1565.4
125.44 -924.07 1612.8
133.98 -955.18 1667.1
135.05 -932.71 1627.9
148.35 -936.70 1634.8
150.94 -926.62 1617.2
150.13 -896.73 1565.1
158.33 -920.83 1607.1
174.04 -938.10 1637.3
174.39 -917.62 1601.5
190.83 -916.81 1600.1
195.88 -921.04 1607.5
193.66 -891.66 1556.2
206.44 -912.47 1592.5
217.92 -944.34 1648.2
213.78 -908.55 1585.7
211.20 -880.66 1537.0
220.92 -904.12 1578.0
232.31 -933.48 1629.2
232.22 -916.45 1599.5
228.29 -885.12 1544.8
232.10 -884.38 1543.5
242.61 -908.76 1586.1
248.52 -915.39 1597.6
268.60 -899.41 1569.8
281.82 -929.60 1622.4
283.97 -922.90 1610.7
287.89 -922.09 1609.3
287.61 -908.03 1584.8
300.75 -910.50 1589.1
315.60 -942.54 1645.0
311.43 -917.68 1601.6
324.65 -896.85 1565.3
337.72 -921.44 1608.2
330.87 -891.74 1556.4
363.33 -912.45 1592.5
368.67 -915.47 1597.8
371.26 -911.66 1591.1
391.47 -950.71 1659.3
389.89 -926.50 1617.0
374.71 -871.69 1521.4
380.38 -875.66 1528.3
398.49 -898.63 1568.4
