ply
format ascii 1.0
element vertex 2266
property float x
property float y
property float z
end_header
-223.66 716.86 2212.0
-217.69 716.10 2209.7
-212.20 716.88 2212.1
-210.93 732.39 2259.9
-203.82 727.94 2246.2
-186.43 685.39 2114.9
-183.17 693.82 2140.9
-183.40 716.39 2210.6
-170.99 689.48 2127.5
-164.99 687.46 2121.3
-166.15 716.18 2209.9
-162.59 725.83 2239.7
-156.41 724.11 2234.4
-147.44 708.84 2187.3
-140.62 703.11 2169.6
-136.26 709.67 2189.8
-128.90 700.54 2161.7
-125.21 711.41 2195.2
-126.46 752.76 2322.8
-88.39 736.62 2273.0
-79.06 705.87 2178.1
-74.60 717.33 2213.5
-70.02 729.40 2250.7
-63.22 718.36 2216.6
-58.66 733.20 2262.4
-55.32 768.38 2371.0
-42.29 755.20 2330.3
-35.72 744.13 2296.2
-29.14 728.43 2247.7
-12.06 753.76 2325.9
-6.10 763.01 2354.4
0.00 768.26 2370.6
6.14 767.33 2367.8
12.20 762.70 2353.5
17.96 748.51 2309.7
23.51 734.62 2266.8
29.37 734.29 2265.8
37.17 774.34 2389.4
56.94 790.88 2440.4
78.58 755.54 2331.4
84.06 750.55 2316.0
92.79 773.28 2386.1
100.71 786.76 2427.7
106.02 779.60 2405.6
109.54 760.73 2347.4
114.03 750.17 2314.8
121.39 758.70 2341.1
128.07 762.30 2352.2
134.15 762.20 2351.9
138.58 753.17 2324.1
141.99 739.52 2282.0
148.50 742.49 2291.1
153.58 738.38 2278.4
165.27 737.83 2276.7
175.43 756.15 2333.3
181.81 757.55 2337.6
190.28 767.25 2367.5
200.23 782.16 2413.5
202.31 766.34 2364.7
206.06 757.58 2337.7
215.78 770.63 2378.0
218.71 759.41 2343.3
222.65 752.18 2321.0
235.14 773.50 2386.8
252.22 768.96 2372.8
281.71 765.50 2362.1
289.71 770.50 2377.5
297.53 743.82 2295.2
313.99 769.59 2374.7
323.61 777.92 2400.4
326.10 769.11 2373.3
324.63 751.45 2318.8
329.72 749.37 2312.3
347.51 775.69 2393.6
360.28 790.08 2438.0
357.98 771.50 2380.6
365.32 773.98 2388.3
382.50 796.88 2459.0
378.92 776.47 2396.0
369.27 744.50 2297.3
379.08 752.14 2320.9
390.56 762.82 2353.8
398.73 766.79 2366.1
407.44 771.67 2381.1
420.95 785.35 2423.4
440.95 810.58 2501.2
447.93 811.47 2504.0
452.53 808.10 2493.6
469.50 826.59 2550.6
475.91 826.24 2549.5
465.66 797.36 2460.4
501.50 814.13 2512.2
530.08 849.48 2621.3
551.46 851.02 2626.0
572.56 862.28 2660.8
574.91 855.53 2639.9
590.29 868.08 2678.6
-378.39 782.01 2432.5
-366.89 771.08 2398.5
-362.21 774.38 2408.8
-346.54 767.33 2386.9
-326.87 736.95 2292.4
-290.15 765.51 2381.2
-275.60 742.92 2310.9
-246.01 709.43 2206.8
-244.48 721.79 2245.2
-240.02 725.93 2258.1
-238.26 738.59 2297.5
-231.40 735.72 2288.5
-221.59 723.09 2249.3
-217.08 727.53 2263.0
-186.72 701.60 2182.4
-171.39 708.41 2203.6
-170.99 731.13 2274.3
-165.05 730.95 2273.7
-160.38 736.57 2291.2
-152.93 729.36 2268.7
-142.57 707.17 2199.7
-135.18 698.42 2172.5
-127.86 689.35 2144.3
-124.33 700.75 2179.8
-122.88 725.60 2257.1
-119.61 741.59 2306.8
-116.45 760.02 2364.1
-103.30 753.46 2343.7
-94.23 730.29 2271.6
-87.50 723.32 2250.0
-81.67 723.39 2250.2
-77.67 740.88 2304.6
-73.69 761.44 2368.5
-66.28 747.11 2324.0
-60.99 756.34 2352.7
-42.24 748.19 2327.3
-35.75 738.74 2297.9
-29.76 738.15 2296.1
-23.05 714.60 2222.8
-11.65 722.59 2247.7
-5.92 734.53 2284.8
0.00 744.02 2314.3
5.97 740.04 2302.0
11.80 731.77 2276.2
17.70 731.45 2275.3
23.46 727.15 2261.9
30.17 748.25 2327.5
49.37 765.29 2380.5
55.48 764.34 2377.5
62.97 780.81 2428.8
74.87 773.67 2406.6
77.61 740.27 2302.7
84.09 744.80 2316.8
91.86 759.41 2362.2
98.81 765.76 2382.0
102.75 749.48 2331.3
113.18 738.62 2297.5
124.25 770.32 2396.2
126.66 747.91 2326.5
139.26 750.77 2335.3
149.78 773.88 2407.2
152.18 754.83 2348.0
152.99 729.66 2269.7
161.25 740.54 2303.5
174.91 774.61 2409.5
181.06 774.17 2408.1
182.61 754.81 2347.9
191.26 765.04 2379.7
201.88 782.29 2433.4
205.88 773.59 2406.3
211.57 771.61 2400.2
221.88 786.08 2445.2
225.60 777.07 2417.2
219.27 734.84 2285.8
236.67 752.48 2340.7
246.80 765.09 2379.9
257.84 779.82 2425.7
263.24 777.19 2417.5
259.63 748.69 2328.9
263.87 743.63 2313.1
267.14 736.13 2289.8
277.52 748.09 2327.0
292.11 770.68 2397.3
290.60 750.71 2335.1
289.72 733.17 2280.6
302.40 749.96 2332.8
308.48 750.04 2333.1
308.20 734.93 2286.1
318.43 745.02 2317.4
325.26 746.90 2323.3
339.01 750.66 2335.0
370.49 778.65 2422.1
371.65 768.08 2389.2
386.94 786.57 2446.7
396.62 793.24 2467.5
391.34 770.27 2396.0
387.26 750.32 2334.0
399.03 761.22 2367.8
411.60 773.31 2405.4
405.43 750.36 2334.1
435.84 783.24 2436.3
469.33 819.67 2549.7
459.99 792.21 2464.2
459.44 780.42 2427.6
460.32 771.35 2399.4
478.98 781.50 2430.9
501.50 807.61 2512.1
519.31 825.57 2568.0
520.37 816.78 2540.7
574.92 848.70 2640.0
-381.71 769.69 2413.7
-376.33 771.47 2419.2
-368.17 767.53 2406.9
-345.32 732.31 2296.5
-325.55 715.06 2242.3
-319.17 713.79 2238.4
-318.10 724.56 2272.1
-305.21 736.10 2308.3
-292.45 719.44 2256.1
-269.50 705.28 2211.7
-283.82 758.91 2379.9
-267.45 731.03 2292.4
-252.29 705.26 2211.6
-253.59 725.38 2274.7
-247.75 725.57 2275.3
-240.00 720.01 2257.9
-232.44 714.74 2241.3
-219.87 693.44 2174.5
-215.22 696.62 2184.5
-215.34 715.84 2244.8
-213.90 730.83 2291.8
-191.81 714.94 2242.0
-181.70 698.42 2190.2
-184.38 731.57 2294.1
-181.20 742.92 2329.7
-174.19 738.81 2316.8
-163.52 718.33 2252.6
-154.71 704.80 2210.2
-156.25 739.18 2318.0
-143.80 736.98 2311.1
-133.57 714.33 2240.1
-124.47 695.93 2182.3
-117.90 690.56 2165.5
-112.55 692.16 2170.5
-107.54 696.19 2183.2
-107.22 732.69 2297.6
-90.31 694.28 2177.2
-75.10 710.56 2228.2
-61.51 756.57 2372.5
-54.70 747.50 2344.1
-48.58 746.94 2342.3
-41.42 727.83 2282.4
-34.76 712.67 2234.9
-28.72 706.62 2215.9
-17.39 713.03 2236.0
-11.85 728.54 2284.6
-6.03 741.61 2325.6
0.00 750.73 2354.2
6.06 745.56 2338.0
11.88 730.67 2291.3
17.65 723.67 2269.3
24.16 742.79 2329.3
42.42 745.45 2337.7
46.80 719.60 2256.6
53.36 729.28 2286.9
72.08 738.86 2317.0
81.07 767.04 2405.4
87.26 766.68 2404.2
94.78 777.23 2437.3
100.94 775.95 2433.3
104.21 754.01 2364.5
107.93 737.54 2312.9
117.06 757.79 2376.4
132.97 778.85 2442.4
129.52 724.14 2270.8
135.39 724.04 2270.5
147.77 757.30 2374.8
152.11 748.39 2346.9
158.36 749.18 2349.4
172.95 787.87 2470.7
190.44 780.79 2448.5
193.01 765.80 2401.5
199.98 768.69 2410.5
200.51 747.34 2343.6
207.71 751.42 2356.4
219.03 769.73 2413.8
228.07 779.25 2443.6
226.98 754.57 2366.2
222.69 720.82 2260.4
231.95 731.54 2294.0
244.92 753.14 2361.8
264.16 773.62 2426.0
260.45 745.02 2336.3
268.28 749.96 2351.8
275.63 753.38 2362.5
279.64 747.74 2344.8
287.72 752.96 2361.2
298.94 766.02 2402.2
317.34 780.65 2448.0
316.84 764.13 2396.2
311.61 737.08 2311.4
317.11 735.94 2307.8
333.17 758.89 2379.8
343.81 768.88 2411.1
344.87 757.49 2375.4
358.86 774.38 2428.4
373.21 778.06 2439.9
370.17 758.85 2379.7
381.12 768.49 2409.9
389.95 773.61 2426.0
384.41 750.51 2353.5
390.12 738.24 2315.0
410.61 765.23 2399.7
412.59 757.44 2375.2
423.39 754.73 2366.8
450.30 791.24 2481.3
449.46 778.64 2441.7
457.70 781.90 2452.0
473.80 798.31 2503.4
471.81 784.22 2459.2
472.51 774.91 2430.0
504.18 795.05 2493.2
553.65 830.48 2604.3
569.77 844.36 2647.8
-376.78 753.55 2382.4
-363.54 739.21 2337.1
-362.09 748.72 2367.1
-345.15 726.00 2295.3
-330.80 708.03 2238.5
-334.84 729.48 2306.3
-338.13 750.04 2371.3
-315.32 754.29 2384.8
-304.45 742.85 2348.6
-289.43 720.61 2278.3
-278.30 707.35 2236.3
-269.93 700.66 2215.2
-264.48 701.46 2217.7
-267.43 725.03 2292.2
-269.02 745.91 2358.3
-263.39 747.30 2362.7
-251.66 731.00 2311.1
-245.83 731.48 2312.6
-239.50 730.46 2309.4
-221.86 694.01 2194.2
-212.57 682.47 2157.7
-206.30 680.22 2150.6
-199.44 675.86 2136.8
-195.57 681.72 2155.3
-187.51 672.84 2127.3
-183.66 678.99 2146.7
-184.99 705.28 2229.8
-186.58 734.28 2321.5
-182.52 742.24 2346.7
-171.75 722.52 2284.3
-157.84 687.75 2174.4
-152.03 686.96 2171.9
-156.30 733.41 2318.8
-144.26 733.34 2318.5
-134.13 711.46 2249.4
-125.00 693.19 2191.6
-118.87 690.57 2183.3
-113.82 694.27 2195.0
-108.23 694.96 2197.2
-107.70 729.98 2307.9
-92.00 701.51 2217.9
-79.31 691.09 2184.9
-74.10 695.36 2198.5
-68.82 699.64 2212.0
-65.37 725.01 2292.2
-58.99 719.63 2275.2
-55.54 752.84 2380.2
-43.04 750.20 2371.8
-34.92 710.12 2245.1
-30.24 737.89 2332.9
-18.64 757.83 2395.9
-12.29 749.39 2369.3
-6.27 764.48 2417.0
6.17 752.42 2378.8
11.86 723.16 2286.3
17.97 730.69 2310.1
31.34 764.72 2417.7
35.83 728.51 2303.3
42.13 734.21 2321.3
49.96 761.92 2408.9
56.05 759.77 2402.1
59.90 730.78 2310.4
64.58 716.27 2264.5
73.68 749.07 2368.3
81.45 764.39 2416.7
86.22 751.37 2375.5
93.08 757.03 2393.4
98.84 753.64 2382.7
105.21 755.07 2387.2
112.01 759.21 2400.3
114.38 734.42 2321.9
118.90 725.30 2293.1
128.93 749.00 2368.0
132.66 735.65 2325.8
135.77 720.19 2277.0
145.33 738.76 2335.6
153.27 747.98 2364.8
163.10 765.32 2419.6
169.61 766.40 2423.0
176.56 769.28 2432.1
188.88 768.10 2428.4
191.16 752.32 2378.5
197.92 754.59 2385.7
199.52 737.60 2332.0
207.36 744.07 2352.4
218.16 760.43 2404.2
225.94 765.68 2420.8
230.71 760.70 2405.0
232.58 746.72 2360.8
232.99 728.83 2304.3
237.13 723.26 2286.6
244.52 727.58 2300.3
263.34 713.94 2257.2
277.48 735.92 2326.7
286.20 742.90 2348.7
298.21 757.96 2396.4
326.88 766.92 2424.7
324.23 746.34 2359.6
332.09 750.29 2372.1
346.35 768.27 2429.0
350.61 763.83 2414.9
358.15 766.56 2423.6
369.27 776.74 2455.8
371.90 769.01 2431.3
375.13 762.77 2411.6
384.98 769.95 2434.3
392.66 772.65 2442.8
392.69 760.44 2404.2
393.77 750.62 2373.2
403.58 757.48 2394.8
423.31 782.48 2473.9
431.19 785.15 2482.3
426.01 764.31 2416.5
424.70 750.92 2374.1
444.08 763.07 2412.5
470.82 797.78 2522.3
478.93 800.41 2530.6
469.27 773.66 2446.0
476.68 775.39 2451.5
483.37 775.94 2453.2
487.64 772.63 2442.7
512.68 801.88 2535.2
532.43 822.23 2599.6
541.24 825.40 2609.6
552.27 831.81 2629.8
563.98 839.10 2652.9
571.59 840.17 2656.3
-346.17 709.95 2263.1
-330.34 701.26 2235.4
-337.28 728.77 2323.1
-343.91 756.60 2411.8
-318.30 713.23 2273.6
-306.71 713.69 2275.0
-313.67 744.20 2372.3
-306.26 741.16 2362.6
-293.97 725.93 2314.1
-284.99 718.41 2290.1
-278.79 717.73 2287.9
-271.69 714.66 2278.1
-272.82 733.59 2338.5
-261.68 736.37 2347.3
-248.74 716.61 2284.3
-242.78 716.49 2284.0
-241.74 731.26 2331.1
-227.78 706.71 2252.8
-217.13 691.38 2203.9
-209.09 683.78 2179.7
-177.24 670.18 2136.3
-176.55 689.11 2196.7
-179.25 722.97 2304.6
-173.88 725.49 2312.6
-160.93 695.45 2216.9
-156.41 700.95 2234.4
-155.71 724.66 2310.0
-149.19 722.08 2301.8
-143.54 723.68 2306.9
-137.52 723.49 2306.3
-132.48 728.67 2322.8
-119.73 724.37 2309.1
-109.49 697.25 2222.6
-106.09 713.17 2273.4
-101.18 720.13 2295.6
-96.97 733.36 2337.8
-75.53 703.04 2241.1
-68.57 691.43 2204.1
-63.38 697.16 2222.4
-58.16 703.79 2243.5
-55.91 751.71 2396.2
-35.86 723.08 2305.0
-31.15 753.93 2403.3
-12.32 745.60 2376.8
-6.14 743.51 2370.1
0.00 747.40 2382.5
5.98 724.06 2308.1
11.81 714.77 2278.5
18.38 741.40 2363.4
24.17 731.21 2330.9
43.34 749.09 2387.9
49.45 747.86 2384.0
53.29 716.40 2283.7
61.30 741.79 2364.6
75.75 763.83 2434.9
78.52 730.86 2329.8
82.55 713.45 2274.3
88.81 716.38 2283.6
97.13 734.56 2341.6
106.22 756.02 2410.0
112.68 757.43 2414.5
114.27 727.74 2319.8
119.83 724.97 2311.0
131.25 756.26 2410.8
138.14 759.75 2421.9
144.74 761.44 2427.3
150.18 757.15 2413.6
153.82 744.49 2373.2
160.91 748.85 2387.1
164.54 737.38 2350.6
167.43 723.52 2306.4
174.45 727.87 2320.3
178.21 718.79 2291.3
194.44 735.23 2343.7
200.23 734.19 2340.4
203.49 724.19 2308.5
209.35 723.74 2307.1
218.12 733.13 2337.0
223.86 732.07 2333.6
224.99 716.41 2283.7
270.94 728.54 2322.4
282.20 742.32 2366.3
287.91 741.21 2362.8
291.36 734.46 2341.3
296.14 731.28 2331.1
306.63 742.05 2365.4
313.55 743.90 2371.4
321.38 747.83 2383.9
326.29 744.92 2374.6
332.60 745.27 2375.7
344.45 757.78 2415.6
346.61 748.93 2387.4
351.99 747.20 2381.9
368.12 767.98 2448.1
375.49 770.08 2454.8
369.68 745.52 2376.5
370.19 734.30 2340.8
389.91 760.96 2425.7
403.14 774.28 2468.2
410.63 776.35 2474.8
444.57 791.07 2521.7
443.69 778.06 2480.2
448.56 775.38 2471.7
468.28 798.05 2544.0
477.30 802.13 2557.0
466.13 772.62 2462.9
470.33 769.05 2451.5
492.71 794.90 2533.9
527.10 828.30 2640.4
551.34 833.90 2658.2
567.57 837.51 2669.7
-364.49 741.34 2382.9
-348.77 721.60 2319.4
-334.36 703.91 2262.6
-334.23 716.21 2302.1
-337.68 736.76 2368.2
-310.45 689.89 2217.5
-284.55 696.86 2239.9
-291.45 728.63 2342.0
-289.39 738.87 2374.9
-286.48 747.34 2402.2
-275.24 733.97 2359.2
-262.26 715.26 2299.1
-252.35 704.23 2263.6
-238.68 681.95 2192.0
-234.88 687.44 2209.6
-235.02 705.06 2266.3
-230.26 708.48 2277.2
-227.68 718.99 2311.1
-217.00 703.78 2262.1
-200.44 668.13 2147.6
-187.20 660.72 2123.7
-185.24 673.58 2165.1
-183.53 688.23 2212.2
-181.27 701.69 2255.4
-182.34 729.37 2344.4
-168.52 722.22 2321.4
-160.46 713.15 2292.3
-156.98 724.53 2328.9
-149.67 718.42 2309.2
-143.29 716.45 2302.9
-136.88 714.18 2295.6
-131.82 719.02 2311.1
-127.09 726.24 2334.3
-114.63 687.76 2210.7
-103.59 690.59 2219.7
-97.89 690.96 2220.9
-92.93 696.97 2240.2
-90.65 725.23 2331.1
-82.33 705.70 2268.3
-73.11 674.88 2169.3
-67.88 678.79 2181.8
-63.78 695.77 2236.4
-59.32 711.85 2288.1
-52.95 705.95 2269.1
-46.75 701.24 2254.0
-42.31 725.33 2331.4
-11.61 696.61 2239.1
-5.80 696.02 2237.2
0.00 703.16 2260.1
5.99 718.30 2308.8
12.42 745.33 2395.7
18.08 723.04 2324.1
35.53 710.50 2283.8
43.47 745.23 2395.4
48.51 727.67 2338.9
53.21 709.52 2280.6
62.32 747.78 2403.6
91.77 734.14 2359.7
96.17 721.31 2318.5
103.98 734.00 2359.3
108.93 726.20 2334.2
116.19 733.83 2358.8
150.88 754.41 2424.9
153.69 737.69 2371.1
159.94 738.17 2372.7
167.73 745.46 2396.1
174.81 749.19 2408.1
176.44 730.09 2346.7
197.50 740.64 2380.6
202.58 736.65 2367.8
205.49 725.25 2331.2
220.19 714.13 2295.4
224.87 710.12 2282.5
232.47 715.28 2299.1
244.18 732.55 2354.6
251.24 735.32 2363.5
255.44 729.82 2345.9
257.32 718.11 2308.2
266.05 725.60 2332.3
274.46 731.90 2352.5
274.60 716.35 2302.6
289.16 738.28 2373.0
302.19 755.47 2428.3
300.81 736.67 2367.9
304.77 731.44 2351.1
309.77 728.86 2342.8
315.49 728.04 2340.1
322.10 729.29 2344.1
329.93 733.17 2356.6
343.62 749.71 2409.8
348.65 747.11 2401.4
347.21 730.97 2349.5
355.17 734.83 2362.0
369.55 751.62 2415.9
371.27 742.54 2386.7
365.38 718.77 2310.3
378.97 733.48 2357.6
400.81 763.44 2453.9
419.57 774.59 2489.8
420.86 765.20 2459.6
431.48 772.81 2484.0
434.76 767.22 2466.1
441.14 767.20 2466.0
453.15 776.84 2497.0
464.98 785.87 2526.0
465.71 776.18 2494.9
468.95 770.88 2477.8
488.14 791.58 2544.4
497.81 796.49 2560.1
502.37 793.21 2549.6
515.11 802.78 2580.4
534.27 821.95 2642.0
560.21 819.82 2635.1
-375.65 745.05 2414.9
-349.31 716.69 2323.0
-344.94 720.14 2334.2
-334.88 711.63 2306.6
-328.88 711.57 2306.4
-315.31 694.86 2252.3
-300.84 701.96 2275.2
-295.52 703.34 2279.7
-301.03 731.06 2369.6
-295.68 733.03 2376.0
-283.59 718.02 2327.3
-270.04 730.33 2367.2
-259.31 717.63 2326.0
-251.48 712.53 2309.5
-234.37 715.11 2317.9
-207.60 686.24 2224.3
-193.41 657.61 2131.5
-195.40 683.89 2216.7
-199.55 719.58 2332.4
-182.48 723.82 2346.1
-169.47 695.43 2254.1
-166.43 707.31 2292.6
-165.51 729.49 2364.5
-156.26 715.19 2318.2
-143.66 683.82 2216.5
-140.43 696.28 2256.9
-137.16 709.63 2300.1
-130.50 705.90 2288.0
-124.12 703.34 2279.7
-112.19 667.51 2163.6
-79.45 675.29 2188.8
-77.35 708.05 2295.0
-69.53 689.54 2235.0
-63.34 685.17 2220.8
-61.05 726.48 2354.7
-56.35 745.09 2415.0
-48.80 725.97 2353.1
-43.43 738.38 2393.3
-11.86 705.46 2286.6
0.00 706.36 2289.5
6.16 732.89 2375.5
12.47 741.73 2404.2
17.69 701.62 2274.2
30.41 723.70 2345.7
36.90 731.92 2372.4
42.64 724.82 2349.4
47.46 705.92 2288.1
62.06 738.56 2393.9
90.20 715.59 2319.4
107.41 710.07 2301.6
118.81 744.15 2412.0
125.80 748.48 2426.0
130.77 741.03 2401.9
137.03 741.22 2402.5
142.16 735.53 2384.1
150.64 746.90 2420.9
159.24 757.97 2456.8
165.58 757.85 2456.4
179.43 736.30 2386.6
189.75 728.39 2360.9
203.42 756.46 2451.9
207.86 749.55 2429.5
211.18 739.12 2395.7
213.28 725.16 2350.5
219.51 725.59 2351.8
231.30 743.92 2411.3
233.85 732.31 2373.6
239.17 729.79 2365.5
248.80 740.17 2399.1
253.64 736.18 2386.2
256.97 728.08 2359.9
257.62 712.94 2310.8
258.55 699.27 2266.5
278.15 704.25 2282.7
299.81 743.28 2409.2
307.77 747.45 2422.7
312.61 744.01 2411.6
317.76 741.44 2403.2
318.14 728.05 2359.8
319.99 718.47 2328.8
329.37 725.83 2352.6
344.81 746.04 2418.1
351.92 747.84 2424.0
352.77 736.49 2387.2
360.83 740.32 2399.6
374.44 755.23 2447.9
379.77 753.21 2441.4
378.34 738.07 2392.3
375.90 721.48 2338.5
380.89 719.46 2332.0
391.18 727.34 2357.5
397.60 716.88 2323.6
417.05 740.74 2401.0
423.44 741.02 2401.9
432.36 745.66 2416.9
454.16 772.07 2502.5
478.33 790.58 2562.5
479.25 781.24 2532.2
480.19 772.20 2502.9
471.49 748.09 2424.8
478.49 749.21 2428.4
493.56 762.77 2472.4
514.72 785.28 2545.3
543.55 818.77 2653.9
-347.99 707.98 2314.2
-348.97 722.42 2361.4
-344.06 724.99 2369.8
-333.57 715.66 2339.3
-316.07 690.67 2257.7
-304.82 691.70 2261.0
-314.98 728.77 2382.2
-300.64 723.99 2366.5
-278.64 684.98 2239.0
-271.37 696.13 2275.5
-217.31 657.49 2149.2
-216.31 689.84 2254.9
-215.84 707.48 2312.6
-193.12 651.09 2128.3
-189.07 656.19 2144.9
-198.14 708.51 2316.0
-177.71 699.00 2284.9
-163.93 667.03 2180.4
-160.52 676.49 2211.3
-161.09 704.04 2301.3
-153.22 695.39 2273.1
-142.47 672.43 2198.0
-140.89 692.69 2264.2
-141.92 728.13 2380.1
-119.20 703.29 2298.9
-107.84 669.76 2189.3
-101.02 662.24 2164.7
-96.26 668.16 2184.1
-91.40 674.07 2203.4
-80.37 677.41 2214.3
-79.50 721.62 2358.8
-72.47 712.61 2329.4
-62.54 670.84 2192.8
-57.08 673.52 2201.6
-36.19 711.68 2326.3
-29.93 706.44 2309.2
-24.82 732.20 2393.4
-6.20 731.35 2390.6
0.00 728.14 2380.1
6.12 721.99 2360.0
11.89 701.80 2294.0
17.65 694.18 2269.1
24.20 713.77 2333.1
31.55 744.46 2433.5
37.82 743.85 2431.5
43.31 730.08 2386.4
47.67 703.13 2298.4
59.90 706.86 2310.6
76.13 748.58 2446.9
82.01 744.43 2433.4
86.27 727.12 2376.8
88.56 696.65 2277.2
116.64 724.41 2367.9
123.01 725.78 2372.4
127.33 715.47 2338.7
133.05 713.62 2332.7
139.13 713.81 2333.3
148.61 730.65 2388.3
159.85 754.48 2466.2
177.63 748.57 2446.9
184.44 750.48 2453.1
191.43 752.97 2461.3
192.57 733.00 2396.0
196.05 722.94 2363.1
201.49 720.47 2355.0
205.70 713.90 2333.6
212.31 715.79 2339.8
223.22 731.67 2391.6
231.56 738.49 2414.0
230.64 716.19 2341.1
235.40 712.24 2328.1
244.44 721.09 2357.1
251.80 724.70 2368.9
258.08 725.10 2370.2
255.58 701.35 2292.5
262.88 689.34 2253.3
273.07 700.49 2289.7
280.78 704.94 2304.3
292.58 719.26 2351.1
305.22 735.02 2402.6
314.55 742.35 2426.6
321.63 744.15 2432.5
324.38 736.09 2406.1
327.12 728.31 2380.7
337.83 738.23 2413.1
351.27 753.64 2463.5
355.06 748.17 2445.6
357.08 739.22 2416.3
366.78 746.21 2439.2
375.00 750.00 2451.6
374.01 735.55 2404.3
373.97 723.42 2364.7
372.52 708.99 2317.5
384.87 709.61 2319.5
423.74 746.29 2439.4
438.37 760.70 2486.6
448.01 766.16 2504.4
484.04 782.42 2557.5
476.38 759.63 2483.1
473.83 745.49 2436.8
488.45 758.38 2479.0
502.53 770.11 2517.3
522.68 790.72 2584.7
541.82 809.30 2645.4
549.20 810.07 2647.9
555.41 809.11 2644.8
-361.07 716.02 2360.5
-363.05 732.36 2414.4
-358.74 736.35 2427.5
-350.36 732.00 2413.2
-335.84 714.42 2355.2
-328.11 710.91 2343.7
-322.40 711.72 2346.3
-320.13 720.29 2374.6
-294.94 704.24 2321.7
-284.39 693.21 2285.3
-283.76 706.38 2328.7
-274.06 697.07 2298.0
-273.61 711.39 2345.3
-246.77 687.42 2266.2
-232.96 664.78 2191.6
-238.29 697.00 2297.8
-221.03 663.08 2186.0
-200.53 670.33 2209.9
-182.82 668.43 2203.6
-179.21 676.37 2229.8
-175.17 683.15 2252.2
-170.72 688.78 2270.7
-163.69 683.98 2254.9
-161.01 697.70 2300.1
-152.95 688.26 2269.0
-142.26 665.77 2194.8
-143.01 697.16 2298.3
-126.28 703.54 2319.4
-120.72 706.24 2328.3
-116.16 715.31 2358.2
-108.63 706.11 2327.8
-103.07 709.38 2338.6
-98.01 716.70 2362.7
-90.07 702.55 2316.1
-83.10 694.49 2289.5
-78.53 706.74 2329.9
-72.28 704.76 2323.4
-63.13 671.44 2213.5
-58.09 679.61 2240.5
-36.96 720.67 2375.8
-30.54 714.60 2355.8
-24.36 712.59 2349.2
-18.47 720.44 2375.1
6.21 726.55 2395.2
12.36 722.77 2382.8
18.73 730.31 2407.6
24.13 705.91 2327.2
29.62 693.12 2285.0
36.47 711.09 2344.3
42.84 716.00 2360.4
49.81 728.44 2401.5
55.99 727.82 2399.4
82.30 740.68 2441.8
85.74 716.54 2362.2
95.11 695.53 2292.9
102.10 702.71 2316.6
106.80 694.22 2288.6
115.31 710.09 2341.0
123.45 722.18 2380.8
129.24 720.06 2373.8
138.21 735.04 2423.2
148.12 753.48 2484.0
152.22 742.07 2446.4
157.73 738.20 2433.6
167.24 752.57 2481.0
172.84 748.97 2469.1
176.58 737.84 2432.4
183.93 742.05 2446.3
200.15 731.80 2412.5
204.24 724.13 2387.2
206.86 711.83 2346.7
211.69 707.64 2332.9
213.77 694.76 2290.4
237.78 713.35 2351.7
248.07 725.60 2392.1
256.54 732.06 2413.4
258.48 720.04 2373.8
251.41 684.07 2255.2
268.51 698.12 2301.5
272.93 694.18 2288.5
274.61 683.61 2253.6
287.47 700.70 2310.0
301.58 720.09 2373.9
309.98 725.35 2391.3
315.95 724.84 2389.6
322.69 726.05 2393.6
329.83 728.12 2400.4
331.17 717.53 2365.5
334.62 711.83 2346.7
347.20 725.39 2391.4
357.90 734.63 2421.9
365.33 736.96 2429.5
371.06 735.84 2425.8
373.98 729.26 2404.1
377.38 723.83 2386.2
385.70 727.86 2399.5
399.19 741.35 2444.0
412.74 754.55 2487.5
416.32 749.38 2470.5
411.74 729.90 2406.2
421.74 736.48 2427.9
439.18 755.64 2491.1
452.54 767.35 2529.7
444.88 743.58 2451.4
453.51 736.95 2429.5
471.37 755.48 2490.6
473.10 748.01 2466.0
481.11 750.54 2474.3
486.94 749.63 2471.3
492.00 747.58 2464.5
524.94 787.42 2595.9
552.31 807.75 2662.9
544.76 786.87 2594.1
567.75 800.33 2638.4
-370.74 728.92 2423.8
-341.22 719.65 2392.9
-330.60 710.19 2361.5
-305.65 723.59 2406.0
-294.53 711.79 2366.8
-290.10 716.00 2380.8
-275.96 695.89 2313.9
-265.04 683.20 2271.7
-261.82 690.26 2295.2
-259.12 699.03 2324.4
-242.48 669.71 2226.9
-233.82 678.07 2254.7
-235.35 700.02 2327.6
-215.26 693.62 2306.4
-195.99 649.58 2159.9
-173.43 648.96 2157.9
-174.03 672.92 2237.5
-173.79 695.16 2311.5
-171.02 708.49 2355.8
-165.34 710.34 2362.0
-154.28 688.32 2288.8
-142.86 662.85 2204.1
-143.11 691.70 2300.0
-135.20 712.89 2370.4
-125.33 692.27 2301.9
-121.50 704.73 2343.3
-113.84 695.03 2311.1
-103.84 669.22 2225.2
-96.15 656.05 2181.5
-73.87 659.17 2191.8
-69.92 675.92 2247.5
-64.89 684.32 2275.4
-56.43 727.30 2418.4
-46.75 677.82 2253.8
-42.12 698.00 2320.9
-37.10 717.32 2385.2
-30.87 716.20 2381.4
-24.82 719.67 2393.0
-18.43 712.49 2369.1
24.23 702.68 2336.5
29.70 689.13 2291.4
36.54 706.38 2348.8
42.40 702.61 2336.3
48.81 707.76 2353.4
56.63 729.89 2427.0
59.49 690.12 2294.7
73.20 707.59 2352.8
83.78 747.54 2485.7
85.63 709.49 2359.1
88.80 686.69 2283.3
97.52 707.05 2351.0
104.37 712.16 2368.0
108.93 702.02 2334.3
118.08 720.92 2397.2
126.86 735.79 2446.6
132.87 733.98 2440.6
142.35 750.56 2495.7
154.95 748.91 2490.2
156.11 724.36 2408.6
161.11 718.79 2390.1
169.15 726.72 2416.4
175.32 726.31 2415.1
180.11 720.44 2395.5
187.10 723.46 2405.6
193.99 725.91 2413.8
199.10 721.75 2399.9
206.92 727.35 2418.5
213.31 727.78 2419.9
214.26 710.12 2361.2
217.71 682.56 2269.6
233.97 714.23 2374.9
243.54 724.38 2408.7
247.26 717.05 2384.3
253.48 717.15 2384.6
252.85 698.35 2322.1
273.25 704.38 2342.2
281.18 709.05 2357.7
277.24 684.25 2275.2
283.77 685.77 2280.3
292.01 691.28 2298.6
294.67 683.65 2273.2
301.61 686.01 2281.1
308.96 689.22 2291.7
320.02 700.42 2329.0
326.62 701.62 2333.0
344.70 701.49 2332.5
365.73 731.46 2432.2
365.82 719.23 2391.5
362.31 700.46 2329.1
374.95 713.02 2370.9
392.97 735.24 2444.8
401.79 739.80 2459.9
411.15 745.21 2477.9
429.26 743.19 2471.2
429.99 733.52 2439.0
447.45 752.24 2501.3
445.53 738.31 2455.0
451.18 726.91 2417.1
477.40 758.61 2522.5
488.79 766.21 2547.7
482.73 746.62 2482.6
503.82 749.28 2491.4
542.76 796.97 2650.0
544.70 789.82 2626.2
546.71 782.95 2603.4
561.97 794.98 2643.4
-344.70 720.74 2417.4
-326.18 694.65 2329.9
-330.17 716.40 2402.8
-289.80 680.13 2281.2
-272.11 695.39 2332.4
-259.83 679.11 2277.8
-248.90 665.65 2232.6
-245.56 672.36 2255.1
-242.81 681.06 2284.3
-242.88 698.29 2342.1
-238.80 704.14 2361.7
-224.93 680.70 2283.1
-209.45 650.98 2183.4
-182.96 637.59 2138.5
-177.85 639.14 2143.7
-174.09 645.81 2166.1
-172.59 661.61 2219.0
-170.61 676.54 2269.2
-170.58 700.60 2349.9
-152.63 702.09 2354.8
-141.96 680.23 2281.5
-133.73 668.64 2242.6
-132.68 693.55 2326.2
-130.52 714.75 2397.3
-123.82 711.99 2388.0
-113.17 684.96 2297.4
-106.91 683.04 2291.0
-102.29 691.97 2320.9
-93.46 671.77 2253.1
-85.32 654.13 2194.0
-73.04 699.99 2347.8
-35.55 681.36 2285.3
-30.93 711.39 2386.0
-25.11 721.98 2421.5
-18.82 721.42 2419.7
-12.59 723.72 2427.4
-6.30 724.30 2429.3
25.76 740.55 2483.8
32.89 756.53 2537.4
39.10 749.36 2513.4
44.01 723.05 2425.1
50.48 725.58 2433.6
58.55 748.11 2509.2
65.74 756.07 2535.9
83.80 741.34 2486.5
87.46 718.44 2409.7
92.77 711.23 2385.5
100.65 723.44 2426.4
106.38 719.66 2413.8
107.72 688.18 2308.2
113.31 685.82 2300.3
125.21 719.98 2414.8
134.64 737.30 2472.9
140.32 733.49 2460.2
145.82 729.11 2445.5
150.35 720.45 2416.4
152.81 702.94 2357.7
158.51 701.12 2351.6
167.46 713.27 2392.3
173.77 713.72 2393.8
178.66 708.46 2376.2
185.45 710.90 2384.4
191.98 712.19 2388.7
199.40 716.61 2403.5
210.17 732.41 2456.5
219.61 721.58 2420.2
221.92 708.90 2377.7
231.78 720.40 2416.3
238.84 722.80 2424.3
238.22 702.44 2356.0
241.89 695.44 2332.5
247.88 695.27 2332.0
256.46 702.20 2355.2
262.81 702.87 2357.5
265.59 694.16 2328.2
277.78 709.88 2380.9
289.32 723.30 2426.0
288.92 706.92 2371.0
287.04 687.71 2306.6
286.05 671.34 2251.7
292.66 673.12 2257.7
303.58 684.54 2296.0
306.61 678.09 2274.3
313.33 679.86 2280.3
328.57 699.74 2347.0
331.16 692.43 2322.5
340.45 686.87 2303.8
358.85 711.52 2386.5
356.64 695.15 2331.6
372.21 701.71 2353.6
387.77 719.24 2412.4
394.34 719.82 2414.3
400.76 720.11 2415.3
413.72 731.96 2455.0
430.11 749.43 2513.6
430.54 738.99 2478.6
423.63 716.43 2402.9
433.40 722.33 2422.7
457.15 751.03 2519.0
471.30 763.37 2560.4
474.56 757.98 2542.3
485.76 765.24 2566.7
489.67 760.97 2552.3
476.10 730.02 2448.5
496.89 751.87 2521.8
521.48 768.85 2578.8
520.99 758.40 2543.7
564.29 781.85 2622.4
-340.75 693.68 2347.0
-337.49 699.53 2366.8
-337.59 712.68 2411.3
-317.75 710.27 2403.2
-302.37 689.39 2332.5
-287.58 669.06 2263.7
-270.74 685.89 2320.7
-265.56 688.04 2328.0
-256.41 679.77 2300.0
-254.04 689.53 2333.0
-243.79 677.87 2293.5
-237.41 676.62 2289.3
-222.97 686.98 2324.4
-208.97 661.73 2238.9
-201.56 656.51 2221.3
-198.71 666.25 2254.2
-189.63 655.09 2216.5
-177.65 632.90 2141.4
-175.13 644.04 2179.1
-175.17 665.64 2252.2
-167.92 660.11 2233.4
-162.85 663.05 2243.4
-163.23 689.18 2331.8
-159.40 698.91 2364.7
-152.24 694.21 2348.8
-142.30 675.92 2287.0
-132.22 655.37 2217.4
-129.88 673.00 2277.1
-128.11 695.45 2353.0
-121.43 692.14 2341.8
-114.66 687.98 2327.8
-111.41 705.61 2387.4
-105.87 709.94 2402.0
-96.07 684.52 2316.1
-91.68 696.77 2357.5
-86.65 705.61 2387.4
-80.21 703.40 2379.9
-52.15 660.52 2234.8
-30.13 686.99 2324.4
-24.63 702.03 2375.3
-18.65 708.85 2398.4
-12.59 717.65 2428.1
-6.25 712.55 2410.9
0.00 719.93 2435.8
6.22 709.15 2399.4
18.83 715.65 2421.4
33.08 754.16 2551.7
38.36 728.91 2466.3
43.16 702.81 2377.9
49.30 702.50 2376.9
58.34 739.01 2500.4
71.65 742.61 2512.6
76.34 725.27 2453.9
97.75 742.93 2513.7
104.42 744.00 2517.3
113.11 716.37 2423.8
129.99 705.64 2387.5
136.54 707.53 2393.9
143.47 711.11 2406.0
149.51 710.16 2402.8
153.36 699.30 2366.1
160.30 702.87 2378.1
166.31 702.19 2375.8
169.87 691.61 2340.0
176.41 693.47 2346.3
184.62 701.54 2373.6
192.50 707.91 2395.2
201.61 718.22 2430.1
206.88 714.69 2418.1
208.90 700.42 2369.8
217.60 708.74 2398.0
226.89 718.47 2430.9
232.22 715.49 2420.8
234.68 704.04 2382.1
234.72 686.10 2321.4
238.60 680.01 2300.8
253.63 705.22 2386.1
270.01 715.85 2422.0
263.39 682.41 2308.9
271.41 687.58 2326.4
277.82 688.51 2329.5
281.69 683.25 2311.7
284.28 675.17 2284.4
293.51 682.85 2310.4
310.75 708.52 2397.2
322.28 720.39 2437.4
326.70 716.23 2423.3
326.35 701.95 2375.0
334.53 706.22 2389.5
354.86 709.72 2401.3
348.40 684.78 2316.9
357.62 690.99 2337.9
370.04 703.08 2378.8
381.77 713.47 2414.0
392.76 722.17 2443.4
400.64 724.97 2452.9
408.42 727.50 2461.5
428.75 718.79 2432.0
431.84 713.47 2414.0
447.17 728.25 2464.0
459.80 738.27 2497.9
462.91 732.93 2479.9
480.02 749.63 2536.3
489.10 753.48 2549.4
481.01 731.13 2473.8
507.25 760.88 2574.4
548.71 791.81 2679.1
539.20 768.36 2599.7
-367.63 716.25 2444.9
-337.26 680.55 2323.0
-336.10 690.53 2357.0
-319.25 680.67 2323.4
-307.52 681.38 2325.8
-275.26 661.81 2259.0
-260.25 653.52 2230.7
-262.92 675.22 2304.8
-260.94 685.74 2340.7
-258.68 695.98 2375.7
-248.43 684.69 2337.1
-238.86 674.79 2303.3
-226.61 692.07 2362.3
-213.57 670.38 2288.3
-208.73 673.89 2300.2
-205.17 681.87 2327.5
-195.74 670.25 2287.8
-188.89 667.02 2276.8
-168.18 655.34 2236.9
-159.63 644.23 2199.0
-156.71 655.84 2238.7
-150.15 652.58 2227.5
-141.11 637.81 2177.1
-138.05 649.98 2218.6
-134.37 660.18 2253.4
-131.61 675.99 2307.4
-129.50 696.85 2378.6
-120.92 683.18 2332.0
-112.48 668.94 2283.4
-85.96 647.59 2210.5
-85.11 686.99 2345.0
-66.94 687.71 2347.4
-62.13 702.09 2396.5
-54.60 685.54 2340.0
-29.84 674.42 2302.1
-24.86 702.27 2397.1
-19.20 723.37 2469.1
-12.75 720.29 2458.6
-6.23 703.71 2402.0
0.00 699.49 2387.6
26.17 739.38 2523.8
38.47 724.43 2472.8
57.76 725.18 2475.3
65.54 740.59 2527.9
70.26 721.71 2463.5
73.15 688.78 2351.1
80.17 696.88 2378.7
90.47 730.26 2492.7
96.48 726.82 2480.9
102.31 722.54 2466.3
108.27 719.65 2456.5
114.58 719.29 2455.2
119.09 708.26 2417.6
134.67 691.71 2361.1
143.57 705.37 2407.7
150.98 710.88 2426.5
156.38 706.84 2412.7
163.45 710.38 2424.8
169.57 709.70 2422.5
173.95 702.01 2396.2
181.50 707.21 2414.0
187.65 706.80 2412.6
193.40 704.99 2406.4
201.75 712.42 2431.8
206.05 705.55 2408.3
207.02 688.04 2348.5
214.63 692.93 2365.3
226.60 711.26 2427.8
234.86 717.26 2448.3
239.55 712.34 2431.5
241.93 700.98 2392.7
240.25 678.71 2316.7
249.85 688.61 2350.5
265.41 697.48 2380.8
258.89 664.87 2269.5
266.93 670.28 2287.9
274.26 673.73 2299.7
279.33 671.58 2292.4
291.83 687.02 2345.1
319.23 707.32 2414.4
340.08 711.65 2429.2
356.17 718.70 2453.2
341.06 676.14 2307.9
363.96 697.08 2379.4
379.30 714.35 2438.4
398.36 726.05 2478.3
397.82 713.55 2435.6
407.44 719.39 2455.6
426.38 708.54 2418.5
432.30 707.97 2416.6
445.93 719.86 2457.2
457.33 727.86 2484.5
458.28 719.25 2455.1
473.38 732.77 2501.2
513.36 763.28 2605.4
531.35 779.78 2661.7
540.79 773.53 2640.4
548.16 774.27 2642.9
555.93 775.55 2647.3
563.52 776.55 2650.7
-331.12 686.77 2365.1
-304.84 669.45 2305.5
-296.61 664.40 2288.1
-286.81 669.22 2304.7
-285.57 680.50 2343.5
-268.30 653.26 2249.8
-256.13 651.96 2245.3
-260.59 678.75 2337.5
-264.17 704.44 2426.0
-249.41 681.32 2346.4
-235.76 660.12 2273.4
-208.32 630.60 2171.7
-218.18 678.79 2337.7
-192.99 675.47 2326.2
-189.46 684.50 2357.3
-174.22 650.42 2240.0
-167.15 645.54 2223.1
-166.28 665.12 2290.6
-158.42 657.17 2263.2
-147.93 637.24 2194.6
-139.52 651.07 2242.2
-135.61 660.36 2274.2
-132.63 675.21 2325.3
-122.54 686.24 2363.3
-110.81 653.18 2249.5
-87.52 653.45 2250.4
-83.85 670.79 2310.1
-79.52 685.06 2359.3
-70.72 660.03 2273.1
-53.92 671.03 2310.9
-48.95 685.28 2360.0
-42.52 680.30 2342.9
-36.01 672.24 2315.1
-31.58 707.39 2436.2
-6.51 728.92 2510.3
0.00 721.67 2485.3
6.54 732.82 2523.8
12.93 723.89 2493.0
19.23 717.75 2471.8
26.73 748.40 2577.4
38.90 726.05 2500.4
44.10 705.67 2430.2
51.22 717.07 2469.5
59.61 741.84 2554.8
71.10 723.91 2493.1
85.76 686.12 2362.9
105.30 693.72 2389.1
115.96 721.50 2484.8
122.43 721.70 2485.4
126.17 706.57 2433.4
132.31 705.65 2430.2
141.71 721.43 2484.5
149.22 726.61 2502.4
155.44 725.40 2498.2
159.04 712.48 2453.7
164.21 707.36 2436.1
170.09 705.58 2429.9
174.49 697.95 2403.6
181.19 699.77 2409.9
186.44 696.03 2397.0
193.46 698.96 2407.1
203.32 711.61 2450.7
208.07 706.18 2432.0
209.69 690.76 2378.9
213.12 682.00 2348.7
220.59 686.29 2363.5
233.92 708.08 2438.5
244.42 701.92 2417.3
240.32 672.89 2317.3
247.01 658.68 2268.4
257.51 670.71 2309.8
264.84 674.14 2321.6
272.12 677.28 2332.5
279.00 679.31 2339.4
284.64 678.28 2335.9
297.73 694.70 2392.5
307.11 701.97 2417.5
303.40 679.62 2340.5
307.36 674.98 2324.6
322.14 693.85 2389.5
333.21 704.13 2424.9
336.98 698.93 2407.0
336.87 685.99 2362.5
367.70 698.01 2403.8
402.60 727.28 2504.7
394.37 701.11 2414.5
395.13 691.48 2381.4
403.86 695.89 2396.5
411.53 698.36 2405.1
426.32 712.66 2454.3
439.35 723.64 2492.1
448.68 728.29 2508.1
469.89 730.93 2517.2
461.36 707.84 2437.7
465.30 704.24 2425.3
499.46 745.87 2568.7
528.13 768.19 2645.6
526.93 756.61 2605.7
529.57 750.79 2585.6
544.81 762.74 2626.8
558.47 772.21 2659.4
-343.21 705.49 2451.5
-310.03 688.28 2391.7
-307.56 696.72 2421.0
-303.63 702.15 2439.9
-284.95 672.96 2338.5
-258.48 652.08 2265.9
-269.19 694.88 2414.6
-257.10 696.06 2418.7
-235.33 653.03 2269.2
-217.00 651.01 2262.2
-189.78 638.35 2218.2
-181.52 629.65 2188.0
-176.65 632.53 2198.0
-169.35 626.58 2177.3
-169.86 650.14 2259.2
-168.13 666.53 2316.1
-159.20 654.51 2274.3
-153.33 654.61 2274.7
-151.13 671.00 2331.7
-131.41 663.01 2303.9
-111.50 651.38 2263.5
-105.82 652.56 2267.6
-89.97 665.75 2313.4
-85.93 681.29 2367.4
-81.00 691.58 2403.2
-73.43 679.19 2360.1
-66.22 668.18 2321.9
-59.28 657.99 2286.5
-53.49 659.69 2292.4
-48.60 674.38 2343.4
-42.46 673.31 2339.7
-31.12 690.78 2400.4
-12.73 706.59 2455.3
0.00 696.09 2418.8
6.67 740.61 2573.5
13.25 735.62 2556.2
19.84 733.95 2550.4
26.27 728.96 2533.1
31.76 705.16 2450.4
38.52 712.60 2476.2
46.11 731.10 2540.5
51.99 721.39 2506.7
58.80 725.22 2520.1
66.20 734.85 2553.5
70.74 713.79 2480.4
78.66 727.56 2528.2
94.04 695.88 2418.1
98.66 684.48 2378.5
108.97 711.49 2472.4
123.37 720.72 2504.4
129.10 716.49 2489.7
149.78 722.83 2511.8
156.09 721.90 2508.5
159.83 709.65 2465.9
164.97 704.29 2447.3
170.82 702.24 2440.2
172.24 682.81 2372.7
182.24 674.29 2343.1
190.51 682.16 2370.5
200.20 694.44 2413.1
204.86 689.06 2394.4
205.53 671.01 2331.7
207.80 659.02 2290.0
223.25 669.74 2327.3
238.84 697.67 2424.3
245.26 698.05 2425.7
246.43 683.85 2376.3
250.90 679.28 2360.4
252.38 667.00 2317.8
256.72 662.70 2302.8
264.80 668.02 2321.3
272.98 673.34 2339.8
278.05 670.95 2331.5
281.92 665.82 2313.7
292.71 676.88 2352.1
299.81 679.15 2360.0
303.11 672.91 2338.3
314.63 684.77 2379.5
325.06 693.88 2411.2
331.73 694.76 2414.2
331.75 681.92 2369.6
328.41 662.79 2303.1
337.03 668.04 2321.4
348.56 678.77 2358.6
351.54 672.78 2337.9
365.77 688.14 2391.2
384.40 711.14 2471.1
391.56 712.52 2475.9
402.57 720.72 2504.4
406.11 715.53 2486.4
402.95 698.87 2428.5
408.13 696.96 2421.9
420.41 707.06 2457.0
440.11 729.14 2533.7
453.94 709.68 2466.1
452.01 696.85 2421.5
473.90 701.37 2437.2
496.74 725.51 2521.1
502.86 724.90 2519.0
517.36 736.24 2558.4
536.49 753.80 2619.4
540.68 750.19 2606.8
542.82 743.87 2584.9
563.07 762.20 2648.6
-340.51 693.63 2432.2
-338.11 701.74 2460.7
-288.39 660.89 2317.4
-291.42 682.06 2391.6
-278.07 679.72 2383.4
-273.71 684.26 2399.4
-264.79 677.36 2375.1
-250.57 656.26 2301.2
-254.53 682.89 2394.6
-224.52 633.27 2220.6
-217.61 646.95 2268.5
-217.68 665.13 2332.3
-206.37 648.61 2274.3
-190.39 615.95 2159.8
-185.38 637.25 2234.5
-181.09 642.57 2253.2
-174.24 638.87 2240.2
-168.60 639.53 2242.5
-161.15 633.08 2219.9
-160.93 655.62 2298.9
-129.42 647.08 2269.0
-114.41 662.40 2322.7
-91.04 667.61 2341.0
-85.36 670.68 2351.7
-79.04 668.82 2345.2
-70.04 642.01 2251.2
-66.75 667.55 2340.8
-62.91 691.99 2426.5
-55.88 682.99 2394.9
-49.95 686.86 2408.5
-43.89 689.64 2418.2
-37.18 681.71 2390.4
-30.61 673.51 2361.6
-24.93 685.59 2404.0
0.00 716.34 2511.9
13.18 725.11 2542.6
32.78 721.22 2529.0
38.95 714.07 2503.9
46.28 727.20 2549.9
51.83 712.64 2498.9
57.56 703.55 2467.0
63.63 699.94 2454.4
71.00 710.04 2489.8
96.19 705.43 2473.6
103.36 710.57 2491.6
109.80 710.49 2491.3
115.08 703.29 2466.1
121.27 702.12 2462.0
128.54 706.96 2479.0
135.42 709.34 2487.3
141.08 705.41 2473.5
145.07 693.81 2432.8
150.22 688.51 2414.3
156.21 687.31 2410.0
163.66 692.40 2427.9
170.60 695.02 2437.1
173.12 680.13 2384.9
199.70 686.46 2407.1
206.96 689.88 2419.1
209.98 679.35 2382.1
209.33 657.90 2306.9
219.36 652.14 2286.7
232.50 673.01 2359.9
242.62 684.32 2399.6
247.99 681.97 2391.3
256.26 687.53 2410.8
261.72 685.44 2403.5
261.05 667.81 2341.7
264.22 660.55 2316.2
275.17 672.63 2358.6
283.03 676.80 2373.2
283.98 664.62 2330.5
291.83 668.79 2345.1
304.86 684.38 2399.8
314.45 691.79 2425.8
318.87 687.77 2411.7
321.94 681.02 2388.0
332.09 689.23 2416.8
335.84 684.12 2398.9
333.39 666.77 2338.0
343.76 675.24 2367.7
355.83 686.68 2407.8
358.94 680.74 2387.0
364.12 678.87 2380.5
372.97 683.78 2397.7
375.74 677.56 2375.9
381.14 676.22 2371.2
395.99 691.41 2424.4
405.59 697.10 2444.4
409.52 693.04 2430.1
420.37 700.61 2456.7
433.98 712.50 2498.4
444.46 718.97 2521.1
450.47 718.14 2518.1
441.50 693.79 2432.8
443.09 686.47 2407.1
456.73 697.78 2446.8
463.95 699.10 2451.4
476.45 708.23 2483.4
488.00 715.73 2509.7
493.91 714.87 2506.7
492.45 703.50 2466.8
526.02 732.44 2568.3
537.91 739.62 2593.5
552.09 749.75 2629.0
-297.26 675.03 2388.7
-293.02 679.55 2404.7
-253.92 629.03 2225.9
-241.47 641.97 2271.7
-246.57 671.90 2377.6
-230.68 644.72 2281.5
-210.59 620.38 2195.3
-210.22 636.50 2252.4
-190.61 629.59 2227.9
-189.41 645.17 2283.0
-181.67 638.79 2260.5
-180.47 655.72 2320.4
-167.53 652.16 2307.8
-162.85 657.43 2326.4
-136.12 645.07 2282.7
-128.30 635.66 2249.4
-124.89 648.24 2293.9
-119.01 648.59 2295.1
-115.72 663.88 2349.3
-111.08 672.65 2380.3
-104.07 667.29 2361.3
-96.80 659.48 2333.7
-88.59 643.78 2278.1
-83.60 650.91 2303.3
-77.73 651.78 2306.4
-73.26 665.42 2354.7
-55.87 676.69 2394.6
-50.09 682.44 2414.9
-44.11 686.82 2430.4
-19.13 695.07 2459.6
-6.35 692.36 2450.0
13.43 731.79 2589.6
39.66 720.57 2549.8
45.28 705.04 2494.9
51.78 705.55 2496.7
58.55 709.05 2509.1
65.20 710.64 2514.7
73.08 724.18 2562.6
78.91 716.79 2536.5
82.47 691.46 2446.8
87.23 679.17 2403.4
93.08 676.39 2393.5
101.35 690.46 2443.3
109.03 699.08 2473.8
115.48 699.28 2474.5
122.73 704.08 2491.5
128.97 702.91 2487.4
135.14 701.47 2482.3
140.90 698.11 2470.4
144.54 684.98 2423.9
150.56 683.80 2419.7
157.87 688.31 2435.7
164.35 689.01 2438.2
170.31 687.54 2433.0
172.13 670.07 2371.1
195.63 687.86 2434.1
215.96 692.33 2449.9
215.21 670.24 2371.7
213.71 647.07 2289.8
231.52 664.10 2350.0
242.01 676.39 2393.5
248.65 677.58 2397.7
259.08 688.77 2437.3
266.58 691.84 2448.2
268.06 679.49 2404.5
265.49 657.69 2327.3
270.33 654.80 2317.1
280.59 664.89 2352.8
283.82 658.21 2329.2
291.79 662.61 2344.8
304.82 678.07 2399.5
306.99 669.23 2368.2
303.69 649.06 2296.8
325.92 657.87 2328.0
339.59 673.01 2381.5
342.74 667.12 2360.7
347.62 664.74 2352.3
357.74 672.31 2379.1
370.77 684.98 2423.9
377.22 685.27 2425.0
377.49 674.54 2387.0
382.62 672.67 2380.4
397.18 687.19 2431.7
405.23 690.15 2442.2
406.91 682.36 2414.7
423.57 699.53 2475.4
442.58 709.42 2510.4
438.72 693.05 2452.5
440.93 686.60 2429.6
454.37 697.55 2468.4
475.07 719.20 2545.0
489.16 730.39 2584.6
497.82 733.27 2594.8
501.75 729.20 2580.4
512.49 735.02 2601.0
515.98 730.41 2584.7
529.65 721.64 2553.7
-330.56 673.60 2405.7
-319.67 663.92 2371.1
-299.48 673.84 2406.6
-289.37 664.93 2374.7
-287.74 675.57 2412.7
-277.32 665.57 2377.0
-246.22 648.58 2316.3
-250.81 677.18 2418.5
-243.82 675.20 2411.4
-232.05 659.52 2355.4
-222.78 650.28 2322.4
-215.20 645.59 2305.7
-205.26 633.37 2262.1
-199.52 633.78 2263.5
-193.53 633.37 2262.0
-185.71 626.78 2238.5
-176.70 615.61 2198.6
-174.55 628.37 2244.2
-175.04 651.88 2328.1
-162.76 627.78 2242.1
-154.55 618.21 2207.9
-152.03 631.49 2255.3
-147.57 637.51 2276.8
-139.30 626.84 2238.7
-133.69 627.74 2241.9
-133.54 655.56 2341.3
-117.32 666.85 2381.6
-107.92 647.54 2312.6
-101.81 646.80 2310.0
-95.51 644.71 2302.5
-78.08 648.66 2316.6
-62.87 678.99 2425.0
-35.66 641.92 2292.6
-31.45 679.41 2426.5
-12.51 675.68 2413.2
-6.21 670.84 2395.8
0.00 685.40 2447.9
6.43 694.29 2479.6
12.72 686.74 2452.6
19.48 701.29 2504.6
39.93 718.75 2567.0
45.62 703.90 2513.9
52.34 706.56 2523.4
59.01 708.14 2529.1
65.49 707.29 2526.0
71.54 702.39 2508.5
75.40 678.62 2423.7
93.26 671.45 2398.0
101.98 688.36 2458.4
107.66 683.97 2442.8
112.01 672.05 2400.2
119.16 677.36 2419.1
125.07 675.39 2412.1
134.40 691.19 2468.5
142.86 701.33 2504.7
146.58 688.31 2458.3
152.82 687.67 2456.0
158.79 685.95 2449.8
164.27 682.35 2436.9
173.11 692.46 2473.1
178.45 688.30 2458.2
180.96 673.93 2406.9
192.25 692.09 2471.7
194.53 677.71 2420.4
204.45 669.11 2389.7
217.79 691.81 2470.7
219.71 677.96 2421.3
220.84 662.51 2366.1
226.09 659.94 2356.9
240.65 683.95 2442.7
256.61 675.94 2414.1
250.91 645.19 2304.3
264.71 664.86 2374.5
274.73 674.33 2408.3
271.18 650.84 2324.4
273.48 642.08 2293.2
283.54 637.96 2278.4
296.65 653.83 2335.1
298.77 645.34 2304.8
302.63 640.86 2288.8
308.59 640.92 2289.0
328.00 656.01 2342.9
340.90 669.41 2390.8
343.25 661.97 2364.2
350.24 663.61 2370.1
362.28 674.59 2409.2
370.29 677.82 2420.8
371.09 667.97 2385.6
378.50 670.12 2393.3
391.13 681.33 2433.3
399.16 684.27 2443.8
400.29 675.48 2412.4
416.95 692.78 2474.2
449.19 703.09 2511.0
448.80 692.43 2473.0
449.08 683.11 2439.7
455.56 683.34 2440.5
478.36 707.72 2527.6
496.15 724.11 2586.1
506.12 728.82 2602.9
524.30 725.96 2592.7
510.07 697.31 2490.4
533.78 711.71 2541.8
-326.70 672.26 2423.4
-271.41 660.03 2379.3
-254.64 633.63 2284.1
-243.14 619.44 2233.0
-242.61 633.16 2282.4
-206.53 631.39 2276.0
-202.79 638.18 2300.5
-198.42 643.38 2319.2
-188.86 631.52 2276.5
-178.29 615.38 2218.3
-169.36 604.04 2177.4
-163.67 603.88 2176.9
-159.80 610.65 2201.3
-158.42 627.83 2263.2
-151.93 625.26 2254.0
-143.56 614.42 2214.9
-132.70 645.39 2326.5
-116.78 657.65 2370.7
-110.06 654.25 2358.5
-99.93 668.28 2409.0
-86.35 615.99 2220.5
-79.40 653.50 2355.7
-67.71 658.68 2374.4
-36.23 646.02 2328.8
0.00 664.27 2394.6
6.30 674.43 2431.2
26.38 705.67 2543.8
33.69 720.89 2598.7
39.85 710.70 2562.0
45.74 699.18 2520.4
52.71 705.03 2541.5
59.77 710.60 2561.6
65.33 699.07 2520.0
70.30 683.79 2464.9
75.45 672.79 2425.3
82.19 676.48 2438.6
91.68 700.73 2526.0
106.56 712.62 2568.9
108.41 682.37 2459.8
131.40 669.50 2413.4
141.04 685.96 2472.7
146.17 679.99 2451.2
152.44 679.62 2449.9
158.89 680.05 2451.5
162.50 668.74 2410.7
170.00 673.70 2428.6
177.10 676.79 2439.7
181.66 670.27 2416.2
190.13 678.14 2444.6
189.41 653.76 2356.7
197.69 640.98 2310.6
215.74 678.93 2447.4
223.60 683.58 2464.2
226.09 671.98 2422.4
233.33 674.76 2432.4
250.36 653.37 2355.3
256.02 637.08 2296.6
275.89 670.92 2418.5
283.09 673.13 2426.5
287.02 667.63 2406.7
292.01 664.78 2396.4
295.04 657.69 2370.8
303.28 662.27 2387.3
305.53 653.84 2357.0
309.15 648.60 2338.1
320.26 659.00 2375.6
329.99 666.21 2401.6
335.84 665.46 2398.9
337.04 655.70 2363.7
345.00 659.19 2376.2
357.38 670.87 2418.4
363.09 669.84 2414.6
364.41 660.87 2382.3
376.53 671.47 2420.5
395.32 693.42 2499.7
401.65 693.16 2498.7
402.22 683.13 2462.5
404.02 675.47 2435.0
421.55 693.94 2501.5
432.42 701.05 2527.2
423.28 675.99 2436.8
456.53 688.02 2480.2
455.51 676.93 2440.2
468.81 687.15 2477.1
486.83 703.93 2537.5
499.27 712.29 2567.7
507.75 714.85 2576.9
508.52 706.65 2547.3
513.17 703.96 2537.6
511.95 693.40 2499.6
527.39 705.39 2542.8
-277.17 667.72 2429.7
-261.32 644.19 2344.1
-249.57 629.86 2292.0
-238.61 648.54 2359.9
-236.24 658.98 2397.9
-228.14 653.59 2378.3
-214.23 630.78 2295.3
-199.78 605.05 2201.7
-198.18 617.85 2248.2
-195.35 627.49 2283.3
-187.39 620.74 2258.8
-182.50 624.04 2270.8
-179.64 634.72 2309.6
-172.67 631.14 2296.6
-167.72 634.95 2310.5
-158.45 646.01 2350.7
-147.15 623.90 2270.2
-133.17 641.63 2334.8
-122.94 651.59 2371.0
-114.72 640.03 2328.9
-111.21 654.92 2383.1
-106.11 661.61 2407.5
-97.32 644.74 2346.1
-89.22 630.50 2294.3
-84.85 642.47 2337.8
-68.09 656.13 2387.5
-48.51 642.74 2338.8
-43.95 665.55 2421.8
-37.39 660.55 2403.6
-13.44 712.29 2591.9
-6.67 706.99 2572.6
0.00 699.84 2546.6
6.51 690.30 2511.9
26.63 705.63 2567.7
33.76 715.68 2604.2
39.67 700.82 2550.2
45.44 688.07 2503.8
52.07 689.90 2510.4
58.46 688.54 2505.5
70.89 683.15 2485.9
79.04 698.20 2540.6
86.04 701.59 2553.0
110.99 692.06 2518.3
125.64 665.88 2423.0
135.15 682.21 2482.4
142.94 688.73 2506.2
146.26 674.08 2452.9
151.28 668.16 2431.3
162.86 690.54 2512.8
175.03 687.15 2500.4
177.85 673.28 2450.0
182.22 666.03 2423.6
190.56 673.30 2450.0
197.88 676.61 2462.1
200.63 664.59 2418.3
205.22 659.18 2398.6
213.93 666.96 2426.9
220.61 668.14 2431.2
222.02 653.74 2378.8
230.44 660.19 2402.3
242.57 676.65 2462.2
241.23 655.66 2385.8
236.81 627.55 2283.5
246.95 638.46 2323.2
256.67 647.79 2357.2
260.04 641.03 2332.6
270.17 650.87 2368.4
280.37 660.43 2403.2
287.32 662.09 2409.2
311.26 673.34 2450.2
302.76 641.85 2335.6
313.90 652.43 2374.1
332.44 664.88 2419.4
326.16 640.24 2329.7
332.91 641.60 2334.7
346.88 656.60 2389.3
359.02 667.66 2429.5
364.76 666.63 2425.8
371.65 667.71 2429.7
389.38 687.90 2503.2
413.99 696.55 2534.6
419.13 694.19 2526.0
417.98 681.62 2480.3
410.73 659.65 2400.4
439.76 685.50 2494.4
458.58 684.63 2491.3
463.18 672.57 2447.3
482.05 690.51 2512.6
497.38 702.96 2557.9
509.01 709.93 2583.3
509.98 702.06 2554.7
514.07 698.61 2542.1
518.86 696.20 2533.3
539.30 714.57 2600.2
-288.87 631.90 2321.2
-285.27 637.30 2341.1
-287.05 655.22 2406.9
-267.91 654.20 2403.2
-256.11 640.26 2352.0
-225.56 607.28 2230.8
-227.21 627.83 2306.3
-224.79 637.91 2343.3
-215.98 629.95 2314.1
-206.19 618.57 2272.3
-202.29 624.72 2294.9
-197.37 627.99 2306.9
-188.87 619.74 2276.6
-184.24 624.05 2292.4
-177.29 620.51 2279.4
-166.71 603.59 2217.3
-162.66 609.99 2240.8
-161.40 627.65 2305.7
-157.65 636.67 2338.8
-150.43 631.79 2320.8
-142.39 622.97 2288.5
-138.83 633.81 2328.3
-132.32 631.54 2319.9
-121.92 609.59 2239.3
-117.58 617.28 2267.5
-115.41 637.82 2343.0
-110.39 643.92 2365.4
-103.93 641.90 2358.0
-94.78 622.02 2285.0
-86.47 605.28 2223.5
-80.96 607.17 2230.4
-77.49 625.86 2299.1
-72.34 633.00 2325.3
-64.17 612.56 2250.2
-59.22 621.79 2284.1
-56.27 656.49 2411.6
-37.40 654.48 2404.2
-31.74 666.59 2448.7
-13.18 692.11 2542.4
-6.30 661.39 2429.6
20.12 704.18 2586.8
26.88 705.48 2591.6
32.36 679.46 2496.0
39.17 685.48 2518.1
46.29 694.38 2550.8
51.44 675.17 2480.2
71.66 683.98 2512.6
79.54 696.01 2556.8
86.20 696.22 2557.5
111.15 686.51 2521.9
117.09 683.02 2509.1
137.87 689.33 2532.2
148.03 675.77 2482.4
150.00 656.27 2410.8
157.85 662.98 2435.4
168.94 682.27 2506.3
174.33 677.97 2490.5
175.87 659.51 2422.7
179.01 648.13 2380.9
188.06 658.22 2418.0
196.23 664.65 2441.6
200.84 659.02 2420.9
207.00 658.62 2419.4
207.63 641.21 2355.5
227.46 645.50 2371.2
238.19 658.16 2417.7
235.76 634.73 2331.7
258.40 646.01 2373.1
269.62 658.38 2418.5
271.77 648.54 2382.4
273.62 638.44 2345.3
279.85 638.79 2346.6
292.74 653.99 2402.4
304.60 666.32 2447.7
302.58 648.39 2381.8
301.96 634.12 2329.4
322.08 663.10 2435.9
337.78 669.19 2458.2
334.54 650.49 2389.6
344.98 658.60 2419.3
349.88 656.03 2409.9
352.62 649.56 2386.2
362.13 655.57 2408.2
373.20 664.17 2439.8
375.98 657.96 2417.0
375.76 646.81 2376.0
385.46 652.79 2398.0
398.22 663.70 2438.1
413.24 677.97 2490.5
422.90 683.15 2509.5
419.30 667.07 2450.4
421.35 660.32 2425.7
433.50 669.37 2458.9
448.36 682.29 2506.4
457.95 686.92 2523.4
450.13 665.68 2445.3
458.99 660.19 2425.2
485.64 689.08 2531.3
508.76 712.26 2616.5
525.25 716.25 2631.1
520.52 700.71 2574.0
516.09 685.94 2519.8
526.30 690.77 2537.5
548.11 710.51 2610.0
-323.68 660.05 2448.0
-312.96 650.96 2414.3
-289.30 654.06 2425.8
-270.41 639.16 2370.5
-262.63 635.19 2355.8
-255.85 633.54 2349.7
-243.09 616.61 2286.9
-238.71 620.65 2301.9
-231.44 617.18 2289.0
-222.34 608.51 2256.9
-222.17 624.47 2316.0
-215.76 623.31 2311.7
-212.61 631.75 2343.0
-170.94 613.03 2273.6
-163.82 608.47 2256.7
-159.28 613.51 2275.4
-152.75 611.01 2266.1
-145.71 606.17 2248.2
-137.87 597.43 2215.7
-132.60 599.59 2223.8
-124.99 590.84 2191.3
-117.05 608.68 2257.5
-113.78 622.79 2309.8
-107.80 622.86 2310.1
-102.38 626.31 2322.9
-93.92 610.51 2264.3
-87.95 609.79 2261.6
-84.23 625.72 2320.6
-76.95 615.62 2283.2
-60.11 625.12 2318.5
-53.79 621.52 2305.1
-44.66 663.49 2460.7
-25.43 661.21 2452.3
-18.75 650.03 2410.8
13.32 692.48 2568.2
19.99 692.99 2570.1
39.45 683.82 2536.1
60.23 695.95 2581.1
66.96 696.43 2582.9
73.02 690.40 2560.6
77.55 672.14 2492.8
82.77 662.20 2455.9
89.59 665.52 2468.3
97.97 679.25 2519.2
104.53 679.44 2519.9
112.45 687.96 2551.5
140.00 661.80 2454.5
144.62 653.91 2425.2
148.00 641.34 2378.6
