ply
format ascii 1.0
element vertex 2116
property float x
property float y
property float z
end_header
-402.72 -890.02 1553.4
-401.06 -895.29 1562.6
-403.66 -910.28 1588.7
-416.14 -948.11 1654.8
-417.11 -960.22 1675.9
-404.18 -940.24 1641.0
-398.66 -937.27 1635.8
-399.51 -949.37 1657.0
-398.63 -957.59 1671.3
-399.49 -970.19 1693.3
-396.46 -973.54 1699.1
-388.30 -964.21 1682.9
-381.58 -958.29 1672.5
-379.52 -964.06 1682.6
-381.20 -979.60 1709.7
-373.92 -972.20 1696.8
-370.98 -976.02 1703.5
-329.99 -923.15 1611.2
-340.46 -964.63 1683.6
-332.30 -953.73 1664.6
-319.51 -929.10 1621.6
-322.08 -949.06 1656.4
-318.72 -951.86 1661.3
-306.43 -927.67 1619.1
-291.62 -895.12 1562.3
-280.63 -925.66 1615.6
-278.74 -933.35 1629.0
-275.47 -936.60 1634.7
-270.32 -933.45 1629.2
-267.16 -937.19 1635.7
-264.39 -942.41 1644.8
-258.43 -936.29 1634.1
-251.87 -927.71 1619.1
-248.27 -929.95 1623.1
-250.73 -955.36 1667.4
-247.49 -959.58 1674.8
-238.22 -940.12 1640.8
-231.58 -930.52 1624.0
-232.73 -952.48 1662.4
-230.26 -960.14 1675.7
-210.40 -911.74 1591.3
-205.88 -910.00 1588.2
-202.80 -914.67 1596.4
-201.43 -967.74 1689.0
-197.00 -967.47 1688.5
-188.33 -945.91 1650.9
-179.08 -920.39 1606.4
-168.93 -933.34 1629.0
-168.32 -953.83 1664.7
-159.67 -953.70 1664.5
-154.58 -948.92 1656.2
-148.03 -934.72 1631.4
-145.05 -942.81 1645.5
-139.25 -932.56 1627.6
-132.18 -912.88 1593.3
-126.75 -903.60 1577.1
-123.69 -911.18 1590.3
-122.25 -931.65 1626.0
-116.55 -919.88 1605.5
-103.71 -916.77 1600.1
-104.42 -961.56 1678.2
-101.38 -974.09 1700.1
-95.40 -958.31 1672.6
-89.09 -937.56 1636.3
-83.15 -918.78 1603.6
-79.55 -925.33 1615.0
-76.79 -942.80 1645.5
-71.27 -926.49 1617.0
-62.79 -925.15 1614.7
-60.94 -961.99 1679.0
-56.83 -966.03 1686.0
-38.99 -957.30 1670.8
-24.10 -887.82 1549.5
-20.33 -898.78 1568.6
0.00 -909.27 1587.0
4.28 -946.06 1651.2
8.40 -928.16 1619.9
16.73 -924.15 1612.9
20.35 -899.27 1569.5
24.05 -885.83 1546.0
28.43 -897.73 1566.8
33.92 -936.96 1635.3
43.31 -957.25 1670.7
48.04 -965.15 1684.5
56.88 -967.03 1687.8
59.46 -938.64 1638.2
63.40 -934.10 1630.3
75.49 -926.91 1617.7
80.11 -931.79 1626.3
81.57 -901.40 1573.2
86.07 -905.78 1580.9
92.53 -929.51 1622.3
97.24 -934.37 1630.8
98.06 -902.99 1576.0
105.04 -892.83 1558.3
114.16 -934.40 1630.8
115.85 -914.42 1596.0
117.11 -892.46 1557.6
126.11 -929.03 1621.5
135.03 -962.62 1680.1
134.84 -931.22 1625.3
140.62 -914.06 1595.3
144.97 -915.39 1597.6
156.97 -912.90 1593.3
163.25 -925.11 1614.6
165.70 -915.52 1597.9
170.81 -898.81 1568.7
192.37 -924.22 1613.1
199.24 -936.86 1635.1
199.78 -919.84 1605.4
198.20 -893.92 1560.2
202.19 -893.70 1559.8
208.81 -904.83 1579.2
208.20 -884.85 1544.3
220.31 -901.65 1573.7
227.03 -912.26 1592.2
224.97 -887.84 1549.6
232.23 -884.87 1544.4
242.22 -907.28 1583.5
255.75 -941.99 1644.1
260.75 -944.67 1648.7
266.05 -918.69 1603.4
259.99 -883.97 1542.8
269.01 -887.32 1548.7
280.94 -913.07 1593.6
293.57 -940.27 1641.1
294.92 -931.11 1625.1
283.57 -882.67 1540.5
309.03 -922.92 1610.8
320.41 -944.15 1647.8
320.52 -932.04 1626.7
310.62 -891.52 1556.0
315.92 -895.10 1562.2
323.87 -906.01 1581.3
328.90 -908.60 1585.8
333.96 -911.17 1590.3
324.52 -874.63 1526.5
350.43 -900.53 1571.7
354.55 -900.64 1571.9
354.39 -890.01 1553.4
354.73 -880.86 1537.4
391.11 -929.42 1622.1
382.73 -899.82 1570.5
376.59 -876.07 1529.0
387.13 -891.21 1555.4
399.51 -910.23 1588.6
407.32 -918.54 1603.1
426.94 -934.19 1630.4
420.89 -911.92 1591.6
409.46 -878.54 1533.3
415.28 -882.46 1540.2
427.79 -900.41 1571.5
437.45 -912.04 1591.8
431.99 -892.24 1557.2
448.46 -900.99 1572.5
447.45 -890.87 1554.8
452.07 -884.14 1543.1
456.57 -885.11 1544.8
466.59 -896.66 1565.0
469.38 -894.24 1560.7
489.00 -915.84 1598.4
489.51 -909.08 1586.6
477.96 -880.25 1536.3
483.51 -883.11 1541.3
499.47 -897.43 1566.3
517.75 -922.77 1610.5
510.79 -903.08 1576.2
494.67 -867.64 1514.3
496.38 -863.78 1507.6
511.33 -882.85 1540.8
512.79 -878.50 1533.3
515.89 -877.02 1530.7
526.61 -888.40 1550.5
528.03 -884.05 1542.9
534.28 -887.79 1549.5
522.38 -861.54 1503.7
514.91 -842.92 1471.2
555.00 -888.81 1551.2
560.76 -891.56 1556.1
550.61 -869.18 1517.0
569.91 -893.26 1559.0
570.84 -888.41 1550.6
587.36 -901.44 1573.3
595.70 -907.93 1584.6
581.85 -868.85 1516.4
642.74 -928.41 1620.4
647.15 -928.70 1620.9
646.29 -921.48 1608.3
633.11 -896.91 1565.4
618.74 -870.97 1520.1
629.61 -880.66 1537.0
638.20 -887.05 1548.2
615.00 -849.46 1482.6
621.12 -852.59 1488.0
658.77 -898.69 1568.5
673.37 -912.97 1593.4
663.85 -894.58 1561.3
657.67 -880.88 1537.4
661.87 -881.16 1537.9
664.73 -864.15 1508.2
655.93 -847.72 1479.5
657.10 -844.30 1473.6
693.43 -885.82 1546.0
722.78 -918.02 1602.2
710.99 -897.88 1567.1
711.20 -893.03 1558.6
737.25 -920.52 1606.6
722.63 -897.19 1565.9
702.59 -867.44 1514.0
707.46 -868.61 1516.0
689.34 -841.68 1469.0
749.97 -891.09 1555.2
721.60 -852.80 1488.4
783.73 -888.23 1550.2
796.37 -897.95 1567.2
749.53 -840.85 1467.5
783.28 -848.55 1481.0
843.79 -896.53 1564.7
809.25 -855.71 1493.5
831.37 -862.60 1505.5
848.42 -876.17 1529.2
825.51 -848.55 1481.0
818.57 -837.52 1461.7
827.77 -843.03 1471.3
831.73 -843.17 1471.6
842.31 -850.00 1483.5
827.66 -831.42 1451.1
772.36 -772.36 1348.0
987.06 -832.60 1453.1
1034.00 -865.58 1510.7
1012.00 -822.25 1435.1
1018.53 -806.79 1408.1
1033.85 -810.21 1414.1
1069.72 -829.50 1447.7
1078.28 -830.31 1449.2
1110.83 -852.41 1487.7
1069.94 -818.19 1428.0
1078.63 -813.58 1419.9
1067.66 -789.14 1377.3
1061.72 -782.13 1365.1
1071.44 -786.67 1373.0
1101.41 -806.00 1406.7
1102.78 -804.33 1403.8
1137.31 -808.19 1410.5
1154.12 -817.50 1426.8
1131.37 -796.28 1389.8
1085.78 -761.77 1329.5
1124.06 -778.74 1359.1
-1432.90 -1006.66 1749.0
-1489.69 -1053.22 1829.9
-1489.97 -1056.78 1836.1
-1423.54 -1022.74 1777.0
-1410.75 -1016.84 1766.7
-1470.11 -1063.08 1847.0
-1503.69 -1090.91 1895.4
-1498.65 -1090.82 1895.2
-1425.53 -1044.45 1814.7
-1388.62 -1020.78 1773.5
-1324.53 -1000.16 1737.7
-1310.40 -992.86 1725.0
-1334.70 -1014.74 1763.1
-1362.15 -1039.16 1805.5
-1343.03 -1028.11 1786.3
-1300.02 -998.63 1735.1
-1259.90 -971.18 1687.4
-1198.54 -936.89 1627.8
-1242.76 -974.88 1693.8
-1239.09 -975.45 1694.8
-1185.56 -943.35 1639.0
-1223.83 -977.30 1698.0
-1202.69 -963.89 1674.7
-1178.47 -947.90 1646.9
-1158.56 -935.28 1625.0
-1138.73 -922.62 1603.0
-1148.26 -933.75 1622.3
-1146.24 -935.54 1625.5
-1131.73 -927.10 1610.8
-1080.76 -895.26 1555.5
-1065.97 -886.31 1539.9
-1063.03 -887.19 1541.4
-1073.89 -899.64 1563.1
-1078.04 -906.53 1575.1
-1074.00 -906.57 1575.1
-1058.28 -896.71 1558.0
-1038.13 -900.25 1564.1
-1015.69 -884.25 1536.3
-1025.57 -896.37 1557.4
-1043.78 -915.88 1591.3
-1019.51 -923.80 1605.1
-1027.85 -935.17 1624.8
-1022.21 -933.87 1622.6
-1015.14 -931.24 1618.0
-991.42 -913.26 1586.7
-964.03 -891.73 1549.3
-990.80 -924.19 1605.7
-991.79 -929.02 1614.1
-981.50 -923.27 1604.1
-969.37 -915.75 1591.1
-940.18 -895.79 1556.4
-952.26 -911.21 1583.2
-921.03 -892.88 1551.3
-921.95 -897.69 1559.7
-930.56 -910.06 1581.2
-945.41 -928.68 1613.5
-950.65 -937.98 1629.7
-947.73 -939.27 1631.9
-957.79 -953.50 1656.7
-949.89 -949.89 1650.4
-911.32 -915.45 1590.5
-892.95 -901.06 1565.6
-900.72 -913.06 1586.4
-914.56 -931.34 1618.2
-913.36 -934.41 1623.5
-908.72 -938.30 1630.3
-922.19 -956.66 1662.2
-917.39 -956.15 1661.3
-887.64 -929.52 1615.0
-884.66 -930.78 1617.2
-881.66 -932.04 1619.4
-835.92 -900.85 1565.2
-845.55 -915.67 1590.9
-816.23 -915.17 1590.1
-811.98 -915.02 1589.8
-836.34 -947.28 1645.9
-844.00 -960.86 1669.4
-813.59 -931.01 1617.6
-794.14 -913.47 1587.1
-786.71 -909.64 1580.5
-813.23 -945.22 1642.3
-820.62 -958.83 1665.9
-774.36 -909.56 1580.3
-761.54 -899.27 1562.4
-777.47 -922.99 1603.6
-786.66 -938.92 1631.3
-774.61 -929.53 1615.0
-760.61 -922.70 1603.2
-789.60 -963.14 1673.4
-773.45 -948.65 1648.2
-752.90 -928.58 1613.4
-761.99 -945.04 1642.0
-764.26 -953.18 1656.1
-752.43 -943.72 1639.7
-741.77 -935.64 1625.6
-753.85 -956.32 1661.6
-771.24 -983.99 1709.6
-761.01 -982.23 1706.6
-734.92 -954.10 1657.7
-701.49 -921.49 1601.0
-704.90 -942.70 1637.9
-724.81 -975.20 1694.4
-714.72 -967.49 1681.0
-703.66 -958.35 1665.1
-684.11 -937.49 1628.8
-651.80 -898.76 1561.6
-671.47 -943.46 1639.2
-674.35 -953.54 1656.7
-669.86 -953.27 1656.3
-659.13 -944.04 1640.2
-654.02 -942.81 1638.1
-647.95 -940.17 1633.5
-638.34 -932.32 1619.9
-621.93 -972.32 1689.4
-607.59 -970.39 1686.0
-574.28 -923.84 1605.1
-573.31 -942.77 1638.0
-569.13 -942.88 1638.2
-564.08 -941.55 1635.9
-562.18 -945.48 1642.7
-540.75 -916.39 1592.2
-538.17 -933.39 1621.7
-541.42 -946.42 1644.4
-523.31 -922.02 1602.0
-475.69 -910.38 1581.7
-488.11 -942.27 1637.2
-486.61 -947.62 1646.4
-475.29 -950.59 1651.6
-480.62 -969.97 1685.3
-474.12 -965.63 1677.7
-457.75 -940.92 1634.8
-466.13 -967.11 1680.3
-441.46 -942.35 1637.3
-417.82 -900.53 1564.6
-414.09 -928.58 1613.4
-413.55 -936.81 1627.7
-413.35 -946.02 1643.7
-402.70 -941.05 1635.0
-410.63 -969.78 1685.0
-400.72 -956.55 1662.0
-390.31 -941.84 1636.4
-396.46 -967.18 1680.4
-399.41 -985.20 1711.7
-382.98 -955.31 1659.8
-374.12 -954.65 1658.7
-382.31 -986.89 1714.7
-377.27 -985.34 1712.0
-377.25 -997.02 1732.3
-343.45 -941.30 1635.5
-316.59 -912.77 1585.9
-318.32 -929.83 1615.5
-324.05 -959.20 1666.6
-303.12 -934.63 1623.9
-290.04 -906.88 1575.7
-293.51 -930.85 1617.3
-279.43 -925.88 1608.7
-281.51 -946.90 1645.2
-285.72 -975.84 1695.5
-275.70 -971.52 1688.0
-263.68 -944.15 1640.4
-252.58 -919.23 1597.1
-241.17 -892.32 1550.4
-240.37 -904.45 1571.4
-245.03 -937.86 1629.5
-242.39 -944.06 1640.3
-226.29 -913.40 1587.0
-227.30 -934.44 1623.6
-222.12 -966.89 1679.9
-207.66 -922.03 1602.0
-203.78 -923.25 1604.1
-203.53 -941.33 1635.5
-198.50 -937.58 1629.0
-193.39 -933.33 1621.6
-189.43 -934.54 1623.7
-181.53 -915.88 1591.3
-165.78 -943.67 1639.6
-163.94 -957.77 1664.1
-158.33 -949.99 1650.6
-151.10 -931.77 1618.9
-143.48 -910.05 1581.2
-139.55 -911.21 1583.2
-135.99 -914.84 1589.5
-131.17 -910.02 1581.1
-129.46 -927.08 1610.8
-129.74 -960.07 1668.1
-125.17 -958.22 1664.9
-116.60 -924.50 1606.3
-111.30 -915.17 1590.1
-108.77 -928.74 1613.6
-102.69 -911.93 1584.4
-98.65 -912.54 1585.5
-96.00 -926.59 1609.9
-90.40 -912.25 1585.0
-85.78 -906.87 1575.6
-81.30 -902.48 1568.0
-76.86 -898.08 1560.4
-69.93 -913.20 1586.6
-66.32 -920.25 1598.9
-61.34 -907.86 1577.4
-55.42 -946.38 1644.3
-50.16 -927.99 1612.3
-44.75 -903.11 1569.1
-42.28 -938.57 1630.7
-39.55 -975.52 1694.9
-34.60 -960.10 1668.1
-25.55 -945.20 1642.2
-21.30 -945.73 1643.2
-17.04 -945.75 1643.2
-12.67 -937.29 1628.5
0.00 -941.30 1635.5
4.28 -949.78 1650.2
16.70 -926.79 1610.3
20.75 -921.29 1600.7
25.02 -925.75 1608.4
29.06 -921.73 1601.5
33.99 -943.14 1638.7
55.51 -947.88 1646.9
61.69 -978.23 1699.6
68.52 -950.66 1651.7
69.55 -908.21 1578.0
75.17 -927.07 1610.7
80.53 -940.94 1634.8
82.83 -919.42 1597.4
96.31 -929.58 1615.1
97.25 -899.59 1563.0
108.13 -923.26 1604.1
112.64 -926.13 1609.1
132.45 -948.48 1647.9
133.18 -923.95 1605.3
145.19 -948.01 1647.1
148.42 -941.38 1635.6
155.52 -908.56 1578.6
161.68 -920.31 1599.0
196.71 -929.15 1614.3
203.21 -939.84 1632.9
198.96 -901.43 1566.2
199.85 -887.33 1541.7
209.37 -911.39 1583.5
212.38 -906.70 1575.3
222.73 -882.96 1534.1
243.92 -917.80 1594.6
253.73 -938.79 1631.1
260.46 -947.90 1646.9
279.58 -912.75 1585.9
283.75 -912.93 1586.2
275.64 -874.18 1518.8
283.89 -887.67 1542.3
304.40 -938.57 1630.7
307.87 -936.27 1626.7
308.20 -924.61 1606.5
311.92 -923.29 1604.2
304.52 -889.51 1545.5
301.42 -869.03 1509.9
312.30 -888.84 1544.3
336.28 -921.67 1601.4
335.23 -907.56 1576.8
358.78 -926.16 1609.2
356.09 -908.63 1578.7
356.90 -890.25 1546.8
364.52 -899.15 1562.2
371.01 -905.11 1572.6
387.68 -935.49 1625.4
401.54 -958.50 1665.4
388.10 -916.59 1592.5
380.57 -889.34 1545.2
389.67 -901.12 1565.6
402.92 -922.14 1602.2
419.61 -931.54 1618.5
417.36 -899.56 1562.9
418.91 -877.35 1524.3
426.62 -885.15 1537.9
434.79 -877.48 1524.6
435.36 -870.73 1512.8
433.93 -860.11 1494.4
443.23 -870.77 1512.9
449.14 -874.65 1519.7
456.59 -881.42 1531.4
456.53 -873.70 1518.0
464.91 -874.66 1519.7
480.47 -896.34 1557.3
485.54 -898.24 1560.7
489.31 -897.73 1559.8
491.22 -893.85 1553.0
498.69 -900.07 1563.8
510.77 -914.45 1588.8
520.54 -924.48 1606.2
521.94 -919.62 1597.8
503.55 -880.22 1529.3
516.72 -889.23 1545.0
538.35 -919.34 1597.3
552.33 -936.01 1626.3
545.47 -910.49 1581.9
564.75 -895.54 1556.0
577.78 -909.70 1580.6
573.60 -896.76 1558.1
564.11 -875.75 1521.6
582.77 -898.43 1561.0
609.04 -932.46 1620.1
629.17 -906.99 1575.8
646.63 -926.14 1609.1
651.34 -926.91 1610.5
621.45 -878.74 1526.8
625.95 -863.11 1499.6
646.83 -886.39 1540.1
654.82 -891.84 1549.5
638.99 -864.98 1502.9
645.55 -868.56 1509.1
662.27 -885.68 1538.8
666.82 -886.43 1540.1
669.08 -873.74 1518.1
664.98 -863.30 1499.9
669.44 -864.05 1501.2
684.42 -878.27 1526.0
694.04 -885.50 1538.5
707.01 -896.90 1558.3
730.73 -921.72 1601.4
746.15 -935.84 1626.0
720.82 -898.99 1562.0
722.08 -857.22 1489.4
755.32 -891.92 1549.7
773.97 -909.10 1579.5
773.11 -903.32 1569.5
778.13 -904.42 1571.4
774.16 -881.36 1531.3
790.79 -895.69 1556.2
786.40 -835.31 1451.3
795.03 -840.46 1460.3
782.27 -823.05 1430.0
799.91 -837.64 1455.4
830.18 -865.26 1503.3
834.65 -865.85 1504.4
818.24 -844.88 1467.9
817.83 -840.54 1460.4
823.08 -842.04 1463.0
823.06 -838.16 1456.3
766.33 -769.80 1337.5
1001.97 -849.00 1475.1
1010.96 -846.92 1471.5
998.90 -833.67 1448.5
972.03 -799.23 1388.6
994.42 -794.11 1379.7
1018.77 -810.63 1408.4
994.23 -788.28 1369.6
1025.53 -807.33 1402.7
1067.29 -837.24 1454.7
1028.55 -804.01 1396.9
1049.46 -817.47 1420.3
1096.94 -851.47 1479.4
1070.92 -828.38 1439.3
1036.61 -799.05 1388.3
1051.67 -807.86 1403.6
1061.87 -812.88 1412.3
1064.25 -809.12 1405.8
1088.79 -824.95 1433.3
1037.67 -773.03 1343.1
1071.30 -795.41 1382.0
1071.52 -792.93 1377.7
1080.70 -797.06 1384.9
1111.23 -816.87 1419.3
1137.95 -833.75 1448.6
1138.82 -831.64 1444.9
1125.99 -806.36 1401.0
1163.95 -830.86 1443.6
1140.06 -811.19 1409.4
1077.47 -759.36 1319.3
1089.44 -758.17 1317.3
-1464.81 -1020.79 1765.6
-1453.06 -1015.77 1756.9
-1453.81 -1025.95 1774.5
-1450.67 -1036.86 1793.4
-1531.69 -1098.28 1899.7
-1460.64 -1054.12 1823.3
-1424.46 -1031.35 1783.9
-1460.48 -1060.87 1834.9
-1490.65 -1086.33 1879.0
-1483.38 -1084.57 1875.9
-1466.05 -1078.98 1866.3
-1459.94 -1078.03 1864.6
-1421.91 -1053.44 1822.1
-1360.57 -1011.36 1749.3
-1357.45 -1012.41 1751.1
-1355.98 -1014.71 1755.1
-1286.29 -978.99 1693.3
-1293.09 -987.53 1708.1
-1305.30 -1000.28 1730.1
-1303.79 -1002.57 1734.1
-1272.87 -982.18 1698.8
-1239.36 -959.65 1659.9
-1201.89 -943.73 1632.3
-1218.71 -960.33 1661.0
-1229.01 -971.87 1681.0
-1191.22 -945.34 1635.1
-1216.38 -968.76 1675.6
-1174.26 -945.34 1635.1
-1134.33 -916.51 1585.2
-1100.37 -892.30 1543.4
-1091.31 -898.01 1553.3
-1094.58 -904.05 1563.7
-1104.02 -915.23 1583.0
-1115.96 -928.57 1606.1
-1107.75 -925.20 1600.3
-1088.29 -912.36 1578.1
-1080.67 -909.39 1572.9
-1072.56 -905.98 1567.0
-1054.29 -893.95 1546.2
-1040.82 -899.63 1556.0
-1060.78 -920.45 1592.1
-1053.70 -917.87 1587.6
-1018.81 -890.96 1541.1
-1006.88 -883.99 1529.0
-1036.15 -920.56 1592.3
-1043.29 -930.61 1609.6
-1025.96 -918.83 1589.3
-1008.71 -907.03 1568.8
-997.38 -915.29 1583.1
-988.96 -911.32 1576.3
-962.49 -890.60 1540.4
-971.73 -902.90 1561.7
-1009.24 -941.67 1628.8
-1004.07 -940.79 1627.2
-975.89 -918.24 1588.3
-974.08 -920.43 1592.0
-970.86 -921.28 1593.5
-951.81 -907.07 1568.9
-966.23 -924.76 1599.5
-986.06 -947.81 1639.4
-974.43 -940.68 1627.1
-957.70 -932.61 1613.1
-946.19 -925.44 1600.7
-944.71 -928.06 1605.2
-961.31 -948.55 1640.7
-967.39 -958.79 1658.4
-954.07 -949.81 1642.9
-953.80 -953.80 1649.8
-957.51 -961.83 1663.6
-928.72 -937.13 1620.9
-911.18 -923.60 1597.5
-921.52 -938.35 1623.0
-925.16 -946.38 1636.9
-913.41 -938.67 1623.6
-889.37 -944.43 1633.5
-827.95 -891.95 1542.8
-825.92 -894.08 1546.5
-836.82 -910.30 1574.5
-830.90 -912.76 1578.8
-833.28 -919.91 1591.1
-844.85 -942.01 1629.4
-858.11 -966.46 1671.6
-837.90 -948.49 1640.6
-823.87 -937.37 1621.3
-805.72 -945.66 1635.7
-794.71 -937.67 1621.9
-770.54 -913.99 1580.9
-775.18 -924.42 1598.9
-750.38 -914.40 1581.6
-709.45 -898.91 1554.8
-749.47 -955.03 1651.9
-753.75 -966.02 1670.9
-740.94 -955.09 1652.0
-718.85 -932.00 1612.0
-684.03 -892.04 1542.9
-675.20 -885.70 1532.0
-689.10 -909.29 1572.8
-711.64 -944.62 1633.9
-718.81 -959.85 1660.2
-699.67 -939.92 1625.7
-678.43 -922.51 1595.6
-674.44 -922.71 1596.0
-671.47 -924.31 1598.7
-654.55 -906.62 1568.1
-665.12 -938.75 1623.7
-677.00 -961.60 1663.2
-689.68 -985.89 1705.3
-673.30 -974.97 1686.4
-648.93 -945.82 1635.9
-631.89 -927.05 1603.5
-599.91 -903.92 1563.5
-622.89 -944.93 1634.4
-626.23 -956.50 1654.4
-608.15 -948.38 1640.4
-626.77 -984.29 1702.5
-619.04 -986.04 1705.5
-592.67 -950.83 1644.6
-587.01 -948.57 1640.7
-594.58 -967.83 1674.0
-581.86 -954.07 1650.2
-568.95 -939.82 1625.6
-574.59 -956.22 1653.9
-579.81 -972.16 1681.5
-573.81 -969.40 1676.7
-548.66 -933.97 1615.5
-527.99 -905.71 1566.6
-538.43 -930.77 1609.9
-522.49 -924.73 1599.5
-522.97 -932.98 1613.7
-524.45 -943.17 1631.4
-492.82 -900.81 1558.1
-496.13 -914.36 1581.5
-483.62 -913.97 1580.9
-480.15 -939.24 1624.6
-467.78 -939.78 1625.5
-465.25 -943.18 1631.4
-451.04 -922.77 1596.1
-439.59 -907.68 1570.0
-452.79 -943.67 1632.2
-465.42 -988.47 1709.7
-438.49 -940.22 1626.3
-405.47 -941.88 1629.1
-416.03 -976.58 1689.2
-396.77 -961.73 1663.5
-391.63 -959.70 1660.0
-394.03 -976.31 1688.7
-378.65 -948.76 1641.0
-381.19 -977.08 1690.0
-378.29 -980.93 1696.7
-362.43 -950.85 1644.7
-349.98 -929.11 1607.0
-343.75 -923.58 1597.5
-349.16 -949.55 1642.4
-340.03 -936.14 1619.2
-319.38 -989.20 1711.0
-308.45 -968.79 1675.7
-308.40 -982.48 1699.4
-294.30 -951.16 1645.2
-280.32 -947.16 1638.3
-289.74 -994.02 1719.3
-278.90 -987.21 1707.5
-268.35 -965.21 1669.5
-258.00 -943.19 1631.4
-246.24 -915.19 1583.0
-245.23 -926.88 1603.2
-245.40 -943.52 1632.0
-238.07 -931.38 1611.0
-234.95 -935.61 1618.3
-233.39 -946.30 1636.8
-223.80 -924.20 1598.6
-225.15 -947.31 1638.5
-226.66 -991.06 1714.2
-214.24 -955.50 1652.7
-212.74 -968.17 1674.6
-208.34 -967.91 1674.1
-199.22 -945.24 1634.9
-191.43 -928.03 1605.2
-184.80 -915.79 1584.0
-170.35 -926.55 1602.6
-162.65 -906.79 1568.4
-161.23 -921.93 1594.6
-159.00 -933.08 1613.9
-153.36 -924.28 1598.7
-148.92 -922.45 1595.5
-143.87 -916.63 1585.5
-140.39 -920.78 1592.6
-137.61 -929.92 1608.4
-131.96 -919.59 1590.6
-129.59 -932.21 1612.4
-128.39 -954.33 1650.7
-122.69 -943.48 1631.9
-115.41 -919.14 1589.8
-111.30 -919.27 1590.0
-109.06 -935.38 1617.9
-99.40 -923.62 1597.5
-96.82 -938.72 1623.7
-70.80 -928.79 1606.5
-67.43 -939.87 1625.7
-62.69 -931.94 1611.9
-57.73 -919.50 1590.4
-54.34 -932.07 1612.2
-50.91 -946.14 1636.5
-47.02 -953.20 1648.7
-42.86 -955.75 1653.1
-38.80 -961.30 1662.7
-34.61 -964.84 1668.9
-30.21 -962.38 1664.6
-26.04 -967.91 1674.2
-21.66 -965.94 1670.7
-16.97 -945.94 1636.2
-12.38 -919.93 1591.2
-8.14 -907.43 1569.5
0.00 -956.99 1655.3
4.21 -938.47 1623.2
12.26 -911.42 1576.5
16.81 -937.43 1621.4
20.94 -933.91 1615.3
25.26 -938.89 1624.0
29.33 -934.35 1616.1
32.48 -905.29 1565.8
41.67 -929.23 1607.2
45.07 -913.67 1580.3
53.93 -925.06 1600.0
60.65 -966.02 1670.9
65.75 -977.46 1690.7
69.87 -973.88 1684.5
73.09 -958.80 1658.4
76.46 -947.21 1638.3
79.25 -930.12 1608.8
81.57 -909.53 1573.2
85.12 -903.93 1563.5
102.58 -915.01 1582.7
106.09 -909.90 1573.8
117.56 -904.02 1563.7
141.15 -925.77 1601.3
156.79 -920.12 1591.5
162.54 -929.41 1607.6
169.72 -946.18 1636.6
171.36 -932.03 1612.1
168.65 -895.46 1548.8
197.02 -934.79 1616.9
202.13 -939.04 1624.2
196.34 -893.54 1545.5
210.96 -922.44 1595.5
218.29 -936.12 1619.2
214.28 -901.58 1559.4
243.46 -936.08 1619.1
256.65 -970.04 1677.8
252.51 -938.51 1623.3
244.98 -895.58 1549.1
267.74 -932.90 1613.6
276.45 -948.45 1640.5
268.45 -907.05 1568.9
279.92 -904.66 1564.8
280.62 -893.97 1546.3
297.43 -934.19 1615.8
308.06 -954.12 1650.3
301.39 -920.69 1592.5
302.79 -912.46 1578.2
307.60 -914.59 1581.9
308.89 -906.36 1567.7
314.03 -909.47 1573.1
324.89 -928.85 1606.6
331.90 -936.87 1620.5
346.27 -941.67 1628.8
350.35 -941.30 1628.1
340.51 -893.33 1545.2
365.60 -948.00 1639.7
359.53 -921.57 1594.0
370.86 -918.91 1589.4
384.62 -942.54 1630.3
395.95 -882.97 1527.2
417.62 -922.08 1594.9
425.03 -920.21 1591.6
460.55 -942.22 1629.7
459.02 -930.55 1609.5
451.34 -906.75 1568.4
446.39 -888.80 1537.3
452.59 -893.17 1544.9
447.18 -874.75 1513.0
442.86 -858.77 1485.4
463.86 -891.73 1542.4
478.77 -912.54 1578.4
470.57 -889.29 1538.2
463.97 -869.45 1503.9
471.77 -876.70 1516.4
478.83 -882.48 1526.4
487.80 -891.63 1542.2
503.49 -912.83 1578.9
514.53 -925.32 1600.5
522.97 -932.98 1613.7
530.93 -939.66 1625.3
519.47 -912.15 1577.7
530.23 -909.55 1573.2
548.94 -934.45 1616.3
550.52 -930.04 1608.7
534.33 -895.90 1549.6
531.96 -885.28 1531.2
541.40 -894.31 1546.9
567.84 -898.07 1553.4
574.84 -902.74 1561.4
576.37 -898.82 1554.6
580.94 -899.66 1556.1
593.26 -912.39 1578.1
603.49 -921.77 1594.4
611.92 -928.29 1605.6
622.29 -937.64 1621.8
610.53 -913.75 1580.5
583.13 -855.52 1479.8
635.40 -920.09 1591.5
620.35 -892.51 1543.7
642.10 -917.87 1587.6
630.80 -895.98 1549.7
649.60 -905.38 1566.0
665.32 -915.85 1584.1
628.69 -854.87 1478.6
644.91 -871.61 1507.6
670.69 -900.99 1558.4
683.01 -912.04 1577.5
687.65 -912.77 1578.8
695.49 -917.71 1587.3
700.51 -918.90 1589.4
695.86 -907.46 1569.6
675.63 -875.96 1515.1
666.38 -858.97 1485.7
672.63 -862.05 1491.1
722.90 -910.77 1575.3
723.83 -906.82 1568.5
705.34 -878.71 1519.9
731.97 -877.58 1517.9
739.58 -881.96 1525.5
742.55 -880.79 1523.5
731.45 -863.03 1492.7
750.02 -880.29 1522.6
777.79 -908.10 1570.7
756.68 -878.86 1520.1
757.80 -866.61 1498.9
795.28 -904.84 1565.1
780.48 -883.49 1528.1
798.99 -890.87 1540.9
787.50 -856.65 1481.7
801.16 -867.27 1500.1
781.18 -841.57 1455.6
818.38 -873.20 1510.3
819.03 -869.73 1504.3
798.24 -843.64 1459.2
798.75 -840.20 1453.3
807.43 -845.33 1462.1
814.45 -844.76 1461.1
811.41 -837.71 1449.0
811.38 -833.82 1442.2
797.26 -815.55 1410.6
772.75 -779.74 1348.7
761.28 -764.71 1322.7
982.33 -829.77 1435.2
1014.21 -853.47 1476.2
993.46 -832.86 1440.6
995.29 -813.00 1406.2
1036.29 -840.34 1453.5
1022.74 -820.40 1419.0
1069.96 -855.20 1479.2
1038.66 -827.22 1430.8
1068.51 -833.14 1441.1
1034.33 -803.68 1390.1
1003.76 -777.22 1344.3
1022.00 -788.60 1364.0
1082.85 -832.68 1440.2
1113.91 -853.61 1476.5
1088.63 -831.38 1438.0
1066.51 -811.71 1404.0
1043.33 -783.37 1355.0
1047.98 -784.23 1356.4
1064.90 -794.22 1373.7
1058.41 -786.75 1360.8
1060.83 -785.93 1359.4
1089.06 -804.17 1390.9
1114.58 -820.30 1418.8
1122.17 -823.17 1423.8
1080.62 -790.09 1366.6
1122.86 -807.73 1397.1
1125.87 -807.30 1396.3
1099.04 -785.54 1358.7
1087.05 -772.01 1335.3
1104.95 -782.23 1353.0
1120.01 -790.39 1367.1
1095.12 -770.38 1332.5
1097.41 -769.56 1331.1
1145.10 -800.49 1384.6
-1471.75 -1033.46 1779.6
-1533.26 -1100.80 1895.5
-1530.53 -1102.37 1898.2
-1458.15 -1053.63 1814.3
-1419.11 -1035.44 1783.0
-1419.37 -1039.01 1789.1
-1402.75 -1040.45 1791.6
-1405.15 -1045.69 1800.6
-1385.75 -1034.69 1781.7
-1380.90 -1034.52 1781.4
-1264.93 -973.69 1676.6
-1315.29 -1015.95 1749.4
-1277.30 -990.02 1704.7
-1236.75 -961.92 1656.4
-1249.95 -975.57 1679.9
-1171.60 -933.95 1608.2
-1230.29 -984.23 1694.8
-1180.59 -951.27 1638.0
-1108.94 -896.76 1544.2
-1085.00 -880.58 1516.3
-1102.10 -897.71 1545.8
-1113.32 -910.16 1567.2
-1096.12 -906.02 1560.1
-1101.45 -913.80 1573.5
-1121.70 -934.06 1608.4
-1145.94 -957.80 1649.3
-1142.79 -958.74 1650.9
-1127.34 -949.34 1634.7
-1088.97 -920.48 1585.0
-1049.25 -890.27 1533.0
-1060.02 -902.83 1554.6
-1057.02 -903.71 1556.1
-1043.41 -895.50 1542.0
-1069.64 -921.54 1586.8
-1060.54 -917.22 1579.4
-1042.45 -905.07 1558.5
-1073.37 -935.54 1610.9
-1076.70 -942.11 1622.3
-1008.95 -893.30 1538.2
-1038.39 -923.01 1589.4
-1063.22 -948.85 1633.9
-1069.28 -958.08 1649.8
-1042.14 -937.51 1614.3
-1016.11 -917.77 1580.3
-1020.72 -925.68 1594.0
-1007.41 -917.32 1579.6
-943.12 -876.59 1509.4
-1004.05 -937.11 1613.7
-1014.50 -950.83 1637.3
-984.36 -926.46 1595.3
-996.15 -941.51 1621.2
-1015.68 -968.14 1667.1
-984.42 -942.35 1622.7
-954.72 -917.85 1580.5
-929.35 -897.30 1545.1
-951.49 -922.65 1588.8
-976.65 -951.17 1637.9
-939.95 -919.43 1583.2
-904.86 -892.90 1537.5
-927.45 -919.25 1582.9
-948.05 -943.84 1625.2
-950.97 -950.97 1637.5
-921.19 -925.33 1593.4
-894.72 -902.78 1554.5
-901.25 -913.48 1573.0
-916.99 -933.66 1607.7
-910.99 -931.79 1604.5
-900.17 -924.94 1592.7
-890.27 -918.99 1582.4
-863.41 -895.39 1541.8
-854.38 -907.02 1561.8
-870.66 -928.71 1599.2
-863.87 -925.87 1594.3
-846.95 -912.10 1570.6
-841.50 -910.61 1568.0
-838.99 -912.30 1570.9
-845.23 -923.57 1590.3
-842.66 -925.27 1593.3
-830.95 -916.91 1578.9
-845.03 -951.18 1637.9
-847.97 -959.32 1651.9
-811.66 -922.91 1589.2
-780.05 -891.49 1535.1
-784.32 -900.97 1551.4
-798.89 -922.43 1588.4
-786.29 -912.58 1571.4
-771.74 -919.53 1583.4
-791.07 -947.59 1631.7
-774.76 -933.05 1606.7
-758.39 -928.30 1598.5
-758.99 -934.14 1608.5
-722.07 -924.25 1591.5
-707.59 -910.92 1568.5
-714.78 -941.82 1621.8
-687.36 -911.06 1568.8
-667.94 -890.59 1533.5
-675.67 -906.29 1560.6
-679.49 -928.08 1598.1
-666.22 -915.55 1576.5
-652.03 -901.57 1552.5
-662.05 -921.12 1586.1
-655.37 -917.52 1579.9
-640.99 -903.04 1555.0
-656.78 -931.13 1603.3
-674.00 -961.63 1655.9
-691.30 -992.64 1709.3
-683.72 -994.50 1712.5
-658.98 -964.78 1661.3
-639.32 -942.15 1622.3
-639.71 -948.98 1634.1
-647.70 -967.24 1665.5
-643.82 -967.89 1666.6
-656.30 -993.33 1710.4
-644.17 -981.59 1690.2
-612.52 -939.76 1618.2
-630.99 -974.77 1678.5
-617.91 -967.92 1666.7
-587.30 -926.44 1595.3
-588.96 -935.66 1611.1
-566.48 -912.88 1571.9
-574.29 -932.17 1605.1
-580.47 -949.08 1634.3
-566.38 -932.87 1606.3
-567.67 -948.94 1634.0
-557.21 -938.45 1616.0
-536.33 -910.13 1567.2
-545.55 -932.85 1606.3
-559.62 -964.27 1660.4
-543.98 -944.59 1626.5
-537.44 -955.45 1645.2
-510.82 -915.39 1576.3
-513.14 -942.17 1622.4
-523.37 -968.88 1668.3
-525.57 -981.06 1689.3
-493.17 -986.33 1698.4
-482.74 -974.18 1677.5
-469.06 -955.19 1644.8
-436.98 -923.44 1590.1
-442.47 -943.94 1625.4
-427.79 -939.47 1617.7
-396.79 -955.72 1645.7
-399.97 -973.85 1676.9
-394.60 -971.33 1672.6
-396.57 -987.01 1699.6
-381.76 -960.85 1654.5
-374.15 -952.39 1640.0
-380.40 -979.41 1686.5
-372.96 -971.44 1672.8
-357.55 -942.24 1622.5
-344.05 -917.46 1579.8
-335.58 -916.72 1578.5
-336.27 -929.93 1601.3
-318.11 -925.42 1593.5
-319.83 -995.03 1713.4
-305.91 -965.13 1661.9
-302.17 -966.95 1665.0
-305.60 -992.09 1708.3
-301.42 -992.92 1709.8
-290.11 -969.91 1670.1
-286.46 -972.21 1674.1
-283.94 -978.49 1684.9
-273.83 -958.42 1650.3
-258.94 -950.85 1637.3
-262.37 -979.50 1686.6
-252.17 -957.39 1648.6
-243.58 -940.73 1619.9
-237.42 -933.03 1606.6
-235.32 -941.26 1620.8
-232.89 -948.50 1633.3
-215.81 -912.10 1570.6
-217.47 -936.78 1613.1
-210.73 -925.55 1593.7
-203.76 -931.50 1604.0
-203.51 -949.70 1635.3
-196.38 -935.94 1611.6
-175.32 -913.28 1572.6
-180.37 -961.97 1656.5
-178.22 -973.67 1676.6
-174.35 -976.37 1681.3
-164.19 -943.04 1623.9
-146.90 -914.04 1573.9
-145.58 -931.73 1604.4
-145.48 -958.43 1650.3
-139.67 -948.07 1632.5
-130.97 -946.37 1629.6
-125.09 -966.20 1663.7
-116.59 -932.75 1606.1
-96.60 -901.65 1552.6
-94.75 -922.82 1589.0
-88.82 -904.36 1557.3
-87.99 -938.57 1616.2
-88.38 -989.84 1704.4
-81.46 -960.33 1653.6
-76.01 -945.87 1628.7
-73.73 -971.55 1672.9
-70.98 -993.71 1711.1
-66.18 -988.27 1701.7
-60.77 -972.28 1674.2
-56.11 -966.82 1664.8
-51.72 -965.38 1662.3
-48.17 -981.00 1689.2
-44.25 -991.09 1706.6
-39.60 -985.61 1697.2
-34.86 -976.11 1680.8
-30.08 -962.59 1657.5
-25.66 -958.11 1649.8
-21.29 -953.61 1642.1
-16.63 -931.04 1603.2
-12.44 -929.04 1599.8
-8.42 -942.61 1623.1
-4.20 -940.11 1618.8
0.00 -947.14 1630.9
4.24 -950.15 1636.1
8.32 -932.07 1605.0
12.26 -915.48 1576.4
16.28 -911.45 1569.5
20.45 -915.95 1577.2
29.36 -939.50 1617.8
33.03 -924.90 1592.6
40.05 -897.20 1544.9
44.94 -915.23 1576.0
49.91 -931.74 1604.4
52.96 -912.61 1571.5
56.47 -903.51 1555.8
61.37 -916.49 1578.1
69.54 -916.35 1577.9
74.56 -927.81 1597.6
78.22 -922.20 1588.0
81.44 -912.08 1570.5
84.56 -901.95 1553.1
87.64 -892.32 1536.5
92.90 -904.76 1557.9
100.63 -939.26 1617.3
105.09 -941.65 1621.5
106.37 -916.46 1578.1
111.12 -921.85 1587.4
120.60 -964.83 1661.4
123.66 -955.17 1644.7
133.81 -936.70 1612.9
137.16 -931.04 1603.2
139.77 -920.87 1585.7
142.69 -913.20 1572.5
149.71 -931.56 1604.1
156.16 -945.40 1627.9
158.99 -937.22 1613.8
160.97 -924.53 1592.0
164.26 -919.85 1583.9
167.97 -917.66 1580.2
167.25 -891.97 1535.9
185.68 -904.18 1556.9
194.70 -927.95 1597.9
193.66 -903.76 1556.2
199.41 -893.34 1538.3
206.98 -909.08 1565.4
215.62 -894.41 1540.1
220.90 -899.65 1549.1
242.73 -921.54 1586.8
252.78 -913.25 1572.6
255.51 -908.50 1564.4
261.34 -914.68 1575.0
278.46 -959.61 1652.4
279.14 -947.38 1631.3
288.46 -910.07 1567.1
335.02 -949.94 1635.7
331.36 -927.82 1597.6
322.15 -890.89 1534.1
337.21 -921.16 1586.2
358.93 -968.68 1668.0
355.71 -948.55 1633.3
340.70 -897.84 1546.0
384.41 -946.23 1629.4
380.78 -927.13 1596.5
407.46 -903.68 1556.1
411.07 -902.75 1554.5
424.35 -922.86 1589.1
410.55 -884.25 1522.6
452.78 -922.03 1587.7
448.21 -904.49 1557.5
445.68 -891.35 1534.9
463.17 -918.14 1581.0
469.99 -923.49 1590.2
461.37 -898.67 1547.5
476.21 -919.57 1583.4
477.00 -875.80 1508.1
488.88 -890.31 1533.1
495.51 -895.12 1541.3
507.85 -910.07 1567.1
519.23 -923.07 1589.5
531.36 -915.58 1576.6
539.07 -921.77 1587.2
531.79 -902.43 1553.9
529.78 -892.25 1536.4
542.06 -906.13 1560.3
549.24 -911.34 1569.3
527.89 -869.46 1497.2
563.95 -895.91 1542.7
559.39 -882.41 1519.5
556.55 -871.80 1501.2
600.35 -914.81 1575.3
616.62 -933.27 1607.0
627.03 -942.64 1623.2
618.10 -904.93 1558.2
620.54 -885.36 1524.5
603.36 -855.39 1472.9
677.98 -937.45 1614.2
657.30 -903.28 1555.4
659.13 -900.27 1550.2
630.75 -856.28 1474.5
655.34 -879.02 1513.6
690.85 -921.14 1586.1
695.16 -921.39 1586.6
695.90 -916.95 1578.9
688.37 -901.73 1552.7
666.69 -868.25 1495.1
665.36 -861.51 1483.5
679.97 -875.36 1507.3
683.72 -875.17 1507.0
699.22 -889.91 1532.4
690.11 -873.36 1503.9
700.18 -876.21 1508.8
717.77 -893.22 1538.1
712.90 -877.42 1510.9
690.06 -844.67 1454.5
711.21 -865.82 1490.9
764.31 -925.44 1593.6
750.86 -899.42 1548.7
717.76 -855.20 1472.6
775.47 -909.45 1566.0
749.36 -869.72 1497.6
736.65 -846.21 1457.1
759.53 -868.04 1494.7
782.58 -889.83 1532.2
787.52 -890.93 1534.1
768.02 -864.50 1488.6
765.50 -844.69 1454.5
793.99 -871.84 1501.3
778.83 -851.02 1465.4
778.78 -842.74 1451.1
808.49 -870.69 1499.3
813.38 -871.76 1501.1
776.53 -828.30 1426.3
777.41 -825.31 1421.1
798.88 -844.10 1453.5
803.24 -844.72 1454.6
811.93 -849.87 1463.4
799.81 -833.29 1434.9
787.57 -816.74 1406.4
777.84 -802.93 1382.6
961.27 -812.55 1399.2
956.86 -802.76 1382.3
961.04 -803.26 1383.2
979.86 -803.99 1384.4
1070.93 -875.50 1507.6
1048.70 -851.12 1465.6
1013.98 -819.97 1411.9
1061.58 -855.37 1472.9
1073.44 -858.75 1478.7
1042.08 -830.69 1430.4
1029.76 -817.97 1408.5
1000.22 -791.70 1363.3
1027.72 -804.93 1386.0
1024.85 -799.88 1377.4
1021.41 -794.43 1368.0
1027.17 -796.14 1370.9
1076.00 -831.12 1431.1
1106.47 -851.72 1466.6
1081.20 -829.41 1428.2
1058.53 -809.25 1393.5
1048.06 -790.46 1361.1
1095.50 -823.46 1417.9
1119.19 -838.46 1443.8
1120.66 -836.76 1440.8
1083.51 -806.33 1388.5
1103.28 -812.95 1399.8
1103.50 -810.44 1395.5
1105.40 -809.18 1393.4
1090.84 -795.92 1370.5
1087.57 -790.96 1362.0
1099.06 -796.73 1371.9
1124.29 -812.39 1398.9
1135.88 -818.13 1408.8
1116.56 -801.63 1380.4
1053.93 -749.46 1290.5
1067.72 -756.87 1303.3
1055.49 -745.83 1284.3
-1416.29 -1011.64 1734.2
-1535.39 -1103.72 1892.1
-1388.61 -1024.38 1756.1
-1396.39 -1047.29 1795.4
-1444.36 -1086.89 1863.2
-1346.46 -1023.49 1754.6
-1408.34 -1074.16 1841.4
-1327.06 -1019.07 1747.0
-1267.41 -983.34 1685.7
-1222.50 -951.77 1631.6
-1190.78 -930.30 1594.8
-1204.62 -944.39 1619.0
-1269.06 -998.39 1711.5
-1226.10 -967.97 1659.4
-1128.59 -894.13 1532.8
-1141.28 -907.38 1555.5
-1150.14 -924.22 1584.4
-1131.82 -912.76 1564.7
-1103.00 -892.71 1530.4
-1120.26 -919.92 1577.0
-1100.59 -907.08 1555.0
-1101.06 -917.55 1572.9
-1113.03 -930.98 1596.0
-1114.63 -935.79 1604.2
-1091.55 -919.84 1576.9
-1106.96 -936.34 1605.1
-1099.29 -933.36 1600.0
-1040.35 -890.04 1525.8
-1065.75 -915.25 1569.0
-1082.91 -933.54 1600.4
-1101.95 -953.61 1634.8
-1084.73 -942.33 1615.4
-1054.58 -919.69 1576.6
-1075.45 -941.54 1614.1
-1090.21 -958.19 1642.6
-1044.85 -921.92 1580.4
-1034.83 -916.68 1571.5
-1082.52 -962.72 1650.4
-1069.45 -954.87 1636.9
-1047.12 -938.65 1609.1
-1029.29 -926.36 1588.0
-980.37 -885.87 1518.6
-986.59 -895.09 1534.4
-1022.26 -931.21 1596.4
-1037.91 -949.31 1627.4
-1018.31 -935.18 1603.2
-988.48 -915.26 1569.0
-968.66 -900.62 1543.9
-989.31 -923.63 1583.4
-1021.16 -957.34 1641.2
-1004.17 -945.35 1620.6
-965.15 -912.44 1564.2
-968.09 -919.07 1575.5
-1017.69 -970.26 1663.3
-1010.59 -967.59 1658.7
-964.52 -927.42 1589.9
-953.86 -929.08 1592.7
-953.34 -932.62 1598.8
-892.11 -876.53 1502.6
-903.14 -895.19 1534.6
-882.82 -878.91 1506.7
-896.24 -904.28 1550.2
-871.71 -899.70 1542.3
-881.15 -913.64 1566.2
-865.67 -901.74 1545.8
-861.55 -901.62 1545.6
-875.15 -920.13 1577.4
-874.40 -923.66 1583.4
-850.47 -902.62 1547.3
-871.56 -933.82 1600.8
-869.01 -935.54 1603.8
-819.41 -899.36 1541.8
-830.65 -916.16 1570.6
-831.83 -921.98 1580.5
-842.86 -938.83 1609.4
-829.54 -928.59 1591.9
-791.18 -912.90 1565.0
-800.52 -928.44 1591.6
-788.82 -924.40 1584.7
-802.26 -945.07 1620.1
-774.49 -922.01 1580.6
-772.56 -924.60 1585.0
-782.20 -941.15 1613.4
-781.71 -945.62 1621.1
-741.00 -901.21 1544.9
-733.77 -897.27 1538.2
-761.45 -936.21 1604.9
-780.90 -965.40 1655.0
-776.09 -964.76 1653.9
-764.55 -955.69 1638.3
-759.04 -954.10 1635.6
-739.83 -935.17 1603.2
-717.24 -916.92 1571.9
-716.26 -920.90 1578.7
-703.79 -926.04 1587.5
-754.63 -998.78 1712.2
-747.21 -994.81 1705.4
-655.08 -887.91 1522.1
-677.95 -924.48 1584.8
-682.26 -936.03 1604.6
-627.10 -893.02 1530.9
-647.12 -927.40 1589.8
-671.48 -968.48 1660.3
-687.32 -997.72 1710.4
-644.38 -947.62 1624.5
-639.64 -946.83 1623.1
-654.44 -975.16 1671.7
-650.87 -976.30 1673.7
-638.96 -971.40 1665.3
-619.44 -948.12 1625.3
-637.46 -996.03 1707.5
-605.39 -952.53 1632.9
-576.69 -913.78 1566.5
-579.03 -923.98 1584.0
-593.24 -953.42 1634.4
-603.34 -976.64 1674.2
-573.40 -934.89 1602.7
-564.02 -940.03 1611.5
-573.12 -962.32 1649.7
-562.62 -951.81 1631.7
-535.21 -912.28 1563.9
-539.36 -926.38 1588.1
-552.05 -955.48 1638.0
-535.65 -934.27 1601.6
-536.61 -958.23 1642.7
-497.92 -910.84 1561.4
-519.72 -958.50 1643.2
-536.42 -997.47 1709.9
-503.68 -952.34 1632.6
-490.21 -984.80 1688.2
-490.67 -994.61 1705.0
-464.98 -951.09 1630.4
-427.81 -916.73 1571.5
-423.55 -934.30 1601.7
-399.47 -898.81 1540.8
-416.48 -966.07 1656.1
-423.73 -993.11 1702.5
-407.02 -964.00 1652.6
-379.23 -907.73 1556.1
-384.95 -931.32 1596.6
-396.72 -970.23 1663.3
-400.37 -989.92 1697.0
-397.52 -993.80 1703.7
-377.25 -953.71 1634.9
-368.91 -943.24 1617.0
-375.78 -971.83 1666.0
-372.18 -973.72 1669.2
-360.71 -954.82 1636.8
-349.40 -935.90 1604.4
-340.81 -923.90 1583.8
-320.74 -925.21 1586.1
-324.39 -947.90 1625.0
-319.80 -946.76 1623.0
-315.82 -986.93 1691.9
-298.70 -974.01 1669.7
-297.63 -984.80 1688.2
-289.49 -972.17 1666.6
-281.90 -961.02 1647.5
-258.73 -924.02 1584.0
-262.74 -985.28 1689.1
-251.30 -974.86 1671.2
-241.97 -955.15 1637.4
-238.54 -958.41 1643.0
-234.83 -960.68 1646.9
-226.90 -945.43 1620.7
-221.58 -940.67 1612.6
-216.99 -938.92 1609.6
-204.48 -902.11 1546.5
-201.79 -926.60 1588.5
-195.58 -916.80 1571.7
-173.68 -908.81 1558.0
-179.14 -959.67 1645.1
-177.65 -974.92 1671.3
-173.98 -978.63 1677.7
-164.53 -949.21 1627.2
-154.41 -914.24 1567.3
-150.12 -912.91 1565.0
-149.31 -933.16 1599.7
-149.79 -962.97 1650.8
-134.49 -976.17 1673.4
-131.45 -985.87 1690.1
-120.61 -935.73 1604.1
-87.14 -933.65 1600.5
-87.38 -983.07 1685.3
-80.52 -953.47 1634.5
-75.80 -947.52 1624.3
-74.07 -980.33 1680.6
-70.43 -990.48 1698.0
-64.69 -970.41 1663.6
-59.85 -961.92 1649.0
-55.64 -962.99 1650.8
-50.48 -946.43 1622.5
-46.40 -949.01 1626.9
-42.47 -955.60 1638.2
-37.82 -945.57 1621.0
-34.11 -959.22 1644.4
-30.17 -969.83 1662.6
-25.29 -948.20 1625.5
-20.64 -928.58 1591.8
-16.33 -918.52 1574.6
-8.56 -963.39 1651.5
-4.36 -980.03 1680.0
0.00 -971.46 1665.4
4.26 -959.37 1644.6
8.33 -937.19 1606.6
12.19 -914.51 1567.7
16.44 -924.57 1585.0
20.97 -943.69 1617.8
24.99 -937.12 1606.5
45.71 -934.90 1602.7
50.37 -944.42 1619.0
53.11 -919.18 1575.7
55.65 -894.44 1533.3
70.34 -930.98 1596.0
74.92 -936.44 1605.3
78.05 -924.27 1584.5
81.08 -912.10 1563.6
88.33 -903.35 1548.6
95.06 -929.92 1594.2
101.27 -949.43 1627.6
104.03 -936.24 1605.0
106.37 -920.52 1578.0
112.26 -935.49 1603.7
119.84 -963.02 1650.9
120.86 -937.74 1607.6
129.85 -942.49 1615.7
144.63 -957.10 1640.7
144.40 -928.31 1591.4
147.78 -923.62 1583.4
166.31 -935.47 1603.7
176.56 -968.90 1661.0
175.21 -938.60 1609.0
178.76 -935.39 1603.5
188.08 -961.77 1648.7
191.21 -956.04 1638.9
192.03 -939.28 1610.2
196.37 -940.07 1611.5
198.15 -928.83 1592.3
199.28 -915.08 1568.7
202.97 -913.35 1565.7
206.29 -910.12 1560.2
228.84 -936.17 1604.9
253.32 -919.31 1576.0
253.14 -904.06 1549.8
256.93 -903.28 1548.5
271.96 -941.39 1613.8
280.58 -956.54 1639.8
271.24 -910.88 1561.5
311.07 -933.20 1599.8
325.07 -925.85 1587.2
338.94 -953.26 1634.2
347.68 -965.78 1655.6
338.83 -929.72 1593.8
336.06 -911.02 1561.7
341.64 -915.10 1568.7
337.34 -892.95 1530.8
342.30 -895.55 1535.2
355.70 -919.90 1577.0
359.25 -918.53 1574.6
361.61 -914.18 1567.2
371.21 -917.83 1573.4
385.82 -943.58 1617.6
390.66 -945.14 1620.2
420.70 -937.21 1606.6
429.12 -946.58 1622.7
430.30 -930.93 1595.9
464.79 -917.35 1572.6
462.88 -905.63 1552.5
465.39 -902.70 1547.5
477.77 -918.78 1575.1
503.48 -944.02 1618.3
508.69 -945.92 1621.6
471.18 -854.97 1465.7
486.84 -876.30 1502.2
505.11 -901.98 1546.3
530.65 -925.55 1586.7
543.95 -941.45 1613.9
530.07 -910.42 1560.7
517.35 -881.84 1511.7
527.42 -885.59 1518.2
538.55 -897.58 1538.7
535.79 -886.42 1519.6
543.79 -893.09 1531.0
560.66 -894.67 1533.7
584.86 -901.33 1545.1
594.42 -909.83 1559.7
610.65 -928.35 1591.5
619.74 -935.86 1604.3
630.81 -946.21 1622.1
606.39 -903.57 1549.0
620.59 -889.37 1524.6
618.43 -880.67 1509.7
628.61 -889.55 1524.9
654.95 -915.30 1569.1
672.19 -933.59 1600.4
670.70 -925.82 1587.1
682.95 -936.98 1606.2
664.09 -905.57 1552.4
633.32 -853.28 1462.8
660.24 -884.25 1515.9
673.51 -891.41 1528.1
681.98 -897.34 1538.3
672.15 -879.27 1507.3
701.45 -907.05 1554.9
708.96 -911.52 1562.6
695.24 -888.80 1523.6
658.12 -836.59 1434.2
708.47 -885.59 1518.2
733.64 -911.99 1563.4
749.58 -926.67 1588.6
746.66 -918.02 1573.8
742.15 -907.52 1555.7
767.41 -933.33 1600.0
758.61 -893.65 1532.0
783.16 -913.01 1565.2
749.57 -860.48 1475.1
776.19 -886.51 1519.7
756.78 -859.98 1474.2
790.86 -876.57 1502.7
800.32 -882.70 1513.2
810.44 -880.91 1510.1
784.95 -849.10 1455.6
733.36 -789.50 1353.4
770.29 -821.40 1408.1
804.15 -853.46 1463.1
819.72 -865.91 1484.4
835.82 -878.78 1506.5
832.49 -871.21 1493.5
826.48 -860.92 1475.9
821.27 -851.55 1459.8
796.25 -821.82 1408.8
915.50 -798.40 1368.7
960.28 -827.83 1419.1
963.02 -827.02 1417.8
990.55 -813.41 1394.4
1022.08 -833.22 1428.4
1053.32 -852.51 1461.4
1039.11 -835.00 1431.4
1057.74 -846.95 1451.9
1047.62 -835.87 1432.9
1018.16 -809.49 1387.7
1007.30 -798.04 1368.1
1023.27 -807.85 1384.9
1046.32 -823.15 1411.1
1061.88 -832.49 1427.1
1022.22 -798.61 1369.0
1041.17 -805.03 1380.1
1041.49 -802.52 1375.7
1045.08 -802.54 1375.8
1043.58 -787.93 1350.7
1083.83 -815.59 1398.2
1109.75 -832.31 1426.8
1100.00 -822.26 1409.6
1066.09 -794.27 1361.6
1070.76 -795.12 1363.1
1084.99 -803.04 1376.6
1093.63 -806.78 1383.0
1084.76 -797.62 1367.4
1056.01 -773.95 1326.8
1085.60 -793.05 1359.5
1123.83 -818.33 1402.8
1121.16 -813.74 1395.0
1102.45 -797.59 1367.3
1107.69 -798.82 1369.4
1088.84 -782.71 1341.8
1053.20 -754.68 1293.7
1064.09 -760.07 1303.0
1117.18 -795.46 1363.6
1143.84 -811.87 1391.8
1094.61 -774.49 1327.7
-1465.04 -1034.68 1765.9
-1464.91 -1037.84 1771.3
-1441.00 -1024.10 1747.8
-1448.05 -1038.92 1773.1
-1501.30 -1080.56 1844.2
-1533.91 -1114.68 1902.4
-1468.47 -1070.56 1827.1
-1440.72 -1060.59 1810.1
-1468.22 -1091.50 1862.9
-1361.68 -1015.64 1733.4
-1343.21 -1008.52 1721.2
-1427.62 -1075.47 1835.5
-1433.78 -1083.73 1849.6
-1360.58 -1031.85 1761.1
-1175.94 -935.78 1597.1
-1177.26 -940.15 1604.5
-1187.63 -951.79 1624.4
-1157.70 -934.43 1594.8
-1132.49 -917.35 1565.6
-1062.05 -872.81 1489.6
-1058.72 -873.25 1490.4
-1063.72 -880.59 1502.9
-1076.48 -894.42 1526.5
-1098.98 -916.50 1564.2
-1114.11 -932.55 1591.6
-1095.61 -920.48 1571.0
-1052.18 -890.61 1520.0
-1075.86 -914.08 1560.1
-1077.97 -919.33 1569.0
-1074.97 -927.26 1582.6
-1049.73 -908.96 1551.3
-1024.60 -890.62 1520.0
-1078.30 -940.91 1605.9
-1090.99 -959.39 1637.4
-1063.44 -938.82 1602.3
-1063.78 -942.80 1609.1
-1060.68 -951.24 1623.5
-1035.45 -932.32 1591.2
-1015.71 -918.20 1567.1
-982.93 -892.14 1522.6
-1003.68 -914.65 1561.0
-1029.60 -942.06 1607.8
-1035.56 -951.37 1623.7
-1021.75 -942.51 1608.6
-1003.21 -929.20 1585.9
-1031.08 -958.95 1636.6
-1041.13 -972.29 1659.4
-997.94 -935.83 1597.2
-967.76 -911.31 1555.3
-964.63 -912.16 1556.8
-940.34 -892.93 1524.0
-937.26 -893.75 1525.4
-977.11 -935.71 1597.0
-978.52 -941.05 1606.1
-939.55 -907.43 1548.7
-968.70 -943.64 1610.5
-981.93 -960.68 1639.6
-955.24 -938.62 1602.0
-901.80 -889.98 1518.9
-912.29 -908.28 1550.2
-884.73 -884.73 1510.0
-890.96 -902.95 1541.1
-867.75 -883.38 1507.7
-899.25 -940.88 1605.8
-874.20 -918.92 1568.3
-866.57 -915.17 1561.9
-876.61 -930.11 1587.4
-878.79 -950.27 1621.8
-860.57 -935.04 1595.8
-810.73 -893.78 1525.4
-817.42 -905.58 1545.5
-840.24 -944.75 1612.4
-851.05 -961.69 1641.3
-860.11 -976.81 1667.1
-847.18 -966.99 1650.4
-799.65 -917.36 1565.7
-789.02 -909.78 1552.7
-804.83 -932.77 1592.0
-801.36 -933.54 1593.3
-789.95 -925.02 1578.7
-803.86 -946.21 1614.9
-818.00 -967.89 1651.9
-801.86 -953.79 1627.8
-746.71 -902.45 1540.2
-732.94 -890.56 1519.9
-770.18 -951.15 1623.3
-789.95 -980.93 1674.2
-786.97 -982.63 1677.1
-776.51 -974.95 1664.0
-763.13 -963.51 1644.4
-754.27 -968.55 1653.0
-735.61 -949.98 1621.3
-678.67 -891.74 1521.9
-678.80 -897.13 1531.1
-710.88 -945.05 1612.9
-738.34 -987.37 1685.1
-715.52 -962.54 1642.8
-696.04 -941.94 1607.6
-705.95 -961.11 1640.3
-704.63 -965.13 1647.2
-685.72 -944.95 1612.7
-679.63 -942.31 1608.2
-680.71 -949.64 1620.7
-670.90 -941.76 1607.3
-643.95 -909.58 1552.4
-631.10 -932.21 1591.0
-648.97 -964.92 1646.8
-648.98 -971.32 1657.8
-629.85 -948.97 1619.6
-593.50 -912.46 1557.3
-584.99 -918.11 1566.9
-595.63 -941.34 1606.6
-608.80 -968.93 1653.7
-573.92 -919.90 1570.0
-578.67 -940.86 1605.8
-565.44 -926.00 1580.4
-548.21 -904.35 1543.5
-572.78 -951.83 1624.5
-568.06 -950.97 1623.0
-559.03 -942.84 1609.1
-565.18 -960.38 1639.1
-553.91 -948.36 1618.6
-535.14 -923.22 1575.7
-525.23 -913.10 1558.4
-527.37 -945.91 1614.4
-533.45 -964.48 1646.1
-535.64 -976.24 1666.2
-510.40 -937.81 1600.6
-495.48 -917.86 1566.5
-512.60 -957.42 1634.0
-510.98 -962.35 1642.4
-497.77 -961.51 1641.0
-494.54 -963.50 1644.4
-479.58 -942.48 1608.5
-471.46 -951.34 1623.7
-478.82 -974.90 1663.9
-458.75 -942.52 1608.6
-439.24 -945.41 1613.5
-428.02 -930.13 1587.4
-418.25 -945.25 1613.3
-410.59 -937.31 1599.7
-415.20 -957.50 1634.2
-425.15 -990.56 1690.6
-427.68 -1006.83 1718.4
-415.24 -998.35 1703.9
-398.99 -969.59 1654.8
-390.24 -958.63 1636.1
-392.15 -973.92 1662.2
-387.62 -973.35 1661.2
-379.18 -962.86 1643.3
-383.00 -983.61 1678.7
-380.14 -987.50 1685.4
-367.24 -965.07 1647.1
-362.37 -963.48 1644.4
-358.44 -964.37 1645.9
-351.21 -956.31 1632.1
-346.76 -955.70 1631.1
-340.70 -950.61 1622.4
-324.00 -938.76 1602.2
-328.62 -964.52 1646.1
-324.64 -965.38 1647.6
-318.83 -960.75 1639.7
-323.35 -987.53 1685.4
-316.68 -980.40 1673.2
-264.46 -919.51 1569.3
-272.38 -961.84 1641.6
-264.44 -948.62 1619.0
-251.94 -918.37 1567.4
-255.67 -963.01 1643.6
-259.20 -992.86 1694.5
-249.35 -971.59 1658.2
-243.22 -964.34 1645.8
-242.87 -980.16 1672.8
-237.01 -973.91 1662.2
-226.65 -948.57 1618.9
-222.39 -948.32 1618.5
-218.60 -950.07 1621.5
-209.69 -929.22 1585.9
-206.30 -932.47 1591.4
-205.82 -949.28 1620.1
-194.41 -915.33 1562.2
-187.52 -921.28 1572.4
-186.89 -938.59 1601.9
-175.66 -945.24 1613.2
-172.16 -948.96 1619.6
-162.17 -939.77 1603.9
-156.27 -929.37 1586.2
-153.01 -934.58 1595.0
-153.47 -963.47 1644.4
-151.27 -976.75 1667.0
-145.60 -967.84 1651.8
-137.81 -943.80 1610.8
-133.16 -940.42 1605.0
-131.51 -958.73 1636.3
-108.98 -947.30 1616.8
-105.58 -954.48 1629.0
-102.71 -967.22 1650.8
-98.50 -967.84 1651.8
-93.39 -959.36 1637.3
-89.58 -964.01 1645.3
-85.95 -971.18 1657.5
-71.17 -946.19 1614.9
-66.46 -938.69 1602.1
-62.74 -945.33 1613.4
-59.69 -963.59 1644.6
-56.16 -976.29 1666.2
-51.57 -971.30 1657.7
-46.12 -947.60 1617.3
-41.15 -929.96 1587.2
-24.44 -920.50 1571.0
-20.33 -919.01 1568.5
-16.43 -928.13 1584.0
-8.63 -974.67 1663.5
-4.33 -979.23 1671.2
0.00 -958.50 1635.9
4.23 -956.98 1633.3
8.36 -944.34 1611.7
12.32 -928.15 1584.1
16.73 -945.32 1613.4
20.82 -941.25 1606.4
28.53 -920.98 1571.8
32.33 -913.36 1558.8
46.32 -951.64 1624.2
50.98 -960.18 1638.7
55.05 -957.09 1633.5
59.07 -953.48 1627.3
62.31 -938.76 1602.2
66.42 -938.19 1601.2
72.28 -960.84 1639.9
76.36 -958.74 1636.3
79.15 -941.47 1606.8
81.83 -924.72 1578.2
93.72 -920.89 1571.7
98.05 -923.30 1575.8
102.63 -927.73 1583.4
106.83 -928.62 1584.9
125.01 -941.72 1607.2
129.43 -943.60 1610.4
134.44 -949.50 1620.5
139.80 -957.41 1634.0
139.39 -926.51 1581.3
177.27 -977.15 1667.7
177.07 -952.79 1626.1
179.90 -945.54 1613.8
188.95 -970.50 1656.3
194.40 -976.32 1666.3
197.45 -970.06 1655.6
209.19 -964.86 1646.7
205.41 -928.45 1584.6
205.95 -912.64 1557.6
229.20 -941.80 1607.4
237.90 -926.97 1582.1
249.44 -924.16 1577.3
258.40 -941.90 1607.5
259.28 -930.10 1587.4
264.30 -933.31 1592.9
269.64 -937.52 1600.1
267.71 -916.72 1564.6
266.64 -899.42 1535.0
302.12 -922.69 1574.8
316.85 -954.76 1629.5
316.54 -905.54 1545.5
330.11 -932.57 1591.6
349.08 -973.99 1662.3
351.27 -968.13 1652.3
337.70 -919.53 1569.4
332.96 -895.81 1528.9
352.63 -916.04 1563.4
364.07 -935.00 1595.8
374.88 -951.95 1624.7
387.22 -972.36 1659.5
374.60 -930.32 1587.8
381.47 -888.78 1516.9
398.50 -918.99 1568.4
403.67 -921.52 1572.8
408.43 -923.05 1575.4
416.06 -930.99 1588.9
425.54 -942.87 1609.2
425.46 -933.54 1593.3
436.05 -929.69 1586.7
429.70 -890.95 1520.6
448.48 -921.41 1572.6
444.36 -904.74 1544.1
444.73 -897.40 1531.6
439.97 -864.63 1475.7
450.33 -877.38 1497.4
466.88 -886.68 1513.3
480.13 -904.25 1543.3
492.48 -919.84 1569.9
529.33 -934.60 1595.1
535.28 -930.57 1588.2
525.58 -906.72 1547.5
516.24 -883.87 1508.5
512.14 -870.25 1485.3
533.19 -899.26 1534.8
542.33 -907.90 1549.5
536.69 -891.86 1522.1
548.51 -904.83 1544.3
559.24 -915.86 1563.1
561.45 -912.87 1558.0
562.74 -908.43 1550.4
566.40 -907.84 1549.4
564.60 -898.59 1533.6
560.67 -867.89 1481.2
571.95 -879.32 1500.7
588.03 -897.94 1532.5
600.02 -898.04 1532.7
598.75 -890.25 1519.4
630.23 -907.22 1548.3
637.80 -912.30 1557.0
654.12 -929.76 1586.8
667.20 -942.43 1608.4
662.09 -929.39 1586.2
655.50 -914.47 1560.7
665.24 -922.36 1574.2
688.13 -948.27 1618.4
686.28 -940.00 1604.3
657.56 -895.24 1527.9
641.79 -868.54 1482.3
654.37 -869.92 1484.7
665.58 -879.66 1501.3
681.38 -890.13 1519.2
710.20 -922.44 1574.3
721.39 -931.62 1590.0
713.97 -916.80 1564.7
695.02 -887.43 1514.6
684.73 -869.37 1483.8
669.09 -844.77 1441.8
667.45 -838.02 1430.2
683.77 -853.77 1457.1
708.81 -875.36 1494.0
722.40 -887.30 1514.3
721.55 -881.46 1504.4
732.56 -890.09 1519.1
730.89 -883.32 1507.6
733.01 -871.90 1488.1
730.89 -851.45 1453.2
751.27 -866.26 1478.5
760.94 -872.95 1489.9
785.57 -874.58 1492.6
768.85 -851.77 1453.7
776.97 -856.56 1461.9
829.90 -910.47 1553.9
789.70 -858.04 1464.4
810.37 -859.83 1467.5
843.26 -890.54 1519.9
842.12 -885.21 1510.8
807.71 -833.53 1422.6
816.86 -839.14 1432.2
790.60 -808.48 1379.8
944.66 -821.13 1401.4
990.23 -857.44 1463.4
986.48 -850.94 1452.3
1038.67 -847.43 1446.3
1035.56 -841.86 1436.8
1033.62 -816.78 1394.0
1066.98 -840.20 1434.0
1045.78 -820.64 1400.6
1020.69 -787.29 1343.7
