ply
format ascii 1.0
element vertex 2121
property float x
property float y
property float z
end_header
-1645.98 -848.80 2212.1
-1626.17 -841.52 2193.1
-1645.60 -854.56 2227.1
-1662.08 -866.15 2257.4
-1607.80 -840.83 2191.3
-1620.12 -862.51 2247.9
741.19 -746.23 1944.8
779.82 -744.61 1940.6
807.45 -761.16 1983.7
827.16 -760.37 1981.7
846.94 -773.75 2016.5
882.58 -782.16 2038.5
893.53 -782.50 2039.3
899.96 -783.49 2041.9
902.57 -781.17 2035.9
888.62 -764.63 1992.7
873.32 -747.12 1947.1
895.95 -753.41 1963.5
930.18 -777.78 2027.0
916.81 -762.29 1986.7
887.75 -734.01 1913.0
893.92 -735.00 1915.5
928.42 -723.19 1884.8
951.33 -737.16 1921.2
954.59 -735.83 1917.7
986.18 -756.24 1970.9
977.90 -734.67 1914.7
963.79 -720.41 1877.5
994.21 -739.41 1927.0
1007.85 -745.81 1943.7
994.65 -714.60 1862.4
1051.30 -700.87 1826.6
1076.34 -714.34 1861.7
1086.71 -675.77 1761.2
1163.52 -711.57 1854.5
1179.76 -718.54 1872.6
1158.96 -702.97 1832.1
1185.38 -710.27 1851.1
1226.09 -714.41 1861.9
1244.47 -716.66 1867.7
1232.59 -707.07 1842.7
1195.65 -683.23 1780.6
1218.14 -693.40 1807.1
1262.08 -715.66 1865.1
1278.92 -722.44 1882.8
1270.13 -704.04 1834.9
1293.61 -714.38 1861.8
1244.08 -684.47 1783.9
1253.77 -682.20 1777.9
1294.47 -701.77 1828.9
1246.92 -673.52 1755.3
1225.14 -659.35 1718.4
1266.46 -662.32 1726.1
1350.69 -698.96 1821.6
1327.06 -684.34 1783.5
1429.46 -722.05 1881.8
1418.21 -713.93 1860.6
1341.21 -672.88 1753.6
1432.43 -713.81 1860.3
1497.62 -743.78 1938.4
1454.60 -720.00 1876.5
1449.56 -715.12 1863.7
1519.85 -747.30 1947.6
1565.03 -759.42 1979.2
1589.28 -763.68 1990.3
-1788.87 -876.78 2269.7
-1713.68 -856.84 2218.1
-1678.04 -856.26 2216.6
-1651.86 -857.59 2220.0
-1621.23 -844.63 2186.5
-1630.45 -852.41 2206.6
538.60 -736.26 1905.9
551.70 -747.31 1934.5
602.64 -724.14 1874.6
735.26 -745.26 1929.2
782.57 -747.46 1934.9
817.49 -775.83 2008.4
811.49 -760.46 1968.6
829.52 -762.96 1975.1
840.59 -763.71 1977.0
868.80 -779.83 2018.7
850.62 -745.54 1930.0
862.53 -751.57 1945.6
811.15 -702.68 1819.0
870.08 -732.44 1896.1
895.97 -750.00 1941.5
907.76 -755.62 1956.1
892.07 -738.44 1911.6
890.76 -721.32 1867.3
901.74 -726.26 1880.1
938.61 -751.90 1946.4
952.69 -759.10 1965.1
946.98 -750.54 1942.9
939.03 -736.39 1906.3
951.91 -742.59 1922.3
956.43 -742.23 1921.4
985.05 -760.48 1968.6
955.88 -730.39 1890.7
953.88 -725.15 1877.2
989.72 -737.34 1908.7
989.79 -733.72 1899.4
1024.51 -723.47 1872.8
1017.40 -715.06 1851.1
1026.24 -717.88 1858.4
1024.57 -687.66 1780.1
1057.11 -706.32 1828.4
1089.99 -715.46 1852.1
1058.23 -685.55 1774.7
1081.74 -697.75 1806.2
1158.17 -716.05 1853.6
1163.77 -716.54 1854.9
1142.52 -700.56 1813.5
1113.49 -679.96 1760.2
1138.26 -683.87 1770.3
1138.01 -680.98 1762.8
1182.24 -704.61 1824.0
1241.01 -728.00 1884.6
1195.74 -698.69 1808.7
1201.46 -696.56 1803.2
1237.64 -714.76 1850.3
1244.81 -716.12 1853.8
1261.56 -722.97 1871.5
1265.82 -719.87 1863.5
1291.59 -720.78 1865.9
1285.75 -714.84 1850.5
1237.19 -680.22 1760.9
1240.37 -679.47 1758.9
1257.05 -673.74 1744.1
1285.33 -686.43 1777.0
1302.33 -676.12 1750.3
1305.39 -675.36 1748.3
1326.77 -684.04 1770.8
1374.51 -696.60 1803.3
1423.45 -714.12 1848.6
1472.79 -736.40 1906.3
1419.79 -707.52 1831.5
1385.31 -688.04 1781.1
1518.31 -736.90 1907.6
1621.13 -771.72 1997.7
1656.47 -786.03 2034.8
-1761.81 -869.31 2235.4
-1770.12 -894.00 2298.9
-1696.95 -859.94 2211.3
-1668.62 -860.11 2211.7
-1719.88 -895.77 2303.4
-1708.97 -896.31 2304.8
-1656.71 -871.95 2242.2
-1578.56 -854.82 2198.1
-1573.51 -855.17 2199.0
199.75 -832.30 2140.2
600.58 -738.42 1898.8
613.93 -742.65 1909.7
708.84 -738.38 1898.7
719.51 -744.32 1914.0
721.26 -741.02 1905.5
733.04 -737.96 1897.6
773.85 -773.85 1989.9
769.85 -759.72 1953.6
736.19 -712.45 1832.0
783.52 -748.59 1924.9
796.80 -756.45 1945.2
813.39 -767.34 1973.2
822.89 -771.46 1983.7
810.31 -754.95 1941.3
860.70 -777.74 1999.9
851.50 -751.32 1932.0
842.19 -717.77 1845.7
846.23 -717.15 1844.1
855.41 -720.85 1853.6
886.45 -742.84 1910.2
889.42 -741.19 1905.9
926.29 -763.43 1963.1
917.61 -752.14 1934.1
936.80 -731.88 1882.0
953.07 -740.73 1904.7
948.63 -733.48 1886.1
924.93 -711.49 1829.5
932.23 -713.44 1834.6
980.35 -727.98 1871.9
998.72 -720.23 1852.0
1029.90 -735.64 1891.6
1005.17 -714.58 1837.5
1006.21 -711.94 1830.7
1029.65 -725.10 1864.6
1027.49 -720.20 1852.0
1031.74 -719.82 1851.0
1022.55 -710.11 1826.0
1023.45 -704.21 1810.8
1019.63 -698.38 1795.8
994.72 -669.10 1720.5
1011.98 -677.67 1742.6
1036.01 -690.67 1776.0
1061.12 -704.29 1811.0
1085.22 -713.96 1835.9
1060.30 -694.52 1785.9
1102.71 -719.16 1849.3
1110.26 -720.95 1853.9
1084.09 -700.92 1802.4
1097.95 -706.83 1817.6
1125.21 -700.34 1800.9
1130.20 -700.54 1801.4
1163.55 -718.24 1846.9
1190.98 -732.16 1882.7
1143.14 -699.88 1799.7
1137.22 -690.62 1775.9
1154.49 -698.28 1795.6
1156.36 -696.60 1791.3
1205.27 -723.16 1859.6
1206.72 -721.15 1854.4
1201.05 -695.59 1788.7
1228.32 -708.65 1822.2
1234.90 -709.71 1825.0
1189.61 -681.07 1751.3
1173.53 -669.32 1721.1
1202.52 -680.67 1750.3
1211.14 -682.97 1756.2
1253.93 -704.46 1811.5
1243.65 -696.07 1789.9
1291.21 -714.69 1837.8
1307.72 -721.17 1854.4
1250.50 -687.09 1766.8
1309.15 -703.84 1809.9
1339.27 -717.47 1844.9
1326.55 -681.44 1752.3
1322.64 -677.12 1741.2
1474.01 -734.55 1888.9
1570.18 -777.32 1998.8
1483.34 -727.13 1869.8
1471.58 -719.01 1848.9
1609.42 -776.25 1996.1
1673.31 -801.91 2062.0
1671.33 -793.35 2040.0
-1729.21 -847.76 2165.5
-1728.39 -855.70 2185.8
-1701.25 -853.45 2180.1
-1771.08 -894.43 2284.7
-1729.80 -876.51 2239.0
-1744.62 -887.00 2265.7
-1726.20 -880.59 2249.4
-1704.74 -878.55 2244.2
-1691.64 -874.78 2234.5
-1711.33 -888.01 2268.3
-1670.68 -869.91 2222.1
-1639.91 -856.84 2188.7
-1716.58 -900.01 2299.0
-1649.48 -873.94 2232.4
-1610.03 -871.38 2225.9
144.02 -836.44 2136.6
178.23 -841.05 2148.4
529.52 -761.50 1945.2
542.02 -737.34 1883.5
544.74 -734.43 1876.0
547.69 -731.87 1869.5
607.44 -751.83 1920.5
634.63 -754.56 1927.5
638.02 -752.66 1922.6
634.74 -731.64 1868.9
698.52 -742.79 1897.4
707.09 -716.58 1830.4
721.84 -726.65 1856.2
745.61 -745.61 1904.6
777.52 -772.41 1973.0
776.07 -760.95 1943.8
770.67 -750.79 1917.8
779.61 -754.62 1927.6
795.33 -764.93 1953.9
824.06 -777.71 1986.6
827.81 -776.39 1983.2
789.34 -722.37 1845.2
864.91 -768.24 1962.4
846.75 -743.37 1898.9
843.91 -724.03 1849.5
855.04 -729.44 1863.3
850.04 -721.10 1842.0
864.77 -729.50 1863.4
842.14 -706.46 1804.6
876.94 -727.57 1858.5
936.27 -721.31 1842.5
931.58 -714.05 1824.0
975.39 -718.46 1835.2
997.46 -731.15 1867.6
997.31 -727.51 1858.3
989.94 -718.66 1835.7
990.59 -715.69 1828.2
1015.61 -730.27 1865.4
1021.27 -730.86 1866.9
1019.64 -726.25 1855.1
1021.27 -720.62 1840.7
1008.45 -708.26 1809.2
1015.37 -709.82 1813.2
1008.39 -701.69 1792.4
988.83 -669.57 1710.3
1007.96 -679.48 1735.7
1034.35 -694.16 1773.2
1076.78 -713.13 1821.6
1093.94 -721.33 1842.6
1092.26 -717.09 1831.7
1056.92 -690.89 1764.8
1132.97 -715.81 1828.5
1127.37 -700.55 1789.5
1115.09 -690.07 1762.7
1202.14 -695.49 1776.6
1201.69 -692.58 1769.1
1227.47 -704.75 1800.2
1236.71 -707.36 1806.9
1197.42 -679.74 1736.3
1209.27 -683.89 1746.9
1220.07 -687.43 1756.0
1267.42 -706.20 1803.9
1306.92 -725.53 1853.3
1272.30 -703.73 1797.6
1265.36 -692.28 1768.4
1255.19 -684.24 1747.8
1329.95 -714.67 1825.6
1294.92 -693.38 1771.2
1311.36 -692.36 1768.6
1308.76 -688.58 1758.9
1320.97 -692.59 1769.2
1313.76 -686.43 1753.4
1382.81 -715.08 1826.6
1372.11 -707.13 1806.3
1327.76 -681.95 1742.0
1480.21 -742.57 1896.8
1491.00 -740.60 1891.8
1500.92 -740.65 1891.9
1457.64 -716.95 1831.4
1645.74 -799.06 2041.1
1621.13 -782.08 1997.7
1617.78 -777.98 1987.3
1661.58 -791.48 2021.8
1673.40 -794.60 2029.7
-1803.44 -867.48 2201.3
-1770.26 -859.68 2181.5
-1768.97 -867.37 2201.0
-1712.11 -847.69 2151.1
-1748.89 -868.73 2204.5
-1771.62 -885.81 2247.8
-1771.41 -903.54 2292.8
-1762.24 -901.89 2288.6
-1722.87 -884.71 2245.0
-1727.98 -896.43 2274.8
-1680.58 -880.86 2235.3
-1625.27 -866.81 2199.6
-1591.19 -866.88 2199.8
145.34 -849.65 2156.1
155.93 -846.46 2148.0
204.19 -838.82 2128.6
513.57 -757.89 1923.2
521.91 -762.79 1935.7
526.87 -762.71 1935.5
537.51 -729.48 1851.1
566.17 -761.58 1932.6
618.50 -746.13 1893.4
630.01 -731.00 1855.0
692.46 -741.22 1880.9
727.50 -742.15 1883.3
788.35 -778.11 1974.5
791.17 -765.97 1943.7
779.90 -750.29 1903.9
802.58 -726.14 1842.7
775.72 -697.69 1770.5
784.21 -701.17 1779.3
837.72 -744.64 1889.6
857.99 -758.23 1924.1
851.48 -735.37 1866.1
844.58 -725.29 1840.5
847.88 -715.99 1816.9
956.96 -769.62 1953.0
929.07 -743.26 1886.1
940.91 -744.89 1890.2
903.96 -701.03 1778.9
936.91 -722.90 1834.4
961.91 -738.43 1873.8
987.06 -753.93 1913.2
961.97 -731.10 1855.2
991.18 -738.53 1874.1
979.13 -725.99 1842.3
961.77 -706.22 1792.1
960.10 -701.61 1780.4
994.70 -716.56 1818.3
968.93 -681.84 1730.2
1006.30 -704.88 1788.7
1019.90 -695.18 1764.1
1050.06 -712.54 1808.1
1066.56 -720.52 1828.4
1061.60 -714.00 1811.8
1087.31 -728.07 1847.5
1092.72 -725.30 1840.5
1055.62 -697.63 1770.3
1059.67 -682.50 1731.9
1116.65 -716.16 1817.3
1131.76 -716.78 1818.9
1149.36 -724.91 1839.5
1165.52 -732.06 1857.7
1190.00 -732.31 1858.3
1135.44 -684.87 1737.9
1178.83 -708.23 1797.2
1161.77 -687.11 1743.6
1227.24 -709.28 1799.9
1241.84 -715.00 1814.4
1267.73 -713.68 1811.0
1283.60 -719.95 1827.0
1288.56 -720.08 1827.3
1264.92 -704.28 1787.2
1250.54 -686.22 1741.3
1300.99 -711.34 1805.1
1261.53 -684.83 1737.8
1288.19 -696.81 1768.2
1309.88 -706.04 1791.6
1318.13 -707.97 1796.5
1298.51 -685.32 1739.1
1331.28 -700.19 1776.8
1348.13 -706.61 1793.1
1414.01 -733.55 1861.4
1379.04 -712.98 1809.2
1358.97 -700.21 1776.9
1413.98 -723.66 1836.3
1370.43 -699.01 1773.8
1399.34 -709.00 1799.2
1444.11 -729.25 1850.5
1482.82 -743.86 1887.6
1572.74 -783.79 1988.9
1595.31 -782.22 1984.9
-1767.37 -872.28 2199.0
-1726.65 -857.72 2162.3
-1756.93 -875.60 2207.4
-1765.10 -882.55 2224.9
-1711.40 -884.61 2230.1
-1723.21 -893.73 2253.1
-1707.58 -897.80 2263.4
-1732.28 -913.93 2304.0
-1711.12 -905.89 2283.7
-1597.49 -872.92 2200.6
149.28 -845.89 2132.5
154.44 -843.92 2127.5
158.89 -838.26 2113.3
166.43 -848.79 2139.8
184.15 -805.00 2029.4
189.11 -803.74 2026.2
534.78 -779.24 1964.5
567.81 -768.80 1938.2
553.91 -736.94 1857.8
582.61 -768.44 1937.3
616.73 -760.97 1918.4
635.66 -765.79 1930.6
703.24 -747.19 1883.7
714.85 -754.29 1901.6
699.32 -732.85 1847.5
687.55 -715.61 1804.1
765.65 -775.79 1955.8
759.12 -764.11 1926.3
770.09 -770.09 1941.4
773.12 -768.10 1936.4
778.93 -768.88 1938.3
759.40 -744.80 1877.6
746.32 -727.31 1833.6
735.17 -711.91 1794.7
798.21 -726.94 1832.6
813.98 -736.92 1857.8
793.09 -713.78 1799.4
840.91 -735.20 1853.4
866.07 -752.89 1898.0
846.85 -719.82 1814.7
866.00 -732.03 1845.5
894.63 -743.90 1875.4
914.98 -756.71 1907.7
906.11 -733.51 1849.2
930.05 -748.94 1888.1
959.60 -768.69 1937.9
968.36 -771.66 1945.4
907.56 -719.47 1813.8
916.12 -715.14 1802.9
949.53 -737.45 1859.1
937.09 -724.12 1825.5
986.94 -740.21 1866.1
954.07 -712.06 1795.1
961.33 -680.94 1716.7
1014.41 -715.23 1803.1
1037.34 -714.93 1802.3
1022.51 -701.54 1768.6
1037.61 -699.36 1763.1
1084.47 -727.73 1834.6
1080.87 -722.15 1820.5
1061.21 -705.93 1779.7
1117.39 -721.35 1818.5
1147.81 -737.88 1860.2
1115.00 -713.78 1799.5
1136.04 -718.24 1810.7
1096.58 -690.44 1740.6
1155.14 -721.37 1818.6
1107.19 -672.22 1694.7
1159.53 -687.63 1733.5
1182.89 -698.77 1761.6
1168.80 -669.76 1688.5
1196.30 -682.96 1721.8
1273.97 -724.60 1826.7
1268.03 -718.55 1811.5
1232.50 -695.84 1754.2
1255.97 -706.48 1781.0
1247.65 -699.23 1762.8
1218.87 -680.61 1715.8
1233.67 -681.41 1717.9
1292.41 -711.29 1793.2
1280.54 -702.23 1770.3
1285.48 -697.44 1758.3
1352.78 -716.18 1805.5
1351.34 -712.95 1797.3
1351.59 -710.63 1791.5
1407.65 -737.57 1859.4
1413.17 -737.94 1860.3
1378.81 -717.54 1808.9
1374.16 -707.90 1784.6
1386.55 -711.89 1794.7
1411.24 -722.14 1820.5
1425.48 -726.99 1832.8
1431.11 -725.03 1827.8
1500.84 -757.85 1910.5
1425.07 -707.91 1784.6
1625.53 -802.28 2022.5
1607.27 -785.66 1980.7
1529.74 -743.02 1873.2
1643.94 -793.45 2000.3
-1766.16 -883.08 2211.8
-1768.98 -896.13 2244.5
-1675.14 -889.56 2228.0
-1631.84 -869.56 2177.9
-1602.64 -875.20 2192.1
-1629.57 -893.07 2236.8
154.84 -851.64 2133.1
156.66 -831.90 2083.6
170.16 -845.29 2117.2
176.38 -848.84 2126.0
178.69 -833.89 2088.6
214.66 -806.27 2019.4
521.28 -771.90 1933.3
503.46 -724.61 1814.9
561.59 -779.14 1951.5
562.92 -774.01 1938.6
560.51 -763.88 1913.3
566.53 -752.11 1883.8
593.61 -774.71 1940.4
596.52 -765.53 1917.4
607.81 -773.58 1937.5
597.50 -754.22 1889.1
588.09 -736.31 1844.2
606.50 -753.24 1886.6
607.82 -748.83 1875.6
605.02 -733.65 1837.5
630.87 -759.02 1901.1
643.74 -762.58 1910.0
651.25 -765.60 1917.5
646.68 -754.46 1889.7
631.91 -731.69 1832.6
650.65 -731.38 1831.8
668.48 -745.99 1868.4
681.09 -754.59 1890.0
683.90 -752.29 1884.2
662.24 -723.30 1811.6
666.09 -717.32 1796.6
713.49 -763.03 1911.1
720.87 -765.62 1917.6
702.41 -740.90 1855.7
688.34 -721.12 1806.1
748.18 -748.18 1873.9
758.74 -753.84 1888.1
748.96 -739.36 1851.8
739.88 -707.71 1772.6
811.10 -739.11 1851.2
813.70 -737.11 1846.2
837.56 -737.05 1846.0
872.44 -763.39 1912.0
875.86 -762.04 1908.6
872.54 -742.38 1859.4
870.17 -736.30 1844.2
853.86 -714.65 1789.9
913.89 -760.75 1905.4
932.31 -771.91 1933.4
904.05 -744.51 1864.7
889.09 -728.30 1824.1
886.80 -722.58 1809.8
887.77 -719.56 1802.2
912.52 -735.75 1842.8
912.68 -732.04 1833.5
894.68 -713.89 1788.0
903.56 -717.26 1796.5
930.84 -727.66 1822.5
925.23 -719.62 1802.4
923.31 -703.91 1763.0
975.63 -712.07 1783.5
962.88 -696.17 1743.6
979.28 -704.72 1765.1
967.26 -692.83 1735.3
971.26 -692.48 1734.4
1025.00 -714.25 1788.9
1025.31 -711.25 1781.4
1008.08 -696.16 1743.6
992.60 -682.41 1709.2
1029.83 -695.58 1742.2
1044.40 -702.35 1759.1
1045.47 -700.01 1753.3
1081.51 -721.00 1805.9
1081.18 -717.68 1797.5
1125.72 -716.36 1794.2
1153.87 -725.29 1816.6
1143.09 -715.59 1792.3
1150.79 -711.73 1782.6
1169.65 -720.51 1804.6
1142.56 -701.02 1755.8
1125.14 -687.59 1722.2
1156.67 -690.42 1729.2
1181.07 -702.26 1758.9
1145.61 -678.55 1699.5
1192.47 -700.92 1755.5
1193.58 -698.90 1750.5
1180.50 -680.89 1705.4
1206.94 -693.54 1737.1
1238.38 -708.96 1775.7
1213.00 -686.77 1720.1
1230.39 -694.07 1738.4
1229.13 -690.83 1730.3
1300.12 -725.43 1816.9
1251.78 -695.93 1743.1
1276.27 -696.97 1745.7
1301.13 -693.34 1736.6
1303.01 -691.95 1733.1
1301.44 -688.73 1725.0
1349.29 -711.61 1782.3
1346.04 -707.48 1772.0
1302.88 -682.46 1709.3
1325.52 -691.96 1733.1
1374.93 -715.33 1791.7
1389.64 -720.55 1804.7
1401.47 -724.25 1814.0
1385.88 -713.80 1787.8
1357.89 -697.05 1745.9
1429.10 -728.75 1825.2
1389.16 -706.04 1768.4
1402.19 -710.32 1779.1
1517.91 -763.92 1913.3
1467.14 -733.57 1837.3
1581.53 -785.66 1967.8
1453.53 -719.76 1802.7
1510.75 -738.59 1849.9
-1784.09 -877.88 2184.6
-1695.80 -842.47 2096.5
-1756.31 -881.00 2192.3
-1721.09 -866.13 2155.4
-1769.57 -896.35 2230.6
-1752.21 -890.47 2215.9
-1681.45 -865.87 2154.7
-1744.50 -901.32 2242.9
-1725.47 -912.79 2271.5
-1672.10 -887.59 2208.7
-1666.69 -890.82 2216.8
-1693.65 -908.36 2260.4
-1654.95 -890.68 2216.5
-1643.76 -890.85 2216.9
-1603.37 -884.42 2200.9
158.22 -817.45 2034.2
167.85 -839.24 2088.4
172.92 -837.60 2084.4
174.26 -818.49 2036.8
192.03 -804.46 2001.9
206.01 -840.30 2091.1
209.42 -832.32 2071.2
207.27 -803.18 1998.7
310.18 -763.13 1899.0
336.70 -778.94 1938.4
496.39 -754.32 1877.1
514.29 -766.49 1907.4
501.91 -720.34 1792.5
543.55 -772.93 1923.4
560.34 -782.46 1947.1
566.61 -784.15 1951.3
569.23 -780.80 1943.0
559.90 -761.26 1894.4
577.86 -734.17 1827.0
578.81 -729.40 1815.1
600.29 -750.36 1867.2
605.02 -750.22 1866.9
616.50 -752.43 1872.4
617.11 -747.29 1859.6
619.46 -732.95 1823.9
646.46 -759.10 1889.0
676.41 -765.29 1904.4
673.67 -735.34 1829.9
704.82 -753.42 1874.9
706.49 -750.05 1866.5
712.13 -750.89 1868.6
763.88 -754.15 1876.7
764.88 -745.64 1855.5
758.29 -734.60 1828.0
765.30 -736.78 1833.5
754.55 -721.94 1796.5
796.23 -743.47 1850.1
791.79 -734.89 1828.8
797.16 -718.37 1787.7
854.14 -765.27 1904.3
830.92 -740.19 1842.0
831.23 -732.05 1821.7
876.28 -750.40 1867.4
872.32 -742.91 1848.7
837.66 -709.49 1765.6
840.68 -708.18 1762.3
879.05 -736.50 1832.8
921.41 -767.84 1910.8
923.07 -765.11 1904.0
905.74 -746.75 1858.3
903.11 -740.65 1843.1
881.71 -719.29 1789.9
884.71 -717.96 1786.6
902.23 -699.23 1740.0
953.33 -735.16 1829.4
955.42 -733.12 1824.4
915.36 -698.92 1739.3
937.47 -695.25 1730.1
950.07 -701.24 1745.0
983.17 -712.11 1772.1
997.36 -719.03 1789.3
991.33 -711.37 1770.2
1002.69 -703.25 1750.0
1033.42 -711.91 1771.6
1047.47 -718.40 1787.7
1053.44 -719.31 1790.0
1042.10 -708.45 1763.0
1108.22 -740.40 1842.5
1106.30 -729.69 1815.8
1113.32 -731.20 1819.6
1064.87 -696.44 1733.1
1088.89 -700.32 1742.7
1123.96 -719.89 1791.4
1155.06 -727.78 1811.1
1162.62 -729.58 1815.5
1148.16 -717.60 1785.7
1180.86 -735.07 1829.2
1195.17 -741.00 1844.0
1162.49 -717.87 1786.4
1182.99 -727.63 1810.7
1175.50 -720.17 1792.1
1122.12 -682.08 1697.3
1162.02 -703.57 1750.8
1166.36 -703.45 1750.5
1187.04 -713.14 1774.6
1178.72 -705.41 1755.4
1160.25 -691.69 1721.3
1176.75 -698.84 1739.0
1214.64 -718.58 1788.2
1203.51 -709.29 1765.1
1309.27 -735.28 1829.7
1262.65 -706.54 1758.2
1312.27 -696.58 1733.4
1286.47 -680.56 1693.6
1347.88 -708.21 1762.4
1377.01 -721.07 1794.4
1371.37 -715.70 1781.0
1379.09 -717.31 1785.0
1326.66 -685.44 1705.7
1468.23 -753.56 1875.2
1345.89 -686.22 1707.7
1432.85 -725.79 1806.1
1460.46 -730.23 1817.2
1531.63 -753.66 1875.5
-1765.63 -879.99 2175.8
-1742.82 -871.41 2154.6
-1705.17 -858.09 2121.6
-1730.85 -873.83 2160.6
-1703.11 -885.62 2189.7
-1655.08 -878.20 2171.4
-1717.53 -914.45 2261.0
-1658.25 -892.03 2205.6
-1692.65 -916.85 2266.9
-1561.63 -882.66 2182.4
-1568.72 -889.89 2200.3
147.05 -819.27 2025.7
159.30 -828.34 2048.1
170.37 -857.36 2119.8
176.91 -862.44 2132.4
178.45 -843.59 2085.8
186.97 -810.22 2003.3
197.35 -832.08 2057.3
208.77 -835.08 2064.8
231.89 -822.16 2032.8
239.01 -810.56 2004.1
241.56 -801.77 1982.4
287.46 -800.77 1979.9
320.79 -781.93 1933.3
330.69 -769.96 1903.7
334.37 -767.07 1896.6
464.34 -724.38 1791.0
481.47 -743.66 1838.7
473.40 -716.99 1772.8
494.77 -735.08 1817.5
498.21 -733.21 1812.9
496.89 -724.43 1791.2
527.12 -761.39 1882.6
522.06 -747.16 1847.4
560.62 -773.96 1913.6
572.78 -776.99 1921.1
544.10 -731.72 1809.2
607.39 -758.03 1874.2
621.70 -769.72 1903.2
622.13 -764.19 1889.5
619.02 -731.57 1808.8
657.68 -771.42 1907.3
647.18 -742.35 1835.5
687.34 -755.11 1867.0
700.12 -763.77 1888.4
668.85 -724.58 1791.6
681.54 -733.25 1813.0
730.10 -780.11 1928.8
734.63 -774.34 1914.6
712.06 -745.51 1843.3
748.60 -763.27 1887.2
789.92 -789.92 1953.1
772.46 -767.54 1897.8
747.30 -737.84 1824.3
738.93 -724.99 1792.6
754.60 -731.17 1807.8
764.48 -736.16 1820.2
766.42 -729.03 1802.6
777.46 -735.06 1817.4
800.37 -725.92 1794.8
824.12 -738.86 1826.9
856.39 -746.35 1845.4
896.16 -776.67 1920.3
896.36 -772.55 1910.2
870.06 -745.77 1843.9
864.99 -729.39 1803.4
921.53 -772.90 1911.0
920.10 -755.45 1867.9
940.27 -756.09 1869.5
951.46 -761.16 1882.0
922.64 -734.34 1815.7
902.95 -715.02 1767.9
901.10 -709.96 1755.4
900.70 -702.55 1737.1
962.64 -747.13 1847.3
975.69 -753.51 1863.1
962.34 -701.52 1734.5
978.75 -710.16 1755.9
974.96 -704.14 1741.0
986.84 -709.43 1754.1
1009.43 -722.35 1786.0
992.10 -706.70 1747.3
987.70 -700.37 1731.7
1009.96 -712.92 1762.7
999.40 -692.92 1713.3
1063.49 -727.65 1799.1
1022.23 -696.36 1721.8
1053.44 -702.30 1736.4
1090.30 -723.77 1789.5
1111.57 -734.77 1816.7
1106.72 -728.47 1801.2
1060.58 -695.17 1718.8
1082.14 -700.47 1731.9
1104.10 -711.73 1759.8
1142.30 -733.33 1813.2
1146.38 -721.11 1783.0
1182.65 -740.94 1832.0
1133.32 -704.37 1741.6
1156.02 -712.80 1762.4
1132.78 -695.72 1720.2
1106.24 -676.76 1673.3
1163.24 -695.27 1719.1
1174.42 -699.27 1729.0
1198.47 -710.88 1757.7
1195.29 -706.31 1746.4
1248.01 -702.85 1737.8
1245.01 -698.64 1727.4
1322.55 -704.16 1741.0
1400.58 -743.17 1837.5
1407.80 -744.47 1840.7
1376.77 -725.60 1794.1
1385.08 -727.52 1798.8
1406.80 -736.45 1820.9
1463.25 -755.85 1868.9
1464.27 -751.40 1857.9
1363.94 -697.62 1724.9
1424.31 -726.12 1795.4
1520.44 -755.38 1867.7
1515.67 -750.62 1855.9
1529.61 -755.12 1867.1
-1692.51 -848.96 2085.7
-1695.64 -853.26 2096.3
-1711.95 -867.02 2130.1
-1767.98 -898.29 2206.9
-1716.71 -875.08 2149.9
-1657.98 -853.45 2096.7
-1670.39 -904.31 2221.7
-1623.74 -882.10 2167.1
-1578.45 -881.91 2166.7
-1537.76 -862.24 2118.3
-1584.40 -901.27 2214.2
-1571.04 -896.92 2203.5
96.71 -799.17 1963.4
154.84 -810.34 1990.8
174.76 -857.42 2106.5
180.40 -833.04 2046.6
181.49 -814.09 2000.1
187.15 -816.18 2005.2
197.00 -835.92 2053.7
224.83 -820.89 2016.8
236.60 -807.53 1983.9
264.02 -812.78 1996.8
267.14 -806.55 1981.5
268.41 -795.09 1953.4
279.54 -797.97 1960.4
285.74 -801.08 1968.1
292.48 -765.33 1880.2
299.00 -769.54 1890.6
331.50 -754.28 1853.1
367.41 -779.49 1915.0
473.43 -750.80 1844.6
466.52 -732.43 1799.4
495.57 -740.99 1820.5
517.02 -765.78 1881.4
533.55 -782.87 1923.3
542.74 -788.98 1938.3
518.32 -746.57 1834.2
503.62 -718.80 1765.9
566.96 -787.73 1935.3
560.59 -765.32 1880.2
542.57 -734.34 1804.1
566.92 -760.74 1869.0
574.41 -764.26 1877.6
572.33 -748.80 1839.6
583.98 -757.73 1861.6
624.15 -748.03 1837.7
629.09 -748.23 1838.2
646.97 -752.40 1848.5
657.82 -759.40 1865.7
665.35 -746.15 1833.1
673.15 -749.53 1841.4
693.24 -766.47 1883.0
691.44 -759.13 1865.0
704.04 -757.08 1860.0
700.67 -748.34 1838.5
704.57 -747.42 1836.2
693.97 -731.23 1796.5
731.52 -760.59 1868.6
731.14 -745.39 1831.3
765.19 -746.18 1833.2
767.87 -744.17 1828.3
749.02 -721.45 1772.4
747.87 -715.95 1758.9
773.07 -726.77 1785.5
782.34 -722.51 1775.1
802.61 -736.90 1810.4
800.52 -730.70 1795.2
808.32 -733.56 1802.2
804.98 -726.33 1784.4
890.10 -780.70 1918.0
886.75 -773.44 1900.2
844.26 -732.31 1799.1
857.39 -739.61 1817.1
840.38 -713.19 1752.1
873.53 -737.34 1811.5
905.30 -748.06 1837.8
911.32 -749.10 1840.4
892.65 -729.93 1793.3
913.30 -742.94 1825.2
951.81 -770.28 1892.4
940.57 -757.28 1860.5
928.34 -743.62 1826.9
925.80 -737.82 1812.7
902.15 -715.34 1757.4
957.95 -733.65 1802.4
948.40 -695.79 1709.4
1026.34 -742.56 1824.3
1017.07 -732.47 1799.5
973.71 -698.05 1715.0
1010.22 -711.23 1747.3
1058.68 -732.21 1798.9
1072.35 -738.42 1814.1
1036.94 -710.91 1746.6
1028.72 -690.21 1695.7
1053.68 -703.95 1729.4
1069.29 -705.37 1732.9
1120.95 -736.36 1809.1
1093.52 -715.34 1757.4
1086.92 -708.07 1739.6
1096.82 -711.57 1748.2
1122.38 -725.16 1781.6
1092.74 -700.25 1720.3
1104.68 -699.33 1718.1
1153.64 -727.39 1787.0
1166.12 -729.40 1792.0
1148.67 -696.30 1710.7
1192.12 -719.85 1768.5
1168.33 -702.79 1726.6
1177.92 -705.86 1734.1
1202.50 -717.84 1763.6
1183.81 -704.01 1729.6
1142.98 -677.16 1663.6
1222.50 -716.16 1759.5
1195.33 -697.65 1714.0
1179.42 -685.81 1684.9
1201.58 -696.12 1710.2
1187.74 -685.57 1684.3
1215.06 -693.69 1704.2
1314.57 -737.10 1810.9
1271.08 -702.67 1726.3
1289.38 -710.29 1745.0
1266.98 -695.51 1708.7
1312.65 -710.64 1745.9
1316.27 -710.15 1744.7
1317.01 -708.12 1739.7
1369.51 -733.83 1802.9
1384.17 -739.16 1816.0
1330.66 -708.18 1739.8
1360.88 -721.82 1773.4
1434.19 -758.14 1862.6
1409.45 -742.56 1824.3
1405.17 -735.37 1806.6
1473.85 -768.75 1888.7
1445.95 -751.70 1846.8
1425.55 -738.65 1814.7
1439.82 -743.59 1826.8
1451.18 -747.00 1835.2
1583.38 -791.69 1945.0
1523.92 -754.75 1854.3
-1730.84 -865.42 2112.7
-1750.38 -889.26 2170.9
-1766.06 -908.92 2218.9
-1756.21 -909.78 2221.0
-1664.66 -865.18 2112.1
-1706.94 -890.09 2172.9
-1667.77 -887.23 2165.9
-1665.77 -889.16 2170.6
-1687.44 -903.78 2206.3
-1730.31 -929.90 2270.1
-1713.72 -924.12 2256.0
-1696.61 -918.03 2241.1
-1654.35 -898.24 2192.8
-1602.24 -875.96 2138.4
-1552.74 -869.98 2123.8
-1559.47 -899.26 2195.3
-1565.16 -909.17 2219.5
-1428.97 -868.37 2119.9
-197.65 -821.81 2006.2
-166.51 -848.65 2071.7
-100.41 -834.96 2038.3
98.49 -819.06 1999.5
103.24 -815.56 1991.0
109.64 -824.93 2013.8
129.68 -819.57 2000.8
140.46 -821.97 2006.6
159.61 -813.49 1985.9
175.21 -790.97 1930.9
182.16 -799.49 1951.7
190.63 -814.05 1987.3
201.28 -836.91 2043.1
231.31 -812.15 1982.7
231.83 -779.34 1902.5
244.25 -803.98 1962.7
258.69 -801.42 1956.5
259.35 -788.02 1923.7
284.42 -802.46 1959.0
290.76 -805.96 1967.5
296.18 -806.83 1969.6
295.58 -791.55 1932.3
294.36 -775.15 1892.3
294.39 -762.51 1861.5
295.28 -752.49 1837.0
331.12 -804.87 1964.9
332.34 -795.59 1942.2
323.15 -750.85 1833.0
341.17 -781.22 1907.1
379.85 -779.43 1902.8
383.69 -777.23 1897.4
386.21 -762.77 1862.1
394.16 -759.48 1854.1
407.95 -767.33 1873.2
432.03 -758.46 1851.6
432.35 -750.67 1832.6
473.26 -755.30 1843.9
466.82 -737.57 1800.6
472.40 -739.01 1804.1
492.03 -762.17 1860.6
508.94 -758.61 1851.9
510.96 -754.50 1841.9
508.42 -743.79 1815.8
529.33 -753.47 1839.4
563.11 -794.38 1939.3
559.16 -781.83 1908.6
539.23 -747.35 1824.5
572.14 -779.30 1902.4
573.20 -774.07 1889.7
557.58 -746.59 1822.6
563.33 -747.95 1825.9
585.13 -770.42 1880.8
582.38 -760.46 1856.5
585.11 -745.54 1820.0
631.65 -739.27 1804.7
668.83 -765.76 1869.4
676.36 -768.81 1876.8
692.83 -781.91 1908.8
709.05 -783.42 1912.5
705.09 -768.30 1875.6
682.31 -738.39 1802.6
672.17 -722.47 1763.7
731.28 -765.18 1868.0
711.23 -739.31 1804.8
763.49 -783.32 1912.3
743.11 -738.44 1802.7
753.30 -717.00 1750.4
776.92 -735.05 1794.4
771.58 -725.66 1771.5
755.24 -706.08 1723.7
767.38 -713.21 1741.1
808.06 -746.63 1822.7
813.45 -742.92 1813.6
791.26 -718.50 1754.0
796.29 -718.93 1755.1
819.21 -735.43 1795.3
824.33 -735.84 1796.4
865.58 -768.32 1875.7
851.58 -747.50 1824.8
891.17 -745.00 1818.7
935.31 -777.79 1898.8
923.97 -764.33 1865.9
885.71 -728.86 1779.3
929.35 -749.17 1828.9
910.16 -729.97 1782.0
967.99 -749.72 1830.2
957.01 -734.02 1791.9
985.29 -714.11 1743.3
976.28 -704.35 1719.5
986.77 -708.68 1730.0
1058.57 -750.02 1831.0
1055.63 -744.59 1817.7
1046.46 -728.37 1778.1
1076.41 -745.93 1821.0
1068.00 -736.87 1798.9
1067.66 -720.90 1759.9
1116.71 -738.24 1802.2
1116.23 -734.85 1793.9
1085.42 -699.98 1708.8
1120.22 -719.49 1756.4
1175.01 -748.60 1827.5
1149.79 -729.58 1781.1
1121.81 -708.98 1730.8
1158.12 -729.02 1779.7
1174.44 -736.35 1797.6
1126.25 -695.10 1696.9
1154.63 -709.85 1732.9
1194.37 -728.61 1778.7
1189.22 -722.68 1764.2
1175.52 -711.62 1737.2
1195.25 -720.80 1759.6
1242.27 -746.31 1821.9
1246.72 -746.14 1821.5
1182.48 -705.03 1721.1
1188.72 -700.81 1710.8
1220.59 -716.93 1750.2
1261.85 -738.42 1802.6
1279.85 -746.19 1821.6
1264.04 -734.26 1792.5
1208.12 -699.21 1706.9
1246.23 -716.02 1748.0
1296.87 -742.41 1812.4
1279.65 -729.91 1781.9
1306.71 -742.66 1813.0
1317.74 -746.25 1821.8
1234.25 -693.99 1694.2
1248.47 -699.50 1707.6
1251.50 -698.72 1705.7
1279.30 -711.72 1737.5
1288.11 -706.67 1725.1
1320.76 -722.08 1762.8
1331.27 -725.31 1770.7
1341.80 -728.54 1778.5
1351.78 -731.44 1785.6
1307.72 -705.19 1721.5
1303.32 -695.69 1698.3
1370.08 -728.86 1779.3
1348.70 -715.08 1745.7
1427.11 -751.61 1834.9
1468.29 -770.73 1881.5
1409.30 -737.32 1800.0
1418.23 -739.54 1805.4
1460.77 -759.22 1853.4
1476.30 -764.77 1867.0
1425.01 -735.79 1796.2
-1771.46 -905.67 2197.0
-1791.49 -921.84 2236.3
-1739.82 -906.99 2200.2
-1702.39 -893.34 2167.1
-1746.21 -919.36 2230.3
-1755.28 -927.21 2249.3
-1676.71 -888.65 2155.8
-1699.54 -906.80 2199.8
-1660.44 -894.95 2171.0
-1572.61 -893.02 2166.4
-1432.79 -876.21 2125.6
-210.26 -857.19 2079.4
-203.09 -849.79 2061.5
83.35 -828.31 2009.4
87.54 -818.71 1986.1
92.29 -815.20 1977.6
96.95 -811.31 1968.1
111.53 -806.07 1955.4
118.07 -816.24 1980.1
119.80 -793.69 1925.4
139.30 -820.34 1990.0
145.51 -826.30 2004.5
148.05 -811.71 1969.1
155.42 -823.74 1998.3
172.37 -830.52 2014.7
192.67 -827.95 2008.5
194.93 -815.63 1978.6
198.81 -810.52 1966.2
208.44 -828.55 2010.0
219.40 -811.28 1968.1
221.60 -765.97 1858.1
253.82 -807.13 1958.0
283.59 -791.08 1919.1
297.70 -816.11 1979.8
292.25 -774.45 1878.7
313.74 -767.45 1861.7
335.16 -807.44 1958.8
336.79 -799.24 1938.9
369.89 -763.81 1852.9
374.17 -762.73 1850.3
373.03 -750.79 1821.3
384.18 -763.56 1852.3
387.09 -759.85 1843.3
425.82 -760.73 1845.4
419.43 -740.99 1797.5
481.64 -758.23 1839.4
497.83 -768.49 1864.3
516.29 -739.54 1794.0
533.24 -743.72 1804.2
518.19 -716.45 1738.0
548.04 -732.26 1776.4
577.21 -740.13 1795.5
581.20 -739.28 1793.4
601.36 -758.86 1840.9
624.66 -782.05 1897.2
607.74 -754.93 1831.4
636.29 -743.89 1804.6
636.46 -738.66 1791.9
661.37 -762.02 1848.6
690.35 -784.04 1902.0
712.06 -780.82 1894.2
703.23 -765.85 1857.8
707.52 -765.27 1856.5
703.10 -755.36 1832.4
741.13 -775.26 1880.7
739.23 -768.22 1863.6
753.52 -777.99 1887.3
723.29 -723.29 1754.6
748.38 -743.71 1804.1
736.26 -727.11 1763.9
736.97 -723.33 1754.7
751.11 -732.68 1777.4
780.77 -743.37 1803.3
773.97 -732.50 1777.0
757.28 -712.47 1728.4
799.41 -734.72 1782.3
789.49 -721.43 1750.1
805.73 -732.06 1775.9
845.79 -764.09 1853.6
870.17 -781.68 1896.3
874.33 -781.00 1894.6
867.44 -770.52 1869.2
833.50 -736.26 1786.1
821.29 -717.50 1740.6
833.91 -724.55 1757.7
847.08 -720.24 1747.2
855.36 -723.42 1754.9
884.31 -743.94 1804.7
914.30 -765.12 1856.1
893.30 -743.64 1804.0
879.60 -728.42 1767.1
882.96 -727.41 1764.6
940.99 -763.36 1851.8
905.64 -730.95 1773.2
884.13 -699.39 1696.6
939.60 -732.34 1776.6
951.69 -738.14 1790.6
933.29 -720.35 1747.5
1005.01 -723.06 1754.1
1052.52 -747.10 1812.4
1066.13 -753.40 1827.6
1031.77 -707.12 1715.4
1085.39 -740.67 1796.8
1072.30 -728.61 1767.5
1029.65 -696.66 1690.0
1057.59 -712.53 1728.5
1112.84 -746.59 1811.1
1077.73 -720.00 1746.6
1131.49 -728.37 1766.9
1170.40 -744.38 1805.8
1149.61 -728.24 1766.6
1176.24 -742.15 1800.4
1178.10 -740.38 1796.1
1168.34 -714.49 1733.3
1219.84 -743.12 1802.7
1188.62 -721.34 1749.9
1183.34 -715.40 1735.5
1219.70 -734.59 1782.0
1209.61 -720.33 1747.4
1209.58 -717.62 1740.9
1229.56 -726.77 1763.0
1289.99 -754.08 1829.3
1216.66 -708.60 1719.0
1280.38 -732.30 1776.5
1228.53 -700.13 1698.4
1221.93 -688.96 1671.3
1261.95 -709.01 1720.0
1264.43 -707.91 1717.3
1331.63 -735.17 1783.4
1336.16 -732.58 1777.2
1293.49 -706.75 1714.5
1317.09 -700.39 1699.1
1356.19 -718.78 1743.7
1348.64 -712.40 1728.2
1341.58 -704.00 1707.8
1443.41 -754.94 1831.4
1512.88 -786.10 1907.0
1456.82 -754.51 1830.3
1504.18 -771.50 1871.6
1504.31 -769.08 1865.7
1491.24 -759.96 1843.6
1489.50 -756.65 1835.5
1524.41 -771.92 1872.6
1525.10 -769.81 1867.5
1527.57 -768.62 1864.6
-1718.57 -870.16 2097.7
-1735.67 -884.42 2132.1
-1761.88 -912.30 2199.3
-1743.83 -908.83 2190.9
-1728.39 -912.68 2200.2
-1674.83 -887.33 2139.1
-1726.15 -917.56 2212.0
-1697.28 -905.22 2182.2
-1638.79 -904.16 2179.7
-1586.86 -881.59 2125.3
-1562.66 -926.02 2232.4
-1466.00 -885.13 2133.8
-380.57 -834.13 2010.8
-233.57 -830.47 2002.0
-133.81 -856.36 2064.4
-106.49 -851.93 2053.8
-85.08 -850.75 2050.9
-79.55 -848.53 2045.6
-68.64 -844.84 2036.7
-63.11 -841.45 2028.5
-52.09 -833.51 2009.4
-47.23 -839.69 2024.2
66.90 -823.39 1985.0
71.50 -817.20 1970.0
74.52 -794.92 1916.3
83.96 -790.18 1904.9
91.69 -814.99 1964.7
97.63 -822.17 1982.0
102.86 -822.85 1983.6
107.94 -822.37 1982.5
113.27 -823.80 1985.9
115.44 -803.03 1935.9
135.95 -805.63 1942.1
141.50 -808.56 1949.2
146.25 -806.90 1945.2
156.50 -834.66 2012.1
171.03 -829.25 1999.1
192.14 -830.88 2003.0
196.11 -825.74 1990.6
205.25 -781.91 1885.0
212.44 -790.49 1905.6
253.47 -811.10 1955.3
249.74 -783.48 1888.8
259.75 -799.22 1926.7
264.92 -799.75 1928.0
272.61 -778.88 1877.7
295.33 -800.89 1930.7
297.39 -793.04 1911.8
289.38 -759.03 1829.8
298.13 -769.38 1854.7
304.18 -772.52 1862.3
312.38 -768.93 1853.7
324.41 -786.44 1895.9
375.91 -781.12 1883.0
378.79 -777.01 1873.2
371.40 -752.21 1813.4
375.56 -751.12 1810.7
384.47 -759.44 1830.8
387.11 -755.34 1820.9
411.29 -774.19 1866.4
410.77 -746.85 1800.4
422.74 -759.97 1832.1
513.03 -746.22 1798.9
522.78 -753.56 1816.6
559.25 -791.86 1908.9
535.94 -752.20 1813.3
539.51 -731.54 1763.5
553.06 -743.61 1792.6
578.72 -746.73 1800.2
616.58 -764.76 1843.6
629.86 -775.21 1868.8
630.98 -770.66 1857.8
640.43 -742.53 1790.0
666.11 -750.54 1809.3
670.81 -740.20 1784.4
696.05 -762.80 1838.9
697.31 -758.98 1829.7
708.76 -761.08 1834.7
735.96 -785.02 1892.5
748.74 -788.14 1900.0
709.39 -741.84 1788.4
740.80 -754.95 1820.0
757.31 -766.90 1848.8
746.91 -751.61 1811.9
742.06 -742.06 1788.9
734.59 -730.03 1759.9
740.37 -731.23 1762.8
764.70 -750.62 1809.5
740.61 -722.55 1741.9
780.16 -747.46 1801.9
761.79 -725.51 1749.0
830.52 -746.53 1799.7
847.46 -757.51 1826.1
838.00 -744.89 1795.7
856.15 -748.55 1804.5
878.62 -764.02 1841.8
872.08 -754.23 1818.2
864.63 -743.76 1793.0
850.52 -727.71 1754.3
846.50 -720.43 1736.7
858.07 -726.41 1751.2
865.98 -729.24 1758.0
866.41 -722.01 1740.6
893.20 -740.48 1785.1
918.08 -757.18 1825.3
915.19 -750.93 1810.3
891.31 -723.90 1745.1
912.14 -737.08 1776.9
902.56 -725.68 1749.4
911.00 -728.80 1756.9
927.28 -738.13 1779.4
886.22 -698.50 1683.9
920.91 -722.28 1741.2
948.35 -740.17 1784.3
947.64 -736.03 1774.4
941.57 -727.78 1754.5
955.91 -735.32 1772.6
944.82 -723.31 1743.7
1003.27 -753.63 1816.8
984.64 -732.75 1766.5
1000.72 -714.80 1723.2
1054.93 -750.18 1808.5
1031.91 -730.55 1761.2
1051.89 -738.17 1779.5
1035.82 -720.57 1737.1
1054.36 -727.15 1752.9
1088.53 -747.49 1802.0
1055.42 -721.66 1739.7
1048.55 -713.91 1721.0
1117.37 -757.54 1826.2
1160.69 -739.88 1783.6
1159.95 -736.47 1775.4
1166.43 -737.66 1778.3
1122.50 -707.09 1704.6
1142.73 -703.22 1695.3
1208.43 -740.80 1785.9
1190.50 -727.02 1752.6
1142.06 -694.79 1674.9
1198.08 -720.65 1737.3
1180.27 -707.28 1705.0
1174.61 -698.66 1684.3
1243.39 -736.83 1776.3
1254.26 -740.52 1785.2
1238.19 -723.03 1743.0
1225.40 -712.96 1718.7
1212.80 -700.53 1688.8
1260.17 -725.28 1748.4
1236.64 -709.18 1709.6
1232.70 -701.89 1692.1
1320.78 -749.38 1806.5
1288.09 -728.25 1755.6
1265.75 -708.11 1707.1
1275.73 -708.74 1708.6
1282.71 -710.15 1712.0
1340.35 -726.97 1752.5
1307.52 -706.77 1703.8
1380.18 -724.03 1745.4
1476.83 -767.19 1849.5
1491.83 -772.47 1862.2
1503.29 -775.89 1870.5
1505.81 -774.70 1867.6
1487.38 -762.76 1838.8
1454.44 -743.49 1792.3
1459.22 -743.55 1792.5
1513.97 -769.00 1853.8
-1722.73 -886.13 2122.9
-1771.83 -914.31 2190.5
-1768.78 -915.67 2193.7
-1676.94 -870.93 2086.5
-1718.63 -895.47 2145.3
-1719.70 -901.86 2160.6
-1710.49 -905.89 2170.3
-1615.26 -861.11 2063.0
-1690.04 -903.98 2165.7
-1736.49 -931.92 2232.6
-1730.92 -932.03 2232.9
-1718.95 -938.14 2247.5
-1723.69 -943.92 2261.4
-1710.57 -939.94 2251.9
-1618.60 -901.71 2160.3
-1636.58 -924.52 2214.9
-1598.37 -906.12 2170.8
-1558.63 -886.71 2124.3
-1618.05 -923.78 2213.1
-1586.67 -918.90 2201.4
-1441.75 -889.35 2130.7
-1063.55 -873.63 2093.0
-1047.75 -878.58 2104.9
-217.16 -832.46 1994.4
-211.55 -830.74 1990.2
-205.68 -827.86 1983.3
-200.30 -826.89 1981.0
-196.93 -834.36 1998.9
-188.97 -822.26 1969.9
-184.83 -850.24 2036.9
-181.70 -860.39 2061.3
-173.95 -848.65 2033.1
-165.73 -833.82 1997.6
-165.09 -857.41 2054.1
-158.43 -850.26 2037.0
-116.11 -849.73 2035.7
-94.36 -843.96 2021.9
-89.69 -849.43 2035.0
-83.81 -843.35 2020.4
-57.62 -843.29 2020.3
-35.87 -824.98 1976.4
-29.83 -800.36 1917.5
-24.32 -783.05 1876.0
-10.47 -843.19 2020.1
-4.82 -775.79 1858.6
0.00 -798.51 1913.0
44.30 -792.55 1898.8
49.63 -799.06 1914.3
54.54 -798.24 1912.4
61.04 -818.98 1962.1
71.47 -821.94 1969.1
75.10 -806.09 1931.2
77.61 -780.99 1871.1
84.29 -798.24 1912.4
91.82 -821.25 1967.5
97.54 -826.55 1980.2
101.85 -819.92 1964.3
105.98 -812.51 1946.6
114.59 -838.57 2009.0
120.11 -840.77 2014.3
145.91 -810.05 1940.7
158.63 -798.11 1912.1
166.78 -813.70 1949.4
168.64 -798.57 1913.2
172.32 -792.66 1899.0
181.32 -810.92 1942.8
193.82 -843.37 2020.5
197.11 -835.13 2000.8
187.11 -772.43 1850.5
186.91 -752.32 1802.4
201.69 -792.02 1897.5
205.96 -789.53 1891.5
215.59 -771.33 1847.9
225.57 -789.51 1891.5
242.54 -796.91 1909.2
245.52 -790.57 1894.0
245.27 -774.28 1855.0
261.77 -780.47 1869.8
277.24 -811.55 1944.3
274.89 -790.30 1893.3
295.62 -806.70 1932.6
297.41 -798.04 1911.9
309.90 -804.73 1927.9
330.54 -818.72 1961.4
340.30 -817.74 1959.1
333.43 -756.10 1811.4
363.62 -760.30 1821.5
379.01 -782.31 1874.2
386.30 -787.27 1886.1
377.11 -758.93 1818.2
372.33 -740.06 1773.0
383.11 -752.20 1802.1
390.33 -757.15 1813.9
389.73 -746.99 1789.6
426.68 -780.63 1870.2
412.99 -747.10 1789.9
419.74 -750.87 1798.9
427.18 -755.77 1810.6
434.45 -760.28 1821.4
454.74 -739.53 1771.7
450.71 -725.65 1738.5
467.47 -723.68 1733.7
481.44 -738.21 1768.6
496.57 -754.22 1806.9
505.45 -746.58 1788.6
516.66 -756.20 1811.7
549.96 -776.69 1860.8
538.86 -741.51 1776.5
556.71 -759.58 1819.8
566.01 -765.77 1834.6
570.12 -764.92 1832.5
567.84 -755.55 1810.1
581.64 -755.20 1809.3
593.11 -763.93 1830.2
614.63 -773.09 1852.1
625.50 -780.67 1870.3
617.75 -765.06 1832.9
598.45 -735.50 1762.1
675.10 -770.86 1846.8
670.06 -759.72 1820.1
664.03 -737.30 1766.4
674.05 -743.30 1780.8
677.26 -726.93 1741.5
737.74 -756.53 1812.5
754.58 -768.91 1842.1
744.53 -753.90 1806.1
753.98 -758.69 1817.6
776.44 -766.91 1837.3
768.88 -754.82 1808.3
751.86 -720.53 1726.2
771.08 -734.58 1759.9
833.61 -771.33 1847.9
855.94 -765.59 1834.2
855.18 -760.68 1822.4
839.59 -742.71 1779.3
861.91 -758.29 1816.7
869.08 -760.45 1821.8
875.55 -745.84 1786.8
854.65 -709.27 1699.2
880.68 -727.13 1742.0
906.46 -744.59 1783.9
932.00 -757.84 1815.6
906.25 -711.74 1705.1
914.23 -714.52 1711.8
919.13 -714.88 1712.7
947.19 -733.16 1756.5
951.28 -732.81 1755.6
955.82 -732.79 1755.6
983.33 -750.31 1797.6
978.47 -736.14 1763.6
997.59 -740.15 1773.2
990.10 -731.22 1751.8
979.81 -698.00 1672.2
992.22 -703.74 1686.0
982.19 -693.56 1661.6
1021.12 -711.69 1705.0
1046.34 -726.13 1739.6
1041.02 -719.33 1723.3
1054.19 -725.32 1737.7
1094.38 -749.76 1796.2
1072.34 -731.56 1752.6
1063.87 -719.68 1724.2
1085.65 -719.30 1723.2
1104.10 -728.53 1745.4
1072.08 -704.51 1687.8
1111.33 -715.70 1714.6
1166.60 -748.30 1792.7
1164.33 -743.88 1782.1
1174.44 -747.37 1790.5
1139.93 -722.55 1731.0
1110.91 -701.40 1680.4
1122.96 -706.23 1692.0
1123.00 -703.51 1685.4
1128.79 -704.40 1687.6
1156.71 -719.04 1722.6
1141.97 -707.14 1694.1
1156.78 -710.85 1703.0
1149.83 -703.89 1686.3
1166.31 -711.27 1704.0
1221.93 -742.38 1778.6
1226.29 -742.23 1778.2
1170.35 -705.72 1690.7
1203.41 -707.11 1694.1
1219.21 -708.64 1697.7
1267.12 -733.84 1758.1
1274.32 -730.13 1749.2
1322.03 -752.11 1801.9
1235.03 -695.24 1665.6
1256.08 -704.63 1688.1
1299.46 -716.48 1716.5
1306.47 -717.89 1719.9
1284.14 -703.22 1684.7
1303.20 -711.24 1703.9
1322.33 -719.24 1723.1
1294.02 -701.47 1680.5
1388.02 -739.97 1772.8
1374.01 -730.09 1749.1
1337.57 -708.38 1697.1
1338.68 -706.65 1692.9
1424.96 -740.06 1773.0
1466.72 -759.30 1819.1
1445.82 -746.08 1787.4
1408.03 -724.26 1735.1
1446.35 -741.60 1776.7
1531.14 -782.58 1874.9
1533.12 -776.20 1859.6
-1715.79 -876.84 2087.7
-1749.77 -914.40 2177.1
-1676.01 -878.69 2092.1
-1676.06 -881.56 2099.0
-1681.39 -887.25 2112.5
-1635.32 -865.76 2061.3
-1616.03 -866.88 2064.0
-1625.36 -874.78 2082.8
-1604.89 -866.64 2063.4
-1591.24 -870.88 2073.5
-1719.62 -944.34 2248.4
-1700.20 -936.84 2230.6
-1587.90 -877.95 2090.4
-1571.67 -871.95 2076.1
-1663.97 -926.34 2205.6
-1661.25 -928.01 2209.5
-1628.09 -918.99 2188.1
-1576.25 -892.84 2125.8
-1550.76 -900.44 2143.9
-1512.04 -881.12 2097.9
-1221.52 -864.13 2057.5
-400.02 -852.67 2030.2
-340.96 -836.91 1992.7
-322.52 -842.71 2006.4
-244.16 -824.05 1962.0
-220.16 -849.19 2021.9
-208.82 -825.11 1964.6
-197.12 -798.32 1900.8
-194.92 -809.68 1927.8
-194.94 -831.06 1978.7
-184.92 -809.64 1927.7
-162.06 -846.88 2016.4
-141.77 -820.26 1953.0
-140.98 -845.89 2014.0
-135.97 -847.18 2017.1
-131.59 -852.71 2030.3
-124.57 -840.85 2002.0
-120.82 -851.01 2026.2
-118.00 -868.91 2068.8
-109.94 -848.13 2019.4
-99.95 -852.19 2029.0
-89.97 -857.40 2041.4
-81.98 -830.01 1976.2
-66.22 -825.18 1964.7
-61.99 -836.85 1992.5
-57.04 -840.00 2000.0
-51.38 -832.31 1981.7
-47.06 -847.07 2016.8
-42.50 -860.66 2049.2
-24.83 -804.61 1915.7
-19.77 -800.76 1906.6
9.79 -793.04 1888.2
14.64 -790.71 1882.6
20.01 -810.44 1929.6
24.45 -792.22 1886.2
39.69 -803.75 1913.7
44.74 -805.26 1917.3
59.64 -805.11 1916.9
66.09 -823.63 1961.0
72.38 -837.50 1994.1
76.82 -829.69 1975.5
80.37 -813.76 1937.5
83.68 -797.43 1898.6
113.85 -838.36 1996.1
122.85 -829.25 1974.4
138.43 -800.94 1907.0
144.46 -806.99 1921.4
153.98 -779.55 1856.1
159.71 -784.03 1866.7
159.58 -760.34 1810.3
169.82 -786.05 1871.5
186.47 -839.13 1997.9
188.71 -826.23 1967.2
181.55 -773.99 1842.8
196.26 -794.85 1892.5
206.18 -795.25 1893.5
214.53 -789.86 1880.6
212.72 -765.79 1823.3
251.74 -769.48 1832.1
262.30 -786.91 1873.6
274.51 -808.55 1925.1
269.60 -779.90 1856.9
281.10 -785.16 1869.4
301.08 -826.69 1968.3
295.57 -798.05 1900.1
310.94 -812.45 1934.4
326.18 -825.65 1965.8
330.24 -823.06 1959.7
333.04 -805.25 1917.3
327.25 -757.35 1803.2
341.84 -779.96 1857.1
381.05 -791.42 1884.3
388.00 -795.64 1894.4
386.68 -754.72 1797.0
400.80 -772.98 1840.4
402.00 -766.17 1824.2
415.20 -782.12 1862.2
421.25 -784.40 1867.6
437.48 -762.06 1814.4
457.80 -749.13 1783.6
487.49 -774.24 1843.4
492.23 -774.19 1843.3
481.05 -749.33 1784.1
476.64 -735.39 1750.9
507.79 -754.69 1796.9
525.11 -773.35 1841.3
531.37 -775.51 1846.5
540.02 -767.39 1827.1
542.66 -745.01 1773.8
570.69 -764.06 1819.2
567.76 -753.90 1795.0
557.65 -734.47 1748.7
578.02 -755.16 1798.0
587.74 -761.71 1813.6
625.57 -767.75 1828.0
656.65 -754.45 1796.3
641.22 -731.54 1741.8
659.72 -742.18 1767.1
659.23 -736.51 1753.6
774.36 -769.61 1832.4
754.03 -744.84 1773.4
740.03 -726.58 1729.9
766.72 -734.96 1749.9
770.40 -721.41 1717.6
808.47 -735.80 1751.9
839.06 -759.38 1808.0
849.34 -764.41 1820.0
846.57 -757.70 1804.1
826.97 -736.09 1752.6
883.29 -730.07 1738.3
914.81 -741.00 1764.3
916.80 -738.91 1759.3
955.59 -733.67 1746.8
967.85 -722.55 1720.3
988.13 -727.62 1732.4
1029.49 -744.54 1772.7
983.33 -707.99 1685.7
981.48 -703.54 1675.1
1008.69 -719.85 1713.9
1010.68 -718.11 1709.8
1015.53 -718.41 1710.5
1038.69 -731.60 1741.9
1046.50 -733.91 1747.4
1037.36 -724.36 1724.7
1047.10 -728.03 1733.4
1076.40 -745.20 1774.3
1081.42 -742.33 1767.5
1062.23 -714.03 1700.1
1085.56 -726.70 1730.2
1098.96 -732.64 1744.4
1100.32 -730.54 1739.4
1108.73 -733.12 1745.5
1117.67 -736.03 1752.5
1126.64 -738.93 1759.4
1082.59 -707.18 1683.8
1101.34 -713.67 1699.2
1176.61 -759.41 1808.1
1189.17 -761.45 1813.0
1136.04 -724.56 1725.1
1120.05 -711.56 1694.2
1145.17 -724.68 1725.4
1170.40 -737.76 1756.6
1201.52 -754.44 1796.3
1200.68 -751.00 1788.1
1157.57 -721.26 1717.3
1196.51 -731.45 1741.6
1180.95 -719.23 1712.4
1200.25 -728.24 1733.9
1223.40 -739.52 1760.8
1203.37 -724.71 1725.5
1177.25 -706.35 1681.8
1161.84 -694.53 1653.6
1192.65 -710.33 1691.3
1223.60 -726.09 1728.8
1191.12 -704.24 1676.8
1247.68 -729.69 1737.4
1227.01 -715.02 1702.4
1229.46 -708.80 1687.6
1272.71 -731.13 1740.8
1330.72 -761.76 1813.7
1309.23 -746.81 1778.1
1255.52 -713.66 1699.2
1296.90 -734.61 1749.1
1328.27 -749.75 1785.1
1320.64 -742.86 1768.7
1290.78 -723.55 1722.7
1303.65 -725.75 1728.0
1343.30 -745.25 1774.4
1352.12 -747.59 1780.0
1333.94 -735.03 1750.1
1328.33 -729.45 1736.8
1323.82 -724.52 1725.1
1283.38 -700.03 1666.7
1357.91 -728.42 1734.3
1389.61 -742.96 1768.9
1399.07 -745.56 1775.1
1433.30 -761.30 1812.6
1398.58 -740.43 1762.9
1383.24 -715.92 1704.6
1466.50 -756.60 1801.4
1532.64 -788.22 1876.7
1560.45 -799.98 1904.7
1541.91 -785.50 1870.2
-1756.42 -903.14 2137.2
-1727.11 -893.71 2114.8
-1787.99 -940.14 2224.7
-1713.60 -903.94 2139.0
-1688.68 -893.68 2114.8
-1676.83 -890.31 2106.8
-1645.54 -876.55 2074.2
-1665.94 -899.17 2127.7
-1670.89 -907.85 2148.3
-1717.53 -952.24 2253.3
-1620.74 -901.64 2133.6
-1599.86 -893.07 2113.3
-1583.63 -893.19 2113.6
-1561.16 -889.75 2105.5
-1566.99 -896.21 2120.7
-1541.70 -891.12 2108.7
-1519.70 -884.68 2093.5
-1471.86 -885.29 2094.9
-1451.22 -876.11 2073.2
-1468.94 -893.42 2114.1
-1397.68 -886.46 2097.7
-1393.20 -887.08 2099.1
-1232.90 -866.22 2049.8
-1218.97 -863.88 2044.2
-1216.06 -869.37 2057.2
-1205.55 -873.36 2066.7
-1064.92 -859.32 2033.4
-1020.34 -852.90 2018.3
-355.48 -827.76 1958.8
-340.03 -839.78 1987.2
-247.44 -806.66 1908.8
-244.54 -813.46 1924.9
-238.81 -810.97 1919.0
-214.58 -853.07 2018.7
-210.53 -857.92 2030.1
-165.67 -871.12 2061.4
-151.57 -823.51 1948.7
-145.85 -849.03 2009.1
-139.50 -842.17 1992.9
-122.85 -834.38 1974.4
-122.30 -866.75 2051.0
-115.32 -854.42 2021.8
-103.93 -806.70 1908.9
-96.61 -787.36 1863.2
-94.33 -809.22 1914.9
-93.97 -850.92 2013.6
-89.40 -857.23 2028.5
-65.63 -822.89 1947.2
-54.38 -805.88 1907.0
-50.95 -830.45 1965.1
-41.13 -837.93 1982.8
-31.79 -863.68 2043.8
-20.87 -850.50 2012.6
-15.80 -858.30 2031.0
14.74 -800.69 1894.7
19.85 -808.85 1914.0
34.48 -802.93 1900.0
40.21 -819.25 1938.6
55.36 -820.28 1941.1
59.75 -811.67 1920.7
64.17 -804.61 1904.0
72.04 -838.78 1984.8
80.45 -819.58 1939.4
82.14 -787.61 1863.7
112.75 -835.37 1976.8
116.82 -827.88 1959.0
120.05 -815.33 1929.4
121.46 -791.90 1873.9
139.17 -810.19 1917.2
148.40 -834.14 1973.9
147.64 -802.16 1898.2
150.83 -793.09 1876.7
155.67 -792.95 1876.4
154.85 -764.86 1809.9
172.33 -802.58 1899.2
183.99 -833.06 1971.3
181.84 -801.09 1895.7
175.87 -754.40 1785.2
179.07 -748.42 1771.0
190.66 -776.93 1838.5
200.15 -795.74 1883.0
194.81 -756.05 1789.1
229.66 -763.97 1807.8
240.56 -784.24 1855.8
241.80 -772.81 1828.7
259.89 -784.48 1856.4
270.09 -800.45 1894.1
274.25 -798.28 1889.0
276.91 -791.85 1873.8
273.30 -768.08 1817.5
290.18 -775.40 1834.9
301.13 -791.69 1873.4
307.67 -796.03 1883.7
305.49 -778.05 1841.1
322.28 -795.95 1883.5
320.25 -779.12 1843.7
361.70 -765.69 1811.9
370.46 -774.16 1831.9
364.85 -752.79 1781.4
373.06 -760.10 1798.7
374.70 -754.04 1784.3
374.08 -734.65 1738.4
400.05 -776.29 1837.0
412.59 -791.19 1872.2
400.55 -759.17 1796.5
430.40 -746.33 1766.1
484.19 -781.42 1849.1
485.83 -768.84 1819.3
530.14 -778.50 1842.2
529.95 -771.26 1825.1
520.81 -751.26 1777.7
521.04 -719.74 1703.2
536.61 -735.02 1739.3
570.42 -755.93 1788.8
585.20 -769.25 1820.3
591.53 -771.36 1825.3
622.94 -769.24 1820.3
641.76 -786.52 1861.2
673.81 -762.71 1804.8
678.97 -763.25 1806.1
712.44 -764.00 1807.9
735.46 -783.52 1854.1
720.36 -762.46 1804.2
713.37 -750.19 1775.2
734.97 -744.10 1760.8
740.03 -744.60 1762.0
730.57 -730.57 1728.8
738.47 -733.97 1736.8
753.37 -744.24 1761.1
758.76 -723.27 1711.5
767.88 -727.70 1722.0
807.88 -748.21 1770.5
835.53 -769.44 1820.8
832.49 -762.33 1803.9
820.33 -747.00 1767.7
814.72 -737.77 1745.8
888.65 -750.52 1776.0
925.47 -761.87 1802.9
938.69 -765.03 1810.3
949.07 -750.96 1777.0
926.53 -715.76 1693.7
949.42 -716.46 1695.4
966.69 -726.13 1718.3
966.48 -716.07 1694.5
1033.00 -751.69 1778.8
1044.15 -756.43 1790.0
1017.82 -734.09 1737.1
1020.83 -733.02 1734.6
1029.56 -736.05 1741.7
1039.28 -739.75 1750.5
1037.47 -735.25 1739.9
1018.21 -715.38 1692.8
1038.09 -726.22 1718.5
1034.17 -720.39 1704.7
1032.64 -716.26 1694.9
1060.53 -732.48 1733.3
1054.57 -725.30 1716.3
1059.29 -713.49 1688.4
1074.61 -720.83 1705.7
1076.90 -719.41 1702.4
1082.72 -720.34 1704.6
1111.33 -736.37 1742.5
1142.63 -754.04 1784.3
1138.41 -748.23 1770.6
1132.09 -741.09 1753.7
1146.73 -747.66 1769.2
1169.12 -759.23 1796.6
1129.23 -730.42 1728.4
1105.77 -706.82 1672.6
1152.22 -733.64 1736.0
1200.47 -761.39 1801.7
1165.57 -736.39 1742.5
1105.19 -695.54 1645.9
1111.44 -696.78 1648.8
1200.32 -724.64 1714.7
1212.69 -729.41 1726.0
1203.31 -721.10 1706.4
1193.31 -712.49 1686.0
1212.25 -721.16 1706.5
1234.56 -731.76 1731.6
1225.67 -718.65 1700.6
1261.44 -736.97 1743.9
1254.03 -724.85 1715.2
1306.36 -752.43 1780.5
1311.55 -750.11 1775.0
1337.81 -762.46 1804.2
1285.24 -727.41 1721.3
1306.84 -719.65 1702.9
1348.54 -740.11 1751.4
1341.12 -733.57 1735.9
1376.64 -750.48 1775.9
1362.80 -740.45 1752.2
1343.62 -727.61 1721.8
1369.95 -739.41 1749.7
1388.17 -746.77 1767.1
1378.84 -739.31 1749.5
1396.52 -746.34 1766.1
1454.97 -775.03 1834.0
1482.31 -787.02 1862.4
1480.70 -783.62 1854.3
1457.10 -768.63 1818.8
1439.24 -747.12 1767.9
1469.82 -760.57 1799.8
1504.72 -776.17 1836.7
1529.47 -786.45 1861.0
1495.04 -766.33 1813.4
-1747.04 -906.69 2132.5
-1735.70 -903.66 2125.3
-1729.83 -915.14 2152.3
-1723.25 -914.61 2151.1
-1764.63 -939.61 2209.9
-1713.04 -915.11 2152.3
-1641.60 -879.81 2069.2
-1672.22 -899.16 2114.7
-1763.16 -951.18 2237.1
-1632.22 -883.44 2077.8
-1616.69 -889.72 2092.6
-1615.81 -895.24 2105.5
