ply
format ascii 1.0
element vertex 2113
property float x
property float y
property float z
end_header
-1108.27 -932.62 1613.1
-1122.00 -947.75 1639.3
-1118.34 -948.25 1640.2
-1045.74 -890.08 1539.5
-1037.27 -889.66 1538.8
-1069.47 -920.82 1592.7
-1060.37 -916.52 1585.3
-1071.28 -929.55 1607.8
-1082.09 -942.60 1630.4
-1075.43 -940.48 1626.7
-1046.50 -918.78 1589.2
-1032.71 -917.51 1587.0
-1028.12 -917.08 1586.2
-1012.30 -906.60 1568.1
-1004.33 -903.09 1562.0
-990.68 -909.14 1572.5
-1001.37 -922.75 1596.1
-1005.79 -930.67 1609.7
-988.80 -918.76 1589.1
-979.46 -913.89 1580.7
-983.34 -921.36 1593.6
-978.71 -920.90 1592.8
-970.81 -917.33 1586.7
-936.47 -892.44 1543.6
-959.74 -918.55 1588.8
-976.82 -938.93 1624.0
-939.35 -918.75 1589.1
-927.46 -911.12 1575.9
-925.12 -912.84 1578.9
-924.11 -915.90 1584.2
-908.26 -904.20 1564.0
-921.58 -921.58 1594.0
-947.70 -951.97 1646.6
-943.39 -951.93 1646.5
-920.92 -933.48 1614.6
-897.70 -914.09 1581.1
-883.40 -903.67 1563.0
-880.13 -904.47 1564.4
-873.96 -936.99 1620.7
-863.35 -930.08 1608.7
-877.12 -949.50 1642.3
-889.91 -968.05 1674.4
-854.68 -934.28 1616.0
-834.21 -916.40 1585.1
-836.18 -923.10 1596.7
-846.90 -944.29 1633.3
-841.33 -942.80 1630.7
-865.42 -974.69 1685.9
-868.64 -983.28 1700.7
-823.96 -957.00 1655.3
-846.34 -988.14 1709.1
-843.77 -990.32 1712.9
-771.70 -920.26 1591.7
-797.85 -956.56 1654.5
-753.04 -917.64 1587.2
-779.01 -954.50 1651.0
-757.65 -933.45 1614.6
-729.33 -903.55 1562.8
-748.75 -943.34 1631.7
-773.38 -979.91 1694.9
-745.08 -949.44 1642.2
-731.56 -937.58 1621.7
-748.90 -965.35 1669.7
-727.85 -943.67 1632.2
-701.23 -914.47 1581.7
-711.56 -933.40 1614.5
-716.41 -945.32 1635.1
-715.17 -949.30 1642.0
-723.02 -965.47 1669.9
-698.97 -938.98 1624.1
-688.45 -936.13 1619.2
-689.56 -943.39 1631.7
-680.36 -936.54 1619.9
-680.04 -941.92 1629.2
-667.18 -929.88 1608.4
-639.95 -897.54 1552.4
-668.47 -943.47 1631.9
-693.65 -991.56 1715.1
-678.18 -975.71 1687.6
-673.30 -974.97 1686.4
-651.85 -950.08 1643.3
-628.28 -946.67 1637.4
-621.64 -943.02 1631.1
-612.74 -955.53 1652.7
-625.55 -982.38 1699.2
-621.25 -982.54 1699.5
-604.65 -963.12 1665.9
-579.86 -930.29 1609.1
-579.02 -935.66 1618.4
-603.99 -983.14 1700.5
-600.25 -984.23 1702.4
-565.76 -934.55 1616.5
-549.82 -915.00 1582.6
-553.21 -927.56 1604.4
-531.26 -932.85 1613.5
-533.92 -944.96 1634.5
-538.91 -961.41 1662.9
-531.96 -956.67 1654.7
-518.13 -939.37 1624.8
-490.70 -896.94 1551.4
-494.30 -910.98 1575.7
-507.65 -943.39 1631.7
-505.26 -946.82 1637.7
-512.04 -967.67 1673.7
-517.13 -985.64 1704.8
-501.65 -964.38 1668.1
-472.96 -925.18 1600.3
-494.63 -976.14 1688.4
-488.08 -971.80 1680.9
-467.54 -939.29 1624.7
-459.97 -932.49 1612.9
-455.79 -932.49 1612.9
-439.12 -906.71 1568.3
-443.17 -941.22 1628.0
-443.04 -949.97 1643.1
-434.06 -967.95 1674.2
-429.27 -966.94 1672.5
-412.46 -938.56 1623.4
-409.36 -971.15 1679.8
-403.96 -968.65 1675.4
-374.73 -938.94 1624.0
-373.01 -945.24 1634.9
-360.11 -923.04 1596.5
-359.53 -932.27 1612.5
-354.56 -930.20 1608.9
-349.42 -927.63 1604.5
-350.90 -942.77 1630.7
-352.24 -957.92 1656.9
-354.70 -976.52 1689.0
-344.98 -961.63 1663.3
-313.86 -908.98 1572.2
-323.27 -974.18 1685.0
-314.60 -974.38 1685.3
-301.84 -948.03 1639.8
-273.42 -938.05 1622.5
-283.09 -986.41 1706.1
-270.22 -956.48 1654.4
-254.98 -917.12 1586.3
-251.90 -920.87 1592.8
-247.31 -919.16 1589.8
-247.07 -933.82 1615.2
-251.86 -968.34 1674.9
-245.93 -962.16 1664.2
-236.82 -943.06 1631.2
-234.74 -951.77 1646.2
-229.09 -946.06 1636.4
-225.38 -948.30 1640.2
-220.71 -984.35 1702.6
-205.63 -935.83 1618.7
-195.59 -908.69 1571.7
-194.92 -924.83 1599.6
-191.23 -927.04 1603.5
-188.12 -932.23 1612.4
-182.60 -925.46 1600.7
-179.26 -951.77 1646.2
-174.93 -951.47 1645.7
-170.43 -950.17 1643.5
-167.60 -958.33 1657.6
-144.96 -923.61 1597.5
-141.83 -930.26 1609.0
-141.53 -956.37 1654.2
-134.82 -939.55 1625.1
-127.16 -914.74 1582.2
-124.15 -922.87 1596.2
-112.21 -926.76 1603.0
-115.17 -987.84 1708.6
-105.04 -937.00 1620.7
-98.06 -950.72 1644.4
-93.26 -945.33 1635.1
-87.20 -925.93 1601.5
-83.90 -935.53 1618.1
-79.42 -932.12 1612.2
-66.03 -920.36 1591.9
-60.90 -905.42 1566.1
-55.62 -954.08 1650.2
-52.91 -983.16 1700.5
-47.51 -963.20 1666.0
-41.74 -930.73 1609.8
-37.36 -925.77 1601.3
-33.41 -931.31 1610.9
-21.09 -940.41 1626.6
-8.71 -971.50 1680.4
-4.33 -965.00 1669.1
0.00 -945.98 1636.2
12.06 -896.41 1550.5
15.98 -890.89 1540.9
20.38 -908.88 1572.1
25.27 -939.39 1624.8
30.43 -969.38 1676.7
33.64 -937.82 1622.1
44.65 -905.16 1565.6
62.45 -928.44 1605.9
66.75 -930.36 1609.2
70.16 -920.28 1591.8
74.44 -922.20 1595.1
80.70 -947.12 1638.2
86.24 -961.53 1663.1
90.11 -956.93 1655.2
91.14 -923.83 1597.9
104.43 -931.50 1611.2
106.90 -916.89 1585.9
121.53 -934.49 1616.4
131.60 -946.69 1637.5
141.61 -928.76 1606.4
143.79 -916.13 1584.6
158.58 -930.59 1609.6
166.29 -950.85 1644.7
172.04 -959.14 1659.0
176.03 -957.45 1656.1
176.07 -934.83 1616.9
194.92 -924.83 1599.6
198.38 -921.63 1594.1
217.11 -913.51 1580.1
220.55 -910.78 1575.3
246.54 -931.84 1611.8
251.85 -936.03 1619.0
247.01 -903.02 1561.9
270.97 -929.63 1607.9
273.44 -923.88 1598.0
290.17 -937.80 1622.1
292.72 -932.54 1613.0
309.51 -932.70 1613.3
305.94 -909.66 1573.4
336.25 -903.41 1562.6
336.45 -893.20 1544.9
342.57 -898.74 1554.5
349.68 -906.72 1568.3
360.49 -924.02 1598.2
399.77 -900.49 1557.5
418.95 -934.25 1615.9
420.06 -927.45 1604.2
421.88 -913.38 1579.8
415.46 -874.03 1511.8
436.91 -910.58 1575.0
464.77 -942.21 1629.7
447.23 -898.49 1554.1
443.71 -883.46 1528.1
452.35 -892.69 1544.0
463.54 -906.76 1568.4
469.11 -909.66 1573.4
467.89 -899.48 1555.8
452.87 -863.16 1493.0
461.61 -872.36 1508.9
479.19 -897.98 1553.2
470.99 -875.25 1513.9
470.45 -867.02 1499.7
478.82 -875.22 1513.8
485.39 -880.02 1522.1
489.33 -880.00 1522.1
519.94 -905.83 1566.8
525.81 -895.08 1548.2
541.15 -914.21 1581.3
535.47 -897.82 1552.9
559.61 -897.80 1552.9
558.78 -890.06 1539.5
567.24 -897.12 1551.7
587.90 -923.25 1596.9
583.40 -909.78 1573.6
563.41 -872.51 1509.1
608.79 -923.54 1597.4
613.47 -924.34 1598.8
615.61 -921.35 1593.6
601.77 -894.64 1547.4
587.98 -862.62 1492.0
609.64 -860.44 1488.3
638.02 -867.55 1500.6
682.07 -921.83 1594.5
701.77 -942.73 1630.6
702.31 -937.82 1622.1
702.12 -931.98 1612.0
699.03 -922.39 1595.4
666.64 -874.47 1512.5
648.62 -840.94 1454.5
682.30 -879.50 1521.2
689.36 -883.50 1528.1
729.90 -870.42 1505.5
734.38 -871.10 1506.7
732.23 -863.95 1494.3
762.57 -895.02 1548.1
781.33 -912.24 1577.9
746.40 -866.91 1499.5
740.92 -856.09 1480.8
750.14 -862.28 1491.4
740.16 -846.44 1464.0
775.55 -882.39 1526.2
753.79 -853.28 1475.9
801.85 -894.07 1546.4
805.18 -893.31 1545.1
789.74 -863.29 1493.2
804.64 -875.29 1514.0
788.99 -854.10 1477.3
760.19 -807.25 1396.3
768.71 -812.43 1405.2
775.12 -815.34 1410.3
800.07 -826.00 1428.7
800.44 -822.57 1422.8
956.12 -820.06 1418.4
962.91 -822.71 1423.0
990.99 -837.09 1447.9
1010.35 -828.34 1432.7
1023.22 -826.73 1430.0
982.60 -791.04 1368.2
1005.27 -806.38 1394.8
1049.79 -839.08 1451.3
1028.02 -818.74 1416.1
1037.49 -817.52 1414.0
1111.23 -863.43 1493.4
1081.39 -837.33 1448.3
1059.00 -817.15 1413.4
1049.03 -806.67 1395.3
1083.28 -830.14 1435.9
1097.40 -838.08 1449.6
1048.09 -789.61 1365.8
1014.49 -761.72 1317.5
1056.54 -787.99 1362.9
1119.29 -832.01 1439.1
1124.09 -832.80 1440.5
1128.90 -833.59 1441.8
1147.20 -844.31 1460.4
1120.48 -821.93 1421.7
1090.79 -797.53 1379.5
1140.78 -831.35 1438.0
1173.38 -852.32 1474.2
1124.79 -814.37 1408.6
1114.63 -794.13 1373.6
1119.89 -795.33 1375.7
1080.70 -765.07 1323.3
1067.36 -753.24 1302.8
1070.77 -753.25 1302.9
1079.40 -756.94 1309.2
1124.14 -785.84 1359.2
-1503.75 -1055.92 1818.2
-1495.77 -1070.46 1843.3
-1546.54 -1113.91 1918.1
-1465.00 -1058.58 1822.8
-1507.94 -1093.13 1882.3
-1508.04 -1096.76 1888.6
-1460.50 -1065.64 1835.0
-1457.27 -1066.76 1836.9
-1383.75 -1019.61 1755.7
-1424.47 -1053.07 1813.3
-1403.87 -1041.28 1793.0
-1418.01 -1055.27 1817.1
-1363.42 -1028.30 1770.7
-1308.26 -990.03 1704.8
-1308.70 -997.11 1717.0
-1285.83 -983.02 1692.7
-1285.19 -1006.58 1733.3
-1285.78 -1014.14 1746.3
-1242.91 -983.79 1694.0
-1198.63 -952.10 1639.5
-1149.21 -916.10 1577.5
-1215.40 -972.32 1674.3
-1150.09 -930.04 1601.5
-1102.37 -894.67 1540.6
-1097.37 -893.86 1539.2
-1130.60 -924.28 1591.6
-1115.07 -914.93 1575.4
-1123.77 -935.78 1611.3
-1136.11 -953.14 1641.3
-1122.22 -945.03 1627.3
-1093.56 -924.37 1591.7
-1065.55 -904.10 1556.8
-1095.06 -932.68 1606.0
-1059.05 -905.45 1559.1
-1022.80 -881.19 1517.3
-1069.58 -925.04 1592.9
-1073.99 -932.46 1605.6
-1085.35 -945.98 1628.9
-1098.60 -961.28 1655.3
-1062.61 -933.43 1607.3
-1009.98 -890.69 1533.7
-994.64 -880.63 1516.4
-1028.55 -914.27 1574.3
-1079.89 -963.73 1659.5
-1020.21 -917.78 1580.4
-1001.14 -911.60 1569.7
-975.86 -892.22 1536.3
-978.34 -901.84 1552.9
-990.49 -916.82 1578.7
-982.57 -913.26 1572.6
-952.40 -888.91 1530.6
-952.63 -892.84 1537.4
-969.30 -912.28 1570.9
-996.14 -945.49 1628.1
-938.06 -901.82 1552.9
-931.20 -899.09 1548.2
-917.53 -893.59 1538.7
-913.92 -893.96 1539.3
-918.04 -901.93 1553.1
-913.93 -901.85 1552.9
-920.22 -912.08 1570.5
-931.84 -927.70 1597.4
-928.53 -928.53 1598.9
-918.51 -922.63 1588.7
-920.11 -928.40 1598.7
-931.88 -944.53 1626.4
-924.95 -941.77 1621.7
-904.82 -925.48 1593.6
-894.02 -918.63 1581.8
-873.64 -901.83 1552.9
-878.98 -920.05 1584.3
-876.93 -922.22 1588.0
-863.27 -912.13 1570.6
-857.80 -910.66 1568.1
-866.41 -924.17 1591.4
-856.23 -917.69 1580.2
-842.31 -907.10 1562.0
-832.24 -900.59 1550.8
-847.38 -921.42 1586.6
-879.06 -960.53 1654.0
-862.21 -946.74 1630.2
-833.44 -919.66 1583.6
-829.95 -934.22 1608.7
-860.55 -973.55 1676.4
-836.37 -955.85 1645.9
-787.13 -904.19 1557.0
-776.92 -906.41 1560.8
-785.31 -921.00 1585.9
-781.45 -931.10 1603.3
-801.89 -960.56 1654.0
-821.72 -989.60 1704.0
-802.63 -971.83 1673.4
-780.62 -950.31 1636.4
-753.83 -922.72 1588.9
-732.67 -943.20 1624.1
-752.15 -973.88 1677.0
-734.70 -956.81 1647.6
-701.62 -919.08 1582.6
-704.80 -928.68 1599.1
-711.10 -942.52 1623.0
-711.29 -948.39 1633.1
-713.89 -957.56 1648.9
-684.33 -923.43 1590.1
-657.64 -903.75 1556.2
-660.91 -913.85 1573.6
-659.68 -917.81 1580.4
-647.94 -907.12 1562.0
-634.28 -893.57 1538.7
-672.47 -953.38 1641.7
-692.26 -987.68 1700.7
-661.92 -950.45 1636.6
-644.38 -943.41 1624.5
-632.87 -932.64 1606.0
-610.23 -917.40 1579.7
-622.92 -942.80 1623.4
-627.89 -956.79 1647.5
-629.51 -979.24 1686.2
-613.64 -961.23 1655.2
-588.51 -928.35 1598.6
-593.79 -943.32 1624.3
-574.81 -926.31 1595.0
-585.81 -950.88 1637.4
-584.58 -955.81 1645.8
-563.06 -941.24 1620.8
-559.49 -942.30 1622.6
-543.71 -922.66 1588.8
-525.12 -941.02 1620.4
-528.73 -955.12 1644.7
-542.04 -987.14 1699.8
-541.37 -994.00 1711.6
-532.01 -984.87 1695.9
-533.10 -995.12 1713.5
-514.01 -967.54 1666.0
-505.11 -958.85 1651.1
-508.46 -973.47 1676.3
-495.09 -981.42 1690.0
-478.55 -957.11 1648.1
-461.49 -931.29 1603.6
-435.83 -920.99 1585.9
-437.66 -933.68 1607.7
-432.80 -932.18 1605.2
-433.37 -951.70 1638.8
-427.34 -947.76 1632.0
-418.06 -936.45 1612.5
-418.41 -946.70 1630.2
-391.08 -941.95 1622.0
-389.87 -949.26 1634.6
-377.01 -928.03 1598.0
-377.78 -940.25 1619.0
-385.48 -970.20 1670.6
-377.83 -961.75 1656.1
-353.98 -911.39 1569.4
-348.37 -918.07 1580.9
-352.74 -940.65 1619.7
-350.52 -945.97 1628.9
-348.06 -950.80 1637.2
-347.52 -961.06 1654.9
-335.95 -940.67 1619.8
-330.84 -938.07 1615.3
-335.90 -964.65 1661.1
-324.75 -944.72 1626.8
-313.78 -976.19 1680.9
-292.38 -963.13 1658.5
-284.91 -952.53 1640.2
-265.62 -915.38 1576.2
-255.94 -924.69 1592.3
-251.62 -923.98 1591.0
-234.25 -920.57 1585.2
-239.18 -956.71 1647.4
-233.38 -950.49 1636.7
-224.39 -930.81 1602.8
-220.41 -931.55 1604.1
-226.62 -976.19 1680.9
-219.23 -982.17 1691.2
-211.52 -966.94 1665.0
-208.00 -970.67 1671.4
-202.35 -964.40 1660.6
-194.30 -946.14 1629.2
-192.12 -956.35 1646.8
-187.80 -956.06 1646.3
-180.02 -937.77 1614.8
-176.34 -940.47 1619.4
-174.19 -951.67 1638.7
-172.03 -963.37 1658.9
-166.89 -958.55 1650.6
-149.23 -928.56 1598.9
-151.21 -967.77 1666.4
-148.82 -980.46 1688.3
-144.61 -981.62 1690.3
-134.10 -938.71 1616.4
-113.29 -939.90 1618.4
-111.15 -957.57 1648.9
-107.50 -963.21 1658.6
-100.47 -978.49 1684.9
-90.50 -921.42 1586.6
-86.53 -923.02 1589.4
-85.24 -954.72 1644.0
-81.33 -958.83 1651.0
-75.12 -934.83 1609.7
-63.19 -943.60 1624.8
-60.30 -964.75 1661.2
-57.01 -982.38 1691.6
-52.63 -982.44 1691.7
-47.38 -964.93 1661.6
-41.69 -933.85 1608.0
-37.46 -932.39 1605.5
-33.68 -942.97 1623.7
-20.86 -934.53 1609.2
-17.07 -955.64 1645.6
-13.03 -973.24 1675.9
-8.66 -969.73 1669.8
-4.26 -953.67 1642.2
8.30 -929.56 1600.6
12.31 -919.50 1583.3
16.13 -903.42 1555.6
20.56 -920.97 1585.9
25.45 -950.07 1636.0
30.33 -970.63 1671.4
33.23 -930.42 1602.1
40.35 -903.73 1556.2
44.87 -913.72 1573.4
51.42 -886.00 1525.6
55.43 -886.95 1527.3
74.35 -925.30 1593.3
78.05 -920.20 1584.5
80.72 -904.05 1556.7
86.77 -925.53 1593.7
90.05 -916.90 1578.8
98.22 -916.69 1578.5
103.81 -930.12 1601.6
110.39 -915.84 1577.0
120.29 -962.32 1657.1
125.74 -971.21 1672.4
130.59 -975.07 1679.0
130.49 -942.86 1623.5
144.49 -951.92 1639.1
148.01 -947.25 1631.1
148.59 -924.55 1592.0
152.61 -923.88 1590.9
160.78 -947.73 1631.9
166.80 -958.05 1649.7
170.60 -955.36 1645.1
174.01 -950.67 1637.0
173.90 -927.47 1597.1
183.73 -894.69 1540.6
192.08 -915.46 1576.4
191.95 -895.77 1542.5
205.31 -919.79 1583.8
218.64 -924.07 1591.2
220.91 -916.35 1577.9
243.71 -941.23 1620.7
252.04 -956.89 1647.7
255.83 -955.11 1644.6
255.01 -936.42 1612.5
257.73 -931.16 1603.4
263.35 -936.34 1612.3
268.44 -939.53 1617.8
274.85 -947.18 1631.0
272.84 -926.01 1594.5
302.95 -917.03 1579.1
304.11 -908.28 1564.0
328.89 -898.44 1547.1
337.53 -910.92 1568.5
342.94 -914.50 1574.7
346.50 -913.13 1572.4
352.89 -919.17 1582.7
368.91 -949.83 1635.6
376.48 -958.30 1650.1
361.42 -889.65 1531.9
365.23 -889.25 1531.2
380.87 -917.37 1579.7
385.62 -918.92 1582.3
401.71 -882.19 1519.1
413.77 -899.86 1549.5
413.27 -890.12 1532.7
405.58 -865.24 1489.9
407.39 -860.90 1482.4
412.89 -864.37 1488.4
457.21 -939.58 1617.9
450.63 -917.64 1580.1
491.95 -910.71 1568.2
497.65 -906.29 1560.6
480.51 -868.02 1494.7
501.92 -899.44 1548.8
527.66 -938.06 1615.3
515.92 -909.97 1566.9
520.75 -890.45 1533.3
530.94 -900.99 1551.4
525.77 -885.52 1524.8
563.00 -900.80 1551.1
572.12 -896.19 1543.2
583.42 -907.55 1562.7
618.75 -905.88 1559.9
642.54 -872.30 1502.0
642.13 -866.48 1492.0
671.12 -900.18 1550.1
700.72 -934.29 1608.8
699.41 -927.03 1596.3
668.83 -881.29 1517.5
671.15 -869.00 1496.4
686.15 -883.32 1521.0
703.25 -895.05 1541.2
689.00 -871.96 1501.5
681.19 -852.44 1467.8
701.30 -872.73 1502.8
723.07 -894.85 1540.9
705.49 -858.86 1478.9
749.37 -907.35 1562.4
774.38 -932.58 1605.9
756.27 -905.91 1559.9
727.08 -866.31 1491.7
720.22 -853.59 1469.8
745.39 -878.77 1513.2
784.53 -920.07 1584.3
766.64 -894.42 1540.1
736.25 -854.51 1471.4
736.20 -841.37 1448.8
779.75 -886.62 1526.7
798.47 -903.32 1555.5
789.21 -888.35 1529.7
792.10 -887.15 1527.6
829.49 -924.41 1591.8
799.50 -886.58 1526.6
766.72 -837.79 1442.6
780.29 -848.47 1461.0
774.99 -838.64 1444.1
783.56 -843.83 1453.0
797.68 -854.93 1472.1
794.42 -847.38 1459.1
789.81 -838.47 1443.8
784.28 -828.68 1426.9
796.21 -821.89 1415.3
778.97 -800.41 1378.3
938.07 -817.62 1407.9
931.30 -808.57 1392.3
979.58 -818.75 1409.8
980.20 -816.22 1405.5
1009.73 -822.47 1416.2
995.55 -807.98 1391.3
1047.89 -841.31 1448.7
1048.47 -832.82 1434.1
1066.12 -843.85 1453.1
1098.88 -866.72 1492.4
1077.92 -844.24 1453.7
1078.42 -841.69 1449.3
1096.26 -852.65 1468.2
1089.70 -844.61 1454.4
1096.71 -847.12 1458.7
1091.72 -840.36 1447.0
1065.86 -817.65 1407.9
1135.38 -831.13 1431.2
1156.32 -840.96 1448.1
1094.51 -793.43 1366.2
1054.09 -761.67 1311.5
1066.11 -767.87 1322.2
1112.54 -798.75 1375.4
1132.17 -810.24 1395.2
1098.32 -783.52 1349.2
1070.08 -760.95 1310.3
1067.14 -756.46 1302.6
-1550.21 -1100.30 1886.2
-1513.44 -1077.61 1847.3
-1362.10 -1004.83 1722.6
-1481.76 -1100.32 1886.3
-1459.36 -1087.27 1863.9
-1470.58 -1099.27 1884.5
-1486.73 -1115.05 1911.5
-1457.72 -1096.94 1880.5
-1398.35 -1059.36 1816.0
-1391.21 -1057.51 1812.9
-1424.32 -1086.35 1862.3
-1396.21 -1068.53 1831.8
-1331.45 -1022.44 1752.8
-1241.51 -966.58 1657.0
-1246.01 -983.69 1686.3
-1260.60 -998.72 1712.1
-1261.72 -1003.13 1719.7
-1205.67 -961.97 1649.1
-1089.96 -879.00 1506.9
-1137.35 -920.52 1578.0
-1149.16 -933.43 1600.2
-1092.00 -890.22 1526.1
-1086.72 -908.96 1558.2
-1117.20 -937.95 1607.9
-1084.36 -913.79 1566.5
-1079.83 -913.39 1565.8
-1060.50 -900.43 1543.6
-1047.36 -892.63 1530.2
-1090.60 -933.02 1599.5
-1096.12 -941.32 1613.7
-1072.81 -924.84 1585.4
-1046.10 -905.28 1551.9
-1032.55 -897.00 1537.7
-1042.57 -909.22 1558.7
-1059.99 -928.01 1590.9
-1103.14 -969.56 1662.1
-1095.43 -966.55 1657.0
-1076.36 -953.47 1634.5
-1078.14 -970.32 1663.4
-979.88 -885.43 1517.9
-961.76 -876.10 1501.9
-998.34 -913.12 1565.3
-993.30 -912.21 1563.8
-989.63 -920.11 1577.3
-978.39 -913.43 1565.9
-953.46 -893.87 1532.4
-951.21 -903.05 1548.1
-943.24 -910.85 1561.5
-931.75 -903.64 1549.1
-919.40 -895.52 1535.2
-901.14 -881.55 1511.2
-885.72 -870.25 1491.9
-900.84 -888.99 1524.0
-908.58 -900.58 1543.8
-909.46 -905.44 1552.2
-914.35 -914.35 1567.5
-917.39 -921.48 1579.7
-911.43 -919.60 1576.5
-898.80 -910.95 1561.6
-899.10 -915.38 1569.2
-890.57 -919.17 1575.7
-904.75 -938.11 1608.2
-863.06 -899.02 1541.2
-853.74 -893.45 1531.6
-870.39 -915.13 1568.8
-869.67 -918.66 1574.8
-852.61 -904.89 1551.2
-858.80 -920.14 1577.4
-856.29 -921.85 1580.3
-846.59 -915.79 1569.9
-840.72 -913.83 1566.6
-816.43 -891.73 1528.7
-811.49 -890.66 1526.8
-812.78 -896.45 1536.8
-819.78 -913.12 1565.3
-840.62 -940.99 1613.1
-817.52 -919.71 1576.6
-806.64 -926.00 1587.4
-826.80 -954.00 1635.4
-790.16 -916.43 1571.0
-794.00 -935.35 1603.4
-776.04 -923.86 1583.8
-781.48 -935.29 1603.3
-798.03 -960.20 1646.1
-812.19 -987.80 1693.4
-796.63 -974.14 1669.9
-777.37 -955.79 1638.5
-749.20 -926.21 1587.8
-754.68 -938.14 1608.2
-792.22 -990.28 1697.6
-774.63 -979.17 1678.6
-733.29 -932.15 1598.0
-720.90 -921.61 1579.9
-730.12 -938.73 1609.3
-727.23 -940.38 1612.1
-722.88 -940.16 1611.7
-716.36 -937.10 1606.5
-693.42 -912.39 1564.1
-705.18 -933.32 1600.0
-707.07 -946.97 1623.4
-697.08 -939.17 1610.0
-686.44 -930.42 1595.0
-667.55 -910.30 1560.5
-683.44 -949.22 1627.2
-700.06 -978.34 1677.2
-674.28 -948.21 1625.5
-646.73 -915.18 1568.9
-646.11 -920.10 1577.3
-627.88 -899.83 1542.6
-646.65 -950.95 1630.2
-630.29 -933.00 1599.4
-618.25 -921.23 1579.2
-624.17 -968.54 1660.4
-638.38 -997.47 1709.9
-604.17 -950.61 1629.6
-574.81 -917.25 1572.4
-587.25 -943.80 1617.9
-597.10 -966.53 1656.9
-571.04 -931.04 1596.1
-557.65 -929.41 1593.3
-577.72 -970.05 1662.9
-581.75 -984.16 1687.1
-561.85 -957.71 1641.8
-550.62 -945.72 1621.2
-552.89 -956.93 1640.5
-540.64 -942.98 1616.5
-512.65 -930.22 1594.7
-528.73 -967.19 1658.0
-531.85 -980.86 1681.5
-525.95 -978.02 1676.6
-521.70 -986.42 1691.0
-495.38 -944.58 1619.3
-459.55 -931.53 1596.9
-448.10 -942.27 1615.3
-437.67 -929.02 1592.6
-427.58 -916.24 1570.7
-409.09 -920.45 1577.9
-417.74 -949.42 1627.6
-419.08 -962.17 1649.4
-417.33 -968.03 1659.5
-385.00 -921.54 1579.8
-396.37 -958.95 1643.9
-405.80 -992.44 1701.3
-403.16 -996.83 1708.8
-390.01 -975.03 1671.5
-384.09 -971.01 1664.6
-390.57 -998.61 1711.9
-379.60 -981.72 1683.0
-357.05 -934.14 1601.4
-352.11 -932.05 1597.8
-359.39 -962.64 1650.2
-359.09 -973.43 1668.7
-346.60 -951.03 1630.3
-337.77 -974.35 1670.3
-330.68 -966.27 1656.5
-293.66 -957.58 1641.6
-296.12 -979.82 1679.7
-281.33 -944.76 1619.6
-251.29 -942.34 1615.4
-245.21 -935.12 1603.1
-228.17 -900.67 1544.0
-238.41 -957.91 1642.1
-238.87 -977.18 1675.2
-227.38 -947.43 1624.2
-220.40 -935.67 1604.0
-221.74 -959.44 1644.7
-218.89 -965.69 1655.5
-213.20 -959.42 1644.7
-208.23 -956.15 1639.1
-196.65 -921.81 1580.2
-186.80 -933.98 1601.1
-184.55 -943.71 1617.8
-178.76 -935.39 1603.5
-176.33 -944.62 1619.3
-175.00 -960.37 1646.3
-173.53 -976.12 1673.3
-168.97 -974.81 1671.1
-161.10 -953.91 1635.3
-157.88 -960.11 1645.9
-156.54 -978.37 1677.2
-152.22 -978.54 1677.5
-112.20 -934.99 1602.8
-110.21 -953.72 1635.0
-106.54 -958.88 1643.8
-103.26 -968.05 1659.5
-95.01 -929.42 1593.3
-82.02 -922.67 1581.7
-79.32 -939.37 1610.4
-75.72 -946.51 1622.6
-73.23 -969.25 1661.6
-69.22 -973.36 1668.6
-64.83 -972.43 1667.0
-60.42 -970.99 1664.5
-55.99 -969.04 1661.2
-49.86 -934.85 1602.6
-36.41 -910.31 1560.5
-33.44 -940.58 1612.4
-20.46 -920.51 1578.0
-16.51 -928.60 1591.9
-8.41 -946.26 1622.2
-4.22 -950.30 1629.1
0.00 -924.10 1584.2
4.05 -911.00 1561.7
8.39 -944.24 1618.7
12.65 -948.77 1626.5
16.39 -922.05 1580.7
20.70 -931.60 1597.0
33.66 -946.62 1622.8
38.35 -958.67 1643.4
42.07 -946.54 1622.6
45.36 -927.85 1590.6
52.73 -912.63 1564.5
55.22 -887.38 1521.2
68.51 -906.81 1554.5
72.82 -910.26 1560.4
90.25 -922.98 1582.3
95.21 -931.43 1596.7
98.37 -922.26 1581.0
99.78 -898.00 1539.4
108.34 -902.80 1547.7
117.46 -943.91 1618.1
122.03 -946.79 1623.1
129.64 -972.29 1666.8
132.42 -961.09 1647.6
138.34 -943.19 1616.9
146.22 -967.65 1658.8
146.90 -944.38 1618.9
148.66 -929.15 1592.8
154.09 -937.01 1606.3
159.07 -941.86 1614.6
161.66 -932.64 1598.8
164.79 -926.94 1589.0
167.59 -919.73 1576.7
170.80 -915.02 1568.6
178.00 -931.38 1596.7
188.57 -964.27 1653.0
192.21 -961.05 1647.5
186.81 -913.72 1566.4
201.36 -924.60 1585.0
213.87 -962.43 1649.9
215.94 -952.67 1633.2
217.23 -939.92 1611.3
225.59 -957.69 1641.7
225.70 -940.43 1612.2
245.89 -953.88 1635.2
252.02 -961.10 1647.6
253.42 -950.33 1629.1
249.31 -919.59 1576.4
247.00 -896.35 1536.6
257.36 -904.78 1551.0
267.35 -925.43 1586.5
268.74 -916.16 1570.6
288.28 -900.88 1544.4
298.31 -919.45 1576.2
308.34 -937.51 1607.2
307.42 -922.27 1581.0
320.25 -900.69 1544.0
348.04 -966.77 1657.3
349.49 -958.96 1643.9
343.56 -931.33 1596.6
341.08 -913.62 1566.2
338.08 -894.93 1534.2
344.38 -900.99 1544.6
360.67 -932.76 1599.0
377.61 -965.49 1655.1
379.79 -960.14 1645.9
371.24 -928.11 1591.0
366.22 -905.49 1552.3
367.46 -898.67 1540.6
382.09 -924.42 1584.7
387.26 -926.96 1589.1
407.52 -898.93 1541.0
417.83 -912.73 1564.7
421.90 -912.77 1564.8
417.05 -893.68 1532.0
431.61 -899.18 1541.5
441.07 -910.47 1560.8
442.02 -904.13 1549.9
456.59 -885.64 1518.2
483.34 -929.51 1593.4
479.08 -898.28 1539.9
510.14 -933.18 1599.7
485.90 -881.67 1511.4
501.39 -902.51 1547.2
525.20 -923.20 1582.6
525.66 -916.84 1571.7
529.69 -916.78 1571.6
534.29 -917.67 1573.2
531.24 -905.52 1552.3
513.37 -855.62 1466.8
511.03 -845.45 1449.3
573.79 -922.16 1580.9
568.49 -907.16 1555.1
561.24 -889.29 1524.5
580.99 -914.14 1567.1
598.48 -935.13 1603.1
578.96 -892.23 1529.5
614.25 -921.37 1579.5
604.47 -900.70 1544.1
604.09 -860.25 1474.7
629.95 -891.44 1528.2
647.63 -910.73 1561.3
639.50 -882.75 1513.3
654.34 -897.72 1538.9
659.23 -898.96 1541.1
636.96 -863.35 1480.0
644.53 -868.38 1488.7
663.06 -888.02 1522.3
706.54 -913.62 1566.2
717.72 -922.78 1581.9
720.54 -921.14 1579.1
686.86 -873.13 1496.8
687.54 -859.42 1473.3
709.60 -882.10 1512.2
741.65 -916.88 1571.8
764.10 -939.47 1610.5
749.39 -916.37 1570.9
745.21 -906.33 1553.7
772.93 -929.99 1594.3
758.20 -907.42 1555.6
767.86 -914.12 1567.1
758.38 -898.08 1539.6
760.18 -895.50 1535.1
775.00 -908.20 1556.9
778.80 -907.93 1556.4
770.24 -893.32 1531.4
754.77 -870.88 1492.9
749.57 -860.48 1475.1
759.64 -867.61 1487.3
768.94 -873.80 1497.9
760.70 -855.79 1467.1
800.40 -895.97 1535.9
803.70 -895.21 1534.7
784.36 -852.57 1461.5
773.55 -836.77 1434.5
768.12 -826.92 1417.6
787.73 -843.99 1446.8
804.47 -857.84 1470.6
821.73 -872.12 1495.1
811.54 -857.27 1469.6
794.31 -831.25 1425.0
801.22 -834.61 1430.8
810.35 -840.22 1440.4
813.80 -839.93 1439.9
943.42 -807.11 1383.6
969.49 -826.27 1416.5
974.76 -827.63 1418.8
999.17 -842.00 1443.4
1022.00 -858.02 1470.9
992.80 -830.41 1423.6
961.84 -792.73 1359.0
1004.20 -818.64 1403.4
1039.51 -844.37 1447.5
1033.78 -827.76 1419.0
1045.49 -834.16 1430.0
1044.92 -830.77 1424.2
1055.60 -836.30 1433.7
1049.64 -828.66 1420.6
1039.84 -818.06 1402.4
1067.29 -836.72 1434.4
1096.47 -856.62 1468.5
1101.33 -857.44 1469.9
1082.23 -839.66 1439.4
1054.82 -815.58 1398.1
1047.51 -807.16 1383.7
1041.79 -800.01 1371.4
1052.67 -792.14 1358.0
1038.93 -779.19 1335.8
1102.85 -810.92 1390.2
1138.73 -834.57 1430.7
1120.23 -818.35 1402.9
1068.07 -777.72 1333.2
1118.11 -803.75 1377.9
1116.48 -800.02 1371.5
1120.00 -800.00 1371.4
1122.95 -799.57 1370.7
1088.85 -772.84 1324.9
-1498.02 -1061.29 1811.3
-1520.99 -1080.95 1844.9
-1531.11 -1091.58 1863.0
-1486.05 -1073.00 1831.3
-1464.48 -1067.66 1822.2
-1456.16 -1075.47 1835.5
-1440.66 -1071.02 1827.9
-1446.48 -1082.46 1847.4
-1432.01 -1075.20 1835.0
-1424.28 -1072.95 1831.2
-1369.29 -1034.99 1766.4
-1356.70 -1028.90 1756.0
-1333.78 -1032.31 1761.8
-1250.08 -974.20 1662.7
-1260.07 -985.38 1681.8
-1144.84 -911.03 1554.9
-1199.19 -957.66 1634.4
-1197.23 -959.48 1637.5
-1145.06 -934.24 1594.5
-1105.30 -905.06 1544.7
-1055.91 -874.12 1491.9
-1105.06 -918.18 1567.1
-1110.91 -926.44 1581.2
-1070.24 -909.30 1551.9
-1055.54 -900.19 1536.4
-1046.48 -895.85 1529.0
-1102.86 -947.71 1617.5
-1118.96 -965.21 1647.3
-1088.55 -942.58 1608.7
-1053.26 -915.52 1562.5
-1078.85 -952.42 1625.5
-1083.43 -975.51 1664.9
-1034.26 -934.97 1595.7
-1004.45 -926.55 1581.4
-1016.15 -941.18 1606.3
-1033.95 -961.61 1641.2
-994.62 -932.71 1591.9
-948.97 -904.92 1544.4
-988.32 -946.44 1615.3
-952.47 -915.99 1563.3
-940.01 -907.88 1549.5
-981.69 -952.20 1625.1
-988.50 -962.94 1643.4
-953.93 -933.28 1592.8
-911.32 -895.47 1528.3
-887.89 -887.89 1515.4
-911.28 -915.33 1562.2
-933.58 -941.92 1607.6
-921.32 -933.71 1593.6
-902.88 -919.15 1568.7
-903.05 -940.51 1605.2
-913.60 -955.90 1631.4
-867.26 -911.63 1555.9
-847.57 -895.10 1527.7
-863.27 -915.96 1563.3
-858.46 -932.75 1591.9
-871.45 -951.44 1623.8
-866.73 -950.87 1622.9
-838.66 -924.57 1578.0
-817.42 -905.58 1545.5
-816.58 -909.10 1551.6
-841.24 -941.19 1606.3
-875.10 -983.94 1679.3
-866.98 -979.69 1672.0
-792.63 -913.95 1559.8
-829.62 -961.50 1641.0
-807.33 -940.49 1605.1
-783.21 -917.13 1565.3
-809.78 -953.17 1626.8
-812.89 -961.85 1641.6
-783.09 -936.39 1598.1
-791.98 -952.06 1624.9
-763.69 -922.97 1575.2
-750.61 -912.03 1556.6
-768.20 -938.45 1601.6
-784.06 -963.03 1643.6
-785.71 -970.34 1656.1
-777.51 -965.48 1647.8
-770.84 -962.48 1642.7
-794.81 -997.93 1703.2
-762.39 -973.45 1661.4
-767.45 -985.48 1681.9
-760.03 -981.52 1675.2
-740.66 -962.01 1641.9
-717.11 -936.81 1598.8
-691.24 -908.26 1550.1
-719.83 -974.14 1662.6
-694.81 -945.95 1614.4
-676.93 -927.19 1582.4
-665.40 -916.95 1565.0
-693.33 -961.30 1640.7
-707.49 -993.12 1695.0
-639.91 -903.87 1542.6
-635.11 -932.05 1590.7
-645.99 -954.21 1628.6
-647.68 -963.00 1643.6
-633.94 -948.81 1619.3
-623.49 -939.39 1603.3
-611.90 -947.18 1616.6
-633.71 -987.72 1685.7
-627.92 -985.48 1681.9
-616.04 -973.60 1661.6
-606.68 -965.56 1647.9
-582.04 -932.92 1592.2
-570.21 -920.49 1571.0
-577.78 -939.42 1603.3
-558.23 -927.65 1583.2
-559.10 -935.97 1597.4
-555.30 -936.54 1598.4
-568.03 -965.22 1647.3
-558.16 -955.63 1631.0
-545.83 -941.65 1607.1
-547.29 -951.44 1623.8
-540.36 -946.67 1615.7
-537.41 -963.92 1645.1
-533.45 -964.48 1646.1
-532.43 -970.40 1656.2
-528.70 -971.44 1658.0
-511.28 -947.12 1616.5
-503.72 -940.83 1605.7
-510.20 -960.89 1639.9
-509.84 -968.26 1652.5
-478.02 -964.58 1646.3
-470.15 -957.24 1633.7
-452.06 -928.78 1585.1
-448.89 -930.73 1588.5
-448.05 -937.60 1600.2
-445.76 -941.51 1606.9
-406.25 -918.12 1567.0
-419.46 -957.55 1634.2
-425.48 -981.21 1674.6
-427.91 -996.98 1701.5
-421.80 -992.99 1694.7
-400.14 -951.91 1624.6
-389.31 -936.01 1597.5
-383.72 -932.47 1591.5
-376.94 -925.95 1580.3
-390.16 -968.96 1653.7
-393.74 -988.71 1687.4
-386.01 -980.21 1672.9
-390.72 -1003.45 1712.6
-363.12 -965.47 1647.8
-355.12 -955.43 1630.6
-356.51 -970.73 1656.7
-345.14 -951.23 1623.5
-336.78 -939.66 1603.7
-340.15 -985.57 1682.1
-335.41 -984.45 1680.2
-315.25 -937.47 1600.0
-312.90 -955.61 1630.9
-298.37 -977.26 1667.9
-289.48 -962.10 1642.0
-275.98 -930.92 1588.8
-266.55 -912.72 1557.7
-262.05 -987.06 1684.6
-252.95 -985.63 1682.2
-235.00 -931.75 1590.2
-229.45 -925.99 1580.4
-232.98 -957.35 1633.9
-224.37 -939.04 1602.7
-215.60 -937.02 1599.2
-217.74 -964.88 1646.8
-217.41 -982.71 1677.2
-210.39 -970.38 1656.2
-197.39 -929.40 1586.2
-188.52 -906.49 1547.1
-191.41 -940.39 1605.0
-191.80 -963.24 1644.0
-185.91 -954.90 1629.7
-180.86 -950.58 1622.3
-179.03 -963.36 1644.2
-174.07 -959.53 1637.6
-168.88 -954.18 1628.5
-166.78 -966.46 1649.5
-161.09 -958.08 1635.2
-157.96 -964.81 1646.6
-157.01 -985.64 1682.2
-153.84 -993.38 1695.4
-148.79 -989.01 1687.9
-138.40 -947.83 1617.7
-112.07 -938.09 1601.0
-108.34 -941.74 1607.3
-102.51 -926.72 1581.6
-90.19 -926.54 1581.3
-84.23 -906.44 1547.0
-81.65 -922.70 1574.8
-62.64 -943.82 1610.8
-59.63 -962.58 1642.8
-54.07 -939.91 1604.1
-24.67 -929.10 1585.7
-20.21 -913.45 1559.0
12.50 -941.29 1606.5
17.09 -965.54 1647.9
21.06 -951.87 1624.6
24.71 -930.61 1588.3
28.40 -916.94 1564.9
33.01 -932.57 1591.6
37.80 -949.21 1620.0
41.73 -943.10 1609.6
46.42 -953.66 1627.6
51.81 -975.84 1665.5
56.10 -975.28 1664.5
59.19 -955.51 1630.8
60.60 -913.00 1558.2
63.52 -897.26 1531.4
69.65 -925.98 1580.4
73.87 -927.42 1582.8
77.88 -926.32 1581.0
83.49 -943.40 1610.1
85.17 -916.54 1564.3
93.00 -913.82 1559.6
96.87 -912.20 1556.8
100.95 -912.59 1557.5
105.15 -913.99 1559.9
128.67 -938.05 1601.0
137.52 -941.78 1607.3
141.66 -941.63 1607.1
142.91 -922.82 1575.0
145.29 -912.07 1556.6
173.70 -934.67 1595.2
180.38 -948.06 1618.1
190.32 -977.54 1668.4
194.30 -975.81 1665.4
189.16 -929.33 1586.1
198.89 -936.44 1598.2
208.90 -925.70 1579.9
236.64 -938.27 1601.3
249.25 -954.77 1629.5
243.03 -915.41 1562.3
246.33 -912.64 1557.6
251.80 -917.87 1566.5
251.88 -903.57 1542.1
259.77 -917.30 1565.6
266.33 -926.02 1580.4
264.35 -905.21 1544.9
264.42 -891.92 1522.2
291.61 -941.47 1606.8
298.34 -949.63 1620.7
303.23 -951.80 1624.4
301.21 -932.50 1591.5
321.48 -908.18 1550.0
345.87 -965.03 1647.0
343.33 -946.25 1615.0
346.10 -942.40 1608.4
352.35 -947.98 1617.9
345.37 -918.29 1567.2
348.73 -916.42 1564.1
361.42 -938.87 1602.4
374.89 -962.78 1643.2
378.34 -950.06 1621.5
380.78 -945.68 1614.0
390.64 -959.62 1637.8
378.08 -880.88 1503.4
422.40 -954.63 1629.3
423.67 -929.60 1586.5
397.21 -863.16 1473.2
415.92 -895.21 1527.9
443.89 -946.42 1615.2
449.02 -948.40 1618.6
448.52 -938.58 1601.9
458.60 -950.87 1622.8
461.38 -947.92 1617.8
442.20 -900.33 1536.6
453.35 -883.25 1507.4
486.69 -932.14 1590.9
458.65 -871.04 1486.6
486.27 -900.79 1537.4
493.69 -907.10 1548.1
497.15 -906.09 1546.4
512.08 -897.13 1531.1
531.93 -924.75 1578.3
530.92 -915.94 1563.2
523.61 -896.48 1530.0
526.11 -893.99 1525.8
539.50 -909.91 1552.9
543.20 -909.35 1552.0
536.40 -891.37 1521.3
522.43 -861.82 1470.9
561.16 -912.38 1557.2
594.10 -938.93 1602.5
581.47 -900.09 1536.2
560.70 -862.03 1471.2
606.63 -913.99 1559.9
604.22 -892.51 1523.3
620.96 -893.86 1525.6
622.14 -889.90 1518.8
639.71 -909.28 1551.9
649.68 -917.67 1566.2
647.86 -909.41 1552.1
651.75 -909.24 1551.8
676.89 -938.51 1601.8
692.51 -948.53 1618.9
654.08 -890.50 1519.8
650.54 -880.38 1502.5
658.18 -885.41 1511.1
652.41 -872.46 1489.0
689.50 -880.38 1502.5
715.80 -908.83 1551.1
667.97 -843.36 1439.4
727.75 -898.75 1533.9
721.26 -885.89 1512.0
743.76 -889.36 1517.9
778.78 -926.34 1581.0
753.17 -891.19 1521.0
772.51 -904.59 1543.9
791.80 -922.41 1574.3
790.83 -916.56 1564.3
795.04 -916.73 1564.6
769.81 -883.13 1507.2
747.16 -852.82 1455.5
784.90 -886.93 1513.7
814.41 -915.70 1562.8
807.07 -902.96 1541.1
786.40 -875.50 1494.2
774.25 -857.74 1463.9
780.30 -860.24 1468.2
808.97 -887.51 1514.7
804.64 -878.50 1499.3
772.83 -839.71 1433.1
756.82 -818.38 1396.7
765.31 -823.62 1405.7
801.37 -846.31 1444.4
802.87 -828.53 1414.1
817.30 -839.59 1432.9
800.35 -818.46 1396.9
978.90 -844.39 1441.1
951.76 -817.86 1395.8
980.24 -832.84 1421.4
994.68 -832.59 1421.0
1017.08 -848.19 1447.6
997.53 -825.80 1409.4
974.59 -803.86 1371.9
992.88 -813.01 1387.6
1040.77 -849.15 1449.2
1003.88 -816.10 1392.8
1054.01 -829.99 1416.5
1099.39 -862.72 1472.4
1072.23 -838.49 1431.0
1034.39 -797.86 1361.7
1024.77 -787.75 1344.4
1057.41 -799.25 1364.1
1035.89 -780.37 1331.9
1022.63 -767.82 1310.4
1041.75 -779.59 1330.5
1031.78 -769.58 1313.4
1000.37 -743.69 1269.3
1079.55 -794.71 1356.3
1063.21 -780.15 1331.5
1131.26 -811.63 1385.2
1165.98 -833.89 1423.2
1140.09 -812.81 1387.2
-1513.19 -1083.58 1841.2
-1505.40 -1081.41 1837.5
-1540.77 -1110.34 1886.7
-1536.35 -1110.67 1887.2
-1510.14 -1095.21 1861.0
-1464.01 -1065.16 1809.9
-1480.24 -1080.44 1835.9
-1487.28 -1089.07 1850.5
-1424.00 -1056.36 1795.0
-1357.18 -1010.10 1716.3
-1406.46 -1064.22 1808.3
-1325.38 -1023.34 1738.8
-1347.97 -1044.33 1774.5
-1294.47 -1006.32 1709.9
-1129.98 -903.19 1534.7
-1137.30 -912.25 1550.1
-1170.14 -941.92 1600.5
-1167.16 -942.87 1602.1
-1171.08 -949.41 1613.2
-1177.59 -958.11 1628.0
-1144.47 -934.51 1587.9
-1108.86 -908.71 1544.1
-1078.67 -887.17 1507.5
-1089.41 -905.84 1539.2
-1121.81 -936.22 1590.8
-1108.43 -928.47 1577.6
-1104.40 -928.52 1577.7
-1081.31 -912.48 1550.5
-1051.46 -897.30 1524.7
-1066.49 -924.02 1570.1
-1062.95 -924.48 1570.9
-1050.36 -917.04 1558.2
-1063.03 -942.61 1601.7
-1053.96 -938.23 1594.2
-1048.86 -937.37 1592.8
-1036.87 -930.32 1580.8
-1012.17 -911.76 1549.2
-996.89 -901.57 1531.9
-1028.49 -933.87 1586.8
-1039.45 -947.61 1610.2
-989.24 -905.48 1538.6
-1010.95 -940.52 1598.1
-1037.34 -969.03 1646.6
-1038.79 -974.40 1655.7
-964.51 -923.81 1569.7
-984.17 -950.66 1615.3
-947.98 -919.62 1562.6
-965.11 -940.26 1597.7
-991.76 -970.39 1648.9
-974.63 -957.75 1627.4
-925.59 -913.51 1552.2
-906.02 -910.03 1546.3
-919.44 -927.62 1576.2
-928.71 -941.15 1599.2
-917.17 -937.83 1593.5
-929.35 -954.58 1622.0
-907.43 -936.31 1591.0
-901.46 -947.37 1609.8
-896.78 -946.83 1608.8
-876.56 -929.81 1579.9
-892.13 -950.77 1615.5
-892.56 -955.72 1623.9
-818.89 -893.69 1518.5
-850.91 -933.12 1585.5
-866.75 -955.11 1622.9
-859.11 -951.31 1616.4
-842.37 -937.34 1592.7
-844.32 -944.14 1604.3
-859.79 -966.20 1641.7
-873.91 -991.89 1685.4
-810.95 -925.05 1571.8
-837.57 -965.11 1639.9
-830.79 -962.19 1634.9
-818.84 -953.21 1619.7
-807.35 -944.69 1605.2
-795.53 -935.68 1589.9
-802.30 -948.55 1611.8
-785.03 -932.99 1585.3
-744.99 -894.78 1520.4
-766.82 -925.89 1573.3
-755.25 -916.80 1557.8
-789.76 -974.33 1655.6
-791.82 -987.60 1678.1
-769.34 -964.86 1639.5
-772.77 -974.55 1655.9
-773.90 -981.42 1667.6
-757.23 -965.68 1640.9
-745.10 -955.57 1623.7
-724.25 -934.12 1587.2
-733.35 -962.26 1635.1
-709.57 -936.47 1591.2
-715.16 -966.32 1642.0
-671.07 -923.23 1568.7
-667.14 -923.42 1569.1
-708.04 -986.04 1675.5
-696.63 -982.20 1668.9
-639.60 -907.44 1541.9
-632.19 -931.87 1583.4
-666.69 -989.14 1680.7
-653.78 -976.37 1659.0
-624.98 -939.54 1596.5
-622.53 -942.10 1600.8
-609.01 -927.82 1576.5
-602.50 -924.10 1570.2
-616.61 -952.18 1617.9
-615.61 -957.15 1626.4
-608.10 -951.99 1617.6
-610.43 -962.27 1635.1
-605.67 -961.45 1633.7
-597.89 -955.78 1624.0
-575.13 -925.92 1573.3
-578.67 -958.82 1629.2
-581.20 -970.10 1648.4
-559.38 -940.59 1598.2
-540.30 -943.45 1603.1
-525.94 -925.50 1572.6
-522.45 -926.53 1574.4
-529.87 -947.09 1609.3
-530.61 -955.94 1624.3
-522.40 -948.68 1612.0
-519.32 -950.69 1615.4
-514.37 -949.28 1613.0
-510.21 -949.33 1613.1
-513.63 -963.58 1637.3
-504.49 -954.32 1621.6
-476.20 -931.88 1583.4
-472.35 -932.38 1584.3
-479.70 -972.25 1652.0
-460.48 -958.98 1629.5
-451.33 -948.63 1611.9
-441.33 -936.28 1590.9
-444.34 -951.56 1616.9
-443.34 -958.45 1628.6
-434.58 -948.55 1611.8
-428.15 -943.58 1603.3
-421.31 -937.61 1593.2
-407.91 -916.79 1557.8
-407.55 -925.15 1572.0
-420.73 -964.71 1639.2
-413.26 -957.23 1626.5
-403.30 -943.80 1603.7
-404.15 -955.64 1623.8
-390.57 -933.25 1585.8
-375.79 -937.40 1592.8
-386.80 -975.60 1657.7
-386.76 -986.46 1676.2
-387.60 -999.82 1698.9
-386.79 -1009.21 1714.8
-368.51 -984.13 1672.2
-345.05 -991.47 1684.7
-335.55 -989.22 1680.9
-321.27 -959.58 1630.5
-320.13 -968.94 1646.4
-321.69 -986.80 1676.8
-304.42 -946.61 1608.5
-283.60 -946.73 1608.7
-282.78 -958.08 1627.9
-266.69 -917.24 1558.6
-256.22 -908.79 1544.2
-249.63 -960.45 1632.0
-243.80 -954.18 1621.3
-222.98 -903.89 1535.9
-225.89 -932.32 1584.2
-221.37 -930.56 1581.2
-216.85 -928.79 1578.2
-214.89 -938.10 1594.0
-215.57 -959.50 1630.4
-214.84 -975.37 1657.3
-207.55 -961.49 1633.7
-197.71 -934.99 1588.7
-192.38 -929.16 1578.8
-194.77 -961.16 1633.2
-195.18 -984.59 1673.0
-188.54 -972.69 1652.8
-180.05 -973.10 1653.5
-174.43 -965.73 1640.9
-160.77 -935.79 1590.1
-160.66 -959.72 1630.7
-163.05 -1000.34 1699.8
-158.91 -1002.04 1702.6
-153.20 -993.62 1688.3
-148.32 -990.25 1682.6
-137.80 -947.92 1610.7
-133.86 -949.59 1613.5
-135.92 -995.28 1691.2
-129.08 -976.71 1659.6
-109.72 -922.44 1567.4
-107.06 -934.72 1588.3
-102.17 -927.75 1576.4
-93.48 -964.55 1638.9
-86.03 -976.40 1659.1
-62.97 -953.00 1619.3
-59.78 -969.30 1647.0
-54.09 -944.52 1604.9
-49.13 -929.37 1579.2
-45.01 -928.91 1578.4
-41.44 -940.62 1598.3
-38.18 -962.98 1636.3
-33.40 -947.81 1610.5
-28.32 -918.43 1560.6
-24.17 -914.40 1553.7
16.94 -961.11 1633.1
21.31 -967.68 1644.3
24.77 -937.22 1592.5
32.19 -913.32 1551.9
39.78 -903.10 1534.5
44.25 -913.19 1551.7
50.79 -960.80 1632.6
56.50 -986.60 1676.4
59.47 -964.23 1638.4
60.76 -919.55 1562.5
68.63 -916.36 1557.1
73.98 -933.00 1585.3
79.44 -949.13 1612.8
85.80 -973.87 1654.8
88.35 -955.02 1622.8
95.10 -938.61 1594.9
99.92 -945.08 1605.9
105.02 -953.57 1620.3
108.45 -946.87 1608.9
108.09 -908.77 1544.2
133.10 -915.55 1555.7
140.06 -935.12 1588.9
147.37 -929.24 1578.9
153.66 -942.71 1601.8
159.47 -952.65 1618.7
161.30 -938.82 1595.2
177.06 -956.94 1626.0
184.68 -974.92 1656.6
182.47 -941.39 1599.6
194.16 -937.73 1593.4
201.33 -952.14 1617.9
201.02 -931.24 1582.3
202.85 -920.93 1564.8
207.87 -925.23 1572.1
233.73 -930.80 1581.6
251.33 -966.98 1643.1
245.55 -929.00 1578.5
249.30 -927.72 1576.4
254.82 -932.96 1585.3
255.09 -919.12 1561.7
258.91 -918.33 1560.4
261.44 -913.02 1551.4
264.79 -910.72 1547.5
273.69 -913.64 1552.4
282.34 -928.87 1578.3
289.89 -940.08 1597.4
291.58 -932.24 1584.1
299.88 -945.44 1606.5
301.36 -937.10 1592.3
316.55 -898.22 1526.2
335.34 -939.79 1596.9
337.55 -934.43 1587.8
344.99 -943.54 1603.2
356.94 -964.59 1639.0
356.38 -951.74 1617.2
359.10 -947.86 1610.6
371.52 -969.38 1647.1
372.16 -960.01 1631.2
366.48 -934.73 1588.3
372.02 -938.31 1594.4
383.76 -957.28 1626.6
387.60 -956.37 1625.0
376.99 -920.19 1563.6
384.13 -917.87 1559.6
391.35 -925.39 1572.4
394.61 -923.48 1569.2
395.50 -916.11 1556.6
413.39 -947.87 1610.6
426.53 -968.21 1645.2
424.20 -953.40 1620.0
423.53 -942.56 1601.6
427.58 -924.38 1570.7
442.96 -948.60 1611.8
433.66 -920.00 1563.3
425.99 -895.38 1521.4
446.09 -920.56 1564.2
441.72 -903.35 1534.9
474.45 -912.71 1550.9
480.52 -916.62 1557.5
453.73 -858.30 1458.4
499.53 -921.89 1566.5
483.81 -885.68 1504.9
507.67 -886.47 1506.3
518.57 -898.59 1526.9
513.16 -882.48 1499.5
518.16 -884.38 1502.7
526.04 -891.12 1514.2
561.76 -917.41 1558.9
580.67 -941.52 1599.8
576.63 -928.34 1577.4
581.26 -929.19 1578.9
576.15 -914.58 1554.0
551.71 -851.95 1447.6
567.31 -864.29 1468.6
567.24 -858.42 1458.6
581.51 -874.19 1485.4
616.80 -921.14 1565.2
616.23 -914.27 1553.5
590.56 -848.46 1441.7
610.28 -871.28 1480.5
643.74 -891.04 1514.0
639.59 -879.92 1495.1
648.15 -881.02 1497.0
652.96 -882.27 1499.1
643.29 -864.06 1468.2
650.17 -868.17 1475.2
662.32 -869.06 1476.7
665.29 -867.94 1474.8
668.97 -867.75 1474.5
709.79 -910.30 1546.8
741.34 -945.42 1606.4
691.83 -877.35 1490.8
733.11 -904.43 1536.8
764.78 -938.41 1594.5
724.17 -883.80 1501.7
721.37 -861.85 1464.4
748.13 -889.14 1510.8
747.70 -874.88 1486.6
777.30 -904.86 1537.5
793.88 -919.45 1562.3
777.94 -896.41 1523.2
737.55 -845.57 1436.8
729.29 -831.90 1413.5
777.63 -882.61 1499.7
822.65 -929.07 1578.7
798.08 -896.85 1523.9
763.36 -853.61 1450.4
801.31 -891.65 1515.1
788.36 -864.53 1469.0
778.01 -849.08 1442.7
780.23 -847.43 1439.9
770.98 -833.39 1416.1
806.53 -836.00 1420.5
809.50 -835.26 1419.3
781.02 -802.23 1363.1
770.53 -787.88 1338.8
942.55 -819.76 1392.9
977.57 -846.98 1439.2
959.09 -815.40 1385.5
949.44 -798.23 1356.3
1011.90 -838.33 1424.5
973.17 -800.39 1360.0
998.87 -818.57 1390.9
990.39 -808.70 1374.1
975.50 -793.69 1348.6
1056.94 -835.98 1420.5
1056.84 -833.00 1415.4
1031.93 -799.48 1358.5
1076.66 -831.30 1412.5
1073.72 -826.21 1403.9
1056.10 -807.19 1371.6
1038.98 -786.16 1335.8
1050.29 -792.08 1345.9
1078.42 -810.60 1377.4
1074.14 -804.72 1367.4
1025.44 -765.71 1301.1
1017.04 -756.95 1286.2
1148.24 -827.46 1406.0
1102.23 -791.79 1345.4
1080.16 -768.64 1306.1
-1488.60 -1067.30 1805.6
-1505.70 -1082.96 1832.1
-1522.89 -1112.88 1882.7
-1447.75 -1061.37 1795.6
-1350.84 -1026.64 1736.8
-1287.02 -998.10 1688.5
-1328.29 -1033.62 1748.6
-1292.35 -1009.10 1707.1
-1224.58 -976.24 1651.5
-1210.26 -968.21 1637.9
-1166.55 -936.52 1584.3
-1155.60 -931.01 1575.0
-1172.39 -947.89 1603.6
-1158.78 -940.22 1590.6
-1153.69 -939.44 1589.3
-1167.64 -954.20 1614.2
-1141.95 -936.56 1584.4
-1089.55 -896.81 1517.2
-1060.63 -882.57 1493.1
-1095.79 -915.16 1548.2
-1101.68 -923.47 1562.3
-1086.29 -913.93 1546.1
-1080.77 -912.65 1544.0
-1092.25 -925.77 1566.2
-1080.53 -919.26 1555.1
-1031.69 -884.31 1496.0
-1065.57 -930.84 1574.7
-1045.95 -917.22 1551.7
-1033.93 -910.18 1539.8
-1024.95 -905.77 1532.3
-1023.79 -919.00 1554.7
-1032.54 -930.51 1574.2
-1027.97 -930.07 1573.4
-981.86 -891.89 1508.8
-983.26 -896.73 1517.0
-1023.49 -937.17 1585.4
-1004.85 -923.81 1562.8
-990.64 -914.44 1547.0
-999.59 -926.45 1567.3
-976.11 -912.10 1543.0
-992.57 -931.30 1575.5
-985.13 -928.14 1570.2
-962.55 -910.63 1540.5
-962.60 -922.16 1560.0
-949.62 -913.56 1545.5
-919.66 -892.26 1509.5
-909.64 -886.32 1499.4
-927.34 -907.44 1535.1
-953.17 -936.74 1584.7
-962.30 -949.80 1606.8
-942.11 -933.92 1579.9
-935.58 -965.21 1632.9
-937.02 -971.09 1642.8
-904.16 -941.32 1592.5
-881.09 -930.04 1573.4
-891.19 -945.08 1598.8
-886.52 -944.52 1597.9
-888.30 -950.86 1608.6
-875.91 -942.02 1593.6
-824.11 -907.72 1535.6
-858.84 -950.56 1608.1
-856.23 -952.29 1611.0
-848.48 -952.97 1612.2
-866.79 -978.35 1655.1
-861.17 -976.85 1652.6
-819.69 -934.45 1580.8
-789.07 -904.06 1529.4
-812.43 -935.53 1582.7
-837.17 -968.91 1639.1
-820.78 -954.79 1615.2
-801.70 -937.37 1585.8
-785.92 -923.66 1562.6
-776.18 -916.93 1551.2
-783.02 -929.84 1573.0
-801.14 -956.33 1617.9
-796.02 -955.23 1616.0
-771.09 -930.21 1573.7
-769.56 -933.29 1578.9
-771.47 -940.61 1591.3
-764.11 -936.66 1584.6
-754.88 -930.34 1573.9
-774.18 -959.31 1622.9
-787.97 -981.73 1660.8
-751.16 -941.01 1591.9
-738.25 -929.95 1573.2
-746.67 -945.78 1600.0
-744.20 -947.92 1603.6
-724.00 -927.37 1568.9
-730.01 -967.69 1637.1
-702.78 -937.04 1585.2
-657.99 -903.75 1528.9
-669.02 -924.46 1563.9
-681.60 -947.59 1603.1
-691.94 -967.87 1637.4
-693.29 -975.74 1650.7
-675.64 -956.80 1618.7
-639.30 -911.00 1541.2
-650.49 -938.68 1588.0
-651.78 -946.53 1601.3
-653.33 -967.27 1636.4
-661.16 -985.27 1666.8
-624.12 -948.67 1604.9
-595.46 -929.90 1573.1
-581.58 -967.89 1637.4
-581.76 -975.31 1650.0
-532.77 -934.40 1580.8
-520.86 -935.08 1581.9
-536.01 -969.92 1640.8
-540.12 -985.19 1666.7
-531.83 -985.83 1667.7
-517.56 -967.24 1636.3
-513.08 -966.80 1635.6
-495.93 -942.27 1594.1
-496.25 -975.38 1650.1
-494.97 -981.33 1660.1
-480.32 -960.65 1625.2
-466.35 -966.62 1635.3
-471.57 -986.40 1668.7
-455.77 -962.17 1627.7
-430.41 -917.13 1551.5
-444.96 -975.50 1650.3
-429.70 -951.18 1609.1
-414.64 -926.83 1568.0
-413.19 -932.74 1577.9
-424.10 -966.96 1635.8
-430.85 -992.26 1678.6
-416.65 -969.36 1639.9
-393.44 -934.43 1580.8
-384.54 -922.91 1561.3
-382.52 -927.80 1569.6
-392.03 -961.10 1625.9
-390.40 -967.51 1636.8
-378.36 -947.99 1603.7
-369.44 -935.92 1583.3
-372.12 -953.29 1612.7
-376.77 -976.17 1651.4
-350.21 -939.39 1589.2
-324.53 -936.61 1584.5
-313.68 -916.91 1551.2
-324.85 -961.89 1627.3
-331.95 -995.86 1684.7
-319.12 -970.13 1641.2
-310.09 -955.41 1616.3
-304.56 -951.24 1609.2
-288.60 -913.89 1546.1
-280.00 -912.01 1542.9
-281.73 -958.72 1621.9
-274.26 -947.45 1602.8
-265.31 -930.63 1574.4
-265.98 -947.54 1603.0
-262.46 -949.85 1606.9
-252.89 -929.98 1573.3
-247.81 -926.23 1566.9
-247.13 -939.11 1588.7
-246.61 -953.01 1612.2
-241.22 -948.23 1604.2
-225.76 -935.89 1583.3
-217.29 -917.45 1552.1
-216.49 -931.33 1575.6
-218.92 -959.88 1623.9
-218.16 -975.29 1649.9
-215.15 -981.10 1659.7
-208.84 -971.72 1643.9
-199.83 -949.19 1605.8
-188.62 -915.00 1547.9
-185.87 -921.28 1558.6
-185.77 -941.23 1592.3
-171.22 -952.17 1610.8
-168.41 -959.96 1624.0
-162.93 -952.54 1611.4
-162.51 -975.03 1649.5
-158.59 -977.24 1653.2
-148.64 -941.41 1592.6
-145.71 -949.18 1605.8
-143.23 -960.51 1624.9
-138.02 -953.56 1613.2
-139.34 -992.80 1679.5
-103.28 -941.96 1593.5
-100.24 -952.24 1610.9
-89.61 -972.89 1645.9
-83.21 -948.58 1604.7
-76.59 -970.12 1641.2
-73.14 -980.88 1659.4
-69.95 -996.73 1686.2
-64.37 -978.49 1655.3
-58.28 -949.07 1605.6
-53.62 -940.48 1591.0
-49.58 -942.07 1593.7
-45.67 -946.70 1601.6
-42.26 -963.54 1630.0
-37.41 -947.81 1603.4
-24.33 -924.51 1564.0
-20.35 -928.10 1570.1
-16.57 -944.40 1597.7
-12.47 -947.47 1602.9
4.06 -926.12 1566.7
20.84 -950.49 1608.0
25.13 -955.04 1615.7
43.83 -908.55 1537.0
50.04 -950.72 1608.4
55.42 -972.02 1644.4
58.15 -947.03 1602.1
61.36 -932.72 1577.9
65.81 -937.74 1586.4
70.03 -939.19 1588.8
74.18 -939.61 1589.6
77.49 -929.87 1573.1
81.29 -926.73 1567.8
87.88 -954.08 1614.0
93.91 -973.29 1646.5
98.02 -971.66 1643.8
101.84 -967.48 1636.7
105.85 -965.33 1633.1
108.04 -947.43 1602.8
112.54 -950.35 1607.7
118.00 -960.89 1625.6
120.58 -916.44 1550.4
126.59 -931.02 1575.0
130.15 -927.32 1568.8
146.24 -926.19 1566.9
171.35 -930.19 1573.6
177.59 -941.64 1593.0
174.25 -902.95 1527.5
193.12 -917.31 1551.8
198.62 -924.17 1563.5
206.50 -941.65 1593.0
207.30 -926.75 1567.8
203.93 -894.17 1512.7
209.21 -900.00 1522.6
212.98 -899.26 1521.3
218.94 -907.61 1535.4
234.64 -955.33 1616.2
235.61 -942.44 1594.4
233.13 -916.44 1550.4
236.61 -884.38 1496.1
243.84 -896.71 1517.0
249.79 -904.00 1529.3
259.76 -925.38 1565.5
262.30 -920.05 1556.5
265.95 -918.75 1554.3
282.24 -946.33 1600.9
284.31 -939.47 1589.3
285.56 -930.11 1573.5
290.48 -932.80 1578.0
301.77 -955.59 1616.6
306.49 -957.26 1619.4
303.90 -936.34 1584.0
328.04 -923.37 1562.1
331.60 -922.00 1559.8
350.53 -918.63 1554.1
354.03 -917.25 1551.7
356.14 -912.37 1543.5
368.66 -933.93 1580.0
362.84 -909.09 1537.9
373.48 -905.89 1532.5
375.00 -900.01 1522.6
373.33 -886.66 1500.0
377.05 -886.26 1499.3
440.81 -957.18 1619.3
432.12 -929.47 1572.4
422.51 -900.30 1523.1
437.89 -899.44 1521.6
479.75 -919.19 1555.0
485.33 -922.12 1560.0
471.58 -881.31 1490.9
505.62 -937.25 1585.6
493.97 -908.27 1536.5
511.60 -897.26 1517.9
554.96 -910.29 1540.0
566.05 -921.86 1559.5
556.83 -900.40 1523.2
554.68 -890.61 1506.7
576.16 -918.64 1554.1
557.17 -882.19 1492.4
576.01 -864.02 1461.7
590.72 -880.29 1489.2
612.34 -878.07 1485.5
633.58 -902.85 1527.4
628.63 -890.24 1506.0
639.58 -878.46 1486.1
656.58 -896.41 1516.5
657.57 -892.42 1509.7
655.71 -884.62 1496.5
669.03 -897.29 1518.0
666.77 -889.02 1504.0
678.41 -899.29 1521.3
681.12 -897.66 1518.6
660.65 -865.68 1464.5
670.50 -873.56 1477.8
686.25 -889.00 1504.0
689.99 -888.80 1503.6
692.25 -886.70 1500.1
697.09 -887.91 1502.1
720.91 -888.48 1503.1
686.35 -836.83 1415.7
727.02 -867.86 1468.2
797.54 -927.75 1569.5
788.07 -912.08 1543.0
753.02 -867.11 1466.9
728.59 -834.77 1412.2
759.77 -866.14 1465.3
817.37 -927.17 1568.5
803.90 -907.38 1535.0
761.40 -855.17 1446.7
794.34 -887.79 1501.9
776.76 -863.91 1461.5
755.39 -828.02 1400.8
803.16 -836.17 1414.6
795.54 -824.47 1394.8
920.48 -807.19 1365.5
919.10 -802.89 1358.3
936.68 -805.90 1363.4
946.95 -811.67 1373.1
978.25 -835.36 1413.2
967.60 -823.18 1392.6
1005.16 -842.56 1425.4
980.81 -816.15 1380.7
994.90 -818.90 1385.4
980.09 -803.82 1359.8
999.67 -805.39 1362.5
1024.68 -822.63 1391.7
1007.21 -802.95 1358.4
1029.67 -817.99 1383.8
1052.85 -824.91 1395.5
1037.92 -810.43 1371.0
1033.84 -804.49 1361.0
1060.45 -822.39 1391.3
1060.22 -819.42 1386.2
1036.26 -798.20 1350.3
1070.19 -821.56 1389.9
1092.07 -835.54 1413.5
1118.94 -844.76 1429.1
1116.44 -840.09 1421.2
