ply
format ascii 1.0
element vertex 2144
property float x
property float y
property float z
end_header
-1047.02 1099.37 2243.6
-1008.60 1064.95 2173.4
-1036.33 1100.38 2245.7
-1047.74 1118.78 2283.2
-1028.27 1104.22 2253.5
-1005.53 1085.97 2216.3
-985.57 1070.54 2184.8
-966.51 1055.89 2154.9
-970.99 1066.96 2177.5
-970.37 1091.67 2227.9
-972.95 1107.75 2260.7
-970.71 1111.90 2269.2
-977.71 1126.75 2299.5
-959.01 1111.99 2269.4
-934.81 1090.61 2225.7
-912.55 1071.26 2186.2
-935.50 1105.06 2255.2
-970.29 1153.36 2353.8
-178.80 1251.57 2554.2
-149.29 1175.65 2399.3
-145.01 1191.61 2431.9
-136.22 1170.23 2388.2
-123.59 1112.35 2270.1
-116.98 1105.44 2256.0
-114.59 1139.84 2326.2
-108.74 1141.72 2330.0
-100.77 1120.28 2286.3
-95.96 1133.57 2313.4
-91.96 1158.73 2364.8
-85.64 1156.19 2359.6
-81.26 1181.34 2410.9
-76.38 1202.97 2455.0
-68.05 1169.18 2386.1
-61.96 1171.00 2389.8
-58.28 1223.85 2497.7
-1038.35 1090.56 2237.5
-1022.68 1080.13 2216.1
-1034.55 1098.84 2254.5
-1017.40 1086.77 2229.7
-1003.76 1078.33 2212.4
-992.45 1072.31 2200.0
-972.59 1056.92 2168.5
-977.05 1067.94 2191.1
-983.63 1081.42 2218.7
-970.92 1073.73 2202.9
-937.03 1042.38 2138.6
-926.76 1037.08 2127.8
-984.35 1108.13 2273.5
-955.78 1089.01 2234.3
-915.03 1048.94 2152.1
-922.58 1064.09 2183.2
-927.17 1075.97 2207.5
-905.64 1057.52 2169.7
-927.61 1089.94 2236.2
-957.61 1132.27 2323.0
-138.86 1186.66 2434.6
-126.46 1132.10 2322.7
-120.17 1129.60 2317.6
-116.78 1155.54 2370.8
-109.89 1147.78 2354.9
-101.46 1122.06 2302.1
-96.29 1131.35 2321.2
-91.29 1144.15 2347.4
-84.17 1130.22 2318.9
-77.04 1114.10 2285.8
-60.25 1132.71 2323.9
-56.39 1177.89 2416.6
-52.27 1228.32 2520.1
-1074.40 1110.02 2289.6
-1053.90 1101.00 2271.0
-997.11 1047.52 2160.7
-973.24 1028.23 2120.9
-981.83 1043.19 2151.7
-993.68 1061.82 2190.2
-985.42 1059.05 2184.4
-968.95 1047.37 2160.3
-979.40 1064.81 2196.3
-990.79 1083.50 2234.9
-972.52 1069.77 2206.5
-932.72 1032.07 2128.8
-929.90 1047.54 2160.7
-932.21 1056.50 2179.2
-906.20 1033.28 2131.3
-924.47 1060.59 2187.6
-974.31 1124.66 2319.8
-971.80 1135.79 2342.7
-945.60 1112.12 2293.9
-949.70 1124.01 2318.4
-957.82 1140.84 2353.1
-968.16 1160.56 2393.8
-163.47 1175.71 2425.1
-157.67 1179.36 2432.6
-136.03 1156.28 2385.0
-128.98 1148.57 2369.1
-119.59 1118.20 2306.4
-113.45 1116.57 2303.1
-108.33 1125.40 2321.3
-101.33 1114.61 2299.0
-94.85 1108.61 2286.7
-89.04 1110.01 2289.6
-82.19 1097.89 2264.6
-70.41 1097.17 2263.1
-66.78 1135.18 2341.5
-61.97 1158.80 2390.2
-57.35 1191.57 2457.8
-51.33 1199.91 2475.0
-44.51 1189.06 2452.6
-39.08 1217.89 2512.1
-1037.57 1066.23 2211.1
-1017.02 1056.79 2191.5
-1005.65 1050.85 2179.2
-978.67 1028.43 2132.7
-985.73 1041.73 2160.3
-984.71 1046.61 2170.4
-965.20 1031.77 2139.6
-972.42 1045.49 2168.1
-1005.60 1087.45 2255.1
-995.74 1083.09 2246.0
-957.13 1047.22 2171.7
-941.25 1035.93 2148.3
-920.81 1038.00 2152.5
-942.05 1068.42 2215.6
-916.04 1045.30 2167.7
-919.27 1055.46 2188.7
-949.84 1097.33 2275.6
-924.72 1074.98 2229.2
-915.12 1070.51 2220.0
-936.71 1102.70 2286.7
-964.18 1142.28 2368.8
-171.22 1179.54 2446.1
-164.12 1174.08 2434.7
-136.39 1102.98 2287.3
-135.04 1141.72 2367.6
-128.43 1137.52 2358.9
-119.29 1109.44 2300.7
-112.99 1106.09 2293.7
-107.72 1113.14 2308.4
-82.54 1096.60 2274.1
-76.98 1101.46 2284.1
-73.48 1138.87 2361.7
-69.85 1181.06 2449.2
-64.95 1208.05 2505.2
-57.72 1192.92 2473.8
-49.76 1156.93 2399.2
-43.18 1147.42 2379.4
-38.04 1179.16 2445.3
-32.17 1196.57 2481.4
-25.87 1203.12 2494.9
-19.26 1194.02 2476.1
-6.43 1196.22 2480.6
0.00 1221.41 2532.9
6.50 1208.38 2505.9
-1063.84 1093.39 2279.7
-1063.83 1099.49 2292.4
-1066.45 1108.39 2310.9
-1050.25 1097.71 2288.7
-1048.60 1102.22 2298.1
-1039.33 1098.72 2290.8
-996.94 1059.96 2210.0
-985.27 1053.61 2196.7
-999.39 1074.93 2241.2
-970.63 1050.09 2189.4
-962.40 1047.32 2183.6
-974.78 1067.06 2224.8
-959.55 1056.64 2203.0
-941.87 1043.38 2175.4
-935.16 1042.19 2172.9
-955.45 1071.26 2233.5
-975.81 1100.77 2295.0
-949.97 1078.19 2248.0
-904.85 1033.32 2154.4
-886.23 1018.34 2123.2
-886.65 1025.19 2137.5
-903.04 1050.71 2190.7
-932.69 1092.07 2276.9
-972.97 1146.49 2390.4
-146.37 1128.24 2352.3
-139.27 1120.18 2335.5
-136.10 1144.51 2386.2
-127.58 1123.91 2343.3
-119.65 1106.75 2307.5
-114.39 1113.78 2322.2
-109.93 1129.88 2355.7
-101.22 1101.47 2296.5
-89.29 1101.23 2296.0
-85.37 1128.12 2352.1
-79.80 1135.55 2367.6
-75.37 1161.99 2422.7
-71.15 1196.65 2495.0
-58.18 1195.92 2493.4
-51.01 1179.54 2459.3
-45.06 1190.83 2482.8
-38.30 1180.93 2462.2
-31.29 1157.62 2413.6
-25.71 1189.21 2479.4
-19.52 1203.94 2510.1
-12.62 1167.63 2434.4
-6.38 1180.61 2461.5
13.08 1210.01 2522.8
-1048.09 1089.54 2284.0
-1030.08 1076.90 2257.5
-1037.58 1090.94 2286.9
-1009.87 1067.91 2238.6
-983.12 1045.63 2191.9
-983.46 1052.07 2205.4
-963.30 1036.53 2172.9
-963.61 1042.97 2186.3
-982.25 1069.43 2241.8
-970.63 1063.07 2228.5
-957.98 1055.50 2212.6
-955.53 1059.14 2220.2
-941.88 1050.34 2201.8
-928.31 1041.51 2183.3
-935.84 1056.41 2214.5
-925.15 1050.79 2202.7
-907.11 1036.69 2173.2
-910.93 1047.57 2196.0
-893.73 1034.25 2168.1
-888.09 1034.23 2168.0
-929.69 1089.58 2284.1
-983.79 1160.37 2432.5
-937.38 1127.31 2363.1
-144.78 1158.24 2428.0
-139.48 1166.55 2445.4
-133.06 1165.83 2443.9
-117.48 1137.70 2384.9
-108.95 1113.72 2334.7
-102.27 1106.95 2320.5
-95.07 1093.28 2291.8
-93.13 1142.42 2394.8
-90.01 1182.96 2479.8
-82.37 1165.84 2443.9
-76.23 1168.93 2450.4
-71.22 1191.39 2497.5
-65.17 1199.20 2513.9
-57.75 1180.75 2475.2
-50.68 1165.74 2443.7
-45.27 1189.90 2494.4
-38.93 1193.82 2502.6
-31.79 1169.74 2452.1
-26.09 1200.34 2516.2
-1006.19 1046.21 2205.1
-984.23 1029.23 2169.3
-988.47 1039.60 2191.2
-991.48 1048.79 2210.6
-1011.22 1075.89 2267.7
-1010.98 1081.93 2280.4
-988.87 1064.49 2243.6
-985.68 1067.33 2249.6
-950.97 1035.88 2183.4
-915.46 1003.17 2114.4
-914.33 1007.96 2124.5
-901.97 1000.36 2108.5
-897.20 1001.15 2110.1
-914.90 1027.16 2165.0
-934.48 1055.61 2224.9
-947.07 1076.49 2268.9
-943.67 1079.32 2274.9
-918.60 1057.26 2228.4
-891.31 1032.34 2175.9
-912.57 1063.70 2242.0
-938.68 1101.14 2320.9
-925.85 1093.11 2304.0
-924.30 1098.36 2315.0
-936.87 1120.57 2361.9
-957.93 1153.30 2430.8
-192.13 1134.21 2390.6
-191.93 1170.75 2467.6
-166.80 1174.03 2474.5
-158.36 1159.22 2443.3
-150.20 1145.25 2413.9
-143.47 1141.55 2406.1
-117.86 1135.22 2392.7
-109.69 1115.21 2350.6
-103.09 1109.75 2339.0
-97.75 1117.98 2356.4
-83.55 1176.09 2478.9
-76.65 1168.89 2463.7
-70.78 1177.53 2481.9
-65.24 1193.88 2516.4
-58.36 1186.66 2501.2
-49.80 1139.14 2401.0
-43.18 1128.91 2379.4
-38.48 1173.52 2473.5
-32.60 1193.27 2515.1
-25.60 1171.01 2468.2
-19.57 1193.75 2516.1
-1049.40 1085.17 2299.8
-1010.89 1051.33 2228.1
-1001.41 1047.45 2219.9
-994.21 1045.94 2216.7
-1001.99 1060.24 2247.0
-968.32 1030.61 2184.2
-954.12 1027.51 2177.6
-957.29 1037.07 2197.9
-919.18 1001.74 2123.0
-914.76 1002.93 2125.5
-907.80 1001.34 2122.1
-910.19 1010.09 2140.7
-920.70 1028.02 2178.7
-932.10 1047.17 2219.3
-945.78 1069.15 2265.9
-943.10 1072.77 2273.5
-962.03 1101.19 2333.8
-964.50 1118.09 2369.6
-946.72 1104.51 2340.8
-936.92 1100.13 2331.5
-939.39 1110.19 2352.8
-950.87 1131.10 2397.1
-968.86 1160.08 2458.6
-225.98 1175.11 2490.4
-196.48 1117.46 2368.2
-193.78 1137.65 2411.0
-173.05 1166.48 2472.1
-163.68 1145.78 2428.3
-156.59 1139.98 2416.0
-149.67 1135.02 2405.5
-138.61 1096.82 2324.5
-132.91 1099.51 2330.2
-131.45 1139.28 2414.5
-124.37 1131.73 2398.5
-117.58 1126.31 2387.0
-106.18 1136.77 2409.2
-99.61 1133.03 2401.2
-87.70 1140.04 2416.1
-80.80 1131.17 2397.3
-75.71 1148.31 2433.6
-68.40 1131.74 2398.5
-61.98 1127.97 2390.5
-57.26 1157.89 2453.9
-50.64 1151.97 2441.4
-42.83 1113.62 2360.1
-37.16 1127.32 2389.1
-32.30 1175.57 2491.4
-26.06 1185.84 2513.2
-18.81 1141.05 2418.2
-12.45 1132.54 2400.2
-6.38 1161.99 2462.6
0.00 1190.16 2522.3
19.43 1178.61 2497.8
26.08 1186.69 2515.0
-1059.08 1089.16 2321.0
-1040.63 1076.31 2293.6
-1039.70 1081.52 2304.7
-1012.96 1065.96 2271.6
-945.31 1000.59 2132.3
-938.31 1010.92 2154.3
-920.34 997.49 2125.7
-921.36 1004.62 2140.9
-919.43 1008.58 2149.3
-915.65 1010.57 2153.5
-920.07 1021.68 2177.2
-941.09 1051.46 2240.7
-962.52 1082.09 2305.9
-955.87 1081.33 2304.3
-969.86 1104.06 2352.8
-965.70 1113.32 2372.5
-953.74 1106.59 2358.2
-950.40 1109.82 2365.0
-962.31 1131.03 2410.2
-967.03 1151.53 2453.9
-203.56 1151.40 2453.6
-175.95 1098.15 2340.2
-150.24 1087.77 2318.1
-146.95 1108.28 2361.8
-139.66 1099.09 2342.2
-123.56 1064.98 2269.5
-120.41 1089.72 2322.2
-117.21 1116.57 2379.4
-112.32 1129.42 2406.8
-103.30 1099.81 2343.7
-95.09 1075.71 2292.4
-89.61 1081.33 2304.3
-85.09 1100.09 2344.3
-80.97 1127.35 2402.4
-74.55 1124.46 2396.2
-66.51 1094.38 2332.1
-59.39 1074.90 2290.6
-53.89 1083.88 2309.8
-49.62 1122.58 2392.2
-43.79 1132.40 2413.2
-37.82 1140.93 2431.3
-32.69 1183.44 2521.9
-19.42 1171.60 2496.7
-12.62 1142.31 2434.3
-6.36 1150.81 2452.4
0.00 1188.20 2532.1
19.67 1186.47 2528.4
25.65 1160.53 2473.1
32.40 1172.82 2499.3
-1034.67 1064.23 2280.5
-1009.18 1043.97 2237.1
-1005.33 1046.01 2241.4
-976.73 1022.16 2190.3
-980.05 1031.63 2210.6
-985.49 1043.46 2236.0
-958.71 1021.11 2188.1
-931.05 997.55 2137.6
-924.05 995.99 2134.3
-936.69 1015.69 2176.5
-937.93 1023.20 2192.6
-938.74 1030.32 2207.8
-948.05 1046.93 2243.4
-971.43 1079.37 2312.9
-967.26 1088.17 2331.8
-923.47 1045.44 2240.2
-884.61 1007.78 2159.5
-909.45 1042.68 2234.3
-946.32 1091.91 2339.8
-934.81 1085.59 2326.3
-939.35 1097.94 2352.7
-977.24 1149.70 2463.6
-947.85 1129.89 2421.2
-939.61 1127.53 2416.1
-205.56 1156.29 2477.8
-196.19 1139.20 2441.1
-183.15 1098.89 2354.8
-165.86 1105.74 2369.4
-161.27 1116.45 2392.4
-156.32 1125.47 2411.7
-153.01 1147.58 2459.1
-143.85 1125.77 2412.4
-132.35 1082.83 2320.4
-111.80 1059.12 2269.5
-107.53 1075.28 2304.2
-101.36 1073.27 2299.9
-95.67 1076.33 2306.4
-91.46 1097.55 2351.9
-88.13 1133.14 2428.2
-83.25 1152.67 2470.0
-76.00 1140.07 2443.0
-66.73 1091.95 2339.9
-53.44 1068.82 2290.3
-49.57 1115.37 2390.1
-44.10 1134.03 2430.1
-38.32 1149.71 2463.7
-31.70 1141.29 2445.6
-24.73 1112.99 2385.0
-19.04 1142.61 2448.4
-13.08 1176.88 2521.9
-6.58 1184.92 2539.1
13.10 1178.57 2525.5
19.44 1166.29 2499.2
26.10 1174.72 2517.3
32.45 1168.35 2503.6
39.48 1184.38 2538.0
-1018.04 1041.31 2243.9
-975.57 1003.60 2162.6
-955.69 988.83 2130.8
-938.94 977.16 2105.6
-951.04 995.53 2145.2
-955.15 1005.72 2167.2
-929.25 984.23 2120.9
-913.10 972.89 2096.4
-916.07 981.90 2115.8
-945.50 1019.54 2196.9
-964.43 1046.26 2254.5
-960.78 1048.66 2259.7
-966.05 1060.88 2286.0
-967.64 1069.19 2303.9
-959.59 1066.87 2298.9
-924.44 1034.21 2228.6
-879.76 1003.04 2161.4
-941.98 1080.87 2329.1
-960.97 1109.77 2391.4
-930.98 1082.11 2331.8
-933.75 1092.43 2354.0
-953.71 1130.55 2436.1
-944.76 1127.42 2429.4
-255.00 1170.39 2522.0
-206.29 1153.94 2486.5
-197.62 1141.12 2458.9
-185.44 1106.46 2384.2
-173.86 1111.44 2395.0
-161.05 1153.10 2484.7
-144.10 1121.46 2416.6
-134.39 1093.44 2356.2
-125.98 1073.81 2313.9
-117.92 1055.43 2274.3
-114.94 1082.87 2333.4
-107.76 1071.63 2309.2
-89.12 1063.51 2291.7
-85.59 1094.31 2358.0
-80.52 1108.69 2389.0
-75.21 1121.82 2417.3
-67.55 1099.16 2368.5
-59.98 1073.56 2313.3
-55.61 1106.02 2383.3
-50.84 1137.64 2451.4
-44.59 1140.21 2457.0
-38.26 1141.51 2459.8
-31.24 1118.40 2410.0
-18.42 1099.08 2368.3
-12.66 1133.19 2441.8
-6.38 1142.46 2461.8
0.00 1144.57 2466.4
6.28 1123.94 2421.9
18.74 1118.45 2410.1
25.65 1147.89 2473.5
32.58 1166.38 2513.4
39.18 1168.87 2518.7
-1020.05 1031.64 2235.5
-1022.33 1039.86 2253.3
-1031.36 1055.07 2286.3
-983.28 1011.70 2192.3
-938.61 971.36 2104.9
-942.51 981.09 2126.0
-939.62 983.84 2131.9
-917.47 966.33 2094.0
-909.54 969.45 2100.7
-942.67 1010.82 2190.4
-948.96 1023.73 2218.4
-932.07 1011.64 2192.2
-951.84 1039.43 2252.4
-943.41 1043.02 2260.2
-894.57 995.21 2156.6
-879.85 984.99 2134.4
-899.40 1013.25 2195.6
-907.22 1028.57 2228.8
-935.91 1067.90 2314.1
-958.72 1100.99 2385.8
-931.45 1076.61 2332.9
-948.12 1103.04 2390.2
-932.71 1121.78 2430.8
-939.19 1137.25 2464.3
-578.80 1096.03 2375.0
-557.59 1090.68 2363.4
-293.80 1162.13 2518.3
-287.44 1162.83 2519.8
-271.59 1179.08 2555.0
-232.89 1151.52 2495.3
-222.19 1163.24 2520.7
-210.20 1133.79 2456.9
-198.91 1106.42 2397.5
-191.27 1098.25 2379.8
-172.12 1094.19 2371.0
-171.83 1132.83 2454.8
-162.81 1114.59 2415.2
-153.75 1094.67 2372.1
-146.94 1089.80 2361.5
-141.05 1091.61 2365.5
-135.87 1099.28 2382.1
-129.46 1097.32 2377.8
-123.64 1100.37 2384.4
-102.92 1077.68 2335.3
-76.84 1052.07 2279.8
-72.03 1068.48 2315.3
-67.22 1087.82 2357.2
-62.06 1104.64 2393.7
-56.51 1117.68 2421.9
-50.71 1128.21 2444.8
-43.96 1117.78 2422.2
-37.28 1106.09 2396.8
-31.27 1113.25 2412.3
-24.84 1105.31 2395.1
-18.88 1120.00 2427.0
-12.94 1151.86 2496.0
-6.30 1121.28 2429.7
6.19 1101.59 2387.1
12.55 1117.08 2420.6
18.79 1114.97 2416.1
25.38 1129.20 2446.9
32.84 1168.97 2533.1
46.33 1178.11 2552.9
51.93 1155.44 2503.8
58.55 1157.90 2509.1
66.13 1177.11 2550.7
78.84 1169.42 2534.1
85.13 1165.57 2525.7
-1022.44 1028.25 2240.7
-993.84 1005.20 2190.5
-1023.37 1047.03 2281.7
-939.78 967.10 2107.5
-940.04 978.75 2132.9
-947.85 992.72 2163.3
-946.69 997.40 2173.5
-967.81 1025.76 2235.3
-966.06 1030.08 2244.7
-934.92 1002.91 2185.5
-906.92 978.81 2133.0
-916.44 995.16 2168.6
-940.78 1027.89 2240.0
-925.78 1017.78 2217.9
-903.81 999.84 2178.8
-917.80 1021.71 2226.5
-947.98 1061.97 2314.2
-949.49 1077.30 2347.6
-923.19 1054.23 2297.3
-914.86 1051.50 2291.4
-946.57 1095.06 2386.3
-950.09 1121.10 2443.1
-919.61 1092.42 2380.6
-900.60 1077.07 2347.1
-934.30 1132.68 2468.3
-278.71 1174.58 2559.6
-265.09 1173.03 2556.2
-252.30 1145.04 2495.3
-237.76 1107.48 2413.4
-226.95 1085.69 2365.9
-222.38 1093.39 2382.7
-220.77 1116.46 2433.0
-212.19 1104.62 2407.2
-198.31 1063.66 2317.9
-191.51 1059.28 2308.3
-187.81 1072.35 2336.8
-182.84 1078.78 2350.8
-179.23 1093.93 2383.9
-173.74 1098.27 2393.3
-166.86 1093.85 2383.7
-160.21 1090.68 2376.8
-153.25 1085.01 2364.4
-147.48 1087.65 2370.2
-142.65 1097.79 2392.3
-136.57 1098.76 2394.4
-129.24 1089.31 2373.8
-122.49 1084.02 2362.3
-120.04 1118.30 2437.0
-97.95 1083.62 2361.4
-88.31 1042.03 2270.8
-82.33 1040.86 2268.2
-77.62 1056.78 2302.9
-71.59 1056.02 2301.3
-65.71 1057.34 2304.1
-62.61 1108.27 2415.1
-51.51 1139.66 2483.5
-43.44 1098.42 2393.6
-37.19 1097.21 2391.0
-31.48 1114.34 2428.3
-25.32 1120.62 2442.0
-19.54 1152.76 2512.1
-6.38 1129.84 2462.1
0.00 1126.51 2454.9
13.06 1156.11 2519.4
19.06 1124.40 2450.3
25.42 1124.79 2451.1
32.47 1149.37 2504.7
39.75 1172.69 2555.5
45.60 1153.05 2512.7
51.38 1136.74 2477.1
58.16 1143.77 2492.5
65.28 1155.39 2517.8
71.88 1156.57 2520.4
78.21 1153.58 2513.8
85.39 1162.67 2533.7
104.25 1153.22 2513.1
109.11 1136.03 2475.6
216.37 1235.41 2692.2
-975.21 980.79 2149.5
-962.09 973.15 2132.7
-1008.36 1025.85 2248.2
-984.56 1007.46 2207.9
-936.62 964.01 2112.7
-950.89 984.45 2157.5
-949.02 988.33 2166.0
-939.02 983.73 2155.9
-974.13 1026.62 2249.9
-960.38 1024.40 2245.0
-937.64 1006.25 2205.2
-922.97 996.58 2184.1
-924.81 1004.73 2201.9
-914.50 999.70 2190.9
-898.23 988.05 2165.4
-898.93 995.04 2180.7
-912.13 1016.04 2226.7
-949.07 1063.93 2331.7
-953.42 1075.65 2357.3
-940.13 1067.50 2339.5
-942.97 1077.68 2361.8
-910.74 1047.64 2296.0
-883.19 1022.64 2241.2
-913.60 1064.86 2333.7
-934.24 1096.17 2402.3
-941.60 1119.74 2454.0
-935.92 1120.56 2455.8
-938.05 1130.80 2478.2
-547.91 1083.52 2374.6
-546.69 1093.38 2396.2
-297.96 1165.35 2553.9
-288.31 1153.24 2527.4
-283.84 1161.78 2546.1
-263.38 1158.86 2539.7
-255.84 1154.56 2530.3
-246.03 1139.51 2497.3
-234.22 1114.11 2441.6
-228.78 1118.47 2451.2
-225.26 1132.75 2482.5
-215.03 1113.11 2439.4
-201.06 1072.34 2350.1
-194.48 1069.63 2344.2
-190.77 1083.07 2373.6
-185.21 1086.56 2381.3
-182.34 1106.62 2425.2
-177.53 1115.91 2445.6
-169.88 1107.38 2426.9
-162.51 1100.08 2410.9
-156.34 1100.65 2412.1
-151.41 1110.34 2433.4
-146.47 1120.84 2456.4
-140.12 1120.98 2456.7
-130.50 1093.75 2397.0
-121.67 1070.66 2346.4
-114.21 1057.92 2318.5
-108.59 1061.76 2326.9
-104.65 1083.43 2374.4
-96.20 1058.22 2319.2
-89.00 1044.21 2288.4
-85.02 1068.77 2342.3
-79.01 1069.68 2344.3
-71.98 1055.65 2313.5
-65.98 1055.72 2313.7
-63.01 1108.90 2430.2
-51.62 1135.57 2488.7
-43.71 1099.09 2408.7
-37.53 1100.79 2412.5
-32.15 1131.55 2479.8
-26.20 1152.74 2526.3
-19.54 1146.54 2512.7
-12.81 1127.05 2470.0
-6.44 1132.87 2482.7
6.56 1154.45 2530.1
18.62 1092.16 2393.5
25.80 1135.31 2488.1
32.12 1130.72 2478.0
38.32 1124.04 2463.4
44.23 1111.96 2436.9
49.99 1099.88 2410.4
55.26 1080.74 2368.5
70.44 1127.09 2470.1
85.20 1153.50 2528.0
95.93 1125.52 2466.7
180.20 1219.83 2673.3
184.44 1202.25 2634.8
203.97 1237.91 2712.9
210.13 1232.74 2701.6
-1030.92 1036.84 2285.3
-1020.17 1031.96 2274.5
-1013.61 1031.28 2273.0
-981.21 1004.16 2213.3
-982.23 1011.12 2228.6
-969.10 1003.50 2211.8
-939.07 978.20 2156.0
-953.68 999.36 2202.7
-973.91 1026.71 2262.9
-956.47 1014.44 2235.9
-941.68 1004.85 2214.8
-934.89 1003.72 2212.3
-919.17 992.93 2188.5
-892.19 969.77 2137.4
-904.65 989.47 2180.9
-934.14 1028.14 2266.1
-897.53 994.10 2191.1
-883.15 984.41 2169.7
-905.51 1015.79 2238.9
-913.79 1031.70 2274.0
-915.76 1040.64 2293.7
-883.66 1010.73 2227.7
-858.31 994.73 2192.5
-904.01 1054.67 2324.6
-944.73 1117.08 2462.1
-940.67 1119.85 2468.2
-932.35 1117.54 2463.2
-927.93 1119.92 2468.4
-556.24 1093.73 2410.7
-283.71 1154.65 2544.9
-263.35 1152.16 2539.4
-237.42 1093.39 2409.9
-225.91 1068.51 2355.1
-225.02 1093.84 2410.9
-225.56 1127.82 2485.8
-217.80 1121.04 2470.9
-205.84 1091.59 2405.9
-200.54 1096.73 2417.3
-197.52 1115.05 2457.7
-186.94 1090.51 2403.6
-179.51 1083.27 2387.6
-175.13 1094.57 2412.5
-167.82 1087.73 2397.4
-164.26 1105.62 2436.9
-140.78 1119.83 2468.2
-130.09 1084.06 2389.4
-121.88 1066.44 2350.5
-114.77 1057.06 2329.8
-106.19 1032.40 2275.5
-95.39 1043.33 2299.6
-92.23 1076.04 2371.7
-86.75 1084.39 2390.1
-79.58 1071.25 2361.1
-73.01 1064.72 2346.7
-67.27 1070.16 2358.7
-61.98 1084.68 2390.7
-56.30 1094.65 2412.7
-50.29 1100.07 2424.6
-43.61 1090.20 2402.9
-36.87 1075.37 2370.2
-31.02 1085.73 2393.0
-25.78 1127.90 2486.0
-19.65 1146.10 2526.1
-12.84 1123.39 2476.0
-6.42 1123.40 2476.1
0.00 1130.84 2492.5
6.18 1080.84 2382.3
18.89 1101.89 2428.7
25.61 1120.46 2469.6
31.20 1091.93 2406.7
38.05 1109.66 2445.8
44.83 1120.77 2470.3
51.31 1122.38 2473.8
57.53 1118.61 2465.5
68.25 1085.85 2393.3
84.43 1136.50 2504.9
89.69 1121.14 2471.1
97.61 1138.80 2510.0
103.28 1129.62 2489.8
109.56 1127.87 2485.9
115.49 1122.80 2474.7
121.04 1114.84 2457.2
128.72 1126.28 2482.4
137.27 1143.90 2521.2
149.18 1186.67 2615.5
169.28 1184.97 2611.8
174.80 1176.55 2593.2
194.06 1212.89 2673.3
203.56 1228.36 2707.4
231.48 1227.52 2705.6
251.53 1222.70 2694.9
378.85 1205.42 2656.8
-1009.56 1021.30 2264.0
-969.67 986.68 2187.2
-962.18 984.82 2183.1
-973.62 1002.42 2222.1
-967.17 1001.71 2220.5
-943.10 982.63 2178.2
-925.43 970.02 2150.3
-915.50 965.44 2140.1
-907.07 962.38 2133.3
-928.13 990.77 2196.3
-940.33 1009.99 2238.9
-913.22 986.95 2187.8
-925.58 1006.57 2231.3
-955.69 1045.85 2318.4
-920.34 1013.53 2246.8
-878.34 973.45 2157.9
-872.04 972.66 2156.1
-864.02 969.93 2150.1
-865.04 983.78 2180.8
-872.89 999.22 2215.0
-863.09 994.55 2204.7
-882.07 1023.20 2268.2
-883.48 1031.72 2287.1
-868.96 1021.61 2264.7
-935.87 1123.05 2489.5
-909.82 1122.76 2488.9
-540.09 1055.90 2340.7
-540.79 1069.29 2370.3
-298.93 1130.74 2506.6
-280.59 1109.62 2459.8
-265.41 1126.37 2496.9
-262.47 1141.77 2531.0
-241.28 1076.50 2386.3
-217.37 1080.66 2395.6
-214.25 1096.44 2430.5
-205.34 1082.71 2400.1
-202.40 1100.54 2439.6
-198.88 1116.31 2474.6
-187.97 1090.25 2416.8
-176.61 1059.66 2349.0
-168.76 1048.75 2324.8
-164.86 1062.45 2355.2
-164.73 1102.42 2443.8
-145.51 1100.82 2440.2
-135.26 1069.75 2371.4
-128.08 1061.25 2352.5
-122.85 1068.77 2369.2
-116.58 1067.65 2366.7
-108.76 1051.33 2330.5
-101.72 1041.16 2308.0
-97.75 1063.03 2356.5
-93.42 1083.67 2402.2
-86.70 1077.59 2388.8
-80.64 1079.32 2392.6
-75.01 1087.62 2411.0
-68.32 1080.70 2395.6
-62.04 1079.53 2393.0
-57.35 1108.77 2457.9
-44.36 1102.71 2444.4
-36.69 1064.10 2358.8
-31.06 1080.99 2396.3
-25.98 1129.95 2504.8
-12.89 1121.35 2485.7
-6.32 1099.97 2438.4
0.00 1087.23 2410.1
6.19 1077.77 2389.1
12.53 1089.69 2415.6
19.09 1107.35 2454.7
25.02 1088.42 2412.7
30.90 1075.23 2383.5
38.15 1106.45 2452.7
45.52 1131.49 2508.2
52.61 1144.18 2536.4
64.95 1130.09 2505.1
69.83 1104.54 2448.5
77.53 1124.20 2492.1
83.96 1123.71 2491.0
90.70 1127.32 2499.0
98.27 1139.97 2527.0
103.53 1125.90 2495.8
110.83 1134.43 2514.7
117.90 1139.66 2526.3
123.98 1135.43 2517.0
132.71 1154.61 2559.5
137.00 1135.18 2516.4
143.61 1135.86 2517.9
182.88 1178.59 2612.6
195.77 1216.57 2696.8
240.87 1197.46 2654.5
256.45 1205.99 2673.4
274.90 1195.80 2650.8
285.35 1182.17 2620.6
342.65 1192.43 2643.3
346.89 1183.52 2623.6
-1016.24 998.91 2227.1
-995.63 984.25 2194.4
-997.85 1009.52 2250.8
-962.98 979.98 2184.9
-948.45 970.90 2164.7
-950.25 978.53 2181.7
-935.07 968.67 2159.7
-922.55 961.45 2143.6
-918.09 962.61 2146.2
-917.24 967.57 2157.3
-944.39 1002.33 2234.7
-945.31 1015.77 2264.7
-926.02 1001.26 2232.4
-922.36 1003.57 2237.5
-914.12 1000.90 2231.6
-895.11 986.33 2199.1
-892.86 990.16 2207.6
-889.54 992.84 2213.6
-875.58 983.60 2193.0
-890.29 1006.67 2244.4
-895.63 1019.37 2272.7
-882.00 1010.50 2253.0
-893.86 1030.92 2298.5
-889.23 1032.46 2301.9
-872.68 1020.09 2274.4
-926.46 1097.79 2447.6
-934.45 1122.63 2503.0
-578.40 1075.95 2398.9
-550.57 1058.31 2359.6
-548.22 1077.75 2402.9
-301.67 1110.38 2475.7
-302.68 1138.33 2538.0
-287.18 1129.13 2517.5
-249.07 1077.22 2401.7
-228.12 1038.56 2315.5
-224.69 1050.60 2342.4
-215.53 1035.72 2309.2
-214.04 1057.95 2358.8
-215.34 1095.68 2442.9
-210.83 1105.27 2464.3
-204.93 1107.92 2470.2
-198.56 1108.11 2470.6
-186.17 1073.60 2393.7
-173.50 1034.99 2307.6
-161.13 1032.46 2301.9
-160.16 1065.69 2376.0
-156.86 1085.45 2420.1
-153.38 1105.62 2465.1
-135.65 1066.67 2378.2
-127.31 1048.82 2338.4
-122.54 1059.97 2363.3
-116.70 1062.54 2369.0
-109.16 1049.16 2339.2
-102.58 1043.95 2327.5
-95.76 1035.45 2308.6
-89.01 1026.55 2288.8
-84.17 1040.13 2319.0
-79.55 1058.61 2360.2
-75.22 1084.46 2417.9
-69.63 1095.17 2441.7
-62.20 1076.00 2399.0
-56.70 1089.97 2430.2
-44.67 1103.98 2461.4
-36.81 1061.46 2366.6
-31.00 1072.54 2391.3
-25.43 1099.99 2452.5
-18.98 1094.69 2440.7
-12.57 1087.34 2424.3
-6.26 1082.85 2414.3
0.00 1092.67 2436.2
6.40 1107.40 2469.0
12.55 1085.70 2420.6
18.56 1070.14 2385.9
25.40 1098.35 2448.8
38.89 1121.21 2499.8
44.55 1101.11 2455.0
50.35 1088.79 2427.5
56.21 1080.56 2409.2
62.55 1082.14 2412.7
69.14 1087.39 2424.4
77.44 1116.37 2489.0
84.71 1127.33 2513.5
89.34 1103.93 2461.3
94.29 1087.49 2424.6
98.60 1066.13 2377.0
114.27 1098.22 2448.6
123.48 1124.28 2506.6
132.13 1142.96 2548.3
136.00 1120.35 2497.9
140.74 1106.72 2467.5
155.65 1170.74 2610.2
171.38 1185.95 2644.2
171.76 1142.89 2548.2
183.57 1176.22 2622.4
190.27 1175.63 2621.1
194.99 1163.19 2593.4
207.98 1199.33 2674.0
217.07 1211.37 2700.8
222.82 1204.63 2685.8
223.75 1173.00 2615.3
229.69 1168.70 2605.7
243.25 1202.33 2680.7
250.23 1202.50 2681.0
271.01 1202.15 2680.3
283.94 1169.58 2607.7
316.42 1190.00 2653.2
323.21 1189.70 2652.5
333.27 1201.18 2678.1
339.67 1199.23 2673.8
346.74 1199.71 2674.8
356.50 1186.04 2644.4
359.86 1152.87 2570.4
376.73 1184.99 2642.0
395.14 1178.62 2627.8
391.05 1146.63 2556.5
418.18 1185.97 2644.2
432.15 1168.16 2604.5
-1014.77 991.70 2223.9
-967.74 951.15 2133.0
-991.58 980.19 2198.1
-1011.07 1016.98 2280.6
-994.78 1006.48 2257.1
-957.78 974.79 2186.0
-937.74 960.07 2153.0
-929.97 957.82 2147.9
-925.15 958.59 2149.7
-913.77 952.53 2136.1
-906.42 950.64 2131.8
-914.58 965.07 2164.2
-913.99 970.40 2176.2
-908.70 970.79 2177.0
-904.48 972.32 2180.4
-911.51 986.04 2211.2
-912.79 993.67 2228.3
-904.58 991.01 2222.4
-913.37 1007.05 2258.3
-922.34 1023.50 2295.2
-920.86 1028.49 2306.4
-916.26 1030.04 2309.9
-900.12 1018.56 2284.1
-884.10 1007.05 2258.3
-893.29 1024.31 2297.0
-572.70 1059.18 2375.2
-549.81 1086.98 2437.6
-311.91 1117.68 2506.4
-293.01 1095.59 2456.9
-298.68 1141.63 2560.1
-291.08 1137.86 2551.7
-274.50 1098.02 2462.3
-262.84 1076.39 2413.8
-255.48 1071.78 2403.5
-244.31 1050.53 2355.8
-231.93 1049.77 2354.1
-228.14 1060.54 2378.3
-218.79 1045.33 2344.2
-213.33 1048.38 2351.0
-210.97 1067.25 2393.3
-206.98 1078.82 2419.3
-201.35 1082.27 2427.0
-197.22 1094.24 2453.9
-187.27 1073.70 2407.8
-178.46 1058.44 2373.6
-173.59 1066.33 2391.3
-165.37 1053.49 2362.5
-160.81 1063.81 2385.6
-158.96 1093.64 2452.5
-135.36 1058.28 2373.2
-129.22 1058.40 2373.5
-126.49 1087.82 2439.5
-119.41 1081.02 2424.2
-110.63 1057.12 2370.6
-103.13 1043.39 2339.8
-95.55 1027.21 2303.5
-88.70 1017.12 2280.9
-83.69 1028.19 2305.8
-80.70 1067.76 2394.5
-69.52 1087.04 2437.7
-59.87 1029.69 2309.1
-54.37 1039.11 2330.2
-50.08 1076.62 2414.4
-44.43 1091.74 2448.2
-37.82 1084.04 2431.0
-30.24 1040.09 2332.4
-18.13 1039.73 2331.6
-12.38 1064.99 2388.3
-6.16 1059.30 2375.5
0.00 1066.23 2391.0
6.39 1098.40 2463.2
12.76 1097.58 2461.3
18.71 1072.72 2405.6
25.39 1091.84 2448.5
39.19 1123.54 2519.6
44.30 1088.48 2440.9
49.36 1061.15 2379.7
54.97 1050.51 2355.8
61.05 1050.05 2354.8
67.20 1050.80 2356.5
74.95 1074.35 2409.2
82.86 1096.25 2458.4
88.26 1084.37 2431.7
94.06 1078.58 2418.7
99.38 1068.31 2395.7
134.19 1099.08 2464.7
146.29 1143.69 2564.7
148.40 1109.79 2488.7
161.15 1108.68 2486.2
175.80 1162.99 2608.0
182.41 1162.01 2605.8
204.92 1174.86 2634.6
210.47 1167.75 2618.7
226.93 1182.77 2652.4
255.63 1188.34 2664.9
283.13 1159.47 2600.1
296.38 1185.54 2658.6
298.75 1167.83 2618.9
331.92 1165.12 2612.8
347.30 1194.73 2679.2
349.84 1179.84 2645.8
359.82 1146.09 2570.1
371.67 1162.30 2606.5
387.25 1189.40 2667.3
386.68 1166.83 2616.7
403.99 1139.12 2554.5
409.46 1135.91 2547.3
420.64 1148.41 2575.3
437.36 1175.40 2635.9
455.01 1168.10 2619.5
-984.77 967.80 2183.0
-952.24 941.23 2123.1
-961.86 956.27 2157.0
-969.08 969.08 2185.9
-976.17 981.91 2214.8
-961.93 973.31 2195.4
-938.52 955.28 2154.8
-928.91 951.16 2145.5
-926.65 954.57 2153.2
-918.90 952.32 2148.1
-890.15 928.15 2093.6
-880.03 923.22 2082.4
-880.34 929.25 2096.1
-875.60 929.98 2097.7
-880.78 941.33 2123.3
-898.88 966.72 2180.6
-927.24 1003.53 2263.6
-922.47 1011.17 2280.8
-898.98 991.78 2237.1
-916.50 1017.67 2295.5
-902.92 1015.79 2291.2
-875.75 991.75 2237.0
-883.34 1007.00 2271.4
-902.74 1036.04 2336.9
-870.18 1019.18 2298.9
-866.48 1021.84 2304.9
-926.38 1107.77 2498.7
-572.88 1031.18 2326.0
-554.30 1053.16 2375.6
-535.81 1029.48 2322.1
-532.90 1035.52 2335.8
-534.57 1050.70 2370.0
-322.09 1124.02 2535.4
-315.48 1123.91 2535.1
-308.44 1122.20 2531.3
-297.62 1106.37 2495.6
-294.09 1117.53 2520.7
-293.12 1139.17 2569.6
-282.78 1124.53 2536.5
-266.36 1084.47 2446.2
-254.47 1061.32 2394.0
-245.77 1050.66 2369.9
-237.01 1039.19 2344.0
-237.08 1066.86 2406.5
-234.73 1084.85 2447.0
-224.87 1068.11 2409.3
-218.99 1069.94 2413.4
-207.72 1044.69 2356.5
-191.34 1022.45 2306.3
-188.25 1038.39 2342.2
-185.33 1056.36 2382.8
-183.29 1080.79 2437.9
-166.31 1093.83 2467.3
-158.76 1085.89 2449.4
-153.39 1092.92 2465.2
-142.01 1055.83 2381.6
-131.90 1025.21 2312.5
-128.35 1045.17 2357.5
-125.95 1076.86 2429.0
-119.30 1073.74 2422.0
-110.31 1047.94 2363.8
-102.42 1030.22 2323.8
-95.84 1024.24 2310.3
-90.03 1026.36 2315.1
-85.79 1047.91 2363.7
-67.76 1053.40 2376.1
-54.21 1030.01 2323.3
-50.03 1069.37 2412.1
-44.69 1091.70 2462.5
-38.45 1095.79 2471.7
-31.14 1065.03 2402.3
-24.34 1040.33 2346.6
-18.79 1071.15 2416.1
-12.79 1093.46 2466.5
-6.33 1082.12 2440.9
0.00 1058.21 2386.9
6.20 1059.83 2390.6
12.71 1086.57 2450.9
19.16 1092.23 2463.7
25.62 1095.45 2470.9
38.82 1106.33 2495.5
43.91 1072.66 2419.5
49.35 1054.78 2379.2
55.34 1051.49 2371.8
60.21 1029.55 2322.3
93.26 1063.21 2398.2
99.97 1068.39 2409.9
106.00 1066.26 2405.1
113.89 1081.95 2440.5
121.06 1089.53 2457.6
126.66 1082.93 2442.7
137.00 1115.60 2516.4
146.84 1141.37 2574.5
175.23 1152.49 2599.6
183.48 1162.02 2621.1
187.33 1144.05 2580.6
196.18 1156.81 2609.3
209.51 1194.21 2693.7
213.01 1175.01 2650.4
214.10 1144.09 2580.7
228.31 1183.08 2668.6
251.56 1194.91 2695.3
247.66 1144.60 2581.8
262.87 1152.59 2599.8
269.93 1153.96 2602.9
281.07 1172.25 2644.2
286.47 1166.33 2630.8
289.16 1149.93 2593.8
300.38 1167.39 2633.2
306.39 1164.28 2626.2
307.81 1144.24 2581.0
315.53 1147.98 2589.4
328.14 1169.02 2636.9
342.61 1148.74 2591.1
346.04 1137.96 2566.8
360.70 1163.76 2625.0
364.86 1155.38 2606.1
366.72 1140.16 2571.8
405.63 1118.74 2523.5
423.40 1149.23 2592.2
431.77 1153.63 2602.2
438.51 1153.63 2602.2
448.65 1162.42 2622.0
455.76 1163.20 2623.8
-975.28 952.86 2161.9
-941.63 925.30 2099.4
-947.92 936.90 2125.7
-964.24 958.60 2175.0
-981.46 981.46 2226.8
-954.16 959.81 2177.7
-920.04 931.00 2112.3
-933.36 950.13 2155.7
-955.64 978.67 2220.5
-934.61 962.93 2184.8
-891.98 924.62 2097.9
-908.53 947.55 2149.9
-934.89 981.06 2225.9
-910.94 961.87 2182.4
-898.19 954.33 2165.3
-909.02 990.60 2247.6
-880.07 965.24 2190.0
-891.54 984.16 2233.0
-876.53 973.92 2209.7
-864.31 979.55 2222.5
-874.52 997.77 2263.9
-873.60 1003.46 2276.8
-881.84 1019.82 2313.9
-588.69 1042.47 2365.3
-558.51 1010.07 2291.8
-545.19 1041.37 2362.8
-521.54 1007.52 2286.0
-528.55 1044.82 2370.6
-532.53 1065.07 2416.5
-512.24 1036.68 2352.1
-527.43 1080.28 2451.1
-295.43 1116.06 2532.2
-285.30 1102.30 2501.0
-281.73 1113.80 2527.1
-271.77 1100.02 2495.8
-263.52 1092.64 2479.1
-258.76 1099.72 2495.2
-241.56 1052.97 2389.1
-233.45 1044.36 2369.6
-238.02 1093.60 2481.3
-220.44 1070.72 2429.4
-192.05 1020.25 2314.9
-186.52 1022.85 2320.7
-180.96 1025.43 2326.6
-177.43 1040.09 2359.9
-174.85 1061.58 2408.6
-171.57 1080.26 2451.0
-162.22 1060.70 2406.6
-154.94 1053.60 2390.5
-149.84 1061.40 2408.2
-140.51 1038.58 2356.4
-132.08 1020.59 2315.6
-124.55 1008.23 2287.6
-118.34 1005.92 2282.3
-113.16 1012.48 2297.2
-105.85 999.69 2268.2
-101.27 1012.69 2297.7
-97.60 1036.96 2352.8
-91.97 1042.29 2364.9
-88.10 1069.79 2427.2
-82.34 1076.72 2443.0
-73.82 1045.75 2372.7
-66.78 1032.11 2341.8
-60.72 1032.17 2341.9
-55.63 1050.78 2384.1
-51.23 1088.73 2470.2
-44.27 1075.07 2439.2
-36.81 1042.84 2366.1
-31.24 1062.23 2410.1
-25.58 1087.27 2466.9
-6.44 1095.38 2485.3
0.00 1066.34 2419.4
6.26 1064.73 2415.8
12.81 1088.51 2469.7
19.32 1094.95 2484.3
25.85 1098.56 2492.5
32.27 1097.32 2489.7
37.76 1069.86 2427.4
43.57 1058.13 2400.8
50.06 1063.73 2413.5
56.59 1068.92 2425.3
62.00 1053.95 2391.3
86.08 1045.20 2371.5
93.03 1054.38 2392.3
98.35 1045.02 2371.1
106.43 1064.27 2414.7
116.77 1102.84 2502.3
125.99 1127.31 2557.8
133.84 1137.66 2581.2
141.76 1147.60 2603.8
148.49 1147.46 2603.5
150.87 1115.10 2530.1
153.94 1090.39 2474.0
162.46 1104.73 2506.5
173.31 1133.15 2571.0
182.82 1151.10 2611.7
187.71 1139.65 2585.8
197.33 1156.77 2624.6
218.79 1199.82 2722.3
224.37 1191.97 2704.5
228.45 1176.88 2670.2
235.17 1175.85 2667.9
243.61 1183.26 2684.7
246.44 1163.74 2640.4
249.82 1147.83 2604.3
261.64 1170.49 2655.7
293.50 1160.34 2632.7
312.09 1179.02 2675.1
336.04 1190.13 2700.3
343.64 1192.21 2705.0
341.96 1162.65 2637.9
341.25 1137.50 2580.9
349.92 1143.98 2595.6
389.66 1122.75 2547.4
390.92 1107.61 2513.1
406.15 1113.65 2526.8
421.28 1136.80 2579.3
427.37 1135.20 2575.7
429.63 1123.64 2549.4
436.08 1123.24 2548.5
443.15 1124.42 2551.2
448.33 1120.82 2543.0
466.54 1149.45 2608.0
-985.62 957.30 2184.9
-975.84 953.27 2175.7
-971.01 954.07 2177.5
-974.81 963.41 2198.8
-987.13 981.33 2239.7
-955.69 955.69 2181.2
-929.32 934.86 2133.7
-949.61 960.99 2193.3
-947.99 965.13 2202.7
-900.73 922.56 2105.6
-903.61 931.16 2125.2
-917.77 963.38 2198.7
-898.94 949.51 2167.1
-937.12 996.06 2273.3
-913.85 983.70 2245.1
-872.96 945.71 2158.4
-865.96 944.18 2154.9
-868.59 953.19 2175.5
-846.88 935.44 2135.0
-834.37 933.84 2131.3
-857.66 966.30 2205.4
-855.25 970.05 2214.0
-859.09 980.99 2238.9
-871.06 1001.42 2285.6
-598.20 1042.22 2378.7
-582.56 1025.54 2340.6
-560.28 996.71 2274.8
-552.92 1004.77 2293.2
-571.36 1049.57 2395.5
-566.36 1075.45 2454.5
-543.70 1044.15 2383.1
-535.75 1040.71 2375.2
-513.83 1009.74 2304.6
-364.62 1100.36 2511.4
-347.86 1088.69 2484.7
-333.71 1084.55 2475.3
-296.77 1114.53 2543.7
-284.22 1091.66 2491.5
-278.33 1093.92 2496.7
-272.72 1097.37 2504.6
-268.81 1108.01 2528.9
-251.94 1091.73 2491.7
-232.50 1034.01 2359.9
-226.16 1033.02 2357.7
-222.06 1042.43 2379.2
-194.43 1026.82 2343.5
-189.05 1030.60 2352.2
-181.63 1023.17 2335.2
-176.36 1027.75 2345.7
-169.91 1025.51 2340.6
-162.78 1018.86 2325.4
-156.52 1017.41 2322.1
-152.42 1030.37 2351.7
-150.39 1058.96 2416.9
-143.87 1057.10 2412.7
-137.26 1054.43 2406.6
-131.29 1056.56 2411.4
-119.26 1007.78 2300.1
-102.13 1015.31 2317.3
-97.50 1029.84 2350.4
-91.02 1025.52 2340.6
-85.49 1032.02 2355.4
-78.50 1020.46 2329.0
-59.97 1013.44 2313.0
-57.18 1073.68 2450.5
-50.96 1076.54 2457.0
-42.61 1028.83 2348.1
-36.14 1018.04 2323.5
-31.22 1055.39 2408.8
-24.89 1051.80 2400.6
-18.41 1037.38 2367.6
-12.45 1052.24 2401.6
-6.20 1048.24 2392.4
12.14 1025.75 2341.1
18.17 1023.73 2336.5
24.70 1043.38 2381.3
31.33 1059.00 2417.0
36.97 1041.31 2376.6
43.06 1039.67 2372.9
49.16 1038.42 2370.0
55.26 1037.57 2368.1
63.03 1065.20 2431.1
69.67 1070.35 2442.9
74.51 1049.42 2395.1
80.75 1049.75 2395.9
87.92 1061.30 2422.2
93.87 1057.60 2413.8
99.78 1053.90 2405.4
108.91 1082.67 2471.0
117.27 1101.01 2512.9
123.99 1102.90 2517.2
129.61 1095.16 2499.5
135.07 1087.02 2480.9
145.09 1114.54 2543.8
151.23 1111.20 2536.1
168.66 1096.32 2502.2
176.72 1106.17 2524.6
187.55 1132.02 2583.7
233.28 1194.67 2726.6
253.06 1187.98 2711.4
250.06 1142.16 2606.8
258.74 1150.72 2626.3
267.89 1160.86 2649.5
276.02 1166.20 2661.6
294.18 1156.20 2638.8
313.17 1150.55 2625.9
322.67 1160.23 2648.0
326.73 1150.35 2625.5
332.98 1148.45 2621.1
333.79 1128.20 2574.9
345.84 1123.98 2565.3
374.90 1111.55 2536.9
391.32 1140.21 2602.3
392.94 1125.54 2568.9
400.74 1128.74 2576.2
412.73 1143.46 2609.8
415.27 1131.95 2583.5
421.38 1130.37 2579.9
427.47 1128.79 2576.3
430.03 1118.07 2551.8
430.14 1101.41 2513.8
452.75 1108.90 2530.9
477.17 1152.03 2629.3
-999.04 975.81 2240.4
-955.65 938.89 2155.6
-924.63 913.75 2097.9
-949.77 944.15 2167.7
-979.78 979.78 2249.5
-979.17 985.03 2261.6
-955.01 966.52 2219.1
-906.95 923.44 2120.1
-908.35 930.51 2136.4
-916.18 944.29 2168.0
-872.48 904.79 2077.3
-867.07 904.77 2077.3
-889.03 933.48 2143.2
-889.47 939.82 2157.7
-881.05 936.82 2150.9
-888.05 950.27 2181.7
-903.24 972.72 2233.3
-876.37 949.87 2180.8
-857.63 935.60 2148.1
-870.49 955.83 2194.5
-870.55 962.19 2209.1
-860.08 956.91 2197.0
-852.00 954.24 2190.9
-835.94 942.54 2164.0
-824.98 936.46 2150.0
-854.65 976.74 2242.5
-872.40 1046.89 2403.6
-611.42 1027.19 2358.3
-610.21 1035.51 2377.4
-593.70 1017.78 2336.7
-586.38 1015.59 2331.7
-581.75 1018.06 2337.4
-583.03 1031.05 2367.2
-583.08 1042.09 2392.6
-558.82 1009.48 2317.7
-547.10 999.06 2293.8
-558.12 1030.38 2365.7
-557.28 1040.26 2388.3
-560.05 1057.17 2427.2
-559.14 1067.45 2450.8
-547.17 1056.61 2425.9
-519.71 1015.25 2330.9
-512.68 1090.26 2503.2
-368.67 1086.61 2494.8
-364.82 1094.47 2512.8
-332.06 1072.80 2463.1
-335.39 1104.82 2536.6
-318.64 1070.64 2458.1
-309.69 1061.81 2437.8
-308.44 1079.55 2478.6
-303.87 1086.19 2493.8
-297.05 1084.88 2490.8
-290.99 1086.35 2494.2
-283.45 1082.25 2484.8
-277.58 1084.50 2489.9
-272.18 1088.73 2499.6
-257.23 1054.01 2419.9
-244.86 1028.41 2361.1
-243.87 1050.50 2411.9
-237.04 1047.95 2406.0
-228.48 1037.43 2381.8
-222.18 1036.84 2380.5
-213.65 1025.51 2354.5
-208.55 1030.48 2365.9
-204.02 1038.64 2384.6
-199.92 1049.58 2409.8
-193.34 1047.78 2405.6
-185.00 1036.01 2378.6
-177.63 1029.01 2362.5
-169.01 1014.03 2328.1
-161.01 1001.83 2300.1
-150.91 1014.09 2328.3
-150.07 1050.51 2411.9
-146.40 1069.38 2455.2
-122.32 1027.49 2359.0
-106.61 995.00 2284.4
-103.28 1020.63 2343.3
-97.63 1025.12 2353.6
-90.15 1009.64 2318.1
-83.84 1006.13 2310.0
-78.29 1011.80 2323.0
-71.36 999.10 2293.8
-61.31 1029.96 2364.7
-57.28 1069.14 2454.7
-50.12 1052.42 2416.3
-42.87 1028.91 2362.3
-37.26 1043.32 2395.4
-31.93 1072.90 2463.3
-25.24 1060.15 2434.0
-18.50 1035.81 2378.1
-12.39 1041.02 2390.1
-6.26 1051.01 2413.0
0.00 1035.44 2377.3
6.13 1029.45 2363.5
12.44 1045.01 2399.3
18.20 1019.04 2339.6
24.15 1014.23 2328.6
31.19 1048.15 2406.5
37.53 1050.91 2412.8
43.60 1046.48 2402.6
49.64 1042.44 2393.4
53.96 1007.26 2312.6
68.71 1049.46 2409.5
76.70 1073.74 2465.2
80.70 1042.93 2394.5
85.17 1022.10 2346.7
93.50 1047.16 2404.2
102.34 1074.60 2467.2
112.12 1108.01 2543.9
124.25 1098.61 2522.3
125.79 1056.61 2425.9
132.26 1058.08 2429.3
143.50 1095.84 2516.0
150.93 1102.48 2531.2
154.12 1078.81 2476.9
175.48 1091.90 2506.9
192.11 1152.69 2646.5
197.64 1144.93 2628.7
199.23 1115.67 2561.5
209.21 1133.80 2603.1
216.53 1136.78 2610.0
232.17 1181.96 2713.7
253.30 1182.07 2713.9
263.34 1134.40 2604.5
274.11 1151.24 2643.2
279.15 1143.83 2626.1
282.31 1129.26 2592.7
289.88 1132.57 2600.3
312.92 1142.84 2623.9
323.75 1157.22 2656.9
329.41 1152.95 2647.1
335.61 1150.66 2641.8
336.93 1132.10 2599.2
337.44 1111.56 2552.1
348.74 1126.70 2586.8
368.22 1167.18 2679.7
377.73 1175.15 2698.0
376.96 1151.43 2643.6
376.70 1130.10 2594.6
377.26 1111.94 2552.9
381.44 1104.86 2536.7
393.86 1121.50 2574.9
429.92 1146.45 2632.2
423.20 1110.91 2550.6
422.33 1091.57 2506.2
453.00 1102.97 2532.3
479.42 1134.41 2604.5
474.51 1107.20 2542.0
-979.76 934.97 2159.5
-964.65 925.85 2138.4
-951.16 918.17 2120.7
-976.75 948.36 2190.4
-965.48 942.89 2177.8
-895.76 879.95 2032.4
-910.06 904.64 2089.4
-908.34 908.34 2098.0
-924.21 929.77 2147.5
-917.56 928.68 2144.9
-849.54 881.20 2035.3
-886.56 925.35 2137.2
-902.94 948.37 2190.4
-888.82 939.45 2169.8
-891.93 948.75 2191.3
-900.86 964.38 2227.4
-865.68 932.70 2154.2
-838.39 909.17 2099.9
-842.14 919.20 2123.0
-872.30 958.39 2213.6
-891.57 986.04 2277.4
-871.20 969.94 2240.2
-844.33 946.33 2185.7
-824.34 930.17 2148.4
-844.47 959.37 2215.8
-870.85 996.11 2300.7
-869.76 1001.72 2313.6
-871.20 1010.35 2333.6
-603.64 1008.08 2328.3
-589.67 994.69 2297.4
-585.84 998.31 2305.8
-590.28 1016.26 2347.2
-572.03 995.09 2298.3
-559.09 982.82 2270.0
-573.13 1018.21 2351.7
-563.64 1012.13 2337.7
-534.34 991.49 2290.0
-562.01 1054.55 2435.7
-553.70 1050.78 2426.9
-534.70 1026.38 2370.6
-541.23 1050.99 2427.4
-546.68 1074.07 2480.7
-522.08 1037.94 2397.3
-499.05 1004.11 2319.2
-520.73 1087.03 2510.7
-496.78 1091.62 2521.3
-396.69 1086.02 2508.4
-372.16 1109.84 2563.4
-362.91 1101.91 2545.1
-349.53 1080.97 2496.7
-342.91 1080.50 2495.6
-335.56 1077.66 2489.0
-314.45 1050.26 2425.8
-314.50 1071.87 2475.7
-314.29 1093.47 2525.6
-310.38 1102.84 2547.2
-299.94 1088.91 2515.0
-291.05 1080.10 2494.7
-282.15 1070.89 2473.4
-275.09 1068.38 2467.6
-271.64 1080.10 2494.7
-258.25 1051.88 2429.5
-242.53 1012.57 2338.7
-238.46 1021.10 2358.4
-234.74 1031.61 2382.7
-228.96 1033.41 2386.8
-224.35 1040.75 2403.8
-217.25 1036.60 2394.2
-212.62 1044.32 2412.0
-208.20 1053.63 2433.5
-201.85 1053.43 2433.1
-193.15 1040.54 2403.3
-184.04 1024.47 2366.2
-175.94 1013.14 2340.0
-170.10 1014.50 2343.1
-164.43 1017.03 2349.0
-158.98 1021.15 2358.5
-157.52 1052.23 2430.3
-148.39 1032.55 2384.8
-137.25 996.58 2301.8
-135.17 1026.07 2369.9
-130.24 1035.72 2392.2
-121.87 1017.58 2350.3
-115.20 1012.53 2338.6
-108.63 1007.87 2327.9
-103.78 1019.49 2354.7
-98.79 1031.10 2381.5
-91.91 1023.25 2363.4
-85.95 1025.31 2368.1
-80.78 1037.70 2396.8
-75.97 1057.24 2441.9
-57.50 1066.96 2464.3
-50.75 1059.46 2447.0
-43.76 1044.02 2411.3
-37.60 1046.44 2416.9
-31.85 1063.95 2457.4
-25.58 1067.95 2466.6
-19.04 1059.63 2447.4
-12.61 1052.89 2431.8
-6.30 1052.90 2431.8
0.00 1047.34 2419.0
6.30 1051.71 2429.1
12.86 1073.55 2479.5
18.90 1052.08 2430.0
24.93 1040.93 2404.2
31.94 1066.73 2463.8
38.08 1059.95 2448.1
43.89 1047.19 2418.7
50.12 1046.35 2416.7
54.59 1012.94 2339.5
66.50 1009.64 2331.9
76.23 1060.81 2450.1
82.26 1056.77 2440.8
85.52 1020.15 2356.2
92.44 1029.20 2377.1
102.59 1070.80 2473.2
124.23 1091.92 2522.0
129.99 1085.45 2507.0
141.32 1123.81 2595.6
148.03 1123.68 2595.3
150.59 1093.38 2525.3
157.74 1097.60 2535.1
165.24 1103.79 2549.4
170.03 1092.14 2522.5
182.25 1127.26 2603.6
192.94 1111.05 2566.2
221.59 1121.37 2590.0
244.06 1164.49 2689.6
244.83 1135.76 2623.2
249.30 1125.23 2598.9
270.48 1129.25 2608.2
278.25 1133.34 2617.6
281.19 1118.06 2582.3
288.63 1120.95 2589.0
301.00 1142.41 2638.6
316.06 1172.94 2709.1
349.65 1167.84 2697.3
344.14 1126.88 2602.7
349.19 1121.43 2590.1
362.43 1142.00 2637.6
391.09 1126.07 2600.8
393.67 1114.29 2573.6
400.92 1115.89 2577.3
405.17 1109.22 2561.9
426.26 1148.15 2651.8
434.17 1150.90 2658.2
424.05 1106.50 2555.6
419.82 1078.62 2491.3
435.42 1085.29 2506.7
447.34 1098.61 2537.4
468.49 1133.88 2618.9
461.04 1084.42 2504.7
476.73 1090.61 2518.9
-1003.24 951.65 2211.2
-952.03 908.26 2110.4
-947.74 909.39 2113.0
-982.09 947.83 2202.4
-989.26 960.34 2231.4
-934.01 912.03 2119.2
-884.89 884.89 2056.1
-898.92 904.37 2101.4
-858.91 869.39 2020.1
-878.88 906.18 2105.6
-907.94 941.99 2188.8
-910.06 950.13 2207.7
-882.51 927.20 2154.4
-867.46 917.19 2131.2
-857.03 911.97 2119.0
-856.70 917.50 2131.9
-863.88 931.20 2163.7
-851.74 924.11 2147.3
-864.52 944.15 2193.8
-892.31 980.95 2279.3
-882.03 976.11 2268.1
-875.47 975.35 2266.3
-876.23 982.79 2283.6
-855.76 966.36 2245.4
-839.40 954.38 2217.6
-838.83 960.32 2231.4
-841.44 970.00 2253.9
-838.79 973.70 2262.5
-829.36 969.54 2252.8
-849.90 1000.59 2325.0
-879.90 1043.31 2424.2
-872.98 1042.55 2422.5
-607.79 998.93 2321.1
-580.00 982.44 2282.8
-591.49 1012.23 2352.0
-579.23 1001.58 2327.3
-564.88 987.06 2293.5
-576.48 1018.04 2365.5
-578.64 1032.84 2399.9
-551.94 995.90 2314.0
-535.84 977.46 2271.2
-558.29 1029.73 2392.7
-557.54 1039.90 2416.3
-520.16 981.20 2279.9
-508.01 980.58 2278.5
-537.06 1048.85 2437.1
-539.42 1066.00 2476.9
-529.36 1058.73 2460.0
-369.86 1096.38 2547.5
-364.02 1098.68 2552.9
-353.94 1088.04 2528.1
-341.48 1069.54 2485.2
-328.99 1050.24 2440.3
-322.15 1048.58 2436.5
-321.60 1067.71 2480.9
-315.49 1068.80 2483.4
-309.13 1069.09 2484.1
-305.33 1078.41 2505.8
-295.21 1065.33 2475.4
-289.29 1067.17 2479.7
-283.04 1067.83 2481.2
-273.11 1054.33 2449.8
-266.82 1054.58 2450.4
-261.11 1057.18 2456.5
-252.34 1047.19 2433.2
-241.83 1029.32 2391.7
-231.80 1012.61 2352.9
-224.17 1005.74 2336.9
-217.73 1003.97 2332.8
-211.97 1005.36 2336.0
-208.54 1018.16 2365.8
-204.56 1028.99 2391.0
-198.55 1029.97 2393.2
-191.13 1023.45 2378.1
-183.35 1014.56 2357.4
-177.55 1016.31 2361.5
-174.11 1032.25 2398.5
-171.00 1051.34 2442.9
-159.15 1056.78 2455.5
-143.57 992.99 2307.3
-134.51 1014.96 2358.3
-130.81 1034.04 2402.7
-123.74 1027.05 2386.4
-115.80 1011.76 2350.9
-108.14 997.25 2317.2
-103.76 1013.15 2354.1
-99.19 1029.05 2391.1
-92.28 1021.24 2372.9
-86.27 1022.90 2376.8
-80.08 1022.58 2376.1
-74.41 1029.37 2391.8
-69.79 1053.15 2447.1
-63.40 1052.43 2445.4
-56.42 1040.63 2418.0
-49.58 1028.82 2390.5
-43.29 1026.49 2385.1
-37.62 1040.76 2418.3
-31.24 1037.23 2410.1
-24.58 1020.26 2370.7
-18.38 1017.12 2363.4
-12.23 1015.16 2358.8
-6.13 1018.33 2366.2
0.00 1015.56 2359.7
18.19 1006.45 2338.6
24.86 1031.72 2397.3
31.46 1044.35 2426.6
37.03 1024.55 2380.6
43.02 1020.17 2370.4
49.49 1026.84 2385.9
55.80 1029.16 2391.3
62.30 1034.25 2403.2
81.47 1040.37 2417.4
90.67 1075.05 2498.0
97.14 1074.97 2497.8
117.90 1087.30 2526.4
123.62 1080.08 2509.7
133.49 1108.00 2574.5
148.80 1122.74 2608.8
154.23 1113.12 2586.4
171.04 1135.71 2638.9
174.09 1111.47 2582.6
182.74 1123.54 2610.6
190.15 1127.31 2619.4
195.18 1117.27 2596.1
220.23 1107.81 2574.1
231.54 1130.46 2626.7
241.46 1145.21 2661.0
250.27 1154.04 2681.5
258.14 1158.13 2691.0
262.08 1144.90 2660.3
264.58 1126.15 2616.7
273.67 1135.74 2639.0
294.09 1135.34 2638.0
298.88 1127.59 2620.0
313.59 1156.79 2687.9
324.94 1172.60 2724.6
331.80 1171.91 2723.0
353.76 1174.49 2729.0
345.06 1123.14 2609.7
347.42 1109.08 2577.0
352.37 1103.66 2564.4
362.36 1113.92 2588.3
392.09 1141.87 2653.2
382.97 1096.08 2546.8
389.30 1095.33 2545.1
401.01 1109.45 2577.9
402.26 1077.02 2502.5
422.70 1113.79 2588.0
426.10 1105.19 2568.0
433.82 1107.92 2574.3
450.74 1133.68 2634.2
454.41 1125.85 2616.0
456.86 1115.28 2591.4
460.81 1108.62 2576.0
452.02 1071.93 2490.7
474.20 1093.30 2540.4
477.86 1086.63 2524.9
509.88 1099.23 2554.1
514.28 1094.49 2543.1
-996.85 945.29 2209.8
-993.48 947.54 2215.0
-997.67 957.07 2237.3
-975.72 941.48 2200.9
-951.66 923.67 2159.2
-912.10 890.51 2081.7
-875.05 864.57 2021.1
-889.66 884.30 2067.2
-886.11 886.11 2071.4
-881.82 887.20 2074.0
-882.22 893.05 2087.6
-893.72 910.27 2127.9
-915.79 938.54 2194.0
-921.87 950.68 2222.4
-901.60 935.62 2187.2
-870.55 909.12 2125.2
-852.40 895.84 2094.2
-865.41 915.34 2139.7
-889.29 946.67 2213.0
-892.86 956.63 2236.3
-876.09 944.80 2208.6
-849.91 922.60 2156.7
-838.53 916.27 2141.9
-850.44 935.48 2186.8
-865.15 958.06 2239.6
-863.65 962.85 2250.8
-839.28 942.04 2202.2
-841.75 951.29 2223.8
-860.77 979.50 2289.7
-856.76 981.70 2294.9
-846.59 976.84 2283.5
-845.13 982.02 2295.6
-885.99 1051.71 2458.5
-881.17 1053.58 2462.9
-620.65 994.24 2324.2
-629.61 1018.48 2380.9
-610.90 998.01 2333.0
-583.14 971.90 2272.0
-580.51 977.40 2284.8
-579.17 985.19 2303.0
-565.52 1003.34 2345.5
-561.01 1006.15 2352.0
-565.99 1026.25 2399.0
-538.49 1009.66 2360.2
-513.94 974.71 2278.5
-505.66 970.16 2267.9
-516.50 1002.61 2343.8
-532.64 1046.26 2445.8
-539.16 1071.82 2505.6
-397.57 1075.39 2513.9
-389.77 1071.86 2505.6
-367.16 1081.82 2528.9
-358.38 1075.14 2513.3
-352.86 1078.19 2520.5
-344.68 1073.05 2508.4
-337.78 1071.81 2505.5
-336.33 1088.12 2543.7
-326.51 1077.50 2518.8
-312.07 1050.84 2456.5
-298.39 1025.73 2397.8
-281.56 1032.40 2413.4
-274.75 1030.31 2408.5
-264.39 1014.52 2371.6
-264.38 1038.63 2428.0
-264.86 1065.89 2491.7
-256.75 1059.08 2475.8
-246.77 1044.04 2440.6
-236.26 1025.86 2398.1
-227.89 1016.28 2375.7
-225.20 1032.17 2412.9
-223.31 1052.75 2461.0
-215.52 1045.90 2445.0
-207.18 1035.91 2421.6
-201.62 1039.63 2430.3
-194.40 1034.71 2418.8
-187.09 1029.01 2405.5
-181.85 1034.67 2418.7
-175.21 1032.48 2413.6
-169.04 1033.04 2414.9
-165.90 1052.82 2461.1
-157.34 1038.44 2427.5
-144.96 996.57 2329.7
-139.04 997.49 2331.8
-135.16 1013.72 2369.7
-128.33 1008.35 2357.2
-121.38 1001.39 2340.9
-113.51 985.79 2304.4
-107.72 987.46 2308.4
-105.15 1020.57 2385.7
-101.11 1042.67 2437.4
-94.65 1041.19 2434.0
-87.12 1026.74 2400.2
-79.63 1010.70 2362.7
-72.91 1002.51 2343.5
-67.26 1008.87 2358.4
-61.39 1012.86 2367.7
-54.91 1006.62 2353.1
-49.49 1020.83 2386.4
-44.39 1046.43 2446.2
-38.01 1045.29 2443.5
-31.08 1025.66 2397.6
-24.77 1021.75 2388.5
-18.72 1029.64 2407.0
-12.29 1013.53 2369.3
-6.06 1000.56 2339.0
0.00 1021.41 2387.7
6.20 1023.37 2392.3
12.33 1017.07 2377.6
18.79 1033.18 2415.2
24.63 1015.85 2374.7
42.46 1000.82 2339.6
48.73 1005.10 2349.6
54.69 1002.69 2344.0
63.13 1041.56 2434.8
68.94 1034.03 2417.2
80.87 1026.42 2399.4
91.02 1072.73 2507.7
98.91 1087.97 2543.3
112.52 1092.09 2552.9
116.60 1068.80 2498.5
123.11 1069.08 2499.2
132.95 1096.86 2564.1
142.83 1122.26 2623.5
162.15 1114.76 2605.9
180.99 1106.04 2585.5
186.66 1099.98 2571.4
207.96 1106.88 2587.5
213.79 1102.37 2577.0
220.98 1104.91 2582.9
235.15 1141.16 2667.7
302.60 1134.75 2652.7
332.95 1144.52 2675.5
327.85 1103.97 2580.7
339.53 1120.46 2619.2
348.40 1127.17 2634.9
353.28 1120.99 2620.5
360.47 1122.22 2623.4
357.84 1093.41 2556.0
381.45 1123.92 2627.4
390.70 1130.97 2643.8
397.02 1129.44 2640.3
407.78 1103.02 2578.5
418.50 1078.93 2522.2
438.36 1112.75 2601.2
443.85 1109.63 2593.9
436.37 1074.65 2512.2
444.16 1077.74 2519.4
453.44 1084.32 2534.8
454.90 1072.26 2506.6
471.90 1096.67 2563.6
501.32 1117.82 2613.1
504.75 1081.61 2528.4
-1019.87 955.77 2247.9
-985.12 933.87 2196.4
-961.65 916.92 2156.5
-943.64 905.01 2128.5
-921.23 888.72 2090.2
-912.09 885.10 2081.7
-900.00 878.57 2066.3
-908.70 892.38 2098.8
-928.67 917.48 2157.8
-923.10 917.50 2157.9
-915.70 915.70 2153.6
-887.29 892.73 2099.6
-871.74 882.50 2075.6
-886.06 902.57 2122.8
-883.75 905.85 2130.5
