ply
format ascii 1.0
element vertex 2280
property float x
property float y
property float z
end_header
586.38 626.47 1933.1
586.25 621.03 1916.3
594.20 624.16 1926.0
598.23 623.16 1922.9
601.38 621.26 1917.0
612.56 627.63 1936.7
620.07 630.15 1944.5
612.98 617.92 1906.7
612.49 612.49 1890.0
609.54 604.70 1865.9
614.24 604.57 1865.5
646.34 631.19 1947.7
669.72 648.96 2002.5
679.62 653.49 2016.5
681.59 650.37 2006.9
672.06 636.42 1963.8
665.13 625.12 1928.9
673.71 628.47 1939.3
680.77 630.34 1945.1
689.12 633.38 1954.4
712.24 649.85 2005.3
724.31 656.08 2024.5
727.71 654.41 2019.3
735.98 657.12 2027.7
750.20 665.07 2052.2
749.32 659.61 2035.4
744.70 650.96 2008.7
774.76 672.54 2075.3
423.92 761.82 2369.7
426.48 755.47 2350.0
432.39 755.16 2349.0
436.72 752.13 2339.6
440.45 718.63 2235.4
424.01 682.83 2124.0
425.36 676.21 2103.4
430.04 674.99 2099.6
435.86 675.58 2101.5
446.59 683.66 2126.6
452.88 684.84 2130.3
463.40 692.30 2153.5
466.11 688.07 2140.3
460.55 671.85 2089.9
469.68 677.21 2106.5
479.73 683.75 2126.9
483.08 680.71 2117.4
478.88 667.21 2075.4
469.27 646.54 2011.1
479.71 653.67 2033.3
502.66 677.50 2107.4
502.93 670.57 2085.9
492.02 649.04 2018.9
495.84 647.20 2013.2
504.01 651.01 2025.0
503.62 643.80 2002.6
502.88 636.30 1979.3
511.76 641.00 1993.9
521.19 646.27 2010.3
526.10 645.90 2009.1
531.00 645.53 2008.0
531.21 639.51 1989.3
541.77 645.95 2009.3
554.93 655.34 2038.5
547.47 640.44 1992.2
541.32 627.33 1951.4
556.09 638.48 1986.0
562.97 640.45 1992.2
559.14 630.30 1960.6
560.43 626.07 1947.5
566.46 627.15 1950.8
577.87 634.12 1972.5
579.63 630.48 1961.2
576.15 621.24 1932.4
579.40 619.36 1926.6
585.96 621.01 1931.7
595.33 625.60 1946.0
598.00 623.13 1938.3
596.09 615.96 1916.0
606.66 621.70 1933.9
625.68 635.93 1978.1
635.02 640.18 1991.4
628.92 628.92 1956.3
630.60 625.56 1945.9
629.26 619.27 1926.3
625.14 610.37 1898.6
647.09 626.87 1949.9
669.58 643.63 2002.1
679.48 648.12 2016.0
682.37 645.91 2009.2
672.83 632.05 1966.1
665.58 620.54 1930.3
674.80 624.44 1942.4
699.57 642.57 1998.8
727.14 662.98 2062.3
727.14 658.14 2047.2
714.80 642.29 1997.9
738.26 658.59 2048.6
758.42 662.28 2060.1
763.84 662.35 2060.3
426.86 709.50 2224.9
429.88 705.01 2210.8
442.25 715.74 2244.5
442.82 707.36 2218.2
440.04 693.91 2176.0
441.84 687.93 2157.3
439.66 675.98 2119.8
442.40 671.79 2106.7
450.23 675.34 2117.8
462.12 684.84 2147.6
472.34 691.64 2168.9
474.64 686.84 2153.8
467.94 669.26 2098.7
463.05 654.66 2053.0
471.32 658.78 2065.9
472.36 652.81 2047.1
460.70 629.63 1974.4
468.87 633.74 1987.4
493.05 659.18 2067.1
495.68 655.57 2055.8
491.46 643.08 2016.6
501.90 649.83 2037.8
508.06 650.95 2041.3
505.14 640.54 2008.7
506.54 635.75 1993.7
517.11 642.48 2014.7
525.88 646.83 2028.4
530.34 645.86 2025.4
540.17 651.38 2042.7
545.39 651.29 2042.4
537.92 636.19 1995.0
532.98 624.34 1957.9
538.23 624.56 1958.5
545.28 626.82 1965.6
550.81 627.32 1967.2
548.29 618.71 1940.2
549.04 613.93 1925.2
555.01 615.01 1928.6
559.66 614.62 1927.4
569.94 620.38 1945.4
574.61 619.98 1944.2
573.54 613.44 1923.7
578.15 613.04 1922.4
586.08 616.14 1932.1
602.46 627.98 1969.3
612.23 632.81 1984.4
603.61 618.70 1940.2
608.23 618.28 1938.9
621.78 626.88 1965.8
625.29 625.29 1960.8
626.71 621.66 1949.5
636.34 626.16 1963.6
649.90 634.43 1989.5
660.29 639.49 2005.4
664.41 638.46 2002.1
667.30 636.27 1995.3
682.39 645.65 2024.7
691.15 648.94 2035.0
690.34 643.27 2017.2
691.94 639.91 2006.7
700.71 643.19 2017.0
726.62 662.03 2076.0
737.19 666.72 2090.8
718.65 645.21 2023.3
712.06 634.66 1990.2
742.98 657.46 2061.7
778.18 678.83 2128.8
815.64 701.57 2200.0
439.81 745.23 2356.1
427.46 695.33 2198.4
430.57 691.17 2185.2
438.28 694.42 2195.5
443.01 692.91 2190.7
447.14 690.52 2183.1
446.96 681.62 2155.0
443.70 668.29 2112.8
445.19 662.35 2094.1
453.01 665.87 2105.2
459.46 667.32 2109.8
461.82 662.85 2095.7
456.21 647.18 2046.1
456.66 640.37 2024.6
469.54 650.95 2058.0
479.35 657.09 2077.5
476.02 645.27 2040.1
479.08 642.28 2030.6
498.06 660.46 2088.1
506.78 664.81 2101.9
508.11 659.46 2084.9
510.49 655.57 2072.7
508.19 645.82 2041.8
505.97 636.37 2011.9
508.31 632.79 2000.6
508.92 627.16 1982.8
508.01 619.77 1959.5
512.55 619.12 1957.4
521.97 624.32 1973.8
535.16 633.88 2004.1
536.06 628.83 1988.1
527.07 612.40 1936.2
527.97 607.66 1921.2
532.88 607.58 1920.9
536.75 606.33 1917.0
548.41 613.82 1940.7
563.60 625.08 1976.2
573.12 629.92 1991.6
580.59 632.43 1999.5
578.41 624.47 1974.3
570.13 610.14 1929.0
565.74 600.17 1897.5
566.70 596.01 1884.3
587.05 612.13 1935.3
616.59 637.49 2015.5
632.46 643.00 2032.9
616.67 621.76 1965.8
609.79 609.79 1927.9
620.19 615.14 1944.8
629.49 619.33 1958.1
623.79 608.82 1924.8
622.39 602.63 1905.3
643.96 618.61 1955.8
658.83 627.95 1985.3
656.82 621.18 1963.9
666.03 625.04 1976.1
683.91 636.93 2013.7
692.04 639.62 2022.2
695.53 638.00 2017.1
706.85 643.55 2034.6
726.79 656.80 2076.5
730.03 654.88 2070.5
733.89 653.54 2066.2
750.96 663.89 2098.9
433.97 700.14 2231.8
438.45 698.06 2225.2
447.76 703.62 2243.0
446.17 692.13 2206.3
443.63 679.48 2166.0
446.51 675.34 2152.8
445.98 666.22 2123.7
447.49 660.32 2104.9
455.34 663.82 2116.1
460.60 663.49 2115.0
462.36 658.18 2098.1
462.99 651.41 2076.5
469.61 653.13 2082.0
483.48 664.79 2119.2
493.67 671.17 2139.5
494.17 664.39 2117.9
500.94 666.08 2123.3
505.06 664.27 2117.5
498.40 648.45 2067.1
494.65 636.73 2029.7
492.32 627.06 1998.9
501.38 631.95 2014.5
510.99 637.42 2031.9
519.03 640.84 2042.8
525.22 641.93 2046.3
517.49 626.16 1996.0
515.82 617.96 1969.9
516.95 613.25 1954.9
521.96 613.17 1954.6
535.93 623.54 1987.7
540.76 623.16 1986.5
534.67 610.34 1945.6
531.97 601.57 1917.6
531.45 595.42 1898.0
539.16 598.52 1907.9
557.16 612.87 1953.7
569.55 620.86 1979.1
577.25 623.64 1988.0
574.77 615.46 1961.9
575.14 610.45 1946.0
579.53 609.77 1943.8
572.33 597.00 1903.1
584.39 604.37 1926.6
607.49 622.93 1985.7
617.59 627.97 2001.8
625.78 630.99 2011.4
619.10 619.10 1973.5
609.05 604.06 1925.6
616.82 606.79 1934.3
638.71 623.26 1986.8
645.78 625.11 1992.7
629.36 604.39 1926.6
635.41 605.39 1929.8
657.46 621.51 1981.2
661.82 620.78 1978.9
663.72 617.77 1969.3
673.89 622.45 1984.2
686.92 629.68 2007.2
694.43 631.78 2013.9
700.71 632.73 2017.0
715.24 641.06 2043.5
734.99 653.92 2084.5
756.20 667.89 2129.0
781.69 680.47 2169.1
796.53 688.43 2194.5
799.71 681.44 2172.3
425.03 698.67 2245.7
421.65 683.76 2197.8
423.51 677.61 2178.0
433.40 684.32 2199.6
442.09 688.97 2214.5
440.23 677.28 2177.0
440.10 668.51 2148.8
444.88 667.32 2145.0
445.31 659.72 2120.5
447.61 655.04 2105.5
459.09 663.74 2133.5
468.67 669.52 2152.0
474.42 669.77 2152.8
479.14 668.57 2149.0
476.46 657.19 2112.4
481.69 656.86 2111.3
491.65 662.90 2130.7
491.26 655.01 2105.4
490.08 646.26 2077.3
486.54 634.62 2039.9
486.18 627.33 2016.4
489.33 624.68 2007.9
486.02 613.92 1973.3
494.57 618.21 1987.1
510.41 631.44 2029.6
524.58 642.34 2064.7
532.25 645.15 2073.7
526.02 631.22 2028.9
520.30 618.18 1987.0
518.04 609.46 1959.0
515.90 601.04 1931.9
523.34 603.85 1940.9
539.62 616.71 1982.3
545.20 617.20 1983.9
543.60 609.65 1959.6
543.44 603.82 1940.8
541.36 595.99 1915.7
549.66 599.63 1927.4
565.97 611.85 1966.7
577.38 618.62 1988.4
580.55 616.51 1981.6
586.67 617.54 1985.0
598.00 624.00 2005.7
597.28 617.88 1986.0
592.02 607.20 1951.7
597.81 607.94 1954.1
605.30 610.38 1961.9
610.83 610.83 1963.4
623.25 618.09 1986.7
633.17 622.79 2001.8
632.97 617.53 1984.9
646.19 625.34 2010.0
662.18 635.69 2043.3
654.20 623.05 2002.7
646.03 610.42 1962.1
653.37 612.54 1968.9
665.92 619.46 1991.1
676.11 624.10 2006.0
685.14 627.61 2017.3
698.25 634.77 2040.3
701.15 632.62 2033.4
701.18 627.92 2018.3
716.03 636.47 2045.8
736.75 650.07 2089.5
750.92 657.74 2114.2
755.19 656.68 2110.8
801.64 687.12 2208.6
428.80 689.56 2235.1
421.43 668.68 2167.4
421.13 659.39 2137.3
420.10 649.25 2104.4
428.97 654.45 2121.3
439.64 662.25 2146.5
444.22 660.78 2141.8
444.45 652.95 2116.4
453.30 657.84 2132.3
470.89 675.13 2188.3
474.70 672.49 2179.8
475.37 665.52 2157.2
485.31 671.53 2176.6
487.75 667.16 2162.5
489.49 661.92 2145.5
496.51 663.88 2151.8
490.73 648.86 2103.1
483.83 632.70 2050.8
490.66 634.66 2057.1
501.56 641.79 2080.2
507.13 642.01 2080.9
506.52 634.48 2056.5
500.92 620.94 2012.6
502.82 616.86 1999.4
511.73 621.39 2014.1
514.51 618.45 2004.6
520.61 619.53 2008.1
527.21 621.17 2013.4
526.00 613.66 1989.1
525.89 607.59 1969.4
520.45 595.52 1930.3
523.88 593.73 1924.5
543.54 610.20 1977.8
556.27 618.66 2005.3
551.05 607.17 1968.0
543.81 593.70 1924.4
559.24 604.99 1961.0
583.32 625.36 2027.0
581.25 617.58 2001.8
570.43 600.72 1947.1
580.27 605.72 1963.3
595.39 616.10 1997.0
594.93 610.31 1978.2
589.08 599.15 1942.0
605.79 610.92 1980.2
624.37 624.37 2023.8
615.23 610.10 1977.5
613.33 603.19 1955.1
626.07 610.68 1979.4
629.02 608.57 1972.5
640.75 614.91 1993.1
655.82 624.34 2023.7
647.49 611.52 1982.1
638.36 598.15 1938.8
650.48 604.75 1960.2
668.49 616.67 1998.8
690.66 632.22 2049.2
713.07 647.75 2099.5
714.88 644.47 2088.9
705.68 631.40 2046.6
701.01 622.54 2017.8
710.47 626.27 2029.9
720.95 630.83 2044.7
725.06 629.80 2041.4
746.95 644.11 2087.7
789.23 675.67 2190.1
437.45 688.26 2249.8
435.49 676.16 2210.2
423.96 649.71 2123.7
423.19 640.22 2092.7
437.65 653.70 2136.8
447.06 659.42 2155.5
450.86 656.81 2147.0
462.98 666.24 2177.8
474.85 675.09 2206.7
472.79 664.16 2171.0
473.64 657.53 2149.3
482.73 662.35 2165.1
489.57 664.01 2170.5
496.01 665.10 2174.1
507.42 672.76 2199.1
506.10 663.55 2169.0
489.88 635.23 2076.4
487.89 625.77 2045.5
495.17 628.28 2053.7
497.04 623.95 2039.5
505.95 628.45 2054.2
510.07 626.96 2049.4
505.27 614.66 2009.2
507.12 610.62 1996.0
516.06 615.10 2010.6
528.19 623.26 2037.3
530.73 620.06 2026.8
525.62 608.07 1987.6
537.39 615.65 2012.4
544.28 617.55 2018.6
536.84 603.30 1972.1
545.69 607.46 1985.7
555.63 612.75 2002.9
548.06 598.80 1957.4
544.18 589.11 1925.7
562.77 603.70 1973.4
582.65 619.40 2024.7
576.02 606.88 1983.8
564.34 589.31 1926.3
573.86 594.00 1941.6
585.37 600.64 1963.4
579.30 589.28 1926.2
579.17 584.12 1909.3
601.42 601.42 1965.9
627.05 621.78 2032.5
624.19 613.79 2006.3
614.02 598.80 1957.3
619.54 599.23 1958.7
624.78 599.38 1959.2
639.70 608.75 1989.9
650.92 614.47 2008.6
638.38 597.84 1954.2
633.38 588.49 1923.6
649.10 598.39 1956.0
668.02 611.06 1997.4
691.73 627.88 2052.4
705.20 635.21 2076.4
696.37 622.52 2034.9
701.45 622.34 2034.3
711.56 626.60 2048.2
709.67 620.30 2027.6
708.96 615.13 2010.7
727.79 626.85 2049.0
770.09 658.49 2152.4
458.25 744.66 2454.9
450.25 693.15 2285.1
434.39 660.05 2176.0
430.33 645.49 2128.0
441.80 654.31 2157.1
444.65 650.30 2143.8
442.51 639.17 2107.2
450.14 642.28 2117.4
457.23 644.53 2124.8
467.00 650.46 2144.4
479.96 660.64 2178.0
480.35 653.50 2154.4
478.51 643.52 2121.5
480.35 638.65 2105.4
487.07 640.30 2110.9
500.78 651.02 2146.2
499.91 642.74 2118.9
490.22 623.44 2055.3
490.11 616.60 2032.7
493.75 614.56 2026.0
504.01 620.72 2046.3
517.60 630.82 2079.6
522.00 629.62 2075.7
515.74 615.73 2029.9
515.93 609.74 2010.1
526.62 616.15 2031.3
527.45 611.00 2014.3
526.47 603.89 1990.8
541.22 614.78 2026.8
556.89 626.50 2065.4
558.38 622.19 2051.2
554.96 612.55 2019.4
551.90 603.48 1989.5
557.75 604.22 1991.9
567.52 609.17 2008.3
566.31 602.35 1985.8
565.79 596.37 1966.1
579.09 604.94 1994.3
588.74 609.58 2009.6
578.33 593.55 1956.7
569.58 579.48 1910.4
586.32 591.38 1949.6
609.66 609.66 2009.9
622.61 617.33 2035.2
639.07 628.33 2071.4
636.02 620.12 2044.4
627.08 606.35 1999.0
635.31 609.27 2008.6
643.87 612.46 2019.1
646.01 609.54 2009.5
644.54 603.29 1988.9
645.66 599.54 1976.5
654.53 602.99 1987.9
665.27 608.09 2004.7
677.60 614.57 2026.1
690.96 621.86 2050.1
693.60 619.48 2042.2
692.78 614.06 2024.4
706.29 621.32 2048.3
714.23 623.62 2055.9
709.81 615.17 2028.0
716.77 616.64 2032.9
745.64 636.78 2099.3
777.07 658.82 2171.9
801.01 674.24 2222.8
450.14 735.44 2445.4
453.16 691.66 2299.9
444.45 669.57 2226.4
446.22 663.60 2206.6
456.15 669.79 2227.2
457.42 663.26 2205.4
446.75 639.80 2127.4
445.47 630.17 2095.4
457.14 638.89 2124.4
472.42 652.39 2169.3
486.89 664.47 2209.4
488.82 659.34 2192.4
487.08 649.44 2159.5
489.22 644.88 2144.3
483.52 630.20 2095.5
484.33 624.25 2075.7
504.22 642.74 2137.2
515.94 650.54 2163.1
508.67 634.47 2109.7
505.45 623.75 2074.0
512.61 625.93 2081.3
523.28 632.30 2102.5
526.56 629.71 2093.8
519.16 614.52 2043.3
512.22 600.18 1995.7
515.89 598.44 1989.9
522.21 599.76 1994.3
525.84 598.02 1988.5
536.13 603.80 2007.7
547.26 610.41 2029.7
548.41 605.86 2014.6
545.15 596.58 1983.7
544.82 590.65 1964.0
553.46 594.45 1976.6
564.24 600.48 1996.7
564.58 595.38 1979.7
563.24 588.61 1957.2
575.99 596.56 1983.6
590.76 606.44 2016.5
585.52 595.79 1981.1
575.45 580.45 1930.1
591.97 591.97 1968.4
615.37 610.11 2028.7
628.36 617.71 2054.0
631.81 605.70 2014.0
627.03 596.19 1982.4
641.95 605.42 2013.1
650.55 608.58 2023.6
658.00 610.63 2030.4
669.37 616.24 2049.1
682.02 622.95 2071.4
696.59 631.29 2099.1
700.92 630.28 2095.8
705.84 629.83 2094.3
715.08 633.20 2105.5
721.26 633.84 2107.6
728.07 635.01 2111.5
729.21 631.26 2099.0
739.51 635.43 2112.9
763.94 651.60 2166.6
778.96 659.56 2193.1
792.16 665.87 2214.1
797.29 665.36 2212.4
466.27 705.55 2366.4
460.54 687.82 2307.0
453.18 668.15 2241.0
454.35 661.39 2218.3
465.34 668.93 2243.6
464.03 658.80 2209.7
463.34 649.81 2179.5
475.63 659.00 2210.3
476.22 651.96 2186.7
475.65 643.53 2158.4
482.68 645.44 2164.8
485.93 642.32 2154.4
497.46 650.08 2180.4
501.33 647.79 2172.7
489.90 625.98 2099.6
498.17 629.55 2111.5
512.28 640.35 2147.8
507.44 627.48 2104.6
510.80 624.91 2096.0
525.59 636.24 2134.0
528.26 619.90 2079.2
512.81 595.68 1997.9
513.35 590.35 1980.1
517.45 589.17 1976.1
520.79 587.16 1969.4
531.53 593.46 1990.5
546.38 604.17 2026.4
551.05 603.53 2024.3
542.20 588.24 1973.0
536.71 576.83 1934.7
548.12 583.65 1957.6
562.53 593.49 1990.6
563.37 588.98 1975.5
562.82 583.10 1955.7
571.55 586.86 1968.3
581.68 591.98 1985.5
594.90 600.12 2012.8
603.02 603.02 2022.6
594.02 588.90 1975.2
590.09 580.00 1945.4
598.67 583.45 1956.9
617.23 596.49 2000.6
640.57 613.88 2059.0
638.85 607.17 2036.5
626.86 590.89 1981.9
633.90 592.67 1987.8
658.04 610.28 2046.9
682.16 627.59 2104.9
678.17 618.96 2076.0
674.94 611.17 2049.9
696.13 625.43 2097.7
708.70 631.78 2119.0
708.76 626.98 2102.9
711.83 624.89 2095.9
722.97 629.86 2112.6
734.50 635.09 2130.1
742.95 637.60 2138.5
762.88 649.86 2179.7
786.20 664.80 2229.8
798.79 670.52 2248.9
803.04 669.20 2244.5
797.80 660.05 2213.8
459.20 727.07 2460.0
460.11 681.20 2304.8
448.54 655.56 2218.1
451.19 651.08 2202.9
463.51 660.50 2234.8
467.30 657.69 2225.3
472.05 656.26 2220.4
476.36 654.27 2213.7
469.18 636.75 2154.4
469.98 630.33 2132.7
478.61 634.44 2146.6
478.22 626.64 2120.2
486.25 629.91 2131.3
498.86 638.99 2162.0
496.78 629.25 2129.1
497.62 623.39 2109.2
504.60 625.27 2115.6
507.10 621.61 2103.2
518.19 628.45 2126.3
526.63 631.96 2138.2
533.04 632.99 2141.7
542.11 630.62 2133.7
516.73 595.03 2013.2
506.69 577.63 1954.4
519.50 586.36 1983.9
531.95 594.53 2011.6
537.34 594.73 2012.2
546.74 599.31 2027.7
548.13 595.11 2013.5
535.94 576.38 1950.2
533.20 568.09 1922.1
548.49 578.96 1958.9
574.14 600.48 2031.7
585.64 606.94 2053.5
586.87 602.73 2039.3
598.48 609.17 2061.1
588.83 594.04 2009.9
580.84 580.84 1965.2
604.79 599.53 2028.5
611.87 601.32 2034.5
607.51 591.94 2002.8
615.39 594.53 2011.6
615.93 590.05 1996.4
621.26 590.20 1996.9
636.38 599.56 2028.6
641.78 599.69 2029.0
641.62 594.67 2012.0
658.46 605.36 2048.2
673.10 613.87 2077.0
658.58 595.85 2016.0
666.94 598.67 2025.6
700.22 623.63 2110.0
715.57 632.36 2139.6
719.05 630.55 2133.5
711.67 619.31 2095.4
711.58 614.55 2079.3
740.93 635.09 2148.8
769.02 654.24 2213.6
770.05 650.26 2200.1
772.28 647.36 2190.3
791.88 658.94 2229.5
803.87 664.07 2246.8
457.16 727.59 2483.5
470.78 718.90 2453.9
462.68 678.99 2317.7
458.56 664.32 2267.6
468.27 669.81 2286.3
473.00 668.11 2280.5
469.79 655.39 2237.1
473.16 652.04 2225.7
476.88 649.24 2216.1
479.32 644.79 2200.9
489.75 651.07 2222.4
494.00 649.09 2215.6
488.91 635.02 2167.6
491.28 630.85 2153.3
498.12 632.44 2158.8
499.95 627.72 2142.7
504.80 626.83 2139.6
503.15 618.00 2109.5
496.85 603.70 2060.7
505.79 608.02 2075.4
512.95 610.14 2082.7
511.33 601.87 2054.4
517.53 602.90 2057.9
528.26 609.11 2079.1
520.42 594.02 2027.6
516.44 583.58 1992.0
533.98 597.42 2039.2
537.96 595.97 2034.3
534.22 586.09 2000.6
546.35 593.63 2026.3
550.76 592.73 2023.2
538.58 574.15 1959.8
536.38 566.46 1933.6
542.88 568.01 1938.8
560.39 580.95 1983.0
584.18 600.11 2048.4
596.83 607.59 2073.9
602.90 608.28 2076.3
587.32 587.32 2004.7
579.30 574.22 1960.1
603.53 593.04 2024.3
621.97 605.88 2068.1
629.71 608.18 2076.0
631.56 604.80 2064.4
625.98 594.42 2029.0
616.51 580.55 1981.6
616.03 575.30 1963.7
634.35 587.55 2005.6
648.18 595.48 2032.6
654.46 596.41 2035.8
658.09 594.91 2030.7
652.71 585.37 1998.1
672.19 598.09 2041.5
705.82 623.11 2126.9
721.52 632.03 2157.4
720.74 626.49 2138.5
709.02 611.60 2087.6
707.04 605.27 2066.0
734.49 624.04 2130.1
770.77 649.98 2218.6
782.63 655.09 2236.1
778.86 647.14 2209.0
791.74 653.04 2229.1
455.73 718.89 2475.8
464.42 722.42 2487.9
471.82 714.11 2459.3
466.29 687.17 2366.5
466.75 678.91 2338.1
471.64 677.23 2332.3
475.15 673.63 2319.9
474.29 664.01 2286.8
472.87 653.85 2251.8
478.08 652.99 2248.8
485.29 654.85 2255.2
491.10 654.80 2255.1
495.25 652.56 2247.3
492.24 641.05 2207.7
491.78 633.09 2180.3
498.67 634.67 2185.7
500.40 629.71 2168.6
496.57 617.95 2128.1
502.92 618.98 2131.7
503.26 612.67 2109.9
494.69 595.76 2051.7
501.33 597.33 2057.1
510.30 601.62 2071.9
510.97 596.13 2053.0
511.07 590.10 2032.2
515.33 588.95 2028.3
527.23 596.46 2054.1
543.36 608.56 2095.8
546.76 606.31 2088.1
535.60 588.11 2025.4
533.58 580.20 1998.1
547.71 589.84 2031.3
555.17 592.18 2039.4
546.08 576.99 1987.1
555.78 581.75 2003.5
574.39 595.66 2051.4
570.70 586.41 2019.5
572.67 583.08 2008.1
575.38 580.56 1999.4
570.52 570.52 1964.8
585.53 580.35 1998.6
608.89 598.21 2060.2
621.81 605.59 2085.6
627.92 606.26 2087.9
627.87 601.04 2069.9
622.39 590.74 2034.4
620.14 583.66 2010.0
613.47 572.57 1971.9
614.12 568.44 1957.6
633.59 581.66 2003.2
648.88 590.85 2034.8
657.83 594.17 2046.2
666.23 596.95 2055.8
666.00 592.00 2038.8
666.89 588.12 2025.4
681.68 596.47 2054.2
697.51 605.59 2085.6
698.10 601.44 2071.3
701.71 599.94 2066.1
715.29 606.92 2090.1
726.47 611.76 2106.8
746.57 624.00 2149.0
771.97 640.45 2205.6
783.52 645.25 2222.2
793.20 648.46 2233.2
456.20 713.22 2478.4
459.08 707.74 2459.3
462.21 702.81 2442.2
459.09 688.63 2392.9
454.80 673.10 2338.9
454.14 663.28 2304.8
457.45 659.45 2291.5
467.38 665.11 2311.2
475.85 668.60 2323.3
472.65 655.81 2278.9
468.44 641.94 2230.7
478.00 647.05 2248.4
489.26 654.31 2273.7
483.23 638.56 2218.9
476.10 621.73 2160.5
485.02 626.01 2175.3
496.13 632.99 2199.6
493.65 622.67 2163.7
485.57 605.60 2104.4
486.83 600.42 2086.4
497.72 607.11 2109.7
506.72 611.37 2124.4
507.43 605.65 2104.6
506.45 598.04 2078.1
508.33 593.94 2063.9
509.67 589.31 2047.8
509.76 583.33 2027.0
513.29 581.38 2020.3
524.22 587.76 2042.4
536.70 595.74 2070.1
536.63 589.76 2049.3
539.40 586.99 2039.8
551.08 593.88 2063.7
556.84 594.32 2065.2
556.29 588.08 2043.5
559.20 585.58 2034.8
581.64 603.39 2096.7
589.68 600.50 2086.7
585.20 590.52 2052.0
581.08 581.08 2019.2
575.99 570.85 1983.6
591.60 581.13 2019.4
605.73 589.79 2049.5
608.44 587.28 2040.7
623.04 596.19 2071.7
631.91 599.51 2083.2
630.96 593.53 2062.5
633.32 590.74 2052.8
638.78 590.87 2053.2
652.32 598.41 2079.4
652.31 593.50 2062.4
647.83 584.62 2031.5
662.97 593.46 2062.2
678.25 602.29 2092.9
677.50 596.85 2074.0
677.56 592.20 2057.8
673.90 584.40 2030.7
670.11 576.60 2003.6
689.29 588.55 2045.2
713.01 604.16 2099.4
721.05 606.34 2107.0
727.55 607.20 2110.0
732.79 607.01 2109.3
741.21 609.44 2117.7
782.08 638.31 2218.1
456.86 707.81 2481.9
457.44 698.86 2450.6
463.05 697.75 2446.7
462.47 687.46 2410.6
456.57 669.63 2348.1
454.81 658.28 2308.3
462.28 660.40 2315.7
476.28 671.67 2355.2
477.71 665.17 2332.4
467.49 642.80 2254.0
459.64 624.21 2188.8
465.69 624.71 2190.5
488.77 647.77 2271.4
495.03 648.25 2273.1
474.76 614.39 2154.4
471.29 602.81 2113.8
492.85 623.14 2185.0
501.04 626.30 2196.1
494.99 611.78 2145.2
498.09 608.78 2134.7
501.81 606.58 2127.0
502.80 601.18 2108.0
500.31 591.77 2075.0
496.97 581.56 2039.2
502.90 582.30 2041.8
509.07 583.31 2045.4
510.79 579.25 2031.1
515.76 578.92 2030.0
520.96 578.85 2029.7
526.89 579.58 2032.3
544.79 593.33 2080.5
566.12 610.52 2140.8
572.82 611.75 2145.1
572.76 605.81 2124.3
576.65 604.11 2118.3
584.60 606.66 2127.2
588.72 605.22 2122.2
585.53 596.37 2091.2
586.12 591.50 2074.1
590.59 590.59 2070.9
594.25 588.90 2065.0
597.87 587.20 2059.0
600.92 584.97 2051.2
601.20 580.10 2034.1
598.90 572.87 2008.7
607.88 576.44 2021.3
624.19 586.85 2057.8
631.36 588.56 2063.8
646.80 597.89 2096.5
664.69 609.30 2136.5
661.69 601.53 2109.3
646.61 583.01 2044.3
640.90 573.17 2009.8
653.93 580.10 2034.1
682.84 600.90 2107.1
698.30 609.63 2137.7
702.74 608.67 2134.3
702.90 604.05 2118.1
691.34 589.52 2067.1
703.29 595.09 2086.7
732.39 614.99 2156.4
746.19 621.83 2180.4
745.94 616.94 2163.3
743.70 610.50 2140.7
767.19 625.11 2192.0
455.76 699.69 2476.0
466.76 706.62 2500.5
470.22 692.63 2451.0
454.84 661.04 2339.2
455.30 652.99 2310.7
465.04 658.30 2329.5
477.93 667.87 2363.4
477.83 659.29 2333.0
471.51 642.44 2273.4
468.07 629.87 2228.9
464.19 617.04 2183.5
477.53 627.12 2219.2
492.89 639.58 2263.3
480.67 616.38 2181.2
468.24 593.47 2100.1
480.87 602.47 2131.9
495.15 613.31 2170.3
495.31 606.61 2146.6
492.94 597.01 2112.6
491.07 588.20 2081.4
498.43 590.53 2089.7
502.67 589.15 2084.8
504.14 584.59 2068.7
515.68 591.67 2093.7
523.61 594.51 2103.8
527.12 592.33 2096.0
526.54 585.65 2072.4
526.33 579.50 2050.7
540.06 588.66 2083.1
559.75 592.35 2096.1
565.09 592.26 2095.8
574.23 596.11 2109.4
578.07 594.43 2103.5
578.26 589.07 2084.5
580.96 586.34 2074.8
588.07 588.07 2081.0
584.09 578.78 2048.1
578.61 568.19 2010.6
594.48 578.56 2047.3
610.26 588.65 2083.0
611.97 585.13 2070.6
609.76 577.95 2045.2
600.76 564.50 1997.6
597.12 556.29 1968.5
618.20 571.05 2020.8
646.92 592.56 2096.9
652.78 592.94 2098.2
637.53 574.31 2032.3
644.40 575.73 2037.3
661.55 586.25 2074.5
662.02 581.94 2059.3
677.61 590.87 2090.9
695.14 601.35 2128.0
701.66 602.22 2131.0
718.54 611.89 2165.3
723.94 611.70 2164.6
723.16 606.34 2145.6
738.44 614.42 2174.2
759.16 626.89 2218.3
765.92 627.71 2221.3
769.52 625.95 2215.0
458.51 697.45 2490.9
465.26 679.03 2425.1
448.33 645.60 2305.7
448.70 637.62 2277.2
460.06 645.27 2304.5
474.22 656.62 2345.1
474.85 649.17 2318.5
469.27 633.52 2262.6
478.68 638.24 2279.4
487.96 642.68 2295.3
474.39 617.28 2204.6
462.22 594.28 2122.4
471.01 598.46 2137.4
479.25 601.85 2149.5
482.66 599.17 2139.9
487.74 598.59 2137.8
488.90 593.28 2118.8
487.56 585.07 2089.5
487.39 578.45 2065.9
496.96 583.39 2083.5
508.19 590.16 2107.7
516.57 593.51 2119.7
525.01 596.85 2131.6
529.54 595.73 2127.6
531.22 591.46 2112.4
528.78 582.74 2081.2
530.75 579.00 2067.9
546.70 590.43 2108.7
558.44 597.14 2132.7
549.81 582.16 2079.1
537.69 563.79 2013.5
540.82 561.62 2005.8
556.34 572.23 2043.7
567.18 577.88 2063.8
571.91 577.26 2061.6
579.76 579.76 2070.6
588.17 582.78 2081.4
585.51 574.87 2053.1
582.45 566.71 2023.9
601.59 580.10 2071.8
612.81 585.69 2091.8
609.62 577.53 2062.6
608.49 571.45 2040.9
599.46 558.12 1993.3
618.30 565.90 2021.1
639.35 580.25 2072.3
636.54 572.88 2046.0
635.62 567.33 2026.2
657.61 582.15 2079.1
682.50 599.27 2140.3
691.41 602.20 2150.7
695.60 601.00 2146.4
700.67 600.57 2144.9
694.84 590.89 2110.3
696.76 587.89 2099.6
719.48 602.35 2151.3
738.42 613.45 2190.9
732.98 604.29 2158.2
731.46 598.47 2137.4
766.39 622.33 2222.6
788.66 626.29 2236.7
805.18 634.74 2266.9
457.58 689.59 2485.9
469.20 678.44 2445.6
457.83 653.17 2354.6
460.37 648.15 2336.4
473.95 658.61 2374.2
474.34 650.70 2345.6
462.19 626.00 2256.6
459.97 615.22 2217.7
472.04 623.56 2247.8
480.85 627.45 2261.8
466.78 601.75 2169.2
462.92 589.68 2125.7
479.62 603.76 2176.4
486.91 605.81 2183.8
489.56 602.10 2170.4
489.13 594.74 2143.9
485.53 583.72 2104.2
488.09 580.28 2091.8
491.92 578.41 2085.0
493.69 574.19 2069.8
496.52 571.27 2059.3
511.64 582.40 2099.4
526.50 593.00 2137.7
523.34 583.31 2102.7
517.42 570.77 2057.5
521.27 569.14 2051.6
529.40 572.18 2062.6
532.74 570.03 2054.9
531.39 562.96 2029.4
532.63 558.74 2014.1
530.55 551.15 1986.8
547.81 558.24 2012.4
556.78 562.03 2026.0
560.65 560.65 2021.0
570.22 564.94 2036.5
580.40 569.75 2053.8
593.03 576.86 2079.5
606.33 584.48 2106.9
611.93 584.61 2107.4
609.93 577.54 2081.9
610.54 573.05 2065.7
613.83 571.13 2058.8
615.42 567.67 2046.3
623.11 569.86 2054.2
623.49 565.37 2038.0
622.36 559.60 2017.3
632.91 564.34 2034.3
645.27 570.61 2056.9
649.27 569.44 2052.7
655.60 570.32 2055.9
677.34 584.48 2106.9
696.33 596.05 2148.7
703.20 597.16 2152.6
699.20 589.09 2123.5
707.85 591.72 2133.0
737.71 611.90 2205.8
744.12 612.46 2207.8
725.34 592.45 2135.7
729.08 591.00 2130.4
770.95 620.24 2235.8
794.79 629.94 2270.8
476.78 682.95 2485.1
470.66 665.19 2420.5
477.09 665.41 2421.3
482.58 664.32 2417.4
474.64 645.03 2347.1
464.61 623.41 2268.5
464.98 616.09 2241.8
467.38 611.64 2225.6
466.10 602.51 2192.4
472.16 602.99 2194.2
488.50 616.44 2243.1
493.86 615.87 2241.0
489.74 603.63 2196.5
493.06 600.73 2186.0
493.31 594.21 2162.2
486.92 579.93 2110.3
487.08 573.67 2087.5
490.23 571.04 2077.9
491.31 566.08 2059.9
499.55 569.38 2071.9
520.43 586.87 2135.5
533.99 595.82 2168.1
529.51 584.66 2127.5
524.58 573.26 2086.0
529.69 572.93 2084.8
536.46 574.39 2090.1
537.93 570.20 2074.9
530.74 557.02 2026.9
526.54 547.19 1991.1
534.37 549.94 2001.1
547.29 557.81 2029.8
560.08 565.41 2057.4
567.12 567.12 2063.6
573.66 568.30 2067.9
586.74 575.87 2095.5
584.70 568.61 2069.1
585.98 564.67 2054.7
593.60 566.86 2062.7
593.97 562.15 2045.6
599.16 562.04 2045.2
607.63 564.99 2055.9
628.03 578.88 2106.4
640.90 580.65 2112.9
626.42 562.72 2047.6
627.02 558.52 2032.4
638.75 564.23 2053.1
647.69 567.39 2064.6
647.92 562.94 2048.4
644.25 555.20 2020.3
655.84 560.64 2040.0
664.53 563.53 2050.6
662.46 557.31 2027.9
684.49 571.31 2078.9
719.86 596.13 2169.2
736.00 604.78 2200.7
727.56 593.25 2158.7
725.46 587.02 2136.0
746.13 599.16 2180.2
775.51 618.08 2249.1
796.54 625.43 2275.8
469.05 674.66 2478.3
467.98 664.03 2439.3
470.96 659.34 2422.1
472.54 652.85 2398.2
473.05 645.06 2369.6
469.39 631.87 2321.2
463.55 616.11 2263.3
468.02 614.27 2256.5
473.84 614.23 2256.4
476.24 609.82 2240.1
486.28 615.17 2259.8
490.86 613.58 2254.0
485.22 599.39 2201.9
488.37 596.26 2190.4
499.96 603.40 2216.6
503.94 601.29 2208.8
500.92 590.97 2170.9
497.71 580.66 2133.0
496.98 573.43 2106.5
508.22 580.03 2130.7
527.74 595.83 2188.8
529.22 591.15 2171.6
523.69 578.81 2126.3
533.57 583.59 2143.8
543.07 587.86 2159.5
542.40 581.14 2134.8
543.29 576.21 2116.7
549.91 577.40 2121.1
548.22 569.93 2093.6
539.47 555.34 2040.0
542.69 553.22 2032.3
553.16 558.48 2051.6
562.97 562.97 2068.0
570.80 565.41 2077.0
578.15 567.34 2084.1
593.36 576.88 2119.1
593.48 571.70 2100.1
586.60 559.94 2056.9
586.47 554.77 2037.9
591.37 554.41 2036.6
601.70 559.10 2053.9
608.82 560.76 2059.9
628.13 573.51 2106.8
641.81 580.95 2134.1
630.62 565.94 2079.0
627.93 558.75 2052.6
640.24 564.92 2075.2
654.09 572.33 2102.4
664.59 576.71 2118.5
660.86 568.77 2089.4
652.58 557.08 2046.4
671.05 568.22 2087.4
686.72 576.85 2119.0
676.39 563.66 2070.6
689.74 570.26 2094.8
711.75 583.86 2144.8
713.72 580.93 2134.0
731.71 591.00 2171.0
759.22 608.53 2235.4
768.21 611.07 2244.8
783.87 618.84 2273.3
793.62 621.86 2284.4
784.86 610.44 2242.4
796.51 614.95 2259.0
467.91 666.61 2472.3
470.10 660.68 2450.3
474.39 657.82 2439.7
476.57 652.15 2418.7
481.48 650.32 2411.9
482.53 643.37 2386.1
471.22 620.33 2300.7
470.28 611.36 2267.4
482.28 619.23 2296.6
490.41 621.98 2306.8
491.26 615.56 2283.0
486.85 602.77 2235.5
484.70 593.04 2199.5
492.25 595.28 2207.8
504.95 603.62 2238.7
509.63 602.29 2233.8
511.02 597.14 2214.7
511.43 590.98 2191.8
505.73 577.97 2143.6
511.90 578.67 2146.2
521.49 583.17 2162.9
513.29 567.90 2106.2
508.97 557.19 2066.5
519.65 562.95 2087.9
534.91 573.51 2127.0
539.87 572.93 2124.9
541.46 568.80 2109.6
548.79 570.74 2116.8
554.20 570.66 2116.4
552.42 563.25 2089.0
546.27 551.57 2045.7
546.45 546.45 2026.7
554.41 549.13 2036.6
560.37 549.80 2039.1
567.12 551.22 2044.4
581.72 560.17 2077.6
584.63 557.81 2068.8
580.59 548.92 2035.8
587.36 550.32 2041.0
598.48 555.73 2061.1
607.51 559.12 2073.7
613.86 560.01 2077.0
623.81 564.14 2092.3
628.81 563.76 2090.9
627.06 557.39 2067.2
634.26 559.01 2073.2
644.91 563.62 2090.3
657.07 569.46 2112.0
664.70 571.31 2118.9
657.46 560.46 2078.6
654.73 553.59 2053.2
679.15 569.61 2112.6
713.41 593.56 2201.4
722.51 596.36 2211.8
710.15 581.54 2156.8
705.46 573.19 2125.8
704.61 568.06 2106.8
720.08 576.06 2136.5
748.76 594.43 2204.6
758.62 597.70 2216.7
764.11 597.50 2216.0
762.60 591.87 2195.1
771.55 594.38 2204.4
803.42 614.38 2278.6
461.91 651.73 2440.6
470.03 654.23 2450.0
478.20 656.72 2459.3
470.14 637.16 2386.0
466.63 624.20 2337.5
480.14 634.04 2374.3
480.63 626.65 2346.7
477.45 614.71 2302.0
487.55 619.98 2321.7
490.31 615.88 2306.4
485.87 602.95 2257.9
489.83 600.62 2249.2
496.45 601.58 2252.8
498.87 597.49 2237.5
507.18 600.46 2248.6
511.02 598.13 2239.9
510.68 591.01 2213.2
515.26 589.69 2208.3
514.04 581.82 2178.8
515.14 576.73 2159.7
519.54 575.41 2154.8
514.75 564.04 2112.2
514.15 557.45 2087.5
519.03 556.88 2085.4
528.39 561.07 2101.1
539.97 567.51 2125.2
548.77 570.94 2138.1
551.80 568.35 2128.4
552.82 563.76 2111.2
567.11 572.67 2144.6
577.58 577.58 2162.9
560.14 554.75 2077.4
550.68 540.19 2022.9
570.98 554.82 2077.7
592.83 570.67 2137.1
598.52 570.81 2137.6
592.35 559.75 2096.1
588.11 550.68 2062.2
594.68 551.82 2066.5
607.48 558.67 2092.1
618.50 563.76 2111.2
618.07 558.43 2091.2
621.42 556.57 2084.2
632.26 561.40 2102.3
636.16 560.03 2097.2
636.62 555.70 2081.0
640.44 554.33 2075.8
648.25 556.42 2083.7
651.17 554.30 2075.8
655.80 553.67 2073.4
663.95 555.99 2082.1
678.96 563.98 2112.0
704.57 580.56 2174.1
728.96 595.89 2231.5
733.00 594.48 2226.2
724.80 583.24 2184.1
720.09 574.96 2153.1
720.19 570.61 2136.8
732.67 576.07 2157.3
746.51 582.50 2181.4
755.71 585.25 2191.6
763.04 586.52 2196.4
782.89 597.32 2236.8
457.51 639.27 2417.4
461.57 636.22 2405.9
472.21 642.21 2428.5
466.69 626.34 2368.5
456.69 604.97 2287.7
463.75 606.44 2293.3
471.41 608.66 2301.7
475.58 606.36 2293.0
476.12 599.55 2267.2
468.87 583.23 2205.5
475.78 584.70 2211.0
491.78 597.16 2258.2
502.17 602.61 2278.8
508.66 603.30 2281.4
507.92 595.49 2251.9
502.07 581.95 2200.6
497.49 570.16 2156.1
497.75 564.12 2133.2
502.12 562.82 2128.3
509.16 564.50 2134.7
516.00 565.94 2140.1
514.15 557.91 2109.7
518.63 556.85 2105.7
528.71 561.75 2124.3
539.11 566.89 2143.7
551.74 574.26 2171.6
553.92 570.70 2158.1
550.19 561.19 2122.2
556.10 561.60 2123.7
575.88 575.88 2177.7
575.86 564.79 2135.8
559.92 543.92 2056.9
574.66 552.98 2091.1
592.67 564.98 2136.5
593.65 560.67 2120.2
592.71 554.64 2097.4
593.78 550.59 2082.1
596.91 548.51 2074.2
606.49 552.34 2088.7
613.96 554.19 2095.7
608.82 544.73 2059.9
613.48 544.13 2057.6
625.93 550.39 2081.3
633.16 551.98 2087.3
636.43 550.14 2080.3
636.81 545.84 2064.1
640.86 544.73 2059.9
655.91 552.91 2090.9
672.27 562.06 2125.4
674.07 558.98 2113.8
682.03 561.03 2121.5
700.50 571.61 2161.5
718.24 581.43 2198.7
731.61 587.59 2222.0
733.17 584.24 2209.3
740.82 585.76 2215.1
752.83 590.68 2233.7
759.93 591.70 2237.5
768.61 593.93 2245.9
778.28 596.88 2257.1
785.77 598.13 2261.8
795.20 600.82 2272.0
474.44 647.55 2473.0
480.64 638.75 2439.4
475.18 623.28 2380.3
471.33 610.31 2330.7
468.20 598.59 2286.0
470.56 594.08 2268.8
469.44 585.35 2235.4
466.74 574.89 2195.5
477.91 581.55 2220.9
489.40 588.44 2247.2
496.02 589.38 2250.8
505.18 593.29 2265.7
506.10 587.54 2243.8
501.30 575.36 2197.3
497.36 564.42 2155.5
502.02 563.38 2151.5
511.10 567.27 2166.4
515.31 565.73 2160.5
518.81 563.44 2151.8
512.39 550.55 2102.5
512.46 544.82 2080.6
526.92 554.36 2117.1
541.56 563.89 2153.5
546.35 563.07 2150.3
540.03 550.94 2104.0
542.73 548.16 2093.4
554.46 554.46 2117.5
558.88 553.40 2113.4
556.76 545.95 2085.0
559.55 543.41 2075.3
561.78 540.38 2063.7
572.69 545.68 2083.9
587.84 554.88 2119.1
586.69 548.66 2095.3
583.83 540.98 2066.0
589.34 541.12 2066.5
596.73 542.97 2073.6
595.22 536.76 2049.9
592.24 529.34 2021.5
603.96 535.08 2043.5
627.14 550.79 2103.4
636.08 553.83 2115.0
639.16 551.75 2107.1
642.20 549.68 2099.2
641.76 544.69 2080.1
653.91 550.38 2101.9
677.49 565.51 2159.7
696.66 576.74 2202.5
701.58 576.09 2200.1
691.93 563.59 2152.3
691.33 558.60 2133.2
707.51 567.13 2165.8
719.59 572.27 2185.5
732.98 578.37 2208.8
753.25 589.75 2252.2
761.32 591.49 2258.9
763.18 588.40 2247.1
765.28 585.56 2236.2
769.55 584.40 2231.8
790.37 595.72 2275.0
474.00 640.55 2470.7
483.52 644.69 2486.7
484.31 637.25 2458.0
477.55 620.20 2392.2
472.96 606.36 2338.8
470.82 595.98 2298.8
474.78 593.48 2289.1
490.84 605.98 2337.3
492.47 593.34 2288.6
482.27 574.13 2214.5
490.27 576.78 2224.7
500.84 582.37 2246.3
500.22 574.96 2217.7
493.41 560.69 2162.7
495.92 557.21 2149.2
507.61 564.01 2175.5
519.65 571.04 2202.6
527.77 573.67 2212.7
531.40 571.39 2203.9
524.41 557.88 2151.8
519.49 546.83 2109.2
530.04 552.13 2129.6
536.44 553.03 2133.1
533.54 544.43 2099.9
533.84 539.24 2079.9
542.81 542.81 2093.7
545.46 540.06 2083.1
540.36 529.77 2043.4
541.32 525.56 2027.1
547.76 526.69 2031.5
555.74 529.28 2041.5
573.54 541.08 2087.0
595.71 556.74 2147.4
601.94 557.35 2149.8
593.67 544.65 2100.8
593.41 539.47 2080.8
598.15 538.88 2078.5
594.22 530.55 2046.4
597.49 528.76 2039.5
618.06 542.16 2091.2
642.48 558.68 2154.9
651.26 561.44 2165.5
651.65 556.96 2148.3
651.94 552.49 2131.0
648.14 544.66 2100.8
656.02 546.69 2108.6
680.79 562.64 2170.2
702.33 575.68 2220.5
709.95 577.19 2226.3
702.43 566.48 2185.0
692.03 553.62 2135.4
696.76 552.99 2132.9
710.59 559.52 2158.1
726.67 567.71 2189.8
755.22 585.44 2258.1
772.30 594.08 2291.4
770.48 588.15 2268.6
768.87 582.47 2246.7
767.14 576.80 2224.8
781.89 583.50 2250.6
466.11 632.12 2462.8
464.43 621.33 2420.7
471.60 622.51 2425.4
483.29 629.55 2452.8
486.00 624.86 2434.5
483.63 613.83 2391.6
484.15 606.71 2363.8
474.48 587.17 2287.7
477.78 583.96 2275.2
486.27 573.11 2232.9
487.64 567.95 2212.8
494.18 568.88 2216.4
490.06 557.65 2172.7
486.58 547.41 2132.7
492.50 547.84 2134.4
503.72 554.09 2158.8
515.73 561.07 2186.0
520.21 559.79 2181.0
519.89 553.43 2156.2
520.13 547.79 2134.3
523.04 545.07 2123.6
529.66 546.21 2128.1
532.50 543.48 2117.4
532.42 537.85 2095.5
535.85 535.85 2087.7
544.35 538.91 2099.6
546.76 535.94 2088.1
547.38 531.28 2069.9
555.16 533.60 2079.0
570.82 543.38 2117.1
588.96 555.31 2163.5
584.17 545.59 2125.7
582.82 539.25 2101.0
591.82 542.51 2113.7
586.89 533.05 2076.8
590.03 531.03 2068.9
597.96 533.32 2077.9
600.79 531.06 2069.1
612.31 536.45 2090.1
611.27 530.84 2068.2
613.16 527.85 2056.6
637.10 543.73 2118.4
652.02 551.71 2149.5
654.31 548.95 2138.8
652.24 542.62 2114.1
652.36 538.20 2096.9
668.39 546.86 2130.6
700.68 568.59 2215.3
718.32 578.16 2252.6
708.48 565.64 2203.8
695.72 551.01 2146.8
695.95 546.82 2130.5
706.13 550.45 2144.6
713.62 551.94 2150.4
731.61 561.47 2187.5
759.71 578.54 2254.1
770.29 582.13 2268.0
781.57 586.18 2283.8
781.37 577.28 2249.2
781.79 573.31 2233.7
450.77 613.55 2414.8
452.50 607.46 2390.9
460.68 610.09 2401.2
466.14 609.09 2397.3
475.89 613.65 2415.2
481.74 613.12 2413.2
482.19 605.82 2384.4
484.43 600.94 2365.2
476.93 584.24 2299.5
462.31 559.34 2201.5
471.02 562.92 2215.6
493.06 582.17 2291.3
497.72 580.67 2285.4
487.72 562.31 2213.2
483.06 550.47 2166.6
480.10 540.80 2128.5
493.45 543.35 2138.6
515.71 561.55 2210.2
526.73 567.25 2232.6
530.65 565.26 2224.8
526.34 554.63 2183.0
522.27 544.50 2143.1
523.12 539.64 2123.9
527.39 538.37 2119.0
524.52 529.93 2085.7
530.85 525.49 2068.3
549.30 538.31 2118.7
560.37 543.72 2140.0
571.04 548.64 2159.4
563.76 536.39 2111.2
564.33 531.77 2093.0
585.48 546.44 2150.7
585.28 541.11 2129.7
581.34 532.45 2095.6
587.45 533.06 2098.0
584.85 525.83 2069.6
591.17 526.68 2072.9
601.00 530.61 2088.4
606.29 530.50 2088.0
617.31 535.36 2107.1
615.75 529.33 2083.4
609.91 519.75 2045.7
625.99 528.85 2081.5
643.09 538.65 2120.1
647.57 537.81 2116.8
649.46 534.85 2105.1
653.02 533.30 2099.0
658.01 532.93 2097.5
677.63 544.33 2142.4
708.69 564.65 2222.4
712.46 563.07 2216.2
700.91 549.51 2162.8
702.99 546.77 2152.0
715.96 552.47 2174.4
725.66 555.58 2186.7
724.32 550.26 2165.7
730.32 550.55 2166.9
755.72 565.35 2225.1
785.16 582.92 2294.3
444.45 598.77 2381.0
450.78 598.98 2381.8
453.82 594.88 2365.5
455.48 589.09 2342.5
461.91 589.54 2344.3
464.16 584.72 2325.1
475.74 591.62 2352.5
488.42 599.71 2384.7
479.97 581.97 2314.2
463.78 555.39 2208.5
459.99 544.13 2163.7
470.27 549.59 2185.4
488.30 563.87 2242.2
491.77 561.19 2231.6
482.93 544.69 2165.9
491.34 535.50 2129.4
510.50 550.20 2187.8
519.01 553.23 2199.9
526.90 555.54 2209.1
527.33 550.01 2187.1
523.27 539.97 2147.1
524.12 535.16 2128.0
535.91 541.49 2153.2
542.36 542.36 2156.7
532.56 527.13 2096.1
542.27 531.32 2112.7
556.45 539.75 2146.3
562.91 540.61 2149.7
567.39 539.58 2145.6
553.55 521.31 2072.9
554.28 516.98 2055.7
575.60 531.75 2114.5
589.22 539.19 2144.1
600.12 544.04 2163.3
603.25 541.81 2154.5
597.08 531.35 2112.9
592.04 522.07 2076.0
590.32 515.86 2051.3
590.10 511.07 2032.2
594.70 510.50 2030.0
614.17 522.58 2078.0
630.81 532.07 2115.8
631.39 527.97 2099.4
633.29 525.04 2087.8
648.79 533.33 2120.8
661.87 539.51 2145.3
666.68 538.90 2142.9
671.76 538.52 2141.4
673.03 535.11 2127.8
685.45 540.56 2149.5
700.06 547.63 2177.6
698.30 541.88 2154.8
692.51 533.12 2119.9
695.98 531.57 2113.8
726.68 550.69 2189.8
748.78 563.04 2238.9
754.34 562.86 2238.2
780.54 577.96 2298.2
466.45 621.94 2498.9
463.87 610.02 2451.0
458.85 595.26 2391.7
452.04 578.62 2324.8
451.48 570.28 2291.3
462.34 576.42 2316.0
481.41 592.50 2380.6
487.74 592.69 2381.4
472.76 567.31 2279.4
464.25 550.23 2210.7
467.93 547.83 2201.1
469.32 542.82 2181.0
478.04 546.33 2195.1
492.89 556.68 2236.7
495.90 553.56 2224.1
488.36 538.88 2165.1
487.66 531.99 2137.5
493.37 532.18 2138.2
499.75 533.07 2141.8
506.14 533.95 2145.4
511.88 534.13 2146.1
519.43 536.19 2154.3
522.88 534.01 2145.6
529.07 534.64 2148.1
547.48 547.48 2199.7
565.90 554.35 2227.3
559.74 542.78 2180.8
557.98 535.67 2152.2
556.82 529.26 2126.5
552.80 520.28 2090.4
559.14 521.14 2093.9
580.42 535.77 2152.7
587.43 537.07 2157.9
586.21 530.91 2133.1
592.41 531.50 2135.5
591.53 525.81 2112.6
591.07 520.58 2091.6
591.31 516.05 2073.4
589.04 509.44 2046.9
599.14 509.00 2045.1
624.72 526.08 2113.7
638.11 532.68 2140.3
635.94 526.30 2114.6
624.89 512.73 2060.1
626.96 510.07 2049.4
652.77 526.61 2115.8
669.94 535.95 2153.4
679.42 539.04 2165.8
684.26 538.43 2163.4
684.95 534.59 2147.9
686.45 531.44 2135.3
698.39 536.36 2155.0
705.89 537.82 2160.9
700.01 529.14 2126.0
721.56 541.17 2174.4
751.67 559.38 2247.5
766.57 566.08 2274.4
774.40 567.50 2280.1
777.83 565.70 2272.9
465.59 605.90 2460.1
458.93 589.17 2392.1
449.90 569.87 2313.8
454.18 567.73 2305.1
469.46 579.20 2351.6
471.28 574.00 2330.5
460.91 554.26 2250.4
460.99 547.42 2222.6
467.52 548.33 2226.3
477.30 552.97 2245.2
484.52 554.57 2251.6
488.04 551.95 2241.0
497.57 556.11 2257.9
503.38 556.05 2257.7
499.12 545.02 2212.9
505.67 545.90 2216.4
517.70 552.61 2243.7
507.55 535.75 2175.2
497.73 519.60 2109.7
509.46 526.08 2135.9
523.38 534.63 2170.7
526.63 532.24 2161.0
531.93 531.93 2159.7
539.81 534.19 2168.9
545.59 534.34 2169.5
559.52 542.39 2202.2
566.83 543.93 2208.4
550.25 522.73 2122.4
557.59 519.33 2108.5
592.08 546.10 2217.2
594.17 542.75 2203.7
582.14 526.69 2138.5
581.38 521.05 2115.5
588.06 522.11 2119.8
589.77 518.78 2106.3
592.47 516.37 2096.5
605.79 523.18 2124.2
616.55 527.68 2142.5
607.86 515.59 2093.4
610.69 513.41 2084.5
621.48 517.90 2102.7
618.72 511.12 2075.2
623.40 510.55 2072.9
619.87 503.32 2043.5
628.73 506.18 2055.2
661.74 528.28 2144.9
669.16 529.75 2150.9
667.85 524.35 2128.9
686.11 534.26 2169.2
700.11 540.74 2195.5
702.92 538.53 2186.5
716.48 544.53 2210.9
735.00 554.16 2250.0
740.90 554.22 2250.2
739.44 548.80 2228.2
744.98 548.63 2227.5
751.75 549.36 2230.5
750.39 544.18 2209.4
763.75 549.67 2231.7
467.35 610.16 2503.7
467.31 601.74 2469.1
465.80 591.69 2427.9
463.34 580.72 2382.9
473.06 585.10 2400.9
473.92 578.55 2374.0
462.49 557.36 2287.1
454.73 541.07 2220.2
457.11 537.10 2203.9
465.39 540.08 2216.1
476.36 546.08 2240.7
477.63 540.93 2219.6
474.66 531.16 2179.5
488.23 539.92 2215.5
498.58 544.96 2236.2
500.48 540.75 2218.9
512.89 547.86 2248.0
525.66 555.19 2278.1
515.80 538.72 2210.6
507.84 524.58 2152.5
521.72 533.06 2187.3
519.80 525.38 2155.8
516.41 510.98 2096.7
528.36 517.36 2122.9
537.12 520.51 2135.8
554.80 532.16 2183.6
559.41 531.16 2179.5
539.32 506.96 2080.2
554.17 510.71 2095.6
589.65 538.13 2208.1
593.49 536.42 2201.1
588.09 526.48 2160.3
593.32 526.15 2159.0
594.89 522.62 2144.5
591.41 514.74 2112.2
593.59 511.90 2100.5
606.13 517.96 2125.4
618.78 524.01 2150.2
611.45 513.18 2105.8
609.94 507.38 2082.0
616.58 508.41 2086.2
622.13 508.52 2086.6
636.09 515.45 2115.1
641.98 515.78 2116.4
661.56 527.00 2162.5
686.23 542.06 2224.3
683.41 535.34 2196.7
675.21 524.55 2152.4
686.19 528.70 2169.5
717.37 548.23 2249.6
736.99 558.69 2292.5
721.68 542.70 2226.9
710.59 530.12 2175.3
736.73 545.30 2237.5
757.64 556.39 2283.1
758.36 552.60 2267.5
760.25 549.72 2255.7
770.54 552.90 2268.8
825.91 583.73 2395.2
468.69 605.40 2510.9
470.29 599.13 2484.9
478.72 601.63 2495.2
484.96 601.35 2494.1
491.01 600.85 2492.0
472.40 563.25 2336.1
460.85 542.52 2250.1
467.84 543.87 2255.7
480.46 551.64 2287.9
484.12 549.07 2277.2
478.52 536.17 2223.8
473.06 523.75 2172.2
483.89 529.44 2195.8
495.48 535.81 2222.2
498.83 533.24 2211.6
496.72 524.94 2177.2
495.53 517.80 2147.6
500.61 517.29 2145.5
507.46 518.61 2150.9
522.91 528.60 2192.3
522.83 522.83 2168.4
520.19 509.24 2112.1
534.54 517.84 2147.7
545.97 523.46 2171.0
557.75 529.29 2195.2
556.57 522.84 2168.5
553.55 514.80 2135.1
557.77 513.59 2130.1
563.45 513.73 2130.7
577.67 521.58 2163.3
590.78 528.29 2191.1
594.04 526.15 2182.2
588.48 516.31 2141.4
578.30 502.63 2084.7
582.81 501.86 2081.5
593.65 506.51 2100.7
596.84 504.60 2092.8
599.45 502.24 2083.0
617.77 512.97 2127.5
642.59 528.86 2193.4
644.81 526.03 2181.7
646.97 523.20 2169.9
657.48 527.12 2186.2
659.02 523.84 2172.6
656.79 517.64 2146.9
657.87 514.14 2132.4
671.62 520.51 2158.8
679.66 522.39 2166.6
679.51 517.99 2148.3
698.51 528.14 2190.4
715.91 536.93 2226.9
698.33 519.56 2154.8
711.83 521.26 2161.9
742.39 539.39 2237.1
752.89 542.78 2251.2
757.85 542.16 2248.6
771.58 547.76 2271.8
829.37 575.61 2387.3
475.08 598.73 2510.2
478.80 595.27 2495.7
478.36 586.79 2460.1
478.30 579.00 2427.5
483.42 577.59 2421.6
475.18 560.47 2349.8
470.69 548.14 2298.1
484.92 557.65 2338.0
489.33 555.79 2330.2
484.80 543.92 2280.4
489.03 542.06 2272.6
494.26 541.33 2269.6
496.74 537.65 2254.1
499.15 533.97 2238.7
497.18 525.76 2204.3
490.50 512.80 2149.9
493.84 510.48 2140.2
503.54 514.73 2158.0
507.96 513.55 2153.1
521.62 521.62 2186.9
532.25 526.53 2207.5
530.52 519.23 2176.9
532.37 515.55 2161.5
538.13 515.71 2162.1
553.40 524.88 2200.6
569.58 534.70 2241.8
566.81 526.74 2208.4
562.66 517.65 2170.3
571.40 520.49 2182.2
581.94 524.89 2200.6
592.32 529.06 2218.1
600.74 531.43 2228.0
592.83 519.43 2177.8
575.64 499.61 2094.6
580.18 498.84 2091.4
599.42 510.62 2140.8
607.23 512.52 2148.8
607.33 507.95 2129.6
609.21 504.93 2117.0
626.80 514.87 2158.6
648.15 527.70 2212.4
647.09 522.22 2189.4
642.58 514.07 2155.2
647.17 513.27 2151.9
655.70 515.59 2161.6
659.42 514.13 2155.5
654.49 505.99 2121.4
661.27 506.97 2125.5
673.32 511.94 2146.3
677.23 510.70 2141.1
694.14 519.20 2176.8
708.54 525.69 2204.0
709.23 521.99 2188.5
717.11 523.60 2195.2
719.53 521.23 2185.3
726.50 522.17 2189.2
745.56 531.72 2229.2
759.81 537.71 2254.4
779.20 547.22 2294.3
819.48 566.85 2376.6
472.26 596.89 2530.0
468.47 583.98 2475.3
473.02 581.68 2465.5
473.42 574.42 2434.8
468.78 561.30 2379.1
469.57 554.95 2352.2
469.85 548.15 2323.4
473.69 545.64 2312.8
480.83 546.95 2318.3
477.99 537.01 2276.2
482.84 535.84 2271.2
496.48 544.33 2307.2
501.38 543.16 2302.2
502.05 537.49 2278.2
504.30 533.62 2261.8
501.96 525.04 2225.5
497.71 514.68 2181.5
503.97 515.30 2184.1
517.99 523.75 2220.0
527.27 527.27 2234.9
527.79 522.06 2212.8
524.78 513.49 2176.5
525.51 508.73 2156.3
530.79 508.44 2155.1
539.37 511.28 2167.1
557.51 523.02 2216.9
576.58 529.98 2246.4
572.51 520.99 2208.3
582.09 524.45 2223.0
586.25 523.03 2216.9
589.62 520.93 2208.0
591.17 517.27 2192.5
576.00 499.20 2115.9
577.50 495.78 2101.4
601.61 511.65 2168.7
606.84 511.32 2167.3
599.87 500.81 2122.7
607.39 502.47 2129.8
617.90 506.57 2147.2
618.71 502.70 2130.8
622.72 501.48 2125.6
641.91 512.40 2171.9
659.93 522.20 2213.4
667.18 523.39 2218.5
678.99 528.10 2238.4
677.75 522.67 2215.4
667.21 510.22 2162.6
660.46 500.85 2122.9
658.49 495.23 2099.1
674.94 503.44 2133.9
705.18 521.72 2211.4
706.82 518.72 2198.6
694.86 505.86 2144.1
711.12 513.59 2176.9
722.04 517.37 2192.9
728.11 517.64 2194.1
745.95 526.21 2230.4
769.25 538.48 2282.4
831.11 572.96 2428.6
464.94 589.36 2525.8
462.87 578.59 2479.7
464.01 572.07 2451.7
472.73 574.94 2464.0
471.64 565.97 2425.6
464.71 550.31 2358.5
471.93 551.61 2364.1
478.22 551.80 2364.8
480.01 546.85 2343.6
485.06 545.69 2338.7
479.66 532.96 2284.1
482.30 529.35 2268.7
495.52 537.32 2302.8
500.41 536.15 2297.8
503.17 532.77 2283.3
506.70 530.27 2272.6
502.45 519.78 2227.6
495.60 506.86 2172.3
502.06 507.70 2175.8
516.51 516.51 2213.6
531.81 525.97 2254.1
538.49 526.78 2257.6
531.69 514.54 2205.2
528.79 506.29 2169.8
532.25 504.24 2161.0
539.66 505.93 2168.3
557.10 516.90 2215.3
571.80 519.82 2227.8
564.50 508.05 2177.4
575.24 512.59 2196.8
581.33 512.94 2198.3
583.14 509.54 2183.8
583.11 504.61 2162.6
581.94 498.81 2137.7
597.72 507.49 2175.0
609.23 512.44 2196.2
601.12 500.93 2146.8
597.54 493.38 2114.5
608.25 497.66 2132.8
615.80 499.30 2139.9
613.32 492.85 2112.2
614.27 489.25 2096.8
630.36 497.65 2132.8
654.98 512.59 2196.8
669.22 519.22 2225.2
671.98 516.91 2215.3
662.41 505.23 2165.3
661.52 500.31 2144.2
663.13 497.35 2131.5
670.82 498.96 2138.4
698.84 515.54 2209.5
722.75 528.84 2266.5
718.55 521.53 2235.1
708.47 510.10 2186.1
727.56 519.69 2227.2
748.68 530.56 2273.8
811.10 557.25 2388.2
826.16 563.29 2414.1
837.20 566.53 2428.0
460.58 585.60 2537.9
454.95 570.29 2471.6
465.99 576.01 2496.4
478.05 582.83 2525.9
477.95 574.83 2491.3
468.74 556.23 2410.6
452.52 529.92 2296.6
451.19 521.51 2260.1
474.23 541.11 2345.1
492.21 554.52 2403.2
494.33 536.53 2325.2
493.95 529.66 2295.5
497.36 526.97 2283.8
498.40 521.86 2261.7
507.61 525.32 2276.7
508.74 520.43 2255.5
500.42 506.11 2193.4
505.62 505.62 2191.3
524.55 518.72 2248.1
544.89 527.12 2284.5
532.67 509.76 2209.2
532.55 504.22 2185.2
539.30 505.24 2189.7
549.15 509.10 2206.4
569.78 522.78 2265.7
574.11 521.39 2259.6
555.61 499.48 2164.7
546.68 486.54 2108.6
555.52 489.52 2121.5
562.92 491.18 2128.7
566.58 489.57 2121.7
584.95 500.58 2169.4
602.25 510.48 2212.4
612.26 514.07 2227.9
617.65 513.74 2226.5
610.91 503.44 2181.8
608.21 496.61 2152.2
619.55 501.27 2172.4
627.47 503.11 2180.4
630.26 500.83 2170.5
636.28 501.14 2171.9
637.06 497.35 2155.5
644.17 498.53 2160.6
654.95 502.50 2177.8
654.76 498.06 2158.5
661.90 499.23 2163.6
678.56 507.50 2199.4
675.37 500.90 2170.8
677.89 498.61 2160.9
702.15 512.23 2219.9
723.13 523.24 2267.7
734.17 526.94 2283.7
740.46 527.20 2284.8
795.02 552.79 2395.7
807.45 557.08 2414.3
815.29 558.16 2419.0
822.20 558.59 2420.9
836.71 564.14 2444.9
847.50 567.13 2457.9
842.64 559.66 2425.5
462.98 573.83 2515.2
470.18 574.67 2518.8
478.86 577.26 2530.2
475.82 565.84 2480.2
471.97 553.78 2427.3
461.44 534.30 2341.9
452.58 517.24 2267.1
469.27 529.43 2320.6
479.75 534.41 2342.4
484.20 532.62 2334.5
