ply
format ascii 1.0
element vertex 2280
property float x
property float y
property float z
end_header
504.20 638.66 2160.9
505.56 633.34 2142.9
510.84 633.00 2141.7
511.61 627.14 2121.9
509.55 617.96 2090.8
511.69 614.03 2077.5
515.86 612.59 2072.7
525.63 617.75 2090.1
541.16 629.52 2129.9
550.20 633.56 2143.6
546.99 623.56 2109.8
541.42 611.10 2067.6
547.68 612.12 2071.1
552.48 611.48 2068.9
548.99 601.78 2036.1
555.96 603.61 2042.3
571.87 615.03 2080.9
579.74 617.66 2089.8
567.16 598.67 2025.6
561.85 587.62 1988.2
580.10 601.20 2034.1
590.86 606.82 2053.2
594.19 604.80 2046.3
593.70 598.95 2026.5
586.29 586.29 1983.7
592.97 587.81 1988.8
596.90 586.61 1984.8
594.38 579.14 1959.5
604.41 583.92 1975.7
605.72 580.27 1963.3
611.54 580.96 1965.7
626.58 590.34 1997.4
624.94 583.96 1975.8
629.63 583.56 1974.4
651.39 598.86 2026.2
658.26 600.34 2031.2
647.81 586.12 1983.1
647.37 581.11 1966.1
656.55 584.74 1978.4
662.12 585.13 1979.8
677.84 594.41 2011.2
694.63 604.49 2045.3
692.25 597.85 2022.8
690.07 591.49 2001.3
695.06 591.32 2000.7
688.27 581.21 1966.5
678.75 568.95 1925.0
674.84 561.55 1900.0
688.04 560.26 1895.6
691.09 558.76 1890.5
698.78 560.99 1898.1
711.86 567.50 1920.1
716.95 567.59 1920.4
734.59 577.54 1954.1
774.89 605.05 2047.2
802.23 622.14 2105.0
480.74 705.50 2408.2
481.42 697.44 2380.7
467.34 660.12 2253.2
473.35 660.35 2254.0
483.16 665.82 2272.7
472.83 643.74 2197.3
469.29 631.31 2154.9
477.95 635.39 2168.9
478.10 628.20 2144.3
479.18 622.38 2124.4
488.29 627.00 2140.2
495.96 629.70 2149.4
503.45 632.11 2157.6
510.76 634.24 2164.9
519.44 638.01 2177.8
523.67 636.29 2171.9
515.81 620.06 2116.5
511.80 608.78 2078.0
517.83 609.53 2080.6
529.03 616.29 2103.6
537.26 619.49 2114.6
539.56 615.86 2102.2
545.66 616.59 2104.7
550.30 615.69 2101.6
555.42 615.32 2100.3
559.79 614.14 2096.3
550.61 598.26 2042.1
551.27 593.27 2025.1
564.59 601.88 2054.5
570.34 602.32 2056.0
565.71 591.90 2020.4
567.98 588.82 2009.9
578.63 594.41 2029.0
582.19 592.68 2023.1
586.25 591.49 2019.0
586.23 586.23 2001.1
586.67 581.53 1985.0
601.06 590.60 2016.0
607.55 591.84 2020.2
607.63 586.85 2003.2
620.30 594.01 2027.6
624.56 593.07 2024.4
616.22 580.28 1980.7
617.76 576.92 1969.3
621.86 575.98 1966.1
632.67 581.23 1984.0
651.22 593.45 2025.7
654.82 591.96 2020.6
656.60 588.86 2010.0
669.78 595.95 2034.2
673.05 594.18 2028.2
672.32 588.93 2010.3
684.73 595.19 2031.6
698.48 602.51 2056.6
701.43 600.46 2049.6
704.33 598.42 2042.6
712.26 600.64 2050.2
708.76 593.26 2025.0
697.13 579.23 1977.2
691.72 570.54 1947.5
684.87 560.80 1914.2
687.02 558.51 1906.4
702.28 566.84 1934.9
711.72 570.38 1947.0
704.55 560.66 1913.8
702.59 555.19 1895.1
728.87 571.96 1952.3
771.01 600.86 2051.0
799.27 618.61 2111.6
810.97 623.40 2127.9
470.01 692.65 2385.4
475.98 692.33 2384.3
486.92 690.32 2377.4
469.12 648.66 2233.9
464.88 634.96 2186.7
467.69 631.09 2173.4
477.18 636.24 2191.1
478.48 630.46 2171.2
471.09 613.51 2112.9
480.77 618.92 2131.5
498.67 634.67 2185.7
496.50 624.81 2151.8
494.38 615.23 2118.8
500.93 616.53 2123.3
508.84 619.46 2133.4
517.03 622.66 2144.4
513.41 611.72 2106.7
518.13 610.84 2103.7
532.82 621.62 2140.8
530.32 612.32 2108.8
523.15 597.89 2059.1
529.38 598.90 2062.5
540.70 605.58 2085.6
552.62 612.80 2110.4
565.14 620.55 2137.1
565.37 614.78 2117.2
552.47 594.97 2049.0
551.12 587.86 2024.5
561.90 593.71 2044.6
570.45 597.11 2056.4
568.68 589.74 2031.0
562.58 578.07 1990.8
565.01 575.28 1981.2
570.05 575.18 1980.9
575.35 575.35 1981.4
582.82 577.66 1989.4
591.69 581.31 2002.0
598.69 583.07 2008.0
597.40 576.80 1986.4
600.75 575.07 1980.5
617.03 585.66 2016.9
618.71 582.32 2005.4
608.32 567.76 1955.3
620.18 574.05 1977.0
634.46 582.46 2005.9
634.24 577.52 1988.9
641.02 578.98 1993.9
649.89 582.30 2005.4
657.02 584.02 2011.3
670.20 591.05 2035.5
672.87 588.76 2027.6
670.30 581.96 2004.2
681.47 587.11 2021.9
694.27 593.58 2044.2
695.62 590.23 2032.7
696.29 586.35 2019.3
702.27 586.97 2021.4
712.07 590.76 2034.5
714.56 588.46 2026.6
709.59 580.10 1997.8
704.15 571.48 1968.1
696.61 561.29 1933.0
701.40 561.12 1932.4
721.77 573.32 1974.4
725.98 572.61 1972.0
730.19 571.90 1969.5
764.41 594.54 2047.5
790.17 610.33 2101.9
796.35 610.90 2103.9
479.69 691.50 2402.9
477.54 654.41 2274.0
470.39 636.75 2212.6
471.24 630.21 2189.9
475.45 628.27 2183.2
471.75 616.05 2140.7
472.03 609.25 2117.1
489.14 624.07 2168.6
504.57 636.44 2211.6
500.51 624.23 2169.1
498.21 614.46 2135.2
504.36 615.21 2137.8
506.27 610.83 2122.6
508.56 606.99 2109.2
513.52 606.39 2107.2
526.30 614.94 2136.8
537.35 621.31 2159.0
530.19 606.72 2108.3
530.61 601.00 2088.4
544.34 610.32 2120.8
547.58 607.81 2112.1
550.78 605.31 2103.4
562.80 612.46 2128.2
562.26 605.93 2105.6
549.57 586.56 2038.2
548.19 579.51 2013.8
561.75 588.25 2044.1
573.14 594.57 2066.1
575.02 590.99 2053.6
572.38 582.88 2025.5
575.15 580.38 2016.8
581.08 581.08 2019.2
586.74 581.50 2020.7
595.93 585.38 2034.2
595.62 579.95 2015.3
594.12 573.45 1992.7
599.72 573.87 1994.1
609.52 578.27 2009.4
626.73 589.55 2048.6
629.06 586.77 2039.0
615.86 569.68 1979.6
624.90 573.26 1992.0
640.39 582.65 2024.7
642.26 579.60 2014.1
638.17 571.27 1985.1
636.62 565.32 1964.4
652.04 574.42 1996.0
672.44 587.72 2042.3
679.98 589.67 2049.0
682.04 586.87 2039.3
678.82 579.60 2014.1
676.09 572.87 1990.7
690.75 580.85 2018.4
705.21 588.56 2045.2
700.49 580.25 2016.3
701.04 576.41 2003.0
705.06 575.45 1999.6
701.95 568.73 1976.3
700.68 563.59 1958.4
697.69 557.15 1936.0
692.95 549.41 1909.1
704.98 554.98 1928.5
728.43 569.41 1978.6
753.46 584.85 2032.3
760.16 585.95 2036.1
753.27 576.64 2003.8
768.12 583.98 2029.3
796.15 601.17 2089.0
484.53 692.18 2427.1
487.37 678.62 2379.6
472.97 650.33 2280.4
474.89 644.91 2261.4
480.32 644.33 2259.3
476.41 631.39 2214.0
476.38 623.82 2187.4
486.57 629.68 2208.0
499.80 639.28 2241.6
497.09 628.50 2203.8
493.97 617.46 2165.1
499.54 617.41 2164.9
506.63 619.22 2171.3
510.88 617.55 2165.4
510.85 610.80 2141.8
515.67 609.93 2138.7
523.21 612.27 2146.9
528.94 612.46 2147.6
531.88 609.45 2137.0
533.83 605.37 2122.7
543.77 610.35 2140.2
547.56 608.40 2133.4
539.71 593.68 2081.7
546.25 594.93 2086.1
561.19 605.21 2122.1
563.37 601.66 2109.7
553.19 585.10 2051.6
550.82 577.05 2023.4
563.65 584.92 2051.0
566.29 582.17 2041.4
560.05 570.42 2000.2
568.03 573.24 2010.1
582.13 582.13 2041.2
590.78 585.46 2052.9
599.49 588.78 2064.6
602.55 586.55 2056.7
596.55 575.62 2018.4
603.04 576.82 2022.6
616.49 584.60 2049.9
619.99 582.90 2043.9
630.51 587.77 2061.0
637.13 588.95 2065.1
628.86 576.46 2021.4
632.80 575.28 2017.2
642.83 579.60 2032.4
647.94 579.46 2031.9
647.43 574.34 2013.9
643.27 566.08 1984.9
656.35 573.00 2009.2
681.31 590.11 2069.2
692.56 595.17 2087.0
677.57 577.77 2025.9
656.73 555.69 1948.5
665.95 559.20 1960.8
693.05 577.54 2025.1
710.69 587.79 2061.1
709.79 582.66 2043.1
700.20 570.53 2000.6
694.57 561.79 1969.9
696.24 559.03 1960.2
700.79 558.60 1958.7
706.63 559.20 1960.8
711.16 558.77 1959.3
705.41 550.32 1929.7
710.52 550.40 1930.0
742.84 571.41 2003.7
756.22 577.67 2025.6
754.75 572.57 2007.7
776.45 585.00 2051.3
789.40 590.71 2071.3
803.48 597.18 2094.0
486.14 679.35 2404.0
481.51 664.36 2350.9
469.75 640.04 2264.9
474.41 638.40 2259.1
485.04 644.75 2281.5
486.05 638.30 2258.7
483.46 627.34 2219.9
491.04 629.68 2228.2
498.87 632.29 2237.5
491.68 616.02 2179.9
494.29 612.25 2166.5
505.28 618.83 2189.8
507.40 614.52 2174.6
507.23 607.56 2149.9
501.79 594.51 2103.8
501.31 587.56 2079.2
518.98 601.80 2129.6
535.74 614.69 2175.2
537.35 610.12 2159.0
537.23 603.69 2136.3
540.08 600.70 2125.7
536.65 590.85 2090.8
533.52 581.54 2057.9
543.67 586.73 2076.2
552.42 590.34 2089.0
548.55 580.50 2054.2
551.03 577.52 2043.6
561.81 583.22 2063.8
572.19 588.38 2082.1
572.33 583.02 2063.1
564.31 569.53 2015.4
571.27 571.27 2021.5
584.88 579.56 2050.9
593.29 582.60 2061.6
599.60 583.54 2064.9
600.22 578.97 2048.8
598.57 572.31 2025.2
608.66 576.90 2041.5
624.39 586.71 2076.2
630.19 587.10 2077.5
631.19 583.05 2063.2
628.71 575.88 2037.8
624.96 567.67 2008.8
633.49 570.66 2019.4
642.07 573.65 2030.0
645.12 571.69 2023.0
653.16 574.15 2031.7
657.07 572.96 2027.5
658.25 569.44 2015.1
670.86 575.77 2037.5
680.82 579.76 2051.6
663.89 560.96 1985.1
650.96 545.81 1931.4
668.54 556.26 1968.4
688.47 568.51 2011.8
698.84 572.73 2026.7
701.35 570.50 2018.8
694.56 560.79 1984.5
688.57 551.87 1952.9
690.20 549.13 1943.2
702.52 554.89 1963.6
716.24 561.65 1987.5
729.40 567.89 2009.6
731.72 565.65 2001.7
718.30 551.37 1951.1
730.85 557.08 1971.3
765.81 579.68 2051.3
788.54 592.77 2097.6
484.35 670.64 2395.2
491.88 672.45 2401.6
491.41 663.40 2369.3
479.87 639.82 2285.1
476.13 627.10 2239.6
483.32 628.90 2246.1
486.44 625.42 2233.6
488.04 620.09 2214.6
490.59 616.08 2200.3
485.85 603.12 2154.0
490.96 602.54 2151.9
504.96 612.75 2188.4
509.92 611.90 2185.4
503.12 597.11 2132.5
515.66 592.46 2115.9
536.78 610.23 2179.4
543.05 610.94 2181.9
534.75 595.39 2126.4
529.02 583.00 2082.1
532.43 580.83 2074.4
536.28 579.18 2068.5
543.28 580.93 2074.8
547.84 580.07 2071.7
546.40 572.93 2046.2
551.63 572.84 2045.9
560.14 576.15 2057.7
568.20 578.92 2067.6
579.14 584.55 2087.7
582.62 582.62 2080.8
583.45 578.10 2064.6
590.55 579.81 2070.7
597.14 581.00 2075.0
602.93 581.40 2076.4
607.38 580.50 2073.2
609.34 577.27 2061.7
607.66 570.67 2038.1
611.42 569.26 2033.1
625.25 577.16 2061.3
634.69 580.91 2074.7
638.50 579.48 2069.6
640.84 576.76 2059.8
638.51 569.91 2035.4
635.47 562.55 2009.1
634.65 557.26 1990.2
639.36 556.87 1988.8
647.94 559.82 1999.4
653.56 560.19 2000.7
665.53 565.96 2021.3
675.46 569.92 2035.4
675.03 565.14 2018.4
678.84 563.96 2014.1
675.16 556.62 1987.9
673.55 551.09 1968.2
682.56 554.26 1979.5
683.69 551.03 1968.0
696.26 557.01 1989.3
708.60 562.71 2009.7
698.71 550.80 1967.2
700.33 548.09 1957.5
716.01 556.33 1986.9
731.16 564.04 2014.4
745.44 570.98 2039.2
743.79 565.70 2020.4
736.67 556.37 1987.0
749.69 562.27 2008.1
777.44 579.06 2068.1
809.57 598.86 2138.8
479.81 666.75 2403.5
477.78 655.42 2362.7
483.68 655.11 2361.5
495.45 662.66 2388.8
495.45 654.48 2359.3
480.25 626.66 2259.0
477.13 615.10 2217.3
485.93 618.98 2231.3
493.54 621.28 2239.6
497.41 618.87 2230.9
493.80 607.32 2189.3
487.41 592.65 2136.4
490.95 590.25 2127.7
502.35 597.24 2152.9
501.89 590.14 2127.3
495.93 576.79 2079.2
505.12 581.16 2095.0
514.84 586.05 2112.6
524.65 590.92 2130.2
538.27 599.94 2162.7
537.21 592.59 2136.2
516.75 564.21 2033.9
524.99 561.73 2024.9
549.25 581.88 2097.6
552.38 579.46 2088.8
548.74 570.05 2054.9
552.98 568.93 2050.9
561.25 571.94 2061.8
570.09 575.47 2074.5
581.83 581.83 2097.4
587.42 581.98 2097.9
589.33 578.52 2085.4
595.15 578.92 2086.9
600.18 578.55 2085.6
600.08 573.29 2066.6
599.06 567.25 2044.8
602.32 565.34 2037.9
602.24 560.34 2019.9
600.11 553.55 1995.4
608.81 556.77 2007.1
621.51 563.57 2031.6
628.92 565.50 2038.5
642.67 573.05 2065.7
651.34 575.98 2076.3
650.44 570.47 2056.4
651.20 566.49 2042.1
653.37 563.79 2032.4
660.85 565.69 2039.2
654.26 555.60 2002.8
654.14 551.12 1986.7
681.65 569.82 2054.1
699.36 580.09 2091.1
694.08 571.28 2059.3
681.79 556.88 2007.5
674.90 547.08 1972.1
678.25 545.66 1967.0
685.69 547.53 1973.7
704.35 558.26 2012.4
718.68 565.43 2038.3
710.13 554.63 1999.3
705.97 547.38 1973.2
715.78 551.00 1986.2
730.94 558.65 2013.8
745.55 565.77 2039.5
745.90 562.06 2026.1
739.80 553.56 1995.5
755.55 561.42 2023.8
786.42 580.32 2091.9
796.69 583.88 2104.8
809.08 588.92 2123.0
481.06 662.24 2409.8
473.88 643.99 2343.4
475.08 637.44 2319.5
482.23 638.96 2325.1
489.81 640.99 2332.4
481.96 623.02 2267.1
481.91 615.45 2239.5
493.64 622.92 2266.7
497.18 620.01 2256.1
497.52 613.22 2231.4
499.01 607.98 2212.3
497.39 599.13 2180.1
499.08 594.41 2163.0
508.81 599.27 2180.6
518.85 604.37 2199.2
523.14 602.75 2193.3
519.03 591.58 2152.7
516.08 581.97 2117.7
526.37 587.31 2137.1
540.94 597.29 2173.4
542.02 592.31 2155.3
523.02 565.72 2058.5
543.50 576.11 2096.4
552.04 579.37 2108.2
539.14 560.28 2038.8
546.59 562.51 2046.9
561.12 571.92 2081.1
568.71 574.13 2089.1
577.62 577.62 2101.8
592.52 586.99 2135.9
593.11 576.79 2098.8
588.10 566.71 2062.2
597.34 570.43 2075.7
600.72 568.53 2068.8
594.54 557.71 2029.4
592.55 550.97 2004.9
600.12 553.15 2012.8
606.05 553.80 2015.2
606.93 549.87 2000.9
611.42 549.25 1998.6
620.18 552.43 2010.2
635.88 561.69 2043.9
643.63 563.84 2051.7
642.08 557.87 2030.0
650.71 560.78 2040.6
661.17 565.19 2056.6
673.18 570.86 2077.3
672.08 565.40 2057.4
662.10 552.62 2010.9
679.93 563.07 2048.9
706.23 580.31 2111.7
709.02 578.12 2103.7
703.99 569.64 2072.8
704.14 565.44 2057.5
692.54 551.95 2008.4
684.20 541.23 1969.4
699.97 549.61 1999.9
712.03 554.96 2019.4
714.45 552.78 2011.5
721.06 553.86 2015.4
727.70 554.93 2019.3
739.96 560.26 2038.7
752.31 565.57 2058.0
750.69 560.38 2039.1
753.03 558.19 2031.1
778.35 572.95 2084.9
797.45 582.96 2121.3
794.41 576.77 2098.7
790.59 570.08 2074.4
801.22 573.85 2088.1
825.17 587.04 2136.1
479.73 645.79 2372.3
474.99 631.32 2319.1
478.42 627.92 2306.7
483.57 626.85 2302.7
481.26 616.25 2263.8
486.89 615.94 2262.6
497.03 621.29 2282.3
499.16 616.61 2265.1
500.99 611.67 2247.0
504.00 608.27 2234.5
513.40 612.57 2250.3
523.52 617.63 2268.9
516.60 602.70 2214.0
510.52 589.06 2163.9
518.09 591.30 2172.1
517.31 584.06 2145.5
508.17 567.63 2085.2
512.59 566.55 2081.2
535.91 586.15 2153.2
547.08 592.20 2175.4
536.92 575.27 2113.2
539.92 572.64 2103.6
551.12 578.68 2125.8
543.08 564.58 2074.0
538.94 549.41 2018.2
554.93 560.26 2058.1
564.24 564.24 2072.7
565.67 560.33 2058.4
573.24 562.52 2066.4
589.19 572.82 2104.2
589.79 568.15 2087.1
581.56 555.13 2039.2
587.54 555.78 2041.6
600.27 562.76 2067.3
603.06 560.37 2058.5
597.58 550.40 2021.9
601.87 549.53 2018.7
610.88 552.95 2031.2
613.48 550.56 2022.5
622.55 553.97 2035.0
636.25 561.39 2062.3
642.88 562.52 2066.4
641.41 556.60 2044.6
650.64 559.98 2057.1
670.51 572.39 2102.7
672.82 569.73 2092.9
675.98 567.82 2085.9
681.80 568.17 2087.1
679.15 561.50 2062.7
674.85 553.59 2033.6
677.78 551.69 2026.6
704.50 569.02 2090.3
719.61 572.41 2102.7
702.73 554.79 2038.0
683.65 535.69 1967.9
688.55 535.54 1967.3
716.63 553.28 2032.5
735.29 563.55 2070.2
743.03 565.35 2076.8
751.77 567.89 2086.1
749.32 561.99 2064.5
747.43 556.60 2044.6
757.83 560.37 2058.5
772.67 567.34 2084.1
786.94 573.81 2107.9
793.82 574.83 2111.6
798.65 574.37 2109.9
805.54 575.39 2113.7
475.82 651.13 2414.9
482.81 652.11 2418.5
484.06 645.41 2393.7
484.99 638.47 2367.9
494.03 642.25 2382.0
493.41 633.51 2349.6
485.38 615.61 2283.2
483.33 605.62 2246.1
486.64 602.51 2234.6
497.18 608.32 2256.1
506.35 612.33 2271.0
505.80 604.64 2242.5
510.70 603.56 2238.5
524.50 612.90 2273.1
520.66 601.65 2231.4
503.73 575.69 2135.1
501.13 566.49 2101.0
512.19 572.78 2124.3
515.12 569.92 2113.7
507.12 555.17 2059.0
518.71 561.94 2084.1
539.63 578.57 2145.8
539.16 572.17 2122.1
543.86 571.33 2118.9
557.05 579.33 2148.6
549.54 565.86 2098.7
537.33 547.87 2031.9
549.51 554.85 2057.8
569.88 569.88 2113.6
570.94 565.50 2097.3
563.97 553.32 2052.2
563.24 547.45 2030.4
571.28 550.12 2040.3
584.63 557.81 2068.8
589.61 557.45 2067.5
588.17 551.07 2043.8
593.62 551.22 2044.4
601.52 553.61 2053.2
600.68 547.99 2032.4
597.81 540.62 2005.1
599.81 537.76 1994.5
605.14 537.90 1995.0
616.98 543.78 2016.8
633.77 553.89 2054.2
642.69 557.00 2065.8
644.70 554.12 2055.1
656.58 559.71 2075.8
668.27 565.04 2095.6
662.26 555.44 2060.0
661.15 550.08 2040.1
662.35 546.70 2027.6
666.22 545.57 2023.4
669.45 543.93 2017.3
669.89 540.07 2003.0
694.08 555.27 2059.4
722.85 569.52 2112.2
712.31 556.99 2065.8
698.68 542.26 2011.1
695.68 535.93 1987.6
714.48 546.36 2026.4
730.86 554.81 2057.7
736.28 554.88 2057.9
744.33 556.91 2065.4
742.15 551.31 2044.7
735.55 542.53 2012.1
740.85 542.60 2012.4
754.92 549.03 2036.2
768.41 554.96 2058.2
773.47 554.76 2057.5
776.46 553.09 2051.3
806.70 570.72 2116.7
458.17 620.94 2325.3
472.47 623.91 2336.4
492.67 642.34 2405.4
492.18 633.68 2373.0
482.78 613.91 2299.0
483.67 607.54 2275.1
489.33 607.24 2274.0
493.53 605.17 2266.2
504.78 611.67 2290.6
512.56 613.88 2298.9
510.80 604.74 2264.6
504.13 590.06 2209.7
506.54 586.23 2195.3
517.24 591.95 2216.7
514.70 582.58 2181.6
514.01 575.47 2155.0
527.94 584.70 2189.6
531.94 582.87 2182.7
524.80 568.99 2130.8
526.75 565.16 2116.4
537.36 570.60 2136.8
547.36 575.28 2154.3
562.25 584.96 2190.6
554.78 565.76 2118.7
548.55 553.93 2074.3
566.58 566.58 2121.7
584.26 573.13 2146.2
573.55 557.31 2087.0
567.98 546.75 2047.5
568.49 542.17 2030.3
574.44 542.82 2032.8
583.86 546.70 2047.3
586.38 544.12 2037.6
593.44 545.75 2043.7
602.43 549.12 2056.3
609.83 550.99 2063.3
614.50 550.37 2061.0
608.26 540.10 2022.6
605.50 533.05 1996.2
615.65 537.39 2012.4
631.01 546.17 2045.3
638.18 547.77 2051.3
638.70 543.69 2036.0
633.01 534.42 2001.3
636.25 528.50 1979.1
652.28 537.48 2012.7
654.92 535.37 2004.9
661.16 536.21 2008.0
679.62 546.88 2048.0
696.11 555.81 2081.4
691.39 547.80 2051.4
688.09 541.02 2026.0
701.30 547.23 2049.3
701.98 543.64 2035.8
704.81 541.76 2028.8
716.90 546.97 2048.3
721.02 546.07 2044.9
722.19 542.96 2033.3
717.10 535.23 2004.3
714.18 529.21 1981.8
737.95 542.92 2033.1
759.62 554.90 2078.0
761.05 552.03 2067.2
770.86 555.24 2079.2
771.56 551.88 2066.7
761.62 541.01 2026.0
777.59 548.57 2054.3
823.40 576.94 2160.5
467.81 627.85 2374.2
466.43 609.95 2306.5
490.64 633.49 2395.5
493.08 628.67 2377.3
486.06 612.08 2314.6
489.01 608.27 2300.2
502.67 617.73 2336.0
514.24 624.43 2361.3
511.13 613.36 2319.4
505.71 599.80 2268.1
508.56 596.24 2254.7
506.81 587.44 2221.4
503.59 577.15 2182.5
508.32 576.09 2178.5
515.91 578.27 2186.7
525.11 582.19 2201.6
540.06 592.33 2239.9
545.57 592.00 2238.6
527.43 566.30 2141.5
518.65 551.06 2083.8
530.36 557.70 2109.0
541.25 563.34 2130.3
549.10 565.74 2139.4
548.97 559.95 2117.5
546.03 551.44 2085.3
551.11 551.11 2084.0
564.68 559.19 2114.6
578.64 567.51 2146.1
578.75 562.22 2126.0
569.53 548.03 2072.4
568.84 542.26 2050.6
573.53 541.67 2048.3
573.21 536.39 2028.4
575.44 533.59 2017.8
580.56 533.49 2017.4
590.28 537.57 2032.8
603.33 544.60 2059.4
614.86 550.14 2080.4
622.62 552.23 2088.3
618.95 544.25 2058.1
623.59 543.64 2055.8
642.10 555.04 2098.9
641.39 549.76 2078.9
633.66 538.61 2036.8
634.72 535.05 2023.3
630.46 527.10 1993.2
632.82 524.78 1984.5
653.84 537.83 2033.8
657.44 536.47 2028.7
646.57 523.41 1979.3
658.51 528.88 2000.0
683.37 544.56 2059.3
701.90 546.52 2066.7
692.91 535.43 2024.8
694.79 532.85 2015.0
699.17 532.21 2012.5
713.15 538.83 2037.6
718.53 538.90 2037.8
714.49 531.96 2011.6
704.11 520.43 1968.0
712.61 522.92 1977.4
748.97 545.67 2063.5
785.71 568.39 2149.4
790.87 564.12 2133.2
769.29 544.91 2060.6
795.18 559.37 2115.3
470.35 625.06 2387.1
469.87 616.32 2353.7
468.83 607.08 2318.4
478.12 611.26 2334.4
490.82 619.66 2366.5
492.14 613.65 2343.5
494.34 608.88 2325.3
507.46 617.51 2358.2
513.73 617.69 2358.9
504.36 599.29 2288.7
505.18 593.29 2265.7
514.20 596.94 2279.7
509.71 585.00 2234.1
503.90 571.84 2183.8
507.30 569.31 2174.2
514.00 570.48 2178.6
522.51 573.62 2190.6
536.53 582.68 2225.2
547.27 588.03 2245.6
534.47 568.23 2170.0
521.53 548.70 2095.5
528.79 550.60 2102.7
535.37 551.76 2107.1
539.31 550.20 2101.2
548.57 554.06 2115.9
554.71 554.71 2118.4
559.62 554.13 2116.2
573.77 562.63 2148.6
579.24 562.53 2148.3
570.44 548.71 2095.5
564.21 537.60 2053.1
567.11 535.31 2044.3
578.06 540.59 2064.5
584.09 541.23 2066.9
586.15 538.19 2055.3
590.83 537.60 2053.1
608.47 548.71 2095.5
630.68 563.71 2152.8
620.73 549.94 2100.2
606.63 532.78 2034.7
613.73 534.37 2040.7
629.59 543.49 2075.6
643.90 551.13 2104.8
638.04 541.53 2068.1
631.15 531.22 2028.7
634.22 529.39 2021.7
635.51 526.12 2009.2
644.10 528.89 2019.8
661.05 538.43 2056.3
659.62 532.97 2035.4
652.67 523.17 1998.0
669.82 532.69 2034.3
685.60 540.98 2066.0
708.92 555.05 2119.7
717.92 553.51 2113.8
707.14 541.07 2066.3
707.22 537.06 2051.0
712.95 537.38 2052.2
728.95 545.36 2082.7
717.33 532.72 2034.4
702.88 514.43 1964.6
731.12 531.25 2028.8
742.77 535.85 2046.4
751.15 538.06 2054.8
781.71 556.01 2123.4
786.25 555.33 2120.8
779.57 546.78 2088.1
468.91 625.21 2411.5
462.58 608.65 2347.7
472.62 613.79 2367.5
480.65 616.21 2376.8
481.52 609.52 2351.0
486.40 607.99 2345.1
490.44 605.49 2335.4
495.04 603.71 2328.6
500.83 603.41 2327.4
500.22 595.50 2296.9
504.66 593.72 2290.1
518.14 602.49 2323.9
518.56 596.05 2299.0
506.56 575.64 2220.3
504.85 567.25 2188.0
512.68 569.64 2197.2
514.31 565.17 2179.9
518.10 563.15 2172.2
524.58 564.06 2175.7
527.40 561.06 2164.1
529.46 557.33 2149.7
530.75 552.86 2132.5
535.49 552.06 2129.4
539.03 550.03 2121.5
549.76 555.31 2141.9
565.69 565.69 2182.0
561.18 555.63 2143.1
555.49 544.60 2100.6
567.35 550.83 2124.6
571.50 549.52 2119.6
571.03 543.84 2097.7
573.29 540.84 2086.1
571.59 534.20 2060.5
578.40 535.55 2065.7
588.92 540.30 2084.0
595.81 541.64 2089.2
601.37 541.78 2089.7
620.47 553.99 2136.8
629.34 552.05 2129.3
612.81 532.88 2055.4
618.28 533.00 2055.9
623.75 533.12 2056.3
626.67 531.08 2048.4
634.12 532.88 2055.4
639.59 532.99 2055.8
644.18 532.38 2053.5
647.58 530.81 2047.4
648.30 527.07 2033.0
656.97 529.82 2043.6
668.08 534.47 2061.5
673.55 534.56 2061.9
678.40 534.17 2060.4
682.02 532.83 2055.2
694.85 538.65 2077.6
707.79 544.45 2100.0
707.08 539.76 2081.9
710.06 537.92 2074.9
703.82 529.19 2041.2
702.84 524.51 2023.1
736.11 545.26 2103.2
741.96 545.56 2104.3
716.28 522.83 2016.6
722.91 523.85 2020.6
747.02 537.42 2072.9
753.79 538.42 2076.8
755.24 535.63 2066.0
777.45 547.50 2111.8
784.33 548.48 2115.6
780.35 541.91 2090.2
795.39 548.55 2115.8
807.11 552.82 2132.3
475.60 619.54 2413.8
492.90 617.69 2406.6
493.78 611.05 2380.7
494.13 603.93 2353.0
491.11 592.92 2310.1
489.71 584.11 2275.7
495.56 584.06 2275.5
506.63 590.08 2299.0
515.07 592.93 2310.1
509.48 579.75 2258.8
505.79 569.01 2216.9
512.57 570.16 2221.4
516.73 568.40 2214.6
515.73 561.07 2186.0
515.03 554.22 2159.3
516.25 549.55 2141.1
518.52 546.10 2127.7
519.80 541.68 2110.4
516.06 532.19 2073.5
529.79 535.20 2085.2
551.29 551.29 2147.9
562.86 557.23 2171.0
554.14 543.17 2116.2
543.90 527.91 2056.8
550.16 528.79 2060.2
561.98 534.96 2084.3
570.09 537.52 2094.2
574.39 536.46 2090.1
574.52 531.56 2071.0
586.59 537.71 2095.0
602.73 547.44 2132.9
598.29 538.46 2097.9
592.59 528.53 2059.2
599.71 530.10 2065.3
608.22 532.86 2076.1
623.37 541.35 2109.2
634.53 546.25 2128.2
628.71 536.57 2090.5
622.71 526.90 2052.9
625.89 525.12 2045.9
633.06 526.66 2051.9
642.55 530.10 2065.3
651.23 532.83 2076.0
656.45 532.69 2075.4
659.30 530.65 2067.5
659.43 526.48 2051.2
661.58 523.97 2041.4
676.65 531.65 2071.4
691.24 538.84 2099.4
689.75 533.48 2078.5
698.02 535.69 2087.1
721.22 549.24 2139.9
731.23 552.61 2153.0
716.13 537.09 2092.6
692.81 515.70 2009.2
689.52 509.42 1984.8
720.15 528.11 2057.6
746.58 543.47 2117.4
742.38 536.46 2090.1
732.16 525.24 2046.4
739.20 526.48 2051.2
753.55 532.87 2076.1
763.01 535.73 2087.3
783.93 546.54 2129.4
787.47 545.17 2124.0
777.72 534.68 2083.2
786.60 537.06 2092.4
806.53 546.89 2130.7
487.14 628.16 2472.4
491.80 617.91 2432.0
492.22 610.61 2403.3
494.67 605.97 2385.0
491.03 594.09 2338.2
483.73 578.12 2275.4
477.75 564.09 2220.2
479.75 559.71 2202.9
497.54 573.63 2257.7
511.79 583.20 2295.4
510.64 575.20 2263.9
509.76 567.68 2234.3
512.00 563.78 2218.9
512.18 557.71 2195.1
518.71 558.61 2198.6
526.37 560.70 2206.8
530.66 559.19 2200.9
535.61 558.40 2197.8
525.21 541.80 2132.4
518.84 524.19 2063.1
541.82 541.82 2132.5
552.58 547.00 2152.9
553.69 542.61 2135.6
558.64 542.05 2133.4
561.85 539.82 2124.6
560.00 532.81 2097.1
563.07 530.58 2088.3
569.15 531.21 2090.8
571.12 528.02 2078.2
577.97 529.35 2083.5
596.62 541.38 2130.8
604.14 543.17 2137.8
591.17 526.68 2072.9
594.55 524.92 2066.0
611.43 535.00 2105.7
614.03 532.52 2095.9
623.46 535.95 2109.4
634.61 540.80 2128.5
628.51 530.98 2089.9
622.78 521.64 2053.1
627.11 520.82 2049.9
631.41 519.99 2046.6
638.01 521.04 2050.7
653.06 528.92 2081.8
664.44 533.73 2100.7
665.28 530.06 2086.3
664.26 524.98 2066.3
660.75 518.03 2038.9
669.78 520.94 2050.4
693.15 534.88 2105.2
701.16 536.83 2112.9
696.26 528.94 2081.8
706.72 532.76 2096.9
726.01 543.12 2137.7
721.88 535.94 2109.4
713.17 525.49 2068.3
723.73 529.30 2083.2
733.08 532.16 2094.5
738.26 531.98 2093.8
737.58 527.62 2076.6
731.58 519.53 2044.8
729.71 514.47 2024.9
733.72 513.61 2021.5
751.07 522.02 2054.6
780.33 538.54 2119.6
797.03 546.22 2149.8
801.62 545.55 2147.2
805.86 544.65 2143.7
820.06 550.45 2166.5
487.92 614.65 2444.1
488.82 607.89 2417.3
490.96 602.82 2397.1
496.34 601.81 2393.1
495.11 592.91 2357.7
490.48 580.20 2307.1
487.02 569.17 2263.3
484.16 559.10 2223.2
497.20 567.40 2256.2
506.38 571.15 2271.2
500.89 558.47 2220.7
509.62 561.74 2233.7
520.38 567.16 2255.3
519.99 560.43 2228.5
526.15 560.84 2230.1
535.24 564.33 2244.0
540.08 563.31 2240.0
539.14 556.35 2212.3
523.19 534.21 2124.2
522.77 528.21 2100.4
546.39 546.39 2172.7
552.66 547.02 2175.2
546.62 535.58 2129.7
551.81 535.26 2128.4
561.18 538.96 2143.1
572.11 544.07 2163.4
577.37 543.74 2162.1
571.99 533.49 2121.4
570.50 527.03 2095.7
572.74 524.11 2084.1
579.60 525.43 2089.3
591.46 531.22 2112.4
592.59 527.35 2097.0
591.51 521.60 2074.1
606.45 529.96 2107.3
620.46 537.36 2136.8
620.94 533.02 2119.5
625.74 532.43 2117.2
631.09 532.31 2116.7
628.31 525.39 2089.2
625.67 518.72 2062.7
632.30 519.77 2066.8
639.51 521.28 2072.8
641.55 518.58 2062.1
652.85 523.36 2081.1
661.88 526.25 2092.6
659.45 520.06 2068.0
669.10 523.41 2081.3
676.11 524.66 2086.3
666.84 513.36 2041.3
671.03 512.52 2038.0
683.17 517.72 2058.7
682.45 513.16 2040.6
696.24 519.51 2065.8
719.53 532.79 2118.6
715.66 525.90 2091.2
707.54 516.03 2051.9
722.54 523.03 2079.8
735.73 528.64 2102.1
742.55 529.61 2106.0
744.50 527.13 2096.1
746.73 524.88 2087.1
753.54 525.85 2091.0
758.36 525.44 2089.4
777.55 534.91 2127.0
797.57 544.82 2166.4
803.56 545.07 2167.4
801.38 539.82 2146.6
798.07 533.88 2123.0
820.16 544.90 2166.8
471.11 611.17 2455.6
484.40 603.93 2426.5
475.82 585.63 2353.0
481.69 585.35 2351.8
490.12 588.14 2363.1
488.81 579.34 2327.7
484.30 566.99 2278.1
489.55 566.23 2275.0
493.55 564.05 2266.3
494.36 558.33 2243.3
492.09 549.31 2207.0
488.14 538.64 2164.2
498.03 543.31 2182.9
512.60 552.92 2221.5
515.65 550.03 2209.9
515.52 543.84 2185.1
517.74 540.25 2170.6
524.21 541.12 2174.2
524.26 535.42 2151.2
524.89 530.41 2131.1
541.38 541.38 2175.2
547.89 542.24 2178.6
537.18 526.21 2114.3
537.51 521.22 2094.2
548.96 527.00 2117.4
554.12 526.68 2116.1
560.01 527.07 2117.7
568.67 530.02 2129.6
567.00 523.39 2102.9
564.18 515.82 2072.5
565.59 512.24 2058.1
575.25 516.11 2073.7
589.70 524.18 2106.1
603.24 531.29 2134.7
615.05 536.77 2156.7
614.59 531.54 2135.6
613.21 525.61 2111.8
613.36 521.08 2093.6
617.55 520.04 2089.4
631.44 527.12 2117.9
637.34 527.46 2119.2
637.60 523.16 2102.0
646.88 526.28 2114.5
648.18 522.91 2101.0
643.93 515.14 2069.8
655.83 520.33 2090.6
664.89 523.20 2102.1
662.48 517.06 2077.5
671.56 519.92 2089.0
685.19 526.23 2114.3
682.32 519.86 2088.7
680.84 514.65 2067.8
686.92 515.19 2070.0
685.92 510.45 2050.9
700.36 517.19 2078.0
720.56 528.04 2121.6
711.96 517.79 2080.4
708.88 511.67 2055.8
729.00 522.27 2098.4
739.03 525.53 2111.5
741.34 523.30 2102.5
737.09 516.50 2075.2
732.05 509.25 2046.1
755.60 521.85 2096.7
778.04 533.52 2143.6
782.65 532.87 2141.0
786.56 531.76 2136.5
807.04 541.79 2176.8
820.89 547.26 2198.8
816.33 540.46 2171.5
490.01 604.56 2454.6
486.12 592.07 2403.9
495.43 595.77 2418.9
497.71 591.03 2399.7
491.30 576.21 2339.5
483.77 560.47 2275.6
485.95 556.21 2258.3
486.18 549.84 2232.4
483.34 540.21 2193.3
493.01 544.60 2211.2
500.62 546.65 2219.5
498.54 538.19 2185.1
501.53 535.34 2173.6
506.23 534.35 2169.5
508.22 530.56 2154.2
512.62 529.34 2149.2
521.55 532.77 2163.1
525.94 531.54 2158.1
530.77 530.77 2155.0
539.11 533.49 2166.1
536.82 525.75 2134.6
534.85 518.48 2105.1
544.10 522.12 2119.9
553.91 526.21 2136.5
557.63 524.51 2129.6
559.83 521.41 2117.0
563.97 520.17 2112.0
570.11 520.77 2114.4
575.75 520.91 2115.0
574.68 515.04 2091.2
582.34 517.03 2099.2
599.47 527.32 2141.0
616.02 536.89 2179.9
624.35 534.36 2169.6
620.88 526.64 2138.2
618.90 520.31 2112.6
620.10 516.75 2098.1
631.79 521.92 2119.1
645.55 528.68 2146.5
655.76 532.45 2161.8
648.09 521.77 2118.5
631.61 504.23 2047.2
635.03 502.73 2041.2
654.16 513.59 2085.3
668.20 520.32 2112.6
671.13 518.35 2104.6
676.40 518.21 2104.0
685.57 521.03 2115.5
693.88 523.16 2124.1
704.05 526.65 2138.3
708.77 526.04 2135.8
706.68 520.42 2113.0
709.14 518.22 2104.0
717.19 520.10 2111.7
718.02 516.76 2098.1
722.28 515.92 2094.7
727.48 515.75 2094.0
722.05 508.11 2063.0
733.64 512.47 2080.7
738.14 511.85 2078.2
722.28 497.22 2018.8
734.21 501.80 2037.4
758.19 514.48 2088.9
765.00 515.43 2092.7
776.55 519.52 2109.3
805.44 535.08 2172.5
826.10 545.00 2212.8
830.13 543.88 2208.2
837.25 544.79 2211.9
494.48 603.65 2477.0
490.06 590.59 2423.4
499.82 594.72 2440.3
502.34 590.25 2422.0
502.37 583.00 2392.3
501.65 575.06 2359.7
497.89 563.88 2313.8
492.46 551.08 2261.3
485.29 536.68 2202.2
492.02 537.79 2206.7
509.90 550.92 2260.6
518.08 553.40 2270.8
514.94 543.87 2231.7
513.59 536.41 2201.1
513.43 530.35 2176.2
515.85 527.06 2162.7
527.32 532.99 2187.1
534.31 534.31 2192.4
531.77 526.17 2159.1
532.36 521.27 2138.9
533.56 517.06 2121.7
535.15 513.31 2106.3
545.86 518.29 2126.7
557.88 524.41 2151.8
555.73 517.21 2122.3
551.68 508.42 2086.2
555.75 507.19 2081.2
561.31 507.34 2081.8
575.05 514.80 2112.4
582.74 516.77 2120.5
583.96 513.01 2105.1
594.82 517.71 2124.4
606.30 522.86 2145.5
610.93 522.07 2142.2
619.59 524.69 2153.0
626.39 525.72 2157.2
621.71 517.17 2122.1
619.62 510.91 2096.4
631.59 516.25 2118.4
645.90 523.41 2147.7
659.79 530.09 2175.1
656.43 522.92 2145.7
636.27 502.60 2062.3
635.38 497.72 2042.3
644.89 500.99 2055.7
649.18 500.19 2052.4
669.72 511.82 2100.2
693.76 525.92 2158.0
689.54 518.54 2127.7
683.36 509.81 2091.9
698.65 517.11 2121.9
708.54 520.33 2135.1
719.11 524.00 2150.2
735.04 531.49 2180.9
733.87 526.60 2160.8
725.35 516.54 2119.5
720.45 509.19 2089.4
716.68 502.74 2062.9
709.88 494.29 2028.2
719.78 497.49 2041.4
747.02 512.55 2103.2
754.51 513.94 2108.9
757.40 512.20 2101.7
772.23 518.49 2127.6
764.07 509.38 2090.2
759.45 502.73 2062.9
792.99 521.27 2138.9
820.06 535.32 2196.6
814.79 528.21 2167.4
810.42 521.78 2141.0
830.93 531.35 2180.3
484.03 600.20 2489.3
488.86 590.44 2448.8
472.79 563.71 2338.0
472.18 555.85 2305.4
483.46 562.02 2330.9
491.06 563.81 2338.4
494.85 561.23 2327.7
495.72 555.45 2303.7
495.02 548.05 2273.0
492.69 539.06 2235.7
494.63 534.89 2218.4
508.26 543.31 2253.4
517.29 546.68 2267.3
515.01 538.16 2232.0
506.14 523.01 2169.2
510.27 515.81 2139.3
530.59 530.59 2200.6
537.83 532.11 2206.9
535.56 524.29 2174.5
538.77 521.94 2164.7
541.93 519.59 2155.0
534.01 506.77 2101.8
536.00 503.51 2088.3
551.84 513.21 2128.5
554.07 510.18 2116.0
546.76 498.52 2067.6
558.32 499.27 2070.7
578.18 512.10 2123.9
590.03 517.67 2147.0
594.96 517.12 2144.7
595.41 512.72 2126.5
596.83 509.22 2112.0
596.84 504.60 2092.8
601.34 503.82 2089.6
606.90 503.94 2090.1
601.23 494.82 2052.2
608.91 496.74 2060.2
630.82 510.14 2115.8
636.44 510.25 2116.2
640.92 509.45 2112.9
652.80 514.49 2133.8
646.67 505.38 2096.0
641.81 497.40 2063.0
647.58 497.72 2064.3
648.65 494.46 2050.8
665.64 503.29 2087.4
681.31 510.98 2119.3
668.88 497.65 2064.0
671.93 495.95 2056.9
695.36 509.20 2111.9
708.00 514.41 2133.5
721.97 520.49 2158.7
730.76 522.78 2168.2
721.73 512.37 2125.0
722.27 508.87 2110.5
727.83 508.93 2110.8
730.82 507.21 2103.6
731.20 503.72 2089.1
737.99 504.66 2093.1
762.75 517.78 2147.5
778.23 524.46 2175.2
789.21 528.03 2190.0
784.28 520.99 2160.8
755.43 498.27 2066.5
772.05 502.10 2082.4
798.99 516.02 2140.2
794.28 509.43 2112.9
804.29 512.32 2124.8
844.22 534.10 2215.2
468.90 582.95 2444.1
472.41 579.50 2429.6
489.79 592.90 2485.8
497.33 594.22 2491.3
489.85 577.77 2422.3
480.45 559.52 2345.8
483.73 556.29 2332.3
488.33 554.65 2325.4
489.66 549.38 2303.3
489.85 542.97 2276.4
488.04 534.52 2241.0
494.02 534.70 2241.8
504.02 539.19 2260.6
508.33 537.54 2253.7
509.13 532.27 2231.6
507.20 524.29 2198.1
498.89 509.98 2138.1
520.49 520.49 2182.2
535.22 529.47 2219.8
536.75 525.33 2202.5
535.16 518.26 2172.8
538.84 516.39 2165.0
551.03 522.62 2191.1
551.34 517.59 2170.0
546.71 508.05 2130.0
556.06 511.57 2144.8
567.21 516.66 2166.1
568.99 513.20 2151.6
577.48 515.81 2162.6
593.60 520.11 2180.6
580.03 503.42 2110.6
595.29 511.84 2145.9
606.51 516.66 2166.1
608.03 513.20 2151.6
607.86 508.39 2131.5
607.60 503.59 2111.3
609.13 500.36 2097.8
611.15 497.57 2086.1
626.92 505.94 2121.2
632.00 505.60 2119.7
620.50 492.12 2063.2
630.80 496.01 2079.5
648.58 505.68 2120.1
649.60 502.22 2105.6
651.71 499.65 2094.8
659.31 501.29 2101.7
662.23 499.39 2093.7
656.22 490.83 2057.8
658.72 484.82 2032.6
685.31 500.39 2097.9
702.45 508.86 2133.4
708.69 509.37 2135.5
723.28 515.83 2162.6
733.33 518.97 2175.8
717.72 504.05 2113.2
711.28 495.74 2078.4
729.16 504.38 2114.7
745.29 511.69 2145.3
743.19 506.47 2123.4
746.82 505.20 2118.1
768.05 515.77 2162.4
779.63 519.75 2179.1
793.59 525.26 2202.2
792.35 520.69 2183.0
783.64 511.31 2143.7
795.64 515.49 2161.2
793.14 510.27 2139.3
786.78 502.66 2107.4
821.48 521.21 2185.2
478.52 588.45 2494.2
481.79 584.57 2477.8
486.67 582.72 2469.9
484.07 572.08 2424.8
493.21 575.42 2439.0
497.93 573.56 2431.1
489.74 557.08 2361.2
485.00 544.88 2309.5
486.69 540.11 2289.3
486.64 533.55 2261.5
484.17 524.51 2223.2
488.84 523.35 2218.3
505.57 534.97 2267.5
516.54 540.29 2290.1
521.55 539.33 2286.0
525.01 536.80 2275.3
514.67 520.39 2205.7
513.62 513.62 2177.0
526.66 520.94 2208.1
534.37 522.88 2216.3
538.89 521.69 2211.3
539.89 517.15 2192.0
538.66 510.61 2164.3
545.86 512.10 2170.6
551.65 512.24 2171.2
551.37 506.82 2148.2
557.34 507.18 2149.7
564.31 508.43 2155.1
569.30 507.90 2152.8
581.57 513.82 2177.9
596.50 521.94 2212.3
585.73 507.63 2151.7
571.56 490.68 2079.8
585.18 497.68 2109.5
597.11 503.12 2132.5
599.07 500.14 2119.9
607.12 502.25 2128.9
615.21 504.36 2137.8
615.72 500.27 2120.5
615.87 495.96 2102.2
634.72 506.67 2147.6
643.21 508.97 2157.3
632.63 496.29 2103.6
644.16 501.01 2123.6
656.35 506.17 2145.5
651.10 497.90 2110.4
647.13 490.74 2080.1
648.56 487.76 2067.4
648.46 483.69 2050.2
673.81 490.53 2079.2
695.37 502.21 2128.7
708.31 507.53 2151.2
713.98 507.59 2151.5
729.24 514.42 2180.4
742.76 519.93 2203.8
730.65 507.55 2151.3
726.19 500.63 2122.0
746.41 510.70 2164.7
754.97 512.70 2173.2
745.51 502.53 2130.0
747.86 500.40 2121.0
765.84 508.70 2156.2
761.29 502.01 2127.8
759.25 497.07 2106.9
790.43 513.78 2177.7
813.54 525.05 2225.5
829.79 531.76 2253.9
831.23 528.96 2242.1
821.34 519.04 2200.0
478.27 566.38 2427.3
471.74 551.39 2363.1
476.87 550.23 2358.1
482.56 549.75 2356.1
475.75 535.22 2293.8
480.46 533.85 2287.9
491.02 538.92 2309.7
489.58 530.87 2275.1
485.68 520.37 2230.2
489.11 517.88 2219.5
504.15 527.60 2261.2
520.05 537.98 2305.6
529.87 541.91 2322.5
535.60 541.62 2321.2
527.58 527.58 2261.1
520.84 515.12 2207.6
528.53 517.04 2215.9
541.75 524.28 2246.9
552.12 528.62 2265.5
551.38 522.36 2238.7
547.91 513.66 2201.4
541.88 502.77 2154.7
533.93 490.34 2101.5
546.58 496.89 2129.5
565.23 508.71 2180.2
562.88 501.58 2149.6
558.88 493.13 2113.4
560.24 489.53 2098.0
564.32 488.35 2092.9
582.71 499.47 2140.6
598.49 508.15 2177.8
596.71 501.91 2151.0
592.70 493.92 2116.8
591.96 488.78 2094.8
597.01 488.46 2093.4
603.93 489.67 2098.6
604.07 485.42 2080.4
605.22 482.03 2065.9
623.45 492.19 2109.4
649.68 508.45 2179.1
657.70 510.28 2186.9
653.85 502.96 2155.5
649.56 495.43 2123.3
647.71 489.86 2099.4
648.05 486.04 2083.0
640.72 476.57 2042.4
676.42 490.95 2104.1
686.50 494.28 2118.3
691.49 493.92 2116.8
703.49 498.54 2136.6
708.20 497.95 2134.1
712.89 497.37 2131.6
715.08 495.05 2121.7
718.47 493.60 2115.4
729.73 497.54 2132.3
747.11 505.57 2166.7
753.12 505.83 2167.8
750.41 500.27 2144.0
759.93 502.90 2155.3
780.94 513.03 2198.7
778.79 507.91 2176.7
769.91 498.50 2136.4
793.83 510.32 2187.1
804.23 513.34 2200.0
803.89 509.51 2183.6
831.99 523.63 2244.1
483.44 573.69 2486.3
480.23 562.38 2437.3
481.55 556.60 2412.2
483.32 551.48 2390.0
486.73 548.35 2376.5
474.23 527.58 2286.5
473.31 520.06 2253.9
491.29 533.23 2310.9
496.41 532.30 2306.9
493.00 522.35 2263.8
496.51 519.88 2253.1
501.88 519.39 2251.0
507.66 519.34 2250.7
519.74 525.64 2278.1
526.46 526.46 2281.6
518.56 512.80 2222.4
512.61 501.34 2172.7
526.56 509.39 2207.6
545.93 522.45 2264.2
557.73 528.06 2288.6
558.67 523.39 2268.3
551.97 511.73 2217.8
542.64 497.89 2157.8
541.91 492.14 2132.9
561.91 505.16 2189.3
578.27 514.66 2230.5
573.32 505.20 2189.5
566.67 494.45 2142.9
565.58 488.70 2118.0
569.95 487.75 2113.8
589.69 499.83 2166.2
603.98 507.12 2197.8
600.68 499.63 2165.4
597.75 492.59 2134.8
597.59 487.94 2114.7
597.06 483.07 2093.6
598.04 479.51 2078.1
610.93 485.47 2104.0
625.58 492.71 2135.4
628.48 490.65 2126.4
637.47 493.35 2138.1
643.70 493.87 2140.4
637.75 485.13 2102.5
657.33 495.78 2148.7
681.15 509.43 2207.8
665.51 493.59 2139.1
641.94 472.17 2046.3
650.14 470.42 2038.8
692.32 496.90 2153.5
715.46 509.41 2207.7
696.09 491.68 2130.9
682.77 478.48 2073.7
692.87 481.76 2087.9
703.66 485.47 2104.0
723.25 495.15 2145.9
744.60 505.87 2192.4
741.81 500.16 2167.6
744.63 498.29 2159.5
755.11 501.53 2173.5
756.93 499.01 2162.7
754.80 493.95 2140.7
764.01 496.33 2151.0
784.78 506.13 2193.5
798.79 511.46 2216.6
820.57 521.65 2260.8
829.80 523.78 2270.0
810.37 507.91 2201.2
818.14 509.19 2206.8
479.80 562.96 2467.5
487.10 564.01 2472.1
490.60 560.69 2457.6
494.80 558.24 2446.8
503.06 560.37 2456.2
494.91 544.40 2386.2
487.00 529.09 2319.1
497.64 534.05 2340.8
502.63 532.91 2335.8
498.25 521.98 2287.9
499.93 517.58 2268.6
503.00 514.70 2256.0
507.72 513.56 2251.0
517.41 517.41 2267.9
521.69 515.83 2260.9
512.41 501.02 2196.0
511.09 494.24 2166.3
529.33 506.32 2219.2
548.06 518.59 2273.0
558.95 523.27 2293.6
555.00 514.11 2253.4
543.78 498.46 2184.8
550.55 499.47 2189.2
566.00 508.25 2227.7
566.83 503.84 2208.4
562.90 495.35 2171.2
571.65 498.07 2183.1
578.70 499.27 2188.4
578.73 494.45 2167.2
585.25 495.22 2170.6
591.28 495.55 2172.1
591.10 490.73 2150.9
590.56 485.69 2128.8
590.69 481.30 2109.6
590.20 476.49 2088.5
588.53 470.82 2063.7
596.46 472.87 2072.7
616.69 484.55 2123.8
631.67 491.92 2156.2
635.18 490.31 2149.1
642.83 491.90 2156.1
647.41 491.14 2152.7
638.37 480.14 2104.5
655.10 488.55 2141.4
687.55 508.44 2228.6
679.50 498.30 2184.1
651.33 473.70 2076.3
676.52 480.11 2104.4
707.09 497.79 2181.9
695.54 485.77 2129.2
677.01 469.11 2056.2
681.53 468.55 2053.7
702.78 479.41 2101.3
733.29 496.38 2175.7
754.09 506.57 2220.3
751.05 500.70 2194.6
754.57 499.26 2188.3
766.08 503.09 2205.1
780.24 508.60 2229.3
791.26 511.99 2244.1
777.15 499.19 2188.0
774.64 493.97 2165.1
783.95 496.31 2175.4
801.64 503.89 2208.6
827.87 516.68 2264.7
828.01 513.13 2249.1
822.97 506.44 2219.8
480.43 557.30 2470.8
488.68 559.41 2480.2
492.59 556.56 2467.5
489.07 545.50 2418.5
490.98 540.70 2397.2
494.18 537.42 2382.7
496.70 533.49 2365.2
501.56 532.15 2359.3
501.05 525.20 2328.5
506.00 524.07 2323.5
515.96 528.10 2341.3
512.84 518.80 2300.1
511.00 511.00 2265.5
524.42 518.46 2298.6
532.29 520.33 2306.9
526.88 509.32 2258.1
529.08 505.82 2242.6
535.28 506.19 2244.2
541.25 506.33 2244.8
548.15 507.33 2249.2
539.88 494.41 2192.0
539.11 488.57 2166.1
556.09 498.76 2211.2
568.70 504.87 2238.3
565.91 497.31 2204.8
563.44 490.19 2173.3
574.17 494.58 2192.7
580.25 494.92 2194.2
579.53 489.51 2170.2
583.53 488.14 2164.2
587.49 486.77 2158.1
584.16 479.45 2125.7
580.42 471.93 2092.3
588.37 473.96 2101.3
595.56 475.35 2107.5
598.75 473.56 2099.5
611.64 479.39 2125.4
622.19 483.31 2142.8
626.78 482.56 2139.4
632.18 482.45 2139.0
642.32 485.93 2154.4
660.13 495.10 2195.0
664.80 494.34 2191.6
665.44 490.62 2175.2
680.41 497.45 2205.4
690.30 500.47 2218.8
679.17 488.33 2165.0
677.81 483.36 2143.0
694.76 491.42 2178.7
686.44 481.62 2135.2
676.10 470.57 2086.3
702.88 485.32 2151.7
723.53 495.65 2197.5
719.14 488.79 2167.1
730.74 492.82 2184.9
735.22 492.03 2181.4
728.69 483.94 2145.5
741.61 488.79 2167.0
762.60 498.84 2211.6
773.52 502.21 2226.6
787.09 507.24 2248.8
798.82 507.28 2249.0
784.25 494.42 2192.0
781.68 489.26 2169.1
792.36 492.39 2183.0
811.49 500.70 2219.9
816.59 500.30 2218.1
817.59 497.42 2205.3
480.75 558.71 2505.8
480.87 551.40 2473.0
495.93 561.18 2516.9
498.39 556.65 2496.6
493.59 544.21 2440.8
491.25 534.77 2398.5
490.87 527.69 2366.7
497.56 528.28 2369.4
507.32 532.06 2386.3
504.20 522.42 2343.1
506.48 518.54 2325.7
511.61 517.63 2321.6
503.32 503.32 2257.4
508.69 502.85 2255.3
529.26 517.23 2319.8
532.57 514.62 2308.1
521.61 498.43 2235.5
519.48 490.94 2201.9
520.82 486.85 2183.6
528.48 488.70 2191.8
536.63 490.96 2202.0
540.63 489.41 2195.0
551.43 493.99 2215.6
560.90 497.30 2230.4
565.63 496.37 2226.2
563.77 489.74 2196.5
563.49 484.60 2173.4
573.23 488.10 2189.2
577.81 487.17 2185.0
580.59 484.76 2174.2
588.66 486.78 2183.2
597.29 489.21 2194.1
599.75 486.59 2182.4
586.99 471.79 2116.0
586.03 466.66 2093.0
595.86 470.13 2108.6
602.01 470.66 2110.9
607.08 470.35 2109.6
610.24 468.58 2101.6
622.43 473.70 2124.6
635.83 479.66 2151.3
636.50 475.99 2134.8
644.42 477.76 2142.8
655.20 481.60 2160.0
662.06 482.52 2164.1
670.09 484.27 2172.0
672.34 481.85 2161.1
675.71 480.26 2154.0
689.07 485.74 2178.6
707.89 494.95 2219.9
700.56 485.87 2179.2
685.49 471.62 2115.2
708.09 483.30 2167.6
735.83 498.28 2234.8
738.61 496.25 2225.7
747.24 498.16 2234.3
748.09 494.89 2219.6
741.64 486.88 2183.7
754.97 491.87 2206.1
762.34 492.94 2210.9
757.85 486.38 2181.4
766.15 488.07 2189.0
779.69 493.04 2211.3
794.96 499.03 2238.2
801.45 499.46 2240.1
796.67 492.90 2210.7
805.44 494.77 2219.1
821.97 501.34 2248.5
824.09 499.10 2238.5
828.20 498.08 2233.9
483.77 555.68 2521.6
498.50 543.24 2465.1
494.25 531.79 2413.2
497.08 528.15 2396.7
507.07 532.11 2414.6
509.61 528.26 2397.1
499.53 511.56 2321.4
501.96 507.93 2304.9
507.46 507.46 2302.8
499.12 493.32 2238.6
504.23 492.64 2235.5
520.62 502.87 2282.0
518.78 495.46 2248.3
518.77 489.95 2223.3
527.39 492.61 2235.4
528.80 488.57 2217.0
537.00 490.81 2227.2
544.55 492.41 2234.5
546.99 489.41 2220.9
555.73 492.06 2232.9
562.39 492.81 2236.3
557.49 483.54 2194.2
545.83 468.64 2126.6
546.59 464.61 2108.3
558.42 469.95 2132.6
569.10 474.25 2152.1
577.86 476.87 2164.0
583.87 477.20 2165.5
590.66 478.15 2169.8
609.39 488.66 2217.4
613.44 487.31 2211.3
599.25 471.64 2140.2
595.63 464.48 2107.7
598.02 462.11 2097.0
599.82 459.32 2084.3
605.37 459.43 2084.8
619.99 466.36 2116.3
638.92 476.39 2161.8
645.49 477.10 2165.0
654.32 479.46 2175.7
666.61 484.29 2197.6
664.40 478.59 2171.8
662.35 473.11 2146.9
672.10 476.07 2160.3
683.37 480.06 2178.4
681.15 474.57 2153.5
683.27 472.18 2142.7
705.40 483.54 2194.2
718.42 488.53 2216.8
716.95 483.66 2194.8
719.66 481.66 2185.7
727.26 482.95 2191.5
741.09 488.31 2215.9
745.96 487.74 2213.3
745.15 483.49 2194.0
757.88 488.03 2214.6
763.67 488.06 2214.7
750.19 475.87 2159.4
749.38 471.83 2141.1
765.74 478.59 2171.7
784.53 486.75 2208.8
790.63 486.98 2209.8
785.11 480.10 2178.6
807.83 490.47 2225.7
841.53 507.31 2302.1
840.39 503.05 2282.7
839.16 498.80 2263.5
491.27 550.22 2526.5
486.62 537.84 2469.7
495.28 540.31 2481.0
494.69 532.74 2446.3
496.27 527.68 2423.0
504.30 529.51 2431.4
512.76 531.75 2441.7
513.74 526.27 2416.6
501.43 507.47 2330.2
501.80 501.80 2304.2
515.30 509.24 2338.3
514.49 502.53 2307.5
503.20 485.84 2230.9
502.83 479.98 2204.0
517.29 488.23 2241.9
532.60 497.09 2282.6
537.32 495.99 2277.5
534.75 488.25 2242.0
541.40 489.01 2245.5
547.84 489.56 2248.0
541.19 478.52 2197.3
541.60 473.90 2176.1
553.85 479.62 2202.3
553.68 474.59 2179.2
552.75 459.71 2110.9
571.39 470.56 2160.7
570.83 465.53 2137.7
567.35 458.25 2104.2
574.51 459.61 2110.4
593.62 470.41 2160.1
611.39 479.97 2204.0
611.43 475.56 2183.7
610.84 470.74 2161.6
615.50 470.02 2158.3
619.07 468.48 2151.2
625.87 469.40 2155.4
633.79 471.13 2163.4
647.01 476.75 2189.1
655.60 478.87 2198.9
667.33 483.24 2219.0
674.61 484.34 2224.0
667.31 475.03 2181.3
671.92 474.29 2177.9
688.43 481.90 2212.8
700.71 486.44 2233.7
701.27 482.84 2217.1
702.65 479.86 2203.4
722.83 489.66 2248.4
731.75 491.74 2258.0
726.12 484.08 2222.8
728.59 481.90 2212.8
735.94 482.96 2217.7
746.11 485.84 2230.9
748.51 483.66 2220.9
750.87 481.47 2210.8
768.39 488.98 2245.3
769.15 485.78 2230.6
751.52 471.10 2163.2
752.34 468.12 2149.5
770.67 476.00 2185.7
764.91 469.00 2153.6
817.92 490.75 2253.4
847.90 501.58 2303.2
489.14 534.20 2482.5
491.51 529.81 2462.1
500.18 532.24 2473.4
510.08 535.90 2490.4
508.33 527.39 2450.9
507.59 520.13 2417.1
515.64 521.92 2425.5
509.51 509.51 2367.8
499.14 493.20 2292.0
501.88 490.07 2277.4
506.66 488.99 2272.4
501.08 478.05 2221.6
505.70 476.97 2216.6
524.59 489.23 2273.5
538.65 496.76 2308.5
541.86 494.23 2296.7
533.20 481.04 2235.5
534.11 476.68 2215.2
546.96 482.95 2244.4
547.78 478.59 2224.1
535.26 462.77 2150.6
546.97 463.25 2152.8
553.53 454.88 2113.9
580.94 472.73 2196.8
588.80 474.47 2204.9
584.72 466.65 2168.6
591.77 467.78 2173.8
604.29 473.17 2198.9
615.10 477.13 2217.3
628.11 482.71 2243.2
633.00 477.63 2219.6
622.35 465.36 2162.6
647.75 480.03 2230.8
666.48 485.25 2255.0
653.13 471.39 2190.6
659.77 472.07 2193.8
662.72 470.14 2184.8
660.19 464.37 2158.0
670.80 467.87 2174.3
694.88 480.62 2233.5
712.55 484.77 2252.8
710.13 479.20 2226.9
714.79 478.45 2223.4
708.25 470.28 2185.5
719.78 474.14 2203.4
739.67 483.41 2246.5
734.76 476.44 2214.1
732.80 471.49 2191.1
736.36 470.14 2184.8
739.89 468.78 2178.5
761.15 478.60 2224.1
766.01 478.04 2221.5
761.21 471.49 2191.1
776.01 477.10 2217.2
785.71 479.51 2228.4
770.53 466.82 2169.4
776.89 463.90 2155.8
808.27 479.19 2226.9
817.10 480.99 2235.2
835.10 488.12 2268.4
493.75 532.73 2505.9
495.79 527.98 2483.5
504.70 530.59 2495.8
500.32 519.32 2442.8
485.33 497.46 2340.0
488.94 494.97 2328.3
500.42 500.42 2353.9
505.45 499.36 2348.9
505.65 493.61 2321.9
503.18 485.42 2283.4
502.02 478.67 2251.6
508.23 479.02 2253.2
525.56 489.73 2303.6
532.12 490.27 2306.2
533.14 485.75 2284.9
541.46 487.91 2295.0
538.93 480.35 2259.5
529.79 467.12 2197.3
532.63 464.63 2185.6
547.59 472.65 2223.3
549.48 469.35 2207.7
556.88 461.26 2169.7
569.79 467.23 2197.8
573.40 465.53 2189.8
587.24 472.09 2220.7
602.49 479.65 2256.2
605.66 477.54 2246.3
611.36 477.44 2245.8
621.46 480.76 2261.4
623.52 477.84 2247.7
627.36 476.33 2240.6
639.68 481.23 2263.6
629.28 469.10 2206.6
627.54 463.59 2180.6
653.48 470.05 2211.0
646.17 460.74 2167.3
658.96 465.82 2191.1
662.19 464.10 2183.0
659.07 458.00 2154.4
668.82 460.87 2167.8
693.47 473.87 2229.0
711.37 482.08 2267.6
703.73 473.00 2224.9
703.03 468.69 2204.6
709.74 469.34 2207.7
706.18 463.25 2179.1
720.74 469.05 2206.3
735.73 475.04 2234.5
727.39 465.99 2191.9
730.04 464.06 2182.8
737.34 465.09 2187.7
736.14 460.79 2167.5
752.31 467.34 2198.3
763.18 470.53 2213.3
764.14 467.61 2199.6
770.22 467.84 2200.6
771.41 465.11 2187.8
784.68 469.66 2209.2
797.05 473.61 2227.8
798.53 471.08 2215.9
805.31 471.68 2218.7
799.97 465.23 2188.4
801.95 463.10 2178.3
840.01 481.68 2265.8
484.58 530.42 2525.8
478.38 516.65 2460.2
486.42 518.42 2468.7
499.87 525.84 2504.0
504.76 524.18 2496.1
497.23 509.82 2427.7
483.38 489.43 2330.6
488.38 488.38 2325.6
504.34 498.19 2372.3
513.32 500.96 2385.5
516.74 498.29 2372.8
517.35 493.00 2347.6
512.93 483.11 2300.5
516.03 480.44 2287.8
524.08 482.39 2297.1
520.94 474.11 2257.7
521.38 469.24 2234.5
529.13 470.99 2242.8
535.78 471.72 2246.3
536.48 467.26 2225.0
535.21 461.19 2196.2
545.51 465.12 2214.9
555.67 468.85 2232.6
553.24 461.99 2199.9
554.03 457.92 2180.6
568.36 465.03 2214.4
581.88 471.32 2244.4
586.34 470.24 2239.2
591.79 469.95 2237.9
597.47 469.86 2237.4
600.60 467.78 2227.5
606.51 467.88 2228.0
617.09 471.55 2245.5
618.85 468.47 2230.8
618.94 464.21 2210.5
627.47 466.28 2220.4
633.62 466.57 2221.8
648.99 473.58 2255.2
654.94 473.67 2255.5
639.96 458.73 2184.4
640.18 454.87 2166.0
655.16 461.46 2197.4
