ply
format ascii 1.0
element vertex 2179
property float x
property float y
property float z
end_header
336.95 -330.07 2652.4
365.46 -330.98 2659.7
370.16 -329.03 2644.0
371.00 -323.78 2601.8
376.23 -306.09 2459.6
384.03 -297.31 2389.1
390.55 -297.56 2391.1
395.94 -296.95 2386.2
391.73 -289.28 2324.5
387.88 -282.09 2266.8
394.44 -282.58 2270.7
404.46 -285.50 2294.2
400.96 -278.93 2241.4
416.92 -277.94 2233.5
433.03 -284.73 2288.0
443.62 -287.75 2312.3
444.86 -284.71 2287.8
448.27 -283.12 2275.0
465.80 -290.37 2333.3
485.98 -299.06 2403.2
552.38 -323.35 2598.3
569.91 -325.66 2616.9
-180.00 -315.00 2479.6
-170.83 -310.03 2440.5
-164.80 -310.59 2444.8
-158.87 -311.39 2451.2
-151.25 -308.80 2430.8
-142.49 -303.57 2389.6
-137.22 -305.62 2405.8
-131.76 -307.43 2420.0
-122.83 -300.93 2368.8
-115.53 -297.94 2345.3
-109.51 -298.11 2346.6
-103.35 -297.89 2344.9
-97.44 -298.42 2349.1
-90.94 -297.07 2338.5
-83.63 -292.69 2304.0
-75.25 -283.65 2232.8
-63.94 -284.83 2242.1
-58.23 -285.35 2246.2
-53.27 -290.03 2283.0
-48.55 -297.35 2340.7
-42.81 -299.64 2358.7
-36.55 -298.52 2349.8
-30.45 -298.40 2348.9
-24.33 -298.03 2346.0
-17.98 -293.75 2312.3
-11.78 -288.59 2271.7
-5.89 -288.47 2270.7
0.00 -297.04 2338.2
6.15 -301.57 2373.9
12.14 -297.54 2342.1
18.11 -295.77 2328.2
23.80 -291.60 2295.4
29.24 -286.56 2255.7
35.72 -291.71 2296.3
41.98 -293.84 2313.0
46.72 -286.14 2252.4
51.67 -281.34 2214.6
58.11 -284.72 2241.2
65.61 -292.26 2300.6
72.68 -296.77 2336.1
77.09 -290.58 2287.3
82.22 -287.78 2265.3
91.79 -299.84 2360.3
99.67 -305.22 2402.6
104.31 -300.66 2366.7
110.11 -299.74 2359.5
115.82 -298.70 2351.3
120.57 -295.39 2325.2
124.91 -291.45 2294.2
129.71 -288.89 2274.1
139.48 -297.15 2339.1
147.55 -301.25 2371.4
149.06 -292.15 2299.7
167.43 -293.00 2306.4
177.32 -299.61 2358.4
180.78 -295.28 2324.4
186.45 -294.72 2319.9
194.40 -297.67 2343.2
201.53 -299.24 2355.5
209.77 -302.31 2379.7
218.94 -306.51 2412.8
223.48 -304.18 2394.4
224.90 -297.84 2344.5
230.53 -297.26 2340.0
235.34 -295.68 2327.5
242.74 -297.36 2340.7
259.23 -309.81 2438.8
269.46 -314.37 2474.6
273.16 -311.27 2450.2
284.49 -316.82 2493.9
301.45 -328.24 2583.8
318.02 -331.55 2609.9
319.91 -326.57 2570.7
327.59 -327.59 2578.7
344.63 -337.74 2658.6
365.89 -338.27 2662.8
373.54 -332.79 2619.7
360.95 -315.83 2486.2
370.18 -312.73 2461.8
370.56 -307.76 2422.6
364.96 -298.05 2346.2
360.67 -289.71 2280.6
366.43 -289.60 2279.6
380.51 -295.95 2329.6
390.61 -299.06 2354.1
390.95 -294.71 2319.9
388.59 -288.50 2271.0
396.69 -290.12 2283.7
411.57 -296.57 2334.5
413.24 -293.46 2310.1
415.50 -290.85 2289.5
432.92 -298.78 2351.9
434.81 -295.91 2329.4
434.01 -291.32 2293.2
442.17 -292.79 2304.8
440.55 -287.83 2265.7
442.57 -285.34 2246.1
459.05 -292.12 2299.5
475.99 -299.02 2353.8
555.31 -331.83 2612.1
-181.38 -323.89 2498.6
-169.81 -314.46 2425.8
-161.75 -311.05 2399.5
-153.63 -307.25 2370.2
-143.93 -299.86 2313.2
-138.37 -300.81 2320.5
-135.99 -309.06 2384.2
-129.39 -308.08 2376.6
-119.60 -299.01 2306.6
-113.39 -298.40 2302.0
-108.41 -301.14 2323.1
-101.57 -298.73 2304.5
-94.99 -296.84 2289.9
-88.75 -295.84 2282.2
-81.91 -292.53 2256.6
-75.33 -289.73 2235.0
-70.40 -293.35 2263.0
-65.93 -299.67 2311.7
-60.40 -302.00 2329.7
-54.18 -300.99 2321.9
-48.31 -301.91 2329.0
-42.67 -304.75 2350.9
-36.60 -305.02 2353.0
-30.54 -305.42 2356.1
-24.41 -305.17 2354.2
-18.07 -301.19 2323.5
-11.87 -296.70 2288.8
-5.96 -297.86 2297.8
0.00 -308.40 2379.1
6.22 -311.10 2399.9
12.19 -304.67 2350.3
18.10 -301.71 2327.5
23.73 -296.69 2288.7
29.01 -290.12 2238.1
35.35 -294.61 2272.7
41.80 -298.58 2303.4
46.66 -291.63 2249.7
52.03 -289.04 2229.7
59.01 -295.06 2276.2
64.82 -294.66 2273.1
69.76 -290.65 2242.2
78.57 -302.19 2331.2
98.07 -306.47 2364.2
102.79 -302.33 2332.2
108.73 -302.04 2330.0
118.47 -311.76 2405.0
129.29 -307.82 2374.6
131.02 -297.77 2297.1
140.02 -304.40 2348.2
147.26 -306.79 2366.7
149.78 -299.56 2310.9
151.61 -291.55 2249.1
166.87 -297.99 2298.8
178.67 -308.06 2376.5
184.42 -307.36 2371.1
187.90 -303.07 2338.0
193.51 -302.37 2332.5
202.22 -306.40 2363.7
212.23 -312.10 2407.6
220.03 -314.33 2424.8
223.41 -310.29 2393.7
223.02 -301.38 2325.0
226.37 -297.86 2297.7
235.26 -301.62 2326.8
247.57 -309.47 2387.3
258.62 -315.40 2433.0
263.25 -313.39 2417.6
268.56 -312.28 2409.0
281.59 -319.99 2468.5
297.21 -330.24 2547.5
306.55 -333.20 2570.4
317.08 -337.31 2602.1
324.82 -338.36 2610.2
322.86 -329.45 2541.5
328.96 -328.96 2537.7
344.79 -338.03 2607.7
360.91 -340.48 2626.5
365.53 -338.45 2610.9
360.47 -310.75 2397.2
364.45 -308.85 2382.6
362.25 -301.87 2328.7
360.24 -295.28 2277.9
368.52 -297.19 2292.6
376.39 -298.72 2304.4
380.75 -297.46 2294.7
382.25 -294.04 2268.3
381.11 -288.72 2227.3
392.83 -293.16 2261.5
411.61 -302.65 2334.8
419.23 -303.79 2343.5
428.30 -305.93 2360.0
447.96 -311.09 2399.8
441.25 -302.22 2331.4
442.60 -299.05 2307.0
453.48 -302.32 2332.2
469.47 -308.86 2382.6
478.13 -310.47 2395.1
485.28 -311.08 2399.7
-194.43 -330.52 2499.8
-183.22 -322.22 2437.0
-176.01 -320.58 2424.6
-166.77 -315.02 2382.5
-159.62 -313.11 2368.1
-151.97 -310.02 2344.7
-143.52 -304.97 2306.5
-139.15 -308.55 2333.6
-134.87 -312.65 2364.6
-126.60 -307.46 2325.3
-117.20 -298.86 2260.3
-111.36 -298.90 2260.6
-107.59 -304.83 2305.4
-101.71 -305.13 2307.7
-94.63 -301.63 2281.2
-87.87 -298.77 2259.6
-81.56 -297.10 2247.0
-75.64 -296.73 2244.2
-70.97 -301.61 2281.1
-66.53 -308.44 2332.8
-60.46 -308.33 2331.9
-53.70 -304.29 2301.3
-48.45 -308.89 2336.2
-43.48 -316.77 2395.8
-37.10 -315.34 2385.0
-30.79 -314.05 2375.1
-24.48 -312.09 2360.3
-17.99 -305.80 2312.8
-12.30 -313.67 2372.3
6.00 -305.81 2312.9
12.09 -308.17 2330.7
18.47 -313.93 2374.3
23.83 -303.83 2297.9
28.71 -292.81 2214.5
35.22 -299.35 2264.0
41.91 -305.37 2309.5
46.93 -299.20 2262.8
52.45 -297.21 2247.8
59.25 -302.17 2285.3
64.80 -300.45 2272.3
70.10 -297.94 2253.3
79.18 -310.62 2349.2
93.46 -317.77 2403.3
99.48 -317.08 2398.1
110.91 -314.26 2376.8
118.38 -317.76 2403.2
128.97 -313.22 2368.9
129.45 -300.09 2269.6
136.61 -302.92 2291.0
145.92 -310.07 2345.1
150.95 -307.93 2328.9
157.62 -309.19 2338.4
166.64 -314.76 2380.5
171.99 -313.26 2369.2
177.57 -312.29 2361.8
184.12 -313.01 2367.3
189.03 -310.99 2352.0
193.45 -308.31 2331.8
201.14 -310.86 2351.0
208.85 -313.27 2369.3
214.49 -312.55 2363.8
221.49 -313.78 2373.1
225.13 -310.31 2346.9
226.68 -304.23 2300.9
233.49 -305.33 2309.2
245.14 -312.55 2363.9
255.60 -317.95 2404.6
264.99 -321.77 2433.6
275.95 -327.28 2475.3
279.25 -323.67 2448.0
283.21 -320.98 2427.5
295.17 -327.26 2475.1
308.22 -334.45 2529.4
316.76 -336.56 2545.4
316.01 -328.91 2487.5
326.69 -333.22 2520.2
347.54 -347.54 2628.4
355.03 -348.20 2633.5
353.50 -340.16 2572.6
355.92 -336.15 2542.3
369.10 -342.26 2588.5
365.96 -321.79 2433.7
362.98 -313.76 2373.0
364.57 -309.88 2343.7
366.32 -306.27 2316.3
374.22 -307.83 2328.1
381.70 -309.00 2337.0
381.27 -303.83 2297.9
377.51 -296.20 2240.2
378.98 -292.85 2214.8
393.04 -299.18 2262.7
411.82 -308.86 2336.0
419.44 -310.02 2344.7
418.07 -304.59 2303.6
423.85 -304.46 2302.6
432.17 -306.12 2315.2
431.70 -301.60 2281.0
442.45 -304.93 2306.2
465.26 -316.37 2392.7
547.66 -344.82 2607.9
-195.82 -339.42 2517.7
-184.13 -330.16 2449.0
-176.52 -327.82 2431.7
-167.69 -322.95 2395.5
-161.04 -322.07 2389.0
-156.41 -325.33 2413.2
-150.48 -326.05 2418.5
-141.23 -319.30 2368.4
-132.51 -313.21 2323.2
-126.13 -312.32 2316.6
-118.29 -307.56 2281.3
-112.10 -306.80 2275.7
-108.15 -312.44 2317.5
-102.81 -314.48 2332.7
-96.12 -312.37 2317.1
-88.85 -308.00 2284.6
-82.03 -304.69 2260.1
-76.55 -306.19 2271.2
-72.08 -312.36 2316.9
-66.93 -316.39 2346.8
-60.15 -312.80 2320.2
-53.68 -310.15 2300.6
-48.68 -316.45 2347.3
-43.48 -323.01 2395.9
-36.84 -319.28 2368.3
-29.96 -311.54 2310.9
-23.32 -303.14 2248.5
-17.61 -305.28 2264.4
-12.43 -323.06 2396.3
0.00 -315.71 2341.8
5.88 -305.82 2268.5
12.16 -316.11 2344.8
18.70 -324.12 2404.2
24.25 -315.29 2338.7
28.98 -301.39 2235.6
35.30 -305.92 2269.2
42.17 -313.26 2323.6
47.37 -307.90 2283.9
52.92 -305.74 2267.9
59.82 -311.07 2307.4
64.72 -305.97 2269.6
69.28 -300.20 2226.8
77.88 -311.53 2310.8
86.67 -321.92 2387.8
92.43 -320.42 2376.7
99.48 -323.32 2398.3
106.21 -324.89 2409.9
109.54 -316.44 2347.2
117.02 -320.27 2375.7
126.56 -313.38 2324.6
140.94 -305.38 2265.2
147.31 -306.40 2272.7
155.50 -311.01 2306.9
165.68 -319.09 2366.8
172.29 -319.96 2373.3
177.37 -318.04 2359.1
183.37 -317.84 2357.6
189.37 -317.64 2356.2
195.27 -317.31 2353.7
201.24 -317.11 2352.2
207.12 -316.78 2349.7
210.21 -312.31 2316.6
214.69 -310.11 2300.3
221.93 -311.90 2313.5
227.29 -311.03 2307.1
235.60 -314.14 2330.1
249.15 -323.89 2402.5
260.97 -330.98 2455.1
272.09 -336.87 2498.8
295.41 -341.36 2532.1
301.77 -341.13 2530.3
328.52 -348.63 2586.0
347.94 -354.76 2631.5
339.02 -339.02 2514.7
339.75 -333.34 2472.6
343.98 -331.24 2457.0
354.71 -335.36 2487.6
360.38 -323.10 2396.6
362.26 -319.28 2368.3
368.26 -319.16 2367.4
372.70 -317.71 2356.7
383.22 -321.41 2384.1
386.53 -319.04 2366.5
381.80 -310.21 2301.0
386.12 -308.89 2291.3
395.24 -311.40 2309.8
392.74 -304.81 2261.0
394.65 -301.79 2238.5
408.83 -308.10 2285.4
414.04 -307.57 2281.4
419.94 -307.56 2281.4
428.94 -309.79 2297.9
430.82 -306.89 2276.4
444.74 -312.52 2318.1
466.99 -323.78 2401.7
485.56 -323.70 2401.1
-198.98 -340.20 2475.8
-191.91 -339.04 2467.4
-186.81 -341.42 2484.7
-178.90 -338.63 2464.4
-169.84 -333.39 2426.3
-163.11 -332.50 2419.8
-158.53 -336.09 2445.9
-152.22 -336.14 2446.3
-142.53 -328.45 2390.3
-133.09 -320.62 2333.3
-125.87 -317.67 2311.9
-119.12 -315.67 2297.4
-113.91 -317.75 2312.5
-108.81 -320.38 2331.6
-102.47 -319.46 2324.9
-96.12 -318.41 2317.3
-89.20 -315.18 2293.7
-82.08 -310.72 2261.3
-76.09 -310.20 2257.5
-70.05 -309.41 2251.8
-63.43 -305.62 2224.2
-58.80 -311.63 2267.9
-54.31 -319.82 2327.5
-47.56 -315.07 2293.0
-40.72 -308.28 2243.6
-35.73 -315.64 2297.1
-30.27 -320.83 2334.9
-11.75 -311.46 2266.7
-6.06 -320.99 2336.0
0.00 -318.54 2318.2
6.08 -322.21 2345.0
12.18 -322.76 2348.9
18.32 -323.57 2354.8
24.73 -327.64 2384.5
30.68 -325.18 2366.6
36.90 -325.99 2372.4
48.26 -319.70 2326.6
53.34 -314.10 2285.9
61.49 -325.92 2371.9
67.64 -325.90 2371.8
69.41 -306.55 2231.0
75.15 -306.39 2229.8
85.09 -322.14 2344.4
92.09 -325.38 2368.0
96.41 -319.36 2324.2
100.16 -312.25 2272.5
105.67 -311.13 2264.3
115.33 -321.70 2341.2
123.43 -327.09 2380.5
123.28 -311.15 2264.4
142.00 -313.59 2282.2
150.01 -318.02 2314.4
156.85 -319.73 2326.9
165.35 -324.57 2362.1
172.23 -326.00 2372.5
177.90 -325.13 2366.2
181.77 -321.13 2337.0
185.65 -317.40 2309.9
193.73 -320.86 2335.1
202.02 -324.46 2361.3
208.36 -324.79 2363.7
212.11 -321.19 2337.5
219.31 -322.88 2349.8
229.14 -328.22 2388.7
231.68 -323.13 2351.6
237.12 -322.24 2345.1
250.80 -332.31 2418.4
262.24 -338.99 2467.0
269.63 -340.25 2476.2
302.37 -348.38 2535.4
314.00 -354.09 2576.9
338.21 -351.48 2557.9
334.01 -340.43 2477.5
339.64 -339.64 2471.8
343.04 -336.69 2450.3
354.78 -335.78 2443.7
349.69 -325.15 2366.3
351.86 -321.53 2339.9
361.69 -324.90 2364.5
371.18 -327.87 2386.1
379.08 -329.36 2397.0
377.12 -322.37 2346.1
368.35 -309.88 2255.2
379.40 -314.19 2286.5
399.33 -325.60 2369.6
407.47 -327.21 2381.3
403.80 -319.43 2324.7
400.53 -312.18 2271.9
409.39 -314.46 2288.5
419.03 -317.26 2308.9
430.56 -321.41 2339.1
443.16 -326.21 2374.1
448.37 -325.53 2369.1
447.76 -320.69 2333.9
454.17 -320.94 2335.7
472.45 -329.47 2397.8
474.17 -326.38 2375.2
468.89 -318.61 2318.7
547.50 -358.24 2607.2
550.27 -355.66 2588.4
558.35 -356.54 2594.8
-198.83 -346.36 2474.0
-192.15 -345.87 2470.5
-185.93 -346.22 2473.0
-177.33 -341.99 2442.8
-169.85 -339.70 2426.5
-164.26 -341.15 2436.8
-157.07 -339.27 2423.3
-148.53 -334.20 2387.1
-141.36 -331.90 2370.7
-134.00 -328.90 2349.3
-127.17 -327.01 2335.8
-120.72 -325.95 2328.2
-113.92 -323.77 2312.7
-107.43 -322.29 2302.1
-101.21 -321.50 2296.4
-94.94 -320.42 2288.7
-87.55 -315.19 2251.4
-74.66 -310.12 2215.2
-69.35 -312.09 2229.2
-57.42 -310.05 2214.7
-54.84 -329.06 2350.4
-41.76 -322.17 2301.2
-35.66 -320.93 2292.4
-30.51 -329.54 2353.8
-23.32 -314.85 2248.9
-11.74 -317.08 2264.9
-6.15 -331.92 2370.9
0.00 -333.59 2382.8
5.99 -323.60 2311.5
11.54 -311.68 2226.3
17.48 -314.72 2248.0
23.86 -322.06 2300.4
29.51 -318.73 2276.6
35.44 -318.99 2278.5
42.70 -329.37 2352.7
48.28 -325.89 2327.8
53.41 -320.47 2289.1
61.52 -332.23 2373.1
72.59 -326.64 2333.1
75.96 -315.53 2253.8
83.30 -321.32 2295.1
90.94 -327.38 2338.4
95.97 -323.89 2313.5
101.34 -321.91 2299.4
108.58 -325.75 2326.8
115.72 -328.90 2349.3
121.18 -327.19 2337.1
125.23 -322.03 2300.2
130.61 -320.60 2290.0
136.59 -320.69 2290.6
144.23 -324.51 2318.0
152.97 -330.41 2360.1
160.79 -333.95 2385.4
166.32 -332.65 2376.1
170.23 -328.30 2345.0
177.47 -330.45 2360.4
183.24 -329.84 2356.0
186.85 -325.49 2324.9
194.64 -328.46 2346.1
202.62 -331.57 2368.3
208.63 -331.36 2366.8
214.00 -330.18 2358.4
222.64 -333.97 2385.5
231.80 -338.30 2416.4
233.35 -331.60 2368.5
237.73 -329.17 2351.2
249.89 -337.36 2409.7
261.83 -344.85 2463.2
269.43 -346.41 2474.4
275.00 -345.35 2466.8
281.09 -344.98 2464.1
286.02 -343.23 2451.6
291.35 -342.02 2443.0
296.28 -340.41 2431.5
305.55 -343.74 2455.3
327.04 -360.42 2574.4
338.48 -358.40 2560.0
340.90 -354.02 2528.7
358.52 -352.00 2514.3
350.25 -337.74 2412.4
347.39 -329.11 2350.8
350.56 -326.38 2331.3
357.07 -326.81 2334.3
363.29 -326.96 2335.4
365.64 -323.68 2312.0
375.86 -317.13 2265.2
396.56 -329.45 2353.2
405.66 -331.91 2370.8
411.80 -331.90 2370.7
418.63 -332.44 2374.6
424.25 -332.02 2371.6
430.91 -332.42 2374.4
435.26 -331.04 2364.6
439.73 -329.80 2355.7
446.93 -330.60 2361.4
446.86 -326.09 2329.2
451.17 -324.85 2320.3
468.27 -332.72 2376.6
472.26 -331.20 2365.7
470.50 -325.73 2326.7
-190.39 -361.09 2532.3
-182.00 -357.50 2507.1
-174.70 -355.87 2495.7
-168.52 -356.49 2500.1
-160.66 -353.46 2478.8
-150.14 -344.07 2413.0
-141.31 -337.92 2369.9
-134.51 -336.28 2358.4
-128.15 -335.63 2353.7
-120.17 -330.45 2317.5
-112.08 -324.43 2275.3
-106.84 -326.45 2289.4
-101.83 -329.45 2310.4
-95.81 -329.34 2309.7
-88.60 -324.86 2278.3
-82.30 -323.34 2267.6
-78.33 -331.41 2324.2
-72.19 -330.87 2320.4
-64.40 -322.01 2258.2
-58.47 -321.61 2255.4
-54.87 -335.32 2351.6
-43.13 -338.88 2376.6
-35.20 -322.66 2262.8
-23.45 -322.40 2261.0
-18.43 -337.80 2369.0
-12.43 -341.76 2396.7
-6.23 -342.89 2404.7
6.14 -337.81 2369.0
11.53 -317.05 2223.5
23.34 -320.99 2251.1
28.92 -318.16 2231.2
40.96 -321.80 2256.8
48.45 -333.08 2335.9
61.81 -339.95 2384.1
66.97 -334.85 2348.3
72.84 -333.84 2341.2
78.87 -333.67 2340.0
84.67 -332.65 2332.9
90.71 -332.62 2332.7
98.15 -337.38 2366.1
106.01 -342.99 2405.4
111.73 -341.40 2394.2
117.68 -340.65 2389.0
122.47 -336.80 2362.0
125.73 -329.28 2309.3
132.65 -331.63 2325.7
140.19 -335.25 2351.1
145.53 -333.50 2338.9
151.76 -333.87 2341.5
156.54 -331.14 2322.3
159.35 -324.61 2276.5
164.94 -323.98 2272.1
173.69 -329.41 2310.2
182.49 -334.56 2346.3
189.32 -335.90 2355.7
195.47 -335.97 2356.2
201.54 -335.90 2355.7
211.25 -341.73 2396.6
220.37 -346.29 2428.6
223.39 -341.29 2393.5
226.52 -336.72 2361.4
231.22 -334.67 2347.0
238.54 -336.41 2359.2
246.13 -338.43 2373.4
252.74 -339.04 2377.7
264.19 -345.97 2426.3
274.25 -350.78 2460.0
276.28 -345.35 2422.0
276.63 -338.10 2371.1
285.04 -340.80 2390.1
293.18 -343.08 2406.0
299.08 -342.70 2403.3
315.82 -354.50 2486.1
335.15 -368.66 2585.4
343.83 -363.66 2550.4
354.06 -354.06 2483.0
351.26 -344.99 2419.4
353.21 -340.81 2390.1
353.53 -335.24 2351.0
357.24 -333.02 2335.5
364.38 -334.01 2342.4
367.21 -331.09 2321.9
367.11 -325.66 2283.9
372.72 -325.39 2282.0
377.35 -324.29 2274.2
383.91 -324.85 2278.2
393.16 -327.63 2297.7
399.29 -327.77 2298.7
407.82 -329.86 2313.3
415.73 -331.38 2324.0
422.81 -332.21 2329.8
427.04 -330.81 2319.9
430.31 -328.71 2305.3
436.27 -328.70 2305.2
451.75 -335.76 2354.7
465.51 -332.51 2331.9
558.13 -374.36 2625.3
-208.17 -364.29 2509.2
-195.93 -365.73 2519.1
-190.10 -367.09 2528.4
-174.57 -362.06 2493.8
-166.47 -358.54 2469.6
-160.73 -360.04 2479.9
-151.99 -354.65 2442.7
-142.03 -345.81 2381.8
-134.30 -341.84 2354.5
-128.10 -341.60 2352.9
-120.17 -336.48 2317.6
-111.40 -328.35 2261.6
-105.51 -328.24 2260.9
-101.88 -335.60 2311.5
-97.09 -339.80 2340.5
-89.95 -335.82 2313.0
-83.75 -334.99 2307.3
-79.27 -341.48 2352.0
-72.53 -338.49 2331.4
-65.73 -334.64 2304.9
-60.79 -340.41 2344.6
-53.79 -334.68 2305.2
-46.34 -324.36 2234.1
-42.02 -336.15 2315.3
-36.97 -345.08 2376.8
-28.78 -322.39 2220.5
-18.14 -338.64 2332.5
-6.23 -348.99 2403.8
0.00 -348.56 2400.8
12.37 -346.41 2386.0
17.79 -332.03 2287.0
23.75 -332.46 2289.9
29.54 -330.87 2278.9
35.08 -327.41 2255.1
41.37 -330.98 2279.7
48.41 -338.87 2334.0
55.33 -344.31 2371.5
60.68 -339.83 2340.7
66.27 -337.37 2323.7
72.53 -338.49 2331.4
77.67 -334.59 2304.5
82.63 -330.54 2276.6
87.80 -327.78 2257.6
94.13 -329.47 2269.3
102.88 -338.90 2334.3
109.80 -341.59 2352.8
115.83 -341.41 2351.5
120.74 -338.06 2328.5
124.17 -331.13 2280.7
130.97 -333.38 2296.2
140.97 -343.23 2364.1
148.98 -347.62 2394.3
153.05 -342.83 2361.3
155.42 -334.75 2305.6
158.12 -327.95 2258.8
172.44 -332.99 2293.5
180.81 -337.51 2324.7
189.10 -341.60 2352.8
196.63 -344.10 2370.1
201.72 -342.31 2357.8
210.22 -346.24 2384.8
217.43 -347.88 2396.1
218.62 -340.08 2342.4
226.53 -342.86 2361.5
236.57 -348.64 2401.3
241.74 -347.12 2390.9
246.45 -345.03 2376.5
253.28 -345.94 2382.7
264.85 -353.13 2432.3
273.71 -356.46 2455.2
274.61 -349.51 2407.3
297.86 -354.90 2444.5
313.76 -366.06 2521.3
318.20 -363.66 2504.8
325.36 -364.40 2509.9
337.85 -370.98 2555.2
343.78 -356.51 2455.6
339.96 -346.14 2384.1
339.62 -339.62 2339.2
346.86 -340.77 2347.2
352.37 -340.22 2343.4
361.01 -342.65 2360.1
372.77 -347.91 2396.4
375.12 -344.37 2372.0
374.21 -337.99 2328.0
373.07 -331.62 2284.1
370.57 -324.25 2233.4
381.96 -329.08 2266.6
395.86 -335.88 2313.5
395.93 -330.92 2279.3
397.71 -327.53 2255.9
402.51 -326.67 2250.1
405.51 -324.41 2234.4
422.41 -333.17 2294.8
439.79 -342.06 2356.0
443.12 -339.92 2341.3
456.06 -345.13 2377.2
-203.10 -361.77 2448.1
-198.38 -364.76 2468.3
-191.02 -362.94 2456.0
-186.02 -365.63 2474.2
-181.94 -370.37 2506.3
-173.33 -365.91 2476.1
-164.01 -359.56 2433.1
-157.28 -358.60 2426.6
-150.83 -358.22 2424.0
-142.92 -354.19 2396.8
-132.33 -342.86 2320.1
-123.75 -335.90 2273.0
-118.69 -338.28 2289.1
-112.63 -337.88 2286.4
-105.97 -335.59 2270.9
-101.58 -340.59 2304.8
-96.31 -343.11 2321.8
-88.61 -336.72 2278.6
-82.50 -335.87 2272.8
-78.04 -342.19 2315.6
-71.74 -340.75 2305.9
-65.23 -338.00 2287.2
-60.02 -342.12 2315.1
-52.89 -334.98 2266.8
-41.14 -335.01 2267.0
-30.62 -349.07 2362.2
-17.68 -335.93 2273.2
-12.19 -347.34 2350.4
-5.98 -341.06 2307.9
0.00 -351.44 2378.2
18.33 -348.21 2356.3
24.07 -342.94 2320.7
29.47 -335.92 2273.1
35.34 -335.76 2272.1
42.11 -342.91 2320.4
48.06 -342.45 2317.3
53.65 -339.80 2299.4
58.46 -333.20 2254.8
63.48 -328.94 2225.9
70.14 -333.16 2254.4
75.71 -331.96 2246.3
81.10 -330.18 2234.3
86.65 -329.27 2228.1
93.11 -331.72 2244.7
101.97 -341.91 2313.7
108.05 -342.16 2315.4
113.31 -339.93 2300.3
118.85 -338.72 2292.1
123.11 -334.14 2261.1
130.75 -338.77 2292.4
141.09 -349.66 2366.1
149.05 -353.99 2395.4
152.93 -348.68 2359.5
156.62 -343.37 2323.5
160.55 -338.93 2293.5
164.32 -334.50 2263.5
171.34 -336.77 2278.9
182.66 -347.05 2348.5
194.02 -356.75 2414.1
207.04 -357.62 2420.0
210.92 -353.61 2392.8
213.23 -347.27 2349.9
218.17 -345.44 2337.6
230.51 -355.11 2403.0
239.40 -359.10 2430.0
242.75 -354.79 2400.8
249.22 -355.13 2403.2
258.20 -358.96 2429.1
269.68 -365.99 2476.6
278.43 -369.09 2497.6
283.15 -366.80 2482.1
286.29 -362.63 2453.9
287.41 -356.13 2409.9
298.71 -362.27 2451.4
313.16 -371.88 2516.5
316.84 -368.57 2494.1
315.95 -360.19 2437.4
320.74 -358.47 2425.8
334.19 -366.33 2478.9
339.29 -364.90 2469.2
339.95 -358.83 2428.2
340.95 -353.35 2391.1
341.06 -347.15 2349.1
348.90 -348.90 2361.0
355.77 -349.64 2366.0
365.81 -353.41 2391.5
369.28 -350.82 2374.0
362.62 -338.84 2292.9
367.95 -338.27 2289.1
372.93 -337.42 2283.3
372.22 -331.51 2243.3
385.28 -337.86 2286.3
398.05 -343.77 2326.3
396.46 -337.29 2282.4
394.65 -330.81 2238.5
425.12 -341.30 2309.5
447.08 -353.94 2395.1
454.55 -354.92 2401.7
451.98 -348.15 2355.9
459.95 -349.56 2365.5
522.19 -381.60 2582.2
528.42 -381.26 2580.0
537.25 -382.79 2590.3
559.25 -384.06 2598.9
-212.19 -372.94 2480.2
-209.16 -379.10 2521.1
-197.93 -382.66 2544.8
-190.26 -380.51 2530.5
-184.23 -381.62 2537.9
-175.75 -377.53 2510.7
-166.34 -371.07 2467.7
-158.31 -367.28 2442.5
-150.89 -364.66 2425.1
-141.10 -355.81 2366.2
-128.90 -339.83 2260.0
-118.96 -344.97 2294.2
-113.66 -346.95 2307.3
-107.64 -346.84 2306.6
-101.02 -344.65 2292.0
-93.57 -339.19 2255.7
-87.23 -337.30 2243.1
-82.36 -341.19 2269.0
-78.05 -348.21 2315.7
-71.80 -347.05 2307.9
-64.61 -340.68 2265.6
-58.74 -340.71 2265.8
-52.55 -338.65 2252.1
-45.91 -332.87 2213.6
-40.44 -335.11 2228.6
-35.87 -346.72 2305.8
-30.60 -354.91 2360.3
-24.20 -350.91 2333.6
-17.86 -345.27 2296.1
-11.73 -340.22 2262.5
-5.76 -334.27 2223.0
0.00 -345.43 2297.2
12.49 -362.08 2407.9
18.11 -350.17 2328.7
23.90 -346.60 2305.0
29.35 -340.49 2264.4
35.35 -341.67 2272.2
42.33 -350.72 2332.4
48.52 -351.75 2339.2
54.07 -348.46 2317.3
58.90 -341.60 2271.7
63.79 -336.37 2237.0
70.27 -339.62 2258.5
75.12 -335.13 2228.7
87.50 -338.34 2250.0
96.19 -348.70 2319.0
103.15 -351.93 2340.4
107.18 -345.36 2296.7
113.46 -346.35 2303.3
120.13 -348.39 2316.9
124.56 -344.04 2287.9
132.56 -349.48 2324.1
141.69 -357.30 2376.1
148.07 -357.84 2379.7
151.53 -351.55 2337.9
154.90 -345.55 2298.0
162.56 -349.20 2322.3
170.34 -352.85 2346.5
174.09 -348.18 2315.5
182.51 -352.86 2346.6
193.47 -361.98 2407.3
200.57 -363.54 2417.6
206.37 -362.72 2412.2
210.67 -359.38 2390.0
213.33 -353.52 2351.0
218.92 -352.70 2345.5
230.42 -361.20 2402.1
238.24 -363.63 2418.2
239.67 -356.44 2370.4
244.02 -353.83 2353.1
252.88 -357.73 2379.0
264.65 -365.47 2430.5
280.08 -377.78 2512.4
291.22 -375.35 2496.2
286.83 -361.66 2405.1
292.14 -360.51 2397.5
300.22 -362.76 2412.5
312.36 -369.73 2458.8
320.67 -371.97 2473.7
321.53 -365.66 2431.7
331.16 -369.37 2456.4
333.11 -364.53 2424.2
329.81 -354.24 2355.8
338.59 -357.06 2374.5
346.90 -359.29 2389.4
354.85 -361.07 2401.2
361.67 -361.67 2405.2
367.02 -360.80 2399.4
365.96 -353.76 2352.6
359.55 -341.87 2273.5
365.30 -341.73 2272.6
375.35 -345.56 2298.0
379.53 -343.95 2287.4
385.47 -343.96 2287.4
390.40 -343.08 2281.6
391.91 -339.27 2256.2
394.33 -336.34 2236.7
409.99 -339.70 2259.1
427.12 -348.91 2320.4
442.92 -356.80 2372.8
500.69 -382.11 2541.1
506.31 -376.49 2503.7
550.74 -389.55 2590.6
-215.40 -385.10 2517.6
-188.77 -384.06 2510.8
-179.94 -379.15 2478.7
-169.12 -369.57 2416.1
-163.82 -371.74 2430.3
-159.33 -376.03 2458.3
-152.00 -373.68 2442.9
-142.10 -364.53 2383.1
-132.29 -354.77 2319.3
-127.53 -358.29 2342.3
-121.78 -359.24 2348.6
-114.20 -354.61 2318.3
-106.95 -350.57 2291.9
-99.11 -343.97 2248.7
-92.80 -342.19 2237.1
-87.43 -343.89 2248.2
-82.76 -348.76 2280.0
-78.55 -356.49 2330.6
-72.91 -358.49 2343.6
-66.25 -355.34 2323.0
-59.72 -352.34 2303.4
-52.99 -347.38 2271.0
-46.96 -346.34 2264.2
-42.03 -354.21 2315.7
-36.05 -354.53 2317.8
-29.57 -348.95 2281.3
-23.68 -349.26 2283.3
-17.74 -348.97 2281.4
-12.01 -354.42 2317.0
-6.10 -360.17 2354.6
0.00 -349.74 2286.4
5.88 -346.71 2266.6
12.16 -358.80 2345.7
18.57 -365.30 2388.2
24.18 -356.67 2331.8
29.16 -344.11 2249.6
34.81 -342.29 2237.7
41.47 -349.53 2285.1
48.09 -354.65 2318.5
54.14 -354.93 2320.4
59.59 -351.59 2298.5
65.15 -349.45 2284.5
71.34 -350.78 2293.2
75.85 -344.25 2250.6
80.53 -339.39 2218.7
88.20 -346.91 2267.9
94.93 -350.05 2288.4
99.76 -346.23 2263.5
106.31 -348.46 2278.1
115.07 -357.33 2336.0
122.49 -361.36 2362.4
127.90 -359.35 2349.2
132.96 -356.58 2331.1
138.98 -356.53 2330.8
146.85 -361.00 2360.0
152.05 -358.83 2345.8
156.04 -354.09 2314.9
164.43 -359.31 2349.0
173.14 -364.83 2385.1
177.95 -362.04 2366.9
180.83 -355.64 2325.0
185.80 -353.61 2311.7
194.28 -358.21 2341.8
201.58 -360.39 2356.1
205.56 -356.70 2331.9
208.16 -350.90 2294.0
214.42 -351.42 2297.4
226.75 -361.57 2363.8
233.59 -362.69 2371.1
233.62 -353.42 2310.5
239.54 -353.33 2309.9
250.80 -360.90 2359.4
261.34 -367.12 2400.1
275.70 -378.29 2473.1
284.61 -381.64 2495.0
279.08 -365.91 2392.1
285.20 -365.80 2391.4
300.64 -377.40 2467.3
305.23 -375.18 2452.8
313.99 -378.07 2471.6
334.73 -372.62 2436.0
329.82 -360.36 2355.9
336.09 -360.54 2357.0
343.64 -362.05 2366.9
350.81 -363.12 2373.9
355.22 -361.34 2362.3
358.51 -358.51 2343.8
365.67 -359.57 2350.7
367.45 -355.40 2323.4
367.20 -349.43 2284.4
371.86 -348.25 2276.7
381.33 -351.54 2298.2
393.05 -356.76 2332.4
400.59 -358.11 2341.1
403.95 -355.72 2325.5
404.31 -350.80 2293.4
407.12 -348.11 2275.8
418.49 -352.72 2305.9
434.30 -360.90 2359.4
447.47 -366.68 2397.2
479.79 -382.53 2500.8
494.91 -389.33 2545.3
501.85 -389.59 2547.0
523.27 -390.80 2554.8
-190.11 -393.33 2528.5
-175.57 -376.23 2418.6
-165.81 -368.48 2368.8
-161.63 -372.99 2397.8
-158.63 -380.72 2447.5
-152.44 -381.09 2449.9
-142.93 -372.86 2397.0
-133.25 -363.40 2336.2
-128.98 -368.52 2369.0
-123.67 -371.02 2385.1
-114.73 -362.32 2329.2
-106.31 -354.38 2278.2
-100.42 -354.42 2278.4
-95.91 -359.68 2312.2
-90.20 -360.79 2319.4
-85.05 -364.51 2343.3
-78.65 -363.01 2333.6
-70.83 -354.13 2276.5
-65.13 -355.23 2283.6
-59.26 -355.56 2285.8
-53.57 -357.12 2295.8
-48.52 -363.90 2339.4
-37.25 -372.54 2394.9
-29.62 -355.50 2285.3
-17.82 -356.44 2291.4
0.00 -371.82 2390.3
6.01 -360.60 2318.1
12.17 -365.05 2346.7
18.69 -373.80 2403.0
24.49 -367.34 2361.5
29.02 -348.27 2238.9
41.08 -352.09 2263.4
48.09 -360.67 2318.6
55.37 -369.11 2372.8
66.48 -362.60 2331.0
71.47 -357.35 2297.3
77.89 -359.48 2310.9
84.59 -362.52 2330.5
91.27 -365.09 2347.0
96.90 -363.37 2335.9
100.20 -353.65 2273.5
105.16 -350.54 2253.5
115.85 -365.85 2351.9
129.73 -370.67 2382.9
133.87 -365.09 2347.0
136.87 -357.06 2295.4
141.70 -354.24 2277.3
149.24 -358.17 2302.5
155.65 -359.19 2309.1
164.50 -365.56 2350.1
173.71 -372.24 2393.0
178.40 -369.11 2372.8
180.99 -361.99 2327.1
183.43 -355.02 2282.3
189.47 -355.25 2283.8
199.90 -363.45 2336.5
207.13 -365.51 2349.7
212.10 -363.60 2337.4
221.23 -368.72 2370.3
225.06 -364.96 2346.1
250.56 -375.84 2416.1
254.88 -372.99 2397.8
258.03 -368.61 2369.7
271.87 -379.36 2438.7
279.91 -381.70 2453.8
282.87 -377.16 2424.6
297.26 -387.73 2492.6
304.11 -388.23 2495.7
300.11 -375.14 2411.6
307.89 -377.01 2423.6
321.57 -385.88 2480.7
327.63 -385.45 2477.9
329.85 -380.60 2446.7
334.47 -378.64 2434.1
338.60 -376.23 2418.6
340.15 -371.07 2385.5
342.38 -366.83 2358.2
348.22 -366.55 2356.4
351.55 -363.67 2337.9
357.78 -363.84 2339.0
367.65 -367.65 2363.5
376.57 -370.40 2381.1
383.38 -371.01 2385.1
375.54 -357.66 2299.2
389.12 -359.19 2309.1
402.61 -366.01 2352.9
406.67 -364.19 2341.2
407.93 -359.94 2313.9
421.06 -366.14 2353.8
444.40 -370.34 2380.7
479.05 -388.42 2497.0
500.39 -400.31 2573.4
499.69 -389.37 2503.1
532.79 -404.65 2601.3
-188.70 -396.92 2509.8
-177.51 -386.71 2445.3
-170.37 -384.91 2433.9
-162.83 -382.02 2415.6
-157.23 -383.64 2425.8
-149.74 -380.58 2406.5
-138.99 -368.63 2330.9
-130.27 -361.20 2283.9
-126.78 -368.27 2328.7
-123.06 -375.34 2373.4
-115.52 -370.86 2345.0
-106.87 -362.17 2290.1
-100.81 -361.74 2287.4
-95.84 -365.37 2310.3
-89.59 -364.32 2303.7
-83.59 -364.20 2302.9
-76.36 -358.30 2265.6
-69.08 -351.14 2220.3
-63.64 -352.89 2231.4
-57.80 -352.60 2229.6
-52.00 -352.47 2228.7
-47.15 -359.51 2273.3
-42.28 -368.43 2329.7
-36.46 -370.63 2343.6
-29.15 -355.65 2248.9
-17.96 -365.20 2309.2
-12.43 -379.27 2398.2
-6.16 -375.68 2375.5
0.00 -376.46 2380.4
6.20 -378.18 2391.3
12.17 -371.30 2347.8
18.11 -368.32 2329.0
24.24 -369.72 2337.8
29.40 -358.62 2267.6
40.11 -349.53 2210.2
47.74 -364.04 2301.9
55.48 -376.05 2377.8
66.59 -369.28 2335.0
72.06 -366.29 2316.1
79.02 -370.79 2344.5
85.70 -373.41 2361.1
92.31 -375.40 2373.7
97.84 -373.02 2358.7
100.86 -361.90 2288.4
105.17 -356.40 2253.6
115.42 -370.55 2343.1
128.45 -373.11 2359.2
132.46 -367.28 2322.4
135.52 -359.43 2272.8
139.98 -355.79 2249.7
147.26 -359.32 2272.1
152.20 -357.08 2257.9
159.40 -360.13 2277.2
171.14 -372.85 2357.6
178.70 -375.89 2376.8
183.22 -372.55 2355.7
187.71 -369.36 2335.5
189.56 -361.34 2284.9
195.52 -361.42 2285.4
206.87 -371.15 2346.8
216.30 -376.98 2383.7
223.99 -379.54 2399.9
226.10 -372.76 2357.0
238.70 -373.35 2360.8
256.37 -390.97 2472.2
260.10 -386.98 2447.0
262.31 -380.98 2409.0
275.16 -390.34 2468.2
286.07 -396.60 2507.8
291.92 -395.71 2502.1
298.20 -395.44 2500.4
297.54 -386.17 2441.8
297.80 -378.45 2393.0
309.51 -385.31 2436.4
317.50 -387.35 2449.3
318.05 -380.41 2405.4
320.09 -375.49 2374.3
324.79 -373.81 2363.7
333.27 -376.47 2380.5
339.04 -376.03 2377.7
343.38 -374.04 2365.1
351.12 -375.76 2376.0
358.76 -377.32 2385.9
368.99 -381.50 2412.3
369.03 -375.18 2372.3
367.47 -367.47 2323.6
382.44 -376.28 2379.3
383.04 -370.88 2345.2
380.39 -362.56 2292.5
399.64 -375.05 2371.5
404.95 -374.27 2366.6
399.08 -363.34 2297.5
414.98 -372.26 2353.9
468.53 -396.95 2510.0
482.54 -403.21 2549.6
493.76 -407.02 2573.6
504.53 -410.35 2594.7
502.21 -397.85 2515.7
538.62 -405.63 2564.9
-189.73 -392.11 2439.4
-182.92 -391.08 2433.0
-179.58 -397.64 2473.8
-173.89 -399.30 2484.1
-167.61 -399.68 2486.5
-160.42 -397.85 2475.1
-151.70 -391.89 2438.0
-142.64 -384.51 2392.1
-135.33 -381.40 2372.7
-127.27 -375.74 2337.6
-119.69 -371.04 2308.3
-114.11 -372.35 2316.5
-107.24 -369.39 2298.0
-100.69 -367.21 2284.5
-95.18 -368.84 2294.6
-89.32 -369.19 2296.8
-83.62 -370.34 2303.9
-77.62 -370.21 2303.1
-71.48 -369.29 2297.4
-65.19 -367.41 2285.7
-58.50 -362.68 2256.3
-52.37 -360.80 2244.6
-47.17 -365.58 2274.3
-42.03 -372.26 2315.9
-36.00 -371.96 2314.0
-29.33 -363.72 2262.8
-23.39 -362.62 2255.9
-17.62 -364.06 2264.9
-11.59 -359.14 2234.3
-5.90 -365.65 2274.8
0.00 -376.92 2344.9
6.19 -383.74 2387.3
12.39 -384.22 2390.3
18.07 -373.42 2323.1
23.77 -368.49 2292.5
30.84 -382.44 2379.3
41.74 -369.72 2300.1
46.02 -356.69 2219.0
52.33 -360.48 2242.6
57.50 -356.49 2217.8
64.17 -361.70 2250.2
72.12 -372.62 2318.1
78.16 -372.75 2318.9
83.66 -370.49 2304.9
90.43 -373.79 2325.4
96.04 -372.17 2315.3
101.90 -371.65 2312.1
109.17 -376.05 2339.5
114.35 -373.15 2321.4
118.05 -365.97 2276.8
125.39 -370.20 2303.1
132.92 -374.58 2330.3
137.41 -370.41 2304.4
143.61 -370.98 2308.0
151.42 -375.52 2336.2
156.85 -374.03 2326.9
160.86 -369.37 2298.0
169.36 -375.01 2333.0
176.63 -377.63 2349.3
180.62 -373.28 2322.3
189.53 -379.06 2358.2
196.09 -379.93 2363.6
196.88 -369.89 2301.2
203.15 -370.44 2304.6
214.25 -379.53 2361.1
223.81 -385.44 2397.9
234.21 -392.46 2441.6
248.14 -394.48 2454.1
256.88 -398.17 2477.1
261.98 -396.17 2464.7
265.63 -392.12 2439.4
269.14 -388.07 2414.2
269.84 -380.23 2365.5
283.22 -390.21 2427.6
297.26 -400.66 2492.6
302.80 -399.43 2485.0
309.39 -399.63 2486.2
313.99 -397.30 2471.7
314.97 -390.56 2429.7
312.88 -380.36 2366.3
312.84 -373.00 2320.5
319.15 -373.34 2322.6
328.75 -377.46 2348.2
341.70 -385.18 2396.3
353.03 -390.86 2431.6
356.90 -388.20 2415.1
360.97 -385.86 2400.5
366.91 -385.56 2398.7
362.20 -374.28 2328.5
365.94 -371.94 2313.9
386.68 -386.68 2405.6
391.97 -385.74 2399.8
395.12 -382.77 2381.3
408.51 -389.66 2424.1
407.63 -382.92 2382.2
401.29 -371.34 2310.2
417.73 -380.88 2369.5
490.59 -411.03 2557.1
495.48 -409.59 2548.2
502.61 -410.02 2550.8
514.97 -414.65 2579.6
549.78 -420.82 2618.0
-192.87 -405.03 2479.7
-188.84 -410.25 2511.7
-182.15 -409.84 2509.2
-173.68 -405.25 2481.1
-153.91 -404.01 2473.5
-144.05 -394.57 2415.8
-135.78 -388.84 2380.6
-127.00 -381.00 2332.7
-120.31 -378.96 2320.2
-115.37 -382.55 2342.2
-108.35 -379.22 2321.7
-101.69 -376.85 2307.2
-96.04 -378.17 2315.4
-90.13 -378.53 2317.6
-83.48 -375.67 2300.0
-76.56 -371.03 2271.6
-71.48 -375.25 2297.5
-66.23 -379.31 2322.3
-59.39 -374.18 2290.9
-53.02 -371.14 2272.3
-47.93 -377.44 2310.9
-42.82 -385.36 2359.4
-36.79 -386.34 2365.4
-30.05 -378.62 2318.1
-23.76 -374.28 2291.5
-17.74 -372.52 2280.7
-11.53 -363.17 2223.5
-5.80 -365.11 2235.4
0.00 -373.17 2284.7
5.97 -376.23 2303.5
12.14 -382.52 2341.9
17.97 -377.35 2310.3
23.62 -372.02 2277.7
30.64 -386.04 2363.5
41.94 -377.46 2311.0
64.96 -372.06 2277.9
71.72 -376.54 2305.4
76.50 -370.71 2269.7
81.37 -366.17 2241.8
87.40 -367.10 2247.5
93.63 -368.67 2257.2
100.25 -371.53 2274.7
106.09 -371.33 2273.4
109.84 -364.20 2229.8
115.35 -363.35 2224.6
124.59 -373.76 2288.3
134.32 -384.65 2355.0
141.17 -386.69 2367.5
146.43 -384.38 2353.3
153.14 -385.92 2362.8
161.70 -391.81 2398.8
172.79 -388.78 2380.3
174.41 -378.90 2319.8
176.57 -370.79 2270.2
183.29 -372.49 2280.5
195.85 -385.58 2360.7
202.77 -387.11 2370.0
206.27 -382.21 2340.0
214.61 -386.29 2365.1
223.90 -391.82 2398.9
234.31 -398.95 2442.6
248.54 -401.48 2458.1
257.39 -405.39 2482.0
261.98 -402.56 2464.6
263.49 -395.24 2419.8
264.66 -387.76 2374.0
265.93 -380.76 2331.2
279.21 -390.90 2393.3
295.50 -404.71 2477.8
303.75 -407.15 2492.8
307.07 -403.03 2467.5
308.89 -397.14 2431.5
312.68 -393.98 2412.1
313.79 -387.62 2373.2
317.85 -385.09 2357.7
328.02 -389.91 2387.2
331.91 -387.22 2370.8
338.77 -388.05 2375.8
348.78 -392.38 2402.3
351.27 -388.25 2377.0
347.47 -377.42 2310.7
361.91 -380.00 2326.6
384.81 -384.81 2356.0
385.26 -379.24 2321.9
396.21 -384.02 2351.1
411.63 -392.92 2405.6
425.12 -399.74 2447.4
424.77 -393.53 2409.4
427.70 -390.51 2390.9
442.52 -398.27 2438.4
464.55 -412.21 2523.7
484.44 -412.43 2525.1
486.23 -408.44 2500.6
504.51 -418.21 2560.5
-201.94 -416.91 2512.7
-192.10 -409.82 2469.9
-187.21 -413.16 2490.0
-180.08 -411.60 2480.6
-170.99 -405.31 2442.7
-166.08 -408.81 2463.8
-159.78 -409.04 2465.2
-149.37 -398.32 2400.6
-141.35 -393.32 2370.4
-134.44 -391.09 2357.0
-128.08 -390.32 2352.4
-123.42 -394.95 2380.3
-117.12 -394.51 2377.6
-108.85 -387.04 2332.6
-102.21 -384.79 2319.1
-96.78 -387.13 2333.1
-89.09 -380.13 2291.0
-80.84 -369.53 2227.1
-75.20 -370.22 2231.2
-71.32 -380.40 2292.6
-66.65 -387.79 2337.1
-60.37 -386.34 2328.4
-52.68 -374.58 2257.5
-46.35 -370.84 2235.0
-42.07 -384.61 2317.9
-36.72 -391.66 2360.4
-30.61 -391.84 2361.5
-18.42 -393.00 2368.5
-11.89 -380.41 2292.6
11.71 -374.84 2259.1
17.53 -374.02 2254.1
23.23 -371.72 2240.3
30.14 -385.78 2325.0
37.36 -398.53 2401.9
41.76 -381.82 2301.2
45.82 -366.58 2209.3
51.82 -368.53 2221.0
59.06 -378.00 2278.1
65.08 -378.62 2281.9
69.64 -371.40 2238.3
75.60 -372.18 2243.1
81.94 -374.61 2257.7
87.29 -372.44 2244.6
92.98 -371.92 2241.5
97.17 -365.82 2204.7
118.21 -378.28 2279.8
124.64 -379.86 2289.4
131.18 -381.61 2299.9
138.53 -385.47 2323.2
144.47 -385.25 2321.8
151.61 -388.13 2339.2
160.84 -395.91 2386.0
166.86 -395.51 2383.7
168.65 -385.48 2323.2
174.05 -384.10 2314.9
180.32 -384.68 2318.4
183.92 -379.71 2288.4
193.16 -386.32 2328.3
202.35 -392.44 2365.1
207.83 -391.21 2357.7
215.50 -394.06 2374.9
223.99 -398.21 2399.9
224.41 -388.17 2339.4
234.64 -385.05 2320.6
250.97 -401.56 2420.1
263.02 -410.57 2474.4
271.82 -414.20 2496.3
273.95 -407.74 2457.4
275.88 -401.29 2418.5
275.67 -392.06 2362.9
278.79 -387.88 2337.7
299.80 -408.25 2460.4
315.35 -411.89 2482.4
317.12 -405.91 2446.4
317.67 -398.64 2402.5
320.76 -394.78 2379.2
331.92 -400.81 2415.6
337.11 -399.53 2407.9
332.64 -387.08 2332.8
336.99 -378.38 2280.4
352.66 -376.17 2267.1
371.96 -390.26 2352.0
370.40 -382.34 2304.3
372.56 -378.48 2281.0
387.53 -387.53 2335.6
399.00 -392.86 2367.7
415.29 -402.70 2427.0
430.19 -410.92 2476.5
430.08 -404.78 2439.5
435.87 -404.28 2436.5
454.15 -415.22 2502.5
463.83 -418.10 2519.8
471.59 -419.20 2526.4
483.43 -423.83 2554.3
484.06 -418.65 2523.1
482.65 -411.86 2482.2
496.10 -417.77 2517.8
515.53 -428.49 2582.4
526.66 -432.13 2604.4
526.42 -426.46 2570.2
-190.64 -413.06 2451.1
-182.11 -408.17 2422.1
-175.07 -406.42 2411.7
-165.96 -399.53 2370.9
-160.64 -401.59 2383.1
-153.97 -400.33 2375.6
-147.41 -399.23 2369.1
-142.40 -402.45 2388.1
-135.05 -399.02 2367.8
-128.34 -397.25 2357.3
-122.61 -398.47 2364.5
-115.37 -394.70 2342.2
-109.18 -394.25 2339.5
-104.47 -399.44 2370.3
-98.21 -398.99 2367.6
-89.86 -389.40 2310.7
-82.23 -381.79 2265.6
-77.16 -385.81 2289.4
-72.21 -391.16 2321.2
-66.48 -392.85 2331.2
-60.47 -393.04 2332.3
-53.04 -383.10 2273.3
-46.17 -375.15 2226.1
-41.49 -385.30 2286.4
-36.63 -396.78 2354.5
-30.91 -401.78 2384.2
-24.59 -399.63 2371.4
-17.92 -388.34 2304.4
-11.83 -384.52 2281.8
-5.83 -378.88 2248.3
5.81 -377.72 2241.4
11.96 -388.68 2306.4
17.85 -386.85 2295.6
23.16 -376.37 2233.4
29.51 -383.67 2276.7
43.46 -403.58 2394.8
48.77 -396.25 2351.3
60.88 -395.70 2348.1
64.06 -378.56 2246.4
69.91 -378.70 2247.2
77.36 -386.81 2295.4
82.84 -384.62 2282.3
87.22 -377.94 2242.7
92.16 -374.41 2221.8
118.88 -386.35 2292.6
128.66 -398.25 2363.2
133.26 -393.71 2336.3
138.53 -391.50 2323.2
142.94 -387.13 2297.2
148.62 -386.40 2292.9
157.72 -394.30 2339.8
163.55 -393.73 2336.4
165.65 -384.54 2281.9
171.39 -384.14 2279.5
181.09 -392.35 2328.2
188.59 -395.42 2346.5
197.48 -401.14 2380.4
206.39 -406.52 2412.3
211.47 -404.28 2399.0
218.08 -405.01 2403.4
223.99 -404.42 2399.9
221.59 -389.27 2310.0
232.26 -387.10 2297.1
246.19 -400.06 2374.0
256.03 -405.90 2408.7
272.03 -421.00 2498.2
283.93 -419.44 2489.0
284.36 -410.74 2437.3
288.14 -407.15 2416.0
310.75 -412.22 2446.1
312.17 -405.82 2408.2
312.23 -397.95 2361.4
314.69 -393.37 2334.3
325.47 -399.16 2368.7
335.33 -403.63 2395.2
335.29 -396.25 2351.4
348.41 -383.84 2277.8
354.94 -384.52 2281.8
362.57 -386.34 2292.6
369.77 -387.67 2300.4
382.27 -394.40 2340.4
393.67 -399.82 2372.6
401.29 -401.29 2381.3
414.12 -407.85 2420.2
424.27 -411.60 2442.5
424.25 -405.53 2406.5
430.13 -405.19 2404.5
447.09 -415.16 2463.6
454.89 -416.44 2471.2
467.24 -421.81 2503.1
484.70 -431.58 2561.0
482.19 -423.55 2513.4
497.04 -425.10 2522.6
518.41 -437.62 2596.8
529.38 -441.15 2617.8
528.38 -434.74 2579.8
-195.46 -430.00 2513.0
-184.17 -419.15 2449.6
-174.50 -411.32 2403.8
-168.78 -412.57 2411.1
-166.53 -422.74 2470.6
-155.82 -411.37 2404.1
-146.00 -401.50 2346.4
-142.34 -408.46 2387.1
-136.29 -408.86 2389.4
-126.41 -397.30 2321.9
-118.06 -389.60 2276.9
-112.75 -391.67 2289.0
-108.30 -397.11 2320.8
-103.86 -403.22 2356.5
-97.84 -403.60 2358.7
-90.93 -400.10 2338.3
-84.70 -399.30 2333.6
-78.06 -396.30 2316.0
-71.57 -393.64 2300.5
-65.50 -392.99 2296.7
-59.27 -391.16 2286.0
-53.23 -390.34 2281.2
-47.66 -393.23 2298.1
-41.91 -395.11 2309.1
-36.09 -396.98 2320.0
-30.32 -400.20 2338.8
-24.02 -396.33 2316.2
-17.75 -390.60 2282.8
-11.89 -392.30 2292.6
-6.04 -398.88 2331.1
0.00 -403.27 2356.7
6.01 -396.86 2319.3
11.77 -388.25 2269.0
18.22 -400.89 2342.9
24.54 -404.93 2366.5
41.49 -391.23 2286.4
59.96 -395.72 2312.6
64.94 -389.62 2277.0
72.89 -400.88 2342.8
79.82 -405.23 2368.3
84.56 -398.63 2329.6
87.95 -386.96 2261.4
91.63 -377.99 2209.0
119.75 -395.16 2309.4
128.13 -402.69 2353.4
130.79 -392.36 2293.0
138.94 -398.70 2330.1
146.55 -403.01 2355.3
149.44 -394.53 2305.7
155.66 -395.14 2309.3
166.37 -406.68 2376.7
173.29 -408.46 2387.1
176.41 -401.49 2346.4
183.76 -404.27 2362.6
187.32 -398.81 2330.7
192.10 -396.21 2315.5
207.73 -415.45 2428.0
219.33 -413.59 2417.1
218.58 -400.73 2341.9
226.67 -404.33 2363.0
236.03 -409.94 2395.7
236.92 -400.94 2343.2
238.46 -393.46 2299.4
249.25 -401.24 2344.9
266.47 -418.74 2447.2
272.75 -409.12 2391.0
285.38 -418.55 2446.1
307.54 -422.87 2471.3
302.17 -407.00 2378.6
305.32 -403.02 2355.3
310.68 -402.06 2349.7
318.51 -404.27 2362.6
328.82 -409.48 2393.1
338.33 -413.51 2416.6
336.12 -403.35 2357.2
348.36 -396.41 2316.7
355.57 -397.76 2324.6
360.25 -396.27 2315.9
365.19 -395.12 2309.1
369.78 -393.63 2300.5
387.35 -405.80 2371.6
404.16 -416.79 2435.8
405.39 -411.62 2405.6
412.45 -412.45 2410.4
427.47 -421.09 2460.9
432.46 -419.74 2453.1
444.36 -425.04 2484.0
491.66 -432.66 2528.6
-194.68 -434.79 2503.1
-183.28 -423.44 2437.7
-173.64 -415.50 2392.0
-168.16 -417.28 2402.2
-165.67 -426.91 2457.7
-154.92 -415.20 2390.3
-143.43 -400.40 2305.1
-138.76 -404.22 2327.1
-134.83 -410.60 2363.8
-126.73 -404.34 2327.7
-118.16 -395.85 2278.9
-112.90 -398.12 2291.9
-108.30 -403.12 2320.8
-103.69 -408.64 2352.5
-95.84 -401.33 2310.4
-87.41 -390.43 2247.7
-81.98 -392.35 2258.7
-76.00 -391.70 2255.0
-70.07 -391.22 2252.2
-64.54 -393.13 2263.2
-58.83 -394.18 2269.3
-53.39 -397.46 2288.1
-47.99 -401.93 2313.9
-42.28 -404.68 2329.7
-36.13 -403.50 2322.9
-30.15 -404.03 2326.0
-24.22 -405.75 2335.9
-18.08 -403.71 2324.1
-11.74 -393.45 2265.1
-5.77 -386.78 2226.7
0.00 -389.69 2243.4
18.08 -403.88 2325.1
30.00 -401.98 2314.2
48.95 -409.97 2360.2
55.89 -416.10 2395.5
59.55 -398.97 2296.8
65.10 -396.55 2282.9
74.20 -414.31 2385.1
84.63 -405.00 2331.6
85.65 -382.56 2202.4
98.05 -386.41 2224.6
107.71 -400.90 2308.0
126.25 -402.80 2318.9
129.16 -393.35 2264.5
137.65 -400.98 2308.4
146.12 -407.92 2348.4
149.89 -401.71 2312.6
157.85 -406.76 2341.7
187.20 -418.07 2406.8
185.42 -400.76 2307.1
192.75 -403.57 2323.3
208.99 -400.07 2303.2
223.37 -404.49 2328.6
232.64 -410.18 2361.4
233.45 -401.05 2308.8
238.76 -399.93 2302.4
253.83 -414.80 2388.0
263.16 -419.80 2416.7
261.49 -407.43 2345.6
266.04 -405.11 2332.2
283.54 -422.16 2430.4
293.49 -427.48 2461.0
297.40 -423.95 2440.7
305.95 -427.05 2458.5
311.97 -426.58 2455.8
312.92 -419.31 2414.0
315.59 -414.59 2386.8
317.59 -409.20 2355.7
322.38 -407.53 2346.1
334.36 -414.85 2388.3
334.03 -406.91 2342.6
343.77 -404.08 2326.3
355.68 -410.87 2365.4
358.40 -407.00 2343.1
363.43 -405.83 2336.3
369.19 -405.50 2334.5
371.50 -401.46 2311.2
388.14 -412.79 2376.4
401.40 -420.22 2419.2
397.35 -409.58 2357.9
405.46 -411.60 2369.6
422.56 -422.56 2432.7
440.67 -434.19 2499.6
517.98 -450.71 2594.7
-237.47 -461.38 2617.1
-203.25 -431.91 2449.9
-183.64 -430.61 2442.5
-172.07 -417.88 2370.3
-164.44 -414.14 2349.1
-160.43 -419.58 2380.0
-153.58 -417.74 2369.6
-145.32 -411.75 2335.5
-138.47 -409.38 2322.1
-132.86 -410.66 2329.4
-128.50 -416.09 2360.2
-123.01 -418.22 2372.3
-115.22 -412.38 2339.1
-108.58 -410.18 2326.6
-103.73 -414.91 2353.5
-95.76 -406.97 2308.4
-87.18 -395.21 2241.8
-81.66 -396.64 2249.8
-76.23 -398.76 2261.9
-70.77 -401.05 2274.8
-64.35 -397.78 2256.3
-57.81 -393.12 2229.9
-53.25 -402.34 2282.2
-48.73 -414.17 2349.3
-42.10 -408.98 2319.8
-35.20 -398.93 2262.8
-29.76 -404.67 2295.4
-24.22 -411.80 2335.9
-18.23 -413.20 2343.8
-11.94 -405.92 2302.5
-5.91 -401.93 2279.8
0.00 -409.57 2323.2
17.75 -402.44 2282.7
24.67 -419.44 2379.2
37.37 -423.58 2402.7
41.85 -406.55 2306.1
48.58 -412.95 2342.4
61.26 -416.55 2362.8
65.69 -406.11 2303.6
73.80 -418.23 2372.3
84.09 -408.44 2316.8
99.17 -396.69 2250.1
111.01 -419.37 2378.8
128.98 -417.65 2369.0
133.53 -412.74 2341.1
137.47 -406.44 2305.4
141.41 -400.66 2272.6
147.28 -400.59 2272.3
157.98 -413.17 2343.6
165.19 -416.05 2359.9
167.72 -407.31 2310.4
178.47 -418.49 2373.8
187.04 -423.95 2404.8
189.45 -415.56 2357.2
212.32 -424.64 2408.7
208.10 -404.31 2293.4
214.36 -404.91 2296.8
224.31 -412.25 2338.4
231.57 -414.39 2350.5
235.82 -411.18 2332.3
245.16 -416.77 2364.1
256.12 -424.78 2409.5
261.02 -422.60 2397.1
264.43 -418.17 2371.9
274.86 -424.78 2409.5
286.04 -432.25 2451.8
289.98 -428.67 2431.5
294.41 -425.96 2416.1
303.75 -430.31 2440.8
309.73 -429.83 2438.1
311.14 -423.15 2400.2
310.54 -414.06 2348.6
318.48 -408.62 2317.8
335.72 -422.76 2398.0
338.62 -418.65 2374.7
337.15 -409.40 2322.2
349.53 -416.98 2365.2
360.80 -423.01 2399.4
364.65 -420.28 2383.9
370.54 -419.95 2382.0
381.65 -425.45 2413.2
390.41 -428.19 2428.8
393.38 -424.60 2408.4
390.91 -415.34 2355.9
393.09 -411.23 2332.6
408.28 -420.65 2386.0
427.95 -434.34 2463.7
458.77 -439.39 2492.3
478.04 -451.48 2560.9
490.69 -457.08 2592.7
522.97 -461.84 2619.7
535.23 -460.71 2613.3
-204.06 -440.00 2459.6
-179.65 -427.44 2389.4
-174.06 -428.93 2397.7
-171.38 -437.96 2448.2
-165.98 -440.50 2462.4
-157.97 -436.00 2437.3
-145.87 -419.37 2344.3
-135.83 -407.48 2277.9
-132.07 -414.22 2315.5
-129.40 -425.18 2376.8
-122.29 -421.90 2358.4
-113.14 -410.87 2296.8
-106.19 -407.05 2275.4
-101.08 -410.26 2293.4
-95.35 -411.19 2298.6
-88.86 -408.77 2285.0
-83.73 -412.68 2306.9
-78.72 -417.82 2335.6
-71.97 -413.80 2313.2
-64.43 -404.15 2259.2
-57.35 -395.73 2212.2
-52.26 -400.68 2239.8
-47.93 -413.38 2310.8
-41.62 -410.23 2293.2
-34.94 -401.80 2246.1
-29.69 -409.74 2290.5
-24.27 -418.73 2340.7
-18.31 -421.03 2353.6
-12.34 -425.79 2380.2
5.88 -405.72 2268.0
24.33 -419.61 2345.6
48.93 -422.01 2359.1
54.21 -415.65 2323.5
59.95 -413.68 2312.5
65.47 -410.66 2295.6
71.32 -410.11 2292.5
77.39 -410.78 2296.3
83.37 -410.92 2297.0
88.06 -405.07 2264.4
93.59 -403.62 2256.3
102.64 -416.60 2328.8
110.55 -423.76 2368.9
117.01 -424.94 2375.5
120.76 -416.62 2328.9
122.61 -402.85 2252.0
129.89 -407.37 2277.2
136.65 -409.94 2291.6
141.04 -405.49 2266.7
147.47 -407.00 2275.2
155.52 -412.74 2307.2
159.62 -407.92 2280.3
169.39 -403.03 2253.0
182.76 -420.34 2349.7
189.60 -422.01 2359.1
198.36 -427.72 2391.0
206.61 -432.01 2415.0
210.67 -427.53 2389.9
213.61 -421.12 2354.1
220.31 -422.25 2360.4
231.17 -431.10 2409.9
234.17 -425.21 2376.9
234.63 -415.11 2320.5
242.72 -418.69 2340.5
252.78 -425.41 2378.1
255.57 -419.87 2347.1
257.11 -412.58 2306.3
264.36 -414.56 2317.4
272.11 -417.24 2332.4
284.49 -426.74 2385.5
297.26 -436.40 2439.5
299.84 -431.02 2409.5
299.17 -421.28 2355.0
303.53 -418.88 2341.5
306.02 -414.03 2314.4
325.72 -424.05 2370.4
340.08 -434.54 2429.1
338.61 -424.80 2374.7
331.63 -408.61 2284.2
339.44 -410.90 2297.0
358.01 -425.91 2380.9
369.26 -431.84 2414.0
370.08 -425.59 2379.1
375.33 -424.55 2373.3
386.34 -429.95 2403.5
391.46 -428.74 2396.7
394.45 -425.27 2377.3
402.09 -426.83 2386.0
417.74 -436.72 2441.3
437.54 -450.60 2518.9
436.16 -436.16 2438.2
447.22 -440.83 2464.2
480.50 -466.97 2610.4
489.58 -469.18 2622.8
489.74 -462.91 2587.7
499.56 -465.81 2603.9
508.52 -467.84 2615.3
512.20 -465.03 2599.5
520.04 -466.01 2605.0
-187.25 -436.92 2407.5
-171.49 -428.71 2362.3
-170.47 -441.97 2435.4
-166.70 -448.82 2473.1
-147.70 -430.78 2373.7
-136.76 -416.23 2293.5
-132.40 -421.29 2321.4
-127.85 -426.16 2348.2
-119.28 -417.48 2300.4
-110.28 -406.29 2238.8
-103.57 -402.77 2219.4
-98.13 -404.07 2226.5
-92.16 -403.22 2221.8
-87.41 -407.90 2247.6
-83.91 -419.54 2311.7
-78.09 -420.47 2316.9
-70.80 -413.01 2275.7
-64.74 -411.97 2270.0
-59.06 -413.42 2278.0
-52.10 -405.24 2232.9
-45.99 -402.40 2217.3
-41.26 -412.60 2273.5
-36.03 -420.29 2315.9
-30.05 -420.66 2317.9
-23.95 -419.07 2309.2
-18.00 -419.97 2314.1
-12.10 -423.37 2332.9
0.00 -434.27 2392.9
6.07 -425.16 2342.7
11.96 -418.73 2307.3
23.19 -405.86 2236.4
54.79 -426.12 2348.0
58.45 -409.14 2254.4
63.25 -402.51 2217.9
68.72 -400.87 2208.9
75.90 -408.69 2252.0
83.41 -417.04 2298.0
88.86 -414.68 2285.0
95.14 -416.24 2293.6
101.55 -418.16 2304.2
106.64 -414.73 2285.2
114.64 -422.35 2327.2
119.89 -419.62 2312.2
121.54 -405.12 2232.3
129.15 -410.95 2264.4
139.22 -423.72 2334.8
146.72 -427.93 2358.0
152.62 -427.33 2354.7
159.82 -430.29 2371.0
165.53 -429.15 2364.7
167.71 -419.27 2310.3
171.01 -412.79 2274.5
177.71 -414.66 2284.9
185.10 -417.97 2303.1
194.53 -425.53 2344.8
204.59 -433.98 2391.3
210.14 -432.65 2384.0
212.90 -425.79 2346.2
220.21 -428.18 2359.4
227.21 -429.86 2368.6
226.45 -417.14 2298.5
238.65 -417.64 2301.3
253.39 -432.62 2383.8
259.82 -433.04 2386.1
259.72 -422.81 2329.7
265.69 -422.69 2329.1
272.79 -424.34 2338.2
284.60 -433.08 2386.4
291.77 -434.55 2394.5
288.04 -420.06 2314.6
318.09 -428.20 2359.5
328.79 -434.25 2392.8
338.15 -438.34 2415.4
338.74 -431.12 2375.6
334.02 -417.53 2300.7
342.17 -420.21 2315.4
362.10 -437.01 2408.0
372.07 -441.44 2432.4
370.97 -432.80 2384.8
375.63 -431.05 2375.2
386.01 -435.82 2401.4
397.32 -441.46 2432.5
406.52 -444.63 2450.0
411.72 -443.39 2443.2
424.03 -449.73 2478.1
437.18 -456.75 2516.8
437.02 -449.87 2478.9
436.49 -442.82 2440.0
457.21 -457.21 2519.3
484.75 -477.92 2633.4
486.66 -473.14 2607.1
487.52 -467.48 2575.9
498.97 -472.00 2600.8
508.30 -474.41 2614.1
511.41 -471.03 2595.5
543.11 -469.35 2586.2
-198.33 -454.24 2467.7
-187.32 -443.32 2408.4
-182.36 -446.47 2425.5
-174.47 -442.40 2403.4
-169.85 -446.64 2426.4
-163.98 -447.80 2432.7
-155.03 -440.28 2391.9
-146.59 -433.67 2355.9
-138.22 -426.68 2318.0
-131.50 -424.40 2305.6
-124.90 -422.29 2294.1
-118.05 -419.09 2276.7
-110.47 -412.81 2242.6
-103.48 -408.16 2217.4
