ply
format ascii 1.0
element vertex 2297
property float x
property float y
property float z
end_header
107.43 405.84 2302.0
114.84 410.99 2331.3
123.77 420.82 2387.0
129.73 420.08 2382.8
134.71 416.38 2361.8
142.04 419.96 2382.1
150.09 425.26 2412.2
156.19 424.85 2409.9
161.02 421.14 2388.8
166.64 419.68 2380.6
176.63 428.96 2433.2
187.19 438.92 2489.7
190.63 432.09 2450.9
195.60 429.06 2433.7
206.43 438.66 2488.2
215.69 444.45 2521.1
229.10 458.19 2599.0
246.76 466.11 2643.9
252.90 464.79 2636.4
261.70 468.31 2656.4
267.33 466.12 2643.9
273.91 465.65 2641.3
279.44 463.46 2628.9
287.14 464.89 2637.0
-116.79 460.28 2649.8
-108.70 455.20 2620.5
-103.22 461.06 2654.3
-96.56 462.13 2660.4
-88.88 458.06 2637.0
-81.22 453.48 2610.7
-73.70 448.90 2584.3
-67.72 453.72 2612.0
-61.41 457.17 2631.9
-53.65 449.32 2586.7
-46.21 442.33 2546.5
-39.09 436.53 2513.1
-32.16 430.90 2480.6
-25.93 434.33 2500.4
-19.92 444.95 2561.6
-13.31 445.82 2566.5
-6.59 441.54 2541.9
0.00 443.08 2550.8
6.63 443.94 2555.7
13.06 437.43 2518.3
19.37 432.63 2490.6
25.95 434.68 2502.4
32.36 433.64 2496.4
39.23 438.07 2521.9
52.12 436.49 2512.8
57.43 427.57 2461.5
62.10 416.08 2395.3
66.26 403.56 2323.3
71.94 401.65 2312.3
79.62 410.34 2362.3
87.81 420.22 2419.2
93.76 418.82 2411.1
95.06 398.08 2291.7
107.98 401.93 2313.9
117.36 413.85 2382.5
126.17 422.68 2433.3
132.46 422.62 2433.0
136.90 416.93 2400.2
143.22 417.21 2401.8
154.01 429.95 2475.2
162.83 436.38 2512.2
167.26 431.01 2481.3
172.28 427.52 2461.2
179.70 430.01 2475.5
187.79 433.85 2497.7
195.29 436.16 2510.9
204.53 442.04 2544.8
211.49 442.81 2549.2
216.79 440.15 2533.9
225.91 445.17 2562.8
234.73 449.34 2586.8
239.55 445.82 2566.6
245.95 445.38 2564.0
257.47 453.96 2613.4
266.46 457.76 2635.3
274.95 460.54 2651.3
282.58 461.78 2658.4
287.26 458.25 2638.1
-118.62 460.51 2691.3
-111.69 460.73 2692.6
-103.23 454.20 2654.4
-94.25 444.30 2596.6
-86.49 439.12 2566.3
-78.83 433.59 2534.0
-70.84 425.02 2483.9
-64.43 425.22 2485.1
-59.92 439.41 2568.0
-53.76 443.48 2591.8
-46.50 438.45 2562.3
-39.55 435.09 2542.7
-32.21 425.16 2484.7
-25.69 423.82 2476.9
-19.43 427.54 2498.6
-12.76 421.14 2461.2
-6.50 429.24 2508.5
6.65 438.85 2564.7
12.88 425.19 2484.9
38.25 420.76 2459.0
45.27 426.81 2494.3
51.30 423.25 2473.5
57.25 419.85 2453.7
62.82 414.60 2423.0
79.92 405.74 2371.2
106.99 415.35 2427.4
114.37 419.35 2450.8
121.53 422.16 2467.2
128.27 423.29 2473.8
134.40 422.39 2468.5
138.92 416.77 2435.7
142.93 410.15 2397.0
151.33 416.15 2432.0
162.90 430.05 2513.3
169.78 430.99 2518.8
175.73 429.57 2510.5
183.99 433.70 2534.6
189.57 431.43 2521.3
194.46 427.82 2500.2
201.46 428.91 2506.6
206.12 425.12 2484.5
213.10 426.21 2490.8
223.67 434.18 2537.4
234.38 441.98 2583.0
241.12 442.05 2583.4
245.03 437.07 2554.3
253.52 440.32 2573.3
263.20 445.42 2603.1
272.22 449.16 2625.0
281.14 452.57 2644.9
287.81 452.28 2643.2
295.68 453.83 2652.3
-125.86 454.51 2697.1
-117.54 449.41 2666.8
-111.17 451.62 2679.9
-103.08 446.68 2650.7
-93.82 435.60 2584.9
-85.80 428.99 2545.7
-78.04 422.72 2508.4
-70.00 413.61 2454.4
-57.23 413.34 2452.8
-52.45 426.15 2528.8
-46.41 430.99 2557.5
-39.33 426.02 2528.1
-31.86 414.24 2458.1
-25.38 412.43 2447.4
-19.17 415.43 2465.2
-6.49 421.75 2502.7
0.00 431.56 2560.9
6.49 421.75 2502.7
12.81 416.43 2471.1
36.86 399.27 2369.3
43.78 406.57 2412.6
49.38 401.23 2380.9
54.95 396.89 2355.2
61.90 402.35 2387.5
65.86 389.20 2309.5
82.48 412.39 2447.1
92.81 402.18 2386.6
100.58 408.62 2424.8
109.16 417.37 2476.7
122.80 420.09 2492.9
127.10 413.07 2451.2
130.76 404.72 2401.6
139.71 412.79 2449.5
148.45 419.53 2489.5
153.23 414.99 2462.6
160.80 418.08 2480.9
168.46 421.16 2499.2
175.32 422.08 2504.6
182.50 423.66 2514.0
186.76 418.61 2484.1
189.65 410.91 2438.4
194.59 408.01 2421.2
202.13 410.58 2436.4
212.02 417.61 2478.1
219.35 419.34 2488.4
226.64 420.90 2497.7
237.00 427.92 2539.3
245.04 430.47 2554.4
253.82 434.17 2576.4
263.71 439.52 2608.1
271.52 441.22 2618.2
279.07 442.43 2625.4
285.37 441.65 2620.8
293.51 443.67 2632.8
301.81 445.86 2645.8
-127.62 453.75 2734.7
-118.76 447.10 2694.6
-111.95 447.80 2698.8
-103.89 443.27 2671.5
-94.61 432.51 2606.7
-86.93 427.97 2579.3
-79.51 424.08 2555.8
-71.57 416.42 2509.7
-64.25 411.21 2478.3
-45.15 412.75 2487.6
-38.68 412.61 2486.7
-25.53 408.54 2462.2
-19.58 417.72 2517.5
-13.15 420.84 2536.3
-6.57 420.35 2533.4
0.00 419.20 2526.5
6.44 412.33 2485.0
12.83 410.69 2475.1
19.24 410.35 2473.1
36.83 392.80 2367.4
44.23 404.41 2437.3
50.43 403.41 2431.2
54.24 385.71 2324.6
66.62 387.62 2336.1
75.07 400.36 2412.9
83.18 409.48 2467.9
86.17 393.91 2374.0
103.25 388.72 2342.7
112.40 399.63 2408.5
119.50 402.52 2425.9
124.24 397.57 2396.1
128.88 392.78 2367.2
138.59 403.18 2429.9
147.46 410.31 2472.9
152.56 406.82 2451.8
160.36 410.51 2474.1
168.27 414.20 2496.3
171.33 406.12 2447.6
174.93 399.85 2409.8
183.96 405.98 2446.7
191.72 409.00 2465.0
198.86 410.55 2474.3
208.66 417.32 2515.1
212.27 411.68 2481.1
213.55 401.97 2422.6
229.40 407.82 2457.9
239.96 415.06 2501.5
251.51 423.59 2552.9
260.05 426.74 2571.9
266.85 426.96 2573.2
276.47 431.57 2601.0
285.49 435.04 2621.9
-111.02 437.12 2676.3
-101.86 427.83 2619.3
-93.33 419.97 2571.3
-86.10 417.27 2554.7
-79.46 417.14 2553.9
-72.19 413.47 2531.4
-63.77 401.73 2459.6
-44.75 402.77 2465.9
-38.64 405.69 2483.8
-31.97 402.80 2466.1
-25.67 404.26 2475.1
-19.60 411.52 2519.5
-13.43 422.98 2589.7
6.57 413.95 2534.4
13.09 412.34 2524.5
19.57 411.04 2516.6
26.04 410.06 2510.6
32.62 411.02 2516.4
38.68 406.17 2486.8
45.06 405.51 2482.7
49.91 393.08 2406.6
68.82 394.13 2413.1
74.64 391.85 2399.1
79.55 385.53 2360.4
86.13 387.59 2373.0
91.01 382.24 2340.2
111.25 389.36 2383.9
129.20 406.97 2491.7
136.39 409.17 2505.1
137.30 393.18 2407.2
151.03 396.44 2427.2
170.66 413.52 2531.8
168.92 394.16 2413.2
174.22 391.99 2400.0
184.85 401.57 2458.6
195.32 410.17 2511.2
205.58 417.80 2558.0
212.25 417.88 2558.4
212.36 405.42 2482.2
217.54 403.08 2467.9
227.99 410.38 2512.5
235.46 412.05 2522.7
244.30 415.96 2546.7
257.03 426.13 2609.0
267.01 431.32 2640.7
271.75 428.00 2620.4
279.09 428.85 2625.6
288.49 432.74 2649.4
-127.03 437.56 2722.1
-118.21 431.11 2682.0
-110.28 427.35 2658.6
-100.87 416.92 2593.8
-92.00 407.45 2534.8
-84.97 405.26 2521.2
-78.44 405.30 2521.4
-70.90 399.62 2486.1
-45.07 399.23 2483.7
-38.82 401.16 2495.7
-31.87 395.14 2458.2
-19.14 395.48 2460.3
-12.97 402.15 2501.9
-6.62 410.56 2554.2
0.00 405.01 2519.7
6.47 401.04 2495.0
13.09 405.64 2523.6
19.70 407.22 2533.4
26.43 409.59 2548.2
32.52 403.23 2508.6
37.84 391.00 2432.5
44.23 391.78 2437.3
49.26 381.76 2375.0
61.52 381.40 2372.8
70.90 399.62 2486.1
75.90 392.13 2439.5
80.42 383.53 2386.0
86.52 383.18 2383.9
94.19 389.33 2422.1
99.89 387.07 2408.0
101.38 369.75 2300.3
108.53 373.83 2325.6
116.10 378.85 2356.9
120.15 372.47 2317.2
130.65 385.73 2399.7
135.00 380.44 2366.8
150.11 387.78 2412.4
169.87 405.07 2520.0
170.23 390.91 2431.9
177.29 392.58 2442.3
185.52 396.62 2467.5
193.56 400.02 2488.6
200.61 401.21 2496.0
204.01 395.28 2459.1
211.78 397.88 2475.3
224.73 409.81 2549.5
231.83 410.67 2554.8
235.55 405.67 2523.8
243.83 408.58 2541.9
256.55 418.59 2604.1
267.81 425.75 2648.7
273.99 424.69 2642.1
277.54 419.69 2611.0
281.88 416.10 2588.7
293.54 423.25 2633.1
-131.21 421.26 2663.7
-125.84 426.46 2696.6
-119.52 428.85 2711.7
-110.86 422.65 2672.5
-100.95 410.52 2595.8
-94.30 410.87 2598.0
-89.07 417.93 2642.7
-80.29 408.13 2580.7
-70.73 392.24 2480.2
-63.74 388.83 2458.6
-58.02 393.22 2486.4
-51.68 394.03 2491.5
-45.54 396.86 2509.4
-39.53 401.87 2541.1
-32.69 398.76 2521.5
-25.89 394.87 2496.8
-19.47 395.82 2502.8
-12.98 395.82 2502.9
-6.51 397.08 2510.8
0.00 397.39 2512.8
6.55 399.58 2526.6
13.11 399.73 2527.6
19.50 396.60 2507.8
26.26 400.49 2532.4
32.51 396.58 2507.6
37.55 381.72 2413.7
43.55 379.52 2399.8
50.22 382.94 2421.4
56.10 380.26 2404.5
62.28 379.93 2402.3
68.73 381.15 2410.1
73.22 372.22 2353.6
85.20 371.22 2347.3
94.81 385.55 2437.9
101.89 388.47 2456.4
104.68 375.63 2375.2
110.97 376.06 2377.9
117.36 376.79 2382.5
119.94 365.83 2313.2
128.55 373.42 2361.2
137.30 380.70 2407.2
142.58 378.15 2391.1
153.05 389.00 2459.7
165.53 403.90 2554.0
171.13 401.50 2538.8
173.75 392.55 2482.2
176.29 384.06 2428.5
188.89 384.07 2428.6
196.57 386.80 2445.8
205.89 392.48 2481.7
219.86 406.41 2569.8
226.13 405.70 2565.3
226.39 394.56 2494.9
232.43 393.85 2490.4
243.27 401.06 2536.0
256.27 411.38 2601.2
268.31 419.67 2653.7
275.63 420.34 2657.9
280.26 416.97 2636.6
305.89 424.07 2681.5
-119.04 420.14 2700.9
-108.77 407.90 2622.2
-99.68 398.73 2563.3
-93.65 401.38 2580.3
-87.87 405.56 2607.2
-78.51 392.54 2523.4
-70.48 384.42 2471.3
-64.79 388.75 2499.1
-59.51 396.77 2550.6
-53.58 401.86 2583.4
-46.83 401.42 2580.5
-40.27 402.66 2588.6
-19.99 399.78 2570.0
-13.02 390.72 2511.8
-6.64 398.25 2560.2
6.74 404.40 2599.7
13.35 400.40 2574.0
19.64 392.71 2524.6
26.14 392.09 2520.6
32.72 392.69 2524.4
38.28 382.84 2461.1
44.79 383.90 2467.9
52.02 390.18 2508.3
57.09 380.63 2446.9
62.26 373.54 2401.3
68.76 375.05 2411.0
73.71 368.57 2369.4
77.72 358.71 2306.0
85.05 364.51 2343.3
92.92 371.70 2389.5
97.80 366.74 2357.6
103.07 363.79 2338.6
112.21 374.03 2404.5
119.94 378.75 2434.8
124.24 372.71 2396.0
135.53 387.24 2489.4
168.35 404.04 2597.4
165.95 382.96 2461.9
171.40 380.90 2448.6
177.01 379.30 2438.3
195.46 378.31 2432.0
205.07 384.51 2471.9
217.92 396.23 2547.2
223.00 393.54 2529.9
226.92 389.01 2500.8
236.84 394.74 2537.6
245.82 398.62 2562.6
256.85 405.56 2607.2
269.51 414.64 2665.5
277.58 416.36 2676.6
285.28 417.48 2683.8
286.06 408.65 2627.1
301.86 411.63 2646.2
-128.83 400.07 2615.4
-125.66 411.90 2692.8
-116.78 405.30 2649.6
-108.08 398.54 2605.5
-100.18 394.05 2576.1
-92.40 389.40 2545.7
-85.24 386.87 2529.2
-77.86 382.82 2502.7
-71.49 383.45 2506.8
-64.43 380.15 2485.3
-58.04 380.48 2487.4
-53.01 390.93 2555.7
-47.05 396.55 2592.4
-40.34 396.71 2593.5
-33.76 398.39 2604.5
-19.97 392.67 2567.1
-12.95 381.94 2496.9
-6.57 387.84 2535.5
0.00 394.49 2579.0
6.66 392.98 2569.1
13.37 394.49 2579.0
19.97 392.67 2567.1
26.47 390.39 2552.2
32.93 388.56 2540.2
39.04 383.86 2509.5
46.17 389.14 2544.0
53.23 392.60 2566.6
58.15 381.24 2492.3
63.15 372.60 2435.9
69.43 372.42 2434.7
73.93 363.47 2376.2
96.77 356.84 2332.9
105.03 364.51 2383.0
111.93 366.89 2398.5
117.60 365.18 2387.4
124.03 365.89 2392.0
166.05 391.87 2561.9
165.08 374.61 2449.0
172.23 376.35 2460.4
179.94 379.15 2478.7
184.62 375.61 2455.6
209.58 374.71 2449.7
219.79 381.40 2493.4
228.80 385.69 2521.4
237.12 388.61 2540.5
244.78 390.32 2551.7
255.21 396.25 2590.5
266.63 403.37 2637.0
274.83 405.37 2650.1
282.36 406.32 2656.3
289.81 407.11 2661.5
295.53 405.49 2650.9
301.31 404.03 2641.3
-130.39 398.04 2647.1
-122.30 394.08 2620.7
-115.08 392.64 2611.1
-107.71 390.45 2596.6
-101.30 391.68 2604.8
-94.88 393.05 2613.9
-87.64 391.01 2600.3
-80.26 387.92 2579.8
-73.15 385.72 2565.1
-65.38 379.21 2521.8
-57.65 371.50 2470.6
-51.59 374.05 2487.5
-46.17 382.54 2544.0
-39.93 385.98 2566.8
-33.31 386.44 2569.9
-26.68 386.89 2572.9
-19.94 385.42 2563.1
-13.16 381.70 2538.4
-6.62 383.79 2552.3
0.00 386.77 2572.1
6.61 383.34 2549.3
13.19 382.45 2543.4
19.77 382.14 2541.4
26.35 382.14 2541.3
33.07 383.61 2551.1
39.53 382.11 2541.1
45.49 376.89 2506.4
51.00 369.74 2458.8
56.89 366.59 2437.9
63.12 366.12 2434.8
69.46 366.25 2435.6
73.96 357.45 2377.1
78.55 350.44 2330.5
85.37 353.68 2352.0
104.02 354.90 2360.2
111.88 360.51 2397.5
115.50 352.59 2344.8
134.94 372.69 2478.5
152.99 385.80 2565.6
158.76 383.66 2551.4
167.65 388.94 2586.6
173.59 387.24 2575.3
181.69 390.29 2595.5
190.39 394.37 2622.7
195.22 390.45 2596.6
197.77 382.36 2542.8
198.31 371.02 2467.4
203.60 369.02 2454.1
214.97 377.83 2512.7
225.61 384.86 2559.4
234.78 389.07 2587.4
243.55 392.38 2609.4
247.52 388.00 2580.3
253.95 387.61 2577.7
268.82 399.79 2658.7
283.40 400.91 2666.2
285.42 394.15 2621.2
294.88 397.74 2645.1
305.57 402.80 2678.7
-131.56 394.68 2670.8
-123.59 391.37 2648.4
-116.43 390.40 2641.8
-108.45 386.35 2614.4
-101.57 385.95 2611.7
-93.55 380.87 2577.3
-85.04 372.87 2523.2
-79.27 376.55 2548.1
-73.49 380.82 2577.0
-65.64 374.12 2531.7
-57.81 366.11 2477.4
-51.14 364.38 2465.7
-45.20 368.05 2490.5
-39.14 371.86 2516.4
-32.68 372.61 2521.4
-26.08 371.60 2514.6
-19.41 368.83 2495.8
-12.83 365.62 2474.1
-6.48 369.13 2497.9
0.00 376.15 2545.4
6.61 376.73 2549.3
13.29 378.77 2563.1
20.09 381.69 2582.9
26.41 376.27 2546.2
32.66 372.32 2519.4
40.25 382.39 2587.6
52.33 372.85 2523.1
56.93 360.56 2439.8
63.41 361.41 2445.6
69.94 362.41 2452.4
75.95 360.77 2441.3
82.07 359.87 2435.2
89.42 364.07 2463.6
94.34 358.49 2425.8
98.08 349.39 2364.3
105.11 352.42 2384.8
112.11 355.01 2402.3
133.00 361.00 2442.9
149.17 386.50 2615.4
155.58 385.56 2609.1
160.29 380.69 2576.1
168.22 383.55 2595.4
172.66 378.52 2561.4
179.34 378.60 2562.0
189.39 385.53 2608.9
195.52 384.30 2600.5
201.68 383.20 2593.1
205.43 377.73 2556.1
207.52 369.64 2501.3
215.73 372.62 2521.5
226.82 380.26 2573.2
236.66 385.42 2608.1
244.38 386.93 2618.3
247.23 380.87 2577.3
253.95 380.92 2577.7
269.12 393.34 2661.7
284.45 395.46 2676.0
289.38 392.73 2657.6
308.60 399.78 2705.3
-132.05 389.19 2680.7
-125.81 391.39 2695.8
-117.22 386.13 2659.6
-108.04 378.13 2604.5
-101.68 379.61 2614.6
-94.05 376.20 2591.1
-85.31 367.47 2531.0
-79.27 369.94 2548.1
-74.31 378.30 2605.6
-67.07 375.60 2587.0
-59.47 370.02 2548.6
-53.03 371.19 2556.7
-46.58 372.64 2566.7
-40.07 373.95 2575.7
-33.21 371.95 2561.9
-26.31 368.37 2537.3
-19.70 367.66 2532.4
-13.12 367.24 2529.4
-6.45 361.21 2487.9
6.48 363.08 2500.8
13.21 369.97 2548.2
19.80 369.67 2546.2
25.83 361.62 2490.8
32.43 363.19 2501.6
57.87 360.11 2480.3
63.07 353.19 2432.7
69.60 354.31 2440.4
75.40 351.85 2423.4
81.87 352.68 2429.2
89.67 358.68 2470.5
95.99 358.36 2468.3
101.56 355.45 2448.2
106.98 352.40 2427.2
112.15 348.91 2403.2
121.00 356.62 2456.3
134.67 359.11 2473.4
139.37 354.75 2443.5
153.22 373.06 2569.5
173.46 373.60 2573.2
176.50 366.08 2521.5
183.36 366.73 2525.9
191.51 369.81 2547.2
199.69 372.75 2567.4
204.80 369.95 2548.2
208.00 364.01 2507.2
215.47 365.65 2518.5
225.86 372.01 2562.3
234.60 375.36 2585.4
241.06 374.99 2582.8
246.66 373.32 2571.4
256.56 378.09 2604.2
264.84 380.29 2619.3
269.32 377.04 2597.0
280.27 382.80 2636.7
294.31 392.41 2702.9
297.94 388.02 2672.6
-127.01 388.07 2721.5
-117.30 379.51 2661.5
-107.63 369.96 2594.5
-100.83 369.72 2592.8
-94.37 370.74 2600.0
-86.50 365.98 2566.6
-78.81 361.21 2533.2
-72.53 362.65 2543.3
-66.71 366.91 2573.1
-60.32 368.62 2585.2
-53.44 367.37 2576.4
-46.67 366.69 2571.6
-40.34 369.81 2593.5
-33.57 369.26 2589.6
-26.35 362.35 2541.2
-19.53 357.98 2510.5
-13.15 361.66 2536.3
-6.55 360.25 2526.4
0.00 357.43 2506.6
6.60 363.07 2546.2
13.23 363.92 2552.2
19.51 357.70 2508.6
31.54 346.95 2433.2
38.57 353.58 2479.6
45.45 357.09 2504.3
52.41 360.32 2526.9
58.24 355.92 2496.1
63.73 350.54 2458.3
70.38 351.92 2468.0
76.84 352.18 2469.8
83.97 355.26 2491.4
90.13 354.09 2483.3
94.68 347.15 2434.6
102.21 351.35 2464.0
109.89 355.54 2493.4
112.79 344.64 2416.9
118.90 344.17 2413.7
129.39 355.83 2495.4
133.85 350.57 2458.5
163.17 373.94 2622.5
173.05 366.07 2567.3
175.81 358.12 2511.5
186.30 365.94 2566.4
197.96 375.45 2633.0
201.91 370.17 2596.0
203.13 360.38 2527.4
211.93 364.25 2554.5
224.92 374.86 2628.9
229.68 371.55 2605.6
232.63 365.56 2563.6
243.73 372.36 2611.3
254.12 377.75 2649.2
257.82 373.16 2617.0
259.46 365.91 2566.1
271.37 364.03 2552.9
290.02 379.79 2663.5
300.14 383.90 2692.3
304.11 380.14 2665.9
-133.26 378.75 2705.4
-124.93 374.78 2677.0
-117.08 371.92 2656.5
-108.98 367.80 2627.1
-101.95 367.01 2621.5
-95.30 367.60 2625.7
-87.77 364.58 2604.1
-80.38 361.70 2583.6
-72.47 355.77 2541.2
-65.45 353.44 2524.5
-58.66 351.93 2513.8
-51.44 347.24 2480.3
-45.23 348.92 2492.3
-39.42 354.76 2534.0
-33.13 357.82 2555.9
-26.24 354.23 2530.2
-19.70 354.51 2532.2
-13.43 362.70 2590.7
-6.63 357.99 2557.1
0.00 352.03 2514.5
6.64 358.82 2563.0
13.36 360.76 2576.8
20.13 362.28 2587.7
26.67 360.05 2571.8
32.93 355.60 2540.0
39.82 358.36 2559.7
45.46 350.72 2505.2
50.70 342.25 2444.6
57.08 342.51 2446.5
63.40 342.35 2445.3
70.41 345.65 2468.9
77.30 347.84 2484.6
84.37 350.45 2503.2
90.56 349.31 2495.0
96.13 346.09 2472.0
113.11 339.33 2423.8
125.44 338.69 2419.2
133.85 344.18 2458.4
140.43 344.68 2462.0
157.82 355.10 2536.4
168.34 363.62 2597.3
172.32 357.89 2556.3
176.77 353.54 2525.3
189.02 364.53 2603.8
203.44 366.19 2615.7
203.99 355.34 2538.1
212.25 358.17 2558.3
225.76 369.42 2638.7
230.55 366.16 2615.4
232.89 359.31 2566.5
243.72 365.58 2611.3
258.00 376.54 2689.5
265.58 377.41 2695.8
264.93 366.83 2620.2
265.53 358.46 2560.4
271.36 357.40 2552.9
286.05 367.78 2627.0
-141.13 374.00 2721.8
-132.39 369.29 2687.5
-125.25 368.79 2683.9
-118.26 368.69 2683.2
-110.33 365.47 2659.7
-103.44 365.51 2660.0
-97.64 369.62 2690.0
-82.87 366.01 2663.7
-74.16 357.33 2600.5
-66.12 350.41 2550.2
-58.54 344.72 2508.8
-39.45 348.45 2535.9
-33.26 352.54 2565.7
-26.59 352.28 2563.8
-20.13 355.69 2588.6
-13.58 359.92 2619.4
-6.62 350.80 2553.0
0.00 344.13 2504.5
6.61 350.39 2550.0
13.37 354.34 2578.7
20.23 357.46 2601.5
39.97 353.07 2569.5
44.62 337.82 2458.5
50.50 334.53 2434.6
57.80 340.37 2477.1
64.34 341.03 2481.9
71.59 344.95 2510.4
78.99 348.87 2538.9
100.60 355.44 2586.8
107.25 355.27 2585.5
114.76 337.92 2459.2
120.64 336.52 2449.0
127.18 337.02 2452.7
151.73 349.65 2544.6
159.05 351.23 2556.1
166.09 352.12 2562.6
173.18 353.01 2569.1
181.05 355.39 2586.4
187.51 354.92 2583.0
192.83 352.41 2564.7
198.90 351.39 2557.3
202.00 345.35 2513.4
210.11 348.00 2532.6
223.22 358.50 2609.0
228.02 355.44 2586.8
230.37 348.85 2538.8
242.06 356.36 2593.5
257.52 368.88 2684.6
269.71 366.53 2667.5
269.30 356.82 2596.8
274.28 354.56 2580.4
286.58 361.64 2631.9
304.30 375.07 2729.6
-168.36 380.65 2823.5
-159.43 376.84 2795.2
-132.77 363.38 2695.4
-125.25 361.82 2683.8
-119.26 364.80 2705.9
-112.09 364.30 2702.3
-102.52 355.40 2636.2
-94.40 350.62 2600.8
-88.33 353.32 2620.8
-80.62 349.35 2591.3
-73.54 347.64 2578.6
-66.86 347.66 2578.8
-59.37 343.01 2544.3
-52.34 340.22 2523.6
-32.91 342.27 2538.8
-26.52 344.82 2557.7
-19.97 346.16 2567.7
-13.39 348.04 2581.6
-6.63 344.84 2557.9
0.00 344.04 2551.9
6.65 345.91 2565.8
13.28 345.23 2560.8
19.90 344.96 2558.8
26.37 342.82 2542.9
32.63 339.33 2517.0
38.35 332.37 2465.4
51.36 333.81 2476.1
58.67 339.00 2514.6
65.24 339.25 2516.4
72.80 344.17 2552.9
80.37 348.28 2583.4
108.07 351.22 2605.2
115.16 352.25 2612.8
121.55 351.14 2604.6
127.31 348.43 2584.5
133.69 347.59 2578.2
138.41 342.74 2542.3
145.27 343.35 2546.9
153.67 347.44 2577.1
160.15 346.98 2573.8
167.95 349.33 2591.2
175.83 351.67 2608.5
180.56 347.74 2579.4
184.05 341.82 2535.5
216.90 352.47 2614.4
224.39 353.59 2622.8
223.83 342.33 2539.3
238.18 344.04 2551.9
249.00 349.94 2595.7
254.21 347.86 2580.3
263.32 351.10 2604.3
270.82 352.07 2611.5
276.89 351.18 2604.9
290.33 359.45 2666.3
303.09 366.52 2718.7
307.69 363.63 2697.3
314.59 363.53 2696.5
-159.82 370.50 2802.1
-139.17 354.89 2684.1
-128.53 344.99 2609.2
-122.33 346.60 2621.4
-117.47 352.40 2665.2
-112.05 357.16 2701.2
-104.09 353.92 2676.7
-94.32 343.60 2598.7
-86.66 339.97 2571.2
-79.57 338.16 2557.5
-73.06 338.71 2561.7
-67.81 345.81 2615.4
-61.56 348.85 2638.3
-54.50 347.42 2627.6
-47.20 343.90 2600.9
-39.72 337.63 2553.5
-33.09 337.51 2552.6
-27.18 346.56 2621.0
-13.76 350.77 2652.9
-6.69 340.94 2578.5
0.00 340.55 2575.6
6.72 342.78 2592.4
13.35 340.41 2574.6
19.91 338.44 2559.6
26.28 335.03 2533.8
32.33 329.77 2494.1
38.61 328.19 2482.1
45.10 328.57 2485.0
52.09 332.09 2511.6
58.90 333.77 2524.3
64.72 330.08 2496.4
71.27 330.46 2499.2
77.90 331.09 2504.0
85.92 337.08 2549.4
95.33 347.27 2626.4
101.32 344.49 2605.4
108.10 344.58 2606.1
131.50 352.97 2669.6
136.91 349.13 2640.5
140.88 342.15 2587.7
147.40 341.71 2584.3
155.20 344.14 2602.8
159.83 339.64 2568.7
165.37 337.36 2551.5
175.36 343.98 2601.5
182.14 344.05 2602.0
190.65 347.25 2626.3
199.06 350.06 2647.5
202.42 344.12 2602.6
212.07 348.88 2638.6
220.42 351.29 2656.8
220.83 341.29 2581.2
224.26 336.38 2544.1
230.98 336.57 2545.5
240.56 340.80 2577.5
248.99 343.20 2595.6
254.39 341.42 2582.1
263.91 345.11 2610.1
273.06 348.15 2633.1
281.18 349.75 2645.2
290.75 353.05 2670.1
299.01 354.64 2682.2
307.90 356.89 2699.2
-159.42 362.33 2795.1
-140.14 350.36 2702.8
-129.15 339.88 2621.9
-122.69 340.82 2629.2
-117.99 347.02 2677.0
-112.79 352.45 2718.9
-105.25 350.82 2706.3
-95.83 342.25 2640.2
-87.66 337.14 2600.8
-80.12 333.82 2575.2
-72.23 328.32 2532.8
-65.88 329.38 2540.9
-60.36 335.31 2586.7
-53.88 336.74 2597.7
-47.97 342.67 2643.5
-41.60 346.67 2674.3
-33.61 336.14 2593.1
-26.76 334.48 2580.3
-20.48 341.30 2632.9
-13.43 335.65 2589.3
-6.69 334.50 2580.4
0.00 343.62 2650.8
6.75 337.58 2604.2
13.09 327.17 2523.8
19.86 331.02 2553.6
26.65 333.07 2569.4
32.32 323.16 2492.9
44.72 319.41 2464.0
52.11 325.69 2512.4
59.38 329.91 2545.0
65.77 328.86 2536.9
72.23 328.32 2532.8
78.76 328.17 2531.6
85.25 327.89 2529.4
92.81 331.45 2556.9
101.28 337.59 2604.3
131.35 345.66 2666.5
134.85 337.14 2600.8
140.50 334.52 2580.6
148.75 338.07 2608.0
157.73 342.90 2645.2
163.58 340.79 2629.0
167.80 335.60 2589.0
176.02 338.50 2611.3
184.77 342.16 2639.5
213.01 343.56 2650.3
214.75 335.55 2588.5
222.60 337.27 2601.8
233.65 343.60 2650.6
238.58 340.83 2629.3
246.26 342.03 2638.6
256.64 346.82 2675.4
264.20 347.63 2681.7
270.78 347.15 2678.1
276.94 346.17 2670.5
282.95 345.06 2661.9
290.52 345.86 2668.0
300.43 349.34 2694.9
310.82 353.20 2724.7
-158.35 352.68 2776.2
-141.73 347.24 2733.4
-131.59 339.36 2671.3
-122.41 333.23 2623.1
-115.58 333.14 2622.4
-110.19 337.46 2656.4
-102.50 334.85 2635.8
-93.59 327.58 2578.6
-85.81 323.45 2546.1
-79.71 325.49 2562.2
-73.19 326.02 2566.3
-66.54 326.04 2566.5
-60.86 331.35 2608.3
-53.92 330.24 2599.6
-47.67 333.66 2626.5
-34.56 338.73 2666.3
-26.31 322.35 2537.5
-13.17 322.62 2539.6
-6.87 336.48 2648.7
0.00 342.28 2694.3
6.78 332.32 2616.0
13.11 321.23 2528.6
19.88 324.63 2555.4
26.80 328.28 2584.1
32.66 320.07 2519.5
39.05 318.93 2510.5
46.64 326.48 2569.9
53.22 325.96 2565.8
59.47 323.80 2548.8
65.79 322.39 2537.8
72.14 321.36 2529.6
81.32 332.04 2613.7
96.54 337.90 2659.9
102.74 335.60 2641.8
110.73 339.10 2669.3
117.50 338.68 2666.0
124.17 338.01 2660.7
128.95 332.56 2617.8
134.03 328.36 2584.8
141.14 329.33 2592.4
150.44 335.07 2637.5
166.59 340.12 2677.3
170.68 334.53 2633.4
178.21 335.86 2643.8
186.42 338.32 2663.1
192.50 336.87 2651.8
198.22 334.92 2636.4
207.40 338.75 2666.6
214.43 338.94 2668.0
219.00 335.35 2639.8
229.94 341.43 2687.7
236.42 340.73 2682.1
236.51 331.11 2606.4
243.76 331.79 2611.7
253.98 336.35 2647.7
261.66 337.40 2655.9
268.37 337.19 2654.2
271.50 332.59 2618.0
274.54 328.11 2582.8
286.43 334.16 2630.4
301.19 343.21 2701.7
311.82 347.25 2733.4
-151.27 345.77 2778.5
-141.31 339.15 2725.3
-132.12 333.77 2682.1
-123.65 329.74 2649.7
-113.52 320.53 2575.7
-99.34 317.88 2554.4
-80.05 320.19 2572.9
-74.29 324.16 2604.9
-68.39 328.26 2637.8
-62.01 330.75 2657.8
-54.39 326.32 2622.2
-47.45 325.35 2614.4
-41.24 329.93 2651.2
-34.65 332.66 2673.2
-27.07 324.89 2610.7
-19.85 317.61 2552.2
-13.64 327.25 2629.7
-6.94 333.30 2678.3
0.00 329.85 2650.6
6.75 323.92 2602.9
13.17 316.14 2540.4
19.95 319.22 2565.1
26.85 322.17 2588.9
33.07 317.47 2551.1
40.02 320.18 2572.8
60.60 323.22 2597.3
65.94 316.53 2543.5
71.40 311.57 2503.7
79.49 317.96 2555.1
88.62 327.19 2629.2
93.88 321.86 2586.4
100.26 320.84 2578.2
108.42 325.25 2613.6
111.99 316.21 2541.0
133.50 320.41 2574.7
144.58 330.48 2655.6
166.21 332.42 2671.3
168.62 323.74 2601.5
174.26 321.72 2585.2
182.39 324.25 2605.6
188.82 323.70 2601.1
191.44 316.86 2546.2
215.53 333.73 2681.7
229.18 323.55 2599.9
231.65 317.69 2552.9
241.81 322.42 2590.8
250.27 324.67 2609.0
256.10 323.49 2599.5
269.66 331.89 2666.9
279.88 335.85 2698.8
278.62 326.18 2621.1
286.30 327.20 2629.3
300.29 335.21 2693.7
309.78 337.94 2715.6
319.03 340.29 2734.5
327.08 341.30 2742.6
333.00 340.09 2732.9
-143.62 337.51 2769.8
-134.70 333.20 2734.5
-127.35 332.52 2728.9
-118.36 327.24 2685.5
-109.11 320.51 2630.3
-101.95 319.45 2621.6
-93.87 315.13 2586.2
-86.74 313.59 2573.5
-80.38 314.82 2583.6
-73.57 314.36 2579.9
-68.07 319.95 2625.7
-62.06 324.08 2659.6
-54.71 321.44 2637.9
-47.98 322.18 2644.0
-41.33 323.76 2657.0
-34.34 322.81 2649.2
-27.64 324.75 2665.1
-20.99 328.87 2699.0
-14.01 329.24 2702.0
-6.88 323.56 2655.4
0.00 321.63 2639.5
6.75 317.27 2603.7
13.19 309.89 2543.2
19.99 313.15 2569.9
26.86 315.56 2589.7
32.99 310.11 2545.0
39.73 311.19 2553.8
47.64 319.88 2625.2
54.94 322.77 2648.8
60.67 316.82 2600.1
65.42 307.49 2523.5
78.81 308.66 2533.0
88.44 319.75 2624.1
94.12 315.98 2593.1
101.26 317.28 2603.8
110.26 323.89 2658.1
114.69 317.09 2602.2
134.78 316.73 2599.3
146.19 327.20 2685.2
171.17 321.81 2641.0
174.72 315.84 2592.0
180.44 314.09 2577.7
187.66 315.00 2585.1
212.97 322.90 2649.9
225.60 321.32 2636.9
228.82 316.30 2595.8
237.73 319.24 2619.9
248.34 324.23 2660.8
257.36 326.92 2682.9
258.61 319.86 2625.0
267.24 322.06 2643.1
291.44 326.14 2676.5
295.77 323.28 2653.1
298.62 318.98 2617.8
333.96 327.00 2683.6
-152.34 333.69 2798.1
-132.40 320.54 2687.7
-124.15 317.26 2660.3
-116.69 315.76 2647.7
-108.65 312.36 2619.2
-103.14 316.30 2652.2
-96.67 317.63 2663.4
-88.00 311.39 2611.0
-80.19 307.39 2577.5
-73.20 306.11 2566.8
-67.58 310.87 2606.7
-63.03 322.13 2701.1
-48.92 321.46 2695.5
-41.08 314.96 2641.0
-34.58 318.17 2667.9
-14.11 324.59 2721.7
-6.98 321.04 2691.9
0.00 321.63 2696.9
6.95 319.73 2681.0
13.69 314.87 2640.3
20.85 319.72 2680.9
34.27 315.33 2644.0
40.90 313.54 2629.1
68.09 313.24 2626.5
88.57 313.40 2627.9
95.63 314.20 2634.6
101.56 311.45 2611.5
109.35 314.38 2636.1
116.69 315.76 2647.7
122.71 313.60 2629.5
128.98 312.26 2618.3
136.26 313.40 2627.9
142.35 311.82 2614.6
151.99 317.80 2664.8
166.25 318.65 2671.9
170.52 313.76 2630.9
177.64 314.29 2635.4
194.46 308.45 2586.4
207.75 318.55 2671.1
214.63 318.48 2670.5
217.32 312.40 2619.5
220.34 307.14 2575.4
227.14 307.31 2576.8
236.28 310.54 2603.9
247.04 315.66 2646.8
255.92 318.18 2667.9
256.84 310.91 2607.0
260.23 306.94 2573.7
272.78 313.69 2630.4
287.39 322.44 2703.7
294.75 322.83 2706.9
299.82 320.74 2689.4
303.21 317.00 2658.0
324.68 317.77 2664.5
-152.49 326.77 2800.9
-133.22 315.51 2704.4
-123.40 308.49 2644.2
-114.37 302.74 2594.9
-107.20 301.50 2584.3
-102.48 307.43 2635.1
-97.06 311.98 2674.1
-89.40 309.46 2652.5
-80.40 301.49 2584.2
-66.91 301.07 2580.6
-62.61 313.03 2683.1
-48.59 312.36 2677.4
-41.03 307.74 2637.8
-34.84 313.55 2687.5
-27.81 312.86 2681.7
-20.46 306.96 2631.1
-13.61 306.27 2625.2
-6.78 305.11 2615.3
0.00 312.99 2682.8
7.09 319.13 2735.4
14.02 315.42 2703.6
35.19 316.68 2714.4
40.72 305.43 2617.9
47.17 303.21 2598.9
54.60 307.13 2632.6
61.72 308.62 2645.3
68.63 308.84 2647.2
73.14 299.20 2564.6
86.89 300.77 2578.1
94.00 302.14 2589.7
99.58 298.75 2560.7
106.87 300.57 2576.3
113.89 301.46 2584.0
123.44 308.61 2645.2
133.66 316.56 2713.3
139.23 313.27 2685.2
143.42 307.33 2634.3
151.42 309.72 2654.7
160.58 314.18 2693.0
162.17 304.07 2606.3
177.43 307.09 2632.2
184.78 307.96 2639.7
196.16 304.38 2609.0
207.97 311.95 2673.8
213.66 310.15 2658.5
220.51 310.09 2657.9
227.52 310.25 2659.3
229.39 303.60 2602.3
233.57 300.30 2574.0
243.33 304.16 2607.1
251.26 305.58 2619.3
280.13 307.46 2635.4
291.62 312.45 2678.1
301.01 315.01 2700.1
308.37 315.38 2703.3
310.22 310.22 2659.1
326.10 312.22 2676.2
-143.54 315.80 2768.4
-134.38 311.20 2728.0
-124.96 305.46 2677.7
-118.34 306.29 2685.0
-113.08 310.96 2726.0
-104.52 306.58 2687.6
-95.65 300.61 2635.2
-89.59 303.24 2658.3
-82.09 301.00 2638.6
-73.81 295.24 2588.2
-68.50 301.38 2642.0
-62.95 307.75 2697.8
-55.81 306.97 2691.0
-48.53 305.06 2674.2
-41.63 305.30 2676.3
-34.89 307.01 2691.3
-27.43 301.69 2644.7
-20.21 296.49 2599.1
-13.51 297.28 2606.1
-6.71 295.25 2588.2
0.00 301.94 2646.8
7.11 312.81 2742.2
14.26 313.72 2750.1
34.00 299.19 2622.8
52.41 288.27 2527.1
58.71 287.01 2516.0
74.07 296.26 2597.1
90.36 305.84 2681.1
100.73 295.48 2590.3
109.83 302.02 2647.6
115.54 299.04 2621.5
123.57 302.06 2648.0
133.30 308.71 2706.2
138.55 304.82 2672.1
144.71 303.19 2657.9
154.91 309.83 2716.0
171.65 302.10 2648.3
182.36 308.61 2705.4
202.70 307.54 2696.0
206.56 302.96 2655.8
212.05 300.98 2638.4
219.09 301.25 2640.9
229.36 305.82 2680.9
234.34 303.27 2658.5
237.14 298.12 2613.4
245.71 300.31 2632.6
253.99 302.04 2647.8
255.33 295.65 2591.7
259.69 292.98 2568.3
272.84 300.12 2630.9
282.52 303.20 2657.9
289.87 303.68 2662.1
301.10 308.10 2700.9
310.60 310.60 2722.8
316.19 309.16 2710.2
323.35 309.29 2711.3
325.47 304.70 2671.0
331.68 304.04 2665.3
-143.33 308.16 2764.2
-133.39 301.89 2708.0
-124.53 297.50 2668.6
-118.33 299.30 2684.8
-112.86 303.32 2720.8
-104.08 298.37 2676.4
-95.64 293.75 2635.0
-89.99 297.65 2670.0
-83.20 298.12 2674.1
-75.62 295.59 2651.5
-68.70 295.39 2649.7
-61.76 295.08 2646.9
-54.63 293.66 2634.1
-47.43 291.34 2613.4
-40.69 291.58 2615.5
-34.18 293.92 2636.4
-27.39 294.48 2641.5
-20.66 296.15 2656.5
-14.11 303.35 2721.1
0.00 301.92 2708.2
6.92 297.59 2669.5
14.26 306.57 2749.9
28.59 307.33 2756.8
33.11 284.72 2554.0
52.63 282.91 2537.7
59.56 284.56 2552.5
66.20 284.65 2553.3
76.27 298.14 2674.4
85.08 304.87 2734.7
88.72 293.44 2632.2
92.32 283.56 2543.6
110.68 297.45 2668.2
117.85 298.09 2673.9
123.89 295.95 2654.7
131.63 297.90 2672.2
137.41 295.43 2650.0
144.37 295.61 2651.7
150.37 293.91 2636.4
157.48 294.42 2641.0
166.71 298.69 2679.3
172.53 296.76 2662.0
183.95 304.23 2728.9
205.62 294.72 2643.7
208.05 288.59 2588.7
215.46 289.52 2597.0
226.04 294.54 2642.0
235.89 298.34 2676.1
243.05 298.60 2678.5
247.53 295.66 2652.1
251.97 292.83 2626.7
258.04 291.99 2619.2
267.16 294.56 2642.2
277.32 298.12 2674.2
283.86 297.71 2670.5
290.49 297.41 2667.8
300.96 300.96 2699.7
319.32 298.50 2677.6
-134.95 298.30 2739.5
-125.96 293.90 2699.1
-117.36 289.94 2662.7
-109.81 288.24 2647.1
-104.92 293.78 2698.0
-91.05 294.16 2701.5
-81.21 284.23 2610.3
-74.14 283.07 2599.6
-67.76 284.60 2613.7
-60.80 283.75 2605.9
-53.72 282.04 2590.1
-47.41 284.43 2612.1
-41.56 290.94 2671.9
-34.66 291.17 2674.0
-27.54 289.12 2655.2
-20.69 289.67 2660.2
-14.10 296.17 2719.9
-7.10 298.01 2736.8
0.00 288.27 2647.4
6.80 285.67 2623.5
14.10 296.17 2719.9
28.60 300.27 2757.6
34.60 290.62 2669.0
41.22 288.56 2650.0
53.89 282.90 2598.1
61.87 288.73 2651.6
69.80 293.15 2692.2
77.11 294.43 2703.9
82.57 288.99 2654.0
88.87 287.13 2636.9
95.56 286.67 2632.7
102.10 285.89 2625.5
111.41 292.46 2685.8
120.42 297.51 2732.2
141.62 297.40 2731.2
146.35 292.71 2688.2
150.02 286.40 2630.2
175.98 284.27 2610.7
190.35 296.10 2719.3
197.15 295.73 2715.8
212.17 287.46 2639.9
216.75 284.49 2612.6
224.24 285.40 2621.0
230.98 285.33 2620.4
243.02 291.63 2678.2
254.70 289.12 2655.2
258.21 285.39 2620.9
266.83 287.36 2639.0
276.37 290.19 2665.0
283.42 290.33 2666.3
290.47 290.47 2667.6
294.11 287.27 2638.2
298.38 284.82 2615.7
313.48 292.58 2687.0
320.47 292.60 2687.2
-156.06 290.84 2736.2
-148.56 290.04 2728.6
-144.28 295.78 2782.6
-136.89 295.40 2779.0
-127.85 291.21 2739.6
-119.10 287.23 2702.2
-108.85 278.92 2624.0
-101.47 277.36 2609.3
-98.40 288.16 2711.0
-91.18 287.56 2705.2
-82.13 280.61 2639.9
-75.80 282.53 2658.0
-69.02 282.97 2662.1
-61.68 280.98 2643.4
-54.62 279.94 2633.6
-48.36 283.23 2664.6
-42.01 287.05 2700.5
-34.69 284.42 2675.7
-27.49 281.78 2650.9
-20.57 281.16 2645.0
-13.99 286.87 2698.8
-7.04 288.67 2715.7
0.00 280.42 2638.1
6.82 279.68 2631.2
14.06 288.14 2710.7
21.72 296.80 2792.2
28.66 293.73 2763.3
35.06 287.48 2704.5
42.84 292.76 2754.2
49.89 292.22 2749.1
56.83 291.25 2740.0
70.98 291.00 2737.7
75.66 282.00 2653.0
82.50 281.87 2651.8
90.24 284.60 2677.4
98.51 288.48 2713.9
106.96 292.36 2750.4
127.85 291.21 2739.6
132.44 285.79 2688.6
139.96 286.91 2699.2
147.15 287.30 2702.8
154.42 287.78 2707.4
159.94 285.10 2682.2
162.66 277.88 2614.2
170.51 279.63 2630.7
179.64 283.28 2665.0
189.15 287.23 2702.2
196.92 288.34 2712.6
211.83 280.17 2635.7
238.15 278.97 2624.5
249.89 284.59 2677.3
254.77 282.31 2655.9
259.35 279.82 2632.5
269.61 283.43 2666.5
277.58 284.52 2676.6
282.55 282.55 2658.1
288.50 281.63 2649.5
291.21 277.67 2612.2
295.53 275.38 2590.7
310.23 282.65 2659.1
-146.92 279.85 2698.6
-138.76 277.52 2676.1
-131.54 276.94 2670.5
-115.54 271.85 2621.4
-96.58 275.95 2661.0
-90.63 278.87 2689.1
-82.74 275.80 2659.5
-76.33 277.57 2676.6
-69.55 278.21 2682.7
-62.69 278.64 2686.9
-56.10 280.51 2704.9
-48.69 278.25 2683.2
-41.34 275.59 2657.4
-34.85 278.79 2688.4
-20.99 279.84 2698.4
-14.06 281.18 2711.4
0.00 285.83 2756.2
7.16 286.34 2761.2
21.74 289.84 2794.9
27.27 272.72 2629.8
50.23 287.02 2767.7
75.88 275.92 2660.7
81.84 272.81 2630.6
89.73 276.08 2662.2
97.70 279.15 2691.8
105.79 282.11 2720.4
113.25 283.11 2730.0
117.95 277.52 2676.1
128.80 271.17 2614.8
140.87 281.74 2716.8
148.49 282.84 2727.4
156.61 284.75 2745.8
172.04 286.73 2764.9
175.76 281.22 2711.8
180.96 278.40 2684.5
190.52 282.26 2721.8
198.27 283.24 2731.2
211.09 272.38 2626.5
236.23 269.98 2603.4
246.81 274.23 2644.4
251.13 271.50 2618.0
255.42 268.86 2592.6
264.58 271.36 2616.7
271.80 271.80 2621.0
281.47 274.60 2648.0
292.35 278.43 2684.8
292.06 271.68 2619.8
304.20 270.40 2607.4
320.76 278.92 2689.6
-171.77 279.13 2760.6
-163.16 276.66 2736.2
-155.64 275.90 2728.7
-123.14 266.80 2638.7
-117.23 268.94 2659.9
-107.71 262.54 2596.5
-97.22 270.83 2678.6
-90.99 272.97 2699.7
-81.99 266.46 2635.3
-74.62 264.57 2616.6
-67.66 263.88 2609.8
-60.74 263.19 2603.0
-54.49 265.62 2627.0
-47.43 264.23 2613.2
-40.88 265.75 2628.3
-35.06 273.50 2705.0
-14.03 273.52 2705.2
-6.78 264.27 2613.7
0.00 273.22 2702.2
21.74 282.57 2794.7
56.90 277.39 2743.4
64.50 279.49 2764.2
84.99 276.21 2731.8
91.90 275.69 2726.6
99.79 277.97 2749.2
107.48 279.45 2763.8
113.61 276.91 2738.7
116.18 266.53 2636.0
129.23 265.26 2623.5
140.75 274.47 2714.5
147.07 273.13 2701.2
153.77 272.58 2695.9
161.21 273.35 2703.4
166.21 270.09 2671.2
168.80 263.32 2604.3
175.45 263.18 2602.9
186.68 269.65 2666.9
194.28 270.61 2676.3
203.50 273.67 2706.6
211.78 266.44 2635.1
214.70 261.67 2588.0
221.88 262.22 2593.4
226.63 259.95 2571.0
235.13 262.00 2591.2
246.50 267.05 2641.1
251.58 265.18 2622.6
254.80 261.51 2586.4
262.94 262.94 2600.5
272.39 265.58 2626.6
284.70 270.81 2678.3
296.62 275.44 2724.1
297.65 269.96 2669.9
319.20 270.62 2676.5
-172.99 273.90 2780.2
-162.61 268.66 2727.0
-153.75 265.57 2695.6
-146.94 265.90 2699.0
-142.34 270.44 2745.0
-135.48 270.96 2750.4
-127.86 269.92 2739.8
-120.46 269.26 2733.1
-109.80 260.77 2646.9
-101.71 257.66 2615.4
-98.26 266.70 2707.1
-90.54 264.67 2686.5
-80.06 253.52 2573.3
-53.80 255.55 2593.9
-34.57 262.74 2666.9
-13.80 262.17 2661.1
0.00 261.88 2658.1
7.19 273.15 2772.6
28.76 273.23 2773.4
34.17 259.70 2636.0
56.65 269.07 2731.2
63.52 268.18 2722.1
70.59 268.26 2722.9
86.28 273.22 2773.2
91.15 266.43 2704.4
96.81 262.78 2667.3
106.39 269.52 2735.7
114.50 271.94 2760.3
117.83 263.39 2673.5
121.18 255.81 2596.6
130.73 261.46 2653.9
141.97 269.75 2738.1
143.97 260.51 2644.3
155.80 257.40 2612.7
162.73 257.66 2615.3
170.77 259.57 2634.7
183.66 268.43 2724.7
189.79 267.11 2711.3
192.75 261.59 2655.2
198.18 259.68 2635.8
203.27 257.48 2613.5
222.87 256.63 2604.9
232.54 259.90 2638.0
238.51 258.96 2628.5
247.31 261.05 2649.7
255.45 262.35 2662.9
261.50 261.50 2654.4
270.52 263.58 2675.5
281.08 267.03 2710.4
287.08 266.08 2700.8
292.39 264.54 2685.2
299.27 264.47 2684.5
303.09 261.76 2657.0
311.28 262.85 2668.1
-174.64 269.24 2806.7
-164.72 264.99 2762.4
-155.32 261.22 2723.1
-148.01 260.78 2718.5
-142.53 263.67 2748.7
-134.98 262.85 2740.1
-126.45 259.92 2709.6
-118.30 257.47 2684.1
-111.56 257.98 2689.4
-106.96 263.83 2750.3
-90.53 257.67 2686.2
-79.99 246.62 2571.0
-66.87 247.42 2579.3
-61.86 254.31 2651.1
-55.65 257.38 2683.1
-47.85 252.91 2636.5
-40.73 251.20 2618.7
-34.98 258.85 2698.4
-13.95 258.00 2689.6
-6.94 256.67 2675.7
0.00 254.38 2651.8
6.86 253.81 2645.8
14.10 260.77 2718.5
28.76 266.01 2773.1
34.73 257.03 2679.5
41.21 254.16 2649.5
50.32 265.99 2772.8
58.21 269.22 2806.5
62.79 258.13 2690.9
69.22 256.11 2669.9
77.41 260.39 2714.4
86.11 265.52 2768.0
93.52 266.17 2774.7
97.24 256.98 2678.9
104.67 258.20 2691.6
112.38 259.89 2709.2
114.66 249.56 2601.5
131.99 257.03 2679.5
147.25 259.44 2704.6
174.87 258.81 2698.0
195.82 258.77 2697.6
199.79 254.91 2657.3
203.63 251.14 2618.1
223.77 250.89 2615.5
233.21 253.79 2645.6
238.75 252.40 2631.2
248.57 255.47 2663.3
257.60 257.60 2685.4
262.35 255.45 2662.9
270.29 256.43 2673.2
278.99 258.07 2690.3
283.47 255.82 2666.8
288.26 253.94 2647.3
294.49 253.40 2641.6
298.88 251.33 2620.1
307.66 252.97 2637.1
324.54 261.04 2721.3
-166.36 260.39 2789.9
-155.41 254.31 2724.7
-147.12 252.21 2702.3
-140.65 253.17 2712.6
-135.99 257.66 2760.7
-129.78 259.55 2780.9
-121.70 257.72 2761.3
-106.83 256.39 2747.0
-97.26 250.10 2679.6
-90.12 249.56 2673.9
-82.51 247.54 2652.2
-74.56 244.03 2614.6
-68.44 246.37 2639.6
-62.27 249.08 2668.7
-55.09 247.88 2655.9
-47.84 246.04 2636.1
-41.21 247.26 2649.2
-34.46 248.10 2658.2
-27.58 248.20 2659.3
-20.75 248.95 2667.3
-13.71 246.72 2643.5
-6.92 249.05 2668.4
0.00 251.28 2692.3
6.90 248.31 2660.4
14.04 252.76 2708.2
21.26 255.08 2733.0
27.63 248.67 2664.3
34.47 248.19 2659.2
42.49 254.97 2731.8
49.25 253.28 2713.8
62.69 250.75 2686.6
78.08 255.55 2738.0
81.68 245.03 2625.3
92.60 256.43 2747.5
100.22 257.71 2761.2
106.63 255.92 2742.0
113.07 254.41 2725.8
115.83 245.28 2628.0
121.79 243.58 2609.8
132.12 250.33 2682.1
142.41 256.33 2746.4
147.94 253.60 2717.2
168.31 252.47 2705.0
173.69 250.11 2679.8
179.27 248.21 2659.4
203.95 253.17 2712.6
206.38 247.66 2653.5
209.63 243.44 2608.3
217.83 245.06 2625.6
226.96 247.60 2652.8
232.22 245.88 2634.4
238.00 244.80 2622.9
247.98 247.98 2657.0
255.09 248.20 2659.3
258.31 244.72 2622.0
266.04 245.58 2631.2
274.85 247.36 2650.3
275.44 241.85 2591.2
288.82 241.80 2590.8
300.98 246.26 2638.5
308.08 246.46 2640.7
322.97 252.76 2708.1
336.07 252.05 2700.5
-164.98 251.06 2766.7
-155.39 247.21 2724.4
-148.08 246.80 2719.8
-141.56 247.73 2730.1
-136.66 251.74 2774.3
-102.44 239.03 2634.2
-93.92 234.81 2587.7
-87.86 236.54 2606.8
-81.42 237.47 2617.0
-74.67 237.58 2618.2
-68.17 238.59 2629.3
-61.63 239.69 2641.4
-54.33 237.71 2619.7
-46.97 234.83 2587.9
-40.57 236.65 2608.0
-34.00 238.01 2623.0
-27.22 238.20 2625.1
-20.50 239.11 2635.1
-13.58 237.58 2618.2
-6.90 241.65 2663.1
0.00 249.87 2753.7
7.23 253.03 2788.5
14.35 251.04 2766.6
21.06 245.71 2707.8
27.59 241.45 2660.9
34.79 243.53 2683.7
43.33 252.73 2785.2
50.92 254.62 2806.0
56.65 247.83 2731.2
77.65 247.06 2722.7
88.87 239.25 2636.7
97.86 244.65 2696.2
105.81 246.88 2720.8
111.74 244.42 2693.6
121.64 236.51 2606.5
133.08 245.15 2701.6
156.07 248.30 2736.3
182.92 246.24 2713.7
190.62 247.10 2723.2
197.07 246.34 2714.7
197.95 238.90 2632.8
203.88 237.86 2621.3
210.24 237.36 2615.9
218.87 239.39 2638.1
228.46 242.31 2670.3
233.67 240.54 2650.9
239.41 239.41 2638.4
247.12 240.25 2647.7
252.30 238.66 2630.2
255.64 235.46 2594.8
262.90 235.94 2600.1
276.45 241.90 2665.8
282.13 240.84 2654.2
284.41 237.01 2611.9
299.81 244.03 2689.4
310.54 247.02 2722.2
316.00 245.78 2708.6
-169.26 239.78 2720.2
-161.58 238.85 2709.7
-155.43 240.21 2725.0
-149.14 241.47 2739.3
-143.50 243.96 2767.6
-135.46 242.41 2750.0
-128.40 242.53 2751.3
-113.66 241.53 2740.0
-101.85 230.85 2618.9
-88.42 231.24 2623.3
-82.89 234.86 2664.4
-76.05 235.05 2666.6
-69.32 235.69 2673.7
-62.60 236.49 2682.9
-55.01 233.78 2652.1
-48.10 233.62 2650.3
-42.05 238.28 2703.2
-34.42 234.08 2655.5
-20.53 232.68 2639.7
-13.88 236.02 2677.6
-7.12 242.08 2746.3
21.66 245.50 2785.1
27.97 237.77 2697.4
49.94 242.57 2751.9
99.83 242.45 2750.5
105.72 239.62 2718.4
109.37 232.40 2636.5
122.82 232.00 2631.9
130.61 233.73 2651.5
138.71 235.80 2675.0
149.74 242.43 2750.3
193.29 234.71 2662.7
196.05 229.85 2607.6
203.54 230.68 2617.0
206.77 226.78 2572.8
222.06 228.79 2595.5
227.42 227.42 2580.0
233.88 227.20 2577.5
242.17 228.72 2594.7
251.22 230.85 2618.9
258.14 230.97 2620.2
265.97 231.87 2630.4
280.11 238.10 2701.1
288.83 239.52 2717.2
294.07 238.06 2700.6
313.88 237.15 2690.4
316.63 234.03 2655.0
326.31 236.05 2677.9
333.76 236.41 2682.0
342.99 237.99 2699.9
-172.14 236.69 2766.6
-164.58 236.14 2760.0
-155.01 232.51 2717.7
-145.98 229.40 2681.2
-142.61 235.30 2750.3
-136.38 236.86 2768.5
-127.12 233.06 2724.1
-120.12 233.17 2725.4
-110.88 228.69 2672.9
-81.83 225.02 2630.1
-75.84 227.51 2659.2
-69.21 228.38 2669.4
-62.52 229.24 2679.5
-55.41 228.58 2671.7
-48.96 230.80 2697.7
-27.38 225.88 2640.2
-20.36 223.93 2617.4
-14.04 231.69 2708.1
7.22 238.34 2785.8
14.41 237.74 2778.8
21.02 231.26 2703.0
28.49 235.01 2746.8
36.12 238.41 2786.6
41.24 226.81 2651.0
48.96 230.80 2697.7
57.15 235.73 2755.3
64.36 235.98 2758.2
87.40 240.36 2809.4
91.05 231.14 2701.6
97.43 229.67 2684.4
104.35 229.56 2683.2
123.69 226.76 2650.4
131.72 228.78 2674.0
135.90 224.23 2620.9
191.47 234.02 2735.3
192.47 226.84 2651.4
197.74 225.01 2630.0
205.44 225.99 2641.4
208.97 222.46 2600.1
221.68 221.68 2591.1
227.56 220.87 2581.6
234.65 221.24 2586.0
244.73 224.33 2622.1
255.65 228.01 2665.1
263.67 228.97 2676.3
272.64 230.70 2696.5
279.25 230.38 2692.8
279.73 225.15 2631.6
286.15 224.83 2627.9
301.49 231.38 2704.4
312.91 229.47 2682.1
311.74 223.64 2614.0
317.22 222.73 2603.3
-174.10 232.13 2798.0
-165.98 230.93 2783.5
-155.89 226.75 2733.2
-139.90 223.84 2698.1
-133.91 225.52 2718.4
-124.78 221.84 2673.9
-118.39 222.85 2686.2
-109.70 219.41 2644.6
-80.79 215.44 2596.8
-74.75 217.44 2620.9
-68.14 218.03 2628.1
-61.91 220.11 2653.2
-55.26 221.04 2664.3
-48.46 221.54 2670.4
-20.85 222.40 2680.7
-13.99 223.81 2697.7
-7.06 225.88 2722.6
28.30 226.36 2728.5
49.55 226.50 2730.2
55.05 220.21 2654.3
61.44 218.46 2633.2
69.01 220.84 2662.0
78.72 229.01 2760.4
86.15 229.74 2769.2
126.41 224.73 2708.8
149.21 227.36 2740.5
175.91 225.16 2714.0
183.85 226.28 2727.5
187.69 222.44 2681.3
192.15 219.60 2647.0
198.97 219.56 2646.5
208.04 221.91 2674.8
212.45 219.31 2643.4
217.53 217.53 2622.0
226.49 219.63 2647.3
233.39 219.66 2647.7
239.93 219.36 2644.1
249.50 221.78 2673.2
258.94 223.95 2699.4
265.38 223.48 2693.7
279.79 218.37 2632.2
281.25 214.29 2582.9
291.84 217.18 2617.8
298.32 216.96 2615.1
307.55 218.70 2636.1
318.06 221.26 2667.0
327.29 222.84 2686.0
336.86 224.57 2706.9
343.89 224.58 2707.0
-173.33 223.88 2785.6
-162.87 219.52 2731.4
-155.93 219.71 2733.8
-147.50 217.74 2709.3
-141.94 220.01 2737.5
-135.70 221.40 2754.8
-125.51 216.15 2689.4
-118.37 215.85 2685.7
-111.75 216.52 2694.0
-103.15 213.18 2652.4
-95.16 210.72 2621.8
-88.51 211.06 2626.0
-83.22 215.00 2675.1
-77.23 217.66 2708.2
-69.49 215.43 2680.5
-62.22 214.32 2666.7
-55.75 216.02 2687.8
-49.12 217.55 2706.8
-42.33 218.68 2720.9
-27.98 216.85 2698.2
-20.30 209.81 2610.5
-13.51 209.33 2604.6
13.66 211.65 2633.5
21.55 222.70 2771.0
28.52 221.02 2750.0
34.99 216.93 2699.1
42.70 220.60 2744.8
49.78 220.43 2742.7
55.21 213.93 2661.8
70.68 219.11 2726.3
99.39 220.08 2738.4
106.17 219.42 2730.1
114.06 221.00 2749.8
121.71 221.94 2761.4
146.20 215.82 2685.4
154.39 217.55 2706.9
162.51 219.04 2725.4
169.24 218.61 2720.0
190.72 218.97 2724.6
195.73 216.70 2696.2
203.13 217.14 2701.7
209.86 216.85 2698.2
212.18 212.18 2640.0
218.15 211.34 2629.5
227.81 214.00 2662.7
234.40 213.72 2659.1
240.61 213.11 2651.6
251.13 216.25 2690.7
264.36 215.67 2683.4
271.65 215.93 2686.7
285.09 210.42 2618.1
288.70 208.13 2589.7
318.84 214.87 2673.5
-165.87 216.35 2781.7
-154.48 210.66 2708.4
-149.38 213.40 2743.7
-127.53 212.55 2732.8
-118.35 208.86 2685.3
-110.00 206.24 2651.7
-104.45 208.90 2685.9
-99.09 212.33 2730.0
-90.54 208.94 2686.4
-83.46 208.65 2682.6
-76.34 208.20 2676.8
-67.62 202.86 2608.2
-60.91 203.03 2610.4
-54.91 205.91 2647.4
-48.36 207.24 2664.5
-41.64 208.18 2676.6
-34.98 209.89 2698.6
-27.55 206.64 2656.8
-6.85 205.41 2641.0
0.00 212.31 2729.8
6.98 209.52 2693.9
14.28 214.17 2753.6
21.72 217.19 2792.5
27.61 207.11 2662.8
34.88 209.27 2690.6
50.87 218.02 2803.1
55.74 209.01 2687.3
61.98 206.60 2656.3
71.37 214.10 2752.8
102.09 218.76 2812.7
141.82 212.73 2735.1
143.31 204.72 2632.2
153.40 209.18 2689.5
191.11 212.34 2730.1
192.52 206.27 2652.0
196.37 203.14 2611.8
209.90 203.13 2611.7
222.65 208.73 2683.7
228.20 207.45 2667.2
231.12 203.93 2621.9
237.23 203.34 2614.4
247.47 206.23 2651.5
258.57 209.65 2695.5
263.24 207.82 2672.0
265.79 204.45 2628.7
276.13 207.10 2662.7
297.23 212.31 2729.7
298.37 208.16 2676.4
300.25 204.71 2632.0
305.48 203.65 2618.4
323.63 211.06 2713.6
333.33 212.77 2735.6
331.33 207.08 2662.5
342.52 209.71 2696.3
347.61 208.56 2681.5
374.72 216.19 2779.5
-157.75 207.94 2765.7
-134.38 205.11 2728.0
-124.86 201.16 2675.5
-117.10 199.76 2656.9
-109.11 197.76 2630.3
-103.81 200.70 2669.5
-83.17 200.98 2673.2
-61.22 197.28 2623.9
-54.71 198.34 2638.0
-47.70 197.60 2628.2
-40.25 194.53 2587.4
-27.42 198.82 2644.4
-21.10 203.92 2712.3
-13.90 201.53 2680.4
-7.18 208.13 2768.2
7.15 207.30 2757.2
14.06 203.85 2711.3
20.46 197.77 2630.5
27.26 197.62 2628.4
36.13 209.53 2786.9
51.01 211.32 2810.6
54.55 197.74 2630.0
86.33 208.63 2774.8
93.08 207.63 2761.6
106.76 206.40 2745.2
131.68 200.99 2673.2
138.49 200.81 2670.9
146.32 202.06 2687.4
151.39 199.56 2654.2
158.36 199.68 2655.8
170.98 206.60 2747.9
185.43 199.17 2649.1
212.10 198.42 2639.1
222.20 201.37 2678.3
225.52 198.18 2636.0
233.18 198.89 2645.3
244.49 202.58 2694.4
249.28 200.81 2670.9
254.91 199.79 2657.3
263.00 200.71 2669.6
269.45 200.36 2664.9
274.95 199.34 2651.3
283.86 200.78 2670.5
290.38 200.50 2666.8
291.46 196.57 2614.5
301.32 198.60 2641.5
316.05 203.68 2709.0
327.70 206.60 2747.8
329.18 203.11 2701.4
346.26 200.83 2671.2
361.44 205.52 2733.6
373.46 208.28 2770.2
-166.71 202.95 2795.7
-141.51 198.12 2729.2
-134.26 197.85 2725.5
-128.46 199.83 2752.8
-119.14 196.24 2703.3
-109.83 192.21 2647.8
-103.37 192.95 2658.0
-98.98 197.96 2727.0
-83.58 195.03 2686.6
-74.55 189.76 2614.1
-69.02 193.25 2662.1
-62.24 193.62 2667.3
-54.02 189.07 2604.6
-48.21 192.85 2656.6
-41.82 195.17 2688.6
-34.04 190.62 2625.9
-27.99 195.91 2698.8
7.17 200.63 2763.7
14.23 199.18 2743.7
20.65 192.73 2654.9
27.38 191.64 2639.9
35.81 200.54 2762.5
50.58 202.33 2787.2
55.22 193.27 2662.4
61.82 192.32 2649.3
72.25 202.30 2786.7
91.92 197.98 2727.3
116.45 203.78 2807.2
125.63 195.42 2692.0
128.52 189.39 2609.0
138.10 193.34 2663.4
144.93 193.25 2662.1
156.79 190.88 2629.4
170.27 198.65 2736.5
189.65 196.67 2709.3
194.40 194.40 2677.9
197.86 191.04 2631.7
206.97 193.17 2661.0
214.78 193.99 2672.4
218.69 191.36 2636.0
224.46 190.45 2623.5
234.01 192.71 2654.7
243.45 194.76 2682.9
246.64 191.83 2642.6
253.43 191.79 2642.0
262.66 193.54 2666.1
268.80 192.99 2658.5
273.77 191.64 2639.9
275.37 188.06 2590.6
308.25 191.80 2642.2
322.21 196.13 2701.8
328.76 195.85 2698.0
330.60 192.85 2656.6
341.77 195.30 2690.4
360.43 201.84 2780.5
384.25 203.00 2796.4
386.66 200.49 2761.9
399.03 203.14 2798.4
-173.53 195.22 2788.8
-165.01 193.71 2767.3
-157.86 193.74 2767.7
-149.41 192.10 2744.2
-141.07 190.45 2720.7
-135.85 193.05 2757.9
-129.37 194.05 2772.2
-119.43 189.68 2709.7
-110.76 186.91 2670.2
-104.82 188.68 2695.4
-98.57 190.09 2715.6
-91.26 189.55 2707.8
-83.07 186.91 2670.2
-75.39 185.04 2643.5
-68.67 185.40 2648.6
-60.76 182.27 2603.9
-47.91 184.81 2640.1
-42.09 189.42 2706.1
-34.81 187.96 2685.2
-7.05 190.42 2720.3
14.43 194.75 2782.2
21.04 189.37 2705.3
27.75 187.34 2676.3
42.75 192.36 2747.9
55.50 187.31 2675.9
86.86 195.43 2791.8
104.86 188.75 2696.4
115.68 195.21 2788.8
120.84 191.91 2741.6
127.37 191.06 2729.4
136.20 193.54 2764.9
143.50 193.73 2767.5
148.05 190.35 2719.3
153.72 188.65 2695.0
163.35 191.76 2739.4
168.38 189.43 2706.2
174.21 188.15 2687.8
196.60 189.58 2708.3
198.05 184.39 2634.1
207.47 186.72 2667.4
215.62 187.80 2682.8
219.56 185.25 2646.5
224.75 183.89 2627.0
230.99 183.43 2620.5
236.92 182.76 2610.9
243.07 182.30 2604.3
252.72 184.41 2634.5
