ply
format ascii 1.0
element vertex 2075
property float x
property float y
property float z
end_header
-1592.42 897.74 2061.1
-1614.81 913.43 2097.2
-1613.29 931.39 2138.4
-1628.27 943.27 2165.7
-1588.46 953.07 2188.2
-1583.41 953.45 2189.1
-1613.65 975.15 2238.9
-1631.15 1018.71 2338.9
-1597.12 1020.22 2342.3
-1602.79 1027.75 2359.6
-1599.43 1029.52 2363.7
-1619.18 1046.24 2402.1
-1604.39 1044.72 2398.6
-1570.67 1026.74 2357.3
-1558.42 1022.71 2348.1
-1562.78 1029.60 2363.9
-1534.00 1014.61 2329.5
-1186.99 1208.57 2774.8
-1160.76 1196.37 2746.8
-1185.82 1229.74 2823.4
-1188.74 1240.42 2847.9
-1172.33 1230.95 2826.2
-1148.96 1213.99 2787.2
-1138.06 1210.08 2778.3
-1137.33 1217.01 2794.2
-1135.48 1222.83 2807.5
-1124.58 1218.90 2798.5
-1113.72 1214.97 2789.5
-1127.16 1237.66 2841.6
-1128.12 1246.87 2862.7
-1110.40 1235.41 2836.4
-1109.92 1243.11 2854.1
-1117.04 1259.48 2891.7
-1105.06 1254.39 2880.0
-1084.55 1239.49 2845.8
-1090.10 1254.36 2879.9
-1100.70 1275.29 2928.0
-1074.48 1253.55 2878.1
-1618.22 874.57 2020.0
-1640.23 889.35 2054.1
-1623.20 882.98 2039.4
-1597.56 892.28 2060.9
-1608.46 901.39 2081.9
-1637.67 939.83 2170.7
-1591.90 926.30 2139.4
-1590.92 928.96 2145.6
-1605.10 953.92 2203.2
-1621.33 973.96 2249.5
-1634.33 1007.13 2326.1
-1647.90 1019.25 2354.1
-1628.97 1018.87 2353.3
-1629.97 1023.33 2363.5
-1613.32 1016.69 2348.2
-1607.91 1036.76 2394.6
-1601.31 1036.51 2394.0
-1583.23 1028.79 2376.2
-1548.05 1009.86 2332.4
-1527.55 1000.40 2310.6
-1518.00 998.05 2305.2
-1170.81 1192.23 2753.7
-1206.55 1236.16 2855.1
-1197.94 1242.59 2870.0
-1179.00 1230.58 2842.2
-1154.51 1212.60 2800.7
-1155.19 1220.99 2820.1
-1166.27 1240.55 2865.3
-1162.53 1244.50 2874.4
-1149.05 1238.01 2859.4
-1115.68 1209.86 2794.4
-1106.55 1207.80 2789.6
-1128.04 1239.36 2862.5
-1130.60 1250.40 2888.0
-1123.96 1251.34 2890.2
-1124.66 1260.52 2911.4
-1120.93 1264.84 2921.4
-1108.25 1259.03 2907.9
-1092.99 1250.20 2887.5
-1083.69 1248.12 2882.7
-1067.93 1238.51 2860.5
-1626.33 873.69 2030.1
-1631.39 890.83 2069.9
-1630.21 893.12 2075.2
-1638.00 909.39 2113.0
-1599.69 925.26 2149.9
-1600.39 928.90 2158.4
-1620.15 943.66 2192.7
-1605.07 941.49 2187.6
-1581.09 930.72 2162.6
-1594.46 941.93 2188.6
-1605.46 965.61 2243.7
-1594.82 962.69 2236.9
-1593.49 965.40 2243.2
-1615.02 982.03 2281.8
-1627.17 993.05 2307.4
-1600.71 980.51 2278.3
-1583.01 973.26 2261.5
-1587.49 979.64 2276.3
-1589.22 984.37 2287.3
-1604.85 997.77 2318.4
-1590.64 1019.48 2368.8
-1575.19 1013.49 2354.9
-1587.97 1025.70 2383.3
-1583.47 1026.78 2385.8
-1546.77 1006.92 2339.7
-1520.60 993.78 2309.1
-1495.57 981.28 2280.1
-1182.21 1203.97 2797.5
-1184.18 1213.42 2819.5
-1187.47 1224.35 2844.9
-1188.16 1232.71 2864.3
-1169.98 1221.49 2838.2
-1176.57 1236.14 2872.3
-1171.44 1238.59 2878.0
-1150.60 1224.36 2844.9
-1126.30 1222.00 2839.4
-1125.92 1229.62 2857.1
-1137.30 1250.27 2905.1
-1140.04 1261.64 2931.5
-1131.62 1260.73 2929.4
-1117.22 1253.10 2911.7
-1104.22 1246.94 2897.4
-1089.64 1238.91 2878.7
-1070.90 1225.99 2848.7
-1628.27 880.87 2059.2
-1625.94 882.50 2063.0
-1610.76 897.89 2099.0
-1600.22 895.04 2092.3
-1596.59 896.04 2094.6
-1610.12 906.72 2119.6
-1620.70 915.81 2140.8
-1621.04 931.96 2178.6
-1605.92 926.49 2165.8
-1609.39 931.75 2178.1
-1607.78 940.72 2199.1
-1619.94 964.95 2255.7
-1584.41 964.68 2255.1
-1569.46 959.11 2242.1
-1578.29 968.10 2263.1
-1577.36 971.13 2270.2
-1589.82 982.47 2296.7
-1608.06 997.48 2331.8
-1616.03 1006.20 2352.2
-1594.94 1004.45 2348.1
-1597.95 1010.20 2361.5
-1599.32 1014.95 2372.6
-1580.69 1007.00 2354.0
-1573.12 1006.06 2351.8
-1582.47 1019.95 2384.3
-1540.04 996.50 2329.5
-1513.36 983.09 2298.1
-1168.03 1197.04 2798.3
-1175.95 1212.70 2834.9
-1165.63 1209.61 2827.7
-1164.49 1216.09 2842.8
-1150.67 1209.30 2826.9
-1122.97 1187.76 2776.6
-1130.51 1203.44 2813.2
-1145.59 1243.57 2907.0
-1138.92 1244.52 2909.3
-1132.24 1245.46 2911.5
-1113.49 1233.06 2882.5
-1105.85 1232.87 2882.0
-1098.53 1233.05 2882.4
-1641.19 909.31 2138.6
-1610.06 916.84 2156.3
-1606.26 917.86 2158.7
-1603.57 919.53 2162.7
-1603.11 922.49 2169.6
-1617.21 933.88 2196.4
-1603.18 966.63 2273.4
-1598.49 967.35 2275.1
-1618.81 990.61 2329.8
-1613.44 991.03 2330.8
-1615.56 996.06 2342.7
-1613.37 998.46 2348.3
-1596.75 991.92 2332.9
-1590.29 991.66 2332.3
-1591.77 996.38 2343.4
-1596.38 1003.09 2359.2
-1599.35 1008.82 2372.7
-1598.05 1011.90 2379.9
-1608.78 1022.64 2405.2
-1564.79 1002.44 2357.7
-1540.58 990.80 2330.3
-1532.53 989.51 2327.2
-1153.10 1196.89 2815.0
-1147.76 1198.93 2819.8
-1128.43 1186.30 2790.1
-1116.52 1181.35 2778.4
-1127.08 1200.26 2822.9
-1147.37 1229.86 2892.5
-1142.79 1233.01 2899.9
-1123.60 1220.33 2870.1
-1103.52 1206.52 2837.6
-1105.70 1217.02 2862.3
-1099.78 1226.96 2885.7
-1636.62 886.28 2097.2
-1633.03 887.28 2099.6
-1610.79 918.04 2172.4
-1613.13 922.60 2183.2
-1604.77 921.05 2179.5
-1619.93 933.03 2207.9
-1627.29 968.06 2290.8
-1617.12 965.53 2284.8
-1612.95 966.58 2287.3
-1595.69 974.15 2305.2
-1607.52 985.06 2331.0
-1615.51 993.69 2351.4
-1609.02 993.45 2350.8
-1613.69 1000.12 2366.6
-1607.16 999.87 2366.0
-1602.22 1000.62 2367.8
-1616.25 1013.26 2397.7
-1607.25 1015.43 2402.9
-1571.34 996.61 2358.3
-1573.15 1001.65 2370.3
-1588.44 1015.35 2402.7
-1543.95 990.80 2344.6
-1146.59 1175.43 2781.5
-1148.75 1185.10 2804.4
-1131.84 1175.10 2780.7
-1133.20 1184.05 2801.9
-1142.08 1201.03 2842.1
-1116.96 1182.23 2797.6
-1102.79 1182.59 2798.4
-1089.24 1175.81 2782.4
-1087.24 1181.46 2795.8
-1106.28 1210.23 2863.8
-1635.74 860.36 2048.5
-1615.13 852.29 2029.3
-1642.29 883.89 2104.5
-1608.83 874.60 2082.4
-1639.83 903.58 2151.4
-1629.20 900.79 2144.7
-1611.44 922.45 2196.3
-1604.17 921.54 2194.2
-1639.39 962.25 2291.1
-1627.55 958.78 2282.8
-1620.90 961.85 2290.1
-1629.81 970.70 2311.2
-1607.46 971.67 2313.5
-1574.69 955.43 2274.8
-1580.68 962.67 2292.1
-1596.78 976.14 2324.2
-1598.88 981.13 2336.0
-1606.25 989.40 2355.7
-1602.92 991.12 2359.8
-1588.47 985.94 2347.5
-1593.05 992.59 2363.3
-1600.98 1005.27 2393.5
-1562.98 985.22 2345.8
-1561.69 988.25 2353.0
-1559.84 990.96 2359.4
-1151.45 1180.60 2810.9
-1144.01 1180.44 2810.6
-1155.08 1199.51 2856.0
-1134.45 1193.38 2841.4
-1124.52 1190.67 2834.9
-1133.74 1208.33 2877.0
-1122.73 1204.52 2867.9
-1122.22 1212.00 2885.7
-1109.54 1206.35 2872.3
-1102.59 1206.89 2873.6
-1113.54 1227.16 2921.8
-1085.37 1204.31 2867.4
-1627.74 834.61 1999.5
-1633.62 851.17 2039.2
-1618.33 845.94 2026.7
-1620.84 850.02 2036.4
-1613.39 868.75 2081.3
-1639.95 895.03 2144.3
-1626.46 890.68 2133.8
-1624.47 892.63 2138.5
-1596.42 889.36 2130.7
-1590.09 907.82 2174.9
-1598.45 919.11 2201.9
-1631.63 951.78 2280.2
-1617.06 946.72 2268.1
-1601.98 941.31 2255.1
-1597.34 942.02 2256.8
-1611.23 953.71 2284.8
-1624.71 976.04 2338.3
-1605.87 968.33 2319.9
-1597.26 974.09 2333.7
-1580.15 967.32 2317.4
-1601.86 984.35 2358.3
-1614.95 996.19 2386.6
-1590.42 984.83 2359.4
-1579.15 981.63 2351.7
-1585.24 989.24 2370.0
-1564.55 980.13 2348.1
-1522.52 957.52 2294.0
-1129.79 1166.01 2793.4
-1139.08 1183.17 2834.6
-1138.49 1190.24 2851.5
-1117.17 1207.14 2892.0
-1093.49 1189.54 2849.8
-1088.90 1192.61 2857.2
-1643.13 856.35 2064.4
-1620.74 847.44 2042.9
-1628.34 871.35 2100.6
-1621.53 876.50 2113.0
-1620.19 878.75 2118.4
-1615.37 879.11 2119.3
-1608.24 878.22 2117.1
-1607.09 889.74 2144.9
-1621.82 923.46 2226.2
-1601.60 931.84 2246.4
-1596.43 932.22 2247.3
-1605.49 940.94 2268.3
-1632.47 960.28 2315.0
-1621.72 957.47 2308.2
-1621.30 960.77 2316.1
-1639.80 975.35 2351.3
-1631.71 974.15 2348.4
-1617.69 969.40 2337.0
-1605.79 973.21 2346.1
-1582.79 962.91 2321.3
-1598.14 975.96 2352.8
-1618.43 995.95 2401.0
-1561.22 964.46 2325.0
-1523.75 944.96 2278.0
-1518.95 945.65 2279.7
-1131.10 1175.17 2833.0
-1142.86 1195.15 2881.2
-1127.77 1202.96 2900.0
-1110.69 1192.68 2875.2
-1096.72 1185.64 2858.2
-1074.52 1169.55 2819.4
-1630.11 855.41 2075.1
-1631.86 859.16 2084.2
-1626.74 870.88 2112.7
-1615.00 867.52 2104.5
-1621.30 879.82 2134.3
-1641.10 893.61 2167.8
-1636.94 919.69 2231.1
-1644.14 940.35 2281.2
-1628.20 944.83 2292.0
-1615.82 941.08 2283.0
-1619.09 953.46 2313.0
-1602.93 947.46 2298.4
-1606.28 952.98 2311.8
-1603.11 954.66 2315.9
-1599.92 956.34 2320.0
-1597.78 958.67 2325.6
-1593.48 959.71 2328.1
-1593.43 963.33 2336.9
-1599.19 970.50 2354.3
-1617.08 985.12 2389.8
-1569.64 963.60 2337.6
-1533.70 945.19 2292.9
-1529.92 946.53 2296.2
-1141.02 1178.07 2857.8
-1116.97 1191.94 2891.5
-1095.94 1177.39 2856.2
-1637.55 853.91 2084.6
-1608.00 855.43 2088.3
-1616.56 862.89 2106.5
-1621.71 874.51 2134.9
-1609.40 870.84 2125.9
-1642.33 891.71 2176.9
-1628.97 906.26 2212.4
-1628.41 909.15 2219.4
-1627.69 918.48 2242.2
-1639.25 928.32 2266.2
-1622.43 922.10 2251.1
-1596.79 910.81 2223.5
-1615.98 925.09 2258.4
-1651.55 948.89 2316.5
-1626.49 937.90 2289.6
-1594.94 923.08 2253.4
-1618.60 950.70 2320.9
-1621.92 956.21 2334.3
-1609.00 952.14 2324.4
-1596.11 948.07 2314.5
-1591.31 948.78 2316.2
-1584.88 948.53 2315.6
-1574.19 945.71 2308.7
-1569.90 946.73 2311.2
-1583.11 958.36 2339.6
-1578.75 959.39 2342.1
-1552.73 947.22 2312.4
-1537.34 941.47 2298.4
-1544.58 949.58 2318.2
-1533.41 946.40 2310.4
-1116.73 1176.29 2871.6
-1097.34 1163.62 2840.7
-1082.44 1155.58 2821.0
-1630.63 817.92 2009.4
-1617.10 813.73 1999.2
-1618.45 849.82 2087.8
-1621.86 872.03 2142.4
-1608.00 888.93 2183.9
-1606.94 891.48 2190.2
-1620.40 905.35 2224.2
-1612.53 904.17 2221.3
-1618.57 910.81 2237.7
-1606.79 907.43 2229.4
-1586.17 899.02 2208.7
-1579.43 898.44 2207.3
-1588.12 906.67 2227.5
-1600.03 916.81 2252.4
-1606.92 924.12 2270.4
-1627.24 949.73 2333.3
-1622.98 957.92 2353.4
-1593.41 944.02 2319.2
-1581.09 940.27 2310.0
-1565.60 934.60 2296.1
-1565.60 938.16 2304.9
-1582.55 951.96 2338.7
-1584.01 956.50 2349.9
-1562.72 947.29 2327.3
-1525.71 928.44 2281.0
-1517.14 930.43 2285.9
-1112.97 1157.19 2843.0
-1083.40 1133.96 2785.9
-1635.09 804.65 1989.5
-1632.77 813.78 2012.1
-1609.50 839.74 2076.3
-1616.18 872.40 2157.0
-1594.18 863.52 2135.1
-1619.39 880.23 2176.4
-1612.43 888.83 2197.7
-1616.95 894.48 2211.6
-1620.85 899.83 2224.9
-1623.02 904.25 2235.8
-1617.91 904.64 2236.7
-1595.57 895.36 2213.8
-1596.03 898.85 2222.4
-1609.72 909.84 2249.6
-1616.14 916.79 2266.8
-1625.79 925.63 2288.7
-1624.94 928.54 2295.8
-1625.15 932.07 2304.6
-1620.96 933.10 2307.1
-1601.51 925.31 2287.9
-1582.67 917.83 2269.4
-1594.76 928.29 2295.2
-1630.49 956.22 2364.3
-1585.30 933.23 2307.4
-1558.54 920.95 2277.1
-1560.20 925.44 2288.2
-1576.73 938.82 2321.3
-1602.71 957.94 2368.5
-1612.60 967.56 2392.3
-1587.52 956.19 2364.2
-1545.15 934.28 2310.0
-1104.24 1133.30 2802.1
-1098.85 1135.23 2806.9
-1093.09 1136.81 2810.8
-1641.31 797.50 1984.6
-1620.58 869.17 2162.9
-1601.42 861.87 2144.8
-1631.85 903.34 2248.0
-1609.44 894.13 2225.0
-1648.83 932.73 2321.1
-1650.66 937.19 2332.2
-1637.67 933.23 2322.3
-1620.34 926.76 2306.2
-1610.15 924.34 2300.2
-1599.43 921.60 2293.4
-1593.06 921.36 2292.8
-1578.79 923.44 2298.0
-1557.93 914.69 2276.2
-1564.94 922.30 2295.1
-1576.15 932.45 2320.4
-1596.83 948.31 2359.8
-1608.34 958.82 2386.0
-1584.32 948.15 2359.4
-1548.79 930.48 2315.5
-1628.92 798.90 2000.9
-1649.86 888.39 2225.1
-1606.90 868.29 2174.8
-1587.26 860.69 2155.7
-1616.66 879.74 2203.4
-1593.72 876.55 2195.4
-1602.07 884.30 2214.8
-1596.78 890.96 2231.5
-1612.64 903.08 2261.9
-1644.55 927.70 2323.5
-1628.83 922.21 2309.8
-1628.46 925.40 2317.8
-1635.14 932.64 2335.9
-1636.86 937.09 2347.1
-1640.15 946.01 2369.4
-1609.91 932.05 2334.5
-1584.63 920.88 2306.5
-1578.23 920.64 2305.9
-1591.09 931.66 2333.5
-1609.70 946.16 2369.8
-1594.13 940.60 2355.9
-1570.11 929.99 2329.3
-1562.59 929.11 2327.1
-1540.82 919.72 2303.6
-1639.97 833.61 2101.5
-1641.78 878.29 2214.2
-1616.37 867.73 2187.6
-1589.91 856.54 2159.3
-1582.95 864.97 2180.6
-1586.87 870.22 2193.8
-1621.91 892.63 2250.3
-1615.10 892.09 2249.0
-1581.71 876.82 2210.5
-1599.27 889.78 2243.1
-1632.69 911.69 2298.4
-1630.19 913.62 2303.2
-1625.46 914.32 2305.0
-1621.71 929.29 2342.8
-1602.29 921.62 2323.4
-1587.25 916.41 2310.3
-1573.86 912.13 2299.5
-1581.39 919.97 2319.3
-1597.92 933.13 2352.4
-1580.77 926.66 2336.1
-1558.37 917.04 2311.9
-1551.94 916.78 2311.2
-1616.64 859.20 2180.3
-1624.70 866.51 2198.8
-1602.34 863.68 2191.7
-1623.65 881.41 2236.7
-1595.66 869.32 2206.0
-1597.84 873.64 2216.9
-1628.74 903.53 2292.8
-1625.15 904.84 2296.1
-1619.34 904.93 2296.3
-1630.30 928.11 2355.2
-1619.50 925.43 2348.4
-1613.56 925.52 2348.6
-1606.55 924.98 2347.2
-1580.25 913.30 2317.6
-1563.67 907.17 2302.0
-1555.67 905.98 2299.0
-1543.42 902.31 2289.7
-1542.34 905.15 2296.9
-1630.95 772.02 1972.0
-1636.48 837.65 2139.7
-1601.44 851.47 2175.0
-1607.75 857.85 2191.3
-1594.31 853.69 2180.7
-1614.58 867.62 2216.2
-1639.76 884.30 2258.8
-1630.14 882.26 2253.7
-1595.47 866.60 2213.7
-1602.07 873.33 2230.8
-1637.15 905.53 2313.1
-1621.95 910.46 2325.7
-1592.50 914.32 2335.6
-1555.57 896.53 2290.1
-1504.53 873.78 2232.0
-1635.27 778.70 2002.4
-1643.66 792.76 2038.5
-1624.69 786.14 2021.5
-1626.56 824.27 2119.6
-1627.48 841.80 2164.6
-1621.42 841.57 2164.0
-1594.32 839.11 2157.7
-1592.78 841.26 2163.2
-1608.15 852.38 2191.8
-1603.15 852.74 2192.8
-1617.79 863.59 2220.7
-1636.82 876.87 2254.8
-1642.87 883.26 2271.2
-1621.53 874.92 2249.8
-1598.03 865.36 2225.2
-1605.12 881.93 2267.8
-1605.95 885.64 2277.4
-1625.13 906.21 2330.2
-1629.03 911.77 2344.6
-1599.93 912.51 2346.5
-1561.36 893.91 2298.6
-1614.52 773.52 2002.4
-1617.20 777.30 2012.2
-1622.83 782.53 2025.7
-1638.71 822.12 2128.2
-1605.96 808.41 2092.7
-1602.37 809.33 2095.1
-1630.15 837.56 2168.2
-1634.40 842.65 2181.4
-1644.88 851.00 2203.0
-1616.66 872.76 2259.3
-1624.23 880.04 2278.1
-1593.06 866.30 2242.6
-1579.46 865.22 2239.8
-1638.67 907.67 2349.7
-1640.91 912.30 2361.7
-1641.46 919.46 2380.2
-1625.22 913.80 2365.5
-1627.32 918.45 2377.6
-1605.22 909.42 2354.2
-1568.22 891.85 2308.7
-1636.85 812.93 2118.6
-1633.23 813.87 2121.1
-1613.87 806.94 2103.0
-1618.24 814.62 2123.1
-1633.63 836.60 2180.3
-1633.83 839.61 2188.2
-1648.84 850.27 2216.0
-1603.93 853.89 2225.4
-1592.16 850.68 2217.0
-1615.41 866.23 2257.6
-1626.87 875.55 2281.8
-1599.00 863.69 2250.9
-1578.95 855.99 2230.9
-1623.30 893.12 2327.6
-1646.81 909.43 2370.1
-1614.32 898.19 2340.8
-1589.50 887.72 2313.6
-1583.63 887.79 2313.7
-1579.36 888.77 2316.3
-1560.09 881.27 2296.7
-1540.88 873.76 2277.2
-1513.82 865.04 2254.5
-1646.91 756.55 1985.1
-1646.75 758.85 1991.1
-1620.87 791.59 2077.1
-1639.54 808.77 2122.1
-1635.33 809.41 2123.8
-1620.04 804.55 2111.1
-1603.63 799.10 2096.8
-1620.91 810.46 2126.6
-1651.40 828.52 2173.9
-1629.99 829.10 2175.5
-1636.50 835.30 2191.7
-1602.40 829.41 2176.3
-1606.49 834.46 2189.6
-1628.57 848.93 2227.5
-1604.93 839.59 2203.0
-1606.07 843.19 2212.4
-1615.50 854.24 2241.4
-1583.64 840.41 2205.2
-1612.68 865.20 2270.2
-1612.45 868.24 2278.2
-1603.38 866.53 2273.7
-1597.07 866.30 2273.1
-1592.39 866.97 2274.8
-1589.35 868.53 2278.9
-1615.14 885.92 2324.6
-1611.51 890.57 2336.8
-1616.41 896.65 2352.7
-1598.61 890.14 2335.6
-1583.02 884.81 2321.7
-1592.67 893.60 2344.7
-1601.15 901.80 2366.2
-1563.72 884.10 2319.8
-1501.02 855.23 2244.0
-1649.07 759.51 2006.5
-1630.59 753.37 1990.3
-1637.65 759.04 2005.3
-1647.69 766.12 2024.0
-1646.78 768.15 2029.3
-1638.21 786.77 2078.6
-1635.89 788.25 2082.5
-1621.14 794.25 2098.3
-1632.17 802.34 2119.7
-1632.04 804.99 2126.7
-1603.96 793.82 2097.2
-1610.23 799.64 2112.5
-1648.87 821.62 2170.6
-1645.62 837.14 2211.6
-1623.51 828.79 2189.6
-1645.25 842.83 2226.7
-1644.74 845.54 2233.8
-1632.89 842.41 2225.5
-1589.04 837.54 2212.7
-1646.73 883.91 2335.2
-1629.33 877.79 2319.0
-1610.88 871.07 2301.3
-1597.96 867.29 2291.3
-1613.40 878.94 2322.1
-1619.48 899.03 2375.1
-1582.82 888.81 2348.1
-1541.76 869.10 2296.1
-1514.68 857.14 2264.5
-1645.69 752.76 2002.4
-1622.95 744.71 1981.0
-1625.78 748.38 1990.8
-1631.30 775.54 2063.0
-1631.99 778.42 2070.7
-1648.65 788.96 2098.7
-1638.54 794.61 2113.7
-1633.77 794.96 2114.7
-1640.96 806.57 2145.6
-1622.18 800.05 2128.2
-1654.73 821.70 2185.8
-1662.49 828.39 2203.6
-1661.73 833.74 2217.8
-1617.61 820.12 2181.6
-1645.07 836.97 2226.4
-1650.81 842.84 2242.0
-1600.48 840.83 2236.7
-1590.92 838.85 2231.4
-1651.02 880.14 2341.3
-1632.50 873.48 2323.5
-1634.32 877.69 2334.7
-1620.00 886.41 2357.9
-1619.83 896.47 2384.7
-1593.49 885.27 2354.9
-1566.71 873.74 2324.2
-1542.17 863.38 2296.7
-1530.47 860.15 2288.1
-1644.74 747.14 2001.3
-1615.55 755.32 2023.2
-1620.00 772.45 2069.1
-1642.39 790.98 2118.7
-1641.13 793.03 2124.2
-1649.80 799.90 2142.6
-1648.47 801.96 2148.1
-1639.55 800.32 2143.7
-1632.39 799.54 2141.6
-1627.32 802.52 2149.6
-1622.45 802.86 2150.5
-1615.85 802.35 2149.2
-1614.42 804.42 2154.7
-1615.25 807.63 2163.3
-1641.02 837.97 2244.6
-1634.24 837.47 2243.2
-1611.14 828.59 2219.4
-1594.26 828.78 2220.0
-1589.08 832.10 2228.8
-1641.59 862.73 2310.9
-1623.62 856.41 2294.0
-1576.48 834.61 2235.6
-1592.23 846.06 2266.2
-1605.52 862.66 2310.7
-1624.70 876.24 2347.1
-1620.41 877.21 2349.7
-1629.09 885.24 2371.2
-1590.71 877.63 2350.8
-1566.60 867.65 2324.1
-1523.41 846.99 2268.7
-1643.53 736.75 1987.2
-1635.71 777.10 2096.1
-1633.34 778.56 2100.0
-1615.08 772.43 2083.5
-1613.89 774.45 2088.9
-1620.87 780.42 2105.0
-1624.86 784.99 2117.3
-1653.41 806.95 2176.6
-1610.79 813.93 2195.4
-1622.75 822.88 2219.6
-1628.98 828.98 2236.0
-1600.82 817.56 2205.2
-1595.79 817.91 2206.2
-1607.47 829.85 2238.4
-1585.65 821.55 2216.0
-1611.69 838.08 2260.6
-1613.26 848.15 2287.7
-1572.91 836.16 2255.4
-1577.54 841.75 2270.4
-1612.06 863.39 2328.8
-1601.28 860.84 2321.9
-1603.53 865.30 2334.0
-1592.66 875.96 2362.7
-1540.85 850.74 2294.7
-1653.59 736.08 1999.4
-1648.04 762.29 2070.6
-1652.51 782.19 2124.7
-1632.44 775.27 2105.9
-1625.86 777.35 2111.5
-1597.53 801.59 2177.3
-1608.97 810.19 2200.7
-1634.43 825.94 2243.5
-1611.10 828.90 2251.5
-1604.29 828.39 2250.2
-1622.44 840.82 2283.9
-1633.27 849.54 2307.6
-1590.81 839.76 2281.0
-1613.65 861.42 2339.9
-1607.74 861.50 2340.1
-1600.75 864.29 2347.7
-1584.07 858.54 2332.0
-1596.38 868.53 2359.2
-1568.49 856.64 2326.9
-1535.39 841.79 2286.6
-1512.53 832.48 2261.3
-1624.77 729.60 1995.9
-1640.29 738.92 2021.4
-1599.50 769.72 2105.6
-1597.03 771.17 2109.6
-1627.94 811.10 2218.8
-1634.23 817.11 2235.3
-1609.80 822.40 2249.7
-1616.90 829.03 2267.9
-1627.26 837.39 2290.7
-1632.00 842.90 2305.8
-1605.21 832.11 2276.3
-1585.68 825.02 2256.9
-1609.61 840.58 2299.5
-1642.71 861.05 2355.4
-1651.54 868.91 2377.0
-1634.13 862.97 2360.7
-1603.73 850.10 2325.5
-1598.39 850.46 2326.5
-1599.01 857.26 2345.1
-1565.65 842.58 2304.9
-1560.86 843.22 2306.7
-1554.45 842.99 2306.1
-1540.57 838.69 2294.3
-1513.44 827.11 2262.6
-1624.41 724.26 1995.4
-1632.67 730.27 2012.0
-1661.45 772.77 2129.1
-1643.69 767.06 2113.3
-1635.86 771.11 2124.5
-1624.63 768.41 2117.0
-1640.86 778.71 2145.4
-1643.59 782.66 2156.3
-1618.39 773.29 2130.5
-1612.41 773.07 2129.9
-1622.62 780.64 2150.7
-1656.66 816.66 2250.0
-1646.46 814.51 2244.0
-1620.21 821.84 2264.3
-1618.94 824.19 2270.7
-1620.98 828.24 2281.9
-1629.62 835.70 2302.5
-1606.69 826.98 2278.4
-1583.85 818.22 2254.3
-1602.31 830.83 2289.0
-1622.83 844.60 2326.9
-1617.51 844.97 2328.0
-1606.73 842.48 2321.1
-1582.37 832.82 2294.5
-1586.85 838.34 2309.7
-1619.41 858.78 2366.0
-1607.51 855.71 2357.6
-1583.26 846.02 2330.9
-1576.81 845.80 2330.3
-1567.15 843.85 2324.9
-1554.84 840.45 2315.5
-1528.71 829.53 2285.5
-1668.91 765.60 2124.5
-1624.50 752.69 2088.6
-1619.68 771.01 2139.5
-1617.73 772.73 2144.3
-1612.87 773.07 2145.2
-1612.04 775.34 2151.5
-1592.58 804.97 2233.7
-1585.80 804.47 2232.4
-1585.11 807.07 2239.6
-1578.87 806.85 2238.9
-1572.63 806.63 2238.3
-1625.23 836.69 2321.8
-1628.95 848.03 2353.2
-1626.32 853.05 2367.2
-1609.00 850.38 2359.7
-1583.11 839.90 2330.6
-1573.45 837.97 2325.3
-1562.19 835.17 2317.5
-1548.28 830.93 2305.8
-1516.84 817.21 2267.7
-1479.69 800.30 2220.8
-1637.00 743.11 2077.0
-1638.87 746.42 2086.3
-1591.22 757.20 2116.4
-1597.69 765.56 2139.8
-1640.92 800.17 2236.5
-1644.93 804.96 2249.9
-1616.47 808.23 2259.0
-1605.19 805.51 2251.4
-1612.27 812.02 2269.6
-1618.74 818.26 2287.1
-1579.60 804.37 2248.2
-1597.00 816.25 2281.4
-1606.67 846.26 2365.3
-1595.86 843.79 2358.4
-1581.86 839.60 2346.7
-1563.62 833.13 2328.6
-1527.33 816.94 2283.4
-1487.48 798.72 2232.5
-1649.95 715.32 2013.9
-1628.02 743.46 2093.2
-1600.76 756.22 2129.1
-1613.08 775.41 2183.1
-1641.87 797.65 2245.7
-1646.97 802.97 2260.7
-1607.21 800.68 2254.3
-1609.76 813.79 2291.2
-1573.69 798.50 2248.1
-1599.28 814.50 2293.2
-1625.24 830.82 2339.1
-1622.09 832.31 2343.3
-1616.73 832.68 2344.3
-1614.07 844.00 2376.2
-1585.50 832.24 2343.1
-1586.00 835.70 2352.9
-1582.18 836.91 2356.3
-1560.75 828.77 2333.3
-1534.61 818.06 2303.2
-1628.60 703.14 1994.2
-1639.46 748.21 2122.0
-1620.00 741.82 2103.9
-1647.54 764.73 2168.9
-1589.29 747.90 2121.2
-1609.75 765.48 2171.0
-1598.53 762.81 2163.4
-1618.14 774.88 2197.7
-1638.80 790.35 2241.5
-1621.83 784.95 2226.2
-1618.47 786.12 2229.5
-1605.42 791.08 2243.6
-1611.46 796.94 2260.2
-1619.78 809.89 2297.0
-1611.78 808.86 2294.0
-1611.49 811.72 2302.1
-1609.53 813.74 2307.9
-1606.99 815.49 2312.8
-1597.32 813.62 2307.5
-1586.58 811.18 2300.6
-1573.68 807.62 2290.5
-1578.71 813.27 2306.6
-1624.78 840.19 2382.9
-1586.96 826.92 2345.3
-1569.22 820.82 2328.0
-1573.48 826.23 2343.3
-1558.99 821.80 2330.7
-1529.66 809.47 2295.8
-1487.18 790.07 2240.7
-1666.28 735.12 2100.4
-1630.92 733.92 2096.9
-1630.34 736.11 2103.2
-1632.67 739.63 2113.2
-1626.74 739.43 2112.6
-1619.63 738.68 2110.5
-1622.47 742.49 2121.4
-1637.54 751.93 2148.4
-1646.68 758.71 2167.7
-1639.23 765.73 2187.8
-1632.01 773.06 2208.7
-1616.74 768.52 2195.8
-1608.91 767.50 2192.9
-1620.39 775.72 2216.3
-1621.59 779.06 2225.9
-1611.45 776.95 2219.9
-1608.06 783.71 2239.2
-1615.71 793.17 2266.2
-1633.90 816.95 2334.1
-1636.83 821.46 2347.0
-1608.45 810.23 2314.9
-1570.33 793.99 2268.5
-1610.94 817.58 2335.9
-1600.23 818.30 2338.0
-1589.99 816.16 2331.9
-1599.21 824.02 2354.3
-1549.12 801.27 2289.3
-1540.07 799.65 2284.7
-1554.04 810.02 2314.4
-1540.68 806.17 2303.3
-1510.85 793.64 2267.5
-1468.06 780.27 2229.3
-1642.85 701.09 2018.1
-1637.73 701.14 2018.2
-1652.15 723.49 2082.5
-1655.47 734.55 2114.4
-1644.20 731.97 2107.0
-1621.12 724.10 2084.3
-1636.51 733.42 2111.1
-1614.55 733.39 2111.0
-1616.79 736.90 2121.1
-1632.40 746.56 2148.9
-1650.82 757.57 2180.6
-1619.61 783.50 2255.3
-1609.44 781.40 2249.2
-1622.19 790.45 2275.3
-1653.16 823.51 2370.4
-1615.94 807.97 2325.7
-1568.48 787.18 2265.9
-1598.75 805.39 2318.3
-1622.86 823.72 2371.1
-1594.69 812.50 2338.8
-1586.08 811.20 2335.0
-1551.72 802.82 2310.9
-1550.12 805.10 2317.4
-1533.03 799.32 2300.8
-1508.57 789.64 2272.9
-1655.40 719.50 2086.6
-1664.06 732.85 2125.3
-1650.40 729.25 2114.9
-1633.81 724.32 2100.6
-1647.63 771.60 2237.7
-1628.89 765.52 2220.1
-1627.28 767.47 2225.8
-1598.93 796.47 2309.9
-1576.71 788.36 2286.3
-1581.26 793.61 2301.6
-1574.34 793.13 2300.2
-1572.84 795.39 2306.7
-1611.29 817.95 2372.1
-1608.55 819.68 2377.2
-1562.25 799.15 2317.6
-1552.07 797.01 2311.4
-1560.62 804.51 2333.2
-1553.63 804.02 2331.7
-1528.04 793.86 2302.3
-1489.30 776.77 2252.7
-1633.90 689.06 2013.5
-1662.95 710.39 2075.8
-1641.63 715.16 2089.8
-1643.53 720.75 2106.1
-1606.32 716.33 2093.2
-1633.24 730.81 2135.5
-1650.07 740.85 2164.8
-1630.62 734.61 2146.6
-1640.60 754.56 2204.9
-1596.70 744.75 2176.2
-1604.26 750.93 2194.3
-1606.65 754.72 2205.4
-1624.28 765.73 2237.5
-1637.27 774.62 2263.5
-1625.95 772.03 2255.9
-1627.57 775.59 2266.3
-1624.59 806.19 2355.7
-1611.58 802.75 2345.7
-1585.01 792.50 2315.8
-1574.81 790.40 2309.6
-1604.09 808.17 2361.5
-1588.35 809.51 2365.4
-1569.53 803.02 2346.5
-1541.18 791.58 2313.1
-1496.47 771.62 2254.7
-1639.48 708.82 2087.0
-1631.82 707.84 2084.2
-1667.55 725.74 2136.9
-1652.01 743.69 2189.7
-1644.93 750.82 2210.7
-1640.98 762.30 2244.5
-1604.67 748.09 2202.7
-1603.63 750.27 2209.1
-1597.47 750.07 2208.5
-1597.51 752.79 2216.5
-1611.58 762.16 2244.1
-1621.06 769.41 2265.5
-1634.24 804.83 2369.7
-1601.02 791.45 2330.3
-1591.33 789.64 2325.0
-1598.47 796.20 2344.3
-1614.19 807.09 2376.4
-1633.56 819.91 2414.1
-1597.17 810.97 2387.8
-1556.46 793.37 2336.0
-1521.26 778.46 2292.1
-1506.38 773.87 2278.6
-1657.63 711.19 2110.1
-1645.31 735.02 2180.8
-1630.53 730.93 2168.7
-1643.56 757.67 2248.0
-1600.41 740.41 2196.8
-1594.28 740.20 2196.2
-1615.29 752.64 2233.1
-1640.67 767.22 2276.4
-1628.76 764.40 2268.0
-1612.39 759.46 2253.3
-1611.18 761.65 2259.8
-1616.64 767.02 2275.8
-1614.81 768.96 2281.5
-1597.38 763.46 2265.2
-1603.85 769.37 2282.8
-1637.88 788.61 2339.8
-1600.13 782.02 2320.3
-1600.27 785.04 2329.2
-1624.32 799.85 2373.2
-1608.58 795.12 2359.1
-1602.64 795.20 2359.4
-1623.68 808.73 2399.5
-1611.61 808.92 2400.1
-1568.63 790.39 2345.1
-1558.41 788.30 2338.9
-1551.94 788.09 2338.3
-1539.09 784.63 2328.0
-1502.98 769.24 2282.4
-1653.15 706.15 2111.4
-1662.10 712.33 2129.9
-1673.96 719.80 2152.2
-1657.25 717.40 2145.1
-1644.19 714.14 2135.3
-1665.94 754.06 2254.7
-1617.93 734.90 2197.4
-1612.95 735.23 2198.4
-1614.01 762.66 2280.4
-1602.14 759.84 2271.9
-1614.14 768.36 2297.4
-1630.48 779.00 2329.3
-1624.42 784.83 2346.7
-1604.29 778.02 2326.3
-1625.72 791.39 2366.3
-1628.44 801.79 2397.4
-1614.85 798.15 2386.5
-1623.39 805.45 2408.3
-1592.09 792.97 2371.0
-1560.93 780.47 2333.6
-1561.42 783.75 2343.4
-1544.28 778.17 2326.8
-1520.30 769.09 2299.6
-1505.95 764.83 2286.9
-1660.00 670.28 2019.8
-1657.35 671.33 2023.0
-1653.30 682.65 2057.1
-1634.29 692.68 2087.3
-1649.25 701.34 2113.4
-1645.03 708.97 2136.4
-1649.06 713.11 2148.9
-1627.79 706.30 2128.4
-1623.00 706.61 2129.3
-1620.11 720.05 2169.8
-1622.13 723.46 2180.1
-1648.85 737.95 2223.7
-1657.05 744.22 2242.6
-1636.53 737.59 2222.7
-1610.94 728.62 2195.6
-1612.23 731.79 2205.2
-1633.38 752.06 2266.3
-1641.76 758.65 2286.1
-1648.38 764.47 2303.6
-1640.37 763.52 2300.8
-1628.44 760.73 2292.4
-1620.45 759.77 2289.5
-1613.01 759.06 2287.4
-1609.46 760.19 2290.8
-1609.77 763.15 2299.7
-1631.57 776.36 2339.5
-1627.50 780.23 2351.1
-1606.26 772.94 2329.2
-1603.66 774.60 2334.2
-1621.20 786.04 2368.6
-1618.99 793.99 2392.6
-1586.02 780.81 2352.9
-1585.99 783.81 2361.9
-1585.91 786.81 2371.0
-1601.30 797.54 2403.3
-1597.91 798.95 2407.6
-1546.13 776.10 2338.7
-1507.32 759.60 2289.0
-1652.20 668.25 2029.5
-1628.62 667.21 2026.4
-1614.40 663.52 2015.2
-1615.31 666.05 2022.9
-1666.73 700.91 2128.8
-1650.67 696.46 2115.2
-1629.92 696.97 2116.8
-1641.19 718.73 2182.9
-1655.41 727.46 2209.4
-1655.65 730.10 2217.4
-1662.95 738.44 2242.7
-1641.82 731.62 2222.0
-1627.64 727.85 2210.6
-1608.92 722.02 2192.9
-1611.57 730.96 2220.0
-1617.85 736.44 2236.7
-1622.38 741.16 2251.0
-1647.57 758.12 2302.5
-1643.48 758.99 2305.1
-1625.39 753.38 2288.1
-1611.27 749.56 2276.5
-1613.32 753.28 2287.8
-1619.21 758.82 2304.6
-1606.76 755.77 2295.4
-1615.88 762.89 2317.0
-1604.76 763.31 2318.3
-1592.33 760.25 2309.0
-1600.71 767.13 2329.9
-1616.08 777.43 2361.2
-1624.20 790.32 2400.3
-1597.14 780.14 2369.4
-1604.07 786.55 2388.8
-1592.15 783.73 2380.3
-1596.30 788.83 2395.8
-1620.12 803.73 2441.0
-1594.32 794.03 2411.6
-1529.37 764.69 2322.4
-1633.09 692.83 2120.9
-1623.02 690.88 2114.9
-1658.89 720.76 2206.4
-1668.44 727.42 2226.8
-1657.61 732.84 2243.4
-1651.41 732.67 2242.9
-1654.54 763.64 2337.7
-1648.54 789.80 2417.7
-1611.58 775.03 2372.5
-1592.08 768.59 2352.8
-1592.61 771.81 2362.7
-1624.31 790.21 2419.0
-1605.74 787.25 2409.9
-1593.80 784.45 2401.4
-1573.91 777.70 2380.7
-1653.41 695.88 2147.3
-1646.83 695.45 2146.0
-1621.91 699.10 2157.2
-1637.18 718.06 2215.7
-1661.44 731.27 2256.5
-1625.37 749.71 2313.4
-1616.78 748.51 2309.7
-1622.58 753.98 2326.6
-1616.78 768.43 2371.2
-1615.16 770.59 2377.8
-1630.83 781.05 2410.1
-1606.97 772.58 2384.0
-1612.81 778.38 2401.9
-1623.21 789.50 2436.2
-1580.79 771.87 2381.8
-1531.12 750.55 2316.0
-1521.31 754.62 2328.5
-1664.37 657.27 2044.5
-1662.46 678.11 2109.3
-1661.45 720.35 2240.7
-1647.21 716.68 2229.3
-1644.19 744.09 2314.6
-1622.33 742.32 2309.1
-1616.52 742.40 2309.3
-1617.77 751.33 2337.1
-1648.71 774.39 2408.8
-1634.52 770.65 2397.2
-1623.37 777.21 2417.6
-1613.55 775.50 2412.3
-1614.98 779.21 2423.8
-1592.33 771.29 2399.2
-1556.98 757.12 2355.1
-1544.64 754.07 2345.6
-1528.08 748.94 2329.7
-1639.41 642.19 2013.8
-1648.74 649.98 2038.3
-1661.87 657.27 2061.1
-1627.18 651.93 2044.4
-1661.71 714.65 2241.1
-1626.20 711.82 2232.2
-1642.97 734.86 2304.4
-1606.93 721.36 2262.1
-1618.00 728.99 2286.0
-1631.76 737.89 2313.9
-1622.61 736.46 2309.5
-1616.81 736.55 2309.7
-1597.37 738.63 2316.3
-1605.22 745.06 2336.4
-1638.66 763.47 2394.1
-1609.23 761.29 2387.3
-1601.61 760.61 2385.2
-1607.42 766.33 2403.1
-1622.81 776.68 2435.6
-1596.93 767.27 2406.1
-1557.82 751.42 2356.4
-1554.50 752.77 2360.6
-1546.93 752.06 2358.4
-1665.06 649.00 2051.9
-1656.75 656.25 2074.8
-1643.07 652.94 2064.3
-1661.23 680.10 2150.2
-1651.69 678.47 2145.1
-1634.35 707.06 2235.4
-1631.01 708.13 2238.8
-1637.33 713.41 2255.5
-1637.27 721.11 2279.9
-1618.59 715.46 2262.0
-1620.20 718.78 2272.5
-1612.80 718.11 2270.4
-1613.79 721.18 2280.1
-1619.77 726.51 2296.9
-1620.11 729.35 2305.9
-1654.17 755.84 2389.7
-1638.31 751.41 2375.6
-1624.14 747.72 2364.0
-1635.15 755.64 2389.0
-1602.53 749.08 2368.3
-1590.62 746.37 2359.7
-1584.13 746.19 2359.2
-1590.53 752.11 2377.9
-1610.81 764.66 2417.6
-1588.16 756.86 2392.9
-1560.79 746.73 2360.9
-1568.63 753.44 2382.1
-1571.09 757.60 2395.2
-1554.99 752.81 2380.1
-1657.53 651.17 2075.8
-1634.16 644.08 2053.2
-1654.92 654.40 2086.0
-1655.37 676.69 2157.1
-1619.89 664.43 2118.0
-1641.59 675.62 2153.7
-1647.01 689.58 2198.2
-1644.40 690.88 2202.3
-1635.04 699.08 2228.5
-1644.32 705.54 2249.1
-1629.00 714.16 2276.5
-1614.84 710.53 2265.0
-1623.16 716.80 2285.0
-1641.48 727.54 2319.2
-1639.02 729.12 2324.2
-1627.73 743.23 2369.2
-1624.52 744.57 2373.5
-1630.01 749.93 2390.6
-1646.86 760.57 2424.5
-1646.22 763.19 2432.8
-1629.86 758.51 2417.9
-1617.33 755.59 2408.6
-1595.14 748.11 2384.8
-1585.37 746.42 2379.4
-1607.19 759.65 2421.5
-1622.44 769.86 2454.1
-1587.03 756.02 2410.0
-1547.52 740.12 2359.3
-1537.30 738.15 2353.0
-1664.98 648.69 2085.1
-1628.88 636.69 2046.5
-1637.59 642.19 2064.2
-1658.87 688.81 2214.0
-1645.20 685.50 2203.4
-1647.78 688.97 2214.5
-1645.61 697.78 2242.9
-1652.05 723.53 2325.6
-1638.90 739.36 2376.5
-1603.33 726.04 2333.7
-1600.19 727.36 2337.9
-1601.39 730.67 2348.6
-1614.52 739.48 2376.9
-1639.48 753.78 2422.9
-1648.57 760.88 2445.7
-1640.30 759.99 2442.8
-1623.97 755.33 2427.9
-1589.43 742.15 2385.5
-1584.48 742.73 2387.3
-1609.95 757.62 2435.2
-1585.20 748.91 2407.2
-1560.02 739.93 2378.4
-1563.00 744.28 2392.3
-1526.86 729.97 2346.3
-1670.86 625.26 2026.6
-1658.28 644.89 2090.3
-1647.60 642.83 2083.6
-1645.18 659.18 2136.6
-1668.66 680.04 2204.2
-1648.53 674.14 2185.1
-1641.50 685.40 2221.6
-1627.35 717.24 2324.8
-1631.50 721.74 2339.4
-1605.72 712.99 2311.0
-1616.08 722.98 2343.4
-1631.59 732.68 2374.8
-1614.27 733.20 2376.5
-1625.13 740.96 2401.7
-1625.06 743.78 2410.8
-1608.21 738.91 2395.0
-1604.89 740.24 2399.3
-1583.81 733.36 2377.0
-1575.14 732.19 2373.3
-1596.38 744.98 2414.7
-1589.76 744.81 2414.2
-1582.09 744.14 2412.0
-1584.47 748.22 2425.2
-1545.62 732.78 2375.2
-1655.04 629.98 2059.3
-1656.69 653.81 2137.2
-1639.44 649.17 2122.0
-1641.81 652.30 2132.2
-1643.07 663.98 2170.4
-1628.07 662.46 2165.4
-1650.95 683.55 2234.4
-1645.93 683.87 2235.4
-1647.38 717.31 2344.7
-1638.74 716.19 2341.1
-1645.08 721.63 2358.9
-1621.47 713.93 2333.7
-1597.40 705.97 2307.6
-1616.90 717.27 2344.6
-1640.66 730.56 2388.0
-1628.13 736.09 2406.1
-1593.39 723.15 2363.8
-1602.02 729.88 2385.8
-1604.52 736.70 2408.1
-1597.39 736.30 2406.8
-1615.91 747.75 2444.2
-1604.98 745.62 2437.3
-1589.82 741.50 2423.8
-1584.77 742.08 2425.7
-1576.54 741.16 2422.7
-1557.26 735.03 2402.6
-1657.63 625.62 2062.5
-1646.96 623.61 2055.8
-1650.91 646.01 2129.7
-1640.11 650.48 2144.4
-1647.96 660.31 2176.9
-1647.76 662.50 2184.1
-1615.86 684.98 2258.2
-1622.01 690.09 2275.0
-1657.36 718.19 2367.7
-1652.56 718.77 2369.6
-1650.79 737.19 2430.3
-1622.44 727.30 2397.7
-1595.83 718.12 2367.4
-1615.27 729.68 2405.5
-1643.20 745.17 2456.6
-1628.46 741.36 2444.0
-1598.21 730.43 2408.0
-1593.22 731.01 2409.9
-1599.95 736.98 2429.6
-1600.75 740.27 2440.4
-1589.84 738.14 2433.4
-1576.84 735.02 2423.1
-1570.72 735.10 2423.4
-1529.91 718.87 2369.9
-1667.52 623.98 2074.8
-1647.70 618.56 2056.8
-1637.33 643.83 2140.8
-1649.31 695.71 2313.3
-1645.21 696.51 2316.0
-1654.50 713.46 2372.4
-1649.13 713.80 2373.5
-1627.47 712.40 2368.8
-1622.08 712.73 2369.9
-1627.07 717.64 2386.3
-1630.91 722.08 2401.0
-1612.93 716.86 2383.6
-1598.81 713.31 2371.9
-1630.16 730.11 2427.7
-1637.36 739.04 2457.4
-1589.37 720.18 2394.7
-1603.66 729.51 2425.7
-1630.64 744.70 2476.2
-1618.59 742.12 2467.6
-1595.43 734.41 2442.0
-1578.18 729.36 2425.2
-1567.32 727.24 2418.1
-1549.64 721.92 2400.5
-1493.03 701.18 2331.5
-1629.58 610.43 2047.4
-1630.45 612.75 2055.2
-1630.84 640.09 2146.9
-1634.82 643.85 2159.5
-1648.73 651.56 2185.4
-1649.54 689.81 2313.6
-1648.82 692.02 2321.1
-1634.20 698.63 2343.2
-1626.66 698.01 2341.1
-1635.72 704.52 2363.0
-1638.07 708.19 2375.3
-1637.08 710.43 2382.8
-1629.47 709.81 2380.7
-1634.45 714.68 2397.1
-1623.54 712.62 2390.2
-1592.52 701.68 2353.5
-1603.95 709.44 2379.5
-1622.04 725.82 2434.4
-1586.96 712.89 2391.1
-1612.51 727.21 2439.1
-1634.67 740.11 2482.3
-1619.95 736.34 2469.7
-1616.95 737.89 2474.9
-1619.74 742.11 2489.1
-1597.14 734.69 2464.2
-1568.85 724.57 2430.2
-1508.45 702.31 2355.6
-1496.18 699.43 2345.9
-1656.76 599.59 2028.7
-1630.01 603.31 2041.3
-1627.36 635.34 2149.6
-1655.94 648.72 2194.9
-1612.48 644.99 2182.3
-1642.32 661.57 2238.4
-1641.40 665.91 2253.1
-1612.33 656.45 2221.1
-1612.55 666.05 2253.6
-1616.47 670.10 2267.3
-1647.78 698.32 2362.7
-1639.11 697.23 2359.1
-1633.76 697.56 2360.2
-1620.68 694.58 2350.1
-1642.29 706.49 2390.4
-1658.26 716.07 2422.8
-1630.88 706.92 2391.8
-1624.30 712.19 2409.7
-1635.43 722.63 2445.0
-1616.39 717.00 2425.9
-1616.22 719.72 2435.1
-1616.54 722.69 2445.2
-1600.01 720.95 2439.3
-1601.84 724.64 2451.8
-1614.21 733.15 2480.6
-1603.77 731.32 2474.4
-1579.65 723.22 2447.0
-1549.34 712.20 2409.7
-1506.61 695.36 2352.7
-1661.50 592.27 2021.7
-1650.81 601.75 2054.0
-1632.84 597.12 2038.2
-1639.24 601.41 2052.9
-1644.38 605.26 2066.0
-1636.75 604.42 2063.1
-1640.28 636.95 2174.2
-1641.08 646.14 2205.5
-1639.02 647.59 2210.5
-1643.31 651.56 2224.0
-1621.58 645.20 2202.3
-1637.33 653.78 2231.6
-1615.95 652.15 2226.1
-1616.62 654.76 2235.0
-1629.17 667.02 2276.8
-1661.37 697.90 2382.2
-1645.45 693.79 2368.2
-1634.00 691.54 2360.5
-1602.70 680.85 2324.0
-1606.76 685.15 2338.7
-1643.16 703.32 2400.7
-1637.16 703.42 2401.0
-1597.84 689.15 2352.3
-1599.55 692.52 2363.9
-1621.30 704.64 2405.2
-1628.27 710.40 2424.9
-1628.14 713.10 2434.1
-1623.13 713.67 2436.0
-1638.51 723.25 2468.7
-1614.13 720.94 2460.8
-1606.36 720.31 2458.7
-1608.14 723.98 2471.2
-1617.78 731.24 2496.0
-1614.69 732.77 2501.2
-1579.54 719.71 2456.7
-1483.10 681.26 2325.4
-1662.82 598.83 2062.3
-1642.37 593.37 2043.5
-1631.72 591.43 2036.8
-1644.83 598.12 2059.9
-1631.45 613.16 2111.7
-1638.02 617.70 2127.3
-1649.83 634.99 2186.8
-1647.61 663.79 2286.0
-1640.61 668.18 2301.1
-1623.58 663.65 2285.5
-1639.77 672.73 2316.8
-1646.91 683.16 2352.7
-1623.36 683.52 2354.0
-1616.35 683.14 2352.6
-1642.86 696.97 2400.3
-1673.02 712.46 2453.6
-1639.56 703.57 2423.0
-1625.90 700.39 2412.0
-1621.48 701.18 2414.8
-1610.03 698.93 2407.0
-1596.44 695.73 2396.0
-1603.31 701.45 2415.7
-1630.92 721.99 2486.4
-1615.14 717.84 2472.2
-1607.88 717.46 2470.9
-1607.50 720.16 2480.1
-1592.32 716.22 2466.6
-1547.76 698.99 2407.2
-1496.12 683.94 2355.4
-1654.59 583.05 2026.0
-1659.55 598.08 2078.3
-1636.89 607.68 2111.6
-1634.58 610.91 2122.8
-1637.55 614.08 2133.9
-1625.08 611.47 2124.8
-1639.81 619.11 2151.4
-1654.22 635.36 2207.8
-1627.76 645.29 2242.3
-1644.96 654.45 2274.1
-1663.19 664.08 2307.6
-1670.78 674.39 2343.4
-1646.90 667.18 2318.4
-1644.05 673.39 2340.0
-1653.83 679.91 2362.6
-1665.19 687.12 2387.7
-1654.05 692.83 2407.5
-1668.93 701.71 2438.4
-1669.91 707.48 2458.4
-1619.64 688.81 2393.6
-1629.74 701.17 2436.5
-1599.92 691.02 2401.2
-1611.09 698.56 2427.4
-1640.26 719.64 2500.7
-1624.98 715.77 2487.2
-1617.70 715.40 2485.9
-1579.75 701.41 2437.3
-1501.75 672.16 2335.7
-1511.52 679.26 2360.4
-1527.97 689.45 2395.8
-1488.78 677.27 2353.5
-1633.51 593.02 2079.4
-1644.76 613.30 2150.5
-1648.19 625.17 2192.2
-1648.54 627.47 2200.2
-1654.11 631.78 2215.3
-1657.71 651.24 2283.6
-1647.81 659.12 2311.2
-1620.60 650.60 2281.3
-1633.07 662.87 2324.3
-1646.79 670.92 2352.6
-1648.16 673.97 2363.3
-1638.37 672.47 2358.0
-1648.68 681.78 2390.7
-1649.88 684.86 2401.4
-1655.43 689.76 2418.7
-1664.21 696.06 2440.7
-1634.08 686.06 2405.7
-1592.61 671.21 2353.6
-1614.97 683.26 2395.8
-1637.03 697.96 2447.4
-1623.36 694.82 2436.4
-1644.63 712.24 2497.5
-1647.47 716.29 2511.7
-1598.51 703.35 2466.3
-1558.04 688.29 2413.5
-1524.33 678.85 2380.4
-1512.00 676.10 2370.7
-1501.80 674.28 2364.3
-1480.69 667.53 2340.7
-1466.41 663.81 2327.6
-1636.91 581.18 2056.6
-1635.00 590.11 2088.2
-1635.83 616.97 2183.3
-1646.68 623.22 2205.4
-1672.76 653.52 2312.6
-1657.06 668.96 2367.2
-1618.28 655.74 2320.4
-1623.02 660.11 2335.9
-1640.18 674.64 2387.3
-1636.42 675.64 2390.9
-1633.73 677.10 2396.0
-1646.89 685.16 2424.5
-1628.26 682.62 2415.5
-1619.50 681.57 2411.8
-1617.25 683.26 2417.8
-1615.51 685.18 2424.6
-1650.25 708.18 2506.0
-1623.18 710.55 2514.4
-1592.16 699.78 2476.3
-1560.76 688.75 2437.3
-1520.60 673.76 2384.2
-1481.16 658.96 2331.9
-1480.39 661.32 2340.2
-1485.81 666.47 2358.4
-1642.47 577.81 2063.6
-1657.50 643.92 2299.7
-1659.16 646.89 2310.3
-1635.81 640.10 2286.1
-1606.88 631.06 2253.8
-1644.11 648.05 2314.4
-1634.09 656.07 2343.1
-1644.36 662.65 2366.6
-1637.80 672.56 2402.0
-1624.68 669.72 2391.8
-1620.82 675.86 2413.8
-1607.73 673.00 2403.6
-1628.16 684.21 2443.6
-1643.01 698.60 2495.0
-1648.00 703.50 2512.5
-1644.94 704.97 2517.8
-1591.44 695.85 2485.2
-1549.61 680.31 2429.7
-1504.85 663.36 2369.1
-1498.29 663.18 2368.5
-1476.68 656.30 2343.9
-1641.62 593.42 2139.2
-1647.05 605.62 2183.1
-1641.58 605.69 2183.4
-1645.13 633.20 2282.6
-1636.01 631.96 2278.1
-1649.61 639.52 2305.4
-1656.31 644.45 2323.1
-1634.22 645.25 2326.0
-1656.36 656.41 2366.2
-1658.47 662.15 2386.9
-1663.07 666.47 2402.5
-1667.61 681.05 2455.0
-1642.77 678.67 2446.5
-1637.75 679.22 2448.5
-1639.81 688.08 2480.4
-1599.33 673.73 2428.7
-1585.75 670.65 2417.6
-1583.93 672.54 2424.4
-1600.14 682.13 2458.9
-1628.93 697.18 2513.2
-1612.15 695.56 2507.4
-1593.26 690.20 2488.0
-1567.64 681.86 2458.0
-1538.47 671.90 2422.1
-1503.18 659.18 2376.2
-1654.26 576.81 2098.9
-1644.70 588.98 2143.2
-1638.68 590.82 2149.9
-1647.75 617.18 2245.8
-1621.39 609.46 2217.7
-1667.56 635.83 2313.7
-1633.33 625.03 2274.4
-1622.52 623.14 2267.5
-1639.49 631.95 2299.6
-1622.63 634.68 2309.5
-1619.63 635.86 2313.8
-1642.29 647.15 2354.9
-1645.32 650.76 2368.0
-1641.63 651.73 2371.5
-1651.21 658.00 2394.3
-1659.84 679.32 2471.9
-1663.45 683.43 2486.9
-1653.48 681.98 2481.6
-1628.98 674.50 2454.4
-1640.83 684.75 2491.7
-1610.56 674.78 2455.4
-1591.08 669.26 2435.3
-1571.67 663.73 2415.2
-1565.58 663.80 2415.5
-1582.20 673.55 2450.9
-1583.94 677.01 2463.5
-1570.91 674.16 2453.1
-1550.58 668.14 2431.2
-1550.70 670.92 2441.3
-1544.53 670.98 2441.6
-1504.09 656.10 2387.4
-1469.54 643.68 2342.2
-1640.62 583.95 2145.1
-1631.62 584.71 2147.9
-1637.87 605.55 2224.5
-1648.16 615.86 2262.3
-1637.42 616.23 2263.7
-1673.59 646.05 2373.3
-1645.81 637.67 2342.5
-1611.97 626.88 2302.8
-1604.52 626.30 2300.7
-1622.12 635.53 2334.6
-1631.27 641.51 2356.6
-1629.80 643.34 2363.3
-1641.02 650.22 2388.5
-1662.06 661.05 2428.3
-1665.92 665.10 2443.2
-1652.67 664.87 2442.4
-1652.58 667.39 2451.6
-1654.63 670.80 2464.2
-1659.89 675.54 2481.6
-1651.01 674.54 2477.9
-1635.13 670.66 2463.7
-1618.80 671.83 2468.0
-1620.09 675.04 2479.7
-1618.14 676.91 2486.6
-1591.24 668.32 2455.1
-1588.24 669.74 2460.3
-1591.02 673.62 2474.5
-1579.55 671.47 2466.6
-1572.29 671.10 2465.3
-1586.46 679.91 2497.6
-1561.95 674.92 2479.3
-1480.25 644.92 2369.1
-1661.41 639.95 2373.4
-1632.61 631.19 2341.0
-1642.01 639.58 2372.1
-1643.29 642.49 2382.9
-1626.84 638.46 2367.9
-1619.82 638.11 2366.6
-1635.88 646.89 2399.2
-1639.76 650.90 2414.0
-1649.60 657.31 2437.8
-1664.80 665.92 2469.8
-1653.77 664.06 2462.9
-1638.25 662.95 2458.7
-1625.10 660.20 2448.5
-1624.36 662.48 2457.0
-1612.32 660.16 2448.4
-1599.23 657.39 2438.1
-1618.18 667.82 2476.8
-1623.90 678.26 2515.5
-1570.68 658.67 2442.9
-1607.12 676.68 2509.7
-1554.87 662.73 2457.9
-1542.43 660.13 2448.3
-1519.65 653.07 2422.1
-1491.29 643.54 2386.8
-1461.00 633.10 2348.0
-1653.21 551.07 2063.6
-1648.70 583.56 2185.3
-1673.63 631.44 2364.6
-1668.88 631.97 2366.6
-1645.59 625.45 2342.2
-1657.11 632.16 2367.3
-1612.09 626.59 2346.4
-1602.34 625.16 2341.1
-1616.27 632.99 2370.4
-1618.01 636.09 2382.0
-1624.63 641.14 2400.9
-1648.64 653.12 2445.8
-1646.36 654.73 2451.8
-1637.53 653.74 2448.1
-1632.51 654.27 2450.1
-1628.01 655.02 2452.9
-1636.41 660.98 2475.2
-1622.19 657.82 2463.4
-1604.79 653.33 2446.6
-1575.63 654.40 2450.6
-1611.55 672.02 2516.6
-1592.15 669.35 2506.6
-1540.48 650.29 2435.2
-1526.52 647.04 2423.0
-1481.15 633.02 2370.5
-1486.42 637.92 2388.9
-1637.79 558.71 2112.8
-1649.40 578.14 2186.2
-1647.53 600.17 2269.6
-1647.61 606.70 2294.3
-1654.76 616.00 2329.4
-1659.12 619.89 2344.1
-1652.15 619.56 2342.9
-1631.14 613.94 2321.6
-1644.39 621.21 2349.1
-1653.62 627.02 2371.1
-1640.47 624.36 2361.0
-1648.48 629.76 2381.4
-1649.76 632.61 2392.2
-1624.43 625.25 2364.4
-1616.86 624.70 2362.3
-1632.95 633.31 2394.9
-1636.30 637.03 2409.0
-1633.03 638.19 2413.3
-1634.04 643.52 2433.5
-1614.93 638.46 2414.3
-1631.63 647.57 2448.8
-1649.27 657.13 2485.0
-1634.44 658.94 2491.8
-1595.37 648.32 2451.6
-1588.16 647.97 2450.3
-1586.24 649.78 2457.2
-1571.08 646.17 2443.5
-1582.83 653.64 2471.7
-1586.58 657.85 2487.7
-1572.48 654.67 2475.6
-1559.47 651.91 2465.2
-1513.71 635.39 2402.7
-1463.01 616.64 2331.8
-1479.39 628.74 2377.6
-1476.40 630.10 2382.7
-1643.14 568.35 2170.5
-1667.20 601.38 2296.6
-1629.95 590.05 2253.4
-1640.91 598.31 2284.9
-1648.78 605.55 2312.6
-1645.28 606.47 2316.1
-1660.40 614.29 2345.9
-1644.79 613.00 2341.0
-1640.93 616.11 2352.9
-1638.96 617.67 2358.8
-1655.04 630.79 2409.0
-1647.94 630.46 2407.7
-1644.57 641.32 2449.2
-1622.17 635.04 2425.2
-1635.07 642.58 2454.0
-1642.45 648.00 2474.7
-1653.53 654.93 2501.1
-1596.64 642.47 2453.6
-1589.95 642.34 2453.1
-1587.49 643.92 2459.1
-1579.20 643.14 2456.1
-1598.30 653.56 2495.9
-1567.45 646.17 2467.7
-1570.63 650.14 2482.8
-1543.04 641.35 2449.3
-1491.71 622.57 2377.6
-1487.19 623.26 2380.2
-1476.99 621.57 2373.7
-1659.82 530.29 2045.4
-1655.70 532.38 2053.5
-1663.13 561.87 2167.2
-1649.57 591.24 2280.5
-1652.46 594.41 2292.7
-1646.17 594.29 2292.2
-1637.03 593.13 2287.8
-1639.84 596.30 2300.0
-1645.99 600.73 2317.1
-1657.73 607.23 2342.2
-1654.15 608.14 2345.7
-1626.38 600.14 2314.8
-1616.66 598.76 2309.5
-1614.78 600.29 2315.4
-1611.77 601.41 2319.7
-1653.69 631.18 2434.5
-1626.26 623.09 2403.3
-1604.29 639.16 2465.3
-1619.90 647.96 2499.3
-1620.01 650.61 2509.5
-1614.27 650.91 2510.7
-1604.30 649.51 2505.3
-1569.13 637.86 2460.3
-1567.12 639.64 2467.2
-1594.85 653.63 2521.1
-1594.78 656.29 2531.4
-1570.78 649.08 2503.6
-1541.19 639.50 2466.6
-1463.90 612.51 2362.5
-1647.63 554.81 2161.6
-1657.15 565.72 2204.1
-1681.75 590.40 2300.3
-1670.28 596.96 2325.8
-1646.27 590.51 2300.7
-1633.71 588.14 2291.4
-1633.65 590.26 2299.7
-1654.08 604.26 2354.3
-1626.89 596.53 2324.1
-1607.08 591.45 2304.4
-1607.44 593.79 2313.5
-1624.58 633.20 2467.0
-1625.62 638.64 2488.2
-1590.61 627.37 2444.3
-1631.80 646.19 2517.6
-1621.34 647.23 2521.7
-1578.15 632.54 2464.4
-1554.60 625.63 2437.5
-1564.17 632.05 2462.5
-1573.64 638.48 2487.6
-1555.40 633.68 2468.9
-1559.55 638.00 2485.7
-1555.87 639.14 2490.1
-1524.30 628.77 2449.8
-1455.95 605.63 2359.6
-1658.17 576.24 2268.0
-1635.54 582.85 2294.0
-1609.09 606.50 2387.1
-1632.02 617.52 2430.5
-1653.70 628.15 2472.3
-1639.41 625.15 2460.5
-1635.77 628.65 2474.3
-1643.59 634.14 2495.9
-1657.76 642.14 2527.4
-1623.13 631.22 2484.4
-1589.19 620.48 2442.1
-1631.99 639.74 2517.9
-1602.50 633.25 2492.4
-1582.02 627.68 2470.5
-1580.01 629.44 2477.4
-1565.40 626.16 2464.5
-1548.74 622.03 2448.2
-1532.65 618.11 2432.8
-1541.04 624.06 2456.2
-1543.63 627.70 2470.5
-1518.28 619.96 2440.1
-1478.11 606.09 2385.5
-1448.41 596.40 2347.4
-1641.85 518.76 2062.8
-1670.99 574.77 2285.6
-1643.61 579.75 2305.3
-1647.04 612.12 2434.0
-1617.45 603.43 2399.5
-1627.27 609.44 2423.4
-1666.93 626.72 2492.1
-1638.32 620.77 2468.5
-1615.98 614.71 2444.3
-1619.55 618.49 2459.4
-1639.37 631.03 2509.2
-1650.73 637.93 2536.7
-1627.92 631.63 2511.7
-1579.20 615.19 2446.3
-1574.64 615.89 2449.0
-1596.44 626.94 2493.0
-1588.61 626.40 2490.9
-1568.20 620.88 2468.9
-1549.95 616.17 2450.2
-1533.86 612.28 2434.7
-1484.21 597.38 2375.4
-1475.57 596.38 2371.4
-1451.48 589.09 2342.5
-1662.97 518.33 2082.6
-1669.31 543.23 2182.6
-1635.29 535.79 2152.7
-1642.91 540.14 2170.2
-1663.64 580.76 2333.4
-1676.15 591.58 2376.9
-1669.69 591.48 2376.5
-1652.68 607.88 2442.4
-1628.54 601.31 2416.0
-1626.88 603.01 2422.8
-1637.94 623.98 2507.0
-1647.27 632.55 2541.5
-1608.56 620.17 2491.7
-1615.56 625.38 2512.7
-1632.50 634.50 2549.3
-1620.89 632.54 2541.5
-1612.44 631.81 2538.5
-1606.09 631.91 2538.9
-1550.71 612.63 2461.4
-1487.29 590.00 2370.5
-1453.49 581.39 2336.0
-1438.22 577.69 2321.1
-1647.32 506.46 2056.3
-1645.22 507.45 2060.3
-1650.89 528.06 2144.0
-1650.90 529.85 2151.3
-1645.86 542.90 2204.3
-1653.23 547.24 2221.9
-1670.01 576.91 2342.3
-1678.19 583.99 2371.1
-1664.97 581.52 2361.0
-1658.54 581.41 2360.6
-1649.30 580.31 2356.1
-1637.82 578.41 2348.4
-1635.58 581.95 2362.8
-1629.69 582.03 2363.1
-1635.99 586.49 2381.2
-1636.91 595.81 2419.1
-1625.47 605.57 2458.7
-1622.57 611.68 2483.5
-1608.89 608.94 2472.4
-1645.32 625.22 2538.5
-1646.98 630.90 2561.5
-1582.70 618.75 2512.2
-1540.50 604.74 2455.3
-1532.73 604.19 2453.1
-1454.32 578.08 2347.1
-1442.14 575.64 2337.2
-1659.86 503.31 2065.3
-1641.58 532.10 2183.4
-1652.60 537.52 2205.6
-1638.28 534.72 2194.1
-1641.58 537.66 2206.2
-1641.16 547.05 2244.7
-1639.74 550.48 2258.8
-1651.34 556.37 2283.0
-1670.79 569.04 2335.0
-1654.17 565.43 2320.1
-1651.80 566.68 2325.3
-1670.94 575.34 2360.8
-1655.84 574.35 2356.8
-1624.67 565.63 2321.0
-1635.69 571.58 2345.4
-1667.51 587.06 2408.9
-1661.66 589.42 2418.6
-1644.02 585.37 2402.0
-1635.16 598.07 2454.1
-1620.92 595.18 2442.2
-1613.73 594.87 2440.9
-1615.23 602.51 2472.3
-1585.81 596.27 2446.7
-1615.27 609.78 2502.1
-1623.85 615.49 2525.6
-1617.55 615.58 2526.0
-1604.39 613.06 2515.6
-1594.94 611.94 2511.0
-1583.41 610.00 2503.1
-1560.94 603.82 2477.7
-1550.54 602.28 2471.3
-1565.58 610.64 2505.7
-1549.96 607.07 2491.0
-1440.72 569.02 2334.9
-1657.63 495.69 2055.9
-1652.84 530.05 2198.4
-1639.11 527.46 2187.6
-1624.23 524.49 2175.3
-1637.87 532.59 2208.9
-1639.35 534.94 2218.7
-1651.84 540.92 2243.4
-1656.12 544.24 2257.2
-1643.54 542.02 2248.0
-1644.29 544.20 2257.0
-1653.65 549.25 2278.0
-1637.75 549.86 2280.5
-1637.19 551.66 2288.0
-1638.88 554.24 2298.7
-1624.62 551.42 2287.0
-1633.07 556.32 2307.3
-1631.69 559.95 2322.4
-1641.08 565.26 2344.4
-1645.74 604.96 2509.0
-1621.81 598.53 2482.4
-1612.94 597.62 2478.6
-1582.75 588.78 2442.0
-1575.03 588.26 2439.8
-1602.81 601.05 2492.9
-1615.60 608.30 2522.9
-1611.93 609.39 2527.4
-1582.00 602.98 2500.8
-1541.25 589.86 2446.4
-1521.09 586.98 2434.5
-1528.38 592.25 2456.3
-1667.49 493.28 2068.1
-1658.62 492.24 2063.7
-1633.27 529.09 2218.2
-1676.15 548.78 2300.8
-1629.81 541.31 2269.5
-1641.27 547.09 2293.7
-1644.66 550.22 2306.8
-1632.09 548.00 2297.5
-1632.02 549.99 2305.8
-1642.67 555.61 2329.4
-1634.60 554.92 2326.5
