ply
format ascii 1.0
element vertex 2074
property float x
property float y
property float z
end_header
-1629.91 1053.39 2745.3
-1623.49 1053.84 2746.5
-1604.06 1045.82 2725.6
-1600.54 1048.14 2731.6
-1596.52 1050.15 2736.9
-1629.24 1081.29 2818.0
-1608.43 1072.28 2794.6
-1570.87 1066.46 2779.4
-1591.73 1085.60 2829.3
-1580.87 1083.19 2823.0
-1570.04 1080.77 2816.7
-1577.62 1091.07 2843.5
-1582.34 1099.47 2865.4
-1577.38 1101.19 2869.9
-1551.47 1088.23 2836.1
-1548.35 1091.21 2843.9
-1531.64 1084.61 2826.7
-1648.57 965.50 2533.4
-1643.77 966.53 2536.1
-1642.32 981.38 2575.1
-1600.40 988.48 2593.7
-1610.78 999.09 2621.5
-1623.98 1020.19 2676.9
-1628.06 1027.14 2695.1
-1607.71 1027.53 2696.2
-1610.13 1033.58 2712.0
-1629.40 1050.54 2756.5
-1634.04 1058.16 2776.5
-1571.28 1069.35 2805.9
-1563.01 1094.11 2870.8
-1534.96 1079.61 2832.8
-1512.45 1068.90 2804.7
-1510.23 1072.48 2814.1
-1635.57 951.37 2513.4
-1634.14 969.86 2562.2
-1614.93 990.67 2617.2
-1637.24 1008.59 2664.6
-1617.32 1013.43 2677.3
-1612.05 1014.48 2680.1
-1645.85 1040.24 2748.2
-1627.69 1037.74 2741.6
-1614.99 1034.16 2732.1
-1632.22 1049.80 2773.4
-1609.06 1053.47 2783.1
-1605.41 1065.41 2814.7
-1565.23 1072.88 2834.4
-1557.59 1072.68 2833.9
-1530.36 1058.92 2797.5
-1505.55 1046.71 2765.3
-1501.65 1049.00 2771.3
-1507.64 1058.25 2795.8
-1518.45 1070.98 2829.4
-1515.71 1074.24 2838.0
-1642.64 902.21 2400.0
-1638.22 903.20 2402.6
-1635.95 960.38 2554.7
-1616.21 952.64 2534.1
-1631.65 977.64 2600.6
-1610.01 976.79 2598.3
-1625.33 994.40 2645.2
-1592.49 995.31 2647.6
-1590.69 998.49 2656.1
-1631.61 1046.83 2784.7
-1573.82 1014.24 2698.0
-1577.50 1021.15 2716.4
-1605.96 1063.30 2828.5
-1580.04 1055.79 2808.5
-1584.08 1063.39 2828.7
-1561.67 1053.22 2801.7
-1554.57 1053.33 2802.0
-1552.51 1056.87 2811.4
-1546.29 1057.61 2813.3
-1518.18 1043.30 2775.3
-1517.24 1062.80 2827.2
-1501.54 1056.91 2811.5
-1638.65 940.10 2518.1
-1654.12 952.77 2552.1
-1663.25 961.88 2576.5
-1642.36 953.63 2554.4
-1621.54 945.35 2532.2
-1613.63 944.56 2530.1
-1626.09 967.59 2591.8
-1644.84 982.81 2632.5
-1624.17 999.49 2677.2
-1598.92 992.43 2658.3
-1615.74 1011.59 2709.6
-1651.69 1038.62 2782.0
-1628.83 1037.84 2779.9
-1588.76 1016.81 2723.6
-1610.55 1035.36 2773.3
-1593.87 1048.03 2807.2
-1582.58 1045.37 2800.1
-1571.67 1047.78 2806.5
-1565.03 1048.20 2807.7
-1573.60 1058.87 2836.3
-1548.50 1046.87 2804.1
-1531.52 1045.21 2799.7
-1538.94 1055.27 2826.6
-1515.01 1043.84 2796.0
-1522.32 1053.91 2823.0
-1604.16 976.15 2633.0
-1608.90 983.21 2652.0
-1603.69 984.24 2654.8
-1592.38 990.04 2670.5
-1611.42 1006.26 2714.2
-1622.52 1017.63 2744.9
-1633.01 1028.72 2774.8
-1568.61 1033.69 2788.2
-1568.53 1038.42 2800.9
-1573.94 1046.86 2823.7
-1582.95 1057.77 2853.1
-1560.11 1047.40 2825.1
-1537.38 1037.00 2797.1
-1556.28 1054.73 2844.9
-1539.59 1058.47 2855.0
-1534.58 1060.12 2859.5
-1532.24 1063.64 2869.0
-1635.96 988.54 2685.2
-1636.64 993.17 2697.8
-1637.27 997.82 2710.4
-1624.07 994.05 2700.1
-1603.08 985.44 2676.8
-1613.91 996.42 2706.6
-1602.23 993.52 2698.7
-1582.33 985.49 2676.9
-1580.40 988.62 2685.4
-1579.39 992.36 2695.6
-1616.76 1020.35 2771.6
-1609.48 1024.87 2783.9
-1624.81 1039.29 2823.0
-1616.27 1043.23 2833.7
-1600.46 1047.31 2844.8
-1602.13 1053.25 2860.9
-1581.47 1044.51 2837.2
-1565.99 1039.12 2822.5
-1562.53 1041.68 2829.5
-1558.57 1043.95 2835.7
-1570.11 1056.66 2870.2
-1547.42 1051.35 2855.8
-1664.66 875.81 2395.8
-1654.30 873.62 2389.8
-1639.87 882.53 2414.2
-1631.26 888.06 2429.3
-1636.48 915.65 2504.8
-1635.00 981.00 2683.6
-1596.44 982.96 2689.0
-1586.74 981.28 2684.3
-1595.93 991.30 2711.8
-1579.84 990.03 2708.3
-1631.89 1027.22 2810.0
-1630.14 1035.36 2832.3
-1593.57 1035.45 2832.5
-1595.73 1041.66 2849.5
-1578.34 1035.10 2831.6
-1558.25 1026.69 2808.6
-1550.67 1026.50 2808.1
-1562.35 1039.11 2842.6
-1536.20 1036.38 2835.1
-1515.90 1027.60 2811.1
-1536.19 1046.39 2862.5
-1660.93 884.15 2435.9
-1649.99 881.67 2429.1
-1630.63 881.42 2428.4
-1630.91 884.99 2438.2
-1645.83 907.15 2499.3
-1649.86 923.92 2545.5
-1644.21 943.40 2599.2
-1625.47 936.48 2580.1
-1643.37 950.71 2619.3
-1617.38 993.13 2736.2
-1637.13 1009.68 2781.8
-1620.50 1003.85 2765.7
-1616.43 1005.78 2771.0
-1579.62 1005.22 2769.5
-1607.94 1027.91 2832.0
-1600.68 1032.70 2845.2
-1567.43 1015.93 2799.0
-1570.09 1022.39 2816.8
-1569.44 1026.74 2828.8
-1559.98 1025.34 2824.9
-1570.73 1037.27 2857.8
-1539.94 1031.54 2842.0
-1534.99 1033.16 2846.5
-1515.58 1030.01 2837.8
-1663.32 862.69 2393.9
-1635.52 861.13 2389.6
-1644.10 896.20 2486.9
-1656.30 906.40 2515.2
-1660.36 919.48 2551.5
-1625.67 911.16 2528.4
-1640.48 923.18 2561.8
-1662.86 939.59 2607.3
-1660.45 942.05 2614.1
-1648.29 938.98 2605.6
-1650.94 944.36 2620.5
-1621.08 946.76 2627.2
-1619.87 987.55 2740.4
-1610.56 986.20 2736.6
-1608.98 989.59 2746.0
-1619.87 1000.72 2776.9
-1600.97 1011.52 2806.9
-1579.74 1011.90 2808.0
-1557.26 1002.13 2780.8
-1570.65 1015.44 2817.8
-1569.08 1019.17 2828.1
-1556.85 1015.97 2819.2
-1568.54 1028.43 2853.8
-1575.06 1042.54 2893.0
-1537.32 1022.43 2837.2
-1517.45 1014.07 2814.0
-1531.92 1028.68 2854.5
-1528.26 1031.20 2861.5
-1657.18 911.12 2546.6
-1650.29 910.96 2546.2
-1636.30 914.21 2555.2
-1642.76 921.55 2575.8
-1645.55 926.88 2590.7
-1638.03 926.43 2589.4
-1636.13 929.16 2597.0
-1642.84 936.83 2618.5
-1641.88 972.45 2718.0
-1623.24 965.55 2698.7
-1620.40 980.77 2741.3
-1601.88 973.83 2721.9
-1591.64 971.89 2716.5
-1586.37 981.70 2743.9
-1619.99 1011.58 2827.4
-1627.07 1020.62 2852.7
-1592.07 1007.82 2816.9
-1576.07 1002.29 2801.4
-1593.25 1017.91 2845.1
-1595.37 1024.00 2862.1
-1581.20 1019.66 2850.0
-1555.11 1021.93 2856.3
-1530.60 1010.64 2824.8
-1523.88 1011.03 2825.9
-1523.01 1015.34 2837.9
-1503.66 1007.31 2815.4
-1510.35 1016.73 2841.8
-1522.73 1030.08 2879.1
-1636.40 862.26 2427.6
-1642.61 868.87 2446.2
-1664.31 912.04 2567.8
-1645.94 905.60 2549.6
-1649.62 922.44 2597.1
-1635.53 982.75 2766.9
-1615.01 974.70 2744.2
-1604.73 972.78 2738.8
-1594.46 970.85 2733.4
-1578.93 965.68 2718.8
-1592.63 978.43 2754.7
-1618.10 998.56 2811.4
-1622.92 1006.06 2832.5
-1604.44 999.13 2813.0
-1578.01 987.16 2779.3
-1588.39 998.21 2810.4
-1617.36 1021.10 2874.8
-1601.74 1015.92 2860.2
-1569.42 1000.05 2815.6
-1572.49 1006.69 2834.3
-1559.77 1017.56 2864.9
-1541.60 1010.53 2845.1
-1533.03 1009.73 2842.8
-1531.22 1013.42 2853.2
-1524.87 1014.11 2855.2
-1542.24 1030.67 2901.8
-1631.99 853.66 2421.1
-1634.47 858.25 2434.1
-1646.40 899.24 2550.4
-1650.38 905.05 2566.8
-1631.67 920.78 2611.4
-1651.30 980.68 2781.3
-1622.91 968.05 2745.5
-1623.78 972.84 2759.1
-1636.20 984.62 2792.5
-1623.90 981.56 2783.8
-1605.86 974.99 2765.2
-1581.19 964.31 2734.9
-1613.48 992.91 2816.0
-1598.37 992.59 2815.1
-1595.51 995.36 2823.0
-1611.83 1010.18 2865.0
-1583.14 996.79 2827.0
-1545.09 986.53 2797.9
-1557.32 999.04 2833.4
-1566.19 1009.49 2863.0
-1557.58 1008.72 2860.9
-1545.33 1005.57 2851.9
-1542.18 1008.35 2859.8
-1543.96 1014.39 2876.9
-1542.06 1018.06 2887.4
-1545.49 1025.30 2907.9
-1670.23 854.10 2440.3
-1633.63 844.98 2414.2
-1628.64 845.64 2416.1
-1653.61 861.92 2462.6
-1620.09 861.07 2460.2
-1649.14 886.99 2534.2
-1630.79 880.63 2516.1
-1642.67 912.59 2607.4
-1639.71 914.71 2613.5
-1629.60 912.85 2608.1
-1638.14 965.71 2759.2
-1639.02 970.47 2772.8
-1598.69 963.50 2752.8
-1617.14 978.99 2797.1
-1583.86 963.16 2751.9
-1614.02 985.94 2817.0
-1586.16 982.26 2806.4
-1575.80 980.34 2801.0
-1574.80 984.25 2812.1
-1556.52 977.35 2792.4
-1534.98 972.87 2779.6
-1539.89 980.59 2801.7
-1540.13 985.39 2815.4
-1528.87 982.85 2808.1
-1511.72 976.47 2789.9
-1520.49 986.86 2819.6
-1535.01 1001.10 2860.3
-1534.95 1005.92 2874.0
-1542.01 1015.47 2901.3
-1542.69 1020.90 2916.8
-1515.72 1007.99 2880.0
-1669.65 844.28 2430.2
-1627.56 835.61 2405.3
-1635.48 842.90 2426.3
-1649.21 853.26 2456.1
-1628.09 872.66 2511.9
-1629.34 883.93 2544.4
-1628.63 894.41 2574.5
-1634.13 908.61 2615.4
-1631.63 910.99 2622.3
-1646.54 959.29 2761.3
-1638.16 958.58 2759.2
-1587.30 945.33 2721.1
-1588.14 950.05 2734.7
-1622.65 988.34 2844.9
-1590.87 982.38 2827.7
-1591.52 991.92 2855.2
-1579.68 989.14 2847.2
-1546.59 972.97 2800.7
-1526.46 983.39 2830.7
-1539.16 996.37 2868.0
-1540.45 1002.04 2884.3
-1534.03 1002.73 2886.3
-1523.57 1000.78 2880.7
-1533.61 1012.34 2914.0
-1504.68 1003.12 2887.4
-1653.71 829.97 2407.0
-1651.48 832.00 2412.9
-1649.88 850.52 2466.6
-1661.08 869.78 2522.4
-1624.82 867.87 2516.9
-1631.48 874.95 2537.4
-1644.28 892.61 2588.7
-1647.04 897.77 2603.6
-1641.73 909.79 2638.5
-1651.76 963.53 2794.3
-1598.26 948.97 2752.1
-1617.71 964.82 2798.1
-1622.22 976.27 2831.3
-1582.00 969.61 2812.0
-1553.12 969.79 2812.5
-1534.93 962.95 2792.7
-1539.79 970.58 2814.8
-1523.95 965.17 2799.1
-1527.32 971.93 2818.7
-1536.51 982.48 2849.3
-1529.74 982.87 2850.4
-1531.51 988.79 2867.6
-1527.38 990.93 2873.8
-1528.13 996.28 2889.3
-1663.93 825.71 2412.8
-1637.45 837.76 2448.0
-1646.77 845.81 2471.5
-1661.86 856.90 2503.9
-1637.27 854.23 2496.1
-1640.48 859.30 2510.9
-1622.67 856.77 2503.5
-1626.71 865.83 2530.0
-1637.26 878.53 2567.1
-1636.49 881.70 2576.4
-1653.14 894.32 2613.3
-1639.75 957.73 2798.6
-1617.76 949.09 2773.3
-1604.53 945.53 2762.9
-1628.78 964.12 2817.2
-1607.97 960.41 2806.4
-1598.54 959.12 2802.6
-1587.72 961.37 2809.2
-1581.51 966.48 2824.1
-1575.85 976.59 2853.7
-1570.96 978.14 2858.2
-1583.50 990.63 2894.7
-1576.20 990.75 2895.1
-1563.30 996.89 2913.0
-1532.03 981.69 2868.6
-1534.64 988.16 2887.5
-1545.21 999.84 2921.6
-1514.63 984.88 2877.9
-1493.79 981.00 2866.6
-1650.82 828.57 2439.6
-1633.02 829.17 2441.4
-1624.76 828.19 2438.5
-1656.95 847.89 2496.5
-1622.48 843.43 2483.4
-1614.18 845.83 2490.5
-1647.41 870.21 2562.2
-1632.19 865.66 2548.8
-1639.24 872.93 2570.2
-1647.24 880.77 2593.3
-1644.86 883.10 2600.2
-1616.61 908.91 2676.2
-1600.99 904.00 2661.7
-1642.14 931.25 2742.0
-1643.50 944.29 2780.4
-1643.36 948.37 2792.4
-1634.43 947.39 2789.5
-1625.03 946.13 2785.8
-1621.89 948.52 2792.8
-1627.55 964.75 2840.6
-1603.79 954.99 2811.8
-1618.50 968.15 2850.6
-1611.06 977.08 2876.9
-1606.16 978.64 2881.5
-1596.13 977.07 2876.9
-1556.91 957.54 2819.4
-1539.62 951.37 2801.2
-1541.72 957.18 2818.3
-1562.98 975.00 2870.8
-1535.71 976.59 2875.5
-1533.36 979.85 2885.1
-1532.31 983.98 2897.2
-1675.71 831.46 2467.0
-1649.05 821.36 2437.0
-1648.33 824.16 2445.3
-1640.09 829.62 2461.5
-1647.77 836.76 2482.7
-1654.30 843.37 2502.3
-1634.81 836.71 2482.6
-1628.19 843.28 2502.1
-1653.36 870.19 2581.9
-1630.75 876.02 2599.2
-1641.55 885.48 2627.3
-1644.09 894.28 2653.3
-1651.08 901.85 2675.8
-1639.93 914.98 2714.8
-1638.09 917.89 2723.4
-1640.15 923.03 2738.7
-1610.67 910.38 2701.1
-1625.35 930.82 2761.8
-1650.95 949.66 2817.7
-1633.26 943.66 2799.9
-1622.39 941.57 2793.7
-1626.43 948.14 2813.2
-1614.11 945.20 2804.4
-1626.63 956.84 2839.0
-1613.27 962.04 2854.4
-1621.16 971.20 2881.6
-1609.71 968.81 2874.5
-1606.69 971.48 2882.4
-1599.90 971.90 2883.7
-1561.58 953.08 2827.8
-1544.27 946.96 2809.7
-1533.93 945.07 2804.1
-1541.94 954.54 2832.1
-1563.00 981.59 2912.4
-1529.45 965.18 2863.7
-1537.47 974.98 2892.8
-1543.58 983.65 2918.5
-1507.17 965.18 2863.7
-1679.76 817.69 2444.9
-1638.76 829.02 2478.8
-1652.16 852.51 2549.0
-1635.34 847.23 2533.2
-1639.22 870.21 2601.9
-1620.95 864.06 2583.6
-1629.32 883.12 2640.6
-1635.29 890.09 2661.4
-1635.09 909.17 2718.4
-1636.18 913.71 2732.0
-1605.72 900.60 2692.8
-1599.01 904.71 2705.1
-1598.28 920.44 2752.1
-1595.92 927.36 2772.8
-1624.27 956.76 2860.7
-1575.04 940.65 2812.6
-1608.60 965.16 2885.9
-1604.61 967.26 2892.2
-1569.04 950.26 2841.3
-1555.39 946.44 2829.9
-1545.93 945.14 2826.0
-1518.58 932.84 2789.2
-1525.20 941.39 2814.8
-1571.33 974.53 2913.9
-1563.52 974.37 2913.4
-1530.85 958.64 2866.4
-1538.43 968.09 2894.6
-1516.16 963.47 2880.8
-1654.21 823.89 2482.7
-1657.60 828.80 2497.5
-1655.25 844.11 2543.6
-1651.52 845.58 2548.1
-1639.65 863.68 2602.6
-1639.79 867.33 2613.6
-1629.78 872.85 2630.2
-1629.76 876.51 2641.3
-1627.17 878.81 2648.2
-1630.57 884.38 2665.0
-1645.57 915.80 2759.7
-1607.74 898.65 2708.0
-1606.96 918.26 2767.1
-1628.57 951.86 2868.3
-1588.29 932.57 2810.2
-1571.32 926.86 2793.0
-1595.71 945.61 2849.5
-1577.78 939.33 2830.6
-1549.86 935.77 2819.8
-1553.79 942.58 2840.4
-1539.25 938.21 2827.2
-1535.29 940.27 2833.4
-1570.93 966.73 2913.1
-1554.04 960.96 2895.7
-1511.91 939.44 2830.9
-1500.20 936.71 2822.7
-1647.62 807.91 2453.7
-1646.31 810.39 2461.3
-1667.43 823.98 2502.5
-1643.46 838.23 2545.8
-1665.30 873.94 2654.2
-1613.97 857.63 2604.7
-1631.70 870.70 2644.4
-1645.24 881.63 2677.6
-1651.11 888.52 2698.5
-1632.86 890.01 2703.1
-1629.70 895.98 2721.2
-1642.59 907.00 2754.7
-1637.67 908.23 2758.4
-1601.88 892.28 2709.9
-1586.28 887.48 2695.4
-1601.86 900.16 2733.9
-1614.37 911.22 2767.5
-1610.32 913.00 2772.9
-1612.99 918.61 2789.9
-1631.95 937.82 2848.3
-1618.15 934.11 2837.0
-1590.62 922.41 2801.5
-1594.92 929.15 2821.9
-1623.16 949.96 2885.1
-1597.61 939.34 2852.9
-1580.42 946.76 2875.4
-1587.51 960.06 2915.8
-1558.18 955.98 2903.4
-1665.20 810.10 2479.9
-1640.77 801.31 2453.0
-1624.97 825.59 2527.3
-1647.23 840.29 2572.3
-1656.35 848.38 2597.1
-1608.40 869.78 2662.6
-1592.78 865.05 2648.1
-1591.06 867.85 2656.7
-1602.13 877.69 2686.8
-1625.35 894.30 2737.6
-1618.49 894.43 2738.0
-1605.76 891.30 2728.5
-1622.75 904.72 2769.5
-1625.99 910.55 2787.4
-1609.34 905.25 2771.2
-1607.19 908.10 2779.9
-1616.05 917.22 2807.8
-1616.66 921.71 2821.6
-1601.47 917.21 2807.8
-1592.04 915.97 2804.0
-1611.96 931.68 2852.1
-1627.90 945.23 2893.6
-1593.87 929.76 2846.2
-1559.55 913.97 2797.9
-1570.20 924.51 2830.1
-1566.10 930.79 2849.4
-1594.89 952.40 2915.5
-1589.85 953.91 2920.1
-1553.19 936.37 2866.4
-1528.15 925.70 2833.8
-1538.68 936.59 2867.1
-1532.32 937.24 2869.1
-1638.98 794.08 2450.3
-1644.09 799.65 2467.5
-1659.00 816.43 2519.3
-1634.80 810.91 2502.2
-1617.00 815.02 2514.9
-1629.94 824.87 2545.3
-1647.94 837.37 2583.9
-1669.57 855.31 2639.2
-1656.31 852.01 2629.1
-1641.70 855.05 2638.5
-1636.12 855.71 2640.5
-1665.81 886.07 2734.2
-1627.26 873.00 2693.8
-1617.04 871.25 2688.4
-1622.67 878.07 2709.5
-1607.98 873.90 2696.6
-1605.64 876.44 2704.4
-1633.15 895.37 2762.9
-1604.96 895.62 2763.6
-1616.81 906.28 2796.5
-1618.92 911.55 2812.8
-1615.21 913.58 2819.1
-1604.69 928.64 2865.5
-1584.84 921.42 2843.2
-1576.28 920.72 2841.1
-1549.11 909.10 2805.2
-1554.06 916.31 2827.5
-1585.69 939.39 2898.7
-1568.73 933.77 2881.3
-1535.97 927.52 2862.1
-1535.51 931.74 2875.1
-1653.52 807.23 2511.0
-1618.95 803.00 2497.8
-1627.81 813.91 2531.7
-1631.88 819.24 2548.3
-1639.51 826.42 2570.7
-1663.61 841.99 2619.1
-1658.63 842.91 2622.0
-1634.60 834.12 2594.6
-1631.19 835.81 2599.9
-1654.86 855.01 2659.6
-1648.73 855.41 2660.8
-1665.38 867.68 2699.0
-1660.17 868.61 2701.9
-1646.39 865.05 2690.8
-1608.25 855.89 2662.3
-1604.55 857.60 2667.7
-1638.46 879.52 2735.8
-1651.86 890.57 2770.2
-1626.24 880.59 2739.1
-1628.70 885.78 2755.3
-1635.65 901.42 2804.0
-1635.11 909.21 2828.2
-1601.12 894.32 2781.9
-1605.62 900.89 2802.3
-1617.19 911.51 2835.3
-1615.79 914.88 2845.8
-1608.65 915.01 2846.2
-1616.14 923.51 2872.7
-1602.81 920.13 2862.2
-1584.37 913.78 2842.4
-1580.48 915.79 2848.7
-1563.06 909.95 2830.5
-1575.39 921.45 2866.3
-1587.10 932.70 2901.3
-1548.04 914.08 2843.3
-1533.51 909.83 2830.1
-1566.98 934.16 2905.8
-1523.29 916.93 2852.2
-1632.45 803.16 2518.6
-1642.49 821.25 2575.3
-1646.41 826.56 2592.0
-1640.97 827.21 2594.0
-1613.11 819.89 2571.1
-1638.37 836.18 2622.2
-1625.23 843.48 2645.0
-1606.02 837.03 2624.8
-1591.20 839.99 2634.1
-1613.12 858.94 2693.5
-1645.39 879.92 2759.3
-1638.49 880.06 2759.8
-1622.27 875.17 2744.4
-1628.60 882.46 2767.3
-1646.04 895.85 2809.3
-1636.54 902.66 2830.7
-1604.93 889.22 2788.5
-1607.03 894.41 2804.8
-1626.25 909.22 2851.2
-1609.11 907.89 2847.1
-1596.30 904.81 2837.4
-1599.99 911.10 2857.1
-1601.72 916.33 2873.5
-1598.23 918.61 2880.7
-1582.14 913.63 2865.0
-1563.33 907.03 2844.3
-1545.98 901.21 2826.1
-1552.64 909.40 2851.8
-1531.89 910.26 2854.5
-1672.26 784.68 2480.8
-1640.69 797.46 2521.3
-1647.03 823.52 2603.6
-1644.65 825.71 2610.6
-1666.36 840.07 2655.9
-1666.40 843.57 2667.0
-1615.52 831.62 2629.2
-1595.80 828.46 2619.2
-1615.75 842.40 2663.3
-1619.05 847.74 2680.2
-1613.82 848.65 2683.1
-1610.07 850.34 2688.4
-1610.24 854.13 2700.4
-1607.90 856.61 2708.2
-1596.68 854.36 2701.1
-1606.52 863.42 2729.8
-1625.03 877.23 2773.4
-1638.93 896.63 2834.8
-1613.07 886.46 2802.6
-1633.85 901.94 2851.6
-1594.39 896.38 2834.0
-1573.13 888.53 2809.2
-1584.35 899.03 2842.4
-1591.22 907.14 2868.0
-1572.78 909.38 2875.1
-1573.37 914.05 2889.9
-1550.93 905.33 2862.3
-1640.58 778.47 2481.6
-1647.14 784.66 2501.3
-1657.87 792.90 2527.5
-1674.46 837.23 2668.9
-1655.53 831.20 2649.6
-1658.63 836.22 2665.6
-1614.90 824.48 2628.2
-1612.34 826.67 2635.2
-1639.40 844.12 2690.8
-1638.19 847.10 2700.3
-1619.95 841.26 2681.7
-1624.68 847.35 2701.1
-1630.81 854.24 2723.1
-1606.20 845.00 2693.6
-1578.73 834.18 2659.1
-1605.44 852.01 2716.0
-1652.48 880.84 2807.9
-1636.69 876.28 2793.3
-1628.73 875.89 2792.1
-1636.76 884.14 2818.4
-1598.32 867.25 2764.5
-1588.48 865.79 2759.9
-1627.11 890.86 2839.8
-1627.00 907.22 2892.0
-1570.27 879.64 2804.1
-1546.76 870.50 2774.9
-1570.15 887.80 2830.0
-1588.65 902.47 2876.8
-1568.75 903.90 2881.4
-1641.45 772.45 2482.9
-1633.80 774.93 2490.8
-1650.86 786.12 2526.8
-1673.77 816.47 2624.4
-1644.89 812.29 2610.9
-1616.27 801.46 2576.1
-1615.77 814.68 2618.6
-1621.86 821.19 2639.6
-1600.50 820.77 2638.2
-1602.36 825.25 2652.6
-1627.08 841.59 2705.1
-1649.10 856.67 2753.6
-1638.27 854.75 2747.4
-1616.60 847.13 2722.9
-1649.10 867.95 2789.8
-1624.78 866.55 2785.3
-1613.93 864.60 2779.1
-1600.19 861.09 2767.8
-1615.39 873.18 2806.7
-1604.52 871.23 2800.4
-1585.05 864.57 2779.0
-1626.67 891.32 2865.0
-1618.32 899.07 2889.9
-1571.61 877.18 2819.5
-1571.53 881.23 2832.5
-1568.11 883.45 2839.6
-1566.53 886.71 2850.2
-1563.97 889.46 2859.0
-1532.30 875.60 2814.4
-1652.81 799.53 2591.5
-1638.04 795.62 2578.8
-1644.53 802.05 2599.7
-1623.60 795.10 2577.1
-1614.57 793.94 2573.4
-1602.43 801.22 2597.0
-1621.73 814.29 2639.3
-1645.73 833.37 2701.2
-1628.96 828.40 2685.1
-1662.23 848.95 2751.7
-1658.38 865.56 2805.5
-1636.57 861.73 2793.1
-1612.54 852.86 2764.4
-1600.14 861.61 2792.7
-1578.29 853.71 2767.1
-1615.67 877.92 2845.6
-1598.66 888.97 2881.4
-1578.81 882.06 2859.0
-1573.94 883.48 2863.6
-1567.65 884.12 2865.7
-1532.27 868.28 2814.4
-1662.09 784.51 2564.4
-1671.99 792.35 2590.0
-1648.26 793.86 2594.9
-1651.10 798.48 2610.1
-1651.30 801.87 2621.1
-1636.78 804.75 2630.5
-1643.46 811.41 2652.3
-1647.51 816.83 2670.0
-1611.97 802.58 2623.5
-1601.35 800.68 2617.2
-1625.48 816.20 2668.0
-1655.94 835.05 2729.6
-1652.30 840.39 2747.0
-1654.39 845.10 2762.4
-1646.02 844.48 2760.4
-1622.34 835.97 2732.6
-1637.09 851.00 2781.7
-1616.94 844.25 2759.6
-1578.85 828.02 2706.6
-1601.16 843.47 2757.1
-1619.62 860.88 2814.0
-1587.10 847.41 2770.0
-1586.36 850.86 2781.3
-1575.54 848.92 2774.9
-1557.61 843.11 2755.9
-1560.13 848.37 2773.1
-1565.87 855.43 2796.2
-1579.52 866.90 2833.7
-1584.57 873.73 2856.0
-1563.84 866.35 2831.9
-1558.55 867.50 2835.6
-1653.97 755.92 2492.0
-1655.24 759.46 2503.7
-1646.33 758.35 2500.1
-1648.73 768.53 2533.6
-1638.72 766.92 2528.3
-1637.99 785.43 2589.3
-1624.29 782.07 2578.2
-1647.18 796.36 2625.4
-1654.49 803.21 2648.0
-1642.26 800.60 2639.3
-1649.33 814.23 2684.3
-1608.78 797.57 2629.4
-1605.71 799.44 2635.5
-1617.17 808.59 2665.7
-1607.99 807.45 2661.9
-1606.80 810.33 2671.4
-1622.47 821.77 2709.1
-1633.04 830.72 2738.6
-1630.14 832.87 2745.7
-1624.75 833.75 2748.6
-1633.09 841.72 2774.9
-1626.15 841.86 2775.3
-1602.14 833.11 2746.5
-1593.02 839.56 2767.8
-1611.54 853.17 2812.6
-1606.88 854.57 2817.3
-1593.13 851.12 2805.9
-1562.29 838.48 2764.2
-1552.00 836.79 2758.7
-1554.95 842.26 2776.7
-1565.82 852.10 2809.1
-1552.64 848.87 2798.5
-1523.59 840.85 2772.0
-1568.04 869.48 2866.4
-1634.33 734.81 2443.3
-1655.89 750.32 2494.9
-1669.99 759.68 2526.0
-1647.94 758.58 2522.4
-1665.45 769.69 2559.3
-1638.45 766.37 2548.3
-1665.02 781.95 2600.1
-1633.42 779.74 2592.7
-1669.11 813.52 2705.0
-1656.80 810.92 2696.4
-1629.86 801.12 2663.8
-1617.66 798.50 2655.1
-1621.56 803.85 2672.9
-1623.38 808.20 2687.4
-1632.12 816.06 2713.5
-1646.84 834.21 2773.8
-1618.74 823.57 2738.5
-1616.79 826.20 2747.2
-1602.08 822.31 2734.3
-1582.79 827.04 2750.0
-1588.38 833.72 2772.2
-1571.82 828.78 2755.8
-1596.93 857.61 2851.7
-1589.77 857.73 2852.1
-1558.20 844.63 2808.5
-1524.46 830.22 2760.6
-1542.15 843.82 2805.8
-1556.40 855.65 2845.1
-1660.31 709.80 2380.7
-1642.71 732.21 2455.9
-1645.72 736.41 2470.0
-1649.85 752.91 2525.3
-1660.92 767.09 2572.9
-1634.05 757.73 2541.4
-1652.28 769.28 2580.2
-1647.10 792.54 2658.2
-1635.38 790.20 2650.4
-1618.61 785.40 2634.3
-1613.02 786.01 2636.3
-1622.05 793.77 2662.3
-1620.91 796.60 2671.8
-1617.73 798.45 2678.0
-1628.00 806.98 2706.7
-1651.10 821.98 2756.9
-1661.59 830.80 2786.5
-1629.93 818.52 2745.4
-1595.46 804.73 2699.1
-1586.72 803.84 2696.1
-1608.82 818.65 2745.8
-1616.09 826.00 2770.4
-1576.89 816.86 2739.8
-1576.25 820.22 2751.1
-1606.36 843.52 2829.2
-1610.67 853.58 2862.9
-1587.41 845.15 2834.7
-1585.46 848.04 2844.4
-1577.37 847.65 2843.1
-1570.21 847.77 2843.4
-1571.90 852.68 2859.9
-1568.87 855.07 2867.9
-1531.11 838.47 2812.3
-1637.78 701.90 2374.9
-1661.89 734.32 2484.5
-1661.09 736.82 2493.0
-1658.12 750.10 2537.9
-1671.77 765.39 2589.7
-1659.41 765.88 2591.3
-1655.57 767.22 2595.8
-1656.83 777.28 2629.9
-1653.89 779.11 2636.1
-1646.81 778.99 2635.7
-1625.38 772.05 2612.2
-1619.35 772.41 2613.4
-1621.98 776.91 2628.7
-1606.26 772.63 2614.2
-1602.23 773.96 2618.7
-1614.83 783.36 2650.5
-1616.74 787.64 2665.0
-1629.57 804.20 2721.0
-1614.82 800.39 2708.1
-1614.47 803.71 2719.3
-1607.66 803.83 2719.7
-1619.02 813.08 2751.0
-1638.24 833.75 2820.9
-1603.07 819.51 2772.8
-1623.66 833.77 2821.0
-1626.36 846.60 2864.4
-1603.95 838.76 2837.9
-1584.48 832.40 2816.4
-1582.60 835.26 2826.1
-1559.94 827.13 2798.6
-1530.80 815.47 2759.1
-1527.56 817.57 2766.2
-1533.60 824.67 2790.2
-1534.44 829.03 2805.0
-1654.03 702.65 2398.4
-1658.51 707.21 2414.0
-1643.71 708.93 2419.9
-1640.36 735.56 2510.8
-1641.51 739.01 2522.5
-1657.92 749.38 2557.9
-1658.93 752.85 2569.8
-1655.02 757.16 2584.5
-1634.49 750.80 2562.8
-1648.91 760.52 2595.9
-1668.16 778.93 2658.8
-1657.43 777.14 2652.7
-1651.85 777.75 2654.8
-1663.13 786.33 2684.1
-1644.95 790.98 2699.9
-1636.71 790.38 2697.9
-1611.21 791.59 2702.0
-1587.60 783.40 2674.1
-1595.68 790.84 2699.5
-1621.36 807.11 2755.0
-1650.25 825.12 2816.5
-1623.54 819.02 2795.6
-1594.71 808.08 2758.3
-1633.23 831.33 2837.7
-1605.77 832.35 2841.1
-1571.09 818.13 2792.6
-1567.85 820.22 2799.7
-1545.22 812.14 2772.2
-1529.29 807.52 2756.4
-1540.57 817.30 2789.8
-1636.73 691.75 2382.3
-1632.42 692.54 2385.0
-1645.08 700.57 2412.7
-1651.62 706.04 2431.5
-1637.38 702.63 2419.8
-1624.84 716.47 2467.4
-1620.18 725.84 2499.7
-1616.03 726.89 2503.3
-1616.59 730.07 2514.3
-1639.62 743.47 2560.4
-1638.81 749.17 2580.1
-1631.33 748.81 2578.8
-1647.14 759.18 2614.5
-1668.03 794.97 2737.8
-1638.06 784.03 2700.1
-1618.28 777.88 2678.9
-1627.58 785.73 2705.9
-1613.05 785.48 2705.1
-1594.38 779.79 2685.5
-1610.35 791.05 2724.3
-1617.79 798.21 2748.9
-1628.56 807.08 2779.5
-1645.56 819.12 2821.0
-1617.09 808.55 2784.5
-1581.97 794.53 2736.3
-1613.79 814.16 2803.9
-1632.40 831.04 2862.0
-1619.02 827.99 2851.5
-1587.08 815.38 2808.1
-1559.58 804.95 2772.1
-1563.96 810.94 2792.8
-1544.17 804.41 2770.3
-1531.53 801.55 2760.4
-1549.84 814.94 2806.6
-1522.21 804.19 2769.5
-1643.78 675.78 2348.3
-1654.06 682.53 2371.7
-1656.25 693.75 2410.7
-1671.68 702.86 2442.4
-1627.25 711.12 2471.1
-1630.13 715.20 2485.2
-1646.36 733.92 2550.3
-1635.27 731.91 2543.3
-1617.09 735.64 2556.3
-1646.26 758.23 2634.8
-1645.91 767.63 2667.4
-1656.25 782.32 2718.5
-1627.83 772.18 2683.2
-1609.57 766.79 2664.5
-1635.93 782.71 2719.8
-1649.23 799.41 2777.9
-1633.83 802.46 2788.5
-1622.47 800.42 2781.4
-1619.90 802.72 2789.4
-1611.46 802.12 2787.3
-1618.51 809.26 2812.1
-1623.53 815.44 2833.6
-1614.52 814.60 2830.7
-1608.87 815.46 2833.6
-1590.85 813.76 2827.7
-1593.23 818.74 2845.1
-1573.81 812.52 2823.4
-1537.06 797.26 2770.4
-1533.33 799.06 2776.7
-1522.10 796.95 2769.3
-1681.97 685.25 2402.8
-1686.03 689.46 2417.6
-1666.97 691.95 2426.3
-1677.43 698.93 2450.8
-1670.72 701.45 2459.6
-1643.88 692.82 2429.4
-1642.16 694.76 2436.2
-1644.63 712.24 2497.5
-1609.82 702.70 2464.0
-1649.51 737.58 2586.3
-1646.49 742.27 2602.8
-1618.25 738.62 2590.0
-1665.16 763.20 2676.2
-1620.63 745.90 2615.5
-1653.32 767.36 2690.8
-1654.57 774.48 2715.7
-1627.15 764.90 2682.1
-1603.37 756.96 2654.3
-1624.25 770.12 2700.4
-1660.92 790.91 2773.3
-1654.52 791.29 2774.7
-1646.12 790.71 2772.6
-1644.64 793.47 2782.3
-1598.80 785.13 2753.0
-1580.23 779.49 2733.3
-1576.75 781.27 2739.5
-1606.53 799.63 2803.9
-1623.55 811.78 2846.5
-1585.51 803.72 2818.2
-1565.15 797.07 2794.9
-1594.49 815.79 2860.5
-1570.74 811.18 2844.4
-1524.79 791.16 2774.2
-1515.43 790.04 2770.3
-1645.70 676.91 2395.4
-1665.57 687.68 2433.5
-1628.04 695.91 2462.6
-1629.37 699.22 2474.3
-1622.65 699.09 2473.8
-1638.99 714.60 2528.7
-1650.85 731.47 2588.4
-1625.62 723.24 2559.3
-1635.34 730.54 2585.1
-1606.60 720.66 2550.2
-1603.82 722.38 2556.3
-1640.91 748.36 2648.2
-1604.18 734.69 2599.8
-1650.08 758.90 2685.5
-1636.70 759.15 2686.4
-1636.55 762.32 2697.6
-1640.87 767.62 2716.3
-1600.03 751.74 2660.2
-1599.62 758.08 2682.6
-1625.63 773.77 2738.1
-1618.79 773.90 2738.6
-1622.29 778.98 2756.6
-1605.08 774.13 2739.4
-1585.00 771.27 2729.3
-1600.02 782.07 2767.5
-1591.14 781.23 2764.5
-1617.51 797.78 2823.1
-1627.29 806.25 2853.0
-1616.32 804.47 2846.7
-1595.34 797.67 2822.7
-1552.55 779.85 2759.6
-1556.97 785.69 2780.3
-1565.47 801.11 2834.9
-1539.16 791.36 2800.4
-1550.25 800.84 2833.9
-1536.13 797.33 2821.5
-1655.97 652.72 2331.1
-1632.68 665.39 2376.4
-1629.50 679.48 2426.7
-1649.52 695.89 2485.3
-1632.04 691.22 2468.6
-1643.01 698.60 2495.0
-1651.74 705.09 2518.2
-1634.82 700.64 2502.3
-1619.01 696.63 2488.0
-1637.14 707.24 2525.9
-1633.86 717.31 2561.8
-1615.99 712.35 2544.1
-1630.95 721.90 2578.2
-1630.73 724.77 2588.5
-1620.72 732.37 2615.6
-1619.28 734.80 2624.3
-1641.74 748.14 2671.9
-1640.67 750.81 2681.5
-1623.90 755.95 2699.8
-1601.16 748.60 2673.6
-1632.80 766.71 2738.2
-1631.43 769.41 2747.9
-1595.87 755.94 2699.8
-1620.16 770.82 2752.9
-1628.51 778.22 2779.4
-1591.69 764.01 2728.6
-1606.19 777.89 2778.2
-1585.17 771.17 2754.2
-1602.41 783.08 2796.7
-1603.58 787.21 2811.5
-1615.24 796.56 2844.9
-1616.73 800.95 2860.5
-1568.13 780.45 2787.3
-1566.33 783.16 2797.0
-1595.70 801.56 2862.7
-1577.20 795.97 2842.8
-1556.44 789.18 2818.5
-1559.62 794.52 2837.6
-1539.88 788.19 2815.0
-1657.67 633.47 2283.5
-1655.85 641.94 2314.1
-1638.75 637.62 2298.5
-1631.19 639.33 2304.7
-1665.87 660.18 2379.8
-1643.77 653.84 2357.0
-1673.49 668.15 2408.5
-1670.28 669.36 2412.9
-1638.27 659.00 2375.6
-1659.94 670.24 2416.1
-1671.51 680.05 2451.4
-1648.99 673.44 2427.6
-1646.69 677.68 2442.9
-1655.26 683.83 2465.1
-1655.59 697.43 2514.1
-1634.90 691.44 2492.5
-1639.33 696.07 2509.2
-1644.76 701.15 2527.5
-1624.16 695.14 2505.8
-1607.86 690.93 2490.7
-1649.01 711.47 2564.7
-1630.99 709.42 2557.3
-1629.30 711.57 2565.1
-1646.84 722.18 2603.3
-1645.02 724.35 2611.2
-1669.56 753.77 2717.2
-1653.67 749.76 2702.7
-1671.70 767.69 2767.4
-1641.76 757.19 2729.5
-1637.96 758.71 2735.0
-1642.10 763.93 2753.8
-1611.39 752.92 2714.1
-1600.14 750.94 2707.0
-1646.14 775.93 2797.1
-1630.81 772.11 2783.3
-1571.43 747.30 2693.9
-1573.44 751.60 2709.4
-1565.53 757.97 2732.3
-1574.54 765.80 2760.6
-1594.48 779.04 2808.3
-1597.53 787.72 2839.6
-1566.67 776.08 2797.6
-1563.88 778.30 2805.6
-1568.13 784.06 2826.4
-1571.81 789.60 2846.3
-1562.78 788.76 2843.3
-1530.90 776.33 2798.5
-1657.62 638.94 2325.0
-1635.44 632.69 2302.2
-1623.88 639.89 2328.4
-1623.05 641.95 2335.9
-1652.73 656.14 2387.6
-1652.32 658.44 2395.9
-1659.60 663.84 2415.6
-1675.62 672.79 2448.1
-1673.39 674.45 2454.2
-1658.90 676.32 2461.0
-1655.50 677.54 2465.4
-1673.75 687.66 2502.3
-1627.42 679.16 2471.3
-1640.49 687.32 2501.0
-1670.00 705.26 2566.3
-1633.94 692.79 2520.9
-1609.16 685.02 2492.7
-1642.96 702.23 2555.3
-1655.88 713.51 2596.3
-1632.18 706.17 2569.6
-1628.37 707.41 2574.1
-1628.17 710.23 2584.4
-1638.80 717.82 2612.0
-1661.70 730.87 2659.5
-1645.85 739.24 2689.9
-1658.28 760.94 2768.9
-1639.43 755.56 2749.4
-1623.13 751.32 2733.9
-1628.68 757.19 2755.3
-1626.24 759.39 2763.3
-1580.10 747.73 2720.8
-1587.87 754.77 2746.5
-1589.22 758.82 2761.2
-1590.03 762.64 2775.1
-1577.76 760.19 2766.2
-1592.41 770.76 2804.6
-1614.09 784.83 2855.9
-1603.12 783.09 2849.5
-1586.48 778.55 2833.0
-1570.84 774.46 2818.1
-1562.80 774.10 2816.8
-1536.44 764.61 2782.3
-1657.94 619.51 2275.8
-1651.08 646.88 2376.3
-1649.60 648.72 2383.0
-1646.42 649.90 2387.4
-1651.52 654.38 2403.8
-1669.78 664.12 2439.6
-1669.21 666.42 2448.1
-1660.22 670.47 2463.0
-1660.62 673.22 2473.1
-1662.28 695.38 2554.4
-1643.21 695.71 2555.7
-1635.26 695.15 2553.6
-1642.52 701.08 2575.4
-1650.21 707.23 2598.0
-1640.38 708.81 2603.8
-1632.34 708.25 2601.7
-1634.11 711.96 2615.3
-1638.39 716.80 2633.1
-1626.69 714.66 2625.3
-1637.25 747.44 2745.7
-1643.82 753.72 2768.8
-1632.96 752.02 2762.5
-1615.20 747.12 2744.5
-1582.74 735.35 2701.3
-1594.10 743.92 2732.8
-1628.31 763.27 2803.9
-1632.03 768.44 2822.9
-1617.70 765.13 2810.7
-1600.99 760.65 2794.2
-1585.79 756.85 2780.3
-1598.03 766.18 2814.5
-1610.60 775.75 2849.7
-1592.97 770.79 2831.5
-1575.40 765.82 2813.2
-1558.38 761.07 2795.8
-1555.58 763.25 2803.8
-1538.17 758.25 2785.4
-1654.27 630.20 2337.3
-1623.12 620.60 2301.7
-1645.42 631.45 2341.9
-1664.21 641.03 2377.4
-1656.59 647.69 2402.1
-1673.83 656.90 2436.3
-1657.71 663.08 2459.2
-1649.41 662.31 2456.4
-1649.65 672.80 2495.3
-1639.14 671.14 2489.1
-1650.82 684.01 2536.8
-1668.77 708.38 2627.2
-1640.36 699.17 2593.1
-1643.25 703.28 2608.3
-1645.96 716.23 2656.4
-1659.00 734.20 2723.0
-1657.29 736.57 2731.8
-1661.58 741.65 2750.6
-1623.61 727.82 2699.3
-1627.72 739.23 2741.6
-1642.69 749.30 2779.0
-1630.33 746.93 2770.2
-1603.72 737.99 2737.1
-1591.95 735.84 2729.1
-1604.18 744.80 2762.3
-1622.60 756.73 2806.6
-1586.79 746.72 2769.4
-1555.09 738.49 2738.9
-1559.20 743.84 2758.7
-1570.86 752.86 2792.2
-1583.34 762.35 2827.4
-1569.13 759.02 2815.0
-1568.18 762.11 2826.5
-1558.24 760.83 2821.8
-1533.79 752.42 2790.6
-1646.54 621.22 2326.3
-1625.37 617.76 2313.4
-1665.67 657.33 2461.6
-1648.64 653.12 2445.8
-1649.08 655.81 2455.9
-1654.70 663.17 2483.4
-1657.70 666.96 2497.6
-1647.72 665.55 2492.3
-1640.97 665.43 2491.9
-1646.02 692.00 2591.4
-1622.36 684.85 2564.6
-1630.51 691.12 2588.1
-1634.12 698.40 2615.4
-1647.17 706.91 2647.2
-1644.69 708.80 2654.3
-1646.79 712.69 2668.9
-1647.29 715.91 2680.9
-1628.40 710.70 2661.4
-1603.50 702.81 2631.9
-1610.56 708.92 2654.8
-1620.55 716.38 2682.7
-1614.35 716.71 2683.9
-1605.63 715.93 2681.0
-1610.90 721.40 2701.5
-1639.46 737.40 2761.4
-1626.18 741.14 2775.4
-1595.19 730.24 2734.6
-1596.16 733.95 2748.5
-1602.93 740.36 2772.5
-1579.94 733.04 2745.1
-1551.35 732.98 2744.9
-1599.82 759.36 2843.7
-1603.17 764.47 2862.8
-1580.82 757.32 2836.0
-1563.30 752.43 2817.7
-1535.02 742.29 2779.7
-1640.71 599.83 2268.3
-1648.76 604.94 2287.6
-1643.62 605.23 2288.7
-1647.26 615.46 2327.4
-1628.50 610.69 2309.3
-1654.18 622.61 2354.4
-1636.24 625.08 2363.8
-1658.25 640.69 2422.8
-1645.47 648.02 2450.5
-1644.62 652.73 2468.3
-1667.09 664.23 2511.8
-1671.09 668.44 2527.7
-1617.55 670.69 2536.2
-1626.90 677.32 2561.3
-1647.12 688.55 2603.8
-1632.31 685.17 2591.0
-1609.25 678.28 2564.9
-1620.93 686.04 2594.3
-1639.19 696.66 2634.4
-1640.85 700.28 2648.1
-1648.59 706.54 2671.8
-1635.82 704.02 2662.3
-1602.19 692.47 2618.6
-1617.79 708.22 2678.1
-1645.70 742.75 2808.7
-1604.81 727.51 2751.1
-1595.97 726.73 2748.2
-1594.44 729.30 2757.8
-1562.24 717.79 2714.3
-1548.93 721.42 2728.1
-1585.20 741.70 2804.8
-1599.19 751.69 2842.5
-1569.69 741.24 2803.0
-1566.43 743.14 2810.2
-1568.34 747.52 2826.8
-1543.33 739.06 2794.8
-1528.29 735.31 2780.6
-1526.40 737.88 2790.3
-1667.77 601.59 2297.4
-1646.41 606.89 2317.7
-1628.20 602.37 2300.4
-1627.51 604.33 2307.9
-1646.08 644.39 2460.9
-1666.11 662.51 2530.1
-1645.79 681.25 2601.7
-1618.50 672.71 2569.0
-1615.48 677.03 2585.5
-1665.74 701.00 2677.1
-1609.06 694.51 2652.3
-1615.03 700.08 2673.6
-1622.93 706.54 2698.2
-1629.73 712.57 2721.3
-1631.21 728.99 2784.0
-1612.47 723.82 2764.2
-1582.05 713.33 2724.2
-1565.44 712.20 2719.9
-1574.10 719.39 2747.3
-1584.11 727.25 2777.3
-1597.35 736.68 2813.3
-1596.54 739.68 2824.8
-1573.68 732.45 2797.2
-1575.22 736.56 2812.9
-1589.92 750.38 2865.7
-1548.81 734.41 2804.7
-1548.77 737.86 2817.8
-1562.71 748.03 2856.7
-1655.74 602.09 2322.3
-1640.89 598.86 2309.9
-1652.64 605.36 2335.0
-1627.74 648.50 2501.4
-1644.92 660.61 2548.1
-1621.14 653.68 2521.4
-1637.49 662.95 2557.1
-1637.15 670.96 2588.0
-1635.39 673.00 2595.9
-1663.98 699.15 2696.7
-1636.49 702.36 2709.1
-1603.07 690.98 2665.2
-1620.47 701.50 2705.8
-1652.71 718.57 2771.6
-1645.81 718.70 2772.1
-1606.83 710.99 2742.4
-1611.77 716.34 2763.0
-1604.86 716.45 2763.5
-1561.19 709.63 2737.2
-1601.50 731.28 2820.6
-1603.15 738.78 2849.6
-1605.54 743.31 2867.0
-1582.19 739.34 2851.7
-1553.81 729.49 2813.7
-1565.98 738.67 2849.1
-1664.28 582.21 2268.3
-1645.65 592.43 2308.2
-1639.89 592.51 2308.5
-1633.44 639.17 2490.3
-1644.56 651.24 2537.3
-1634.53 649.87 2532.0
-1639.82 657.25 2560.7
-1665.50 670.26 2611.4
-1655.35 668.90 2606.1
-1626.93 660.11 2571.8
-1620.51 660.21 2572.2
-1665.78 690.01 2688.4
-1649.36 686.08 2673.0
-1664.02 707.03 2754.7
-1628.49 694.92 2707.5
-1643.81 704.49 2744.8
-1643.60 710.55 2768.4
-1620.80 703.77 2742.0
-1609.00 701.72 2734.0
-1589.33 696.21 2712.5
-1591.38 700.21 2728.1
-1627.19 719.16 2801.9
-1610.92 715.16 2786.3
-1571.32 700.73 2730.1
-1576.11 706.04 2750.8
-1583.70 712.67 2776.6
-1608.05 726.93 2832.2
-1618.73 735.11 2864.1
-1581.91 721.70 2811.8
-1584.86 726.40 2830.1
-1598.19 735.91 2867.2
-1563.55 723.32 2818.1
-1535.23 713.56 2780.1
-1559.69 728.35 2837.7
-1522.07 717.55 2795.6
-1648.61 587.51 2312.3
-1657.04 639.33 2516.3
-1659.91 642.97 2530.6
-1641.46 640.89 2522.5
-1634.73 643.39 2532.3
-1644.28 649.76 2557.3
-1624.37 655.10 2578.4
-1638.20 663.40 2611.1
-1662.94 681.87 2683.8
-1642.42 676.29 2661.8
-1639.37 677.88 2668.1
-1638.34 680.33 2677.7
-1650.99 688.50 2709.8
-1663.51 696.69 2742.1
-1660.24 698.30 2748.4
-1653.92 698.64 2749.7
-1644.58 697.70 2746.0
-1640.24 698.89 2750.7
-1640.87 702.21 2763.8
-1638.96 704.47 2772.7
-1588.19 691.75 2722.6
-1613.25 705.80 2777.9
-1641.01 721.16 2838.4
-1624.92 720.55 2836.0
-1607.19 715.93 2817.8
-1609.30 720.15 2834.4
-1597.41 718.10 2826.3
-1560.17 704.59 2773.2
-1559.39 707.50 2784.6
-1592.78 726.01 2857.5
-1581.35 724.17 2850.2
-1534.56 706.04 2778.9
-1541.64 712.65 2804.9
-1561.26 725.14 2854.0
-1515.81 707.38 2784.1
-1656.60 640.20 2545.7
-1637.07 640.31 2546.1
-1662.91 653.05 2596.8
-1682.45 671.59 2670.6
-1656.09 663.80 2639.6
-1659.38 667.88 2655.8
-1638.54 667.81 2655.5
-1614.01 660.59 2626.8
-1629.79 675.60 2686.5
-1644.50 693.55 2757.9
-1633.65 691.98 2751.6
-1629.28 693.16 2756.3
-1612.49 689.04 2739.9
-1603.21 691.16 2748.4
-1613.51 698.71 2778.4
-1627.11 707.76 2814.3
-1613.54 708.21 2816.1
-1612.31 710.88 2826.8
-1601.05 712.39 2832.8
-1544.15 690.24 2744.7
-1539.61 691.40 2749.3
-1565.01 706.07 2807.7
-1574.53 713.69 2837.9
-1551.82 706.70 2810.1
-1536.74 703.13 2796.0
-1534.36 705.37 2804.9
-1522.61 703.30 2796.6
-1655.11 559.47 2247.9
-1629.79 552.86 2221.3
-1638.69 557.85 2241.4
-1636.82 581.98 2338.3
-1664.18 633.97 2547.2
-1666.93 637.55 2561.6
-1663.24 638.68 2566.1
-1644.66 634.09 2547.7
-1645.20 636.85 2558.8
-1657.31 644.14 2588.1
-1650.88 644.25 2588.5
-1642.87 643.74 2586.5
-1653.70 656.01 2635.8
-1657.01 660.05 2652.0
-1657.77 668.68 2686.7
-1636.76 662.99 2663.8
-1623.49 660.40 2653.4
-1618.90 661.34 2657.2
-1646.77 675.60 2714.5
-1638.80 678.12 2724.6
-1649.10 685.34 2753.6
-1635.74 682.74 2743.2
-1623.42 680.56 2734.4
-1616.59 680.67 2734.8
-1641.50 694.20 2789.2
-1641.40 700.33 2813.8
-1620.64 694.56 2790.6
-1621.01 697.84 2803.8
-1609.14 695.84 2795.8
-1616.24 702.08 2820.8
-1604.06 703.15 2825.2
-1578.53 701.57 2818.8
-1578.59 704.86 2832.0
-1560.58 700.07 2812.8
-1543.58 695.70 2795.2
-1536.06 695.57 2794.7
-1541.66 701.42 2818.2
-1536.88 702.58 2822.8
-1502.30 690.05 2772.5
-1646.73 564.76 2293.0
-1647.29 567.00 2302.1
-1636.00 573.51 2328.5
-1626.05 574.26 2331.6
-1676.73 634.62 2576.7
-1681.54 638.98 2594.4
-1670.34 637.28 2587.4
-1659.69 635.77 2581.3
-1658.56 637.91 2590.0
-1655.29 639.24 2595.4
-1659.41 648.74 2634.0
-1627.38 638.85 2593.8
-1620.39 638.74 2593.4
-1660.46 657.27 2668.6
-1679.10 667.42 2709.8
-1669.30 666.32 2705.4
-1668.75 668.91 2715.9
-1646.69 662.86 2691.3
-1632.36 659.89 2679.3
-1658.67 673.39 2734.1
-1650.63 675.91 2744.3
-1640.49 677.59 2751.1
-1621.66 672.74 2731.4
-1619.32 674.72 2739.4
-1646.22 688.95 2797.2
-1632.78 689.40 2799.1
-1612.95 687.13 2789.9
-1609.88 688.91 2797.1
-1622.82 697.59 2832.3
-1630.28 703.99 2858.3
-1579.22 685.05 2781.4
-1601.68 701.20 2847.0
-1604.59 705.72 2865.3
-1548.39 684.17 2777.8
-1543.29 685.10 2781.6
-1540.99 687.30 2790.5
-1536.78 688.65 2796.0
-1546.61 696.34 2827.2
-1531.07 692.63 2812.2
-1668.80 548.49 2250.6
-1664.36 548.95 2252.5
-1642.21 555.28 2278.5
-1625.08 551.47 2262.9
-1639.96 558.54 2291.9
-1663.28 568.54 2332.9
-1639.65 566.64 2325.1
-1636.67 567.70 2329.5
-1638.97 599.47 2459.8
-1657.51 611.00 2507.2
-1675.87 630.13 2585.6
-1658.84 626.23 2569.6
-1640.27 621.72 2551.1
-1637.62 623.22 2557.3
-1630.20 622.92 2556.1
-1626.45 624.03 2560.6
-1639.96 631.79 2592.4
-1642.91 635.53 2607.8
-1617.68 628.36 2578.4
-1621.62 632.50 2595.4
-1661.81 656.35 2693.2
-1664.87 660.33 2709.6
-1645.37 655.36 2689.2
-1648.87 659.55 2706.4
-1635.38 671.29 2754.5
-1608.59 663.19 2721.3
-1614.70 668.64 2743.7
-1613.78 671.22 2754.2
-1607.88 671.74 2756.4
-1615.73 678.03 2782.2
-1623.97 684.54 2808.9
-1629.65 690.03 2831.4
-1610.43 684.98 2810.7
-1584.98 677.22 2778.9
-1601.68 687.48 2821.0
-1577.13 686.34 2816.3
-1536.25 671.66 2756.1
-1547.80 679.87 2789.8
-1535.09 677.46 2779.8
-1519.13 673.57 2763.9
-1525.27 679.51 2788.2
-1505.13 673.73 2764.5
-1500.46 674.85 2769.1
-1656.27 540.47 2241.6
-1680.95 550.45 2283.0
-1665.10 551.08 2285.6
-1638.08 544.08 2256.5
-1635.40 547.10 2269.1
-1654.35 555.43 2303.6
-1668.60 562.25 2331.9
-1624.57 553.42 2295.3
-1634.66 558.91 2318.1
-1655.96 599.24 2485.3
-1635.69 594.22 2464.5
-1660.08 620.03 2571.5
-1652.10 619.54 2569.5
-1660.85 635.63 2636.3
-1642.86 631.35 2618.5
-1640.93 641.21 2659.4
-1653.29 648.76 2690.7
-1642.52 647.26 2684.5
-1653.68 654.43 2714.2
-1646.77 657.29 2726.1
-1645.97 665.54 2760.3
-1601.02 655.92 2720.4
-1599.16 658.06 2729.3
-1592.33 658.16 2729.7
-1629.24 676.43 2805.5
-1611.16 678.00 2812.0
-1594.92 674.21 2796.3
-1619.32 687.66 2852.0
-1578.20 676.37 2805.2
-1560.64 671.94 2786.9
-1560.30 674.92 2799.2
-1570.82 682.65 2831.3
-1555.19 679.03 2816.2
-1531.14 671.68 2785.8
-1528.80 673.83 2794.7
-1497.41 663.14 2750.3
-1502.02 671.58 2785.3
-1668.58 538.63 2258.2
-1664.71 539.27 2260.9
-1649.56 540.07 2264.3
-1621.00 534.52 2241.0
-1633.23 548.38 2299.1
-1616.14 544.63 2283.4
-1648.32 557.52 2337.4
-1646.24 560.94 2351.8
-1642.07 561.60 2354.5
-1653.79 580.72 2434.7
-1651.21 591.09 2478.2
-1645.59 591.38 2479.4
-1654.03 596.75 2501.9
-1653.21 598.80 2510.5
-1646.97 598.90 2510.9
-1667.31 631.24 2646.5
-1616.77 622.35 2609.2
-1630.84 630.41 2643.0
-1639.13 636.29 2667.7
-1623.29 632.81 2653.1
-1624.32 635.90 2666.1
-1625.80 639.20 2679.9
-1616.97 641.21 2688.3
-1613.32 648.15 2717.4
-1623.48 655.09 2746.5
-1626.07 659.02 2763.0
-1606.31 653.89 2741.5
-1604.88 656.22 2751.2
-1649.15 677.33 2839.7
-1614.80 672.23 2818.3
-1606.31 671.73 2816.3
-1619.09 680.16 2851.6
-1601.85 676.01 2834.2
-1586.12 672.46 2819.3
-1593.40 678.67 2845.4
-1573.88 673.47 2823.6
-1548.34 671.92 2817.1
-1563.79 681.84 2858.7
-1549.11 678.66 2845.3
-1505.57 662.74 2778.6
-1496.68 661.99 2775.4
-1654.25 535.72 2270.7
-1642.76 579.42 2456.0
-1633.92 585.38 2481.2
-1650.34 593.60 2516.0
-1641.94 592.92 2513.2
-1629.80 590.89 2504.5
-1628.36 592.72 2512.3
-1642.85 600.40 2544.9
-1670.60 620.51 2630.1
-1639.44 611.43 2591.6
-1638.22 613.49 2600.4
-1644.83 626.27 2654.5
-1650.07 630.91 2674.2
-1648.56 632.99 2683.0
-1618.36 624.03 2645.0
-1605.63 621.76 2635.4
-1658.02 644.79 2733.0
-1639.54 651.52 2761.5
-1644.64 656.41 2782.3
-1640.70 657.73 2787.8
-1644.96 668.27 2832.5
-1589.86 648.78 2749.9
-1609.45 665.73 2821.8
-1624.65 675.08 2861.4
-1585.22 661.72 2804.8
-1542.16 646.71 2741.2
-1579.28 665.34 2820.1
-1559.42 669.37 2837.2
-1557.92 671.90 2847.9
-1522.59 662.94 2810.0
-1504.80 658.35 2790.5
-1661.61 517.46 2217.7
-1653.39 525.81 2253.5
-1658.46 533.08 2284.6
-1632.62 526.65 2257.1
-1659.15 537.14 2302.0
-1656.73 573.48 2457.8
-1653.36 574.53 2462.3
-1653.76 583.68 2501.5
-1650.67 589.52 2526.5
-1655.63 593.65 2544.2
-1670.67 601.44 2577.6
-1670.67 603.86 2588.0
-1665.85 604.54 2590.9
-1645.09 601.86 2579.4
-1662.88 610.85 2617.9
-1652.19 609.41 2611.8
-1645.71 609.52 2612.2
-1651.08 619.16 2653.5
-1645.01 619.46 2654.8
-1646.13 622.49 2667.8
-1662.61 631.37 2705.9
-1649.76 629.14 2696.3
-1625.71 622.61 2668.3
-1651.22 640.56 2745.3
-1646.92 641.66 2750.0
-1637.58 640.79 2746.2
-1611.22 633.23 2713.8
-1611.92 636.29 2726.9
-1620.53 642.50 2753.6
-1643.89 654.65 2805.6
-1651.73 660.69 2831.5
-1590.05 638.86 2738.0
-1570.93 634.01 2717.2
-1622.29 657.68 2818.6
-1599.18 651.25 2791.1
-1559.17 637.84 2733.6
-1617.62 664.78 2849.0
-1621.12 669.27 2868.3
-1539.76 641.57 2749.6
-1559.07 652.63 2797.0
-1562.49 657.12 2816.2
-1557.21 664.21 2846.6
-1529.90 655.67 2810.0
-1513.01 651.53 2792.3
-1510.13 653.42 2800.4
-1660.41 522.18 2263.1
-1646.66 519.69 2252.3
-1671.22 531.21 2302.2
-1664.96 533.03 2310.1
-1642.02 527.58 2286.5
-1655.76 533.92 2314.0
-1685.62 570.42 2472.1
-1666.79 568.37 2463.2
-1646.91 565.93 2452.6
-1669.20 575.81 2495.5
-1662.48 575.72 2495.1
-1655.20 575.44 2493.9
-1645.97 581.31 2519.3
-1665.41 590.52 2559.3
-1680.96 598.42 2593.5
-1663.35 596.93 2587.0
-1630.47 587.50 2546.1
-1636.80 592.17 2566.4
-1661.99 603.74 2616.5
-1664.94 607.29 2631.9
-1672.55 612.58 2654.8
-1650.73 612.15 2653.0
-1628.64 606.48 2628.4
-1630.85 609.86 2643.0
-1648.92 619.22 2683.6
-1664.79 627.82 2720.9
-1659.51 636.62 2759.0
-1638.95 636.97 2760.6
-1612.12 629.29 2727.3
-1593.86 624.91 2708.3
-1603.94 631.64 2737.4
-1598.58 632.33 2740.4
-1599.11 635.36 2753.6
-1636.69 656.15 2843.7
-1563.80 629.77 2729.3
-1610.58 654.53 2836.6
-1599.29 655.93 2842.7
-1562.95 643.99 2791.0
-1548.78 641.12 2778.5
-1529.41 636.07 2756.6
-1530.51 639.51 2771.5
-1533.43 643.75 2789.9
-1514.16 638.67 2767.9
-1530.58 648.68 2811.3
-1507.54 645.06 2795.6
-1649.98 513.07 2248.8
-1672.47 527.52 2312.2
-1655.81 524.14 2297.4
-1624.86 516.20 2262.6
-1630.07 519.73 2278.1
-1666.62 533.32 2337.6
-1645.80 532.46 2333.9
-1668.57 558.30 2447.1
-1626.64 556.98 2441.3
-1645.00 565.47 2478.5
-1629.08 562.19 2464.2
-1629.72 566.86 2484.6
-1660.73 582.25 2552.1
-1655.47 582.72 2554.1
-1634.28 579.91 2541.8
-1627.96 580.00 2542.2
-1660.70 594.07 2603.9
-1670.04 599.85 2629.2
-1657.75 597.88 2620.6
-1658.58 600.64 2632.7
-1643.27 605.05 2652.0
-1660.39 613.93 2690.9
-1658.86 615.95 2699.8
-1657.29 617.97 2708.6
-1666.91 624.20 2736.0
-1615.60 620.84 2721.2
-1585.09 614.48 2693.4
-1637.36 637.56 2794.5
-1631.21 643.71 2821.4
-1579.16 625.97 2743.7
-1579.10 628.78 2756.0
-1628.57 651.43 2855.3
-1618.67 653.41 2864.0
-1601.90 649.62 2847.4
-1595.26 649.92 2848.7
-1565.69 640.84 2808.9
-1531.51 629.78 2760.4
-1526.44 630.64 2764.2
-1522.76 632.09 2770.5
-1515.76 632.17 2770.9
-1542.98 646.58 2834.0
-1500.30 634.74 2782.2
-1649.50 503.53 2232.4
-1671.35 512.00 2269.9
-1631.21 512.33 2271.4
-1637.56 516.19 2288.5
-1644.16 525.89 2331.5
-1650.71 558.80 2477.4
-1627.37 557.41 2471.3
-1642.77 564.90 2504.5
-1627.41 568.61 2520.9
-1634.41 573.36 2542.0
-1656.69 583.53 2587.1
-1638.99 584.39 2590.9
-1634.64 585.24 2594.7
-1635.49 587.97 2606.7
-1628.49 587.88 2606.4
-1623.26 590.89 2619.7
-1653.34 604.37 2679.5
-1664.17 610.90 2708.4
-1642.08 605.34 2683.8
-1630.81 603.75 2676.7
-1659.29 616.92 2735.1
-1663.13 626.37 2777.0
-1649.21 623.83 2765.7
-1608.26 611.00 2708.9
-1636.54 627.22 2780.8
-1623.15 630.42 2795.0
-1571.97 613.28 2719.0
-1589.53 625.74 2774.2
-1632.18 645.45 2861.6
-1603.43 639.90 2837.0
-1576.13 631.91 2801.6
-1601.22 644.94 2859.3
-1606.01 649.88 2881.2
-1548.36 629.47 2790.8
-1520.94 621.23 2754.2
-1534.77 629.83 2792.4
-1546.55 637.68 2827.1
-1540.37 638.15 2829.3
-1527.16 635.71 2818.4
-1507.94 630.73 2796.3
-1494.37 628.07 2784.5
-1635.26 507.70 2277.1
-1627.84 512.80 2299.9
-1634.57 516.81 2317.9
-1662.15 527.47 2365.7
-1675.63 593.02 2659.7
-1672.71 594.43 2666.1
-1672.36 596.78 2676.6
-1665.74 596.89 2677.1
-1627.54 585.64 2626.6
-1637.07 594.04 2664.3
-1631.99 594.71 2667.3
-1613.59 590.51 2648.4
-1635.00 600.90 2695.1
-1608.65 606.77 2721.4
-1650.67 625.36 2804.8
-1625.31 624.00 2798.7
-1580.82 617.96 2771.6
-1619.44 635.94 2852.2
-1616.19 637.58 2859.6
-1565.73 620.52 2783.1
-1568.81 624.62 2801.4
-1532.98 618.95 2776.0
-1520.77 616.92 2766.9
-1538.27 626.97 2812.0
-1538.22 629.94 2825.3
-1529.69 629.44 2823.1
-1516.05 626.83 2811.4
-1660.70 518.97 2355.0
-1675.91 547.90 2486.2
-1660.44 544.93 2472.8
-1649.94 543.58 2466.7
-1657.99 548.36 2488.4
-1656.71 550.08 2496.2
-1642.38 547.46 2484.3
-1643.78 550.08 2496.2
-1660.77 557.97 2531.9
-1652.00 587.53 2666.1
-1622.81 582.02 2641.1
-1643.93 592.09 2686.8
-1654.64 598.49 2715.8
-1637.23 602.45 2733.8
-1601.31 596.98 2709.0
-1633.44 617.08 2800.2
-1632.89 619.62 2811.7
-1607.70 612.80 2780.8
-1580.51 610.65 2771.0
-1616.72 627.50 2847.5
-1613.10 631.86 2867.3
-1571.39 618.37 2806.1
-1566.74 619.41 2810.8
-1558.78 624.98 2836.1
-1527.15 615.20 2791.7
-1541.69 624.02 2831.7
-1546.25 628.86 2853.6
-1533.01 626.47 2842.8
-1504.95 617.97 2804.2
-1664.01 506.44 2325.5
-1656.52 505.99 2323.4
-1668.85 539.17 2475.8
-1674.79 543.17 2494.2
-1676.63 548.00 2516.3
-1658.98 544.35 2499.6
-1635.96 538.90 2474.6
-1628.72 538.63 2473.3
-1649.00 547.49 2514.0
-1662.66 554.22 2544.9
-1635.97 547.50 2514.0
-1665.07 561.71 2579.3
-1695.83 586.21 2691.8
-1676.41 586.74 2694.2
-1660.95 583.76 2680.5
-1648.62 581.87 2671.8
-1629.64 577.59 2652.2
-1622.01 577.33 2651.0
-1645.07 588.03 2700.1
-1650.60 592.52 2720.8
-1655.26 604.53 2775.9
-1612.82 602.12 2764.8
-1595.06 598.15 2746.6
-1613.77 607.88 2791.3
-1613.67 610.58 2803.7
-1597.39 607.15 2787.9
-1607.94 613.94 2819.1
-1601.33 622.74 2859.5
-1567.87 612.56 2812.8
-1580.35 620.32 2848.4
-1557.96 620.23 2848.0
-1573.34 629.34 2889.8
-1543.45 623.32 2862.2
-1519.05 616.43 2830.5
-1646.18 491.49 2284.0
-1670.95 500.68 2326.7
-1637.60 497.88 2313.7
-1653.40 504.53 2344.6
-1634.96 502.60 2335.7
-1646.60 508.06 2361.0
-1661.76 524.43 2437.1
-1681.16 532.58 2475.0
-1662.35 528.64 2456.7
-1671.67 533.65 2480.0
-1683.81 543.80 2527.1
-1659.65 542.33 2520.3
-1667.44 547.02 2542.1
-1650.01 545.62 2535.6
-1672.37 571.22 2654.5
-1692.46 580.47 2697.6
-1686.85 580.95 2699.8
-1681.75 581.60 2702.8
-1678.70 582.98 2709.2
-1681.30 586.33 2724.8
-1675.59 586.81 2727.0
-1650.37 580.43 2697.3
-1651.35 583.24 2710.4
-1653.81 586.61 2726.1
-1651.62 588.35 2734.1
-1655.48 592.26 2752.3
-1645.12 591.10 2746.9
-1660.45 599.21 2784.6
-1630.74 596.26 2770.9
-1648.70 605.50 2813.8
-1599.66 592.73 2754.5
-1591.79 592.46 2753.3
-1620.21 605.75 2815.0
-1634.20 613.75 2852.2
-1618.34 610.55 2837.3
-1609.81 610.11 2835.3
-1560.39 602.38 2799.4
-1531.58 596.81 2773.5
-1549.20 606.53 2818.6
-1563.33 614.96 2857.8
-1540.14 617.54 2869.8
-1634.20 490.86 2308.9
-1650.02 497.43 2339.8
