ply
format ascii 1.0
element vertex 2177
property float x
property float y
property float z
end_header
1135.06 655.06 2178.1
1128.81 648.23 2155.4
1108.52 633.44 2106.3
1094.79 622.53 2070.0
1107.22 626.52 2083.3
1119.70 630.51 2096.5
1140.46 639.10 2125.1
1165.00 649.71 2160.4
1162.96 645.47 2146.3
1182.60 653.24 2172.1
1196.76 651.75 2167.2
1180.49 639.89 2127.7
1179.61 636.44 2116.2
1204.20 646.70 2150.3
1206.62 645.01 2144.8
1194.74 635.73 2113.9
1181.78 625.96 2081.4
1181.14 622.78 2070.8
1216.54 638.54 2123.2
1237.66 646.70 2150.4
1243.38 646.78 2150.6
1258.82 651.89 2167.6
1266.52 652.96 2171.2
1286.46 660.31 2195.6
1294.22 661.36 2199.1
1093.34 710.36 2382.6
1103.36 712.84 2390.9
1106.91 711.14 2385.2
1075.73 687.27 2305.1
1066.35 677.52 2272.4
1072.48 677.67 2272.9
1082.75 680.41 2282.1
1105.11 690.69 2316.6
1120.51 696.53 2336.2
1121.73 693.54 2326.2
1112.77 677.08 2271.0
1092.83 661.45 2218.5
1089.81 656.17 2200.8
1074.65 643.67 2158.9
1067.68 632.90 2122.8
1082.60 638.46 2141.4
1094.10 641.94 2153.1
1113.55 650.04 2180.3
1112.36 646.07 2166.9
1104.03 638.01 2139.9
1122.27 645.31 2164.4
1133.92 648.76 2176.0
1126.76 641.47 2151.5
1106.44 626.80 2102.3
1092.70 615.98 2066.0
1105.58 620.20 2080.2
1131.27 631.53 2118.2
1165.34 647.41 2171.4
1181.72 653.36 2191.4
1171.91 644.83 2162.8
1166.61 638.86 2142.7
1172.82 639.22 2144.0
1169.72 634.52 2128.2
1159.07 625.79 2098.9
1172.23 629.94 2112.8
1202.88 643.40 2158.0
1211.48 645.00 2163.4
1199.22 635.53 2131.6
1191.11 628.34 2107.5
1180.99 620.16 2080.0
1168.36 610.73 2048.4
1190.25 619.36 2077.4
1216.60 630.22 2113.8
1227.09 632.81 2122.5
1269.23 651.61 2185.5
1079.08 695.00 2351.5
1092.68 699.81 2367.8
1117.73 711.85 2408.5
1106.19 700.58 2370.4
1084.63 683.13 2311.4
1079.71 676.30 2288.2
1085.45 676.18 2287.8
1103.26 683.54 2312.7
1126.18 693.97 2348.0
1134.13 695.11 2351.9
1127.76 687.51 2326.2
1118.32 678.13 2294.4
1112.56 671.07 2270.5
1109.26 665.56 2251.9
1108.02 661.33 2237.6
1094.66 649.95 2199.1
1081.12 638.59 2160.6
1094.36 643.08 2175.8
1114.20 651.38 2203.9
1130.64 657.62 2225.0
1146.29 663.34 2244.4
1141.26 657.09 2223.2
1121.95 642.73 2174.6
1128.25 643.10 2175.9
1147.07 650.58 2201.2
1149.84 648.92 2195.6
1137.71 638.91 2161.7
1131.31 632.20 2139.0
1119.82 622.73 2107.0
1121.42 620.59 2099.7
1148.60 632.56 2140.3
1157.12 634.19 2145.8
1167.49 636.81 2154.6
1183.46 642.45 2173.7
1165.58 629.74 2130.7
1139.59 612.80 2073.4
1158.30 619.94 2097.5
1202.94 640.82 2168.2
1206.84 639.91 2165.1
1188.96 627.51 2123.2
1187.06 623.62 2110.0
1189.38 621.97 2104.4
1201.24 625.30 2115.7
1210.27 627.14 2121.9
1202.94 620.52 2099.5
1198.90 615.65 2083.0
1216.61 621.94 2104.3
1266.02 644.31 2180.0
1113.17 710.67 2425.8
1099.40 697.93 2382.3
1099.67 694.21 2369.6
1099.89 690.48 2356.9
1088.95 679.84 2320.6
1076.21 668.20 2280.8
1074.90 663.73 2265.6
1078.51 662.34 2260.8
1087.94 664.53 2268.3
1107.49 672.83 2296.6
1112.81 672.45 2295.3
1101.17 661.87 2259.2
1092.78 653.35 2230.2
1093.66 650.44 2220.2
1096.21 648.54 2213.7
1102.61 648.93 2215.1
1110.31 650.08 2219.0
1095.42 638.05 2177.9
1089.51 631.36 2155.1
1113.31 641.86 2190.9
1136.82 652.09 2225.8
1150.27 649.90 2218.4
1146.38 644.48 2199.9
1153.18 645.09 2202.0
1144.65 637.17 2174.9
1150.05 637.04 2174.5
1151.80 634.89 2167.1
1126.60 617.99 2109.4
1126.35 614.87 2098.8
1135.70 616.99 2106.0
1147.38 620.35 2117.5
1178.55 634.17 2164.7
1175.52 629.54 2148.9
1157.02 616.71 2105.1
1185.16 628.75 2146.2
1215.35 641.75 2190.5
1203.26 632.41 2158.7
1192.93 624.08 2130.2
1199.10 624.42 2131.4
1211.00 627.72 2142.7
1232.52 635.96 2170.8
1225.80 629.62 2149.1
1201.18 614.18 2096.4
1203.89 612.79 2091.7
1228.90 622.72 2125.6
1264.27 637.78 2177.0
1288.59 647.16 2209.0
1141.20 730.37 2515.3
1112.20 703.77 2423.7
1093.15 687.82 2368.8
1106.42 692.28 2384.1
1118.52 695.97 2396.8
1104.38 683.37 2353.4
1089.22 670.29 2308.4
1073.86 657.22 2263.4
1063.72 647.48 2229.8
1076.02 651.43 2243.4
1098.04 661.19 2277.0
1093.19 654.74 2254.9
1072.12 638.71 2199.6
1069.56 633.81 2182.8
1076.75 634.71 2185.9
1077.51 631.84 2176.0
1081.24 630.72 2172.1
1086.25 630.36 2170.9
1069.94 617.70 2127.3
1073.09 616.34 2122.6
1105.61 631.78 2175.8
1129.09 641.92 2210.7
1152.28 651.79 2244.7
1154.73 649.90 2238.2
1129.97 632.78 2179.2
1109.42 618.19 2129.0
1099.00 609.35 2098.5
1116.87 616.21 2122.1
1149.32 631.00 2173.1
1152.89 629.87 2169.2
1129.96 614.35 2115.7
1128.34 610.50 2102.5
1135.40 611.37 2105.5
1130.93 606.05 2087.2
1147.69 612.10 2108.0
1169.18 620.61 2137.3
1174.45 620.47 2136.8
1183.93 622.54 2143.9
1193.44 624.60 2151.1
1201.08 625.68 2154.8
1211.57 628.22 2163.5
1196.90 617.75 2127.5
1189.71 611.23 2105.0
1209.72 618.67 2130.6
1201.00 611.42 2105.7
1201.34 608.82 2096.7
1231.14 621.12 2139.0
1254.80 630.21 2170.4
1287.83 643.92 2217.6
1310.29 652.23 2246.2
1097.11 688.02 2390.8
1075.94 670.95 2331.5
1085.88 673.36 2339.9
1101.16 679.05 2359.6
1090.62 668.83 2324.1
1082.82 660.40 2294.8
1074.89 651.98 2265.6
1074.74 648.35 2253.0
1096.31 657.78 2285.7
1106.23 660.17 2294.0
1089.16 646.51 2246.6
1077.82 636.37 2211.3
1084.65 637.01 2213.6
1074.79 627.90 2181.9
1059.21 615.56 2139.0
1067.49 610.78 2122.4
1103.85 628.34 2183.4
1132.55 641.40 2228.8
1152.63 649.45 2256.8
1146.72 642.86 2233.9
1118.50 623.89 2168.0
1116.77 619.80 2153.8
1120.34 618.69 2149.9
1113.55 611.90 2126.3
1135.54 620.91 2157.6
1149.96 625.71 2174.3
1134.87 614.49 2135.3
1124.64 606.00 2105.8
1134.92 608.58 2114.8
1135.56 606.00 2105.8
1125.08 597.53 2076.4
1135.80 600.35 2086.2
1152.13 606.10 2106.1
1163.41 609.14 2116.7
1176.60 613.16 2130.7
1179.49 611.79 2125.9
1180.47 609.45 2117.8
1192.79 612.96 2130.0
1180.89 604.05 2099.0
1186.26 598.52 2079.8
1220.30 612.91 2129.8
1243.41 621.70 2160.4
1260.81 627.58 2180.8
1300.69 644.54 2239.7
1124.69 702.93 2464.8
1092.49 678.95 2380.7
1064.39 657.77 2306.5
1077.12 661.92 2321.0
1094.83 669.06 2346.1
1089.60 662.19 2322.0
1088.40 657.82 2306.6
1087.95 653.96 2293.1
1097.04 655.84 2299.7
1106.56 657.96 2307.1
1103.91 652.85 2289.2
1095.27 644.28 2259.1
1092.86 639.44 2242.2
1094.63 637.09 2233.9
1079.67 625.07 2191.8
1075.28 619.27 2171.5
1081.59 619.66 2172.8
1073.59 611.89 2145.6
1086.81 616.23 2160.8
1110.14 626.24 2195.9
1125.72 631.78 2215.3
1129.47 630.67 2211.4
1107.96 615.53 2158.4
1099.12 607.55 2130.4
1116.49 614.07 2153.2
1139.77 623.75 2187.2
1154.64 628.76 2204.8
1170.03 634.01 2223.1
1176.88 634.59 2225.2
1148.69 616.37 2161.3
1125.25 600.86 2106.9
1140.58 606.10 2125.3
1146.76 606.46 2126.6
1120.14 589.55 2067.2
1136.92 592.71 2078.3
1155.16 599.37 2101.7
1161.75 599.97 2103.8
1158.94 595.72 2088.9
1156.06 591.47 2074.0
1165.45 593.52 2081.2
1191.99 604.23 2118.7
1207.69 609.39 2136.8
1185.13 595.27 2087.3
1181.11 590.56 2070.8
1216.60 605.55 2123.4
1240.67 614.75 2155.6
1246.89 615.06 2156.7
1276.02 626.62 2197.2
1132.90 709.69 2511.4
1125.17 700.82 2480.0
1110.05 687.48 2432.8
1078.98 664.46 2351.3
1075.96 658.87 2331.5
1112.80 677.63 2397.9
1120.03 678.24 2400.1
1105.03 665.46 2354.8
1106.38 662.61 2344.8
1108.50 660.25 2336.4
1092.23 647.03 2289.6
1077.43 634.81 2246.4
1094.43 641.36 2269.6
1104.34 643.71 2277.9
1080.73 626.59 2217.3
1061.98 612.46 2167.3
1066.57 611.87 2165.2
1081.04 616.93 2183.1
1098.60 623.69 2207.0
1102.38 622.59 2203.1
1101.79 619.04 2190.6
1111.19 621.13 2198.0
1105.69 614.90 2175.9
1088.62 602.33 2131.5
1087.75 598.81 2119.0
1100.17 602.60 2132.4
1111.29 605.65 2143.2
1128.29 611.86 2165.2
1137.26 613.67 2171.6
1148.07 616.45 2181.4
1175.70 628.19 2223.0
1167.98 621.02 2197.6
1137.75 602.01 2130.3
1147.16 604.06 2137.6
1170.41 613.34 2170.4
1160.04 605.00 2140.9
1137.94 590.65 2090.1
1143.12 590.52 2089.7
1165.12 599.05 2119.8
1176.92 602.27 2131.2
1175.10 598.53 2118.0
1172.27 594.32 2103.1
1176.03 593.46 2100.0
1197.38 601.45 2128.3
1229.35 614.68 2175.1
1224.59 609.50 2156.8
1221.19 605.04 2141.0
1255.87 619.41 2191.9
1267.00 622.09 2201.4
1260.18 615.96 2179.7
1281.07 623.38 2205.9
1326.05 642.40 2273.2
1126.87 703.48 2512.4
1122.79 696.90 2488.9
1124.20 693.79 2477.8
1116.72 685.26 2447.4
1110.71 677.72 2420.4
1131.39 686.46 2451.6
1114.25 672.28 2401.0
1071.06 642.64 2295.1
1053.77 628.77 2245.6
1051.98 624.25 2229.5
1085.85 640.83 2288.7
1099.94 645.61 2305.8
1094.38 638.88 2281.7
1119.47 650.01 2321.5
1112.57 642.55 2294.8
1072.41 616.06 2200.2
1069.39 611.08 2182.4
1089.01 619.02 2210.8
1095.84 619.64 2213.0
1104.83 621.47 2219.5
1119.05 626.20 2236.4
1128.98 628.50 2244.7
1127.12 624.25 2229.5
1111.13 612.25 2186.6
1082.60 593.50 2119.7
1101.21 597.64 2134.4
1131.10 610.80 2181.4
1133.38 608.98 2174.9
1127.52 602.83 2153.0
1131.51 601.99 2150.0
1152.73 610.27 2179.5
1167.69 615.17 2197.0
1161.22 608.80 2174.3
1165.21 607.94 2171.2
1183.48 614.50 2194.6
1172.22 605.74 2163.4
1146.91 589.84 2106.6
1166.10 596.86 2131.7
1201.29 611.98 2185.6
1198.20 607.54 2169.8
1179.49 595.25 2125.9
1188.97 597.25 2133.0
1207.50 603.75 2156.2
1213.72 604.07 2157.4
1228.08 608.41 2172.9
1238.66 610.84 2181.6
1251.19 614.22 2193.6
1284.54 627.74 2241.9
1293.35 629.20 2247.1
1293.42 626.41 2237.2
1112.82 680.41 2452.7
1105.27 671.95 2422.3
1099.61 664.73 2396.2
1130.39 679.51 2449.5
1123.85 671.80 2421.7
1067.56 634.60 2287.6
1071.90 626.74 2259.3
1090.94 634.40 2286.9
1089.53 630.16 2271.6
1113.34 640.47 2308.8
1105.14 632.35 2279.5
1079.80 614.57 2215.4
1091.33 617.84 2227.2
1111.91 626.18 2257.3
1119.26 627.02 2260.3
1121.43 624.96 2252.9
1129.21 626.04 2256.8
1121.74 618.69 2230.3
1103.21 605.35 2182.2
1108.21 604.99 2180.9
1100.84 597.92 2155.4
1109.81 596.73 2151.1
1151.38 615.99 2220.5
1165.85 620.63 2237.2
1141.64 604.73 2179.9
1127.14 594.11 2141.6
1146.54 601.37 2167.8
1158.74 604.81 2180.2
1163.67 604.43 2178.9
1180.07 609.99 2198.9
1180.87 607.47 2189.8
1151.55 589.55 2125.2
1143.33 582.55 2100.0
1181.63 599.22 2160.1
1200.05 605.68 2183.4
1178.16 591.84 2133.5
1163.60 581.80 2097.3
1178.71 586.61 2114.6
1221.89 605.29 2182.0
1254.39 618.52 2229.7
1252.15 614.59 2215.5
1243.62 607.61 2190.3
1245.09 605.57 2182.9
1267.31 613.59 2211.9
1285.77 619.72 2234.0
1296.03 621.86 2241.7
1129.23 687.92 2503.2
1094.60 663.02 2412.6
1085.35 653.68 2378.6
1061.78 635.87 2313.8
1075.32 640.36 2330.2
1124.88 666.13 2423.9
1083.79 634.71 2309.6
1075.09 626.15 2278.4
1083.72 627.73 2284.2
1076.07 619.91 2255.7
1051.93 602.73 2193.2
1053.24 600.23 2184.1
1087.11 616.22 2242.3
1102.93 621.86 2262.8
1081.67 606.65 2207.5
1071.32 597.69 2174.9
1092.29 606.19 2205.8
1107.76 611.58 2225.4
1112.01 610.74 2222.4
1101.84 602.03 2190.7
1095.47 595.49 2166.9
1112.33 601.56 2189.0
1114.25 599.54 2181.6
1105.93 592.06 2154.4
1113.08 592.90 2157.4
1135.89 602.02 2190.6
1149.86 606.39 2206.5
1125.12 590.41 2148.4
1120.50 585.09 2129.0
1149.41 597.24 2173.3
1159.81 599.70 2182.2
1162.91 598.39 2177.4
1169.66 598.96 2179.5
1161.65 592.00 2154.2
1161.88 589.28 2144.3
1184.36 597.82 2175.4
1194.38 600.02 2183.4
1185.22 592.61 2156.4
1170.78 582.64 2120.1
1163.73 576.43 2097.5
1178.84 581.20 2114.9
1223.47 600.41 2184.8
1252.17 611.66 2225.7
1242.75 604.27 2198.8
1234.17 597.36 2173.7
1235.61 595.34 2166.3
1266.51 607.47 2210.5
1296.61 619.10 2252.8
1284.51 610.58 2221.8
1311.38 620.56 2258.1
1127.97 684.61 2514.9
1122.28 677.24 2487.8
1114.86 668.92 2457.2
1108.51 661.33 2429.4
1087.87 645.35 2370.7
1082.43 638.51 2345.5
1114.47 653.74 2401.5
1097.59 636.72 2339.0
1083.55 625.13 2296.4
1085.98 623.10 2288.9
1082.51 617.74 2269.2
1063.42 603.56 2217.2
1053.80 591.70 2173.6
1077.99 602.07 2211.7
1064.30 591.28 2172.0
1069.60 588.00 2160.0
1097.10 599.97 2204.0
1110.43 604.12 2219.2
1106.36 598.80 2199.7
1106.14 595.61 2188.0
1106.31 592.67 2177.1
1089.64 580.77 2133.5
1101.19 583.96 2145.2
1130.16 596.31 2190.5
1132.02 594.31 2183.2
1123.51 586.91 2156.0
1117.14 580.69 2133.2
1130.14 584.56 2147.3
1161.38 597.77 2195.9
1174.56 601.60 2210.0
1168.09 595.39 2187.1
1165.67 591.28 2172.1
1164.10 587.65 2158.7
1171.28 588.44 2161.6
1192.42 596.21 2190.2
1200.13 597.22 2193.9
1183.02 585.93 2152.4
1161.50 572.57 2103.3
1169.05 573.60 2107.1
1200.29 586.19 2153.3
1220.77 593.43 2179.9
1222.75 591.66 2173.4
1230.93 592.88 2177.9
1238.64 593.87 2181.6
1232.37 588.18 2160.7
1257.47 597.44 2194.7
1315.23 622.07 2285.1
1317.90 617.77 2269.3
1090.91 671.33 2489.8
1085.42 664.02 2462.7
1111.28 675.86 2506.6
1123.09 679.08 2518.6
1121.44 674.16 2500.3
1115.31 666.62 2472.4
1121.09 666.25 2471.0
1127.26 666.11 2470.5
1101.43 647.17 2400.2
1091.16 637.53 2364.5
1101.58 640.02 2373.7
1091.09 630.41 2338.0
1079.20 620.09 2299.8
1080.41 617.38 2289.7
1094.48 622.00 2306.9
1101.09 622.35 2308.2
1082.49 608.53 2256.9
1064.50 595.21 2207.5
1062.84 591.10 2192.3
1073.03 593.59 2201.5
1078.55 593.49 2201.1
1084.07 593.39 2200.7
1101.22 599.62 2223.9
1125.84 609.83 2261.7
1135.81 612.04 2269.9
1127.04 604.18 2240.8
1112.87 593.53 2201.3
1097.65 582.43 2160.1
1089.33 575.08 2132.8
1110.65 583.37 2163.6
1133.87 592.57 2197.7
1129.03 587.09 2177.4
1141.17 590.46 2189.9
1155.63 594.98 2206.6
1151.11 589.73 2187.2
1165.62 594.24 2203.9
1176.54 596.88 2213.7
1167.32 589.33 2185.7
1174.55 590.11 2188.6
1182.25 591.13 2192.4
1157.51 575.99 2136.2
1144.17 566.64 2101.5
1171.32 577.33 2141.2
1173.31 575.59 2134.7
1161.62 567.18 2103.5
1180.03 573.47 2126.9
1185.26 573.33 2126.4
1176.68 566.55 2101.2
1206.19 578.08 2144.0
1241.61 592.33 2196.8
1258.49 597.64 2216.5
1260.97 596.10 2210.8
1263.91 594.78 2205.9
1296.94 607.58 2253.4
1321.49 613.55 2275.5
1081.70 655.38 2454.3
1091.02 657.16 2460.9
1103.92 661.07 2475.6
1102.17 656.21 2457.4
1097.14 649.46 2432.1
1104.84 650.28 2435.2
1120.21 655.58 2455.0
1103.65 642.24 2405.0
1075.87 622.55 2331.3
1067.81 614.44 2300.9
1066.60 610.33 2285.6
1063.68 605.30 2266.7
1069.79 605.43 2267.2
1087.15 611.89 2291.4
1093.31 612.01 2291.9
1075.92 599.02 2243.2
1081.54 598.92 2242.8
1103.28 607.69 2275.7
1111.09 608.74 2279.6
1115.50 607.92 2276.5
1110.86 602.20 2255.1
1117.77 602.78 2257.3
1136.83 609.86 2283.8
1141.20 609.03 2280.7
1132.44 601.24 2251.5
1117.84 590.45 2211.1
1112.33 584.54 2189.0
1114.24 582.57 2181.6
1113.45 579.22 2169.1
1114.38 576.79 2160.0
1116.18 574.83 2152.6
1134.12 581.17 2176.4
1172.48 597.85 2238.8
1173.04 592.27 2217.9
1147.91 576.75 2159.8
1150.50 575.25 2154.2
1170.09 582.22 2180.3
1173.61 581.16 2176.3
1145.58 564.57 2114.2
1143.36 560.79 2100.0
1182.66 577.32 2161.9
1187.97 577.18 2161.4
1179.63 570.43 2136.1
1182.04 568.93 2130.5
1169.73 560.38 2098.5
1182.98 564.11 2112.5
1237.36 587.32 2199.4
1247.02 589.19 2206.4
1236.99 581.78 2178.7
1260.15 589.98 2209.4
1283.91 598.38 2240.8
1306.33 606.09 2269.7
1321.06 610.18 2285.0
1106.20 663.72 2509.9
1101.07 656.78 2483.6
1099.77 652.19 2466.3
1107.94 653.24 2470.2
1111.72 651.70 2464.4
1080.93 630.03 2382.5
1060.68 614.71 2324.5
1076.26 620.22 2345.4
1079.30 618.47 2338.8
1061.83 605.07 2288.1
1051.14 595.64 2252.4
1063.83 599.51 2267.0
1083.22 607.08 2295.7
1090.65 607.90 2298.8
1086.35 602.21 2277.3
1070.60 590.28 2232.1
1078.73 591.56 2237.0
1118.72 610.21 2307.5
1136.20 613.19 2318.8
1119.18 600.82 2272.0
1105.41 590.32 2232.3
1103.17 586.06 2216.2
1121.76 592.85 2241.9
1127.78 592.96 2242.3
1111.83 581.57 2199.2
1104.52 574.80 2173.6
1107.73 573.54 2168.9
1107.35 570.45 2157.2
1118.53 573.32 2168.0
1130.64 576.63 2180.5
1131.10 573.99 2170.6
1151.85 581.63 2199.4
1179.05 592.43 2240.3
1164.99 582.50 2202.7
1142.09 568.26 2148.9
1147.41 568.14 2148.4
1171.60 577.31 2183.1
1180.68 578.99 2189.4
1154.97 563.67 2131.5
1157.44 562.19 2125.9
1192.61 576.52 2180.1
1193.26 574.12 2171.0
1189.17 569.46 2153.4
1196.81 570.44 2157.1
1198.78 568.72 2150.6
1226.90 579.37 2190.9
1263.29 593.81 2245.5
1254.83 587.12 2220.2
1241.46 578.21 2186.5
1262.71 585.44 2213.8
1288.42 594.66 2248.7
1312.32 602.96 2280.1
1115.33 666.56 2545.6
1071.11 636.37 2430.3
1050.42 620.42 2369.4
1084.12 636.61 2431.2
1122.86 655.54 2503.5
1109.92 644.26 2460.4
1063.83 613.98 2344.8
1051.96 603.68 2305.4
1074.80 613.31 2342.2
1092.10 619.67 2366.5
1088.61 614.24 2345.8
1076.79 604.20 2307.4
1087.54 606.86 2317.6
1097.08 608.82 2325.1
1093.72 603.64 2305.3
1108.71 608.58 2324.2
1111.99 607.08 2318.4
1103.82 599.39 2289.0
1128.64 609.59 2328.0
1130.17 607.17 2318.7
1096.53 585.98 2237.8
1103.84 586.78 2240.9
1114.19 589.18 2250.0
1106.78 582.21 2223.4
1122.78 587.57 2243.9
1131.86 589.27 2250.4
1118.56 579.36 2212.5
1106.42 570.14 2177.3
1104.75 566.40 2163.0
1111.48 566.97 2165.2
1128.03 572.52 2186.4
1138.84 575.11 2196.3
1138.43 572.05 2184.6
1135.26 567.63 2167.7
1139.27 566.83 2164.7
1148.73 568.73 2172.0
1149.98 566.58 2163.7
1148.45 563.07 2150.4
1164.82 568.34 2170.5
1185.90 575.84 2199.1
1172.27 566.50 2163.4
1163.61 559.64 2137.2
1188.99 569.14 2173.5
1191.51 567.65 2167.8
1188.34 563.49 2151.9
1222.47 576.96 2203.4
1251.10 587.73 2244.5
1246.56 582.88 2226.0
1248.14 580.93 2218.6
1263.13 585.21 2234.9
1272.39 586.81 2241.0
1278.78 587.08 2242.0
1290.02 589.56 2251.5
1322.21 601.54 2297.3
1081.97 644.03 2484.1
1099.53 650.61 2509.5
1085.81 638.71 2463.6
1065.57 623.14 2403.5
1098.97 638.93 2464.5
1107.53 640.19 2469.3
1066.09 612.69 2363.3
1048.31 599.03 2310.6
1062.21 603.53 2327.9
1082.68 611.68 2359.4
1096.75 616.15 2376.6
1096.56 612.60 2362.9
1087.65 604.25 2330.7
1090.59 602.54 2324.1
1092.67 600.37 2315.7
1087.62 594.33 2292.4
1100.06 597.86 2306.0
1104.98 597.29 2303.8
1098.47 590.58 2277.9
1105.01 590.92 2279.2
1088.09 578.77 2232.4
1076.10 569.37 2196.1
1103.98 581.04 2241.2
1122.97 587.94 2267.8
1123.41 585.11 2256.8
1126.84 583.86 2252.0
1124.56 579.67 2235.9
1127.92 578.42 2231.0
1133.90 578.52 2231.4
1124.37 570.75 2201.5
1123.17 567.26 2188.0
1133.52 569.61 2197.1
1138.97 569.48 2196.6
1141.71 568.01 2190.9
1142.16 565.43 2180.9
1142.11 562.62 2170.1
1147.94 562.72 2170.5
1160.17 565.94 2182.9
1168.77 567.36 2188.4
1176.00 568.12 2191.3
1187.88 571.09 2202.8
1186.78 567.84 2190.2
1192.63 567.92 2190.5
1197.07 567.33 2188.3
1178.94 556.11 2145.0
1201.66 564.16 2176.0
1261.87 589.66 2274.4
1285.43 597.88 2306.1
1275.28 590.41 2277.3
1251.62 576.78 2224.7
1241.18 569.35 2196.1
1263.86 577.11 2226.0
1284.24 583.74 2251.6
1282.40 580.27 2238.2
1299.00 585.13 2256.9
1111.31 654.88 2551.5
1110.73 646.84 2520.1
1090.60 631.40 2460.0
1090.82 627.86 2446.2
1068.67 611.55 2382.7
1063.05 604.84 2356.5
1078.63 610.20 2377.4
1066.81 600.08 2338.0
1062.53 594.30 2315.4
1079.37 600.33 2338.9
1081.55 598.18 2330.6
1071.33 589.23 2295.7
1073.37 587.09 2287.4
1095.73 596.03 2322.2
1110.31 600.66 2340.2
1108.18 596.25 2323.1
1098.81 588.01 2291.0
1077.03 573.26 2233.5
1068.60 565.73 2204.1
1071.14 564.06 2197.6
1077.51 564.41 2199.0
1094.21 570.14 2221.3
1100.63 570.48 2222.7
1111.38 573.06 2232.7
1124.36 576.74 2247.1
1120.31 571.71 2227.4
1121.89 569.58 2219.1
1117.25 564.33 2198.7
1099.22 552.40 2152.2
1109.93 554.97 2162.2
1133.19 563.75 2196.4
1140.88 564.74 2200.3
1147.69 565.28 2202.4
1159.47 568.25 2214.0
1172.66 571.89 2228.1
1180.88 573.07 2232.8
1195.53 577.35 2249.4
1207.94 580.52 2261.8
1217.63 582.35 2268.9
1220.41 580.87 2263.1
1208.74 572.56 2230.8
1207.67 569.33 2218.2
1205.61 565.67 2203.9
1194.09 557.62 2172.5
1225.35 569.53 2219.0
1259.64 582.73 2270.4
1254.23 577.53 2250.1
1257.31 576.26 2245.2
1246.96 568.89 2216.5
1249.47 567.42 2210.7
1289.05 582.72 2270.3
1325.47 596.46 2323.9
1325.42 591.07 2302.9
1335.35 592.82 2309.7
1115.64 643.13 2531.3
1093.94 626.93 2467.5
1091.40 621.84 2447.5
1069.63 605.92 2384.8
1064.40 599.49 2359.5
1084.43 607.28 2390.2
1076.67 599.51 2359.6
1076.49 596.03 2345.9
1097.49 604.24 2378.2
1101.39 602.99 2373.3
1092.49 594.80 2341.0
1088.82 589.53 2320.3
1104.20 594.57 2340.1
1118.40 598.93 2357.3
1116.72 594.78 2341.0
1104.86 585.27 2303.6
1080.54 569.32 2240.8
1084.03 568.10 2236.0
1097.74 572.23 2252.2
1084.49 562.33 2213.2
1080.98 557.56 2194.5
1091.66 560.12 2204.6
1107.17 565.12 2224.2
1117.51 567.44 2233.4
1112.11 561.79 2211.1
1110.14 557.91 2195.9
1101.91 550.95 2168.5
1102.02 545.44 2146.8
1137.78 560.31 2205.3
1158.51 567.67 2234.3
1151.41 561.38 2209.5
1150.08 557.96 2196.1
1186.41 572.75 2254.3
1215.81 581.22 2287.6
1208.08 574.72 2262.0
1215.00 575.22 2264.0
1213.13 571.57 2249.6
1216.77 570.54 2245.6
1231.13 574.53 2261.3
1237.58 574.80 2262.3
1233.22 570.07 2243.7
1220.76 561.66 2210.6
1210.52 554.35 2181.8
1214.43 553.55 2178.7
1228.81 557.52 2194.3
1248.52 563.85 2219.2
1282.73 576.64 2269.6
1309.43 585.95 2306.2
1332.39 593.52 2336.0
1113.15 650.45 2586.5
1105.69 642.23 2553.8
1122.59 648.16 2577.4
1107.28 620.84 2468.7
1080.59 602.40 2395.4
1079.75 598.49 2379.9
1088.96 600.16 2386.5
1104.29 605.18 2406.4
1104.18 601.72 2392.7
1088.41 589.81 2345.3
1092.22 588.59 2340.5
1100.98 590.03 2346.2
1102.68 587.69 2336.9
1101.83 584.03 2322.4
1101.76 580.82 2309.6
1091.08 572.08 2274.8
1089.56 568.21 2259.5
1115.21 578.48 2300.3
1138.46 587.40 2335.8
1135.25 582.64 2316.8
1105.23 564.25 2243.7
1090.48 553.80 2202.2
1096.42 553.92 2202.6
1097.98 551.84 2194.3
1099.07 549.54 2185.2
1104.52 549.43 2184.8
1105.55 547.13 2175.6
1099.43 541.34 2152.6
1107.91 542.77 2158.3
1137.00 554.22 2203.8
1165.82 565.42 2248.4
1166.41 562.89 2238.3
1150.65 552.54 2197.1
1172.44 560.23 2227.7
1216.72 578.54 2300.5
1224.65 579.47 2304.2
1185.67 558.30 2220.0
1158.80 543.01 2159.3
1189.15 554.56 2205.2
1224.80 568.45 2260.4
1235.46 570.66 2269.2
1237.24 568.78 2261.7
1225.34 560.65 2229.4
1205.29 548.89 2182.6
1223.89 554.76 2206.0
1258.76 567.90 2258.2
1272.83 571.59 2272.9
1291.74 577.41 2296.0
1293.43 575.52 2288.5
1284.97 569.14 2263.1
1318.50 581.34 2311.7
1102.64 641.53 2577.6
1110.26 642.08 2579.8
1076.82 619.01 2487.1
1069.45 611.11 2455.4
1099.49 624.56 2509.4
1113.03 617.64 2481.6
1098.78 606.23 2435.7
1088.76 597.26 2399.7
1089.11 594.06 2386.8
1093.87 593.28 2383.7
1083.08 584.13 2347.0
1064.32 570.81 2293.4
1065.55 568.29 2283.3
1078.74 572.15 2298.8
1084.09 571.83 2297.5
1075.62 564.26 2267.1
1068.70 557.58 2240.3
1078.12 559.46 2247.8
1095.62 565.48 2272.0
1115.77 572.80 2301.4
1133.90 579.01 2326.4
1137.96 578.01 2322.4
1116.13 563.94 2265.8
1088.42 547.06 2198.0
1081.73 540.87 2173.1
1090.23 542.29 2178.8
1097.86 543.27 2182.8
1106.83 544.90 2189.3
1111.84 544.57 2188.0
1109.29 540.57 2171.9
1121.38 543.70 2184.5
1136.66 548.34 2203.1
1151.11 552.53 2220.0
1177.36 562.32 2259.3
1186.54 563.90 2265.7
1166.64 551.71 2216.7
1167.54 549.43 2207.5
1195.90 560.03 2250.1
1177.49 548.74 2204.7
1161.67 538.75 2164.6
1204.56 555.95 2233.7
1233.30 566.49 2276.1
1236.51 565.26 2271.1
1236.89 562.76 2261.1
1223.57 554.07 2226.2
1203.03 542.21 2178.5
1222.10 548.23 2202.7
1277.91 570.60 2292.6
1314.01 584.00 2346.4
1320.14 584.02 2346.5
1305.10 574.72 2309.2
1299.08 569.46 2288.0
1094.83 634.20 2574.9
1094.00 629.88 2557.4
1120.85 641.45 2604.4
1103.73 627.87 2549.2
1073.89 607.26 2465.6
1084.40 609.57 2475.0
1080.38 603.74 2451.3
1067.95 593.31 2408.9
1080.37 596.71 2422.7
1083.65 595.07 2416.1
1082.89 591.23 2400.5
1085.28 589.15 2392.1
1068.19 576.58 2341.0
1056.57 567.09 2302.5
1076.67 574.63 2333.1
1087.04 576.92 2342.4
1082.18 571.15 2319.0
1088.82 571.48 2320.3
1089.63 568.76 2309.3
1077.41 559.31 2270.9
1074.28 554.65 2252.0
1086.26 557.81 2264.8
1088.53 555.97 2257.3
1093.75 555.65 2256.0
1115.64 563.75 2288.9
1123.49 564.72 2292.8
1124.45 562.22 2282.7
1118.86 556.50 2259.5
1117.51 552.94 2245.0
1131.84 557.12 2262.0
1129.12 552.92 2244.9
1127.64 549.36 2230.5
1121.23 543.45 2206.5
1106.72 533.70 2166.9
1128.17 541.30 2197.7
1154.23 551.01 2237.2
1161.56 551.74 2240.1
1178.83 557.16 2262.1
1190.29 559.79 2272.8
1170.84 547.93 2224.7
1155.77 538.22 2185.3
1168.96 541.71 2199.4
1177.60 543.07 2204.9
1190.41 546.32 2218.2
1223.22 558.68 2268.3
1244.13 565.51 2296.1
1246.91 564.08 2290.2
1245.92 560.96 2277.6
1227.45 550.03 2233.2
1201.23 535.76 2175.3
1198.49 532.04 2160.2
1232.81 544.73 2211.7
1283.10 564.32 2291.2
1303.49 570.65 2316.9
1302.34 567.53 2304.3
1311.27 568.82 2309.5
1318.28 569.26 2311.3
1315.08 565.30 2295.2
1338.64 572.84 2325.8
1075.60 605.43 2484.3
1058.46 592.23 2430.1
1069.67 594.97 2441.3
1067.54 590.29 2422.2
1047.92 576.05 2363.7
1053.08 575.52 2361.6
1078.60 586.06 2404.8
1099.49 593.98 2437.3
1087.04 583.89 2395.9
1056.57 564.30 2315.5
1058.32 562.05 2306.3
1090.30 575.78 2362.6
1086.76 570.70 2341.8
1068.68 558.09 2290.0
1082.72 562.30 2307.3
1091.42 563.70 2313.1
1095.53 562.73 2309.1
1107.61 565.84 2321.8
1111.71 564.87 2317.9
1106.88 559.39 2295.4
1081.08 543.43 2229.9
1071.68 535.84 2198.7
1089.22 541.73 2222.9
1099.52 543.98 2232.1
1107.69 545.15 2236.9
1119.80 548.23 2249.6
1152.06 561.11 2302.4
1145.38 552.13 2265.6
1117.34 535.87 2198.9
1108.14 528.76 2169.7
1135.86 539.24 2212.7
1161.95 548.86 2252.2
1169.31 549.58 2255.1
1166.29 545.43 2238.1
1156.39 538.12 2208.1
1176.86 544.95 2236.1
1203.39 554.50 2275.3
1204.84 552.46 2266.9
1200.26 547.69 2247.4
1211.32 550.07 2257.1
1243.75 562.08 2306.4
1247.51 561.08 2302.3
1232.54 551.71 2263.8
1226.32 546.32 2241.7
1201.64 532.80 2186.3
1205.57 532.04 2183.1
1232.73 541.48 2221.9
1227.19 536.54 2201.6
1235.90 537.84 2207.0
1290.19 558.88 2293.3
1325.56 571.57 2345.4
1325.88 569.10 2335.2
1321.79 564.76 2317.4
1325.89 563.95 2314.1
1089.35 614.00 2546.5
1067.19 597.88 2479.7
1047.82 583.52 2420.1
1051.59 582.13 2414.4
1080.01 594.32 2464.9
1085.80 594.00 2463.6
1073.38 583.77 2421.2
1065.54 576.14 2389.5
1079.94 580.55 2407.8
1095.62 585.59 2428.7
1079.51 573.68 2379.3
1062.77 561.58 2329.1
1077.99 566.40 2349.1
1089.20 569.08 2360.2
1066.33 554.01 2297.8
1067.90 548.70 2275.7
1079.03 551.37 2286.8
1084.76 551.27 2286.4
1094.69 553.29 2294.8
1095.77 550.85 2284.6
1111.67 555.83 2305.3
1108.46 551.27 2286.4
1080.33 534.42 2216.5
1078.14 530.51 2200.3
1094.87 535.91 2222.7
1109.96 540.45 2241.5
1109.45 537.39 2228.8
1128.99 544.02 2256.3
1150.41 551.49 2287.3
1132.25 540.00 2239.6
1121.42 532.10 2206.9
1130.46 533.67 2213.4
1153.81 541.94 2247.7
1175.95 549.57 2279.3
1169.86 543.99 2256.2
1154.64 534.24 2215.7
1151.04 529.93 2197.9
1177.87 539.62 2238.0
1193.44 544.07 2256.5
1182.91 536.64 2225.7
1200.36 541.91 2247.6
1233.62 554.24 2298.7
1250.37 559.06 2318.7
1237.37 550.60 2283.6
1242.93 550.44 2282.9
1258.82 554.83 2301.2
1239.42 543.71 2255.0
1251.53 546.44 2266.4
1254.66 545.25 2261.4
1220.61 527.98 2189.8
1231.20 530.10 2198.6
1287.42 551.75 2288.4
1318.94 562.67 2333.6
1313.92 557.97 2314.1
1335.97 564.75 2342.3
1101.84 618.11 2591.4
1107.57 617.56 2589.1
1108.65 614.43 2576.0
1063.48 585.87 2456.3
1044.31 571.88 2397.6
1085.25 590.79 2476.9
1102.50 596.65 2501.5
1075.50 578.63 2425.9
1054.53 564.05 2364.8
1062.08 564.81 2368.0
1072.05 566.83 2376.5
1065.10 559.94 2347.6
1058.02 553.05 2318.7
1068.33 555.29 2328.1
1076.22 556.25 2332.1
1074.67 552.34 2315.7
1079.23 551.61 2312.6
1083.78 550.87 2309.6
1080.80 546.34 2290.6
1087.38 546.66 2291.9
1096.90 548.45 2299.4
1093.34 543.72 2279.6
1105.41 546.76 2292.3
1123.92 552.95 2318.2
1117.69 546.96 2293.1
1110.49 540.56 2266.3
1123.05 543.79 2279.9
1133.93 546.18 2289.9
1130.46 541.68 2271.0
1133.91 540.52 2266.1
1138.65 539.98 2263.9
1126.61 531.53 2228.5
1121.51 526.42 2207.0
1125.21 525.48 2203.1
1142.74 530.97 2226.1
1172.47 542.05 2272.6
1174.92 540.46 2265.9
1160.15 531.01 2226.3
1157.02 526.96 2209.3
1184.80 536.95 2251.2
1203.14 542.59 2274.8
1177.49 528.43 2215.5
1178.33 526.24 2206.3
1195.32 531.25 2227.3
1193.81 528.03 2213.8
1220.22 537.13 2251.9
1267.84 555.43 2328.7
1291.81 563.25 2361.5
1280.07 555.50 2329.0
1275.29 550.83 2309.4
1260.93 542.08 2272.7
1244.52 532.54 2232.7
1275.77 543.38 2278.2
1289.44 546.68 2292.0
1271.84 536.74 2250.3
1300.01 546.12 2289.6
1099.73 599.26 2540.0
1042.63 561.42 2379.6
1065.59 570.40 2417.7
1044.33 555.75 2355.6
1033.94 547.03 2318.6
1051.40 553.05 2344.2
1057.30 552.96 2343.8
1046.23 544.04 2306.0
1047.57 541.64 2295.8
1067.22 548.68 2325.7
1077.97 551.10 2335.9
1078.89 548.49 2324.8
1081.41 546.71 2317.3
1083.89 544.94 2309.8
1082.58 541.29 2294.3
1090.83 542.44 2299.2
1107.95 547.96 2322.6
1112.05 547.01 2318.6
1100.41 538.37 2282.0
1095.44 533.07 2259.5
1113.08 538.78 2283.7
1129.10 543.64 2304.3
1135.69 543.93 2305.5
1140.54 543.40 2303.3
1136.66 538.73 2283.5
1139.70 537.37 2277.7
1151.50 540.13 2289.4
1144.36 534.03 2263.6
1135.33 527.12 2234.3
1134.64 524.12 2221.6
1148.63 527.91 2237.6
1173.01 536.40 2273.6
1161.50 528.48 2240.0
1129.48 511.36 2167.4
1143.48 515.13 2183.4
1191.27 534.02 2263.5
1213.77 541.43 2294.9
1191.35 528.85 2241.6
1167.80 515.87 2186.6
1173.91 513.58 2176.9
1216.58 529.71 2245.2
1241.26 537.88 2279.9
1238.35 534.07 2263.7
1264.14 542.63 2300.0
1297.65 554.39 2349.9
1305.69 555.22 2353.4
1316.13 557.06 2361.2
1310.80 552.24 2340.7
1281.37 537.35 2277.6
1279.64 534.16 2264.1
1328.16 551.88 2339.2
1114.65 600.71 2574.5
1073.84 575.27 2465.4
1069.83 569.73 2441.7
1085.83 574.85 2463.6
1079.72 568.27 2435.5
1083.04 566.71 2428.7
1064.72 553.90 2373.9
1036.09 535.91 2296.8
1049.16 539.57 2312.4
1075.28 549.86 2356.5
1091.80 555.15 2379.2
1099.81 556.08 2383.2
1092.59 549.34 2354.3
1087.72 543.86 2330.8
1079.00 536.52 2299.4
1067.23 527.75 2261.8
1080.87 531.57 2278.2
1105.11 540.54 2316.6
1114.70 542.28 2324.1
1109.43 536.82 2300.7
1096.81 527.88 2262.3
1106.74 529.82 2270.7
1136.09 540.99 2318.5
1156.55 547.84 2347.9
1161.92 547.50 2346.4
1156.38 542.05 2323.1
1143.29 533.14 2284.9
1138.40 528.12 2263.4
1141.35 526.78 2257.6
1142.95 524.83 2249.3
1143.18 522.26 2238.3
1158.11 526.41 2256.1
1175.35 531.57 2278.1
1153.47 519.06 2224.5
1152.17 515.90 2211.0
1200.34 534.80 2292.0
1209.15 536.08 2297.5
1190.05 525.02 2250.1
1192.82 523.68 2244.3
1197.86 523.34 2242.9
1190.85 517.76 2219.0
1203.26 520.64 2231.3
1245.59 536.38 2298.8
1269.45 544.05 2331.7
1268.52 541.08 2318.9
1297.74 550.93 2361.1
1327.59 560.95 2404.1
1332.89 560.56 2402.4
1325.78 554.98 2378.5
1301.33 542.22 2323.8
1284.82 532.88 2283.8
1299.02 536.29 2298.4
1327.78 545.66 2338.5
1108.82 598.09 2592.1
1094.04 586.57 2542.1
1068.54 569.46 2468.0
1061.47 562.32 2437.0
1086.05 571.95 2478.7
1091.53 564.80 2447.8
1048.01 539.15 2336.6
1052.49 535.27 2319.8
1068.89 540.52 2342.5
1076.00 541.04 2344.8
1099.92 549.96 2383.5
1109.17 551.49 2390.1
1098.17 542.98 2353.2
1082.42 532.24 2306.7
1080.68 528.46 2290.3
1104.04 536.94 2327.0
1112.79 538.25 2332.7
1107.60 532.84 2309.3
1105.27 528.87 2292.0
1095.61 521.44 2259.9
1105.54 523.37 2268.2
1135.32 534.62 2317.0
1138.48 533.29 2311.2
1126.39 524.86 2274.7
1144.70 530.62 2299.6
1156.53 533.32 2311.3
1142.00 523.91 2270.5
1136.13 518.54 2247.3
1142.59 518.83 2248.5
1149.49 519.31 2250.6
1151.03 517.38 2242.3
1154.78 516.46 2238.3
1165.71 518.74 2248.2
1199.33 531.05 2301.5
1244.83 545.76 2365.3
1229.53 536.41 2324.7
1236.12 536.66 2325.8
1240.87 536.10 2323.4
1234.02 530.57 2299.4
1234.97 528.42 2290.1
1266.23 539.21 2336.9
1271.89 539.04 2336.1
1253.09 528.56 2290.7
1298.79 545.24 2363.0
1343.82 561.50 2433.5
1322.07 549.83 2382.9
1287.70 533.05 2310.2
1322.98 545.12 2362.5
1374.80 563.86 2443.7
1359.88 555.18 2406.1
1080.64 572.87 2511.0
1070.22 563.95 2471.9
1074.48 562.82 2466.9
1079.11 561.90 2462.9
1086.08 562.21 2464.2
1097.02 564.55 2474.5
1081.69 553.42 2425.7
1046.90 532.53 2334.1
1037.08 524.50 2298.9
1047.73 526.86 2309.3
1052.32 526.16 2306.2
1053.63 523.84 2296.1
1073.77 530.85 2326.8
1087.85 534.81 2344.1
1080.46 528.22 2315.3
1083.76 526.91 2309.5
1100.82 532.27 2333.0
1110.43 533.98 2340.5
1104.03 528.02 2314.4
1097.52 522.06 2288.3
1093.87 517.53 2268.4
1098.26 516.83 2265.3
1121.93 525.16 2301.8
1134.55 528.26 2315.4
1120.39 518.92 2274.5
1110.82 511.79 2243.2
1133.43 519.49 2277.0
1153.11 525.77 2304.5
1147.36 520.45 2281.2
1134.88 512.15 2244.8
1136.45 510.24 2236.5
1146.00 511.92 2243.8
1149.31 510.81 2238.9
1152.15 509.49 2233.2
1161.28 510.96 2239.6
1171.78 513.02 2248.6
1192.32 519.43 2276.7
1223.48 530.37 2324.7
1238.32 534.18 2341.4
1245.87 534.81 2344.2
1251.12 534.46 2342.6
1226.22 521.29 2284.9
1209.46 511.69 2242.8
1247.64 525.32 2302.5
1260.73 528.31 2315.6
1235.29 515.19 2258.2
1272.91 528.38 2315.9
1340.14 553.67 2426.8
1337.40 549.96 2410.5
1301.64 532.76 2335.2
1341.76 546.64 2396.0
1091.15 582.40 2582.0
1083.46 574.76 2548.2
1104.88 582.57 2582.8
1100.30 573.21 2541.3
1089.07 563.98 2500.4
1079.62 555.78 2464.0
1078.30 551.83 2446.6
1080.87 549.91 2438.0
1081.80 547.19 2426.0
1062.22 534.18 2368.3
1052.87 526.44 2334.0
1064.81 529.36 2346.9
1064.20 526.05 2332.3
1061.07 521.54 2312.3
1062.36 519.24 2302.1
1059.07 514.74 2282.1
1065.22 514.85 2282.6
1079.68 518.96 2300.8
1090.04 521.06 2310.1
1093.72 519.96 2305.3
1095.26 517.87 2296.0
1096.33 515.57 2285.8
1087.14 508.50 2254.4
1086.79 505.62 2241.7
1107.85 512.67 2272.9
1116.96 514.16 2279.5
1122.19 513.85 2278.1
1133.51 516.31 2289.1
1152.73 522.33 2315.8
1170.74 527.74 2339.7
1162.86 521.49 2312.0
1148.66 512.48 2272.1
1143.62 507.63 2250.6
1147.41 506.72 2246.6
1158.34 508.97 2256.5
1167.95 510.61 2263.8
1150.06 500.28 2218.0
1158.28 498.86 2211.7
1197.99 513.42 2276.3
1228.78 524.04 2323.3
1251.95 531.31 2355.6
1264.14 533.89 2367.0
1247.63 524.37 2324.8
1214.64 508.05 2252.4
1239.30 515.88 2287.2
1290.37 534.58 2370.1
1301.74 536.74 2379.6
1310.32 537.72 2384.0
1343.09 548.59 2432.2
1374.15 558.65 2476.8
1373.85 555.93 2464.7
1371.11 552.25 2448.4
1393.31 558.61 2476.6
1067.87 559.98 2511.5
1111.95 579.56 2599.4
1077.37 548.25 2458.9
1048.37 530.35 2378.7
1067.07 536.66 2406.9
1083.10 541.55 2428.9
1068.33 531.08 2381.9
1064.24 526.00 2359.2
1062.47 522.13 2341.8
1048.83 512.49 2298.6
1057.88 514.00 2305.3
1071.06 517.48 2320.9
1066.16 512.23 2297.4
1069.43 510.95 2291.6
1084.76 515.41 2311.6
1095.98 517.88 2322.7
1104.72 519.16 2328.5
1110.95 519.25 2328.9
1106.58 514.41 2307.2
1092.74 505.25 2266.1
1096.69 504.36 2262.1
1122.95 513.69 2303.9
1132.13 515.15 2310.5
1137.87 515.03 2310.0
1136.20 511.59 2294.5
1143.20 512.06 2296.6
1166.00 519.56 2330.3
1164.70 516.31 2315.7
1155.37 509.55 2285.3
1156.57 507.48 2276.1
1159.96 506.38 2271.1
1170.94 508.59 2281.1
1183.76 511.57 2294.4
1167.72 502.12 2252.0
1148.34 491.33 2203.6
1172.44 499.16 2238.7
1214.50 514.52 2307.6
1247.21 525.79 2358.2
1254.33 526.21 2360.1
1250.83 522.19 2342.0
1267.66 526.66 2362.1
1271.99 525.92 2358.8
1260.88 518.83 2327.0
1273.09 521.36 2338.3
1301.36 530.41 2378.9
1329.32 539.25 2418.6
1349.36 544.81 2443.5
1362.83 547.68 2456.4
1364.40 545.76 2447.8
1362.58 542.51 2433.2
1398.23 554.14 2485.3
1072.97 556.11 2523.5
1079.70 556.21 2524.0
1095.34 560.87 2545.1
1089.26 554.41 2515.8
1096.35 554.70 2517.1
1072.36 539.35 2447.5
1035.02 517.51 2348.4
1044.12 519.01 2355.2
1069.22 528.39 2397.8
1064.01 522.78 2372.3
1050.21 513.04 2328.1
1037.44 503.90 2286.6
1046.86 505.59 2294.3
1079.63 518.47 2352.7
1095.79 523.27 2374.5
1092.23 518.66 2353.6
1070.33 505.44 2293.6
1061.50 498.50 2262.1
1091.87 509.94 2314.0
1121.62 520.97 2364.1
1110.19 512.86 2327.3
1087.14 499.50 2266.6
1087.27 496.87 2254.7
1107.45 503.39 2284.3
1132.91 512.22 2324.4
1140.41 512.88 2327.4
1151.38 515.09 2337.4
1154.11 513.61 2330.7
1151.13 509.62 2312.5
1163.44 512.40 2325.2
1163.45 509.76 2313.2
1156.32 504.04 2287.2
1160.64 503.34 2284.1
1165.83 503.02 2282.6
1170.56 502.51 2280.3
1177.53 502.96 2282.4
1196.24 508.40 2307.0
1212.33 512.68 2326.4
1208.92 508.70 2308.4
1218.69 510.29 2315.6
1258.76 524.49 2380.0
1276.07 529.10 2401.0
1257.84 519.01 2355.2
1260.31 517.52 2348.4
1297.70 530.31 2406.4
1320.82 537.17 2437.6
1299.92 526.16 2387.6
1292.02 520.48 2361.9
1323.73 530.74 2408.4
1347.09 537.57 2439.4
1361.50 540.78 2454.0
1363.07 538.89 2445.4
1355.96 533.59 2421.4
1388.23 543.78 2467.6
1094.08 556.99 2557.6
1068.32 540.60 2482.3
1070.28 538.34 2472.0
1083.93 541.96 2488.6
1077.58 535.60 2459.4
1056.85 522.21 2397.9
1030.29 506.11 2324.0
1046.03 507.90 2332.2
1061.58 512.49 2353.3
1055.74 506.76 2326.9
1072.18 511.72 2349.7
1091.98 518.23 2379.6
1094.23 516.38 2371.1
1099.75 516.08 2369.8
1086.58 507.07 2328.4
1074.48 498.65 2289.7
1103.25 509.19 2338.1
1132.63 519.90 2387.3
1119.55 511.10 2346.9
1097.81 498.46 2288.9
1099.26 496.44 2279.6
1104.94 496.34 2279.1
1115.35 498.35 2288.3
1133.57 503.81 2313.4
1155.35 510.79 2345.5
1163.33 511.62 2349.3
1164.32 509.39 2339.0
1180.20 513.66 2358.7
1181.60 511.62 2349.3
1174.98 506.15 2324.1
1178.93 505.26 2320.1
1166.78 497.51 2284.5
1153.13 489.21 2246.4
1172.18 494.79 2272.0
1204.89 506.06 2323.7
1222.39 510.85 2345.7
1219.01 506.91 2327.7
1209.61 500.53 2298.3
1229.92 506.44 2325.5
1277.99 523.67 2404.6
1293.07 527.27 2421.2
1285.93 521.82 2396.1
1315.03 531.07 2438.6
1353.19 543.87 2497.3
1346.03 538.41 2472.3
1310.01 521.52 2394.7
1313.41 520.41 2389.6
1350.98 532.78 2446.4
1381.62 542.32 2490.2
1387.08 541.93 2488.4
1384.84 538.55 2472.9
1103.46 555.07 2579.5
1096.73 548.37 2548.3
1117.15 555.23 2580.2
1120.86 553.76 2573.4
1104.45 542.42 2520.7
1082.26 528.40 2455.6
1053.82 511.50 2377.0
1038.62 501.20 2329.1
1058.55 507.86 2360.1
1084.65 517.39 2404.4
1088.65 516.33 2399.5
1090.17 514.12 2389.2
1095.74 513.82 2387.8
1087.32 507.01 2356.1
1082.47 501.93 2332.5
1094.53 504.70 2345.4
1107.48 507.85 2360.1
1096.19 499.91 2323.2
1083.90 491.61 2284.6
1114.13 502.57 2335.5
1136.92 510.08 2370.4
1133.43 505.78 2350.4
1132.84 502.81 2336.6
1112.83 491.30 2283.2
1100.36 483.23 2245.6
1112.90 486.16 2259.3
1111.55 483.03 2244.7
1117.13 482.93 2244.2
1137.65 489.25 2273.6
1166.67 499.14 2319.6
1187.90 505.62 2349.7
1178.99 499.27 2320.2
1152.09 485.40 2255.7
1141.96 478.70 2224.6
1165.48 486.10 2259.0
1191.84 494.62 2298.6
1202.48 496.55 2307.5
1215.42 499.41 2320.8
1224.76 500.76 2327.1
1229.98 500.43 2325.6
1260.55 510.37 2371.8
1278.35 515.06 2393.6
1273.46 510.61 2372.9
1275.48 508.96 2365.2
1284.48 510.10 2370.5
1316.52 520.34 2418.1
1323.29 520.53 2419.0
1326.74 519.43 2413.9
1363.89 531.47 2469.8
1376.47 533.86 2480.9
1361.81 525.72 2443.1
1388.78 533.65 2480.0
1095.92 554.73 2609.3
1101.71 554.23 2607.0
1102.48 551.24 2592.9
1078.48 535.97 2521.1
1076.27 531.65 2500.8
1093.86 537.11 2526.5
1094.71 534.32 2513.4
1095.49 531.54 2500.3
1087.89 524.75 2468.3
1074.58 515.30 2423.9
1075.07 512.53 2410.9
1083.93 513.77 2416.7
1097.65 517.28 2433.2
1091.97 511.67 2406.8
1084.14 505.11 2375.9
1092.13 505.96 2379.9
1084.92 499.79 2350.9
1080.05 494.77 2327.3
1091.69 497.33 2339.3
1096.29 496.66 2336.2
1076.14 484.85 2280.7
1098.55 489.57 2302.9
1134.87 503.02 2366.1
1145.01 504.79 2374.4
1129.90 495.46 2330.6
1093.94 477.15 2244.4
1116.82 479.47 2255.4
1139.50 486.66 2289.2
1142.53 485.43 2283.4
1155.69 488.49 2297.8
1194.16 502.16 2362.1
1203.08 503.33 2367.6
1172.25 487.94 2295.2
1158.60 479.83 2257.0
1188.95 489.92 2304.5
1222.65 501.29 2358.0
1244.31 507.63 2387.8
1270.19 515.62 2425.4
1265.09 511.02 2403.8
1253.47 503.85 2370.0
1258.31 503.32 2367.6
1248.32 496.90 2337.4
1268.87 502.65 2364.4
1300.73 512.79 2412.1
1286.88 504.90 2375.0
1293.56 505.11 2375.9
1312.04 509.89 2398.4
1325.39 512.65 2411.4
1370.15 527.48 2481.2
1393.25 533.86 2511.2
1393.00 531.28 2499.1
1097.56 548.78 2613.2
1099.91 546.58 2602.8
1097.98 542.29 2582.3
1072.01 526.26 2506.0
1069.70 515.75 2456.0
1101.88 528.12 2514.9
1098.67 523.48 2492.8
1090.18 516.40 2459.1
1082.34 509.71 2427.2
1085.61 508.29 2420.4
1088.84 506.88 2413.7
1071.35 495.88 2361.3
1065.45 490.35 2335.0
1074.99 491.95 2342.6
1075.10 489.23 2329.7
1077.63 487.64 2322.1
1078.46 485.31 2311.0
1069.64 478.68 2279.4
1073.25 477.66 2274.6
1086.11 480.74 2289.2
1109.59 488.46 2326.0
1136.21 497.48 2368.9
1142.51 497.55 2369.3
1122.67 486.29 2315.7
1115.51 480.62 2288.7
1138.06 487.74 2322.6
1159.02 494.11 2352.9
1176.17 498.79 2375.2
1192.97 503.29 2396.6
1191.83 500.20 2381.9
1172.07 489.37 2330.3
1177.82 489.25 2329.7
1234.31 510.10 2429.0
1252.32 514.91 2452.0
1213.41 496.39 2363.8
1221.00 496.99 2366.6
1233.57 499.60 2379.0
1233.02 496.89 2366.1
1261.14 505.70 2408.1
1257.38 501.71 2389.1
1265.02 502.29 2391.8
1290.21 509.79 2427.6
1287.74 506.35 2411.2
1319.15 516.19 2458.0
1351.67 526.37 2506.5
1337.54 518.38 2468.5
1313.37 506.59 2412.3
1298.88 498.62 2374.4
1315.03 502.44 2392.6
1365.00 519.09 2471.8
1104.98 542.32 2614.8
1101.54 537.34 2590.7
1092.19 529.54 2553.2
1077.62 519.33 2503.9
1064.00 509.70 2457.5
1092.93 520.44 2509.3
1110.65 525.75 2534.9
1095.19 515.38 2484.9
1097.03 513.23 2474.5
1098.82 511.08 2464.1
1075.63 497.40 2398.2
1053.36 484.30 2335.0
1064.91 486.82 2347.1
1087.12 494.14 2382.5
1094.31 494.60 2384.7
1093.68 491.54 2369.9
1086.36 485.53 2340.9
1077.67 478.97 2309.3
1073.09 469.11 2261.8
1114.30 484.48 2335.9
1126.06 486.95 2347.8
1115.67 479.86 2313.6
1122.71 480.31 2315.8
1144.84 487.16 2348.8
1142.00 483.39 2330.6
1136.05 478.33 2306.3
1160.52 486.08 2343.6
1185.59 493.99 2381.8
1202.89 498.61 2404.0
1201.28 495.37 2388.4
1174.76 481.95 2323.7
1197.41 488.74 2356.4
1256.87 510.40 2460.9
1258.37 508.43 2451.4
1238.18 497.76 2399.9
1221.40 488.56 2355.6
1197.62 476.66 2298.2
1203.71 476.72 2298.5
1229.03 484.35 2335.2
1268.30 497.37 2398.0
1309.66 511.09 2464.2
1323.49 513.98 2478.1
1335.04 515.96 2487.6
1345.22 517.39 2494.6
1318.87 504.83 2434.0
1322.19 498.94 2405.6
1334.63 501.27 2416.8
1378.31 512.86 2472.7
1106.61 536.33 2618.6
1098.17 529.00 2582.8
1084.55 519.27 2535.3
1094.79 521.02 2543.8
1105.07 522.76 2552.3
1097.72 516.19 2520.3
1082.33 505.94 2470.2
1073.46 498.84 2435.6
1082.36 500.04 2441.4
1088.08 499.76 2440.1
1068.45 487.90 2382.2
1044.51 474.23 2315.4
1054.81 476.17 2324.9
1074.52 482.31 2354.9
1079.60 481.86 2352.6
1094.15 485.60 2370.9
1102.55 486.60 2375.8
1100.58 483.03 2358.4
1084.33 473.27 2310.7
1086.18 468.90 2289.4
1131.70 485.89 2372.4
1145.67 489.23 2388.7
1122.97 476.96 2328.7
1118.46 472.51 2307.0
1130.66 475.12 2319.8
1116.08 466.51 2277.7
1130.87 470.20 2295.7
1177.59 487.07 2378.1
1201.42 494.33 2413.6
1216.59 497.98 2431.4
1213.71 494.24 2413.1
1183.23 479.36 2340.5
1184.98 477.62 2332.0
1223.37 490.59 2395.3
1233.72 492.24 2403.4
1219.74 484.22 2364.2
1229.15 485.51 2370.5
1234.03 485.02 2368.1
1237.52 483.98 2363.0
1262.07 491.15 2398.0
1293.19 500.80 2445.1
1328.20 511.84 2499.1
1332.36 510.95 2494.7
1333.71 509.00 2485.2
1335.48 507.23 2476.5
1297.83 490.57 2395.2
1303.23 487.94 2382.3
1351.64 503.68 2459.2
1373.23 509.32 2486.7
1089.25 531.01 2625.9
1090.54 528.34 2612.7
1080.73 520.35 2573.2
1083.75 518.60 2564.5
1076.72 512.10 2532.4
1082.31 511.64 2530.1
1109.64 521.40 2578.3
1112.97 519.83 2570.6
1099.76 510.60 2525.0
1089.90 503.03 2487.5
1086.22 498.38 2464.5
1078.44 491.92 2432.6
1068.92 484.74 2397.1
1062.46 479.03 2368.8
1052.23 471.69 2332.5
1045.91 466.18 2305.3
1049.26 465.01 2299.5
1075.96 474.15 2344.7
1111.92 487.24 2409.4
1117.51 486.96 2408.0
1111.03 481.44 2380.8
1114.87 480.44 2375.8
1111.13 476.20 2354.8
1108.14 472.32 2335.7
1130.48 479.22 2369.8
1160.19 489.16 2418.9
1152.93 483.48 2390.9
1139.53 475.31 2350.4
1143.20 474.31 2345.5
1128.66 465.80 2303.4
1143.94 469.62 2322.3
1179.82 481.81 2382.6
1190.95 483.82 2392.5
1219.73 492.95 2437.7
1229.68 494.41 2444.9
1220.56 488.23 2414.3
1244.75 495.36 2449.6
1264.61 500.71 2476.0
1254.90 494.35 2444.6
1236.93 484.83 2397.5
1241.42 484.15 2394.2
1259.54 488.78 2417.0
1278.20 493.56 2440.7
1285.95 494.11 2443.4
1299.23 496.77 2456.5
1336.58 508.55 2514.8
1340.78 507.67 2510.5
1344.95 506.79 2506.1
1350.96 506.61 2505.2
1354.62 505.55 2500.0
1086.52 516.43 2587.0
1077.32 508.92 2549.3
1071.41 503.04 2519.9
1075.80 502.04 2514.9
1107.39 513.67 2573.1
1114.61 513.92 2574.4
1104.55 506.25 2535.9
1097.47 500.03 2504.8
1081.91 490.04 2454.8
1063.74 479.00 2399.4
1069.77 478.91 2399.0
1077.40 479.54 2402.1
1071.28 474.07 2374.8
1069.92 470.77 2358.2
1068.07 467.28 2340.7
1089.95 474.16 2375.2
1122.27 485.48 2431.9
1123.36 483.23 2420.6
1116.48 477.61 2392.5
1117.00 475.19 2380.4
1119.99 473.84 2373.6
1126.74 474.09 2374.9
1122.89 469.91 2353.9
1125.34 468.38 2346.3
1155.53 478.37 2396.3
1183.36 487.27 2440.9
1174.72 481.13 2410.1
1146.88 467.25 2340.6
1137.45 460.97 2309.1
1147.54 462.62 2317.4
1160.29 465.32 2330.9
1192.91 475.93 2384.1
1226.20 486.69 2437.9
1240.60 489.88 2453.9
1257.74 494.11 2475.1
1271.38 496.94 2489.3
1256.75 488.74 2448.2
1232.91 477.06 2389.7
1270.02 488.96 2449.3
1314.80 501.19 2510.6
1297.01 491.97 2464.4
1304.35 492.33 2466.2
1334.34 501.19 2510.6
1336.20 499.45 2501.9
1335.23 496.68 2488.0
1114.42 522.81 2653.4
1104.58 515.02 2613.8
1098.81 509.20 2584.3
1069.68 492.70 2500.5
1068.57 489.22 2482.9
1088.49 495.36 2514.1
1091.65 493.84 2506.3
1071.46 481.84 2445.4
1043.47 466.49 2367.5
1047.83 465.70 2363.5
1077.03 475.90 2415.3
1067.37 468.90 2379.8
1074.84 466.79 2369.0
1107.74 478.34 2427.7
1097.38 471.19 2391.4
1097.16 468.45 2377.5
1118.02 474.69 2409.1
1131.09 477.57 2423.8
1123.73 471.84 2394.7
1115.40 465.77 2363.9
1130.57 469.53 2382.9
1134.79 468.72 2378.8
1141.12 468.79 2379.2
1176.53 480.73 2439.8
1195.87 486.02 2466.6
1176.91 475.77 2414.6
1178.10 473.73 2404.3
1200.13 480.05 2436.4
1180.77 469.83 2384.5
1165.14 461.20 2340.7
1200.88 472.88 2400.0
1239.96 485.76 2465.3
1254.87 489.08 2482.2
1273.41 493.77 2506.0
1278.60 493.27 2503.4
1254.10 481.37 2443.0
1230.24 469.84 2384.5
1270.52 482.80 2450.3
1319.43 496.42 2519.4
1300.73 486.97 2471.5
1306.24 486.64 2469.8
1370.96 493.81 2506.2
1090.79 508.13 2613.3
1092.77 505.91 2601.8
1111.18 511.28 2629.4
1110.05 507.65 2610.7
1084.45 492.93 2535.1
1088.47 491.78 2529.1
1113.58 500.11 2572.0
1099.18 490.70 2523.6
1062.82 471.67 2425.7
1047.87 459.59 2363.6
1088.70 474.72 2441.4
1091.99 473.41 2434.7
1057.59 455.86 2344.4
1081.38 463.45 2383.4
1121.27 477.81 2457.3
1117.95 473.71 2436.2
1081.10 455.52 2342.7
1116.97 465.40 2393.5
1150.13 476.57 2450.9
1105.35 455.50 2342.6
1121.68 457.21 2351.3
1166.71 472.99 2432.5
1180.85 476.15 2448.8
1177.01 472.06 2427.7
1181.27 471.25 2423.6
1207.18 479.04 2463.6
1231.08 485.95 2499.2
1210.96 475.51 2445.5
1198.52 468.17 2407.7
1241.47 482.44 2481.1
1260.37 487.26 2505.9
1252.69 481.80 2477.9
1256.95 480.97 2473.6
1248.18 475.20 2443.9
1260.44 477.44 2455.4
1274.09 480.18 2469.5
1263.30 473.74 2436.4
1264.67 471.89 2426.9
1286.10 477.51 2455.8
1294.35 478.21 2459.3
1266.19 465.51 2394.1
1339.55 487.70 2508.2
1091.61 508.05 2648.1
1078.26 498.70 2599.4
1080.62 496.68 2588.9
1097.04 501.12 2612.0
1098.98 498.93 2600.6
1083.92 489.09 2549.3
1084.89 486.56 2536.1
1113.83 496.53 2588.1
1126.17 499.02 2601.1
1101.20 485.05 2528.3
1094.08 479.07 2497.1
1095.17 476.72 2484.8
1067.05 461.77 2406.9
1074.70 462.37 2410.0
1108.55 474.18 2471.6
1102.57 468.91 2444.1
1100.94 465.54 2426.6
1116.82 469.57 2447.6
1125.79 470.67 2453.3
1101.35 457.86 2386.5
1109.08 455.96 2376.6
1157.28 473.14 2466.2
1127.23 458.32 2388.9
1136.12 456.92 2381.6
1170.16 468.06 2439.7
1172.33 466.41 2431.1
1161.13 459.49 2395.0
1161.01 456.99 2382.0
1185.54 464.18 2419.5
1208.04 470.50 2452.4
1199.63 464.78 2422.6
1197.23 461.43 2405.2
1236.22 473.99 2470.6
1247.13 475.71 2479.6
1224.72 464.76 2422.5
1214.12 458.39 2389.3
1218.62 457.76 2386.0
1245.61 465.53 2426.5
1274.13 473.80 2469.6
1277.85 472.81 2464.4
1277.45 470.31 2451.4
1298.94 475.85 2480.3
1330.65 485.07 2528.3
1327.52 481.55 2510.0
1314.59 474.54 2473.4
1085.78 501.66 2650.6
1072.17 492.25 2600.9
1072.29 489.23 2585.0
1085.62 492.24 2600.9
1087.95 490.25 2590.4
1077.57 482.59 2549.9
1073.57 477.87 2524.9
1085.33 480.18 2537.1
1098.70 483.17 2552.9
1097.66 479.81 2535.2
1083.15 470.65 2486.8
1085.43 468.85 2477.3
1100.77 472.68 2497.6
1085.85 463.55 2449.3
1061.88 450.68 2381.3
1064.64 449.24 2373.7
1079.51 452.90 2393.0
1098.53 458.24 2421.2
1123.81 466.12 2462.9
1143.09 471.44 2491.0
1152.17 472.52 2496.7
1153.79 470.54 2486.2
1144.95 464.34 2453.5
1142.24 460.68 2434.1
1150.38 461.42 2438.0
1162.76 463.83 2450.8
1184.53 469.95 2483.1
1201.73 474.20 2505.5
1211.75 475.58 2512.8
1206.31 470.91 2488.2
1186.94 460.89 2435.2
1195.54 461.77 2439.9
1216.79 467.50 2470.2
1205.78 460.85 2435.0
1206.04 458.55 2422.9
1247.28 471.77 2492.7
1255.14 472.29 2495.5
