ply
format ascii 1.0
element vertex 2230
property float x
property float y
property float z
end_header
-90.06 620.96 1828.3
-85.20 620.06 1825.7
-80.22 618.20 1820.2
-75.71 619.87 1825.1
-70.98 619.92 1825.3
-65.71 614.84 1810.3
-61.91 623.89 1837.0
-58.95 643.54 1894.8
-53.88 641.66 1889.3
-47.86 626.91 1845.9
-42.87 624.05 1837.4
-37.94 621.19 1829.0
-32.71 612.21 1802.6
-27.72 605.16 1781.8
-22.93 600.68 1768.6
-18.37 601.66 1771.5
-13.85 604.57 1780.1
-9.29 608.44 1791.5
-4.73 619.06 1822.7
0.00 626.45 1844.5
4.81 629.67 1854.0
9.68 633.84 1866.3
14.38 627.72 1848.3
19.01 622.57 1833.1
23.86 625.12 1840.6
28.88 630.57 1856.6
33.45 626.04 1843.3
37.56 615.08 1811.0
42.67 621.16 1828.9
48.03 629.16 1852.5
51.91 618.19 1820.2
55.89 610.11 1796.4
60.67 611.35 1800.0
65.67 614.51 1809.4
70.95 619.60 1824.3
76.34 625.01 1840.3
82.48 635.55 1871.3
88.64 645.12 1899.5
92.11 635.09 1869.9
94.89 621.52 1830.0
99.98 623.70 1836.4
107.10 637.75 1877.8
112.63 641.51 1888.9
115.57 630.83 1857.4
120.25 630.09 1855.2
125.99 634.81 1869.1
132.14 641.13 1887.7
138.45 647.76 1907.2
142.66 644.44 1897.5
147.19 642.72 1892.4
155.63 657.68 1936.5
163.13 667.81 1966.3
165.21 655.82 1931.0
169.68 653.77 1924.9
180.63 676.06 1990.6
191.38 696.42 2050.5
191.86 679.29 2000.1
188.55 650.00 1913.9
196.04 658.50 1938.9
208.35 682.34 2009.1
-649.26 649.26 1926.4
-631.12 636.02 1887.1
-624.57 634.33 1882.1
-614.47 628.98 1866.2
-600.00 619.05 1836.7
-592.42 616.12 1828.0
-593.92 622.65 1847.4
-597.63 631.64 1874.1
-592.31 631.15 1872.6
-583.01 626.37 1858.5
-577.73 625.87 1857.0
-572.73 625.67 1856.4
-571.63 629.77 1868.5
-571.86 635.40 1885.2
-568.43 637.04 1890.1
-564.44 638.07 1893.2
-556.66 634.78 1883.4
-540.62 621.95 1845.4
-536.71 622.96 1848.3
-547.77 641.53 1903.4
-545.26 644.40 1911.9
-528.48 630.29 1870.1
-519.59 625.43 1855.7
-518.65 630.14 1869.6
-509.07 624.33 1852.4
-505.57 625.94 1857.2
-509.22 636.53 1888.6
-505.85 638.45 1894.3
-499.28 636.34 1888.0
-497.32 640.12 1899.2
-491.25 638.62 1894.8
-473.61 621.92 1845.2
-470.03 623.51 1850.0
-477.78 640.32 1899.9
-477.93 647.20 1920.3
-473.90 648.49 1924.1
-463.99 641.68 1903.9
-458.18 640.47 1900.3
-458.57 647.97 1922.6
-451.86 645.51 1915.3
-444.97 642.73 1907.0
-441.32 644.62 1912.6
-435.52 643.39 1909.0
-435.60 650.90 1931.2
-425.43 643.10 1908.1
-404.95 619.34 1837.6
-403.00 631.21 1872.8
-409.79 649.67 1927.6
-408.89 656.24 1947.1
-405.38 658.74 1954.5
-393.83 648.07 1922.9
-377.17 628.61 1865.1
-377.89 637.99 1892.9
-383.43 655.86 1946.0
-373.65 647.67 1921.7
-355.06 623.75 1850.7
-346.98 626.49 1858.8
-346.43 634.30 1882.0
-342.71 636.45 1888.4
-341.29 643.01 1907.8
-339.94 649.88 1928.2
-338.48 656.76 1948.6
-332.76 655.44 1944.7
-329.74 659.48 1956.7
-333.49 677.40 2009.9
-321.95 675.06 2002.9
-311.24 663.30 1968.0
-305.08 661.01 1961.2
-295.94 652.08 1934.7
-285.67 640.29 1899.8
-282.78 644.93 1913.5
-279.41 648.63 1924.5
-273.44 646.31 1917.6
-267.90 644.94 1913.5
-261.47 641.34 1902.9
-253.45 633.62 1880.0
-248.65 633.81 1880.5
-249.33 648.27 1923.4
-252.07 668.75 1984.2
-244.90 677.39 2009.8
-237.17 670.27 1988.7
-231.75 669.50 1986.4
-223.44 660.15 1958.7
-218.42 660.33 1959.2
-214.11 662.72 1966.3
-208.36 660.66 1960.2
-202.45 657.96 1952.2
-199.91 666.38 1977.2
-197.53 675.75 2005.0
-187.03 657.14 1949.8
-181.49 655.37 1944.5
-182.31 677.15 2009.1
-173.89 664.88 1972.7
-160.81 633.50 1879.6
-152.83 620.88 1842.2
-148.09 621.00 1842.5
-142.31 616.66 1829.6
-138.51 620.91 1842.3
-137.19 636.94 1889.8
-133.30 641.83 1904.3
-127.56 637.79 1892.3
-123.84 643.94 1910.6
-120.14 650.73 1930.7
-110.41 624.04 1851.5
-102.01 602.76 1788.4
-100.32 621.02 1842.6
-97.07 630.98 1872.1
-91.25 624.36 1852.5
-85.80 619.64 1838.5
-79.79 610.13 1810.3
-74.32 603.81 1791.5
-70.71 612.80 1818.2
-66.34 616.05 1827.8
-61.00 610.03 1810.0
-56.76 614.87 1824.3
-53.30 629.92 1869.0
-48.63 632.19 1875.7
-42.80 618.18 1834.2
-37.20 604.48 1793.5
-32.74 608.02 1804.0
-28.33 613.79 1821.1
-23.63 614.45 1823.1
-19.07 619.90 1839.3
-14.17 613.84 1821.3
-9.36 608.10 1804.3
-4.70 610.98 1812.8
0.00 610.66 1811.9
4.71 612.90 1818.5
9.49 616.72 1829.8
14.30 619.59 1838.3
19.15 622.45 1846.8
24.04 624.99 1854.4
29.08 630.08 1869.5
33.72 626.22 1858.0
37.91 615.97 1827.6
42.62 615.62 1826.6
47.52 617.82 1833.1
51.92 613.63 1820.7
56.40 611.04 1813.0
60.81 608.12 1804.3
65.38 607.11 1801.3
70.16 608.02 1804.0
74.98 609.23 1807.6
80.45 615.24 1825.4
85.93 620.60 1841.3
91.16 623.72 1850.6
95.90 623.33 1849.4
99.80 617.83 1833.1
105.51 623.49 1849.9
112.10 633.61 1879.9
116.25 629.69 1868.3
120.28 625.45 1855.7
125.39 626.95 1860.2
132.44 637.69 1892.0
139.73 648.73 1924.8
142.85 640.34 1899.9
146.13 633.22 1878.8
150.14 629.60 1868.0
152.83 620.88 1842.2
161.21 635.09 1884.3
172.56 659.79 1957.6
178.71 663.79 1969.5
183.51 662.69 1966.2
188.75 663.18 1967.7
190.93 653.18 1938.0
198.48 661.61 1963.0
211.54 687.52 2039.9
-668.96 658.75 1969.7
-653.37 648.35 1938.6
-640.95 640.95 1916.4
-626.52 631.41 1888.0
-609.54 619.14 1851.3
-594.81 608.97 1820.8
-587.26 606.06 1812.1
-592.30 616.18 1842.4
-599.50 628.75 1880.0
-593.31 627.35 1875.8
-582.86 621.39 1858.0
-571.07 613.90 1835.6
-559.38 606.39 1813.1
-566.20 618.98 1850.8
-573.93 632.79 1892.1
-571.04 635.04 1898.8
-567.84 636.97 1904.6
-556.52 629.75 1883.0
-537.53 613.65 1834.8
-533.91 614.95 1838.7
-545.54 634.00 1895.7
-544.61 638.68 1909.7
-528.60 625.60 1870.6
-511.50 610.96 1826.8
-504.40 613.85 1835.4
-512.19 629.26 1881.5
-514.30 637.93 1907.4
-508.92 637.38 1905.8
-497.46 629.14 1881.2
-490.22 626.12 1872.1
-489.46 631.41 1887.9
-475.85 620.05 1854.0
-466.39 613.93 1835.7
-468.62 623.22 1863.4
-468.64 629.73 1882.9
-464.69 631.01 1886.7
-460.95 632.58 1891.4
-461.42 640.03 1913.7
-455.60 638.83 1910.1
-443.02 628.02 1877.8
-435.57 624.32 1866.7
-431.81 625.89 1871.4
-429.50 629.62 1882.6
-432.37 641.10 1916.9
-429.27 643.90 1925.3
-415.89 631.18 1887.3
-408.17 626.83 1874.2
-413.30 642.36 1920.7
-418.40 658.22 1968.1
-416.23 662.88 1982.0
-405.11 653.24 1953.2
-385.55 629.56 1882.4
-371.29 622.03 1859.9
-382.25 648.81 1940.0
-378.65 651.28 1947.4
-364.10 634.72 1897.8
-358.27 633.12 1893.0
-360.84 646.50 1933.1
-360.79 655.52 1960.0
-349.24 643.60 1924.4
-340.88 637.30 1905.5
-337.56 640.37 1914.7
-334.52 644.07 1925.8
-333.66 652.15 1949.9
-335.20 665.24 1989.1
-334.99 675.21 2018.9
-329.26 674.21 2015.9
-322.80 671.63 2008.2
-314.89 665.92 1991.1
-306.48 658.94 1970.2
-295.02 645.04 1928.7
-287.16 638.67 1909.7
-286.46 648.32 1938.5
-284.26 654.82 1957.9
-279.28 655.03 1958.6
-270.60 646.44 1932.9
-261.15 635.64 1900.6
-257.83 639.61 1912.5
-258.05 652.71 1951.6
-250.38 645.98 1931.5
-244.85 644.60 1927.4
-249.76 671.24 2007.0
-246.47 676.47 2022.7
-234.55 657.75 1966.7
-225.33 645.95 1931.4
-216.08 633.51 1894.2
-210.17 630.52 1885.3
-210.06 645.19 1929.2
-208.72 656.71 1963.6
-203.19 655.30 1959.4
-200.93 664.61 1987.2
-196.75 667.92 1997.1
-184.28 642.48 1921.0
-176.87 633.78 1895.0
-176.11 649.08 1940.8
-170.03 645.11 1928.9
-158.91 621.21 1857.4
-154.99 624.81 1868.2
-154.05 641.06 1916.8
-148.60 638.96 1910.5
-145.16 645.72 1930.7
-139.08 640.76 1915.9
-130.96 625.68 1870.8
-127.34 631.79 1889.1
-125.65 648.35 1938.6
-120.94 650.03 1943.6
-110.21 618.14 1848.3
-101.54 595.42 1780.3
-99.83 613.24 1833.6
-97.10 626.30 1872.7
-91.70 622.57 1861.5
-86.22 617.89 1847.5
-80.18 608.45 1819.3
-75.12 605.65 1810.9
-71.76 617.12 1845.2
-66.84 615.91 1841.6
-60.99 605.18 1809.5
-57.21 615.05 1839.0
-54.15 635.07 1898.9
-48.94 631.31 1887.6
-42.61 610.73 1826.1
-37.13 598.71 1790.2
-32.78 604.13 1806.4
-28.57 614.30 1836.8
-23.96 618.13 1848.2
-19.27 621.32 1857.8
-14.26 613.08 1833.1
-9.46 609.92 1823.7
-4.77 615.32 1839.8
0.00 607.71 1817.1
4.67 602.95 1802.8
9.38 605.16 1809.5
14.11 606.74 1814.2
19.11 616.24 1842.6
24.25 625.74 1871.0
29.03 624.13 1866.2
33.33 614.28 1836.7
37.88 610.76 1826.2
43.07 617.39 1846.0
48.15 621.16 1857.3
52.77 618.90 1850.5
58.04 623.93 1865.6
63.29 628.00 1877.8
67.22 619.40 1852.0
71.32 613.32 1833.8
75.63 609.77 1823.2
80.60 611.62 1828.8
85.42 612.18 1830.5
89.97 610.85 1826.5
95.04 612.99 1832.9
99.31 610.07 1824.1
104.14 610.62 1825.8
109.76 615.61 1840.7
114.63 616.15 1842.3
119.27 615.43 1840.2
125.49 622.61 1861.6
133.74 638.97 1910.5
139.77 643.93 1925.4
141.39 628.95 1880.6
144.40 620.93 1856.6
148.20 616.70 1844.0
158.11 618.05 1848.0
172.78 655.54 1960.1
182.19 671.52 2007.9
187.27 671.06 2006.5
193.16 673.44 2013.6
194.61 660.65 1975.4
201.31 665.87 1991.0
-666.37 651.11 1962.0
-645.00 635.07 1913.7
-625.36 620.52 1869.9
-604.43 604.43 1821.4
-604.31 609.07 1835.4
-606.19 615.81 1855.7
-587.98 602.09 1814.3
-582.21 601.00 1811.0
-587.47 611.36 1842.3
-579.64 608.15 1832.6
-571.57 604.64 1822.0
-561.28 598.70 1804.1
-554.16 596.08 1796.2
-565.49 613.41 1848.4
-571.02 624.71 1882.5
-565.14 623.60 1879.2
-563.90 627.64 1891.3
-554.76 622.89 1877.0
-547.83 620.56 1870.0
-556.88 636.43 1917.8
-558.05 643.52 1939.2
-546.57 636.01 1916.6
-542.20 636.71 1918.7
-535.50 634.67 1912.5
-521.44 623.78 1879.7
-518.14 625.68 1885.4
-514.56 627.28 1890.2
-505.50 622.16 1874.8
-506.59 629.55 1897.1
-500.99 628.69 1894.5
-494.44 626.61 1888.2
-493.64 631.86 1904.1
-483.54 625.18 1883.9
-476.58 622.48 1875.8
-479.18 632.32 1905.4
-479.56 639.41 1926.8
-476.65 642.22 1935.3
-473.24 644.41 1941.9
-468.90 645.37 1944.7
-458.36 637.72 1921.7
-451.00 634.37 1911.6
-448.65 638.09 1922.8
-443.26 637.49 1921.0
-439.35 639.05 1925.7
-436.25 641.84 1934.1
-427.10 635.69 1915.6
-420.91 633.85 1910.0
-420.21 640.33 1929.6
-415.01 640.02 1928.6
-410.21 640.33 1929.6
-409.50 647.12 1950.0
-399.81 639.69 1927.7
-394.04 638.45 1923.9
-391.87 643.07 1937.8
-381.06 633.46 1908.9
-379.96 639.93 1928.4
-384.93 656.94 1979.6
-379.24 655.99 1976.8
-365.44 640.77 1930.9
-360.06 640.11 1928.9
-364.51 657.14 1980.2
-357.65 653.99 1970.7
-345.99 641.84 1934.1
-339.63 639.30 1926.5
-333.96 638.00 1922.6
-330.22 640.43 1929.9
-321.24 632.59 1906.3
-311.75 623.50 1878.8
-316.49 643.03 1937.7
-320.18 661.02 1991.9
-311.57 653.78 1970.1
-302.33 644.98 1943.6
-291.65 632.74 1906.7
-284.55 627.97 1892.3
-285.99 642.22 1935.3
-285.43 652.42 1966.0
-280.30 652.32 1965.7
-271.34 643.17 1938.1
-259.80 627.45 1890.7
-254.73 627.02 1889.4
-255.38 640.96 1931.5
-248.13 635.21 1914.1
-240.37 627.90 1892.1
-243.51 649.35 1956.7
-242.87 661.42 1993.1
-234.05 651.28 1962.6
-223.63 636.11 1916.9
-213.23 620.31 1869.3
-209.60 623.92 1880.1
-211.87 645.70 1945.7
-209.89 655.26 1974.6
-203.84 652.28 1965.6
-202.99 666.23 2007.6
-200.16 674.23 2031.7
-187.05 647.09 1949.9
-179.48 638.13 1922.9
-176.07 643.92 1940.4
-167.66 631.18 1902.0
-161.63 626.92 1889.1
-162.33 649.33 1956.7
-162.31 670.18 2019.5
-157.54 672.19 2025.6
-149.47 659.74 1988.1
-139.05 635.66 1915.5
-130.46 618.48 1863.7
-126.48 622.67 1876.3
-122.68 628.11 1892.7
-115.96 618.45 1863.6
-110.58 615.40 1854.4
-106.81 621.46 1872.7
-101.09 616.19 1856.8
-94.77 606.51 1827.7
-89.48 602.81 1816.5
-84.20 598.79 1804.4
-80.41 605.46 1824.5
-77.34 618.74 1864.5
-73.18 624.46 1881.7
-67.58 617.90 1862.0
-61.96 610.08 1838.4
-58.44 623.35 1878.4
-54.38 632.84 1907.0
-48.31 618.40 1863.5
-42.84 609.30 1836.1
-38.00 608.07 1832.4
-33.15 606.21 1826.8
-28.52 608.44 1833.5
-23.88 611.29 1842.1
-19.16 613.20 1847.8
-14.22 606.92 1828.9
-9.46 605.66 1825.1
-4.78 612.28 1845.1
0.00 605.67 1825.1
4.67 597.80 1801.4
9.33 597.16 1799.5
13.88 592.11 1784.3
18.61 595.56 1794.7
23.82 609.72 1837.3
28.76 613.48 1848.7
33.57 613.77 1849.5
38.83 621.30 1872.2
43.13 613.40 1848.4
47.06 602.34 1815.1
51.60 600.41 1809.3
56.73 605.09 1823.4
63.66 626.77 1888.7
69.48 635.22 1914.2
73.11 623.83 1879.8
76.95 615.59 1855.0
81.58 614.27 1851.0
86.06 612.00 1844.2
90.37 608.79 1834.5
95.21 609.34 1836.2
99.60 607.07 1829.3
104.65 608.87 1834.8
110.52 615.08 1853.5
115.55 616.25 1857.0
120.34 616.16 1856.7
126.61 623.30 1878.2
132.18 626.65 1888.4
135.27 618.38 1863.4
141.29 623.61 1879.2
149.23 636.70 1918.6
153.56 634.07 1910.7
156.45 625.78 1885.7
161.22 625.35 1884.4
172.41 649.07 1955.9
183.71 671.85 2024.5
190.86 678.61 2044.9
198.29 685.98 2067.1
201.37 678.30 2044.0
205.29 673.76 2030.3
-653.02 633.08 1922.7
-647.58 632.64 1921.4
-641.55 631.60 1918.2
-617.18 612.36 1859.8
-614.28 614.28 1865.7
-619.06 623.97 1895.1
-603.69 613.35 1862.8
-597.23 611.68 1857.7
-601.23 620.78 1885.4
-592.43 616.71 1873.0
-582.83 611.73 1857.9
-576.98 610.64 1854.6
-573.96 612.55 1860.4
-575.66 619.56 1881.7
-571.43 620.27 1883.8
-562.25 615.56 1869.5
-558.03 616.26 1871.7
-564.35 628.70 1909.4
-572.35 643.27 1953.7
-566.59 642.47 1951.3
-553.18 632.92 1922.2
-540.95 624.56 1896.9
-535.59 624.04 1895.3
-533.32 627.14 1904.7
-523.10 620.87 1885.7
-524.08 627.90 1907.0
-525.20 635.24 1929.3
-514.31 628.05 1907.5
-513.35 632.96 1922.4
-509.39 634.24 1926.3
-504.69 634.61 1927.4
-503.33 639.23 1941.4
-492.18 631.39 1917.6
-484.20 627.49 1905.8
-485.57 635.75 1930.8
-482.21 637.93 1937.5
-475.63 635.84 1931.1
-469.75 634.66 1927.5
-462.55 631.65 1918.4
-457.60 631.68 1918.5
-455.70 635.98 1931.6
-452.45 638.45 1939.1
-445.51 635.73 1930.8
-439.88 634.83 1928.1
-434.48 634.24 1926.3
-427.83 631.80 1918.9
-424.09 633.65 1924.5
-421.54 637.33 1935.6
-414.12 633.65 1924.5
-402.60 623.53 1893.7
-395.14 619.54 1881.6
-395.08 627.19 1904.9
-398.73 640.99 1946.8
-397.44 647.12 1965.4
-387.12 638.50 1939.2
-382.64 639.40 1941.9
-384.31 650.76 1976.4
-373.61 641.20 1947.4
-354.57 616.85 1873.4
-350.38 618.04 1877.0
-356.34 637.40 1935.8
-355.71 645.37 1960.1
-350.11 644.40 1957.1
-344.01 642.50 1951.3
-338.76 642.14 1950.2
-335.60 645.78 1961.3
-327.64 640.17 1944.3
-314.32 623.73 1894.3
-315.81 636.63 1933.5
-320.12 655.73 1991.5
-312.25 650.09 1974.4
-309.14 654.35 1987.3
-304.38 655.20 1989.9
-289.15 633.13 1922.9
-282.87 630.25 1914.2
-281.28 637.90 1937.4
-274.87 634.70 1927.7
-270.49 636.15 1932.1
-263.49 631.39 1917.6
-257.21 628.18 1907.8
-256.57 638.92 1940.5
-252.84 642.22 1950.5
-248.58 644.27 1956.7
-245.10 648.49 1969.6
-238.22 643.71 1955.0
-232.66 642.33 1950.8
-225.46 636.29 1932.5
-218.57 630.86 1916.0
-218.29 644.71 1958.1
-216.56 654.83 1988.8
-210.35 651.57 1978.9
-205.27 651.73 1979.4
-205.73 669.94 2034.7
-195.90 672.43 2042.2
-184.56 651.08 1977.4
-178.35 647.17 1965.5
-173.29 647.30 1965.9
-170.34 655.54 1990.9
-164.26 651.92 1980.0
-157.79 646.44 1963.3
-154.42 653.73 1985.4
-147.74 646.98 1965.0
-140.46 637.11 1935.0
-134.81 634.09 1925.8
-127.60 623.27 1893.0
-120.87 614.00 1864.8
-115.64 611.91 1858.4
-111.63 616.37 1872.0
-108.57 626.76 1903.5
-103.39 625.28 1899.0
-96.56 613.17 1862.3
-90.86 607.31 1844.5
-84.84 598.63 1818.1
-80.43 600.88 1824.9
-76.89 610.31 1853.6
-72.31 612.25 1859.5
-67.60 613.24 1862.5
-62.75 612.97 1861.7
-57.98 613.65 1863.7
-52.91 610.88 1855.3
-47.66 605.29 1838.3
-42.81 604.07 1834.6
-38.43 610.04 1852.8
-33.90 615.07 1868.1
-28.94 612.60 1860.5
-24.09 611.99 1858.7
-19.27 611.70 1857.8
-14.24 602.95 1831.2
-9.34 593.27 1801.8
-4.65 591.08 1795.2
0.00 599.53 1820.8
4.77 606.09 1840.8
9.59 608.90 1849.3
14.35 607.33 1844.5
18.79 596.68 1812.2
23.52 597.29 1814.1
28.91 611.97 1858.6
34.40 624.14 1895.6
39.08 620.36 1884.1
42.61 601.26 1826.1
47.66 605.29 1838.3
53.45 617.13 1874.3
56.59 598.95 1819.1
61.08 596.72 1812.3
67.43 611.67 1857.7
71.72 607.25 1844.3
76.61 608.13 1847.0
82.52 616.50 1872.4
87.72 618.94 1879.8
92.73 619.80 1882.4
96.46 612.55 1860.4
99.62 602.48 1829.8
106.35 613.95 1864.6
114.00 629.48 1911.8
118.65 627.83 1906.8
122.89 624.30 1896.1
129.52 632.63 1921.4
135.67 638.15 1938.1
137.64 624.32 1896.1
142.32 623.27 1893.0
149.93 634.70 1927.7
154.06 631.16 1916.9
158.06 627.29 1905.2
164.26 632.16 1919.9
173.04 646.37 1963.1
181.53 658.70 2000.5
187.30 660.74 2006.7
193.27 663.39 2014.8
203.02 678.50 2060.7
-657.16 632.08 1934.9
-647.73 627.80 1921.8
-650.17 635.05 1944.0
-634.16 624.25 1911.0
-615.91 611.06 1870.6
-606.45 606.45 1856.5
-604.41 609.24 1865.0
-610.51 620.35 1899.0
-603.10 617.81 1891.3
-582.48 601.58 1841.6
-577.52 601.39 1841.0
-575.97 604.77 1851.3
-573.24 606.96 1858.1
-575.50 614.52 1881.2
-582.64 627.46 1920.8
-585.18 635.63 1945.8
-572.88 627.68 1921.5
-570.70 630.77 1930.9
-568.47 633.87 1940.4
-551.56 620.50 1899.5
-538.80 611.61 1872.3
-527.47 604.20 1849.6
-524.56 606.37 1856.2
-525.47 613.05 1876.7
-515.57 607.12 1858.5
-517.38 614.99 1882.6
-527.08 632.50 1936.2
-523.61 634.38 1942.0
-513.23 627.83 1921.9
-500.74 618.56 1893.6
-494.67 617.11 1889.1
-493.16 621.39 1902.2
-489.22 622.65 1906.1
-487.84 627.22 1920.1
-486.62 632.11 1935.0
-481.18 631.55 1933.3
-471.19 624.94 1913.1
-461.97 619.23 1895.6
-458.42 621.08 1901.3
-456.83 625.65 1915.3
-454.07 628.71 1924.6
-450.18 630.25 1929.3
-443.48 627.85 1922.0
-437.87 626.96 1919.3
-433.54 627.88 1922.1
-427.73 626.68 1918.4
-423.18 627.30 1920.3
-419.82 629.73 1927.8
-415.43 630.65 1930.6
-407.05 625.47 1914.7
-401.11 623.94 1910.0
-402.34 633.68 1939.8
-398.83 636.11 1947.3
-390.00 630.00 1928.6
-385.17 630.28 1929.4
-386.23 640.33 1960.2
-378.05 635.12 1944.2
-357.74 609.13 1864.7
-352.53 608.47 1862.7
-362.00 633.50 1939.3
-363.84 645.70 1976.6
-359.38 646.88 1980.2
-351.20 641.33 1963.3
-342.78 635.16 1944.4
-338.37 636.33 1948.0
-336.34 642.10 1965.6
-333.11 645.72 1976.7
-324.22 638.30 1954.0
-319.27 638.54 1954.7
-317.49 645.22 1975.2
-312.19 644.84 1974.0
-311.42 653.98 2002.0
-302.10 656.29 2009.0
-283.78 627.30 1920.3
-268.09 614.18 1880.1
-267.00 623.00 1907.1
-265.38 630.89 1931.3
-264.77 641.56 1964.0
-264.13 652.54 1997.6
-260.25 655.82 2007.6
-250.68 644.61 1973.3
-242.00 635.24 1944.6
-236.91 635.11 1944.2
-233.28 638.99 1956.1
-229.16 641.63 1964.2
-225.63 646.13 1977.9
-221.09 647.84 1983.2
-215.08 645.23 1975.2
-210.11 645.70 1976.6
-206.01 648.94 1986.6
-199.67 645.08 1974.7
-193.85 642.76 1967.6
-192.24 654.65 2004.0
-188.85 660.98 2023.4
-182.61 657.41 2012.5
-177.52 657.86 2013.8
-172.25 657.68 2013.3
-164.00 645.74 1976.7
-155.55 632.24 1935.4
-150.41 631.73 1933.9
-146.28 635.56 1945.6
-141.60 637.22 1950.7
-135.44 632.06 1934.9
-127.89 619.77 1897.2
-122.62 618.00 1891.8
-118.79 623.67 1909.2
-112.50 616.32 1886.7
-107.57 616.10 1886.0
-104.71 628.27 1923.3
-99.89 629.28 1926.4
-95.37 632.45 1936.1
-90.49 633.46 1939.2
-82.96 614.91 1882.4
-76.67 603.80 1848.4
-71.78 602.93 1845.7
-66.83 601.43 1841.1
-62.83 608.93 1864.1
-58.68 616.11 1886.1
-53.36 611.19 1871.0
-47.84 602.84 1845.4
-42.86 600.08 1837.0
-38.28 602.91 1845.6
-33.77 607.91 1860.9
-28.88 606.38 1856.3
-23.94 603.29 1846.8
-19.04 599.89 1836.4
-14.23 597.73 1829.8
-9.43 594.01 1818.4
-4.65 585.64 1792.8
0.00 587.81 1799.4
4.72 594.95 1821.3
9.48 597.12 1827.9
14.36 603.32 1846.9
19.08 601.13 1840.2
23.14 583.11 1785.0
27.59 579.36 1773.6
33.41 601.39 1841.0
38.56 607.26 1858.9
42.95 601.33 1840.8
49.13 618.99 1894.9
55.39 634.47 1942.2
58.94 618.90 1894.6
61.42 595.27 1822.3
65.51 589.63 1805.0
71.11 597.34 1828.6
77.54 610.63 1869.3
83.34 617.70 1890.9
88.19 617.33 1889.8
92.89 616.02 1885.8
96.24 606.33 1856.1
101.20 607.18 1858.7
109.90 629.43 1926.8
115.16 630.89 1931.3
116.96 614.06 1879.8
124.53 627.61 1921.3
134.73 652.92 1998.7
139.03 648.79 1986.1
139.13 626.07 1916.5
141.08 612.95 1876.4
145.62 611.61 1872.3
153.04 622.02 1904.1
160.69 632.74 1936.9
164.47 627.97 1922.4
170.59 632.17 1935.2
182.70 657.72 2013.4
192.21 672.74 2059.4
197.42 672.28 2058.0
206.06 683.26 2091.6
-657.34 632.05 1950.3
-648.50 628.39 1939.0
-635.80 620.90 1915.9
-620.82 611.04 1885.5
-602.42 597.64 1844.1
-591.28 591.28 1824.5
-589.29 594.04 1833.1
-574.49 583.83 1801.5
-569.34 583.35 1800.0
-580.50 599.69 1850.5
-577.51 601.58 1856.3
-573.93 602.87 1860.3
-575.91 610.07 1882.5
-582.77 622.62 1921.2
-586.42 631.92 1949.9
-575.47 625.51 1930.1
-564.34 618.79 1909.4
-553.03 611.76 1887.7
-549.29 613.04 1891.7
-549.21 618.48 1908.5
-536.75 609.95 1882.1
-533.50 611.81 1887.9
-528.67 611.89 1888.1
-513.38 599.75 1850.6
-510.41 601.90 1857.3
-514.92 613.01 1891.6
-514.80 618.75 1909.3
-507.93 616.42 1902.1
-503.54 617.08 1904.1
-506.14 626.42 1932.9
-501.42 626.78 1934.1
-494.32 624.14 1925.9
-495.24 631.68 1949.2
-495.81 638.94 1971.6
-484.52 630.89 1946.7
-468.56 616.53 1902.4
-462.98 615.66 1899.8
-463.00 622.31 1920.3
-459.15 623.84 1925.0
-453.74 623.27 1923.2
-451.37 626.91 1934.5
-446.38 626.93 1934.5
-439.68 624.54 1927.2
-434.48 624.26 1926.3
-430.12 625.18 1929.1
-427.18 628.20 1938.5
-424.79 632.13 1950.6
-421.35 634.56 1958.1
-418.45 637.88 1968.3
-418.05 645.14 1990.7
-409.79 640.30 1975.8
-397.40 628.80 1940.3
-390.47 625.76 1930.9
-387.51 629.07 1941.1
-386.70 636.02 1962.6
-376.51 627.51 1936.3
-361.78 611.11 1885.7
-362.18 620.17 1913.7
-362.97 630.15 1944.5
-356.18 627.08 1935.0
-349.27 623.69 1924.5
-338.72 613.61 1893.4
-333.78 613.56 1893.3
-333.40 622.02 1919.4
-329.52 624.09 1925.8
-324.33 623.72 1924.6
-323.21 631.27 1947.9
-325.65 646.13 1993.8
-322.56 650.33 2006.7
-315.84 647.21 1997.1
-305.94 637.38 1966.8
-297.64 630.59 1945.8
-293.41 632.34 1951.2
-280.65 615.46 1899.1
-267.62 608.23 1876.8
-269.05 622.79 1921.8
-269.85 636.44 1963.9
-266.75 641.23 1978.7
-264.07 647.24 1997.2
-261.30 653.25 2015.7
-252.55 644.26 1988.0
-242.88 632.51 1951.7
-236.74 629.63 1942.8
-231.77 629.80 1943.4
-226.79 629.97 1943.9
-222.57 632.29 1951.1
-217.46 632.15 1950.6
-212.25 631.70 1949.2
-207.95 634.00 1956.3
-204.60 639.37 1972.9
-199.05 637.99 1968.7
-193.34 635.99 1962.5
-192.11 649.03 2002.7
-191.03 663.30 2046.7
-186.62 666.51 2056.7
-177.90 654.05 2018.2
-169.46 641.89 1980.7
-163.73 639.56 1973.5
-157.65 635.69 1961.5
-151.26 630.27 1944.8
-145.96 629.15 1941.4
-142.06 634.18 1956.9
-136.61 632.44 1951.5
-130.74 628.54 1939.5
-127.14 635.72 1961.6
-121.13 630.89 1946.7
-112.82 613.13 1891.9
-107.60 611.36 1886.5
-104.53 622.22 1920.0
-100.11 625.68 1930.7
-95.82 630.38 1945.2
-91.58 635.99 1962.5
-84.62 622.20 1919.9
-77.99 609.32 1880.2
-72.90 607.53 1874.7
-67.36 601.42 1855.8
-62.91 604.86 1866.4
-58.90 613.54 1893.2
-53.59 608.96 1879.1
-47.71 596.36 1840.2
-42.39 588.69 1816.5
-38.35 599.20 1849.0
-34.21 610.94 1885.2
-28.56 594.93 1835.8
-23.06 576.46 1778.8
-18.83 588.50 1815.9
-14.41 600.53 1853.1
-9.67 604.55 1865.5
-4.83 604.25 1864.5
0.00 595.31 1836.9
4.73 590.68 1822.7
9.49 593.14 1830.3
14.40 599.91 1851.2
19.32 603.60 1862.5
23.65 591.25 1824.4
32.40 578.57 1785.3
38.23 597.35 1843.2
43.52 604.41 1865.0
48.37 604.68 1865.9
53.10 603.41 1861.9
59.14 616.00 1900.8
64.60 621.19 1916.8
68.12 608.20 1876.7
73.01 608.46 1877.5
77.72 607.17 1873.5
81.52 599.40 1849.6
86.75 602.42 1858.9
91.84 604.20 1864.4
97.40 608.75 1878.4
104.79 623.76 1924.7
111.07 631.06 1947.3
113.55 617.13 1904.3
115.04 599.19 1848.9
122.22 611.10 1885.7
134.19 645.16 1990.8
140.13 648.75 2001.8
141.37 631.11 1947.4
144.68 623.62 1924.3
147.65 615.21 1898.3
153.23 617.86 1906.5
161.68 631.57 1948.8
166.22 629.60 1942.8
172.47 634.08 1956.6
184.73 659.75 2035.8
192.00 666.67 2057.2
194.02 655.47 2022.6
206.31 678.65 2094.1
-659.32 628.89 1956.2
-653.80 628.46 1954.9
-643.47 623.36 1939.0
-635.91 620.88 1931.3
-623.32 613.43 1908.1
-601.71 596.90 1856.7
-589.99 589.99 1835.2
-580.70 585.42 1821.0
-580.99 590.51 1836.8
-595.50 610.27 1898.3
-596.09 615.96 1916.0
-583.35 607.86 1890.8
-576.59 605.91 1884.7
-574.86 609.25 1895.1
-570.32 609.65 1896.4
-559.49 603.28 1876.5
-548.21 596.30 1854.8
-547.24 600.51 1868.0
-553.94 613.29 1907.7
-559.11 624.60 1942.9
-551.80 622.03 1934.9
-546.61 621.83 1934.3
-539.61 619.55 1927.2
-521.66 604.54 1880.5
-516.34 604.02 1878.9
-515.54 608.83 1893.8
-509.69 607.71 1890.3
-505.83 608.96 1894.2
-504.88 613.77 1909.2
-504.81 619.77 1927.9
-497.95 617.45 1920.6
-490.40 614.24 1910.6
-491.36 621.73 1933.9
-494.77 632.49 1967.4
-486.49 628.38 1954.6
-467.07 609.65 1896.4
-458.79 605.22 1882.6
-461.76 615.69 1915.2
-460.14 620.19 1929.2
-453.63 618.13 1922.8
-450.18 620.25 1929.4
-444.98 619.98 1928.5
-437.66 616.71 1918.3
-435.01 620.01 1928.6
-433.96 625.71 1946.3
-426.26 621.83 1934.3
-419.22 618.84 1925.0
-417.24 623.34 1939.0
-415.78 628.74 1955.8
-411.30 629.64 1958.6
-399.25 618.83 1924.9
-393.86 618.22 1923.0
-394.16 626.62 1949.2
-386.30 622.09 1935.1
-380.16 620.27 1929.4
-377.33 623.85 1940.6
-369.95 619.91 1928.3
-363.87 618.07 1922.6
-357.98 616.53 1917.8
-352.99 616.49 1917.6
-347.82 616.14 1916.6
-329.89 610.55 1899.2
-331.53 622.87 1937.5
-329.33 628.25 1954.2
-331.09 641.49 1995.4
-328.50 646.58 2011.2
-321.14 642.28 1997.9
-316.97 644.33 2004.2
-308.95 638.51 1986.1
-299.30 629.04 1956.7
-293.48 627.44 1951.7
-285.87 621.90 1934.5
-279.04 617.87 1921.9
-275.22 620.50 1930.1
-274.14 629.50 1958.1
-274.85 643.05 2000.3
-271.66 647.81 2015.1
-261.77 636.47 1979.8
-251.82 624.51 1942.6
-248.18 628.04 1953.6
-243.77 629.74 1958.9
-238.65 629.62 1958.5
-234.87 633.14 1969.4
-226.74 624.79 1943.5
-219.49 618.57 1924.1
-214.77 619.34 1926.5
-209.73 619.20 1926.1
-205.99 623.01 1937.9
-203.57 631.08 1963.0
-199.39 633.97 1972.0
-194.98 636.25 1979.1
-188.07 630.30 1960.6
-181.88 626.47 1948.7
-182.37 646.12 2009.8
-178.45 650.83 2024.5
-170.07 639.07 1987.9
-164.32 636.75 1980.7
-158.30 633.21 1969.7
-151.90 627.84 1952.9
-145.22 620.93 1931.5
-140.23 621.03 1931.8
-137.91 633.35 1970.1
-134.74 642.62 1998.9
-127.92 634.47 1973.6
-118.98 614.70 1912.1
-112.96 608.99 1894.3
-109.90 619.46 1926.9
-104.66 618.01 1922.4
-98.21 608.92 1894.1
-92.38 602.88 1875.3
-86.73 597.44 1858.4
-82.42 601.17 1870.0
-78.09 605.21 1882.6
-73.70 609.24 1895.1
-68.83 609.60 1896.2
-62.47 595.89 1853.6
-56.90 587.98 1829.0
-53.22 599.95 1866.2
-48.68 603.66 1877.8
-42.57 586.56 1824.6
-37.94 588.12 1829.4
-34.24 606.51 1886.6
-28.86 596.44 1855.3
-18.38 569.85 1772.6
-14.32 591.89 1841.1
-9.77 605.68 1884.0
-4.92 609.66 1896.4
0.00 605.07 1882.1
4.90 607.82 1890.7
9.97 617.92 1922.1
14.88 615.15 1913.5
19.65 609.02 1894.4
24.73 613.29 1907.7
29.54 610.51 1899.1
33.67 596.41 1855.2
38.38 594.85 1850.4
43.73 602.47 1874.1
48.66 603.36 1876.8
53.41 602.09 1872.9
59.48 614.59 1911.8
64.59 616.08 1916.4
67.69 599.51 1864.8
74.14 612.91 1906.5
80.62 624.78 1943.4
83.05 605.76 1884.3
86.86 598.36 1861.3
93.83 612.35 1904.8
101.37 628.48 1955.0
104.25 615.57 1914.8
105.46 594.40 1848.9
111.20 599.51 1864.8
116.31 600.96 1869.3
122.87 609.42 1895.7
134.17 639.87 1990.4
138.71 637.02 1981.5
138.37 612.79 1906.1
143.07 611.77 1903.0
147.76 610.74 1899.8
153.19 612.77 1906.1
161.80 626.99 1950.3
167.72 630.22 1960.4
175.53 640.16 1991.3
188.48 667.77 2077.2
196.57 677.08 2106.1
196.62 658.95 2049.7
206.84 674.95 2099.5
-658.24 622.79 1953.0
-636.94 607.32 1904.5
-632.76 608.04 1906.8
-630.06 610.21 1913.6
-625.83 610.93 1915.8
-611.27 601.49 1886.2
-608.26 603.36 1892.1
-607.26 607.26 1904.3
-589.18 594.01 1862.7
-585.60 595.28 1866.7
-592.24 607.05 1903.6
-585.72 605.41 1898.5
-574.75 599.11 1878.7
-569.43 598.63 1877.2
-564.38 598.44 1876.6
-553.05 591.52 1854.9
-547.78 591.03 1853.4
-553.00 601.94 1887.6
-548.72 602.62 1889.7
-542.85 601.53 1886.3
-536.98 600.44 1882.9
-533.47 601.99 1887.8
-545.66 621.44 1948.8
-547.58 629.46 1973.9
-525.82 610.15 1913.4
-507.62 594.64 1864.7
-512.79 606.47 1901.8
-519.01 619.79 1943.6
-503.77 607.48 1905.0
-490.16 596.93 1871.9
-493.02 606.42 1901.7
-495.02 615.03 1928.7
-480.19 602.68 1889.9
-469.49 595.34 1866.9
-481.06 616.36 1932.8
-481.11 622.92 1953.4
-468.85 613.49 1923.8
-467.92 618.86 1940.7
-463.13 619.19 1941.7
-453.96 613.59 1924.1
-447.90 612.13 1919.6
-439.93 608.00 1906.6
-435.22 608.31 1907.6
-435.32 615.46 1930.0
-428.67 613.09 1922.6
-415.26 600.91 1884.4
-416.07 609.24 1910.5
-421.76 625.01 1960.0
-412.31 618.47 1939.4
-399.63 606.85 1903.0
-394.69 606.83 1903.0
-395.87 616.36 1932.8
-391.99 618.14 1938.4
-380.04 607.08 1903.7
-376.75 609.74 1912.1
-376.15 616.88 1934.5
-369.86 614.76 1927.8
-365.02 615.03 1928.7
-360.87 616.49 1933.2
-357.74 619.74 1943.4
-355.91 625.39 1961.2
-344.76 614.57 1927.2
-336.75 609.12 1910.1
-341.40 626.75 1965.4
-336.76 627.60 1968.1
-328.78 622.15 1951.0
-328.21 630.79 1978.1
-323.67 631.93 1981.6
-313.81 622.55 1952.3
-306.77 618.57 1939.8
-305.66 626.61 1965.0
-302.70 631.04 1978.9
-296.11 627.95 1969.2
-287.76 620.95 1947.2
-281.30 617.85 1937.5
-277.58 620.77 1946.6
-275.66 627.89 1969.0
-275.71 639.84 2006.5
-273.26 646.37 2027.0
-263.97 636.63 1996.4
-251.39 618.43 1939.3
-245.60 616.50 1933.3
-242.66 621.81 1949.9
-238.94 625.31 1960.9
-235.27 629.10 1972.8
-227.13 620.82 1946.8
-220.95 617.67 1936.9
-217.36 621.75 1949.8
-212.98 623.73 1955.9
-210.08 630.23 1976.3
-206.87 636.13 1994.8
-201.94 636.89 1997.2
-193.63 626.75 1965.4
-183.03 608.44 1908.0
-173.72 610.52 1914.5
-174.91 632.75 1984.2
-171.42 638.93 2003.6
-166.50 639.97 2006.9
-161.09 639.18 2004.4
-155.41 637.18 1998.1
-149.40 633.65 1987.1
-141.24 620.43 1945.6
-136.21 620.53 1945.9
-133.18 630.03 1975.7
-126.16 620.73 1946.5
-119.42 612.02 1919.2
-115.37 616.97 1934.7
-110.20 616.14 1932.1
-103.14 604.08 1894.3
-97.35 598.70 1877.4
-92.07 596.04 1869.1
-86.97 594.28 1863.6
-82.98 600.42 1882.8
-78.19 601.09 1884.9
-73.27 600.84 1884.2
-67.46 592.69 1858.6
-60.30 570.57 1789.3
-56.14 575.48 1804.6
-53.64 599.81 1880.9
-48.84 600.76 1883.9
-42.52 581.06 1822.1
-37.14 571.06 1790.8
-32.88 577.77 1811.8
-28.79 590.25 1851.0
-23.80 585.41 1835.8
-18.72 575.70 1805.3
-14.29 586.04 1837.8
-9.77 600.94 1884.5
-4.93 606.41 1901.6
0.00 602.47 1889.3
4.93 606.11 1900.7
9.91 609.75 1912.1
14.63 600.02 1881.6
19.28 592.71 1858.7
24.22 595.74 1868.2
29.76 609.99 1912.9
34.85 612.40 1920.4
39.47 606.90 1903.2
44.63 609.91 1912.6
49.19 605.02 1897.3
53.48 597.99 1875.2
58.54 600.08 1881.8
62.45 590.92 1853.1
66.53 584.50 1832.9
74.24 608.73 1908.9
81.78 628.71 1971.6
85.38 617.72 1937.1
88.88 607.33 1904.5
95.54 618.49 1939.5
102.28 629.04 1972.6
104.22 610.46 1914.3
104.62 584.89 1834.2
109.53 585.72 1836.8
116.05 594.74 1865.0
124.25 611.33 1917.1
132.98 629.12 1972.9
134.75 613.86 1925.0
136.68 600.42 1882.9
144.18 611.53 1917.7
150.09 615.36 1929.7
156.89 622.52 1952.1
166.26 639.06 2004.0
173.21 645.59 2024.5
177.33 641.53 2011.8
186.30 654.71 2053.1
196.45 671.21 2104.9
198.68 660.48 2071.2
204.75 662.75 2078.3
-655.61 620.03 1960.3
-644.95 614.72 1943.5
-627.19 602.50 1904.9
-608.42 589.10 1862.5
-606.96 592.40 1872.9
-615.71 605.78 1915.2
-612.62 607.64 1921.1
-592.18 592.18 1872.2
-576.55 581.32 1837.9
-571.89 581.42 1838.2
-572.02 586.44 1854.1
-567.87 587.12 1856.2
-566.76 590.98 1868.5
-566.70 596.01 1884.3
-559.17 593.21 1875.5
-558.20 597.37 1888.6
-561.46 606.17 1916.5
-555.51 605.11 1913.1
-555.13 610.14 1929.0
-555.20 615.77 1946.8
-537.49 601.59 1902.0
-537.27 606.92 1918.8
-546.69 623.32 1970.7
-532.27 612.62 1936.8
-518.53 602.48 1904.8
-527.59 618.90 1956.7
-521.84 618.10 1954.2
-495.32 592.44 1873.1
-487.84 589.28 1863.1
-496.97 606.30 1916.9
-501.32 617.78 1953.2
-488.53 608.17 1922.8
-478.22 601.47 1901.6
-489.72 622.35 1967.6
-490.83 630.33 1992.8
-479.82 622.74 1968.9
-472.28 619.55 1958.8
-461.91 612.53 1936.6
-453.62 608.15 1922.7
-448.65 608.18 1922.8
-442.61 606.73 1918.2
-439.78 609.69 1927.6
-437.95 614.13 1941.6
-429.60 609.43 1926.8
-419.47 602.06 1903.5
-422.87 614.17 1941.7
-423.67 622.74 1968.8
-409.43 609.15 1925.9
-402.08 605.60 1914.7
-402.54 613.87 1940.8
-398.08 614.75 1943.6
-388.30 607.34 1920.1
-380.13 602.28 1904.2
-380.35 610.56 1930.3
-375.51 610.83 1931.2
-365.09 601.90 1903.0
-362.97 606.61 1917.9
-362.01 613.41 1939.3
-355.23 610.40 1929.8
-350.20 610.36 1929.7
-350.05 618.93 1956.8
-351.92 631.38 1996.2
-348.84 635.20 2008.2
-336.85 622.65 1968.6
-323.78 607.71 1921.3
-317.98 606.16 1916.4
-313.44 606.98 1919.0
-303.13 596.48 1885.8
-300.88 601.77 1902.5
-304.13 618.39 1955.1
-297.58 615.33 1945.4
-287.53 604.80 1912.1
-284.20 608.29 1923.2
-282.33 615.07 1944.6
-279.13 619.16 1957.5
-277.58 627.13 1982.7
-275.39 633.91 2004.2
-270.92 635.61 2009.5
-265.16 634.31 2005.4
-256.12 624.92 1975.8
-250.11 622.72 1968.8
-246.96 627.69 1984.5
-239.58 621.88 1966.1
-231.83 614.86 1943.9
-229.51 622.22 1967.2
-228.90 634.68 2006.6
-222.17 630.35 1992.9
-214.79 623.91 1972.6
-214.06 636.97 2013.8
-213.22 650.33 2056.1
-204.58 639.98 2023.4
-192.56 618.21 1954.5
-187.99 619.85 1959.7
-185.34 628.10 1985.8
-181.53 632.74 2000.5
-180.31 647.00 2045.6
-173.99 643.22 2033.6
-166.62 635.23 2008.4
-162.36 638.96 2020.1
-157.67 641.19 2027.2
-151.37 636.79 2013.3
-143.07 623.36 1970.8
-136.18 615.34 1945.5
-131.42 616.65 1949.6
-126.26 616.14 1948.0
-120.99 615.03 1944.5
-114.32 606.38 1917.1
-106.87 592.62 1873.6
-104.04 604.44 1911.0
-101.96 621.98 1966.5
-95.19 611.21 1932.4
-88.68 601.04 1900.2
-84.35 605.32 1913.8
-79.16 603.57 1908.3
-73.85 600.62 1898.9
-67.65 589.52 1863.8
-60.64 569.07 1799.2
-56.63 575.75 1820.3
-53.74 595.99 1884.3
-48.68 593.91 1877.7
-42.97 582.49 1841.6
-38.00 579.51 1832.2
-32.99 575.01 1817.9
-28.35 576.54 1822.8
-23.78 580.18 1834.3
-19.00 579.59 1832.4
-14.35 583.52 1844.9
-9.70 591.98 1871.6
-4.98 607.06 1919.3
0.00 613.09 1938.4
4.94 602.54 1905.0
9.70 591.98 1871.6
14.50 589.55 1863.9
19.33 589.54 1863.9
23.85 581.99 1840.0
28.80 585.59 1851.4
33.87 590.39 1866.6
38.49 587.04 1856.0
43.62 591.23 1869.2
48.14 587.28 1856.7
52.84 586.04 1852.8
58.41 593.83 1877.5
63.34 594.39 1879.2
68.69 598.56 1892.4
74.85 608.75 1924.6
80.62 614.72 1943.5
85.23 611.65 1933.8
89.88 609.17 1926.0
94.34 605.79 1915.3
98.71 602.10 1903.6
105.24 611.37 1932.9
111.05 615.80 1946.9
114.38 606.69 1918.1
119.15 605.70 1915.0
123.30 601.69 1902.3
127.44 597.99 1890.6
134.65 608.42 1923.6
142.72 621.86 1966.1
151.37 636.79 2013.3
158.33 643.89 2035.7
163.74 644.38 2037.3
171.35 653.27 2065.4
176.67 653.14 2065.0
179.06 642.49 2031.3
183.68 640.26 2024.2
188.71 639.52 2021.9
197.83 652.29 2062.3
-656.66 615.93 1963.4
-650.82 615.23 1961.2
-637.21 607.10 1935.3
-618.95 594.38 1894.7
-617.71 597.95 1906.1
-614.96 600.08 1912.9
-600.81 591.05 1884.1
-586.52 581.71 1854.3
-576.66 576.66 1838.2
-574.84 579.63 1847.7
-577.77 587.49 1872.7
-581.71 596.50 1901.5
-588.00 608.11 1938.5
-576.47 601.31 1916.8
-556.27 585.30 1865.8
-560.48 594.90 1896.4
-569.38 609.69 1943.5
-562.03 607.20 1935.6
-560.28 610.76 1946.9
-562.41 618.65 1972.1
-546.97 607.19 1935.5
-534.03 598.31 1907.2
-530.95 600.41 1914.0
-524.78 599.04 1909.6
-519.14 598.25 1907.0
-517.99 602.66 1921.1
-502.70 590.55 1882.5
-487.22 583.69 1860.7
-493.00 596.53 1901.6
-493.82 603.55 1924.0
-499.24 616.41 1964.9
-479.93 617.78 1969.3
-469.48 610.82 1947.1
-460.90 606.19 1932.4
-454.38 604.18 1925.9
-454.62 611.22 1948.4
-453.46 616.50 1965.2
-451.58 620.92 1979.3
-450.67 626.79 1998.0
-439.27 618.04 1970.1
-425.73 606.04 1931.9
-420.32 605.46 1930.1
-413.31 602.54 1920.7
-406.54 599.89 1912.3
-406.69 607.52 1936.6
-404.96 612.51 1952.5
-398.17 609.85 1944.0
-394.83 612.49 1952.4
-392.75 617.18 1967.4
-385.98 614.52 1958.9
-374.32 603.90 1925.1
-369.31 603.87 1925.0
-373.01 618.28 1970.9
-368.23 618.84 1972.7
-358.08 610.25 1945.3
-352.33 609.03 1941.4
-351.31 616.07 1963.9
-345.37 614.55 1959.0
-334.38 603.87 1925.0
-332.58 609.73 1943.6
-329.25 612.92 1953.8
-316.34 598.08 1906.5
-305.43 605.85 1931.3
-305.38 615.84 1963.1
-295.34 605.69 1930.8
-288.87 602.65 1921.1
-288.88 613.23 1954.8
-284.73 615.22 1961.1
-279.06 613.94 1957.1
-277.12 620.96 1979.5
-274.81 627.40 2000.0
-265.75 618.39 1971.3
-255.22 605.52 1930.2
-254.22 615.21 1961.1
-256.55 633.52 2019.5
-254.10 640.54 2041.9
-247.26 636.56 2029.2
-238.90 628.41 2003.2
-235.98 634.53 2022.7
-232.97 640.65 2042.2
-223.50 628.92 2004.8
-216.29 623.13 1986.3
-216.14 637.87 2033.4
-214.66 649.35 2069.9
-205.22 636.69 2029.6
-193.26 615.39 1961.7
-188.95 617.91 1969.7
-189.03 635.34 2025.3
-187.70 648.90 2068.5
-183.46 652.91 2081.3
-174.28 639.02 2037.0
-165.01 623.93 1988.9
-159.19 621.36 1980.7
-151.79 612.22 1951.6
-143.04 596.81 1902.5
-139.44 602.59 1920.9
-136.95 613.74 1956.4
-130.23 606.07 1932.0
-123.14 596.01 1899.9
-119.36 601.77 1918.3
-114.12 600.37 1913.8
-107.00 588.49 1876.0
-104.53 602.32 1920.0
-101.25 612.56 1952.7
-93.33 594.39 1894.8
-86.79 583.40 1859.7
-82.48 587.05 1871.3
-78.90 596.68 1902.0
-74.98 604.81 1928.0
-68.88 595.29 1897.6
-61.87 575.90 1835.8
-57.98 584.62 1863.6
-55.19 607.10 1935.3
-49.93 604.14 1925.8
-44.00 591.61 1885.9
-38.78 586.55 1869.8
-33.57 580.30 1849.8
-28.66 577.93 1842.3
-23.86 577.35 1840.4
-19.16 579.46 1847.1
-14.53 586.05 1868.2
-9.76 590.55 1882.5
-4.97 601.04 1915.9
0.00 610.62 1946.5
4.99 604.33 1926.4
9.88 597.44 1904.5
14.86 599.52 1911.1
19.77 598.01 1906.3
24.34 589.02 1877.6
28.81 580.92 1851.8
33.17 573.41 1827.9
37.59 568.60 1812.5
42.58 572.46 1824.8
48.42 585.89 1867.7
54.78 602.61 1921.0
59.73 602.27 1919.9
63.83 594.14 1894.0
69.12 597.39 1904.3
75.35 607.80 1937.5
80.40 608.04 1938.3
84.20 599.31 1910.4
89.90 604.33 1926.4
95.49 608.15 1938.6
99.22 600.30 1913.6
105.11 605.61 1930.5
112.16 616.89 1966.5
116.96 615.31 1961.4
121.49 612.53 1952.6
125.49 607.36 1936.1
127.28 592.33 1888.2
132.02 591.64 1886.0
142.14 614.23 1958.0
152.91 638.01 2033.8
157.86 636.70 2029.6
160.87 627.93 2001.7
168.79 638.25 2034.6
174.28 639.02 2037.0
178.35 634.71 2023.3
184.94 639.35 2038.1
193.20 649.35 2070.0
-651.01 605.59 1946.5
-642.50 602.34 1936.1
-634.93 599.94 1928.4
-622.64 592.99 1906.0
-614.88 590.28 1897.3
-605.98 586.43 1885.0
-604.72 589.97 1896.3
-603.10 593.22 1906.8
-600.58 595.61 1914.5
-605.41 605.41 1946.0
-594.84 599.84 1928.1
-584.35 594.25 1910.1
-591.19 606.35 1949.0
-578.79 598.75 1924.6
-565.69 590.28 1897.3
-576.62 606.96 1951.0
-572.20 607.64 1953.1
-550.93 590.28 1897.3
-543.44 587.51 1888.4
-539.68 588.74 1892.4
-537.71 591.97 1902.8
-538.53 598.37 1923.3
-531.82 596.44 1917.1
-522.10 591.06 1899.8
-503.15 575.02 1848.3
-492.67 573.99 1845.0
-492.83 579.80 1863.6
-491.19 583.59 1875.8
-493.82 592.58 1904.7
-492.02 596.39 1917.0
-494.64 605.68 1946.8
-496.17 613.82 1973.0
-490.17 612.72 1969.4
-483.05 610.16 1961.2
-472.10 602.69 1937.2
-470.70 607.36 1952.2
-470.55 613.77 1972.8
-459.10 605.40 1945.9
-453.86 605.14 1945.1
-448.40 604.59 1943.3
-442.32 603.16 1938.7
-445.72 614.79 1976.1
-437.70 610.75 1963.1
-420.68 593.90 1909.0
-411.66 588.09 1890.3
-414.81 599.73 1927.7
-418.96 613.12 1970.7
-410.91 608.75 1956.7
-400.39 600.59 1930.5
-396.53 602.33 1936.1
-395.87 609.03 1957.6
-394.34 614.56 1975.4
-388.10 612.79 1969.7
-383.17 613.07 1970.6
-384.71 623.86 2005.3
-376.92 628.20 2019.2
-364.57 616.18 1980.6
-356.51 611.17 1964.5
-352.24 612.59 1969.0
-343.46 606.10 1948.2
-333.31 596.97 1918.8
-332.17 603.95 1941.3
-332.03 612.98 1970.3
-322.51 604.71 1943.7
-313.59 597.31 1919.9
-312.52 604.87 1944.2
-311.32 612.44 1968.6
-306.33 612.66 1969.3
-300.03 610.24 1961.5
-296.90 614.27 1974.4
-291.60 613.90 1973.2
-282.46 605.28 1945.5
-278.46 607.54 1952.8
-278.12 618.04 1986.6
-276.18 625.31 2009.9
-267.22 616.67 1982.2
-256.53 603.60 1940.1
-256.00 614.40 1974.9
-259.38 635.22 2041.8
-257.94 644.85 2072.7
-249.98 638.25 2051.5
-240.54 627.51 2017.0
-239.37 638.31 2051.7
-238.12 649.41 2087.4
-230.75 643.97 2069.9
-226.07 645.91 2076.1
-222.66 651.68 2094.7
-217.58 652.73 2098.1
-210.17 646.68 2078.6
-200.24 632.34 2032.5
-192.55 624.49 2007.3
-189.43 631.44 2029.6
-184.12 631.28 2029.1
-176.13 621.64 1998.1
-170.50 619.99 1992.8
-164.42 616.56 1981.8
-159.69 618.16 1986.9
-153.24 612.94 1970.2
-143.36 593.20 1906.7
-138.78 594.79 1911.8
-135.98 604.37 1942.6
-128.78 594.39 1910.5
-122.31 587.07 1887.0
-119.15 595.76 1914.9
-114.71 598.51 1923.8
-108.27 590.58 1898.3
-104.40 596.60 1917.6
-99.94 599.64 1927.4
-93.36 589.62 1895.2
-87.96 586.42 1884.9
-82.71 583.81 1876.5
-78.28 587.14 1887.2
-74.33 594.61 1911.3
-68.13 583.98 1877.1
-61.66 569.18 1829.5
-58.20 581.99 1870.7
-55.10 601.04 1931.9
-49.52 594.25 1910.1
-44.04 587.15 1887.3
-39.13 586.89 1886.4
-33.91 581.27 1868.4
-28.96 579.22 1861.8
-24.47 587.26 1887.6
-19.93 597.97 1922.0
-14.90 595.90 1915.4
-9.85 591.16 1900.1
-4.86 583.14 1874.4
0.00 573.93 1844.8
4.88 585.52 1882.0
9.95 596.80 1918.3
14.70 587.88 1889.6
19.20 575.98 1851.4
24.25 581.91 1870.4
29.44 588.72 1892.3
33.87 580.68 1866.5
38.37 575.60 1850.1
42.88 571.71 1837.6
48.21 578.51 1859.5
54.50 594.51 1910.9
59.30 592.98 1906.0
63.88 589.67 1895.4
69.79 598.23 1922.9
74.62 596.99 1918.9
78.05 585.36 1881.5
82.45 582.03 1870.8
88.99 593.25 1906.9
95.99 606.24 1948.6
101.18 607.05 1951.2
104.56 597.49 1920.5
108.76 593.25 1906.9
115.06 600.29 1929.5
121.29 606.43 1949.2
127.25 610.79 1963.2
131.29 605.95 1947.7
132.98 591.03 1899.7
139.89 599.53 1927.1
150.23 621.65 1998.1
154.57 618.28 1987.3
157.55 609.87 1960.3
165.76 621.60 1998.0
174.49 634.50 2039.5
182.25 643.25 2067.6
186.45 639.27 2054.8
191.83 639.43 2055.3
-650.48 604.75 1960.2
-633.56 593.65 1924.2
-620.97 586.47 1900.9
-612.33 582.94 1889.5
-605.80 581.37 1884.4
-606.29 586.57 1901.2
-604.95 590.08 1912.6
-602.70 592.74 1921.3
-606.68 601.62 1950.0
-594.39 594.39 1926.6
-580.81 585.74 1898.5
-582.96 592.92 1921.8
-583.88 598.98 1941.5
-584.70 605.04 1961.1
-580.00 605.44 1962.4
-559.92 589.65 1911.2
-533.93 567.30 1838.8
-522.95 565.74 1833.7
-526.61 574.92 1863.5
-529.59 583.53 1891.4
-525.78 584.75 1895.3
-524.74 589.10 1909.4
-514.82 583.46 1891.2
-499.25 571.25 1851.6
-500.67 578.45 1874.9
-509.09 593.94 1925.1
-514.83 606.59 1966.1
-505.22 601.21 1948.7
-492.36 591.83 1918.3
-489.55 594.46 1926.8
-486.00 596.23 1932.5
-477.32 591.68 1917.8
-467.12 585.12 1896.6
-460.41 582.86 1889.2
-463.40 592.95 1921.9
-468.22 605.63 1963.0
-460.96 602.79 1953.8
-451.56 597.06 1935.3
-442.69 591.91 1918.5
-438.79 593.37 1923.3
-444.14 607.50 1969.1
-441.55 610.98 1980.4
-429.22 600.90 1947.7
-416.23 589.66 1911.3
-415.50 595.72 1930.9
-419.26 608.44 1972.1
-410.21 602.66 1953.4
-405.92 603.81 1957.1
-408.15 614.80 1992.8
-399.18 609.01 1974.0
-389.56 602.05 1951.4
-388.38 608.12 1971.1
-388.37 616.21 1997.3
-380.84 612.43 1985.1
-372.29 606.89 1967.1
-372.62 615.86 1996.2
-368.12 616.99 1999.9
-356.25 605.63 1963.0
-348.28 600.65 1946.9
-338.06 591.60 1917.5
-326.34 579.62 1878.7
-325.15 586.25 1900.2
-324.96 594.92 1928.3
-322.59 599.81 1944.2
-320.60 605.57 1962.8
-316.69 607.84 1970.2
-312.74 610.10 1977.5
-307.29 609.45 1975.4
-300.83 606.75 1966.7
-298.11 611.63 1982.5
-293.07 611.85 1983.2
-285.69 607.09 1967.8
-283.52 613.43 1988.3
-280.71 618.60 2005.1
-276.12 619.96 2009.5
-272.53 623.67 2021.5
-267.24 623.57 2021.2
-261.96 623.47 2020.8
-260.78 633.31 2052.8
-256.71 636.43 2062.8
-246.00 622.85 2018.8
-236.53 611.89 1983.3
-235.66 623.19 2020.0
-237.86 643.29 2085.1
-234.10 647.86 2099.9
-229.75 650.96 2109.9
-226.36 656.99 2129.5
-219.90 654.22 2120.5
-211.28 644.69 2089.6
-203.29 636.62 2063.5
-197.53 635.30 2059.2
-192.15 635.15 2058.7
-184.86 628.53 2037.2
-180.12 630.42 2043.4
-177.47 639.95 2074.3
-171.65 638.32 2069.0
-167.08 641.38 2078.9
-160.61 637.09 2065.0
-150.56 617.80 2002.5
-143.59 610.26 1978.0
-138.55 610.65 1979.3
-133.31 610.17 1977.7
-128.64 612.32 1984.7
-122.44 607.11 1967.8
-115.14 595.72 1930.9
-108.73 588.15 1906.4
-105.05 595.29 1929.5
-101.35 603.02 1954.6
-95.31 596.91 1934.8
-89.14 589.32 1910.2
-83.15 582.02 1886.5
-78.30 582.38 1887.7
-73.94 586.56 1901.2
-68.74 584.25 1893.7
-63.06 577.23 1871.0
-57.41 569.32 1845.3
-52.55 568.47 1842.6
-49.24 585.90 1899.1
-45.50 601.55 1949.8
-39.83 592.45 1920.3
-33.95 577.15 1870.7
-29.68 588.66 1908.0
-20.41 607.27 1968.4
-14.91 591.37 1916.8
-9.82 584.30 1893.9
-4.82 573.69 1859.5
0.00 558.95 1811.7
4.75 565.14 1831.8
9.89 588.72 1908.2
14.92 591.96 1918.7
19.24 572.49 1855.6
23.99 571.00 1850.8
29.32 581.59 1885.1
33.98 577.73 1872.6
38.78 576.82 1869.7
43.65 577.09 1870.5
48.69 579.41 1878.0
54.54 589.98 1912.3
59.58 590.83 1915.0
64.41 589.60 1911.1
70.36 598.10 1938.6
75.09 595.69 1930.8
80.24 596.81 1934.4
86.68 606.76 1966.7
90.88 600.81 1947.4
95.31 596.91 1934.8
100.71 599.20 1942.2
104.32 591.17 1916.2
110.26 596.39 1933.1
118.44 612.79 1986.2
124.46 617.12 2000.3
130.25 619.97 2009.5
135.37 619.58 2008.2
138.35 609.77 1976.5
142.00 603.49 1956.1
148.69 610.15 1977.7
154.68 613.57 1988.8
159.88 613.75 1989.3
169.20 629.21 2039.4
179.34 646.71 2096.2
185.83 650.40 2108.1
188.40 640.57 2076.3
191.79 633.97 2054.9
203.46 654.38 2121.0
-660.29 608.71 1989.7
-645.39 599.65 1960.1
-634.80 594.49 1943.3
-625.47 590.44 1930.0
-618.55 588.62 1924.0
-604.94 580.35 1897.0
-590.30 570.95 1866.3
-586.73 572.18 1870.3
-589.69 579.86 1895.4
-591.96 586.99 1918.7
-591.87 591.87 1934.7
-591.15 596.20 1948.8
-588.14 598.28 1955.6
-576.60 591.64 1933.9
-559.17 578.80 1891.9
-560.29 585.08 1912.5
-556.76 586.59 1917.4
-537.81 571.73 1868.9
-532.25 570.96 1866.3
-525.92 569.34 1861.1
-519.09 567.15 1853.9
-524.35 578.25 1890.2
-532.72 593.03 1938.5
-528.52 593.96 1941.5
-518.31 588.09 1922.3
-511.16 585.60 1914.2
-511.40 591.62 1933.9
-515.19 601.90 1967.5
-503.40 594.02 1941.7
-489.12 582.99 1905.7
-485.64 584.75 1911.4
-489.37 595.32 1946.0
-486.91 598.50 1956.4
-470.88 584.88 1911.8
-458.01 574.94 1879.4
-454.73 576.97 1886.0
-452.97 580.99 1899.1
-451.59 585.58 1914.1
-448.39 587.89 1921.7
-451.61 598.77 1957.2
-453.31 614.83 2009.7
-439.36 602.84 1970.5
-431.37 598.85 1957.5
-422.64 593.70 1940.7
-412.37 586.26 1916.3
-406.00 584.25 1909.8
-401.25 584.53 1910.7
-400.76 591.12 1932.2
-412.08 615.52 2012.0
-399.96 612.93 2003.5
-395.13 613.49 2005.4
-392.48 617.50 2018.5
-382.73 610.30 1994.9
-368.11 595.02 1945.0
-362.69 594.41 1943.0
-362.66 602.73 1970.2
-355.48 599.24 1958.8
-349.70 598.05 1954.9
-341.45 592.52 1936.8
-327.56 576.89 1885.7
-324.25 579.72 1895.0
-324.39 588.90 1925.0
-322.03 593.75 1940.8
-319.59 598.60 1956.7
-314.94 599.40 1959.3
-306.68 593.26 1939.2
-297.21 584.50 1910.6
-297.42 594.84 1944.4
-301.17 612.72 2002.8
-296.78 614.38 2008.3
-289.74 610.53 1995.7
-281.42 603.78 1973.6
-272.42 595.28 1945.8
-272.80 607.36 1985.3
-274.39 622.64 2035.3
-271.95 629.22 2056.8
-269.41 635.80 2078.3
-266.39 641.51 2096.9
-260.44 640.25 2092.8
-249.30 625.90 2045.9
-239.42 614.16 2007.5
-235.83 618.40 2021.4
-235.86 632.53 2067.6
-230.56 632.69 2068.1
-224.53 630.82 2062.0
-220.76 635.35 2076.8
-214.14 631.72 2064.9
-210.19 635.95 2078.8
-206.91 642.50 2100.2
-200.69 640.03 2092.1
-195.40 640.46 2093.5
-189.49 638.85 2088.3
-186.13 645.98 2111.6
-179.63 642.32 2099.6
-170.19 627.58 2051.4
-166.36 633.24 2069.9
-160.43 631.03 2062.7
-152.46 620.34 2027.8
-147.36 621.04 2030.0
-141.59 618.81 2022.7
-135.79 616.28 2014.5
-131.39 620.17 2027.2
-125.62 617.63 2018.9
-120.12 616.26 2014.4
-115.18 617.81 2019.5
-108.66 610.59 1995.9
-102.51 604.82 1977.0
-96.36 598.46 1956.2
-90.10 590.64 1930.7
-84.05 583.40 1907.0
-79.15 583.75 1908.1
-73.92 581.46 1900.7
-67.85 571.87 1869.3
-63.43 575.72 1881.9
-58.82 578.39 1890.6
-53.79 576.97 1886.0
-50.31 593.68 1940.6
-45.93 602.20 1968.4
-39.66 584.97 1912.1
-33.97 572.71 1872.1
-29.88 587.65 1920.9
-25.47 601.13 1964.9
-19.96 588.86 1924.8
-14.73 579.51 1894.3
-9.82 579.52 1894.3
-4.86 573.97 1876.2
0.00 564.31 1844.6
4.78 564.31 1844.6
9.87 582.15 1902.9
15.22 598.53 1956.4
20.11 593.25 1939.2
24.52 578.60 1891.3
29.27 575.66 1881.7
34.34 578.85 1892.1
39.68 585.26 1913.1
45.35 594.59 1943.6
51.20 604.21 1975.0
56.21 603.00 1971.1
60.13 591.26 1932.7
64.14 582.15 1902.9
69.10 582.39 1903.7
74.77 588.19 1922.7
81.09 598.07 1955.0
86.70 601.81 1967.2
89.92 589.47 1926.8
94.25 585.31 1913.3
99.69 588.17 1922.6
105.23 591.31 1932.8
113.12 606.71 1983.2
120.75 619.48 2024.9
126.27 620.85 2029.4
132.69 626.30 2047.2
138.49 628.54 2054.5
141.39 617.93 2019.9
144.87 610.53 1995.7
151.81 617.72 2019.2
158.21 622.27 2034.1
159.85 608.45 1988.9
165.45 610.08 1994.2
175.72 628.33 2053.9
182.10 631.99 2065.8
189.49 638.85 2088.3
198.77 651.54 2129.7
204.07 650.81 2127.3
-656.33 604.65 1993.4
-644.46 598.43 1972.9
-634.47 593.86 1957.8
-627.48 592.06 1951.8
-613.51 583.59 1923.9
-597.36 572.88 1888.6
-592.29 572.71 1888.1
