ply
format ascii 1.0
element vertex 2238
property float x
property float y
property float z
end_header
975.63 848.93 1629.1
979.39 848.52 1628.3
964.73 832.23 1597.0
953.73 819.23 1572.1
964.97 825.35 1583.8
991.51 844.46 1620.5
1014.85 860.69 1651.6
1026.78 867.16 1664.1
1060.44 891.83 1711.4
1129.43 1118.24 2156.6
1129.78 1113.09 2146.7
1099.31 1067.29 2058.3
1095.06 1058.03 2040.5
1080.36 1038.81 2003.4
1049.04 1003.86 1936.0
1036.57 987.21 1903.9
1029.21 975.55 1881.4
1032.71 974.26 1878.9
1036.64 973.37 1877.2
995.05 929.95 1793.5
954.43 887.85 1712.3
960.22 889.09 1714.7
987.02 909.69 1754.4
1014.42 930.66 1794.8
1010.48 922.81 1779.7
991.57 901.42 1738.5
995.60 901.00 1737.6
1009.19 909.18 1753.4
1008.68 904.64 1744.7
977.88 873.11 1683.9
964.31 857.17 1653.1
986.61 873.10 1683.8
949.75 836.79 1613.8
917.61 801.40 1545.6
963.31 837.66 1615.5
1003.20 868.57 1675.1
1024.95 883.58 1704.0
1003.81 861.64 1661.7
985.33 842.17 1624.2
992.88 845.00 1629.6
1015.71 860.77 1660.1
1058.30 893.08 1722.4
1085.40 908.29 1751.7
1104.88 1104.88 2141.6
1101.93 1096.42 2125.2
1107.73 1096.71 2125.7
1107.62 1091.17 2115.0
1118.48 1096.44 2125.2
1102.73 1070.45 2074.8
1059.09 1023.11 1983.0
1042.19 1001.91 1942.0
1059.25 1013.42 1964.3
1062.52 1011.68 1960.9
1041.82 987.24 1913.5
1026.16 967.80 1875.8
994.09 933.14 1808.7
962.63 899.36 1743.2
972.90 904.71 1753.6
990.76 917.03 1777.4
990.44 912.49 1768.6
1011.11 927.24 1797.2
1015.28 926.79 1796.4
987.01 896.87 1738.4
975.22 882.13 1709.8
982.37 884.58 1714.6
967.68 867.43 1681.3
942.80 841.33 1630.7
974.57 865.80 1678.2
1020.35 902.44 1749.2
1014.22 893.05 1731.0
951.47 834.11 1616.7
916.62 800.03 1550.7
956.63 831.31 1611.3
999.23 864.55 1675.7
1036.91 893.27 1731.4
1065.39 913.85 1771.3
1053.82 900.05 1744.5
1034.07 879.40 1704.5
1039.40 880.17 1706.0
1066.22 899.06 1742.6
1108.23 1113.85 2169.8
1075.81 1070.41 2085.2
1092.00 1081.08 2106.0
1100.98 1079.18 2102.3
1088.92 1062.10 2069.0
1074.58 1042.97 2031.8
1075.47 1038.74 2023.5
1060.01 1018.84 1984.8
1029.30 984.55 1917.9
1029.45 979.96 1909.0
1045.19 990.18 1928.9
1040.09 980.66 1910.4
1019.15 956.36 1863.0
982.20 917.34 1787.0
962.57 894.78 1743.1
985.68 911.98 1776.6
1009.37 929.56 1810.8
1017.59 932.79 1817.1
1032.10 941.73 1834.5
1027.36 933.11 1817.7
1006.77 910.23 1773.2
1000.93 900.84 1754.9
988.19 885.35 1724.7
954.36 851.19 1658.2
935.35 830.49 1617.8
972.63 859.74 1674.8
1001.39 881.22 1716.7
979.47 858.12 1671.7
965.24 841.93 1640.1
973.23 845.17 1646.4
996.19 861.33 1677.9
1028.64 885.52 1725.0
1029.77 882.66 1719.5
1023.80 873.76 1702.1
1043.80 887.00 1727.9
1057.24 894.59 1742.7
1047.87 882.89 1719.9
1060.39 889.65 1733.1
1059.09 1059.09 2073.6
1052.32 1047.00 2050.0
1069.65 1058.90 2073.3
1084.14 1067.88 2090.9
1089.45 1067.77 2090.6
1087.98 1061.05 2077.5
1072.46 1040.76 2037.7
1059.31 1022.96 2002.9
1059.70 1018.35 1993.9
1065.64 1019.08 1995.3
1060.37 1009.14 1975.8
1034.66 979.94 1918.7
1021.75 963.08 1885.7
1024.83 961.39 1882.3
1015.20 947.84 1855.8
992.27 922.06 1805.3
986.33 912.24 1786.1
998.03 918.75 1798.8
1007.11 922.79 1806.8
1009.52 920.72 1802.7
1015.05 921.50 1804.2
1004.85 908.05 1777.9
981.90 883.26 1729.4
989.54 886.09 1734.9
988.56 881.21 1725.4
979.79 869.45 1702.3
987.40 872.28 1707.9
987.22 868.23 1699.9
978.25 856.51 1677.0
968.25 844.01 1652.5
965.11 837.57 1639.9
961.92 831.13 1627.3
974.10 837.98 1640.7
985.39 844.01 1652.5
968.97 826.35 1617.9
984.03 835.58 1636.0
1023.33 865.22 1694.0
1028.63 865.99 1695.5
1013.91 849.96 1664.2
1018.67 850.33 1664.9
1046.48 869.86 1703.1
1067.93 1073.40 2112.4
1047.30 1047.30 2061.0
1046.75 1041.44 2049.5
1067.38 1056.60 2079.3
1072.67 1056.50 2079.1
1074.17 1052.69 2071.6
1075.22 1048.47 2063.3
1069.04 1037.29 2041.3
1056.81 1020.37 2008.0
1047.00 1005.94 1979.6
1052.05 1005.86 1979.5
1064.40 1012.73 1993.0
1071.63 1014.68 1996.8
1060.24 999.07 1966.1
1036.54 972.06 1913.0
1027.89 959.36 1888.0
1030.53 957.27 1883.8
1020.83 943.79 1857.3
1009.69 929.10 1828.4
1015.72 930.28 1830.7
1008.84 919.69 1809.9
993.84 901.82 1774.7
989.90 894.10 1759.5
970.14 872.24 1716.5
962.39 861.32 1695.0
980.84 873.84 1719.7
993.48 881.10 1733.9
1001.15 883.90 1739.4
1010.21 887.90 1747.3
1012.41 885.86 1743.3
990.59 862.91 1698.2
965.81 837.60 1648.3
973.81 840.82 1654.7
981.36 843.63 1660.2
976.77 836.01 1645.2
971.65 828.01 1629.5
958.93 813.63 1601.2
975.86 824.43 1622.4
999.51 840.79 1654.6
989.03 828.42 1630.3
980.84 818.06 1609.9
992.20 824.03 1621.6
1033.87 855.01 1682.6
1045.69 1067.59 2111.7
1027.12 1043.17 2063.4
1031.59 1042.28 2061.6
1046.68 1052.08 2081.0
1044.18 1044.18 2065.4
1020.95 1015.74 2009.2
1016.97 1006.65 1991.2
1052.06 1036.12 2049.5
1073.59 1052.01 2080.9
1071.74 1044.94 2066.9
1068.98 1037.07 2051.3
1055.14 1018.57 2014.8
1035.61 994.80 1967.7
1022.71 977.59 1933.7
1026.38 976.31 1931.2
1044.23 988.47 1955.2
1056.99 995.72 1969.5
1040.76 975.71 1930.0
1013.04 945.18 1869.6
997.29 926.06 1831.8
993.23 917.92 1815.7
987.34 908.17 1796.4
978.71 896.00 1772.3
990.39 902.46 1785.1
990.09 897.99 1776.2
963.38 869.72 1720.3
947.20 851.17 1683.6
974.10 871.33 1723.5
1012.46 901.51 1783.2
1022.03 905.89 1791.9
1029.36 908.26 1796.6
1025.74 900.98 1782.2
1022.05 893.72 1767.8
1026.58 893.68 1767.7
1009.41 874.82 1730.4
981.89 847.21 1675.8
986.23 847.20 1675.8
1013.89 867.14 1715.2
1028.60 875.88 1732.5
1004.86 851.94 1685.2
973.85 822.08 1626.1
978.07 822.08 1626.1
990.35 828.83 1639.5
1005.54 837.95 1657.5
1022.24 848.24 1677.8
1045.72 864.05 1709.1
998.62 1041.57 2070.9
986.45 1023.37 2034.7
1005.65 1037.75 2063.3
1028.99 1056.21 2100.0
1040.81 1062.72 2112.9
1044.18 1060.58 2108.7
1045.09 1055.97 2099.5
1033.71 1039.06 2065.9
1032.02 1032.02 2051.9
1030.26 1024.98 2037.9
1009.02 998.72 1985.7
1011.62 996.22 1980.7
1050.46 1029.24 2046.4
1063.63 1036.91 2061.6
1054.16 1022.54 2033.0
1044.15 1007.79 2003.7
1021.29 980.84 1950.1
1010.54 965.74 1920.1
1009.91 960.41 1909.5
1022.96 968.07 1924.7
1047.27 986.26 1960.9
1034.11 969.17 1926.9
991.73 924.98 1839.1
985.13 914.43 1818.1
992.88 917.24 1823.7
975.19 896.62 1782.7
956.88 875.63 1740.9
945.02 860.73 1711.3
951.25 862.35 1714.5
980.22 884.48 1758.5
987.45 886.88 1763.3
973.59 870.40 1730.5
999.70 889.64 1768.8
1024.61 907.65 1804.6
1023.79 902.79 1795.0
1030.67 904.75 1798.8
1027.50 897.90 1785.2
1015.55 883.48 1756.6
1010.39 875.07 1739.8
1006.54 867.86 1725.5
994.75 853.90 1697.7
997.27 852.29 1694.5
1021.72 869.36 1728.5
998.98 846.30 1682.6
969.87 811.01 1612.5
991.15 825.25 1640.8
1013.50 840.25 1670.6
1062.74 877.32 1744.3
1001.08 1038.75 2076.0
1017.14 1049.78 2098.0
1021.72 1048.89 2096.2
1029.89 1051.69 2101.8
1035.26 1051.61 2101.7
1032.13 1042.93 2084.3
1027.69 1033.04 2064.6
1010.91 1010.91 2020.3
1021.84 1016.57 2031.6
1031.98 1021.39 2041.3
1011.54 996.06 1990.6
1013.74 993.15 1984.8
1050.53 1024.00 2046.5
1062.45 1030.42 2059.3
1040.76 1004.34 2007.2
1015.89 975.46 1949.5
1019.62 974.19 1946.9
1038.23 987.09 1972.7
1025.74 970.43 1939.4
1025.12 965.11 1928.8
1029.19 964.24 1927.1
995.18 927.87 1854.4
974.75 904.46 1807.6
989.02 913.30 1825.3
1005.54 924.14 1846.9
997.10 912.04 1822.7
977.97 890.32 1779.3
967.07 876.26 1751.2
974.27 878.66 1756.0
1000.67 898.27 1795.2
1006.63 899.44 1797.6
992.37 882.62 1763.9
989.70 876.20 1751.1
985.62 868.60 1735.9
987.83 866.59 1731.9
996.40 870.16 1739.0
983.03 854.62 1708.0
958.97 829.96 1658.7
972.50 837.91 1674.6
988.87 848.23 1695.2
997.42 851.78 1702.3
1021.37 868.39 1735.5
1003.39 849.36 1697.5
942.11 794.01 1586.8
960.23 798.81 1596.4
983.87 814.96 1628.7
1008.12 831.48 1661.7
1059.76 870.36 1739.4
1015.82 1048.59 2106.5
1022.61 1044.36 2098.1
1025.97 1042.25 2093.8
1026.88 1037.69 2084.6
1001.00 1006.25 2021.5
973.63 973.63 1956.0
965.59 960.59 1929.8
984.12 973.98 1956.7
1009.36 993.83 1996.5
1004.96 984.45 1977.7
985.50 960.49 1929.5
997.98 967.74 1944.1
1031.49 995.21 1999.3
1031.55 990.28 1989.4
1004.92 959.92 1928.4
1005.63 955.84 1920.2
1033.14 977.16 1963.0
1031.74 971.05 1950.8
1006.22 942.41 1893.2
985.20 918.24 1844.7
969.17 898.94 1805.9
966.01 891.70 1791.4
981.12 901.31 1810.7
998.06 912.51 1833.2
994.85 905.27 1818.6
980.55 888.05 1784.0
988.70 891.22 1790.4
1015.56 911.15 1830.4
990.34 884.39 1776.7
942.48 837.76 1683.0
951.81 842.16 1691.8
973.36 857.27 1722.2
959.24 840.98 1689.5
949.53 828.68 1664.8
964.81 838.21 1683.9
959.11 829.50 1666.4
944.13 812.88 1633.0
964.53 826.74 1660.9
984.12 839.78 1687.1
996.37 846.48 1700.5
989.11 836.60 1680.7
971.51 811.00 1629.2
989.44 822.39 1652.1
1021.68 845.53 1698.6
1034.13 852.16 1711.9
1048.06 859.94 1727.6
1081.68 883.75 1775.4
997.80 1052.92 2126.3
986.90 1035.70 2091.5
1000.88 1044.63 2109.6
995.29 1033.15 2086.4
963.92 995.18 2009.7
969.90 995.97 2011.3
991.82 1013.03 2045.8
1003.48 1019.49 2058.8
1019.21 1030.00 2080.0
1012.02 1017.35 2054.5
979.56 979.56 1978.2
966.73 961.69 1942.1
972.15 962.08 1942.9
968.53 953.55 1925.7
971.85 951.91 1922.3
987.58 962.39 1943.5
987.17 957.11 1932.8
980.03 945.38 1909.1
992.92 953.00 1924.5
1008.40 963.02 1944.8
998.58 948.90 1916.3
983.11 929.57 1877.2
993.07 934.36 1886.9
992.35 929.11 1876.3
969.66 903.44 1824.4
975.23 904.22 1826.0
987.32 911.00 1839.7
977.70 897.79 1813.0
985.43 900.56 1818.6
995.82 905.72 1829.1
986.88 893.34 1804.0
963.25 867.83 1752.5
959.36 860.27 1737.3
997.26 890.07 1797.5
986.24 876.15 1769.3
966.13 854.31 1725.2
1001.22 881.25 1779.6
998.11 874.49 1766.0
962.30 839.26 1694.8
934.83 811.61 1639.0
930.43 804.13 1623.9
951.18 818.36 1652.6
964.68 826.25 1668.6
958.85 817.59 1651.1
948.78 805.41 1626.5
969.75 819.57 1655.1
971.71 817.61 1651.1
961.95 805.84 1627.4
1001.88 835.63 1687.5
1026.96 852.82 1722.2
1044.14 863.34 1743.5
1066.15 877.74 1772.5
1067.33 874.93 1766.9
975.43 1035.38 2101.9
980.07 1034.52 2100.2
981.21 1030.00 2091.0
984.25 1027.51 2085.9
977.47 1014.86 2060.2
951.30 982.32 1994.2
946.58 972.16 1973.6
978.28 999.32 2028.7
981.91 997.66 2025.3
977.11 987.50 2004.7
987.90 993.13 2016.1
975.71 975.71 1980.8
970.25 965.17 1959.4
983.05 972.81 1974.9
981.17 965.92 1960.9
970.18 950.18 1928.9
967.72 942.91 1914.2
976.81 946.91 1922.3
983.43 948.49 1925.5
985.46 945.64 1919.7
984.52 940.00 1908.3
986.06 936.76 1901.7
974.44 921.11 1869.9
958.85 901.89 1830.9
985.36 922.26 1872.3
1002.62 933.81 1895.7
978.22 906.64 1840.5
981.24 905.02 1837.3
1001.15 918.93 1865.5
999.85 913.32 1854.1
998.06 907.32 1841.9
997.96 902.92 1833.0
983.29 885.43 1797.5
954.32 855.29 1736.3
948.17 845.79 1717.0
981.59 871.51 1769.2
1000.02 883.74 1794.1
1010.47 888.84 1804.4
1033.58 904.97 1837.2
1020.63 889.54 1805.8
982.15 852.09 1729.8
951.99 822.18 1669.1
935.30 804.11 1632.4
942.78 806.88 1638.0
952.11 811.21 1646.8
942.07 799.08 1622.2
951.40 803.41 1631.0
991.47 833.54 1692.1
1012.18 847.20 1719.9
1023.16 852.63 1730.9
1033.24 857.27 1740.3
1029.67 850.60 1726.8
1038.82 854.44 1734.6
1051.33 861.00 1747.9
1047.69 854.34 1734.4
1062.63 862.82 1751.6
998.34 1084.40 2213.1
954.41 1013.39 2068.1
957.44 1010.93 2063.1
967.02 1015.37 2072.2
974.30 1017.36 2076.2
976.52 1014.08 2069.6
969.70 1001.49 2043.9
961.58 987.71 2015.7
974.29 995.36 2031.3
975.16 990.88 2022.2
951.22 961.40 1962.0
936.25 941.23 1920.9
938.41 938.41 1915.1
954.29 949.27 1937.3
973.52 963.33 1966.0
985.12 969.73 1979.0
982.83 962.46 1964.2
977.60 952.40 1943.7
980.54 950.37 1939.5
978.89 943.93 1926.4
974.26 934.70 1907.5
964.95 921.08 1879.8
952.99 905.10 1847.1
964.10 911.07 1859.3
962.97 905.48 1847.9
956.25 894.71 1825.9
991.75 923.35 1884.4
1009.46 935.24 1908.6
986.36 909.37 1855.9
976.00 895.46 1827.5
981.15 895.83 1828.2
989.35 898.98 1834.6
998.01 902.51 1841.9
1002.31 902.08 1841.0
991.16 887.82 1811.9
979.45 873.19 1782.0
992.49 880.66 1797.3
991.32 875.51 1786.8
973.99 856.20 1747.4
967.27 846.36 1727.3
973.55 847.93 1730.5
992.96 860.87 1756.9
988.40 853.00 1740.8
969.64 833.01 1700.0
963.51 824.00 1681.6
971.55 827.13 1688.0
981.91 832.20 1698.4
985.83 831.80 1697.5
1007.85 846.59 1727.7
1014.15 848.12 1730.9
998.97 831.74 1697.4
1010.85 837.94 1710.1
1022.77 844.12 1722.7
1024.35 841.75 1717.9
1038.70 849.85 1734.4
1074.50 875.35 1786.4
1091.22 881.37 1798.7
1000.12 1093.15 2242.8
984.93 1070.33 2196.0
1002.60 1083.27 2222.5
1006.79 1081.58 2219.0
971.36 1020.20 2093.1
974.43 1017.74 2088.1
969.70 1007.21 2066.5
960.58 992.25 2035.8
960.34 986.58 2024.1
958.86 979.71 2010.0
957.32 972.84 1996.0
944.58 954.73 1958.8
929.67 934.64 1917.6
925.01 925.01 1897.8
927.12 922.21 1892.1
942.96 933.04 1914.3
955.24 940.24 1929.1
957.78 937.82 1924.1
965.21 940.20 1929.0
969.36 939.38 1927.3
963.16 928.59 1905.2
952.29 913.42 1874.0
944.21 901.07 1848.7
929.31 882.37 1810.3
934.01 882.38 1810.4
962.80 905.03 1856.8
967.17 904.62 1856.0
966.00 899.05 1844.6
984.02 911.31 1869.7
983.68 906.53 1859.9
953.99 874.88 1795.0
935.26 853.54 1751.2
947.21 860.26 1765.0
964.43 871.70 1788.4
965.12 868.14 1781.1
960.93 860.26 1765.0
971.68 865.76 1776.3
983.80 872.43 1789.9
979.97 864.95 1774.6
961.78 844.93 1733.5
959.55 839.05 1721.5
969.86 844.14 1731.9
968.92 839.44 1722.2
981.08 846.07 1735.9
981.93 842.93 1729.4
969.05 828.10 1699.0
970.70 825.76 1694.2
986.58 835.48 1714.1
1000.22 843.24 1730.0
1006.53 844.76 1733.2
1012.84 846.28 1736.3
1001.92 833.45 1710.0
987.61 817.94 1678.1
998.52 823.34 1689.2
1030.18 845.73 1735.2
1053.99 861.52 1767.6
1046.17 851.42 1746.8
1060.61 859.46 1763.3
993.90 1093.29 2255.1
985.23 1077.42 2222.3
984.99 1070.88 2208.9
1000.02 1080.94 2229.6
988.06 1061.88 2190.3
947.27 1006.47 2076.0
944.62 997.98 2058.5
950.32 998.37 2059.3
949.09 991.50 2045.1
944.69 981.43 2024.3
932.81 963.73 1987.8
934.44 960.11 1980.4
944.28 964.92 1990.3
937.60 952.89 1965.5
930.40 940.46 1939.8
933.84 938.86 1936.5
935.66 935.66 1929.9
923.39 918.48 1894.5
919.04 909.31 1875.6
923.10 908.53 1874.0
924.31 904.95 1866.6
933.65 909.34 1875.6
946.73 917.30 1892.1
952.87 918.48 1894.5
949.07 910.13 1877.3
935.63 892.67 1841.3
923.71 876.82 1808.6
924.64 873.27 1801.2
945.75 888.72 1833.1
967.41 904.53 1865.7
965.01 897.79 1851.8
960.41 889.09 1833.9
974.14 897.36 1850.9
966.02 885.52 1826.5
929.32 847.72 1748.6
923.91 838.70 1729.9
947.99 856.40 1766.4
976.58 877.98 1811.0
990.46 886.20 1827.9
969.64 863.44 1781.0
963.20 853.64 1760.8
955.79 843.08 1739.0
931.82 818.07 1687.4
966.14 844.24 1741.4
1021.31 888.30 1832.2
1019.70 882.79 1820.9
1006.30 867.18 1788.7
1012.25 868.30 1791.0
1007.74 860.49 1774.9
983.99 836.39 1725.2
974.69 824.74 1701.1
990.59 834.42 1721.1
1005.64 843.30 1739.4
999.46 834.37 1721.0
991.81 824.30 1700.2
992.92 821.58 1694.6
988.87 814.62 1680.3
994.14 815.37 1681.8
1020.16 833.05 1718.3
1045.84 850.31 1753.9
1042.72 844.11 1741.1
1046.69 843.67 1740.2
1087.90 873.12 1800.9
934.02 992.73 2058.7
913.12 965.00 2001.1
920.22 967.01 2005.3
934.64 976.64 2025.3
921.37 957.40 1985.4
905.21 935.38 1939.7
911.42 936.60 1942.3
929.38 949.81 1969.6
930.56 945.81 1961.4
914.72 924.66 1917.5
914.94 919.89 1907.6
924.68 924.68 1917.5
932.06 927.08 1922.5
926.19 916.34 1900.2
914.97 900.45 1867.3
912.12 892.92 1851.7
903.91 880.25 1825.4
903.35 875.12 1814.8
922.88 889.41 1844.4
935.10 896.54 1859.2
955.67 911.56 1890.3
966.38 917.08 1901.8
942.87 890.22 1846.1
932.55 876.03 1816.6
942.74 881.16 1827.3
952.56 885.88 1837.1
956.89 885.48 1836.2
959.50 883.50 1832.2
967.67 886.63 1838.6
955.21 870.93 1806.1
929.66 843.50 1749.2
936.81 845.86 1754.1
966.18 868.16 1800.3
999.67 893.93 1853.8
1000.92 890.77 1847.2
966.47 856.02 1775.2
972.83 857.57 1778.4
977.42 857.55 1778.3
945.05 825.25 1711.4
969.16 842.36 1746.8
1016.30 879.22 1823.3
1006.56 866.76 1797.4
1000.78 857.81 1778.9
1014.43 865.52 1794.9
1018.57 865.09 1794.0
1005.35 849.97 1762.6
991.53 834.50 1730.5
1004.27 841.42 1744.9
1012.45 844.47 1751.2
999.33 829.80 1720.8
990.27 818.62 1697.6
989.05 813.99 1688.0
1007.45 825.49 1711.8
1033.94 843.48 1749.1
1035.11 840.74 1743.5
1035.78 837.63 1737.0
1039.27 836.82 1735.3
1050.85 842.49 1747.1
939.82 1016.76 2119.9
931.12 1001.50 2088.1
934.65 999.48 2083.9
948.71 1008.69 2103.1
946.19 1000.26 2085.5
925.32 972.64 2027.9
930.58 972.64 2027.9
944.67 981.82 2047.0
931.81 963.05 2007.9
916.46 941.92 1963.8
922.73 943.12 1966.3
924.31 939.54 1958.9
908.54 918.47 1915.0
898.51 903.39 1883.5
902.23 902.23 1881.1
903.94 899.08 1874.5
902.81 893.16 1862.2
918.93 904.27 1885.3
929.89 910.21 1897.7
924.67 900.33 1877.1
913.23 884.55 1844.2
895.92 863.26 1799.8
898.98 861.72 1796.6
902.85 860.96 1795.1
913.34 866.50 1806.6
962.19 908.19 1893.5
976.70 917.21 1912.3
944.67 882.64 1840.3
932.56 866.95 1807.6
946.15 875.19 1824.7
955.13 879.10 1832.9
953.47 873.22 1820.6
957.75 872.83 1819.8
964.61 874.77 1823.8
958.95 865.39 1804.3
960.58 862.66 1798.6
985.27 880.55 1835.9
998.74 888.30 1852.1
979.79 867.28 1808.2
961.98 847.45 1766.9
984.24 862.96 1799.2
985.32 859.83 1792.7
948.93 824.19 1718.4
952.05 823.04 1716.0
975.81 839.65 1750.6
993.85 851.22 1774.7
1015.61 865.84 1805.2
1012.06 858.86 1790.7
999.34 844.19 1760.1
991.52 833.77 1738.4
984.98 824.53 1719.1
992.18 826.81 1723.9
995.69 826.02 1722.2
999.20 825.23 1720.6
1006.42 827.50 1725.3
1001.51 819.82 1709.3
1016.22 828.19 1726.7
1019.70 827.39 1725.1
998.17 806.38 1681.3
1035.17 832.64 1736.0
1075.25 861.13 1795.4
1072.65 855.34 1783.3
1233.34 962.73 2007.2
982.00 1081.96 2268.1
974.66 1067.48 2237.7
976.73 1063.42 2229.2
972.11 1052.17 2205.6
942.50 1014.15 2125.9
926.33 990.96 2077.3
934.71 994.15 2084.0
952.55 1007.29 2111.6
945.49 994.12 2083.9
920.41 962.25 2017.1
909.57 945.54 1982.1
906.26 936.81 1963.8
909.82 935.23 1960.5
910.65 930.88 1951.4
914.55 929.71 1948.9
914.12 924.17 1937.3
900.66 905.58 1898.3
892.16 892.16 1870.2
902.60 897.72 1881.9
911.49 901.69 1890.2
901.17 886.72 1858.8
907.63 888.32 1862.2
925.02 900.54 1887.8
927.07 897.80 1882.0
918.49 884.83 1854.8
904.05 866.38 1816.2
896.44 854.64 1791.6
890.37 844.48 1770.3
891.27 840.99 1762.9
927.98 871.16 1826.2
956.59 893.46 1872.9
940.41 873.91 1832.0
928.27 858.30 1799.2
940.58 865.33 1814.0
954.64 873.90 1831.9
958.10 872.72 1829.5
949.10 860.27 1803.4
941.71 849.38 1780.5
943.30 846.67 1774.9
951.38 849.77 1781.4
983.02 873.80 1831.7
1003.49 887.70 1860.9
993.77 874.90 1834.0
986.57 864.43 1812.1
989.91 863.24 1809.6
971.90 843.54 1768.3
955.50 825.41 1730.3
978.79 841.58 1764.2
995.03 851.56 1785.1
1005.03 856.14 1794.7
1018.69 863.77 1810.7
1006.51 849.53 1780.9
989.19 831.10 1742.2
976.29 816.53 1711.7
966.01 804.28 1686.0
969.92 803.89 1685.2
990.93 817.63 1714.0
1012.06 831.33 1742.7
1015.13 830.15 1740.2
1007.44 820.22 1719.4
1002.94 812.96 1704.2
987.09 796.60 1669.9
973.92 782.54 1640.4
1016.08 812.86 1704.0
1073.23 854.87 1792.0
1092.09 866.14 1815.7
1119.66 884.19 1853.5
972.67 1072.28 2260.1
978.85 1072.63 2260.8
971.84 1058.61 2231.3
975.01 1055.78 2225.3
978.14 1052.94 2219.3
930.87 990.40 2087.5
928.39 982.05 2069.9
931.86 980.06 2065.7
909.89 951.49 2005.5
895.67 931.29 1962.9
894.26 924.58 1948.8
890.49 915.50 1929.6
892.43 912.37 1923.0
896.66 911.61 1921.4
904.40 914.39 1927.3
898.43 903.37 1904.1
880.54 880.54 1855.9
881.43 876.64 1847.7
900.98 891.24 1878.5
915.86 901.08 1899.2
911.56 892.06 1880.2
916.86 892.47 1881.1
932.68 903.07 1903.4
924.19 890.14 1876.2
905.79 867.85 1829.2
907.27 864.74 1822.6
914.90 867.50 1828.5
919.25 867.13 1827.7
930.65 873.38 1840.8
930.42 868.71 1831.0
922.60 857.04 1806.4
923.51 853.55 1799.1
928.62 853.95 1799.9
946.02 865.61 1824.5
963.95 877.63 1849.8
961.03 870.63 1835.1
944.73 851.65 1795.0
932.56 836.56 1763.3
929.79 830.01 1749.4
941.72 836.58 1763.3
976.40 863.20 1819.4
982.85 864.72 1822.6
959.40 840.05 1770.6
963.10 839.27 1769.0
977.42 847.71 1786.7
966.46 834.25 1758.4
957.61 822.74 1734.1
981.37 839.21 1768.8
997.62 849.14 1789.8
990.94 839.54 1769.5
986.43 831.87 1753.4
983.67 825.74 1740.4
974.92 814.66 1717.1
977.52 813.12 1713.8
982.41 813.49 1714.6
987.29 813.85 1715.4
1007.92 827.13 1743.4
1013.79 828.23 1745.7
1002.88 815.67 1719.2
1000.28 809.96 1707.2
999.51 805.77 1698.3
995.87 799.31 1684.7
996.42 796.27 1678.3
1019.72 811.34 1710.1
1056.46 836.94 1764.0
1076.71 849.30 1790.1
1106.63 869.16 1831.9
1136.72 888.97 1873.7
964.39 1070.23 2268.2
953.27 1051.48 2228.4
963.00 1055.82 2237.6
977.51 1065.31 2257.7
977.82 1059.30 2245.0
926.41 991.80 2101.9
930.73 990.60 2099.4
928.31 982.28 2081.8
914.15 961.71 2038.2
905.08 946.70 2006.3
898.53 934.47 1980.4
898.72 929.36 1969.6
898.10 923.47 1957.1
895.49 915.61 1940.5
898.60 913.67 1936.3
904.42 914.47 1938.0
913.76 918.81 1947.2
908.22 908.22 1924.8
883.65 878.82 1862.5
877.82 868.28 1840.2
891.79 877.33 1859.3
901.04 881.66 1868.5
905.90 881.68 1868.6
920.45 891.07 1888.5
917.66 883.67 1872.8
892.00 854.45 1810.8
884.47 842.79 1786.1
895.30 848.67 1798.6
922.26 869.70 1843.2
946.10 887.58 1881.0
938.07 875.54 1855.5
917.83 852.27 1806.2
912.04 842.60 1785.7
915.01 841.07 1782.5
922.61 843.80 1788.3
940.85 856.18 1814.5
960.90 870.07 1844.0
960.96 865.81 1834.9
953.66 855.01 1812.0
951.88 849.23 1799.8
948.74 842.30 1785.1
960.76 848.82 1798.9
979.38 861.10 1824.9
970.05 848.80 1798.9
956.21 832.68 1764.7
969.62 840.33 1780.9
988.85 852.94 1807.6
981.92 842.97 1786.5
948.10 810.12 1716.9
945.83 804.40 1704.8
983.57 832.60 1764.5
999.86 842.47 1785.5
997.64 836.73 1773.3
996.28 831.76 1762.8
985.74 819.20 1736.1
986.55 816.14 1729.7
982.26 808.92 1714.4
975.61 799.82 1695.1
1006.86 821.74 1741.5
1022.95 831.15 1761.5
1022.33 826.95 1752.6
1030.56 829.92 1758.9
1032.71 827.98 1754.8
1033.42 824.92 1748.3
1017.07 808.33 1713.1
1023.83 810.16 1717.0
1063.95 838.26 1776.5
1085.66 851.68 1805.0
1095.02 855.34 1812.7
1102.00 857.11 1816.5
1134.09 878.32 1861.4
962.95 1069.29 2278.7
956.96 1056.16 2250.7
967.46 1061.27 2261.6
952.22 1038.26 2212.6
928.39 994.31 2118.9
893.11 950.90 2026.4
887.58 939.49 2002.1
904.77 952.12 2029.0
909.29 951.34 2027.3
899.81 936.01 1994.7
893.98 924.63 1970.4
888.04 913.26 1946.2
881.98 901.91 1922.0
883.91 898.81 1915.4
891.23 901.19 1920.5
900.91 905.91 1930.5
913.75 913.75 1947.2
907.42 902.43 1923.1
882.03 872.39 1859.1
879.75 865.41 1844.2
897.32 877.92 1870.9
893.79 869.76 1853.5
885.77 857.35 1827.0
897.00 863.60 1840.3
890.85 853.14 1818.1
877.27 835.72 1780.9
881.12 834.98 1779.4
881.67 831.15 1771.2
898.27 842.42 1795.2
923.26 861.39 1835.6
916.79 850.97 1813.4
908.55 839.02 1788.0
914.47 840.20 1790.5
917.45 838.68 1787.2
923.79 840.24 1790.6
930.58 842.17 1794.7
938.22 844.87 1800.4
945.03 846.79 1804.5
945.84 843.33 1797.2
952.22 844.86 1800.4
958.61 846.39 1803.7
965.45 848.29 1807.7
977.99 855.15 1822.3
987.51 859.32 1831.2
990.90 858.14 1828.7
987.20 850.87 1813.2
989.20 848.55 1808.3
1010.33 862.59 1838.2
1003.86 853.05 1817.9
960.95 812.76 1732.0
957.32 805.93 1717.5
989.80 829.42 1767.5
1004.79 838.10 1786.0
1008.92 837.68 1785.1
1003.89 829.70 1768.1
1008.89 830.04 1768.8
1009.74 826.98 1762.3
985.61 803.59 1712.5
997.91 809.96 1726.0
1024.69 827.98 1764.4
1035.27 832.82 1774.7
1044.95 836.89 1783.4
1049.97 837.20 1784.1
1051.68 834.88 1779.2
1037.27 819.85 1747.1
1041.73 819.79 1747.0
1077.16 844.01 1798.6
1102.28 859.97 1832.6
1115.54 866.57 1846.7
956.99 1056.80 2264.6
962.47 1056.37 2263.6
955.28 1042.13 2233.1
912.37 983.39 2107.3
913.79 979.06 2098.0
921.07 981.02 2102.2
914.28 968.06 2074.4
882.00 928.43 1989.5
873.70 914.34 1959.3
885.22 921.04 1973.6
882.04 912.45 1955.3
880.67 905.83 1941.1
880.77 900.78 1930.3
865.07 879.73 1885.1
858.04 867.68 1859.3
875.71 880.60 1887.0
895.83 895.83 1919.6
894.57 889.62 1906.3
876.34 866.71 1857.2
867.76 853.54 1829.0
881.28 862.12 1847.4
891.69 867.59 1859.1
881.32 852.89 1827.6
878.86 845.96 1812.8
893.71 855.68 1833.6
900.92 858.02 1838.6
900.83 853.41 1828.7
898.22 846.49 1813.9
892.68 836.88 1793.3
893.23 833.06 1785.1
902.45 837.33 1794.3
919.63 848.89 1819.0
935.65 859.27 1841.3
931.18 850.83 1823.2
924.11 840.10 1800.2
935.99 846.62 1814.2
948.34 853.51 1829.0
941.98 843.56 1807.6
932.94 831.33 1781.4
942.30 835.54 1790.4
958.18 845.45 1811.7
961.56 844.30 1809.2
965.36 843.52 1807.5
984.02 855.67 1833.6
997.96 863.62 1850.6
983.76 847.25 1815.5
962.32 824.85 1767.5
969.11 826.73 1771.6
994.64 844.51 1809.7
1004.66 849.01 1819.3
978.33 822.90 1763.3
953.12 797.96 1709.9
962.98 802.49 1719.6
987.42 819.05 1755.1
1001.05 826.56 1771.2
1008.34 828.78 1775.9
1025.29 838.88 1797.6
1031.73 840.32 1800.7
1014.59 822.64 1762.8
1009.83 815.11 1746.7
1018.50 818.44 1753.8
1035.61 828.49 1775.3
1051.39 837.39 1794.4
1051.72 833.96 1787.1
1049.66 828.68 1775.7
1038.07 815.95 1748.5
1043.01 816.26 1749.1
1074.65 837.39 1794.4
1096.91 851.05 1823.7
1115.91 862.08 1847.3
1132.12 870.86 1866.1
1232.72 936.24 2006.2
948.97 1055.06 2273.5
952.69 1052.67 2268.3
955.32 1049.09 2260.6
935.23 1020.77 2199.6
905.10 981.90 2115.8
886.59 956.02 2060.1
883.54 947.03 2040.7
900.61 959.58 2067.7
921.86 976.41 2104.0
913.95 962.33 2073.7
881.27 922.49 1987.8
852.70 887.40 1912.2
845.27 874.59 1884.6
857.41 882.05 1900.7
870.76 890.66 1919.2
889.93 905.09 1950.3
893.85 903.95 1947.9
866.49 871.36 1877.6
865.19 865.19 1864.3
879.04 874.16 1883.7
873.38 863.73 1861.2
869.60 855.26 1842.9
874.02 854.92 1842.2
885.59 861.53 1856.4
892.83 863.88 1861.5
883.66 850.41 1832.5
883.62 845.82 1822.6
897.68 854.71 1841.7
903.70 855.89 1844.3
908.51 855.91 1844.3
911.67 854.39 1841.1
909.46 847.88 1827.0
913.39 847.13 1825.4
904.44 834.51 1798.2
903.71 829.56 1787.6
927.63 847.17 1825.5
930.68 845.65 1822.2
929.50 840.31 1810.7
946.92 851.75 1835.4
961.03 860.12 1853.4
955.56 850.97 1833.7
931.98 825.86 1779.6
925.83 816.37 1759.1
943.81 828.15 1784.5
949.31 828.91 1786.1
961.34 835.34 1800.0
987.88 854.25 1840.8
980.74 844.01 1818.7
945.28 809.60 1744.5
949.37 809.22 1743.7
980.55 831.84 1792.5
987.40 833.70 1796.5
979.48 823.13 1773.7
989.45 827.62 1783.4
999.90 832.47 1793.8
999.07 827.93 1784.0
1012.74 835.39 1800.1
1016.44 834.60 1798.4
1014.17 828.93 1786.2
1022.42 831.88 1792.6
1020.09 826.22 1780.4
1021.40 823.56 1774.6
1033.84 829.85 1788.2
1023.95 818.25 1763.2
1022.38 813.36 1752.7
1042.82 825.95 1779.8
1049.24 827.37 1782.8
1051.88 825.82 1779.5
1045.51 817.23 1761.0
1049.99 817.17 1760.9
1082.16 838.56 1806.9
1088.64 839.95 1809.9
1088.89 836.53 1802.6
1113.21 851.56 1835.0
949.43 1049.68 2274.6
947.10 1040.64 2255.0
953.63 1041.39 2256.6
937.12 1017.11 2204.0
927.24 1000.29 2167.6
893.44 952.29 2063.6
880.05 932.44 2020.5
909.71 958.16 2076.3
908.78 951.55 2061.9
883.14 919.29 1992.0
859.80 889.80 1928.1
845.61 870.05 1885.3
851.31 870.89 1887.2
870.74 885.66 1919.2
896.04 906.22 1963.7
903.07 908.17 1967.9
880.36 880.36 1907.7
872.91 868.03 1881.0
881.73 871.93 1889.4
871.37 856.93 1856.9
863.23 844.26 1829.5
876.34 852.39 1847.1
896.27 867.04 1878.8
896.77 862.84 1869.7
881.19 843.29 1827.3
877.50 835.27 1810.0
887.90 840.67 1821.7
903.23 850.66 1843.3
917.01 859.09 1861.6
926.36 863.31 1870.7
930.39 862.55 1869.1
924.48 852.63 1847.6
904.35 829.76 1798.0
890.26 812.65 1761.0
899.89 817.25 1770.9
920.50 831.72 1802.3
936.60 841.99 1824.5
934.96 836.30 1812.2
927.73 825.68 1789.2
943.50 835.54 1810.6
943.90 831.75 1802.3
930.89 816.25 1768.7
940.24 820.41 1777.8
934.86 811.73 1759.0
935.06 807.96 1750.8
958.44 824.17 1785.9
947.66 810.98 1757.3
939.86 800.45 1734.5
971.83 823.75 1785.0
987.11 832.73 1804.5
979.25 822.20 1781.7
986.08 824.05 1785.7
1010.47 840.49 1821.3
1027.78 850.91 1843.9
1033.85 851.97 1846.2
1030.82 845.56 1832.3
1018.14 831.33 1801.4
997.09 810.42 1756.1
986.89 798.48 1730.3
1011.19 814.44 1764.8
1039.79 833.71 1806.6
1040.68 830.68 1800.0
1020.55 810.97 1757.3
1030.66 815.36 1766.8
1062.41 836.77 1813.2
1057.11 828.93 1796.2
1048.44 818.52 1773.7
1052.95 818.45 1773.5
1069.36 827.59 1793.3
1082.98 834.51 1808.3
1071.74 822.28 1781.8
1076.73 822.57 1782.5
1104.89 840.47 1821.2
1138.52 862.37 1868.7
1226.79 921.39 1996.6
956.12 1044.65 2276.5
946.56 1027.86 2239.9
941.52 1016.16 2214.4
942.16 1010.69 2202.5
941.65 1004.05 2188.0
910.32 964.83 2102.5
885.22 932.64 2032.4
901.98 944.67 2058.6
909.92 947.39 2064.5
892.48 923.80 2013.1
878.18 903.71 1969.4
871.62 891.77 1943.3
859.62 874.44 1905.6
862.70 872.56 1901.5
889.13 894.18 1948.6
898.05 898.05 1957.0
894.25 889.22 1937.8
905.90 895.77 1952.1
910.19 895.02 1950.4
896.03 876.23 1909.5
883.66 859.38 1872.7
892.51 863.24 1881.2
893.43 859.44 1872.9
876.33 838.44 1827.1
881.51 838.86 1828.0
898.39 850.34 1853.1
891.06 838.93 1828.2
888.92 832.48 1814.1
903.46 841.65 1834.1
912.34 845.47 1842.4
916.31 844.72 1840.8
909.50 834.10 1817.7
914.65 834.50 1818.5
924.81 839.44 1829.3
913.20 824.68 1797.1
912.83 820.16 1787.3
928.47 830.00 1808.7
925.95 823.59 1794.7
926.35 819.82 1786.5
948.54 835.28 1820.2
964.42 845.06 1841.5
967.88 843.91 1839.0
969.59 841.26 1833.3
955.61 825.09 1798.0
941.04 808.57 1762.0
948.24 810.82 1766.9
962.06 818.68 1784.0
979.04 829.14 1806.8
990.79 835.09 1819.8
987.45 828.33 1805.1
978.24 816.73 1779.8
983.72 817.46 1781.4
1002.71 829.34 1807.3
1015.93 836.37 1822.6
1020.14 835.95 1821.7
1015.24 828.09 1804.6
1004.77 815.80 1777.8
986.40 797.23 1737.3
976.15 785.36 1711.4
998.58 799.77 1742.8
1026.69 818.58 1783.8
1027.53 815.57 1777.3
1028.33 812.57 1770.7
1057.68 832.04 1813.2
1082.50 847.80 1847.5
1068.77 833.36 1816.0
1050.66 815.64 1777.4
1044.73 807.50 1759.7
1063.51 818.44 1783.5
1079.50 827.15 1802.5
1085.50 828.16 1804.7
1108.35 841.97 1834.8
1122.14 848.80 1849.7
1141.31 859.63 1873.3
955.68 1044.72 2289.6
944.09 1025.67 2247.8
932.66 1007.04 2207.0
925.37 993.08 2176.4
915.04 976.04 2139.1
905.63 960.19 2104.3
903.76 952.47 2087.4
907.33 950.54 2083.2
902.00 939.36 2058.7
889.11 920.49 2017.3
883.88 909.73 1993.7
881.93 902.44 1977.8
879.15 894.40 1960.1
870.59 880.60 1929.9
862.66 867.59 1901.4
877.99 877.99 1924.2
893.02 887.98 1946.1
894.99 884.94 1939.4
901.98 886.87 1943.6
901.56 881.53 1931.9
902.27 877.35 1922.8
903.72 873.93 1915.3
896.41 862.13 1889.4
881.83 843.49 1848.6
887.05 843.90 1849.5
914.78 865.60 1897.0
910.83 857.25 1878.7
882.88 826.52 1811.4
882.72 822.01 1801.5
900.52 834.17 1828.1
910.62 839.11 1839.0
914.99 838.74 1838.2
916.87 836.11 1832.4
931.62 845.18 1852.3
941.02 849.33 1861.4
928.63 833.87 1827.5
920.31 822.20 1801.9
928.38 825.22 1808.5
941.57 832.74 1825.0
957.81 842.87 1847.2
960.44 840.98 1843.1
954.44 831.59 1822.5
952.67 825.96 1810.1
948.25 818.10 1792.9
959.42 823.70 1805.2
971.51 830.03 1819.1
956.01 812.84 1781.4
946.97 801.28 1756.0
963.89 811.70 1778.9
975.59 817.64 1791.9
982.43 819.47 1795.9
981.69 814.99 1786.1
993.47 820.89 1799.0
1018.81 837.90 1836.3
1013.56 829.70 1818.3
999.60 814.49 1785.0
1011.92 820.73 1798.7
1019.73 823.27 1804.2
1017.00 817.31 1791.2
1023.42 818.74 1794.3
1007.67 802.49 1758.7
995.94 789.57 1730.4
1014.35 800.57 1754.5
1032.39 811.17 1777.7
1034.12 808.91 1772.8
1029.70 801.89 1757.4
1044.10 809.52 1774.1
1052.40 812.38 1780.4
1042.67 801.36 1756.2
1055.73 807.86 1770.5
1082.24 824.56 1807.1
1099.28 833.94 1827.6
1116.89 843.66 1848.9
1126.37 847.18 1856.6
1138.29 852.51 1868.3
1242.85 919.09 2014.2
947.77 1036.62 2284.8
930.91 1011.86 2230.2
934.17 1009.14 2224.2
935.61 1004.49 2214.0
902.39 957.08 2109.5
886.33 934.39 2059.5
878.12 920.18 2028.2
883.03 919.82 2027.4
878.30 909.48 2004.6
883.90 909.89 2005.5
895.48 916.43 2019.9
887.19 902.66 1989.5
879.13 889.29 1960.1
875.12 880.15 1939.9
870.64 870.64 1919.0
869.89 864.95 1906.4
869.48 859.65 1894.7
874.04 859.31 1894.0
883.66 863.91 1904.1
878.45 854.05 1882.4
874.33 845.35 1863.2
886.30 852.22 1878.4
889.62 850.73 1875.1
880.96 837.87 1846.7
891.39 843.20 1858.5
924.78 870.09 1917.7
925.71 866.31 1909.4
893.74 831.94 1833.7
891.19 825.17 1818.7
916.40 844.05 1860.4
933.97 855.73 1886.1
922.75 841.05 1853.7
910.15 825.27 1819.0
930.71 839.55 1850.4
946.79 849.69 1872.8
936.94 836.55 1843.8
931.17 827.18 1823.2
934.63 826.06 1820.7
942.75 829.05 1827.3
965.41 844.73 1861.9
974.92 848.82 1870.9
949.61 822.68 1813.3
927.07 799.20 1761.5
932.08 799.58 1762.3
952.77 813.34 1792.7
958.72 814.45 1795.1
937.01 792.16 1746.0
935.89 783.64 1727.2
964.36 803.63 1771.3
988.11 819.52 1806.3
993.20 819.86 1807.0
1009.97 829.79 1828.9
1036.53 843.68 1859.5
1014.91 822.27 1812.3
1019.55 822.22 1812.2
1020.52 819.22 1805.6
1011.35 808.16 1781.2
1020.06 811.41 1788.4
1007.06 797.44 1757.6
990.21 780.57 1720.4
1003.48 787.49 1735.7
1032.71 806.81 1778.3
1045.22 812.95 1791.8
1035.19 801.59 1766.8
1043.00 804.08 1772.3
1054.15 809.11 1783.3
1047.74 800.68 1764.8
1057.48 804.61 1773.4
1080.18 818.32 1803.6
1089.06 821.49 1810.6
1097.49 824.29 1816.8
1125.76 841.91 1855.6
1241.85 909.30 2004.2
942.92 1025.42 2273.1
924.24 998.87 2214.2
925.67 994.24 2204.0
924.90 987.32 2188.6
908.51 963.91 2136.7
898.79 947.82 2101.1
891.10 934.04 2070.5
876.65 913.40 2024.8
874.55 905.78 2007.9
876.07 901.99 1999.5
886.87 907.74 2012.2
889.86 905.47 2007.2
874.37 884.54 1960.8
874.57 879.62 1949.9
877.75 877.75 1945.8
874.80 869.80 1928.1
876.38 866.42 1920.6
871.35 856.58 1898.8
871.66 852.07 1888.8
880.10 855.52 1896.5
874.87 845.71 1874.7
861.68 828.35 1836.3
864.91 826.89 1833.0
870.90 828.07 1835.6
865.33 818.30 1814.0
872.49 820.61 1819.1
900.99 842.86 1868.4
924.44 860.18 1906.8
914.77 846.65 1876.8
897.21 826.00 1831.0
907.31 830.90 1841.9
924.44 842.16 1866.9
912.76 827.19 1833.7
902.58 813.73 1803.8
925.20 829.82 1839.5
942.95 841.40 1865.2
935.17 830.20 1840.3
934.02 824.98 1828.8
940.46 826.46 1832.1
942.22 823.85 1826.3
958.91 834.26 1849.3
974.84 843.89 1870.7
956.82 824.19 1827.0
937.75 803.79 1781.8
946.28 807.12 1789.2
973.58 826.36 1831.8
985.74 832.61 1845.7
968.95 814.48 1805.5
959.04 802.28 1778.4
942.82 784.93 1740.0
942.89 781.25 1731.8
984.86 812.16 1800.4
1008.30 827.57 1834.5
1008.05 823.48 1825.5
1018.59 828.20 1835.9
1024.64 829.25 1838.2
1012.06 815.27 1807.2
1020.33 818.15 1813.6
1024.51 817.73 1812.7
1005.24 798.68 1770.5
1002.39 792.80 1757.4
998.10 785.84 1742.0
989.57 775.61 1719.3
1011.71 789.40 1749.9
1049.87 815.53 1807.8
1066.68 824.90 1828.6
1060.00 816.11 1809.1
1055.14 808.78 1792.9
1053.52 804.00 1782.3
1053.29 800.32 1774.1
1069.74 809.28 1794.0
1080.03 813.53 1803.4
1077.38 808.03 1791.2
1086.25 811.19 1798.2
1112.57 827.29 1833.9
1139.02 843.36 1869.5
1146.13 845.03 1873.2
1253.58 912.65 2023.1
945.84 1022.69 2280.1
930.36 999.70 2228.9
924.31 987.07 2200.7
916.69 972.92 2169.2
902.04 951.55 2121.5
893.73 937.06 2089.2
902.81 940.88 2097.8
904.21 936.70 2088.4
888.58 915.02 2040.1
877.55 898.32 2002.9
874.18 889.61 1983.4
864.36 874.46 1949.7
865.30 870.33 1940.5
881.35 881.35 1965.0
884.19 879.11 1960.0
880.50 870.43 1940.7
869.03 854.22 1904.5
852.38 833.11 1857.5
862.68 838.44 1869.4
881.61 852.05 1899.7
873.63 839.66 1872.1
858.45 820.51 1829.4
860.08 817.55 1822.8
864.86 817.60 1822.9
862.05 810.51 1807.1
871.59 815.06 1817.2
887.22 825.21 1839.9
896.47 829.36 1849.1
900.07 828.25 1846.6
896.31 820.43 1829.2
894.92 814.85 1816.8
899.25 814.50 1816.0
901.91 812.66 1811.9
905.39 811.56 1809.4
912.60 813.81 1814.4
913.55 810.48 1807.0
921.19 813.09 1812.8
936.04 822.00 1832.7
927.63 810.51 1807.1
914.01 794.59 1771.6
927.17 802.00 1788.1
940.40 809.40 1804.6
945.51 809.77 1805.4
950.18 809.76 1805.4
949.63 805.32 1795.5
966.49 815.62 1818.5
993.52 834.36 1860.3
992.13 829.17 1848.7
989.81 823.26 1835.5
979.01 810.38 1806.8
961.42 792.02 1765.9
985.63 808.12 1801.8
1000.12 816.14 1819.6
989.94 804.03 1792.6
997.70 806.55 1798.3
1000.95 805.42 1795.7
994.64 796.63 1776.1
1008.79 804.24 1793.1
1023.92 812.56 1811.7
1017.96 804.15 1792.9
1018.39 800.83 1785.5
1017.40 796.42 1775.7
1014.50 790.58 1762.6
1041.40 807.91 1801.3
1055.35 815.07 1817.3
1048.22 805.96 1796.9
1047.13 801.56 1787.1
1046.47 797.53 1778.1
1060.96 805.03 1794.9
1077.42 813.95 1814.7
1083.92 815.30 1817.8
1085.15 812.69 1811.9
1071.93 799.32 1782.1
1070.16 794.58 1771.6
1091.60 807.04 1799.3
1111.68 818.39 1824.6
1129.43 827.93 1845.9
1262.38 913.77 2037.3
944.68 1028.38 2306.2
954.08 1025.64 2300.0
932.22 995.91 2233.3
921.15 978.01 2193.2
901.25 951.02 2132.7
873.84 916.47 2055.2
869.37 906.25 2032.3
883.08 915.00 2051.9
879.59 905.93 2031.6
859.38 879.84 1973.1
852.64 867.78 1946.0
853.63 863.67 1936.8
861.70 866.73 1943.7
880.35 880.35 1974.2
883.60 878.49 1970.0
874.64 864.58 1938.8
869.36 854.45 1916.1
856.67 837.20 1877.4
844.19 820.34 1839.6
859.11 830.15 1861.6
871.01 836.95 1876.9
857.10 819.00 1836.6
856.79 814.18 1825.8
872.26 824.33 1848.6
886.63 833.34 1868.8
894.30 835.98 1874.7
887.15 824.81 1849.6
885.92 819.24 1837.2
893.96 822.25 1843.9
895.91 819.67 1838.1
897.03 816.34 1830.7
900.57 815.25 1828.2
896.26 807.10 1810.0
891.05 798.23 1790.0
907.77 809.00 1814.2
927.52 822.34 1844.1
924.76 815.68 1829.2
928.66 814.95 1827.5
938.05 819.01 1836.6
925.82 804.25 1803.6
911.75 788.04 1767.2
923.62 794.32 1781.3
940.28 804.62 1804.4
948.84 807.92 1811.8
958.72 812.32 1821.6
963.42 812.30 1821.6
961.57 806.78 1809.2
967.99 808.23 1812.5
973.10 808.57 1813.2
976.00 807.08 1809.9
996.18 819.83 1838.5
1008.47 825.98 1852.3
1009.63 823.02 1845.6
1001.79 812.77 1822.7
985.29 795.64 1784.2
985.81 792.34 1776.8
990.83 792.67 1777.6
986.29 785.38 1761.2
1009.56 800.20 1794.5
1034.79 816.44 1830.9
1029.33 808.42 1812.9
1032.10 806.92 1809.5
1039.03 808.66 1813.4
1045.51 810.04 1816.5
1048.73 808.88 1813.9
1039.28 798.02 1789.6
1046.19 799.75 1793.5
1058.77 805.79 1807.0
1052.94 797.82 1789.1
1062.71 801.69 1797.8
1080.61 811.64 1820.1
1089.03 814.41 1826.3
1098.44 817.88 1834.1
1095.35 812.07 1821.1
1089.31 804.13 1803.3
1105.49 812.58 1822.2
1116.39 817.11 1832.4
1124.41 819.48 1837.7
1142.71 829.31 1859.8
946.18 1024.03 2309.8
947.19 1018.68 2297.8
932.19 996.28 2247.2
904.48 960.66 2166.9
908.66 959.14 2163.5
903.45 947.79 2137.9
881.82 919.46 2074.0
883.57 915.70 2065.5
878.33 904.78 2040.9
857.88 878.42 1981.4
850.84 866.04 1953.5
855.95 866.08 1953.6
857.32 862.37 1945.2
865.41 865.41 1952.1
880.32 875.21 1974.1
880.91 870.73 1964.1
866.59 851.65 1921.0
856.28 836.71 1887.3
858.91 834.51 1882.3
861.51 832.31 1877.4
864.87 830.86 1874.1
865.47 826.79 1864.9
857.40 814.53 1837.3
862.61 814.95 1838.2
885.64 832.11 1876.9
908.44 848.87 1914.7
909.81 845.53 1907.2
896.29 828.47 1868.7
893.90 821.81 1853.7
899.54 822.57 1855.4
909.25 827.03 1865.5
918.60 831.11 1874.7
924.69 832.22 1877.2
922.96 826.31 1863.9
916.19 815.99 1840.6
933.87 827.42 1866.4
948.77 827.76 1867.1
938.79 814.89 1838.1
928.25 801.67 1808.3
915.45 786.65 1774.4
935.92 800.21 1805.0
961.67 818.13 1845.4
956.06 809.34 1825.6
952.53 802.38 1809.9
961.13 805.65 1817.3
963.63 803.81 1813.1
964.36 800.51 1805.7
963.73 796.12 1795.8
946.25 777.93 1754.7
944.13 772.47 1742.4
979.39 797.50 1798.9
1004.15 813.79 1835.6
1002.11 808.31 1823.2
990.11 794.87 1793.0
984.76 786.89 1774.9
984.33 782.88 1765.9
987.96 782.13 1764.2
1018.56 802.64 1810.5
1044.76 819.51 1848.5
1039.78 811.89 1831.3
1046.29 813.25 1834.4
1059.31 819.64 1848.8
1063.53 819.20 1847.8
1066.81 818.04 1845.2
1049.44 801.13 1807.1
1047.91 796.41 1796.4
1074.67 813.14 1834.1
1083.57 816.26 1841.2
1070.63 802.97 1811.2
1065.19 795.41 1794.2
1062.56 789.99 1781.9
1059.87 784.58 1769.7
1089.42 802.97 1811.2
1118.64 820.97 1851.8
1124.25 821.57 1853.2
1123.05 817.20 1843.3
1124.26 814.61 1837.5
1134.24 818.38 1846.0
1169.32 840.14 1895.1
938.81 1003.76 2277.4
915.58 972.81 2207.2
907.02 957.72 2173.0
928.79 974.66 2211.4
925.48 965.23 2190.0
905.76 938.90 2130.3
887.59 914.48 2074.9
864.03 884.85 2007.6
857.85 873.26 1981.3
864.14 874.42 1984.0
867.08 872.21 1979.0
866.26 866.26 1965.5
858.98 853.96 1937.6
859.14 849.15 1926.6
873.28 858.14 1947.0
871.49 851.46 1931.9
858.13 833.61 1891.4
857.30 828.07 1878.8
859.12 825.14 1872.2
861.68 822.96 1867.2
874.39 830.42 1884.1
878.91 830.08 1883.4
876.33 823.07 1867.5
891.11 832.36 1888.5
904.00 839.78 1905.4
895.34 827.22 1876.9
889.38 817.27 1854.3
894.62 817.66 1855.2
907.96 825.42 1872.8
925.05 836.48 1897.9
925.47 832.43 1888.7
922.14 825.07 1872.0
934.42 831.69 1887.0
941.79 833.88 1892.0
929.61 818.83 1857.9
927.74 812.97 1844.5
942.18 821.38 1863.6
937.30 812.96 1844.5
940.80 811.86 1842.0
944.71 811.12 1840.4
918.73 784.85 1780.7
925.93 787.04 1785.7
957.25 809.62 1836.9
957.24 805.60 1827.8
945.03 791.41 1795.6
945.76 788.13 1788.2
953.44 790.66 1793.9
960.27 792.46 1798.0
965.35 792.80 1798.8
953.62 779.40 1768.4
944.42 768.19 1742.9
972.12 786.95 1785.5
1005.81 810.37 1838.7
1013.66 812.84 1844.3
997.63 796.23 1806.6
988.23 785.04 1781.2
1002.80 792.91 1799.0
1022.00 804.35 1825.0
1020.25 799.27 1813.5
1014.31 790.98 1794.7
1019.82 791.64 1796.2
1035.98 800.53 1816.3
1054.53 811.18 1840.5
1065.26 815.74 1850.8
1068.54 814.58 1848.2
1051.16 797.76 1810.0
1031.27 779.18 1767.9
1038.14 780.90 1771.8
1065.89 798.24 1811.1
1072.37 799.58 1814.2
1066.46 791.70 1796.3
1062.87 785.60 1782.4
1056.33 777.39 1763.8
1081.06 792.15 1797.3
1101.56 803.71 1823.6
1098.87 798.32 1811.3
1110.73 803.51 1823.1
1126.54 811.49 1841.2
1149.28 824.38 1870.4
1242.45 883.75 2005.2
1255.29 889.16 2017.4
954.03 1026.95 2343.8
946.31 1005.82 2295.6
920.96 972.77 2220.2
910.63 955.88 2181.6
925.25 965.23 2203.0
915.06 948.75 2165.4
894.17 921.44 2103.0
874.82 896.03 2045.0
852.64 868.05 1981.2
848.24 858.40 1959.1
848.92 853.97 1949.0
846.19 846.19 1931.3
855.74 850.71 1941.6
858.56 848.52 1936.6
851.14 836.30 1908.7
858.04 838.20 1913.0
861.89 837.13 1910.6
853.46 824.20 1881.1
851.05 817.21 1865.1
850.52 812.07 1853.4
842.91 800.30 1826.5
845.75 798.50 1822.5
867.83 814.80 1859.6
882.56 824.05 1880.8
883.50 820.39 1872.4
882.00 814.53 1859.0
873.64 802.42 1831.4
869.18 794.00 1812.2
890.48 809.09 1846.6
919.65 831.12 1896.9
931.49 837.35 1911.1
926.20 828.19 1890.2
906.83 806.61 1840.9
902.95 798.94 1823.5
918.48 808.45 1845.2
913.68 800.06 1826.0
911.73 794.24 1812.7
926.11 802.63 1831.9
932.12 803.72 1834.4
948.32 813.53 1856.7
955.66 815.69 1861.7
933.55 792.81 1809.5
918.50 776.13 1771.4
926.55 779.04 1778.0
948.90 793.88 1811.9
959.66 798.93 1823.4
956.95 792.77 1809.4
962.06 793.11 1810.1
970.68 796.33 1817.5
976.68 797.39 1819.9
987.56 802.40 1831.3
1000.71 809.19 1846.8
1001.42 805.91 1839.3
1009.27 808.37 1845.0
1021.63 814.41 1858.8
1010.57 801.82 1830.0
990.34 782.09 1785.0
993.55 780.98 1782.5
1024.60 801.65 1829.6
1035.68 806.59 1840.9
1028.41 797.25 1819.6
1032.59 796.84 1818.6
1030.73 791.79 1807.1
1031.16 788.53 1799.7
1031.55 785.28 1792.3
1023.48 775.64 1770.3
1041.61 785.86 1793.6
1056.54 793.58 1811.2
1050.26 785.37 1792.5
1064.30 792.37 1808.4
1079.83 800.40 1826.8
1083.97 799.96 1825.8
1092.41 802.68 1832.0
1098.47 803.64 1834.2
1103.08 803.54 1833.9
1102.85 799.92 1825.7
1094.33 790.35 1803.8
1100.82 791.65 1806.8
1115.63 798.90 1823.4
1135.90 809.98 1848.7
953.78 1020.60 2343.2
906.38 945.79 2171.5
906.79 934.60 2145.8
897.82 919.72 2111.6
887.96 904.11 2075.8
874.27 884.80 2031.4
848.20 853.28 1959.1
828.47 828.47 1902.1
833.84 828.91 1903.1
850.82 840.81 1930.4
856.62 841.60 1932.2
852.97 833.13 1912.8
859.12 834.29 1915.5
861.83 832.11 1910.5
855.68 821.46 1886.0
855.60 816.71 1875.1
859.35 815.65 1872.7
854.89 806.87 1852.5
848.78 796.62 1829.0
861.05 803.65 1845.1
883.67 820.20 1883.1
892.55 823.89 1891.6
886.70 814.02 1868.9
874.74 798.68 1833.7
868.14 784.13 1800.3
896.82 805.70 1849.8
907.75 811.18 1862.4
920.79 818.48 1879.2
920.31 813.75 1868.3
905.73 796.66 1829.1
910.90 797.04 1829.9
923.16 803.58 1844.9
937.99 812.28 1864.9
942.39 811.91 1864.1
938.34 804.29 1846.6
942.70 803.92 1845.7
937.67 795.60 1826.6
935.99 790.18 1814.2
941.11 790.53 1815.0
940.20 785.84 1804.2
953.53 793.03 1820.7
967.35 800.57 1838.0
968.16 797.31 1830.6
970.24 795.13 1825.5
976.26 796.18 1828.0
971.25 788.26 1809.8
971.48 784.65 1801.5
991.69 797.15 1830.2
999.95 799.96 1836.6
998.83 795.28 1825.9
1002.15 794.16 1823.3
1015.40 800.88 1838.8
1020.10 800.83 1838.6
1000.67 781.92 1795.2
1008.93 784.72 1801.7
1033.25 799.93 1836.6
1039.30 800.93 1838.9
1033.36 792.71 1820.0
1022.24 780.62 1792.2
1023.56 778.09 1786.4
1024.38 775.21 1779.8
1020.49 768.80 1765.1
1042.39 781.79 1794.9
1075.25 802.85 1843.3
1085.58 806.98 1852.8
1085.51 803.37 1844.5
1088.25 801.87 1841.0
1090.50 800.02 1836.8
1096.57 800.97 1839.0
1125.26 818.37 1878.9
1153.14 835.03 1917.2
1141.44 823.01 1889.6
1121.37 805.09 1848.4
1108.93 792.77 1820.1
1102.74 785.00 1802.3
1144.08 810.99 1862.0
1263.02 887.81 2038.3
946.87 1007.18 2326.3
936.32 989.66 2285.8
924.66 959.12 2215.2
906.29 934.26 2157.8
892.01 908.33 2097.9
885.77 896.50 2070.6
886.37 891.71 2059.6
874.37 874.37 2019.5
849.19 844.14 1949.7
849.44 839.39 1938.7
858.64 843.49 1948.2
856.57 836.53 1932.1
855.94 831.05 1919.5
864.00 834.03 1926.3
864.44 829.66 1916.2
854.84 815.76 1884.1
863.25 819.10 1891.9
875.18 825.73 1907.2
875.47 821.37 1897.1
873.76 815.18 1882.8
877.49 814.12 1880.3
892.68 823.63 1902.3
893.26 819.64 1893.1
879.42 802.53 1853.6
878.64 797.47 1841.9
872.57 787.68 1819.3
886.42 787.41 1818.6
911.26 805.19 1859.7
921.45 809.90 1870.6
916.78 801.58 1851.4
924.08 803.75 1856.4
937.65 811.34 1873.9
931.18 801.58 1851.4
914.09 782.84 1808.1
925.13 788.25 1820.6
944.70 800.84 1849.7
942.66 795.07 1836.4
943.56 791.83 1828.9
971.06 810.83 1872.8
994.42 826.21 1908.3
982.85 812.55 1876.7
972.01 799.64 1846.9
971.09 794.96 1836.1
971.86 791.71 1828.6
975.25 790.61 1826.1
968.90 781.67 1805.4
953.15 765.27 1767.5
957.27 764.90 1766.7
981.49 780.52 1802.7
998.69 790.43 1825.6
993.91 782.93 1808.3
998.99 783.25 1809.0
1016.33 793.12 1831.8
1010.53 784.93 1812.9
1008.31 779.57 1800.6
1022.09 786.59 1816.8
1028.11 787.59 1819.1
1021.65 779.07 1799.4
1021.14 775.14 1790.3
1032.69 780.36 1802.4
1030.28 775.03 1790.1
1022.18 765.49 1768.0
1039.86 775.26 1790.6
1066.60 791.65 1828.5
1071.23 791.57 1828.3
1066.34 784.49 1811.9
1060.92 777.07 1794.8
1054.46 768.97 1776.1
1071.92 778.31 1797.6
1111.15 803.30 1855.3
1152.05 829.27 1915.3
1153.42 826.70 1909.4
1137.26 811.63 1874.6
1127.30 801.10 1850.3
1125.07 796.13 1838.8
1169.46 824.05 1903.3
1266.89 885.23 2044.6
945.90 1000.13 2323.9
921.39 961.96 2235.2
919.69 954.18 2217.1
912.53 940.87 2186.2
898.39 920.58 2139.0
874.26 890.36 2068.8
856.37 866.81 2014.1
857.96 863.16 2005.6
866.51 866.51 2013.4
874.34 869.11 2019.4
868.46 858.12 1993.9
862.45 847.14 1968.4
864.96 844.61 1962.5
866.31 840.98 1954.1
868.76 838.45 1948.2
869.65 834.46 1938.9
861.69 822.07 1910.2
849.76 806.05 1872.9
855.82 807.19 1875.6
875.49 821.08 1907.8
883.59 824.02 1914.7
877.59 813.86 1891.1
877.80 809.52 1881.0
884.68 811.37 1885.3
877.66 800.51 1860.0
864.14 783.86 1821.4
862.08 777.75 1807.2
884.55 793.71 1844.2
898.27 801.68 1862.8
882.37 783.28 1820.0
883.85 780.42 1813.4
899.66 790.18 1836.1
900.32 786.60 1827.7
913.77 794.17 1845.3
938.94 811.79 1886.3
944.65 812.49 1887.9
928.97 794.89 1847.0
917.75 781.26 1815.3
934.73 791.66 1839.5
956.47 805.96 1872.7
956.18 801.65 1862.7
954.56 796.27 1850.2
981.26 814.45 1892.4
999.64 821.49 1908.8
983.64 804.35 1869.0
977.51 795.42 1848.2
981.38 794.68 1846.5
989.20 797.13 1852.2
981.13 786.80 1828.2
964.52 769.76 1788.6
966.01 767.26 1782.8
988.05 781.03 1814.8
1005.28 790.88 1837.7
1000.96 783.77 1821.2
987.98 769.98 1789.1
987.58 766.07 1780.0
996.25 769.20 1787.3
1007.69 774.43 1799.5
1022.85 782.46 1818.1
1030.71 784.86 1823.7
1030.27 780.94 1814.6
1036.29 781.92 1816.9
1065.13 800.05 1859.0
1079.64 807.30 1875.8
1061.40 790.10 1835.9
1068.40 791.76 1839.7
1083.91 799.69 1858.1
1075.80 790.19 1836.1
1062.84 777.23 1806.0
1049.28 763.95 1775.1
1047.09 759.02 1763.7
1069.34 771.78 1793.3
1091.23 784.17 1822.1
1112.74 796.19 1850.0
1134.85 808.52 1878.7
1140.03 808.74 1879.2
1157.90 817.92 1900.5
1244.55 868.05 2017.0
938.27 986.08 2305.1
905.09 945.19 2209.5
892.74 926.42 2165.7
911.54 940.02 2197.5
922.60 945.52 2210.3
900.93 917.61 2145.1
868.46 879.12 2055.1
852.69 857.89 2005.5
856.47 856.47 2002.1
860.96 855.77 2000.5
865.07 854.71 1998.0
874.36 858.75 2007.5
882.95 862.06 2015.2
