ply
format ascii 1.0
element vertex 2177
property float x
property float y
property float z
end_header
1209.29 587.85 1619.6
1216.71 589.41 1623.9
1212.59 585.39 1612.8
1210.17 582.21 1604.1
1211.77 580.99 1600.7
1225.56 585.59 1613.4
1240.56 590.74 1627.6
1239.84 588.40 1621.1
1231.49 582.46 1604.7
1271.16 599.20 1650.9
1335.66 627.49 1728.8
1269.89 795.11 2206.4
1231.72 764.33 2120.9
1232.58 761.46 2113.0
1227.61 755.04 2095.2
1187.70 727.27 2018.1
1168.85 712.59 1977.4
1175.20 713.33 1979.4
1160.02 701.06 1945.4
1147.16 690.28 1915.5
1159.30 694.58 1927.4
1158.14 690.91 1917.2
1145.53 680.47 1888.2
1144.74 677.10 1878.9
1151.90 678.45 1882.6
1160.56 680.67 1888.8
1171.25 684.05 1898.2
1160.32 674.83 1872.6
1135.15 657.44 1824.3
1114.85 643.00 1784.3
1098.96 631.22 1751.6
1098.25 628.22 1743.2
1121.53 638.91 1772.9
1150.05 652.48 1810.6
1161.23 656.14 1820.7
1164.18 655.14 1818.0
1159.86 650.09 1803.9
1162.24 648.80 1800.4
1165.65 648.10 1798.4
1166.95 646.24 1793.3
1163.00 641.50 1780.1
1147.44 630.41 1749.3
1150.72 629.72 1747.4
1151.87 627.88 1742.3
1142.94 620.58 1722.1
1147.74 620.76 1722.6
1157.87 623.81 1731.0
1176.57 631.44 1752.2
1184.09 633.03 1756.6
1170.69 623.47 1730.1
1160.41 615.64 1708.3
1174.89 620.95 1723.1
1185.63 624.25 1732.3
1174.14 615.87 1709.0
1169.64 611.20 1696.0
1177.64 613.08 1701.3
1190.04 617.22 1712.7
1186.56 613.13 1701.4
1183.59 609.33 1690.8
1204.84 617.98 1714.8
1206.27 616.44 1710.6
1182.74 602.20 1671.1
1182.40 599.83 1664.5
1207.66 610.42 1693.9
1217.39 613.10 1701.3
1188.51 596.40 1655.0
1163.39 581.69 1614.2
1166.25 581.03 1612.3
1168.54 580.10 1609.7
1167.42 577.48 1602.5
1183.84 583.53 1619.2
1206.00 592.35 1643.7
1202.05 588.33 1632.6
1192.92 581.81 1614.5
1198.03 582.26 1615.7
1214.03 587.98 1631.6
1228.36 592.85 1645.1
1224.87 589.13 1634.8
1220.77 585.13 1623.7
1217.78 581.69 1614.1
1218.82 580.19 1610.0
1231.47 584.21 1621.1
1230.17 581.61 1613.9
1211.90 571.03 1584.6
1229.24 577.24 1601.8
1296.49 606.78 1683.8
1356.38 632.67 1755.6
1223.25 750.26 2097.0
1205.69 736.22 2057.7
1174.87 714.24 1996.3
1164.72 704.96 1970.4
1164.71 701.88 1961.8
1141.66 684.99 1914.6
1123.81 671.37 1876.5
1129.96 672.13 1878.6
1138.10 674.07 1884.0
1134.34 668.97 1869.8
1128.04 662.42 1851.5
1130.15 660.85 1847.1
1140.25 663.94 1855.7
1152.38 668.19 1867.6
1151.97 665.15 1859.1
1136.35 653.40 1826.3
1106.40 633.54 1770.8
1081.83 616.91 1724.3
1105.04 627.55 1754.0
1153.43 652.35 1823.3
1161.53 654.25 1828.7
1152.66 646.62 1807.3
1165.91 651.40 1820.7
1172.48 652.43 1823.6
1156.71 641.07 1791.8
1143.43 631.17 1764.1
1146.76 630.49 1762.2
1145.36 627.22 1753.1
1142.87 623.38 1742.4
1159.31 629.86 1760.5
1177.40 637.18 1780.9
1184.96 638.77 1785.4
1167.55 626.94 1752.3
1156.42 618.55 1728.9
1160.69 618.44 1728.6
1155.32 613.21 1713.9
1164.39 615.65 1720.8
1177.26 620.08 1733.1
1179.36 618.83 1729.6
1177.65 615.59 1720.6
1161.25 604.72 1690.2
1151.81 597.55 1670.2
1155.94 597.45 1669.9
1163.35 599.04 1674.3
1171.87 601.18 1680.3
1181.52 603.89 1687.9
1202.22 612.20 1711.1
1202.53 610.11 1705.3
1195.61 604.38 1689.3
1210.87 609.86 1704.6
1208.35 606.37 1694.8
1190.14 595.07 1663.2
1198.70 597.19 1669.2
1211.21 601.25 1680.5
1194.49 590.82 1651.4
1177.09 580.14 1621.5
1187.87 583.37 1630.5
1217.39 595.75 1665.1
1208.95 589.52 1647.7
1173.66 570.30 1594.0
1175.88 569.37 1591.4
1190.68 574.52 1605.8
1193.47 573.86 1604.0
1195.10 572.65 1600.6
1193.27 569.79 1592.6
1191.97 567.21 1585.4
1210.92 574.25 1605.1
1233.42 582.92 1629.3
1235.63 581.97 1626.6
1223.26 574.18 1604.9
1228.92 574.88 1606.8
1271.48 592.79 1656.9
1307.76 607.65 1698.4
1331.82 616.75 1723.8
1359.50 627.46 1753.8
1217.56 748.01 2106.0
1202.56 735.49 2070.7
1193.68 726.82 2046.3
1201.13 728.12 2050.0
1194.04 720.63 2028.9
1166.43 700.88 1973.3
1149.33 687.59 1935.9
1139.43 678.70 1910.8
1132.38 671.58 1890.8
1144.97 676.12 1903.6
1157.60 680.65 1916.3
1151.92 674.41 1898.8
1141.18 665.28 1873.1
1136.84 659.94 1858.0
1140.95 659.53 1856.9
1154.60 664.62 1871.2
1156.20 662.76 1866.0
1124.90 642.13 1807.9
1079.68 613.76 1728.0
1094.99 617.34 1738.1
1147.98 644.56 1814.7
1161.72 649.62 1828.9
1154.90 643.18 1810.8
1170.75 649.36 1828.2
1186.65 655.53 1845.6
1178.19 648.24 1825.1
1165.48 638.68 1798.2
1169.40 638.28 1797.0
1159.67 630.46 1775.0
1149.33 622.36 1752.2
1148.92 619.69 1744.7
1150.07 617.88 1739.6
1163.92 622.88 1753.7
1153.35 614.82 1731.0
1144.84 607.92 1711.5
1150.14 608.38 1712.8
1138.30 599.80 1688.7
1140.87 598.85 1686.0
1161.77 607.49 1710.3
1171.93 610.48 1718.8
1179.42 612.05 1723.2
1172.79 606.31 1707.0
1164.46 599.74 1688.5
1169.72 600.19 1689.8
1175.52 600.92 1691.9
1181.33 601.65 1693.9
1175.03 596.22 1678.6
1179.17 596.11 1678.3
1197.68 603.24 1698.4
1209.06 606.74 1708.2
1202.66 601.33 1693.0
1180.03 587.87 1655.1
1182.42 586.93 1652.5
1211.71 599.29 1687.3
1222.57 602.49 1696.3
1205.86 592.12 1667.1
1191.30 582.89 1641.1
1204.38 587.19 1653.2
1205.02 585.42 1648.2
1168.11 565.48 1592.1
1155.50 557.41 1569.3
1179.39 566.93 1596.2
1197.63 573.69 1615.2
1204.46 574.95 1618.7
1189.43 565.81 1593.0
1171.42 555.31 1563.4
1173.55 554.40 1560.9
1195.94 563.04 1585.2
1216.67 570.83 1607.1
1217.09 569.08 1602.2
1214.00 565.71 1592.7
1229.00 570.76 1606.9
1273.34 589.35 1659.3
1311.40 604.92 1703.1
1321.94 607.74 1711.0
1333.09 610.81 1719.7
1191.51 726.66 2060.9
1172.57 711.92 2019.1
1157.31 699.53 1984.0
1158.83 697.35 1977.8
1171.98 702.15 1991.4
1162.28 693.29 1966.3
1145.16 680.09 1928.8
1136.22 671.85 1905.5
1136.52 669.12 1897.7
1155.54 677.39 1921.2
1160.29 677.25 1920.8
1145.67 665.86 1888.5
1138.39 658.82 1868.5
1135.53 654.37 1855.9
1137.63 652.82 1851.5
1152.29 658.45 1867.4
1150.35 654.59 1856.5
1114.96 631.81 1791.9
1088.46 614.23 1742.0
1090.27 612.72 1737.7
1100.25 615.78 1746.4
1132.79 631.39 1790.7
1156.77 642.12 1821.1
1160.75 641.72 1820.0
1165.76 641.88 1820.4
1170.77 642.03 1820.9
1174.73 641.62 1819.7
1172.43 637.80 1808.9
1164.86 631.16 1790.0
1144.09 617.45 1751.2
1143.70 614.79 1743.6
1153.29 617.51 1751.3
1137.52 606.67 1720.6
1133.82 602.34 1708.3
1158.28 612.94 1738.4
1183.92 624.08 1770.0
1175.43 617.21 1750.5
1148.62 600.81 1704.0
1140.46 594.26 1685.4
1149.49 596.68 1692.3
1160.17 599.94 1701.5
1166.00 600.67 1703.6
1179.44 605.30 1716.7
1190.75 608.80 1726.7
1188.42 605.34 1716.8
1186.61 602.16 1707.8
1204.54 608.98 1727.2
1210.41 609.69 1729.2
1182.04 593.20 1682.4
1166.24 583.12 1653.8
1185.87 590.76 1675.5
1189.42 590.37 1674.4
1171.77 579.49 1643.5
1180.85 581.87 1650.3
1203.41 590.84 1675.7
1208.63 591.27 1676.9
1195.82 582.91 1653.2
1185.75 575.94 1633.4
1179.57 570.89 1619.1
1161.98 560.39 1589.3
1154.52 554.82 1573.6
1171.54 561.02 1591.1
1188.61 567.20 1608.6
1201.73 571.45 1620.7
1214.31 575.42 1632.0
1206.78 569.87 1616.2
1185.33 557.80 1582.0
1184.02 555.26 1574.8
1196.00 558.96 1585.3
1205.12 561.29 1591.9
1204.94 559.29 1586.2
1201.81 555.94 1576.7
1221.47 563.12 1597.1
1270.50 583.75 1655.6
1309.75 599.75 1701.0
1322.05 603.35 1711.2
1339.70 609.36 1728.2
1198.97 725.83 2073.8
1182.91 712.92 2036.9
1172.50 703.50 2010.0
1159.07 692.36 1978.2
1157.65 688.47 1967.1
1173.72 694.97 1985.6
1179.60 695.40 1986.8
1164.87 683.73 1953.5
1160.35 678.12 1937.5
1152.79 670.81 1916.6
1132.27 656.04 1874.4
1130.47 652.19 1863.4
1135.60 652.36 1863.9
1142.22 653.39 1866.8
1153.88 657.27 1877.9
1145.94 650.01 1857.2
1122.77 634.20 1812.0
1109.55 624.12 1783.2
1104.35 618.62 1767.5
1106.22 617.10 1763.2
1116.75 620.42 1772.6
1126.80 623.44 1781.2
1128.15 621.63 1776.1
1128.43 619.26 1769.3
1130.76 618.03 1765.8
1143.45 622.44 1778.4
1155.66 626.56 1790.2
1167.39 630.39 1801.1
1175.49 632.23 1806.4
1152.64 617.48 1764.2
1149.63 613.44 1752.7
1171.39 622.59 1778.8
1167.83 618.26 1766.5
1162.09 612.82 1750.9
1184.51 622.21 1777.8
1206.49 631.30 1803.7
1194.31 622.51 1778.6
1162.16 603.43 1724.1
1149.19 594.41 1698.3
1152.31 593.75 1696.4
1155.97 593.37 1695.3
1160.15 593.26 1695.0
1170.32 596.20 1703.4
1173.97 595.81 1702.3
1163.39 588.23 1680.7
1170.28 589.51 1684.3
1195.32 599.88 1713.9
1211.09 605.55 1730.1
1194.87 595.23 1700.7
1164.13 577.78 1650.8
1165.42 576.31 1646.6
1191.76 587.18 1677.7
1197.54 587.89 1679.7
1202.78 588.31 1680.9
1222.03 595.58 1701.6
1213.80 589.44 1684.1
1188.03 574.85 1642.4
1186.40 572.02 1634.3
1189.85 571.64 1633.2
1187.61 568.54 1624.4
1195.58 570.33 1629.5
1202.42 571.58 1633.1
1210.42 573.36 1638.2
1206.97 569.72 1627.8
1205.20 566.91 1619.7
1209.16 566.79 1619.4
1202.14 561.55 1604.4
1205.49 561.18 1603.4
1220.43 566.18 1617.7
1233.67 570.36 1629.6
1238.21 570.51 1630.0
1228.15 563.95 1611.3
1239.68 567.31 1620.9
1275.29 581.63 1661.8
1299.27 590.58 1687.4
1321.57 598.70 1710.6
1349.86 609.47 1741.3
1272.12 774.84 2230.3
1272.79 771.74 2221.4
1219.84 733.00 2109.9
1194.71 714.69 2057.2
1202.66 716.25 2061.7
1207.24 715.80 2060.4
1188.49 701.57 2019.5
1187.12 697.69 2008.3
1190.59 696.68 2005.4
1173.93 683.94 1968.7
1155.64 670.37 1929.6
1135.22 655.69 1887.4
1120.08 644.16 1854.2
1123.70 643.49 1852.2
1132.79 645.93 1859.3
1142.91 648.94 1868.0
1166.12 659.32 1897.8
1169.29 658.34 1895.0
1137.08 637.53 1835.1
1114.78 622.42 1791.6
1116.70 620.90 1787.3
1126.76 623.91 1795.9
1129.18 622.67 1792.3
1130.55 620.88 1787.2
1149.40 628.65 1809.5
1166.26 635.28 1828.6
1140.74 618.87 1781.4
1126.47 608.66 1752.0
1150.61 619.20 1782.4
1172.25 628.32 1808.6
1178.27 629.04 1810.7
1153.84 613.55 1766.1
1136.61 602.00 1732.8
1143.54 603.29 1736.5
1158.44 608.75 1752.3
1172.86 613.92 1767.1
1182.53 616.57 1774.8
1192.23 619.22 1782.4
1206.24 624.08 1796.4
1200.43 618.68 1780.9
1171.39 601.40 1731.1
1159.99 593.28 1707.7
1155.54 588.76 1694.7
1151.58 584.52 1682.5
1156.83 584.96 1683.8
1155.53 582.11 1675.6
1149.82 577.06 1661.1
1161.06 580.53 1671.0
1182.24 588.92 1695.2
1194.12 592.64 1705.9
1204.94 595.80 1715.0
1201.37 591.85 1703.6
1178.30 578.36 1664.8
1177.93 576.07 1658.2
1182.57 576.23 1658.7
1186.64 576.12 1658.4
1208.11 584.43 1682.3
1201.53 579.15 1667.1
1179.65 566.57 1630.9
1180.83 565.11 1626.7
1193.90 569.33 1638.8
1200.76 570.57 1642.4
1211.04 573.43 1650.6
1220.78 576.00 1658.0
1221.95 574.53 1653.8
1211.06 567.42 1633.3
1199.52 560.06 1612.1
1195.40 556.19 1601.0
1198.17 555.55 1599.1
1211.35 559.73 1611.2
1217.60 560.68 1613.9
1221.53 560.57 1613.6
1235.37 564.98 1626.3
1235.82 563.26 1621.3
1243.26 564.74 1625.6
1273.61 576.57 1659.6
1305.25 588.90 1695.1
1338.19 601.73 1732.1
1352.93 606.33 1745.3
1367.12 610.65 1757.7
1164.00 694.22 2013.3
1165.61 692.08 2007.1
1200.02 709.35 2057.2
1184.72 697.20 2022.0
1146.92 671.98 1948.8
1163.94 678.97 1969.1
1183.98 687.64 1994.2
1157.95 669.60 1941.9
1132.20 651.87 1890.5
1146.29 657.14 1905.8
1163.40 664.09 1925.9
1137.81 646.70 1875.5
1119.50 633.59 1837.5
1121.57 632.07 1833.1
1137.18 638.16 1850.7
1161.42 649.03 1882.3
1150.90 640.46 1857.4
1137.75 630.50 1828.5
1148.90 634.04 1838.8
1163.14 639.25 1853.9
1169.76 640.24 1856.8
1161.50 633.11 1836.1
1169.12 634.67 1840.6
1189.14 642.91 1864.5
1166.27 627.99 1821.2
1130.77 606.42 1758.7
1133.57 605.48 1756.0
1161.44 617.88 1791.9
1171.62 620.82 1800.4
1158.19 611.26 1772.7
1150.97 605.05 1754.7
1143.68 598.85 1736.7
1145.33 597.37 1732.4
1163.96 604.72 1753.7
1177.88 609.56 1767.8
1182.23 609.44 1767.4
1190.85 611.52 1773.5
1194.12 610.84 1771.5
1175.83 599.18 1737.7
1170.38 594.12 1723.0
1171.37 592.36 1717.9
1157.12 582.95 1690.6
1152.58 578.47 1677.6
1158.37 579.18 1679.7
1159.23 577.44 1674.6
1163.91 577.61 1675.1
1177.40 582.13 1688.2
1202.52 592.35 1717.9
1225.53 601.46 1744.3
1217.57 595.35 1726.6
1190.07 579.78 1681.4
1181.93 573.71 1663.8
1177.07 569.27 1651.0
1168.24 562.96 1632.6
1175.64 564.48 1637.0
1192.61 570.57 1654.7
1194.97 569.65 1652.0
1187.14 563.89 1635.3
1189.45 562.98 1632.7
1194.02 563.14 1633.2
1200.87 564.37 1636.7
1210.58 566.93 1644.2
1211.16 565.21 1639.2
1199.66 557.88 1617.9
1187.51 550.31 1596.0
1189.70 549.41 1593.3
1199.38 551.97 1600.8
1205.62 552.92 1603.5
1204.31 550.42 1596.3
1207.63 550.05 1595.2
1220.28 553.91 1606.4
1213.67 549.04 1592.3
1212.28 546.55 1585.1
1254.32 563.60 1634.5
1300.05 582.18 1688.4
1338.30 597.29 1732.2
1360.73 605.27 1755.4
1366.05 605.62 1756.4
1266.26 756.32 2210.0
1203.73 715.73 2091.4
1159.92 686.59 2006.3
1183.66 697.51 2038.2
1195.44 701.33 2049.3
1157.81 676.24 1976.0
1144.21 665.36 1944.2
1185.15 686.14 2004.9
1188.12 684.86 2001.2
1146.36 657.91 1922.5
1138.31 650.46 1900.7
1169.73 665.53 1944.7
1184.94 671.30 1961.6
1155.91 652.05 1905.4
1125.16 632.01 1846.8
1114.73 623.49 1821.9
1111.72 619.19 1809.3
1117.24 619.65 1810.7
1132.87 625.69 1828.3
1146.54 630.60 1842.7
1150.59 630.20 1841.5
1157.70 631.47 1845.2
1168.91 634.96 1855.4
1165.26 630.39 1842.0
1156.41 623.05 1820.6
1159.87 622.37 1818.6
1165.92 623.08 1820.7
1158.97 616.87 1802.5
1143.09 605.97 1770.7
1152.70 608.63 1778.5
1170.20 615.40 1798.3
1162.53 608.95 1779.4
1169.56 610.20 1783.1
1177.12 611.73 1787.5
1183.63 612.70 1790.4
1207.70 622.72 1819.6
1203.08 617.93 1805.6
1187.18 607.39 1774.8
1188.85 605.90 1770.5
1185.66 601.95 1758.9
1182.97 598.28 1748.2
1193.20 601.16 1756.6
1202.93 603.75 1764.2
1196.37 598.18 1747.9
1167.40 581.50 1699.2
1150.27 570.81 1668.0
1161.52 574.23 1678.0
1176.64 579.54 1693.5
1178.05 578.08 1689.2
1189.38 581.47 1699.1
1196.31 582.70 1702.7
1172.73 569.12 1663.0
1181.27 571.16 1669.0
1208.80 582.34 1701.6
1199.53 575.77 1682.5
1184.02 566.27 1654.7
1199.88 571.78 1670.8
1227.07 582.64 1702.5
1215.39 575.02 1680.3
1194.57 563.16 1645.6
1196.90 562.24 1642.9
1201.49 562.40 1643.4
1204.94 562.02 1642.3
1210.66 562.70 1644.3
1209.52 560.20 1636.9
1197.43 552.66 1614.9
1188.14 546.46 1596.8
1193.21 546.89 1598.1
1204.07 549.96 1607.0
1210.89 551.17 1610.5
1204.95 546.57 1597.1
1201.86 543.31 1587.6
1216.83 548.20 1601.9
1212.55 544.41 1590.8
1206.46 539.84 1577.5
1243.22 554.41 1620.0
1269.52 564.23 1648.7
1284.11 568.80 1662.1
1339.55 591.37 1728.0
1257.85 748.99 2205.3
1208.77 713.28 2100.2
1209.60 710.57 2092.2
1207.99 706.46 2080.1
1194.72 695.59 2048.1
1174.52 680.81 2004.6
1179.95 680.94 2004.9
1190.75 684.16 2014.4
1165.32 666.62 1962.8
1147.54 653.60 1924.5
1162.67 659.35 1941.4
1165.48 658.09 1937.7
1152.38 647.91 1907.7
1150.63 644.15 1896.6
1145.32 638.46 1879.9
1122.40 623.03 1834.4
1107.35 612.08 1802.2
1128.49 621.15 1828.9
1159.35 635.46 1871.0
1147.22 626.19 1843.7
1128.36 613.34 1805.9
1131.31 612.40 1803.1
1138.34 613.67 1806.9
1136.65 610.25 1796.8
1130.80 604.63 1780.3
1153.83 614.44 1809.1
1179.03 625.32 1841.2
1167.96 616.95 1816.5
1150.01 605.02 1781.4
1136.62 595.59 1753.6
1129.95 589.74 1736.4
1134.26 589.64 1736.1
1153.87 597.46 1759.1
1171.97 604.44 1779.7
1189.61 611.13 1799.4
1202.01 615.09 1811.1
1184.56 603.80 1777.8
1188.38 603.40 1776.7
1209.37 611.69 1801.0
1194.94 602.06 1772.7
1180.93 592.73 1745.2
1192.25 596.12 1755.2
1204.14 599.78 1766.0
1214.44 602.62 1774.3
1201.31 593.86 1748.5
1178.79 580.53 1709.3
1185.73 581.76 1712.9
1195.43 584.33 1720.5
1191.37 580.19 1708.3
1182.30 573.63 1689.0
1168.17 564.68 1662.6
1152.82 555.22 1634.8
1168.55 560.73 1651.0
1216.15 581.45 1712.0
1227.04 584.52 1721.0
1188.59 564.15 1661.1
1180.29 558.19 1643.5
1215.33 572.69 1686.2
1212.09 569.12 1675.7
1182.75 553.36 1629.3
1175.96 548.23 1614.2
1203.84 559.23 1646.6
1230.11 569.42 1676.6
1222.17 563.75 1659.9
1208.44 555.46 1635.5
1203.24 551.13 1622.7
1200.87 548.13 1613.9
1193.27 542.77 1598.1
1191.97 540.31 1590.9
1209.79 546.49 1609.1
1213.72 546.38 1608.8
1210.65 543.13 1599.2
1226.23 548.25 1614.2
1220.79 543.96 1601.6
1213.54 538.90 1586.7
1236.81 547.37 1611.7
1248.97 550.89 1622.0
1250.53 549.73 1618.6
1288.17 564.38 1661.8
1346.70 588.06 1731.5
1366.25 594.61 1750.8
1371.56 594.95 1751.8
1211.03 712.37 2113.6
1203.76 704.90 2091.5
1197.84 698.29 2071.9
1190.40 690.85 2049.8
1196.40 691.26 2051.0
1194.16 686.91 2038.1
1167.02 668.34 1983.0
1146.50 653.71 1939.6
1164.54 661.09 1961.5
1189.06 672.08 1994.1
1172.74 659.98 1958.2
1146.36 642.36 1905.9
1150.09 641.68 1903.9
1164.27 646.81 1919.1
1156.50 639.77 1898.2
1132.09 623.61 1850.3
1121.59 615.22 1825.4
1147.83 626.97 1860.2
1191.93 648.33 1923.6
1191.06 645.16 1914.2
1150.41 620.55 1841.2
1132.99 608.63 1805.8
1124.14 601.39 1784.3
1106.98 589.78 1749.9
1121.14 594.89 1765.1
1162.77 614.47 1823.2
1187.49 625.00 1854.4
1176.95 616.95 1830.5
1152.75 601.84 1785.7
1134.66 590.02 1750.6
1135.85 588.29 1745.5
1148.07 592.26 1757.2
1158.75 595.40 1766.6
1168.93 598.27 1775.1
1165.86 594.36 1763.5
1156.37 587.22 1742.3
1145.72 579.54 1719.5
1156.39 582.68 1728.8
1190.72 597.66 1773.3
1189.68 594.84 1764.9
1183.75 589.61 1749.4
1202.66 596.74 1770.5
1191.78 589.10 1747.9
1181.37 581.74 1726.0
1186.15 581.89 1726.5
1179.99 576.69 1711.1
1177.61 573.37 1701.2
1177.94 571.39 1695.3
1190.92 575.54 1707.6
1197.87 576.75 1711.2
1189.31 570.52 1692.7
1177.90 562.97 1670.3
1171.97 558.08 1655.8
1195.03 566.99 1682.3
1223.78 578.51 1716.5
1205.50 567.81 1684.7
1166.86 547.62 1624.8
1169.73 547.00 1623.0
1187.86 553.48 1642.2
1178.85 547.32 1623.9
1189.66 550.38 1633.0
1232.39 568.12 1685.6
1251.32 574.81 1705.5
1235.98 565.77 1678.6
1213.09 553.34 1641.8
1199.27 545.12 1617.4
1199.19 543.19 1611.7
1193.89 538.91 1599.0
1175.23 528.65 1568.5
1174.45 526.48 1562.1
1211.44 541.19 1605.7
1241.59 552.76 1640.1
1236.21 548.49 1627.4
1208.54 534.39 1585.5
1199.50 528.59 1568.4
1219.80 535.72 1589.5
1237.82 541.81 1607.6
1245.85 543.49 1612.6
1263.96 549.55 1630.5
1298.15 562.53 1669.0
1333.65 575.99 1709.0
1356.17 583.78 1732.1
1219.40 711.77 2128.2
1216.46 706.86 2113.5
1217.31 704.19 2105.5
1187.25 683.73 2044.4
1172.43 672.19 2009.9
1192.93 680.92 2036.0
1187.70 674.95 2018.1
1153.54 652.66 1951.5
1158.36 652.53 1951.1
1178.44 660.95 1976.3
1157.63 646.47 1933.0
1144.07 636.14 1902.1
1160.71 642.62 1921.5
1154.98 636.72 1903.8
1129.16 619.84 1853.3
1120.71 612.59 1831.7
1125.77 612.76 1832.2
1141.43 618.67 1849.9
1173.88 633.60 1894.5
1189.21 639.20 1911.2
1162.80 622.41 1861.0
1143.87 609.75 1823.2
1132.99 601.47 1798.4
1127.68 596.19 1782.6
1153.77 607.50 1816.4
1172.23 614.71 1838.0
1174.16 613.22 1833.6
1163.05 604.97 1808.9
1138.27 589.70 1763.2
1134.78 585.55 1750.8
1151.72 591.92 1769.9
1158.20 592.89 1772.8
1162.57 592.77 1772.4
1171.18 594.81 1778.5
1168.11 590.93 1766.9
1159.68 584.37 1747.3
1149.03 576.75 1724.5
1127.58 563.79 1685.7
1130.15 562.89 1683.1
1169.34 580.17 1734.7
1202.77 594.47 1777.5
1207.65 594.61 1777.9
1182.67 580.09 1734.5
1174.40 573.85 1715.8
1181.89 575.34 1720.3
1185.57 574.95 1719.1
1191.97 575.90 1722.0
1167.03 561.74 1679.6
1155.72 554.23 1657.2
1181.93 564.70 1688.5
1192.17 567.49 1696.8
1200.21 569.22 1702.0
1213.29 573.31 1714.2
1221.38 575.03 1719.4
1235.08 579.37 1732.3
1233.67 576.60 1724.1
1213.64 565.20 1690.0
1192.93 553.55 1655.1
1186.80 548.73 1640.7
1186.85 546.80 1634.9
1205.64 553.48 1654.9
1233.04 564.05 1686.5
1235.98 563.40 1684.6
1231.48 559.37 1672.5
1218.32 551.45 1648.9
1208.53 545.11 1629.9
1213.08 545.25 1630.3
1207.81 541.00 1617.6
1188.58 530.54 1586.3
1176.80 523.47 1565.2
1201.60 532.67 1592.7
1232.32 544.41 1627.8
1225.16 539.40 1612.8
1207.99 530.04 1584.8
1210.10 529.16 1582.2
1231.61 536.75 1604.9
1252.02 543.81 1626.0
1271.90 550.59 1646.3
1302.51 561.95 1680.3
1315.43 565.63 1691.3
1323.61 567.26 1696.1
1365.20 583.15 1743.6
1213.44 702.81 2117.8
1209.04 697.11 2100.7
1217.08 698.59 2105.1
1197.61 684.35 2062.2
1181.85 672.34 2026.0
1203.36 681.55 2053.8
1193.77 673.14 2028.4
1156.67 649.36 1956.8
1162.48 649.77 1958.0
1181.60 657.59 1981.6
1154.85 639.92 1928.3
1134.82 626.11 1886.7
1161.88 638.29 1923.4
1165.63 637.61 1921.4
1158.35 630.93 1901.2
1168.57 633.80 1909.9
1142.54 617.07 1859.5
1128.45 606.90 1828.8
1143.13 612.22 1844.9
1141.08 608.58 1833.9
1137.97 604.40 1821.3
1141.46 603.75 1819.3
1149.55 605.52 1824.7
1162.81 610.00 1838.2
1155.47 603.67 1819.1
1141.31 593.85 1789.5
1153.01 597.51 1800.5
1151.73 594.44 1791.3
1142.57 587.34 1769.9
1155.85 591.80 1783.3
1161.30 592.22 1784.6
1157.27 587.82 1771.3
1159.52 586.64 1767.8
1166.53 587.86 1771.4
1162.92 583.74 1759.0
1153.93 576.96 1738.6
1163.03 579.25 1745.5
1161.43 576.21 1736.4
1145.29 566.01 1705.6
1165.13 573.60 1728.5
1188.84 583.03 1756.9
1183.93 578.41 1743.0
1187.66 578.03 1741.8
1207.73 585.57 1764.5
1210.39 584.64 1761.8
1208.12 581.35 1751.8
1209.64 579.90 1747.5
1179.77 563.47 1698.0
1150.82 547.60 1650.1
1160.98 550.39 1658.5
1181.16 557.89 1681.1
1199.19 564.33 1700.5
1217.29 570.74 1719.9
1230.98 575.05 1732.9
1246.39 580.14 1748.2
1245.56 577.65 1740.7
1228.93 567.88 1711.2
1211.06 557.61 1680.3
1197.61 549.44 1655.7
1192.01 544.92 1642.1
1184.09 539.37 1625.3
1185.23 537.97 1621.1
1181.77 534.51 1610.7
1170.26 527.44 1589.4
1198.29 538.18 1621.7
1229.88 550.43 1658.7
1221.21 544.65 1641.2
1203.81 535.03 1612.2
1207.74 534.92 1611.9
1219.23 538.14 1621.6
1224.92 538.80 1623.6
1234.70 541.24 1631.0
1240.41 541.88 1632.9
1237.33 538.70 1623.3
1244.20 539.85 1626.8
1273.45 550.68 1659.4
1292.18 556.90 1678.2
1312.16 563.61 1698.4
1325.10 567.27 1709.4
1318.46 562.54 1695.2
1330.83 565.93 1705.4
1377.22 583.72 1759.0
1257.67 732.68 2225.2
1214.21 700.93 2128.8
1188.35 682.90 2074.0
1189.62 680.55 2066.9
1202.40 684.77 2079.7
1205.57 683.51 2075.9
1211.63 683.90 2077.1
1207.96 678.81 2061.6
1173.98 656.81 1994.8
1144.13 637.30 1935.6
1156.78 641.53 1948.4
1182.29 652.83 1982.7
1161.95 638.82 1940.2
1134.00 620.77 1885.3
1151.61 627.70 1906.4
1173.80 637.06 1934.8
1186.07 640.98 1946.7
1198.39 644.89 1958.6
1172.44 628.27 1908.1
1146.29 611.68 1857.7
1150.88 611.56 1857.4
1148.35 607.67 1845.6
1145.25 603.52 1832.9
1149.27 603.13 1831.8
1158.93 605.70 1839.6
1165.53 606.65 1842.5
1150.44 596.35 1811.2
1140.92 589.01 1788.9
1157.30 595.05 1807.2
1176.35 602.41 1829.6
1188.69 606.28 1841.3
1182.71 600.82 1824.8
1169.84 591.91 1797.7
1164.24 586.74 1782.0
1165.99 585.30 1777.6
1174.07 587.04 1782.9
1171.01 583.21 1771.3
1160.96 575.95 1749.2
1169.02 577.69 1754.5
1188.88 585.23 1777.4
1193.77 585.36 1777.8
1189.50 581.02 1764.6
1188.95 578.53 1757.1
1185.12 574.47 1744.7
1188.85 574.09 1743.6
1207.29 580.78 1763.9
1208.32 579.08 1758.7
1182.47 564.56 1714.6
1161.95 552.69 1678.6
1172.14 555.46 1687.0
1183.47 558.74 1697.0
1178.22 554.20 1683.2
1182.90 554.35 1683.6
1181.47 551.64 1675.4
1178.88 548.42 1665.6
1193.59 553.24 1680.2
1210.04 558.82 1697.2
1223.17 562.84 1709.4
1220.56 559.61 1699.6
1200.40 548.39 1665.5
1184.65 539.25 1637.8
1188.67 539.14 1637.4
1190.97 538.27 1634.8
1188.70 535.33 1625.9
1181.82 530.36 1610.8
1169.72 523.08 1588.7
1198.91 534.25 1622.6
1228.21 545.39 1656.4
1216.64 538.38 1635.1
1191.70 525.51 1596.0
1188.65 522.35 1586.4
1216.95 532.94 1618.6
1240.11 541.21 1643.7
1238.25 538.55 1635.6
1232.26 534.12 1622.2
1256.13 542.62 1648.0
1293.02 556.66 1690.6
1295.88 556.00 1688.7
1288.11 550.81 1672.9
1285.61 547.89 1664.0
1274.77 541.46 1644.5
1281.69 542.58 1647.9
1306.48 551.24 1674.2
1355.82 570.16 1731.7
1239.49 716.40 2193.1
1226.33 705.56 2159.9
1202.53 688.72 2108.3
1179.49 672.47 2058.6
1182.64 671.23 2054.8
1203.59 680.06 2081.8
1212.08 681.79 2087.1
1205.07 674.84 2065.8
1190.18 663.55 2031.3
1168.80 648.76 1986.0
1149.70 635.36 1945.0
1147.62 631.44 1933.0
1159.31 635.10 1944.2
1165.59 635.78 1946.3
1162.94 631.60 1933.5
1149.79 621.77 1903.4
1143.00 615.46 1884.1
1149.67 616.42 1887.0
1157.35 617.91 1891.5
1154.95 614.03 1879.7
1150.49 609.08 1864.5
1145.96 604.14 1849.4
1135.76 596.28 1825.3
1144.37 598.30 1831.5
1158.63 603.26 1846.7
1169.35 606.33 1856.1
1178.04 608.33 1862.2
1173.83 603.68 1848.0
1175.78 602.23 1843.6
1184.47 604.22 1849.7
1196.83 608.06 1861.4
1193.01 603.69 1848.0
1171.31 590.34 1807.2
1169.44 587.05 1797.1
1174.91 587.46 1798.3
1163.46 579.43 1773.8
1159.33 575.10 1760.5
1170.06 578.15 1769.8
1172.27 576.98 1766.3
1167.52 572.40 1752.3
1173.97 573.34 1755.1
1183.67 575.84 1762.8
1183.67 573.62 1756.0
1186.89 572.98 1754.0
1185.76 570.25 1745.7
1182.43 566.49 1734.1
1194.31 570.01 1744.9
1202.95 571.97 1750.9
1185.30 561.46 1718.7
1170.27 552.26 1690.6
1186.55 557.86 1707.7
1199.57 561.88 1720.0
1197.13 558.66 1710.2
1189.64 553.12 1693.2
1174.85 544.23 1666.0
1179.50 544.39 1666.5
1203.74 553.54 1694.5
1198.34 549.06 1680.8
1190.07 543.29 1663.1
1206.54 548.82 1680.1
1204.99 546.14 1671.9
1183.57 534.51 1636.3
1182.47 532.11 1628.9
1202.97 539.41 1651.3
1218.99 544.65 1667.3
1223.61 544.79 1667.7
1223.08 542.63 1661.1
1209.87 534.89 1637.4
1197.15 527.42 1614.5
1204.56 528.83 1618.9
1200.41 525.18 1607.7
1195.64 521.28 1595.8
1222.80 531.28 1626.4
1229.66 532.43 1629.9
1211.42 522.74 1600.2
1221.17 525.15 1607.6
1260.87 540.37 1654.2
1286.03 549.29 1681.5
1277.09 543.62 1664.2
1285.21 545.24 1669.1
1301.05 550.11 1684.0
1280.74 539.71 1652.2
1276.38 536.08 1641.1
1299.98 544.18 1665.8
1345.75 561.47 1718.8
1214.22 693.05 2138.5
1208.49 686.64 2118.8
1200.76 679.16 2095.7
1188.62 669.27 2065.2
1194.66 669.65 2066.4
1207.47 673.81 2079.2
1206.25 670.14 2067.9
1198.17 662.71 2044.9
1183.65 651.79 2011.2
1161.15 636.59 1964.3
1155.17 630.55 1945.7
1166.39 633.91 1956.1
1173.69 635.11 1959.8
1169.57 630.16 1944.5
1152.94 618.53 1908.6
1143.65 610.93 1885.1
1149.32 611.34 1886.4
1158.01 613.35 1892.6
1156.62 610.03 1882.4
1140.51 599.01 1848.4
1124.77 588.27 1815.2
1124.18 585.51 1806.7
1141.44 592.03 1826.8
1156.21 597.22 1842.8
1165.90 599.74 1850.6
1174.58 601.73 1856.8
1172.93 598.43 1846.6
1189.40 604.37 1864.9
1193.32 601.47 1856.0
1159.13 581.89 1795.6
1150.44 575.22 1775.0
1161.66 578.52 1785.1
1167.11 578.92 1786.4
1156.16 571.22 1762.6
1140.86 561.45 1732.5
1140.88 559.26 1725.7
1161.70 567.24 1750.3
1175.11 571.55 1763.6
1170.32 567.01 1749.6
1168.70 564.04 1740.5
1175.13 564.97 1743.3
1183.74 566.93 1749.4
1191.83 568.62 1754.6
1197.21 569.02 1755.8
1200.95 568.63 1754.6
1201.96 566.96 1749.5
1205.68 566.58 1748.3
1211.04 566.97 1749.5
1197.10 558.35 1722.9
1181.41 548.98 1694.0
1190.55 551.18 1700.8
1195.83 551.58 1702.0
1193.86 548.65 1693.0
1212.52 555.18 1713.1
1230.12 561.19 1731.7
1219.17 554.17 1710.0
1198.00 542.57 1674.2
1200.96 541.95 1672.3
1199.96 539.55 1664.9
1179.08 528.26 1630.1
1178.53 526.13 1623.5
1200.75 534.14 1648.2
1213.33 537.83 1659.6
1213.94 536.19 1654.5
1229.44 541.13 1669.8
1231.19 540.00 1666.3
1196.03 522.74 1613.0
1181.49 514.59 1587.9
1221.87 530.32 1636.4
1262.99 546.28 1685.7
1260.65 543.38 1676.7
1237.86 531.73 1640.8
1225.47 524.60 1618.8
1241.11 529.49 1633.8
1255.05 533.61 1646.6
1250.78 529.99 1635.4
1241.16 524.14 1617.3
1248.62 525.51 1621.6
1291.62 541.79 1671.8
1302.74 544.62 1680.6
1303.78 543.24 1676.3
1334.59 554.23 1710.2
1353.58 560.25 1728.8
1367.83 564.29 1741.2
1251.64 715.23 2224.8
1238.23 701.10 2180.8
1230.19 693.38 2156.8
1221.10 685.14 2131.2
1207.57 674.50 2098.1
1216.09 676.21 2103.4
1232.36 682.20 2122.1
1214.24 669.18 2081.5
1189.61 652.71 2030.3
1180.42 644.81 2005.8
1162.80 632.40 1967.1
1149.44 622.40 1936.1
1152.25 621.21 1932.3
1165.45 625.61 1946.0
1167.26 623.88 1940.6
1150.60 612.34 1904.7
1139.80 604.00 1878.8
1135.92 599.38 1864.4
1135.51 596.62 1855.9
1137.58 595.19 1851.4
1126.46 586.90 1825.6
1114.73 578.36 1799.0
1119.72 578.52 1799.5
1130.83 581.84 1809.9
1139.42 583.84 1816.1
1143.91 583.73 1815.7
1147.89 583.35 1814.6
1156.51 585.33 1820.7
1183.31 596.47 1855.4
1188.90 596.86 1856.6
1151.16 575.58 1790.4
1142.49 568.95 1769.8
1158.95 574.84 1788.1
1153.34 569.78 1772.4
1142.93 562.39 1749.4
1159.43 568.26 1767.6
1170.69 571.52 1777.8
1153.76 561.04 1745.2
1158.06 560.93 1744.8
1183.25 570.91 1775.9
1190.82 572.33 1780.3
1180.10 564.99 1757.5
1178.47 562.04 1748.3
1201.71 570.93 1775.9
1223.42 579.02 1801.1
1206.02 568.62 1768.7
1188.49 558.23 1736.4
1193.29 558.37 1736.9
1200.83 559.78 1741.3
1206.73 560.43 1743.3
1193.32 552.13 1717.5
1183.69 545.64 1697.3
1198.94 550.63 1712.8
1204.24 551.02 1714.0
1202.28 548.10 1704.9
1210.91 550.01 1710.9
1218.44 551.41 1715.2
1218.12 549.26 1708.5
1207.07 542.31 1686.9
1209.49 541.43 1684.2
1208.50 539.04 1676.7
1185.36 526.83 1638.7
1183.69 524.20 1630.6
1204.78 531.65 1653.7
1215.67 534.55 1662.8
1211.69 530.92 1651.5
1222.60 533.81 1660.5
1239.29 539.20 1677.2
1217.40 527.82 1641.8
1206.36 521.22 1621.3
1250.87 538.57 1675.3
1276.98 547.91 1704.3
1258.37 538.06 1673.7
1248.98 532.21 1655.5
1251.22 531.34 1652.8
1244.08 526.50 1637.7
1232.76 519.94 1617.3
1224.32 514.63 1600.8
1209.33 506.61 1575.9
1209.04 504.78 1570.2
1242.49 517.01 1608.2
1287.94 534.13 1661.5
1325.84 548.01 1704.6
1338.82 551.54 1715.6
1336.90 548.93 1707.5
1361.90 557.35 1733.7
1238.48 695.58 2181.3
1244.28 695.66 2181.5
1247.68 694.41 2177.6
1209.23 669.98 2101.0
1193.15 658.10 2063.7
1203.54 660.87 2072.4
1178.99 644.51 2021.1
1163.97 633.49 1986.6
1163.98 630.70 1977.8
1154.14 622.63 1952.5
1147.14 616.15 1932.2
1153.40 616.82 1934.3
1171.06 623.55 1955.4
1163.45 616.83 1934.3
1137.29 600.37 1882.7
1138.44 598.41 1876.6
1145.10 599.35 1879.5
1148.74 598.71 1877.5
1154.89 599.37 1879.6
1125.57 581.70 1824.2
1111.16 569.47 1785.8
1131.46 577.47 1810.9
1134.41 576.58 1808.1
1134.25 574.13 1800.4
1133.04 571.16 1791.1
1138.51 571.58 1792.4
1151.77 575.88 1805.9
1143.72 569.55 1786.0
1135.60 563.22 1766.2
1154.64 570.37 1788.6
1170.09 575.68 1805.3
1163.46 570.14 1787.9
1159.40 565.90 1774.6
1183.38 575.32 1804.1
1196.84 579.57 1817.5
1181.02 569.67 1786.4
1164.03 559.28 1753.8
1166.73 558.40 1751.1
1189.31 567.00 1778.0
1193.66 566.87 1777.7
1185.58 560.87 1758.8
1203.97 567.39 1779.3
1225.18 572.99 1796.8
1198.95 558.60 1751.7
1195.56 554.92 1740.2
1194.32 552.26 1731.8
1191.40 548.84 1721.1
1196.16 548.98 1721.5
1203.68 550.38 1725.9
1204.01 548.49 1720.0
1193.18 541.55 1698.3
1191.75 538.92 1690.0
1199.80 540.57 1695.2
1200.57 538.94 1690.1
1192.90 533.55 1673.2
1195.86 532.94 1671.2
1211.80 538.09 1687.4
1229.49 543.98 1705.9
1225.12 540.11 1693.7
1198.51 526.49 1651.0
1195.13 523.13 1640.5
1203.71 525.02 1646.4
1196.84 520.18 1631.2
1224.37 530.27 1662.9
1257.76 542.82 1702.2
1239.36 533.01 1671.5
1232.41 528.18 1656.3
1237.59 528.55 1657.5
1222.42 520.27 1631.5
1237.45 524.85 1645.9
1262.44 533.61 1673.3
1272.90 536.19 1681.4
1273.42 534.58 1676.4
1252.18 523.87 1642.8
1233.17 514.17 1612.4
1225.86 509.40 1597.4
1236.25 511.98 1605.5
1254.95 517.98 1624.3
1279.66 526.42 1650.8
1314.57 538.98 1690.2
1325.75 541.75 1698.9
1328.58 541.11 1696.9
1357.77 551.17 1728.4
1246.01 700.52 2214.8
1225.80 686.00 2168.8
1220.15 679.72 2149.0
1239.26 687.23 2172.7
1247.44 688.63 2177.2
1214.74 667.56 2110.5
1172.59 641.51 2028.2
1156.27 629.76 1991.0
1153.41 625.41 1977.3
1159.76 626.07 1979.4
1169.54 628.56 1987.3
1170.50 626.32 1980.2
1172.92 624.87 1975.6
1189.64 631.03 1995.0
1187.59 627.21 1983.0
1162.61 611.37 1932.9
1142.42 598.18 1891.2
1149.10 599.10 1894.1
1161.31 602.89 1906.1
1168.53 604.07 1909.8
1181.31 608.10 1922.6
1158.14 593.67 1876.9
1120.04 571.74 1807.6
1123.51 571.12 1805.6
1139.25 576.72 1823.3
1138.63 574.02 1814.8
1141.57 573.14 1812.0
1142.44 571.22 1806.0
1142.24 568.79 1798.3
1149.80 570.23 1802.8
1151.64 568.83 1798.4
1153.47 567.43 1794.0
1163.13 569.89 1801.8
1169.14 570.54 1803.8
1155.12 561.45 1775.1
1146.28 554.94 1754.5
1165.46 562.00 1776.8
1174.61 564.18 1783.7
1167.79 558.71 1766.4
1158.23 551.97 1745.1
1164.67 552.88 1748.0
1191.02 563.19 1780.6
1187.29 559.26 1768.2
1172.15 550.01 1738.9
1180.21 551.67 1744.2
1200.25 558.90 1767.0
1212.74 562.56 1778.6
1207.23 557.89 1763.8
1208.24 556.25 1758.6
1211.43 555.62 1756.6
1212.40 553.98 1751.5
1221.08 555.86 1757.4
1210.95 549.20 1736.4
1192.97 539.05 1704.2
1192.13 536.68 1696.8
1199.06 537.82 1700.4
1197.62 535.20 1692.1
1187.73 528.84 1672.0
1192.95 529.23 1673.2
1208.87 534.36 1689.4
1210.72 533.24 1685.9
1214.83 533.13 1685.5
1223.47 534.99 1691.4
1209.93 527.18 1666.7
1198.01 520.13 1644.5
1198.60 518.54 1639.4
1203.17 518.68 1639.9
1241.65 533.38 1686.3
1264.15 541.15 1710.9
1235.94 527.22 1666.8
1216.25 517.01 1634.6
1210.36 512.72 1621.0
1212.56 511.88 1618.4
1242.72 522.80 1652.9
1264.82 530.27 1676.5
1272.36 531.60 1680.7
1280.50 533.18 1685.7
1266.90 525.72 1662.1
1262.64 522.18 1650.9
1271.93 524.24 1657.4
1254.60 515.36 1629.4
1245.48 509.89 1612.1
1256.50 512.69 1620.9
1274.70 518.38 1638.9
1313.85 532.53 1683.6
1351.95 546.15 1726.7
1242.27 695.90 2218.3
1202.75 670.66 2137.9
1205.14 668.91 2132.3
1219.90 674.01 2148.6
1221.33 671.73 2141.3
1213.14 664.21 2117.3
1189.92 648.56 2067.4
1155.87 627.18 1999.3
1166.14 629.92 2008.0
1190.06 639.99 2040.1
1181.40 632.52 2016.3
1176.56 627.16 1999.2
1172.15 622.06 1983.0
1170.13 618.28 1970.9
1179.43 620.48 1977.9
1170.89 613.32 1955.1
1168.73 609.56 1943.1
1170.52 607.87 1937.7
1156.25 597.89 1905.9
1148.89 591.56 1885.7
1153.54 591.44 1885.3
1162.24 593.38 1891.5
1159.29 589.39 1878.8
1139.49 576.90 1839.0
1154.25 581.93 1855.0
1181.35 593.13 1890.7
1153.63 576.82 1838.7
1130.35 562.85 1794.2
1153.39 571.97 1823.3
1173.96 579.79 1848.2
1169.14 575.06 1833.1
1157.48 567.03 1807.5
1144.68 558.49 1780.3
1140.68 554.31 1767.0
1161.88 562.35 1792.6
1163.65 560.97 1788.2
1154.83 554.50 1767.6
1174.57 561.75 1790.7
1183.75 563.91 1797.6
1176.42 558.22 1779.5
1171.69 553.80 1765.4
1184.60 557.73 1777.9
1194.34 560.14 1785.6
1174.42 548.67 1749.0
1167.36 543.27 1731.8
1184.09 548.94 1749.9
1190.00 549.58 1751.9
1189.38 547.20 1744.3
1185.44 543.33 1732.0
1188.04 542.46 1729.2
1201.06 546.35 1741.6
1210.82 548.72 1749.2
1199.61 541.61 1726.5
1169.47 526.04 1676.9
1184.14 530.67 1691.6
1215.57 542.74 1730.1
1225.36 545.10 1737.6
1225.65 543.24 1731.7
1200.68 530.23 1690.2
1191.30 524.17 1670.9
1199.33 525.79 1676.1
1194.94 521.98 1663.9
1200.71 522.61 1665.9
1210.45 524.96 1673.4
1218.51 526.57 1678.6
1228.29 528.91 1686.0
1231.24 528.30 1684.1
1238.76 529.64 1688.4
1242.26 529.27 1687.2
1229.05 521.81 1663.4
1226.73 519.00 1654.4
1235.37 520.84 1660.3
1233.01 518.03 1651.4
1237.59 518.16 1651.7
1246.83 520.23 1658.3
1245.57 517.92 1651.0
1253.07 519.25 1655.2
1261.17 520.82 1660.2
1243.99 511.98 1632.1
1237.32 507.51 1617.8
1270.18 519.23 1655.2
1278.30 520.79 1660.1
1253.20 508.85 1622.1
1247.00 504.64 1608.6
1259.22 507.89 1619.0
1289.40 518.33 1652.3
1329.26 532.58 1697.7
1371.06 547.52 1745.3
1248.17 693.43 2228.9
1219.53 674.39 2167.7
1231.00 677.62 2178.1
1209.16 662.55 2129.6
1175.15 640.99 2060.3
1180.23 640.85 2059.9
1168.92 631.85 2030.9
1160.39 624.43 2007.1
1195.90 640.66 2059.3
1218.95 650.11 2089.6
1209.41 642.16 2064.1
1184.57 626.21 2012.8
1160.51 610.80 1963.3
1139.22 596.97 1918.8
1128.63 588.85 1892.7
1141.76 593.12 1906.5
1160.92 600.47 1930.1
1175.67 605.49 1946.2
1172.93 601.50 1933.4
1167.62 596.23 1916.5
1174.86 597.39 1920.2
1176.04 595.46 1914.0
1165.00 587.40 1888.1
1154.37 579.60 1863.0
1178.37 589.19 1893.8
1204.54 599.77 1927.8
1176.87 583.57 1875.8
1140.24 563.08 1809.9
1149.88 565.52 1817.7
1174.59 575.31 1849.2
1174.97 573.16 1842.3
1165.41 566.19 1819.9
1153.66 558.22 1794.3
1150.74 554.57 1782.6
1173.55 563.31 1810.6
1185.39 566.72 1821.6
1186.14 564.83 1815.5
1190.59 564.70 1815.1
1184.38 559.55 1798.5
1196.79 563.19 1810.3
1211.38 567.83 1825.2
1194.89 557.93 1793.3
1175.59 546.78 1757.5
1184.21 548.67 1763.6
1205.31 556.30 1788.1
1197.73 550.68 1770.0
1180.28 540.59 1737.6
1177.45 537.24 1726.8
1171.83 532.65 1712.1
1178.78 533.79 1715.7
1193.98 538.64 1731.3
1206.48 542.24 1742.9
1197.46 536.17 1723.4
1159.54 517.27 1662.6
1165.85 518.16 1665.5
1217.30 539.03 1732.6
1244.97 549.25 1765.5
1240.27 545.18 1752.3
1211.95 530.78 1706.1
1196.97 522.31 1678.9
1201.07 522.20 1678.5
1201.76 520.62 1673.4
1213.21 523.69 1683.3
1225.83 527.24 1694.7
1235.64 529.56 1702.2
1230.62 525.53 1689.2
1218.68 518.59 1666.9
1214.12 514.82 1654.8
1205.49 509.36 1637.2
1206.02 507.80 1632.2
1218.67 511.33 1643.6
1238.88 518.00 1665.0
1247.54 519.81 1670.8
1235.28 512.92 1648.7
1227.02 507.73 1632.0
1242.67 512.44 1647.1
1267.74 520.99 1674.6
1260.60 516.29 1659.5
1228.70 501.51 1612.0
1223.17 497.56 1599.3
1258.97 510.39 1640.5
1284.24 518.89 1667.8
1277.54 514.45 1653.6
1259.49 505.48 1624.8
1256.84 502.74 1615.9
1273.28 507.62 1631.6
1297.55 515.58 1657.2
1357.91 537.79 1728.6
1264.92 696.88 2258.8
1265.68 694.08 2249.7
1254.51 684.80 2219.6
1209.84 657.40 2130.8
1178.21 637.31 2065.7
1186.18 638.71 2070.3
1186.44 635.98 2061.4
1189.57 634.80 2057.6
1199.48 637.22 2065.4
1197.24 633.20 2052.4
1187.61 625.33 2026.9
1162.19 609.26 1974.8
1152.31 601.42 1949.4
1145.77 595.40 1929.9
1129.25 584.26 1893.8
1136.43 585.43 1897.6
1154.08 591.96 1918.7
1166.81 595.93 1931.6
1165.05 592.48 1920.4
1160.21 587.51 1904.3
1171.47 590.70 1914.6
1176.68 590.82 1915.0
1174.27 587.13 1903.1
1171.81 583.45 1891.1
1173.90 582.06 1886.6
1180.07 582.69 1888.7
1179.56 580.03 1880.1
1168.70 572.33 1855.1
1162.91 567.16 1838.3
1172.63 569.56 1846.1
1160.51 561.38 1819.6
1140.97 549.70 1781.7
1165.27 559.14 1812.3
1198.08 572.57 1855.9
1184.71 563.92 1827.8
1160.14 550.03 1782.8
1163.47 549.41 1780.8
1171.03 550.80 1785.3
1180.74 553.18 1793.0
1209.17 564.28 1829.0
1229.15 571.36 1852.0
1217.00 563.51 1826.5
1195.05 551.20 1786.6
1199.95 551.33 1787.0
1209.73 553.68 1794.6
1191.29 543.15 1760.5
1172.18 532.40 1725.7
1167.68 528.34 1712.5
1183.93 533.66 1729.8
1212.86 544.64 1765.3
1212.20 542.30 1757.8
1208.20 538.49 1745.4
1222.40 542.78 1759.3
1207.82 534.31 1731.9
1173.67 517.28 1676.7
1184.47 520.12 1685.9
1223.24 535.17 1734.6
1230.25 536.26 1738.2
1212.56 526.62 1706.9
1208.27 522.85 1694.7
1214.65 523.71 1697.5
1217.64 523.10 1695.5
1214.95 520.07 1685.7
1213.36 517.53 1677.5
1211.17 514.75 1668.4
1193.52 505.44 1638.3
1208.40 509.93 1652.8
1230.22 517.30 1676.7
1209.54 506.81 1642.7
1197.96 500.20 1621.3
1195.56 497.45 1612.4
1201.23 498.07 1614.4
1230.73 508.53 1648.3
1239.37 510.33 1654.1
1224.12 502.31 1628.1
1232.74 504.11 1634.0
1241.97 506.15 1640.6
1219.50 495.29 1605.4
1222.22 494.71 1603.5
1252.67 505.31 1637.9
1266.07 509.00 1649.8
1267.07 507.68 1645.5
1273.99 508.74 1649.0
1270.21 505.53 1638.6
1273.54 505.17 1637.4
1296.60 512.61 1661.5
1310.14 516.25 1673.3
1357.94 533.32 1728.6
1254.30 685.22 2239.8
1243.18 676.01 2209.7
1220.99 660.90 2160.3
1211.95 653.02 2134.6
1214.31 651.31 2129.0
1209.90 646.01 2111.7
1199.16 637.39 2083.5
1194.11 631.86 2065.4
1196.75 630.43 2060.7
1178.41 618.01 2020.1
1151.12 601.03 1964.6
1138.81 591.98 1935.0
1142.61 591.35 1933.0
1152.82 594.03 1941.7
1154.14 592.13 1935.5
1146.99 585.91 1915.2
1150.72 585.28 1913.2
1161.45 588.20 1922.7
1159.16 584.53 1910.7
1143.23 574.05 1876.4
1143.32 571.66 1868.6
1167.69 581.38 1900.4
1183.54 586.80 1918.1
1176.01 580.62 1897.9
1174.02 577.23 1886.8
1181.22 578.36 1890.5
1182.77 576.72 1885.2
1179.65 572.83 1872.5
1181.13 571.20 1867.1
1176.36 566.58 1852.0
1150.19 551.72 1803.4
1131.13 540.38 1766.4
1156.98 550.50 1799.5
1179.80 559.10 1827.6
1157.93 546.55 1786.5
1155.99 543.45 1776.4
1179.97 552.53 1806.1
1187.05 553.64 1809.7
1197.87 556.49 1819.0
1186.82 549.19 1795.2
1168.70 538.70 1760.9
1183.77 543.52 1776.6
1188.12 543.40 1776.3
1179.50 537.38 1756.6
1176.21 533.82 1744.9
1181.04 533.95 1745.4
1185.85 534.09 1745.8
1185.21 531.77 1738.2
1204.25 538.26 1759.5
1230.50 547.92 1791.0
1228.23 544.85 1781.0
1206.60 533.25 1743.1
1202.55 529.48 1730.7
1212.87 532.04 1739.1
1204.30 526.32 1720.4
1187.30 516.98 1689.9
1199.26 520.27 1700.6
1217.98 526.45 1720.8
1211.48 521.73 1705.4
1209.43 518.96 1696.3
1216.38 520.05 1699.9
1206.92 514.14 1680.6
1190.58 505.36 1651.9
1205.43 509.82 1666.5
1219.75 514.04 1680.3
1205.54 506.24 1654.8
1223.89 512.12 1674.0
1253.79 522.78 1708.9
1241.21 515.72 1685.8
1223.93 506.75 1656.5
1215.22 501.39 1638.9
1202.97 494.60 1616.7
1213.89 497.36 1625.7
1238.22 505.57 1652.6
1238.13 503.79 1646.8
1240.94 503.20 1644.8
1243.15 502.37 1642.1
1221.85 492.07 1608.5
1225.75 491.97 1608.1
1263.89 505.55 1652.5
1285.60 512.50 1675.3
1271.23 505.07 1650.9
1262.11 499.76 1633.6
1263.06 498.47 1629.4
1272.35 500.46 1635.9
1305.58 511.82 1673.0
1329.33 519.41 1697.8
1332.75 519.02 1696.6
1362.64 528.92 1728.9
1239.89 671.61 2214.1
1218.75 657.11 2166.3
1230.23 660.26 2176.7
1254.17 670.03 2208.9
1228.40 653.28 2153.7
1196.64 633.51 2088.5
1191.63 628.02 2070.4
1193.80 626.34 2064.9
1217.81 636.09 2097.0
1221.96 635.42 2094.8
1176.21 608.92 2007.4
1145.32 590.32 1946.1
1151.60 590.96 1948.2
1164.81 595.12 1961.9
1180.54 600.54 1979.8
1188.89 602.16 1985.2
1181.78 595.98 1964.8
1183.60 594.34 1959.4
1182.38 591.19 1949.0
1167.52 581.27 1916.3
1148.48 569.37 1877.1
1154.13 569.76 1878.3
1185.19 582.64 1920.8
1193.47 584.25 1926.1
1182.32 576.38 1900.2
1181.34 573.51 1890.7
1176.19 568.65 1874.7
1167.88 562.31 1853.8
1178.65 565.17 1863.2
1180.62 563.81 1858.7
1169.03 556.00 1833.0
1163.60 551.18 1817.1
1164.40 549.33 1811.0
1162.02 546.01 1800.0
1162.23 543.92 1793.2
1181.97 550.96 1816.3
1193.84 554.28 1827.3
1188.73 549.73 1812.3
1194.76 550.34 1814.3
1179.41 541.14 1784.0
1153.22 527.06 1737.6
1161.26 528.67 1742.9
1158.00 525.14 1731.2
1141.72 515.76 1700.3
1160.55 522.25 1721.7
1187.07 532.14 1754.3
1185.91 529.59 1745.9
1179.25 524.61 1729.5
1188.42 526.69 1736.3
1204.75 531.91 1753.5
1230.50 541.23 1784.3
1236.48 541.83 1786.2
1216.99 531.30 1751.5
1210.70 526.59 1736.0
1208.24 523.57 1726.1
1197.37 516.95 1704.2
1210.48 520.68 1716.5
1230.92 527.54 1739.1
1208.14 515.89 1700.7
1189.17 505.94 1667.9
1204.55 510.62 1683.4
1202.98 508.12 1675.1
1185.49 498.93 1644.8
1199.19 502.88 1657.9
1220.91 510.17 1681.9
1213.56 505.29 1665.8
1211.87 502.80 1657.6
1222.80 505.54 1666.6
1222.81 503.76 1660.8
1218.75 500.33 1649.4
1229.70 503.06 1658.4
1236.03 503.89 1661.2
1222.61 496.68 1637.4
1220.75 494.21 1629.3
1240.47 500.47 1649.9
1263.19 507.88 1674.3
1279.53 512.69 1690.2
1272.40 508.09 1675.0
1244.60 495.30 1632.9
1250.90 496.12 1635.6
1285.03 507.93 1674.5
1284.28 505.93 1667.9
1277.57 501.60 1653.6
1282.72 501.93 1654.7
1283.09 500.41 1649.7
1306.18 507.72 1673.8
1344.34 520.82 1717.0
1363.41 526.47 1735.6
1365.08 525.37 1732.0
1304.28 710.31 2361.9
1287.47 697.88 2320.5
1239.64 665.73 2213.6
1222.27 653.38 2172.6
1235.68 657.52 2186.3
1237.66 655.57 2179.8
1191.21 628.09 2088.5
1171.80 615.06 2045.2
1179.25 616.18 2048.9
1183.80 615.79 2047.6
1210.70 626.97 2084.8
1232.38 635.36 2112.6
1202.78 617.36 2052.8
1176.38 601.15 1998.9
1186.71 603.77 2007.6
1192.13 603.88 2008.0
1198.54 604.48 2010.0
1186.54 595.84 1981.2
1159.96 579.98 1928.5
1174.22 584.59 1943.8
1185.52 587.70 1954.2
1176.20 580.59 1930.5
1162.74 571.52 1900.4
1146.63 561.22 1866.1
1156.32 563.58 1874.0
1184.92 575.11 1912.3
1192.68 576.46 1916.8
1185.55 570.64 1897.4
1173.72 562.61 1870.7
1167.46 557.31 1853.1
1179.79 560.88 1865.0
1182.28 559.77 1861.3
1169.64 551.54 1833.9
1177.28 552.89 1838.4
1190.17 556.69 1851.1
1191.02 554.85 1845.0
1192.89 553.50 1840.5
1192.63 551.17 1832.7
1184.91 545.43 1813.6
1178.17 540.19 1796.2
1182.57 540.07 1795.8
1204.62 547.98 1822.1
1213.35 549.80 1828.2
1203.81 543.35 1806.7
1182.86 531.83 1768.4
1163.39 521.06 1732.6
1180.67 526.76 1751.5
1202.36 534.38 1776.9
1194.14 528.70 1758.0
1180.39 520.63 1731.2
1181.34 519.07 1726.0
1187.21 519.69 1728.0
1204.11 525.10 1746.0
1231.57 535.06 1779.2
1232.55 533.49 1773.9
1210.74 522.10 1736.1
1192.69 512.42 1703.8
1203.55 515.17 1713.0
1240.74 529.14 1759.5
1255.09 533.30 1773.3
1225.61 518.87 1725.3
1191.45 502.57 1671.1
1191.01 500.57 1664.4
1206.40 505.21 1679.9
1204.81 502.73 1671.6
1211.73 503.80 1675.2
1225.50 507.71 1688.2
1217.00 502.39 1670.5
1215.90 500.16 1663.1
1224.53 501.93 1669.0
1223.97 499.93 1662.3
1219.33 496.29 1650.2
1228.55 498.29 1656.9
1244.17 502.87 1672.1
1239.47 499.23 1660.0
1231.24 494.20 1643.3
1245.15 498.06 1656.1
1253.24 499.57 1661.1
1255.48 498.75 1658.4
1261.82 499.56 1661.1
1247.54 492.23 1636.7
1234.35 485.37 1613.9
1247.72 488.97 1625.9
1276.57 498.59 1657.9
1303.14 507.26 1686.7
1302.38 505.27 1680.1
1295.03 500.75 1665.0
1311.57 505.46 1680.7
1342.56 515.68 1714.7
1291.44 697.26 2338.6
1235.86 661.04 2217.2
1237.96 659.10 2210.6
1244.30 659.42 2211.7
1227.31 647.43 2171.5
1200.11 630.19 2113.7
1171.24 612.24 2053.5
1167.15 607.34 2037.0
1166.37 604.20 2026.5
1162.15 599.32 2010.1
1175.86 603.68 2024.8
1183.77 605.04 2029.3
1184.83 602.90 2022.1
1185.86 600.77 2015.0
1197.71 604.11 2026.2
1203.65 604.46 2027.4
1195.21 597.61 2004.4
1167.77 581.36 1949.9
1147.59 568.85 1907.9
1167.83 576.40 1933.3
1180.12 579.98 1945.3
1173.30 574.17 1925.8
1150.71 560.73 1880.7
1126.43 546.58 1833.3
1129.44 545.74 1830.4
1151.34 553.99 1858.1
1172.30 561.73 1884.1
1178.98 562.59 1886.9
1168.15 555.11 1861.9
1161.87 549.86 1844.2
1175.74 554.14 1858.6
1178.73 553.28 1855.7
1175.98 549.75 1843.9
1193.58 555.71 1863.9
1198.66 555.83 1864.3
1190.58 549.87 1844.3
1179.79 542.70 1820.2
1167.84 535.07 1794.6
1180.74 538.83 1807.2
1194.74 543.06 1821.5
1186.38 537.14 1801.6
1196.14 539.43 1809.3
1207.53 542.44 1819.4
1197.96 536.05 1797.9
1201.81 535.69 1796.7
1206.19 535.57 1796.3
1191.57 527.04 1767.7
1181.74 520.69 1746.4
1188.19 521.54 1749.3
1187.55 519.27 1741.6
1182.48 515.09 1727.6
1184.50 514.03 1724.1
1184.31 512.01 1717.3
1194.59 514.52 1725.7
1217.64 522.50 1752.5
1216.90 520.23 1744.9
1202.75 512.28 1718.2
1217.54 516.67 1732.9
1240.23 524.36 1758.7
1240.54 522.57 1752.7
1233.52 517.72 1736.4
1221.93 510.99 1713.9
1206.85 502.86 1686.6
1207.55 501.33 1681.5
1215.05 502.63 1685.8
1228.83 506.51 1698.8
1248.93 512.95 1720.5
1247.35 510.48 1712.2
1234.27 503.34 1688.2
1232.02 500.64 1679.2
1237.81 501.23 1681.1
1240.14 500.41 1678.4
1251.14 503.08 1687.4
1267.98 508.07 1704.1
1262.75 504.22 1691.2
1255.73 499.69 1676.0
1257.43 498.63 1672.4
1253.83 495.50 1661.9
1238.45 487.75 1635.9
1227.69 481.86 1616.2
1236.91 483.83 1622.8
1247.33 486.25 1630.9
1252.45 486.59 1632.1
1273.00 492.91 1653.3
1294.22 499.45 1675.2
1287.48 495.18 1660.9
1289.65 494.37 1658.1
1315.77 502.70 1686.1
1359.98 517.87 1737.0
1296.27 697.05 2358.4
1270.16 679.80 2300.1
1236.76 658.83 2229.1
1230.41 652.41 2207.4
1254.26 661.97 2239.7
1264.93 664.52 2248.4
1251.80 654.61 2214.9
1237.11 643.97 2178.9
1221.78 633.11 2142.1
1202.94 620.52 2099.5
1185.85 608.95 2060.4
1152.60 589.22 1993.6
1139.03 579.69 1961.3
1169.27 592.43 2004.5
1191.35 600.94 2033.3
1197.31 601.29 2034.5
1211.66 605.83 2049.8
1201.82 598.29 2024.3
1178.48 584.11 1976.3
1169.88 577.34 1953.4
1168.19 574.02 1942.2
1175.47 575.12 1945.9
1175.72 572.79 1938.0
1175.43 570.21 1929.3
1159.92 560.30 1895.8
1125.50 541.38 1831.7
1119.85 536.40 1814.9
1132.53 540.20 1827.7
1145.76 544.24 1841.4
1155.95 546.80 1850.1
1150.20 541.83 1833.3
1141.27 535.41 1811.5
1151.97 538.21 1821.0
1175.18 546.82 1850.1
1191.72 552.26 1868.5
1179.54 544.40 1842.0
1155.71 531.25 1797.5
1171.19 536.21 1814.2
1184.08 539.94 1826.9
1173.73 533.09 1803.7
1189.83 538.26 1821.2
1209.72 545.09 1844.3
1205.67 541.13 1830.9
1194.06 533.82 1806.1
1183.44 527.00 1783.1
1185.10 525.69 1778.6
1198.09 529.39 1791.2
1197.59 527.12 1783.5
1176.96 516.05 1746.0
1171.99 511.90 1732.0
1183.87 515.12 1742.9
1182.11 512.40 1733.7
1176.48 508.02 1718.9
1192.79 513.13 1736.1
1208.06 517.74 1751.8
1190.75 508.41 1720.2
1186.08 504.53 1707.0
1202.48 509.60 1724.2
1203.89 508.31 1719.8
1216.46 511.72 1731.4
1236.91 518.41 1754.0
1239.46 517.58 1751.2
1235.81 514.17 1739.7
1225.90 508.19 1719.4
1211.39 500.36 1692.9
1212.67 499.08 1688.6
1219.61 500.13 1692.2
1223.72 500.01 1691.8
1232.39 501.76 1697.7
1226.18 497.46 1683.1
1210.74 489.45 1656.0
1221.09 491.89 1664.3
1240.70 498.03 1685.1
1241.88 496.75 1680.7
1249.41 498.02 1685.0
1264.50 502.28 1699.4
1256.94 497.54 1683.4
1259.82 496.95 1681.4
1271.46 499.82 1691.1
1261.45 494.17 1672.0
1239.61 483.96 1637.5
1244.15 484.07 1637.8
1267.58 491.51 1663.0
1276.89 493.44 1669.5
1279.70 492.86 1667.6
1287.84 494.32 1672.5
1296.00 495.79 1677.5
1302.38 496.56 1680.1
1318.94 501.20 1695.8
1315.16 498.10 1685.3
1325.17 500.23 1692.5
1376.70 517.97 1752.5
