ply
format ascii 1.0
element vertex 2312
property float x
property float y
property float z
end_header
36.77 376.93 1773.0
42.35 385.85 1815.0
48.70 399.33 1878.4
52.84 393.90 1852.9
56.12 383.48 1803.8
62.08 391.56 1841.8
67.95 397.96 1872.0
72.15 394.40 1855.2
77.76 398.51 1874.5
83.73 403.87 1899.7
87.96 400.71 1884.9
92.11 397.55 1870.0
98.82 405.18 1905.9
136.92 449.09 2112.5
-195.62 466.03 2219.2
-169.18 456.78 2175.1
-158.28 442.11 2105.3
-151.93 439.52 2093.0
-149.68 449.03 2138.2
-143.57 447.26 2129.8
-134.65 436.26 2077.4
-126.79 427.92 2037.7
-120.19 423.26 2015.5
-114.14 420.25 2001.2
-106.25 409.84 1951.6
-99.23 401.89 1913.7
-93.61 399.06 1900.3
-87.19 392.33 1868.3
-81.06 386.22 1839.1
-77.52 392.42 1868.7
-75.07 405.40 1930.5
-70.75 409.34 1949.2
-63.86 397.87 1894.6
-57.43 387.63 1845.9
-53.31 392.59 1869.5
-49.33 399.60 1902.9
-44.97 404.76 1927.4
-39.51 400.06 1905.0
-33.31 385.49 1835.7
-27.99 377.90 1799.5
-23.06 373.60 1779.0
-18.27 369.91 1761.5
-13.96 376.91 1794.8
-9.39 380.41 1811.5
-4.68 378.77 1803.7
0.00 387.19 1843.8
4.80 388.43 1849.6
9.25 374.65 1784.1
18.09 366.42 1744.8
23.37 378.53 1802.5
28.21 380.78 1813.2
32.59 377.06 1795.5
36.93 373.96 1780.8
42.62 383.60 1826.7
48.19 390.36 1858.8
51.25 377.39 1797.1
55.60 375.31 1787.2
62.93 392.12 1867.2
68.16 394.34 1877.8
71.50 386.09 1838.5
76.87 389.13 1853.0
82.52 393.20 1872.4
87.32 392.95 1871.2
92.31 393.52 1873.9
99.28 402.09 1914.7
116.93 430.50 2050.0
124.26 437.62 2083.9
131.23 442.89 2109.0
-161.74 446.19 2151.3
-154.21 440.60 2124.3
-150.16 444.93 2145.2
-142.59 438.72 2115.3
-133.77 428.05 2063.8
-125.76 419.20 2021.2
-120.54 419.27 2021.5
-115.54 420.14 2025.7
-109.13 415.73 2004.4
-103.39 413.56 1993.9
-96.50 406.31 1959.0
-88.97 395.40 1906.4
-82.78 389.56 1878.2
-79.30 396.50 1911.7
-74.85 399.18 1924.6
-68.73 392.72 1893.5
-63.59 391.34 1886.8
-58.71 391.37 1886.9
-54.32 395.05 1904.7
-50.10 400.76 1932.2
-45.04 400.38 1930.4
-39.05 390.45 1882.5
-33.21 379.51 1829.8
-28.13 375.05 1808.3
-23.25 372.02 1793.7
-18.48 369.60 1782.0
-13.83 368.79 1778.1
-9.13 365.14 1760.5
-4.56 364.74 1758.6
0.00 374.08 1803.6
4.74 379.16 1828.1
9.23 369.20 1780.1
18.19 363.71 1753.6
23.28 372.43 1795.6
27.87 371.60 1791.7
32.30 369.15 1779.8
36.83 368.32 1775.8
41.69 370.53 1786.5
46.19 369.50 1781.5
50.91 370.28 1785.3
57.37 382.44 1843.9
62.73 386.06 1861.4
65.53 374.46 1805.4
69.71 371.78 1792.5
76.18 380.88 1836.4
82.05 386.11 1861.6
87.05 386.88 1865.3
93.17 392.31 1891.5
101.72 406.86 1961.7
117.10 425.82 2053.0
127.48 443.39 2137.8
-178.41 454.67 2219.9
-171.25 450.96 2201.8
-160.43 437.03 2133.8
-152.30 429.71 2098.0
-148.05 433.19 2115.0
-140.95 428.26 2090.9
-132.50 418.71 2044.4
-126.80 417.38 2037.8
-123.40 423.85 2069.4
-118.22 424.51 2072.7
-111.53 419.56 2048.5
-105.32 416.01 2031.2
-97.95 407.25 1988.4
-90.88 398.88 1947.5
-85.15 395.71 1932.1
-80.03 395.15 1929.3
-74.31 391.38 1910.9
-69.15 390.22 1905.2
-64.81 393.86 1923.0
-58.61 385.87 1884.0
-53.01 380.68 1858.7
-49.41 390.34 1905.8
-44.86 393.77 1922.6
-39.19 386.97 1889.4
-33.61 379.37 1852.3
-28.69 377.78 1844.5
-23.91 377.79 1844.6
-19.05 376.20 1836.8
-14.29 376.21 1836.8
-9.34 368.79 1800.6
-4.62 365.18 1783.0
0.00 376.22 1836.9
4.85 383.44 1872.1
9.44 373.00 1821.2
13.72 361.36 1764.3
18.35 362.35 1769.2
23.17 366.16 1787.7
27.81 366.14 1787.7
32.34 364.92 1781.7
37.24 367.71 1795.4
42.60 373.91 1825.6
46.97 371.08 1811.8
51.44 369.45 1803.8
57.21 376.64 1839.0
61.71 375.01 1831.0
65.85 371.57 1814.2
71.76 377.95 1845.3
77.64 383.33 1871.6
82.74 384.49 1877.2
88.51 388.45 1896.6
95.54 397.23 1939.4
112.28 422.37 2062.2
118.94 427.12 2085.4
128.77 442.28 2159.4
-179.76 452.30 2236.7
-170.73 443.89 2195.1
-161.10 433.30 2142.7
-154.22 429.62 2124.5
-151.41 437.41 2163.0
-145.70 437.09 2161.4
-136.06 424.50 2099.2
-129.42 420.61 2080.0
-123.17 417.71 2065.6
-115.54 409.66 2025.8
-109.56 406.94 2012.3
-103.80 404.82 2001.8
-96.79 397.34 1964.9
-90.06 390.26 1929.9
-84.89 389.52 1926.2
-80.36 391.74 1937.2
-75.00 389.99 1928.5
-70.29 391.61 1936.6
-65.51 393.03 1943.6
-58.80 382.17 1889.8
-53.12 376.65 1862.6
-49.36 385.00 1903.8
-45.02 390.17 1929.4
-39.47 384.84 1903.1
-33.65 374.95 1854.2
-28.58 371.60 1837.6
-23.82 371.61 1837.7
-18.99 370.24 1830.8
-14.29 371.63 1837.7
-9.38 365.69 1808.4
-4.57 356.18 1761.3
0.00 361.54 1787.8
4.78 372.63 1842.7
9.40 366.49 1812.3
13.76 357.76 1769.1
18.57 362.11 1790.7
23.72 370.03 1829.8
28.75 373.78 1848.4
33.45 372.77 1843.4
38.54 375.73 1858.0
43.60 377.89 1868.7
47.45 370.14 1830.3
51.55 365.55 1807.7
56.84 369.49 1827.1
62.93 377.58 1867.2
69.05 384.68 1902.3
73.59 382.66 1892.3
77.84 379.46 1876.4
83.38 382.58 1891.9
89.60 388.28 1920.1
95.87 393.58 1946.3
112.76 418.82 2071.1
120.29 426.48 2109.0
127.43 432.15 2137.0
133.50 433.87 2145.5
-157.78 433.90 2173.5
-152.17 433.97 2173.9
-139.62 430.02 2154.1
-131.01 420.31 2105.5
-123.06 411.97 2063.7
-116.83 408.91 2048.3
-112.17 411.31 2060.4
-104.87 403.74 2022.4
-96.45 390.88 1958.0
-89.83 384.28 1925.0
-84.72 383.74 1922.2
-80.03 385.15 1929.3
-74.58 382.84 1917.7
-68.62 377.40 1890.5
-62.73 371.56 1861.2
-57.60 369.63 1851.6
-53.26 372.79 1867.4
-49.61 382.01 1913.6
-45.32 387.71 1942.2
-39.71 382.25 1914.8
-33.86 372.49 1865.9
-28.60 367.02 1838.5
-23.72 365.27 1829.7
-18.66 359.21 1799.4
-13.86 355.70 1781.8
-9.31 358.25 1794.6
-4.64 357.27 1789.7
0.00 355.51 1780.9
4.66 358.64 1796.5
9.42 362.56 1816.1
14.17 363.72 1822.0
18.67 359.41 1800.4
23.29 358.62 1796.4
28.89 370.74 1857.1
34.38 378.16 1894.3
38.60 371.49 1860.9
42.50 363.64 1821.6
47.71 367.34 1840.1
53.54 374.75 1877.2
58.52 375.50 1881.0
64.22 380.36 1905.3
70.25 386.39 1935.6
74.69 383.42 1920.7
79.62 383.19 1919.5
85.93 389.21 1949.7
91.84 392.88 1968.1
97.90 396.75 1987.4
105.48 406.08 2034.2
113.83 417.37 2090.7
122.47 428.65 2147.2
134.48 431.45 2161.3
139.68 430.21 2155.0
-152.25 428.55 2175.0
-142.87 417.63 2119.5
-138.80 421.94 2141.4
-133.75 423.55 2149.6
-125.45 414.54 2103.9
-118.90 410.74 2084.6
-113.24 409.83 2080.0
-104.97 398.88 2024.4
-97.37 389.47 1976.6
-91.29 385.46 1956.3
-84.07 375.85 1907.5
-77.55 368.36 1869.5
-72.90 369.36 1874.6
-67.58 366.88 1862.0
-61.21 357.83 1816.1
-51.91 358.66 1820.3
-48.75 370.47 1880.2
-44.74 377.84 1917.6
-39.43 374.58 1901.0
-34.06 369.76 1876.6
-29.15 369.20 1873.8
-23.96 364.19 1848.3
-18.69 355.11 1802.3
-14.12 357.63 1815.0
-9.64 366.34 1859.2
-4.75 360.73 1830.8
0.00 353.97 1796.5
4.73 359.19 1822.9
9.59 364.60 1850.4
14.39 364.59 1850.4
18.88 358.78 1820.9
22.85 347.37 1763.0
27.53 348.71 1769.8
33.33 361.84 1836.4
38.00 361.05 1832.4
41.63 351.56 1784.2
46.48 353.27 1792.9
52.61 363.49 1844.8
57.91 366.75 1861.3
63.62 371.94 1887.7
69.65 378.09 1918.9
74.39 376.89 1912.8
79.70 378.59 1921.4
97.42 411.34 2087.6
103.02 412.06 2091.3
110.00 418.00 2121.4
117.30 424.51 2154.4
124.49 430.04 2182.6
139.75 424.83 2156.1
-152.80 424.45 2182.9
-145.78 420.52 2162.7
-136.32 425.99 2190.8
-125.81 410.24 2109.8
-118.96 405.54 2085.6
-112.98 403.50 2075.1
-104.92 393.45 2023.4
-97.42 384.53 1977.6
-92.25 384.39 1976.9
-85.71 378.14 1944.7
-77.26 362.16 1862.5
-71.07 355.33 1827.4
-66.51 356.32 1832.5
-60.84 351.01 1805.2
-55.80 348.75 1793.6
-52.38 357.17 1836.9
-47.98 359.86 1850.7
-43.03 358.55 1844.0
-38.63 362.20 1862.7
-33.98 364.12 1872.6
-28.89 361.08 1857.0
-23.59 353.84 1819.8
-18.68 350.23 1801.2
-14.33 358.25 1842.4
-9.64 361.50 1859.2
-4.67 350.24 1801.3
0.00 342.99 1764.0
4.64 347.95 1789.5
9.57 358.83 1845.4
14.57 364.36 1873.8
19.35 362.82 1866.0
23.68 355.18 1826.6
27.74 346.77 1783.4
32.65 349.81 1799.0
37.25 349.22 1796.0
50.43 343.81 1768.2
55.98 349.89 1799.4
62.03 357.88 1840.5
68.83 368.72 1896.3
74.50 372.50 1915.7
79.13 370.93 1907.7
87.18 384.62 1978.1
97.47 406.13 2088.7
104.85 413.89 2128.6
109.39 410.22 2109.7
113.35 404.83 2082.0
120.30 410.11 2109.1
128.79 419.96 2159.8
-154.73 424.06 2210.4
-145.85 415.11 2163.7
-141.66 419.32 2185.6
-132.42 408.29 2128.1
-122.01 392.55 2046.1
-115.21 387.53 2019.9
-109.88 387.21 2018.3
-102.38 378.79 1974.4
-96.64 376.39 1961.9
-93.08 382.65 1994.5
-87.14 379.30 1977.1
-79.13 365.98 1907.6
-71.94 354.90 1849.9
-66.69 352.49 1837.3
-61.86 352.14 1835.5
-57.57 355.00 1850.4
-53.42 359.36 1873.1
-48.44 358.44 1868.3
-43.05 353.94 1844.9
-38.29 354.15 1845.9
-34.29 362.45 1889.2
-29.65 365.67 1906.0
-23.98 354.95 1850.1
-18.80 347.80 1812.8
-14.26 351.76 1833.5
-9.48 350.64 1827.6
-4.67 345.55 1801.1
0.00 344.61 1796.2
4.62 341.97 1782.5
9.33 345.36 1800.1
14.15 348.94 1818.8
18.68 345.54 1801.1
23.51 347.98 1813.8
28.34 349.47 1821.6
33.07 349.64 1822.5
37.37 345.67 1801.8
41.63 342.26 1784.0
46.96 347.51 1811.4
52.05 350.13 1825.0
57.08 351.98 1834.7
63.02 358.74 1869.9
69.75 368.68 1921.7
75.49 372.41 1941.2
80.19 370.87 1933.1
85.06 370.27 1930.0
91.52 376.25 1961.1
99.78 388.62 2025.6
105.38 389.89 2032.3
111.43 392.66 2046.7
121.08 407.28 2122.9
128.38 413.05 2153.0
134.86 415.81 2167.4
-154.46 417.61 2206.5
-141.23 396.52 2095.1
-133.66 390.28 2062.1
-128.09 389.60 2058.5
-120.90 383.72 2027.5
-114.59 380.25 2009.1
-109.67 381.23 2014.3
-102.22 373.11 1971.4
-96.59 371.11 1960.9
-91.52 371.15 1961.1
-84.41 362.46 1915.2
-80.10 365.48 1931.1
-76.06 370.16 1955.8
-69.36 361.64 1910.8
-63.42 356.10 1881.5
-58.54 356.13 1881.7
-53.92 357.83 1890.7
-49.20 359.15 1897.7
-43.98 356.76 1885.0
-38.53 351.57 1857.6
-33.95 354.01 1870.5
-29.50 358.86 1896.1
-23.98 350.13 1850.0
-18.82 343.45 1814.7
-14.28 347.55 1836.3
-9.75 355.73 1879.6
-4.92 359.46 1899.3
0.00 358.90 1896.3
4.89 356.67 1884.5
9.57 349.22 1845.2
14.07 342.34 1808.8
18.77 342.52 1809.8
23.91 349.02 1844.1
28.90 351.61 1857.8
33.79 352.33 1861.7
38.92 355.11 1876.3
44.21 358.62 1894.9
48.64 355.06 1876.1
52.49 348.35 1840.6
58.24 354.27 1871.9
64.97 364.84 1927.7
70.64 368.33 1946.2
75.03 365.14 1929.3
80.63 367.89 1943.9
86.62 371.94 1965.2
92.07 373.38 1972.9
99.10 380.77 2011.9
106.14 387.41 2047.0
113.94 396.08 2092.8
122.15 405.31 2141.6
127.51 404.69 2138.3
134.80 410.02 2166.4
-154.53 412.08 2207.6
-144.53 400.25 2144.2
-137.09 394.82 2115.1
-131.75 395.25 2117.4
-125.52 392.93 2105.0
-119.97 392.62 2103.3
-112.50 385.71 2066.3
-102.93 370.55 1985.1
-96.73 366.56 1963.7
-91.33 365.33 1957.1
-83.84 355.10 1902.3
-79.33 356.97 1912.4
-74.72 358.66 1921.4
-67.46 346.96 1858.7
-62.72 347.35 1860.8
-58.84 353.07 1891.4
-53.86 352.54 1888.6
-48.79 351.28 1881.9
-43.57 348.55 1867.2
-38.12 343.07 1837.9
-33.41 343.64 1840.9
-28.88 346.59 1856.7
-23.88 343.85 1842.0
-19.09 343.67 1841.1
-14.03 336.71 1803.8
-9.26 333.23 1785.1
-4.76 342.59 1835.3
0.00 347.36 1860.9
4.87 350.48 1877.6
9.69 349.01 1869.7
14.27 342.58 1835.2
19.08 343.49 1840.1
24.52 353.02 1891.2
29.92 359.06 1923.5
34.32 352.99 1891.0
38.71 348.39 1866.4
44.17 353.32 1892.8
48.81 351.47 1882.9
53.22 348.32 1866.0
59.58 357.47 1915.0
65.13 360.74 1932.5
69.35 356.67 1910.8
75.14 360.68 1932.2
82.34 370.54 1985.0
87.26 369.58 1979.9
91.42 365.69 1959.1
99.10 375.55 2011.9
106.75 384.29 2058.7
113.03 387.54 2076.1
119.18 390.05 2089.6
125.46 392.74 2104.0
133.89 401.66 2151.7
-153.09 402.57 2187.0
-146.72 400.65 2176.6
-142.18 403.79 2193.6
-135.72 401.50 2181.2
-128.62 397.05 2157.0
-122.04 393.85 2139.6
-113.73 384.51 2088.9
-103.95 369.01 2004.7
-97.60 364.72 1981.3
-93.57 369.10 2005.2
-87.26 364.44 1979.8
-80.55 357.42 1941.7
-74.11 350.77 1905.6
-68.49 347.36 1887.1
-65.13 355.71 1932.5
-60.03 355.20 1929.7
-53.97 348.35 1892.4
-48.66 345.48 1876.8
-43.22 340.98 1852.4
-38.20 339.00 1841.7
-33.80 342.82 1862.4
-29.51 349.17 1896.9
-24.62 349.55 1898.9
-19.21 341.05 1852.8
-13.77 325.85 1770.2
-4.59 325.86 1770.3
0.00 334.73 1818.4
4.82 342.33 1859.7
9.54 338.71 1840.1
13.93 329.65 1790.9
18.50 328.38 1783.9
23.66 335.97 1825.2
29.25 346.09 1880.2
33.89 343.73 1867.3
38.22 339.18 1842.7
43.68 344.60 1872.0
48.79 346.38 1881.8
53.75 346.90 1884.6
59.79 353.75 1921.8
64.97 354.81 1927.5
69.71 353.51 1920.5
76.25 360.90 1960.6
83.81 371.89 2020.3
89.04 371.85 2020.1
93.16 367.47 1996.3
100.79 376.65 2046.2
107.51 381.66 2073.4
112.55 380.53 2067.3
120.19 387.89 2107.2
128.27 395.96 2151.1
134.19 396.99 2156.7
-152.88 396.37 2184.1
-145.06 390.56 2152.0
-139.95 391.87 2159.3
-133.03 388.01 2138.0
-126.10 383.79 2114.8
-119.52 380.28 2095.4
-115.65 385.50 2124.2
-109.50 383.24 2111.7
-100.50 370.27 2040.2
-94.21 366.39 2018.9
-89.21 367.32 2024.0
-83.72 366.29 2018.3
-77.01 359.37 1980.2
-71.13 355.65 1959.7
-66.72 359.25 1979.6
-60.64 353.75 1949.2
-54.86 349.14 1923.8
-49.85 348.98 1923.0
-44.07 342.75 1888.6
-38.77 339.20 1869.1
-34.46 344.58 1898.7
-30.16 351.91 1939.1
-24.79 347.10 1912.6
-19.02 332.83 1833.9
-14.06 328.01 1807.4
-9.48 331.95 1829.1
-4.69 328.38 1809.4
0.00 327.31 1803.5
4.84 339.09 1868.5
9.71 339.80 1872.4
14.28 333.19 1836.0
19.09 334.08 1840.8
23.82 333.53 1837.8
28.79 335.84 1850.6
34.14 341.36 1881.0
39.42 344.92 1900.6
43.82 340.79 1877.8
47.58 333.09 1835.4
53.10 337.89 1861.8
59.91 349.47 1925.6
64.93 349.62 1926.5
69.52 347.62 1915.5
76.40 356.51 1964.5
84.46 369.50 2036.0
91.07 374.99 2066.3
96.83 376.55 2074.9
104.91 386.50 2129.7
112.15 392.51 2162.8
117.95 393.17 2166.5
-148.31 393.58 2200.2
-142.63 393.65 2200.5
-134.38 386.33 2159.6
-126.45 379.36 2120.6
-117.44 368.34 2059.0
-111.37 365.93 2045.5
-108.58 374.59 2094.0
-102.43 372.00 2079.5
-95.68 366.77 2050.3
-90.42 366.99 2051.5
-83.68 360.87 2017.3
-75.86 348.94 1950.6
-69.59 342.99 1917.3
-64.89 344.43 1925.4
-58.83 338.29 1891.1
-53.01 332.51 1858.7
-49.21 339.57 1898.2
-44.43 340.65 1904.3
-39.48 340.49 1903.4
-35.44 349.31 1952.7
-30.24 347.74 1943.9
-24.18 333.67 1865.2
-18.75 323.47 1808.2
-14.02 322.42 1802.3
-9.50 327.88 1832.9
-4.72 325.60 1820.1
0.00 319.26 1784.7
4.73 326.12 1823.1
9.53 328.76 1837.8
14.09 324.18 1812.2
19.33 333.50 1864.3
24.75 341.59 1909.5
29.38 337.88 1888.8
34.28 337.87 1888.7
39.25 338.56 1892.6
43.26 331.67 1854.1
47.25 326.02 1822.5
53.01 332.51 1858.7
59.97 344.81 1927.5
65.19 346.01 1934.2
69.48 342.46 1914.4
76.05 349.82 1955.5
84.09 362.63 2027.1
90.50 367.34 2053.4
96.50 369.93 2068.0
104.86 380.79 2128.7
113.52 391.65 2189.3
-136.03 385.41 2186.1
-128.15 378.88 2149.1
-119.23 368.53 2090.4
-110.51 357.84 2029.7
-105.57 358.92 2035.9
-100.49 359.66 2040.1
-94.67 357.62 2028.5
-89.76 359.05 2036.6
-83.31 354.06 2008.3
-76.08 344.90 1956.4
-70.37 341.81 1938.8
-64.46 337.16 1912.4
-57.33 324.86 1842.7
-52.11 322.11 1827.1
-48.85 332.20 1884.3
-44.66 337.43 1914.0
-40.13 341.09 1934.8
-35.65 346.31 1964.4
-30.07 340.77 1933.0
-24.33 330.89 1876.9
-19.14 325.34 1845.4
-14.13 320.32 1816.9
-9.46 321.54 1823.8
-4.77 324.49 1840.6
0.00 323.80 1836.7
4.79 325.71 1847.5
9.51 323.27 1833.7
13.98 316.85 1797.2
19.07 324.13 1838.5
24.74 336.45 1908.4
29.75 337.13 1912.3
34.58 335.90 1905.3
39.52 335.88 1905.2
43.67 329.96 1871.6
47.83 325.26 1844.9
52.36 323.67 1836.0
57.70 326.94 1854.5
65.12 340.63 1932.1
72.05 349.97 1985.1
77.04 349.24 1981.0
83.10 353.19 2003.4
90.33 361.31 2049.4
97.33 367.68 2085.6
104.08 372.50 2112.9
111.02 377.48 2141.1
117.68 381.07 2161.5
124.33 384.31 2179.9
-144.41 387.02 2228.0
-135.17 377.34 2172.3
-127.15 370.39 2132.3
-119.56 364.13 2096.3
-112.06 357.51 2058.2
-106.63 357.22 2056.5
-101.02 356.24 2050.8
-94.16 350.47 2017.6
-88.28 347.94 2003.1
-82.36 344.90 1985.6
-75.58 337.58 1943.5
-70.73 338.47 1948.6
-65.51 337.65 1943.8
-58.70 327.75 1886.8
-53.67 326.92 1882.1
-49.23 329.85 1898.9
-44.04 327.82 1887.2
-39.45 330.40 1902.1
-34.95 334.53 1925.8
-29.74 332.15 1912.1
-24.32 325.83 1875.8
-19.20 321.56 1851.2
-14.24 317.97 1830.5
-9.48 317.46 1827.6
-4.76 319.18 1837.5
0.00 318.84 1835.5
4.79 320.89 1847.3
9.58 320.89 1847.3
14.20 317.11 1825.6
19.12 320.19 1843.3
24.49 328.22 1889.5
29.91 334.03 1923.0
35.29 337.78 1944.6
40.15 336.22 1935.6
44.24 329.36 1896.1
49.18 329.51 1897.0
54.60 332.57 1914.6
60.02 335.11 1929.2
67.41 347.40 1999.9
73.83 353.35 2034.2
78.30 349.73 2013.4
83.79 350.89 2020.0
90.32 355.98 2049.4
97.05 361.24 2079.6
103.54 365.13 2102.0
111.12 372.26 2143.1
118.43 377.85 2175.3
124.89 380.36 2189.7
-153.67 390.09 2279.8
-145.17 383.26 2239.8
-135.84 373.55 2183.1
-127.44 365.70 2137.2
-119.62 358.85 2097.2
-111.35 349.97 2045.3
-105.15 346.99 2027.8
-100.87 350.40 2047.8
-95.12 348.76 2038.2
-86.54 335.99 1963.6
-78.36 323.22 1888.9
-74.12 326.12 1905.9
-71.47 336.94 1969.1
-66.57 337.98 1975.2
-59.92 329.58 1926.1
-54.23 325.38 1901.6
-49.15 324.40 1895.8
-43.59 319.69 1868.3
-38.75 319.71 1868.4
-34.39 324.28 1895.1
-29.31 322.44 1884.4
-24.50 323.46 1890.4
-19.80 326.68 1909.2
-14.50 319.10 1864.8
-9.54 314.72 1839.2
-4.82 318.26 1860.0
0.00 319.61 1867.9
4.80 316.74 1851.1
9.43 311.34 1819.5
14.23 313.02 1829.4
19.48 321.45 1878.6
24.80 327.34 1913.0
30.08 330.87 1933.7
35.59 335.58 1961.2
40.53 334.38 1954.2
45.57 334.20 1953.1
51.68 341.09 1993.4
57.21 343.26 2006.0
62.71 344.92 2015.7
69.23 351.46 2054.0
74.51 351.26 2052.8
78.71 346.34 2024.1
83.99 346.48 2024.9
89.84 348.80 2038.4
95.71 350.95 2051.0
102.86 357.31 2088.2
111.07 366.53 2142.0
117.89 370.52 2165.4
123.54 370.64 2166.0
129.61 371.93 2173.6
-160.66 386.77 2295.1
-137.49 372.36 2209.6
-126.91 358.65 2128.3
-119.55 353.23 2096.1
-111.67 345.65 2051.1
-104.78 340.55 2020.8
-99.95 341.92 2029.0
-95.48 344.78 2046.0
-88.06 336.69 1997.9
-80.51 327.09 1941.0
-76.98 333.60 1979.6
-72.61 337.12 2000.5
-66.23 331.17 1965.2
-60.53 327.88 1945.6
-55.66 328.90 1951.7
-50.86 330.58 1961.7
-45.45 328.28 1948.0
-39.57 321.48 1907.7
-34.35 319.01 1893.0
-29.43 318.85 1892.1
-24.73 321.52 1907.9
-20.34 330.51 1961.2
-15.18 328.85 1951.4
-9.81 318.72 1891.3
-4.87 316.40 1877.5
0.00 314.07 1863.7
4.73 307.26 1823.3
9.59 311.74 1849.9
14.92 323.37 1918.9
20.20 328.18 1947.4
25.41 330.33 1960.2
30.35 328.82 1951.3
35.34 328.14 1947.2
40.55 329.46 1955.0
45.94 331.76 1968.7
52.09 338.55 2009.0
57.66 340.69 2021.7
63.35 343.16 2036.3
70.15 350.77 2081.5
75.40 350.07 2077.4
79.48 344.39 2043.7
85.50 347.35 2061.2
92.18 352.46 2091.5
98.37 355.24 2108.0
105.91 362.33 2150.1
109.79 356.81 2117.3
111.29 344.48 2044.2
121.18 358.04 2124.6
-159.90 379.02 2284.3
-151.22 372.22 2243.3
-146.70 375.55 2263.4
-136.38 363.68 2191.9
-128.25 356.88 2150.8
-123.14 358.24 2159.0
-115.53 352.08 2121.9
-109.02 348.85 2102.5
-102.56 345.46 2082.0
-96.67 343.71 2071.5
-90.57 340.97 2054.9
-84.23 336.92 2030.5
-78.63 335.48 2021.8
-72.53 331.58 1998.4
-66.40 326.87 1970.0
-61.02 325.42 1961.2
-55.99 325.77 1963.4
-51.06 326.78 1969.4
-46.07 327.62 1974.5
-40.44 323.54 1949.9
-34.80 318.16 1917.5
-29.57 315.39 1900.8
-24.50 313.60 1890.0
-19.88 318.03 1916.7
-15.09 321.96 1940.4
-9.92 317.39 1912.8
-4.91 314.28 1894.1
0.00 311.50 1877.3
4.81 308.06 1856.6
9.88 316.08 1904.9
15.31 326.55 1968.0
20.64 330.30 1990.7
25.52 326.69 1968.9
29.98 319.81 1927.4
34.92 319.30 1924.4
40.01 320.11 1929.2
45.04 320.25 1930.1
50.85 325.47 1961.5
56.92 331.17 1995.9
63.26 337.37 2033.2
70.45 346.83 2090.3
76.26 348.60 2100.9
79.39 338.75 2041.6
84.15 336.59 2028.5
91.83 345.71 2083.5
99.29 353.03 2127.6
105.62 355.77 2144.1
108.05 345.75 2083.7
112.15 341.78 2059.8
125.28 364.45 2196.4
-153.83 358.94 2197.6
-144.37 349.83 2141.8
-139.48 351.50 2152.0
-133.19 349.62 2140.5
-128.42 351.77 2153.7
-125.72 360.03 2204.3
-120.29 360.88 2209.5
-113.97 359.00 2198.0
-107.70 357.11 2186.4
-97.35 340.73 2086.1
-87.39 323.86 1982.8
-83.53 328.89 2013.6
-80.08 336.33 2059.2
-74.17 333.79 2043.6
-68.12 330.11 2021.1
-61.10 320.79 1964.0
-54.69 313.24 1917.8
-50.67 319.23 1954.5
-46.32 324.24 1985.2
-39.85 313.79 1921.1
-33.56 302.04 1849.2
-29.32 307.85 1884.8
-24.98 314.79 1927.3
-20.05 315.77 1933.3
-15.05 316.10 1935.3
-9.92 312.56 1913.6
-4.93 310.63 1901.8
0.00 314.98 1928.4
5.06 318.85 1952.1
10.18 320.62 1963.0
15.47 324.80 1988.6
20.82 327.86 2007.3
25.69 323.66 1981.6
30.76 323.00 1977.6
36.51 328.63 2012.0
41.30 325.23 1991.2
45.84 320.86 1964.4
50.34 317.13 1941.6
54.83 314.05 1922.8
61.04 320.47 1962.1
68.15 330.27 2022.1
75.18 338.30 2071.2
79.70 334.72 2049.3
83.40 328.41 2010.7
89.96 333.36 2041.0
95.93 335.74 2055.6
100.37 332.80 2037.6
108.14 340.65 2085.6
119.11 357.34 2187.8
-166.21 368.04 2289.7
-153.69 352.91 2195.5
-146.76 349.96 2177.2
-142.80 354.14 2203.2
-137.41 354.99 2208.4
-129.24 348.39 2167.4
-123.58 348.28 2166.7
-119.38 352.45 2192.6
-114.01 353.45 2198.9
-106.87 348.74 2169.6
-95.78 329.91 2052.4
-85.43 311.56 1938.3
-81.39 315.40 1962.1
-79.46 328.43 2043.2
-74.81 331.32 2061.2
-69.18 329.92 2052.5
-62.39 322.33 2005.3
-55.08 310.46 1931.4
-50.33 312.07 1941.4
-46.94 323.35 2011.6
-41.15 318.93 1984.1
-33.95 300.69 1870.7
-29.04 300.07 1866.8
-24.65 305.64 1901.4
-19.72 305.65 1901.5
-14.94 308.67 1920.3
-9.94 308.20 1917.4
-4.98 308.99 1922.3
0.00 315.98 1965.8
5.02 311.53 1938.1
9.84 305.18 1898.6
15.05 311.05 1935.1
20.38 315.96 1965.7
25.53 316.59 1969.6
31.11 321.50 2000.1
36.83 326.24 2029.6
41.54 321.94 2002.9
46.18 318.12 1979.1
50.69 314.29 1955.3
54.74 308.56 1919.6
60.27 311.39 1937.2
66.22 315.80 1964.7
72.02 318.95 1984.2
78.58 324.79 2020.6
84.75 328.40 2043.0
90.51 330.11 2053.7
95.46 328.80 2045.5
100.31 327.34 2036.4
108.80 337.28 2098.3
119.97 354.19 2203.5
128.47 362.06 2252.5
138.15 356.89 2220.3
-166.28 362.25 2290.6
-154.78 349.69 2211.2
-151.87 356.30 2253.0
-141.09 358.60 2267.5
-128.70 341.35 2158.4
-124.64 345.61 2185.3
-121.63 353.30 2234.0
-112.94 344.45 2178.0
-102.88 330.30 2088.5
-96.79 328.00 2074.0
-90.90 326.16 2062.4
-82.53 314.65 1989.6
-76.80 312.34 1975.0
-72.98 317.99 2010.7
-67.97 318.95 2016.8
-62.66 318.51 2014.0
-56.57 313.69 1983.6
-50.61 308.72 1952.1
-46.29 313.74 1983.8
-42.05 320.63 2027.4
-35.99 313.61 1983.0
-29.87 303.63 1919.9
-24.59 300.05 1897.3
-19.61 299.12 1891.4
-14.83 301.63 1907.2
-10.03 306.01 1934.9
-5.11 311.94 1972.5
0.00 311.63 1970.5
4.92 300.07 1897.4
9.77 297.88 1883.6
15.13 307.72 1945.8
20.55 313.33 1981.3
25.82 315.04 1992.1
30.53 310.35 1962.4
35.09 305.80 1933.7
40.04 305.32 1930.6
45.04 305.30 1930.5
50.69 309.19 1955.1
56.09 311.04 1966.8
60.88 309.46 1956.7
65.88 309.12 1954.6
70.97 309.25 1955.4
76.73 312.03 1973.0
84.09 320.58 2027.1
91.29 327.57 2071.3
97.02 328.78 2078.9
102.88 330.30 2088.5
108.54 331.04 2093.2
116.26 337.70 2135.3
125.32 347.48 2197.2
130.88 347.11 2194.9
-166.34 356.45 2291.5
-155.74 346.09 2224.9
-153.52 354.28 2277.5
-137.58 343.96 2211.2
-126.75 330.67 2125.7
-124.36 339.15 2180.3
-122.32 349.49 2246.7
-114.26 342.78 2203.6
-103.70 327.47 2105.2
-97.19 323.98 2082.7
-91.85 324.17 2083.9
-83.87 314.53 2022.0
-78.14 312.56 2009.3
-74.19 317.97 2044.1
-68.50 316.15 2032.4
-62.56 312.80 2010.9
-56.56 308.52 1983.4
-50.66 303.93 1953.9
-46.17 307.79 1978.7
-41.82 313.65 2016.3
-36.09 309.36 1988.8
-30.18 301.84 1940.4
-25.32 303.85 1953.3
-20.58 308.63 1984.0
-15.45 309.10 1987.0
-10.38 311.41 2001.9
-5.13 307.57 1977.2
0.00 297.73 1914.0
4.99 299.42 1924.8
10.34 310.33 1995.0
15.56 311.25 2000.9
20.50 307.55 1977.1
26.06 312.77 2010.7
31.17 311.68 2003.7
35.54 304.60 1958.1
40.18 301.36 1937.3
45.20 301.34 1937.2
50.91 305.47 1963.7
56.31 307.14 1974.5
61.05 305.27 1962.5
67.24 310.32 1994.9
73.66 315.66 2029.3
77.91 311.64 2003.4
83.26 312.22 2007.2
90.93 320.94 2063.2
97.24 324.13 2083.7
104.18 329.00 2115.0
111.19 333.57 2144.4
117.97 337.05 2166.8
126.21 344.22 2212.8
132.93 346.78 2229.3
-159.46 348.45 2278.0
-153.45 348.21 2276.4
-146.93 346.76 2266.9
-138.25 339.87 2221.9
-130.86 335.70 2194.6
-124.40 333.63 2181.1
-118.82 333.83 2182.4
-113.23 334.03 2183.7
-104.76 325.31 2126.7
-97.23 318.70 2083.5
-90.88 315.42 2062.0
-84.85 312.88 2045.5
-80.78 317.75 2077.3
-75.15 316.72 2070.6
-67.99 308.59 2017.4
-62.65 308.01 2013.6
-57.12 306.37 2002.9
-50.80 299.74 1959.6
-45.96 301.27 1969.6
-41.88 308.85 2019.1
-36.36 306.44 2003.4
-30.01 295.12 1929.3
-24.83 293.01 1915.6
-20.51 302.54 1977.9
-15.68 308.30 2015.5
-10.34 305.13 1994.8
-5.01 295.75 1933.5
0.00 297.12 1942.4
5.24 309.36 2022.5
10.59 312.38 2042.2
15.55 305.73 1998.7
20.67 304.81 1992.7
26.50 312.66 2044.1
31.69 311.60 2037.1
36.05 303.87 1986.6
41.69 307.48 2010.2
47.92 314.12 2053.6
52.42 309.26 2021.8
56.25 301.68 1972.3
62.40 306.80 2005.7
70.16 318.41 2081.6
76.30 321.56 2102.2
80.17 315.33 2061.5
84.85 312.88 2045.5
91.67 318.13 2079.8
98.34 322.33 2107.2
105.68 328.18 2145.5
113.28 334.18 2184.7
120.76 339.27 2218.0
-157.79 338.97 2254.2
-150.58 335.91 2233.9
-147.88 343.09 2281.6
-142.48 344.33 2289.9
-133.62 336.96 2240.9
-125.69 331.37 2203.7
-118.17 326.37 2170.4
-110.76 321.21 2136.1
-103.49 315.91 2100.9
-96.90 312.23 2076.4
-90.66 309.30 2056.9
-84.88 307.70 2046.3
-81.78 316.20 2102.8
-76.90 318.60 2118.8
-69.29 309.12 2055.7
-63.53 307.07 2042.1
-58.97 310.95 2067.9
-53.39 309.64 2059.2
-47.10 303.56 2018.8
-41.85 303.43 2017.9
-36.62 303.45 2018.0
-30.48 294.69 1959.7
-24.80 287.71 1913.3
-20.15 292.18 1943.1
-15.25 294.86 1960.9
-9.97 289.07 1922.4
-4.98 289.07 1922.4
0.00 299.33 1990.6
5.31 307.81 2047.0
10.60 307.50 2045.0
15.86 306.61 2039.0
31.96 308.96 2054.7
36.28 300.62 1999.2
41.83 303.28 2016.9
47.87 308.47 2051.4
52.16 302.50 2011.7
55.84 294.45 1958.2
61.81 298.74 1986.7
70.45 314.32 2090.3
77.69 321.87 2140.5
82.27 318.13 2115.6
87.83 318.39 2117.4
94.36 321.92 2140.9
100.77 324.71 2159.4
106.75 325.86 2167.0
112.45 326.11 2168.7
120.86 333.79 2219.8
-156.54 330.48 2236.3
-145.91 319.88 2164.6
-140.45 320.23 2167.0
-134.86 320.28 2167.3
-125.96 312.16 2112.3
-122.53 317.46 2148.2
-118.80 322.47 2182.1
-109.83 313.02 2118.2
-101.24 303.72 2055.2
-96.61 305.94 2070.3
-92.04 308.61 2088.3
-85.49 304.55 2060.9
-81.84 311.01 2104.6
-71.88 315.16 2132.6
-64.75 307.58 2081.4
-59.05 306.00 2070.7
-53.35 304.12 2058.0
-46.94 297.27 2011.6
-41.01 292.17 1977.1
-35.24 286.92 1941.6
-30.47 289.42 1958.5
-25.77 293.82 1988.2
-20.52 292.36 1978.4
-15.20 288.86 1954.7
-10.01 285.21 1930.0
-5.04 287.41 1944.9
0.00 292.82 1981.5
5.20 296.18 2004.2
10.52 299.69 2027.9
15.94 302.90 2049.7
21.09 300.55 2033.8
26.03 296.74 2008.0
31.13 295.71 2001.0
35.92 292.48 1979.2
40.99 292.03 1976.1
46.57 294.93 1995.8
50.92 290.24 1964.0
54.68 283.35 1917.4
60.23 286.10 1936.0
68.38 299.82 2028.8
75.86 308.85 2089.9
80.77 306.92 2076.9
87.05 310.10 2098.4
94.39 316.49 2141.7
100.39 317.92 2151.3
105.81 317.44 2148.1
112.29 320.03 2165.6
121.92 330.93 2239.4
-158.88 329.53 2269.7
-149.03 320.98 2210.9
-141.02 315.88 2175.7
-133.43 311.34 2144.4
-123.59 300.91 2072.6
-119.53 304.26 2095.7
-117.99 314.63 2167.1
-110.90 310.51 2138.7
-102.10 300.94 2072.8
-97.20 302.41 2082.9
-92.77 305.60 2104.9
-86.30 302.05 2080.4
-80.87 301.93 2079.6
-75.81 303.25 2088.7
-69.74 300.41 2069.1
-62.96 293.83 2023.8
-57.41 292.27 2013.1
-51.89 290.57 2001.4
-46.15 287.14 1977.7
-40.76 285.29 1965.0
-35.00 279.98 1928.5
-30.28 282.58 1946.4
-26.05 291.79 2009.8
-21.05 294.67 2029.6
-15.79 294.82 2030.6
-10.52 294.54 2028.7
-5.25 294.25 2026.7
0.00 297.13 2046.5
5.27 295.12 2032.7
10.46 292.81 2016.8
15.66 292.23 2012.8
20.47 286.62 1974.2
25.53 285.90 1969.2
30.88 288.19 1985.0
36.11 288.89 1989.8
41.78 292.47 2014.5
47.53 295.76 2037.1
52.09 291.72 2009.3
56.79 289.11 1991.3
63.39 295.84 2037.7
68.70 295.96 2038.5
72.69 290.76 2002.7
78.95 294.75 2030.2
86.87 304.06 2094.3
93.60 308.33 2123.7
98.73 307.15 2115.5
105.85 311.99 2148.9
114.59 320.84 2209.9
121.86 324.96 2238.3
127.70 325.06 2238.9
-159.84 325.59 2283.4
-152.88 323.39 2268.0
-147.28 324.01 2272.3
-141.29 323.78 2270.7
-132.83 317.63 2227.6
-122.62 306.54 2149.8
-115.77 303.21 2126.4
-110.99 305.22 2140.5
-104.09 301.31 2113.1
-97.42 297.68 2087.6
-91.45 295.88 2075.0
-84.77 291.40 2043.6
-79.13 290.16 2034.9
-74.33 292.02 2047.9
-68.43 289.51 2030.3
-62.43 286.15 2006.7
-57.66 288.28 2021.7
-53.01 291.55 2044.6
-47.92 292.84 2053.7
-42.29 290.74 2038.9
-36.41 286.09 2006.4
-31.15 285.54 2002.5
-26.46 291.06 2041.2
-21.07 289.65 2031.3
-15.57 285.43 2001.7
-10.48 288.25 2021.5
-5.29 290.94 2040.4
0.00 289.95 2033.4
5.17 284.45 1994.8
10.22 280.91 1970.0
15.23 279.22 1958.1
20.17 277.37 1945.2
25.54 280.89 1969.9
31.01 284.27 1993.6
36.36 285.67 2003.4
42.82 294.41 2064.7
54.27 298.47 2093.1
59.10 295.48 2072.2
63.63 291.65 2045.3
66.46 281.18 1971.9
72.93 286.52 2009.4
82.06 300.88 2110.1
88.05 302.68 2122.7
92.28 298.56 2093.8
96.96 296.27 2077.7
103.36 299.20 2098.3
113.71 312.69 2192.9
123.20 322.66 2262.8
-153.53 318.87 2277.7
-146.88 317.27 2266.2
-140.11 315.24 2251.7
-134.82 316.54 2261.0
-127.00 311.74 2226.7
-116.51 299.60 2140.0
-108.62 293.27 2094.8
-102.86 292.34 2088.1
-97.27 291.82 2084.4
-91.92 291.99 2085.7
-85.83 289.67 2069.1
-79.55 286.37 2045.5
-74.18 286.12 2043.7
-69.25 287.67 2054.8
-64.09 288.39 2059.9
-59.68 292.98 2092.7
-55.31 298.69 2133.5
-48.77 292.61 2090.1
-41.93 283.06 2021.9
-36.75 283.49 2024.9
-31.99 287.94 2056.7
-26.79 289.33 2066.7
-21.04 284.07 2029.1
-15.24 274.24 1958.8
-10.05 271.47 1939.1
-5.16 278.82 1991.6
0.00 282.84 2020.3
5.16 278.54 1989.6
10.24 276.46 1974.7
15.22 273.96 1956.9
20.10 271.32 1938.0
25.61 276.58 1975.6
31.33 281.98 2014.1
35.78 276.00 1971.5
41.11 277.51 1982.2
47.54 285.26 2037.6
51.90 280.25 2001.8
56.92 279.40 1995.7
61.78 278.00 1985.7
65.95 273.95 1956.8
74.29 286.54 2046.7
83.43 300.37 2145.5
89.32 301.44 2153.2
93.45 296.84 2120.3
97.97 293.90 2099.3
103.98 295.52 2110.9
113.80 307.25 2194.7
134.41 315.57 2254.1
135.99 305.97 2185.5
145.41 314.08 2243.5
-152.45 310.77 2261.7
-143.54 304.30 2214.6
-139.48 308.02 2241.6
-136.22 313.91 2284.5
-130.21 313.68 2282.9
-121.13 305.71 2224.8
-111.22 294.74 2145.0
-103.82 289.61 2107.7
-98.05 288.69 2101.0
-92.61 288.73 2101.2
-85.86 284.40 2069.8
-79.15 279.67 2035.4
-73.99 280.11 2038.5
-69.25 282.31 2054.5
-63.18 279.07 2030.9
-58.04 279.63 2035.1
-54.87 290.81 2116.4
-49.34 290.56 2114.6
-42.36 280.64 2042.4
-37.01 280.24 2039.5
-32.08 283.39 2062.4
-26.75 283.53 2063.4
-21.17 280.55 2041.7
-15.46 273.20 1988.3
-10.14 268.71 1955.6
-5.18 274.30 1996.2
0.00 279.61 2034.9
5.21 276.34 2011.1
10.24 271.44 1975.4
15.07 266.26 1937.7
20.36 269.79 1963.4
26.54 281.35 2047.6
31.82 281.07 2045.5
35.66 270.03 1965.2
50.25 266.32 1938.1
56.82 273.78 1992.5
61.77 272.81 1985.4
66.14 269.66 1962.5
73.13 276.84 2014.8
80.77 285.39 2076.9
87.87 291.07 2118.3
93.70 292.13 2126.0
98.37 289.64 2107.9
104.50 291.51 2121.5
112.76 298.82 2174.7
120.59 304.35 2214.9
128.80 310.29 2258.1
134.46 309.83 2254.8
138.06 304.89 2218.9
-146.22 304.13 2255.9
-140.88 305.24 2264.2
-134.38 303.82 2253.6
-125.68 297.07 2203.5
-121.28 300.31 2227.6
-115.26 299.68 2222.9
-106.98 292.78 2171.7
-100.53 290.42 2154.2
-93.99 287.51 2132.7
-86.34 280.60 2081.4
-79.99 277.29 2056.9
-75.27 279.59 2073.9
-69.70 278.81 2068.1
-62.99 272.96 2024.7
-56.98 269.38 1998.1
-53.14 276.34 2049.8
-49.26 284.64 2111.3
-43.61 283.45 2102.5
-36.83 273.58 2029.3
-30.80 266.91 1979.9
-26.23 272.80 2023.5
-21.22 275.88 2046.4
-15.63 270.95 2009.8
-10.33 268.68 1992.9
-5.13 266.81 1979.1
0.00 264.27 1960.3
5.09 264.54 1962.2
10.12 263.07 1951.3
15.07 261.19 1937.4
20.63 268.13 1988.9
26.58 276.41 2050.3
31.51 273.06 2025.4
36.43 270.64 2007.5
42.01 273.03 2025.2
47.16 272.48 2021.2
52.89 275.00 2039.9
58.00 274.18 2033.8
61.20 265.22 1967.3
66.03 264.13 1959.2
73.58 273.32 2027.3
78.99 273.82 2031.1
83.55 271.53 2014.1
91.38 279.50 2073.2
98.68 285.08 2114.6
104.88 287.04 2129.2
113.11 294.08 2181.4
118.91 294.44 2184.0
124.61 294.53 2184.7
-146.01 297.86 2252.7
-137.67 292.54 2212.5
-128.82 285.65 2160.4
-121.83 282.42 2136.0
-118.79 288.48 2181.8
-113.92 290.49 2197.0
-106.62 286.20 2164.6
-98.58 279.30 2112.3
-90.67 272.00 2057.1
-86.04 274.25 2074.2
-82.37 280.04 2118.0
-76.23 277.71 2100.3
-69.43 272.37 2059.9
-63.32 269.11 2035.3
-57.91 268.48 2030.5
-53.19 271.25 2051.5
-48.63 275.59 2084.3
-43.44 276.92 2094.3
-36.98 269.46 2037.9
-30.73 261.21 1975.6
-26.00 265.16 2005.4
-21.04 268.31 2029.2
-15.52 263.86 1995.6
-10.47 267.01 2019.4
-5.31 270.94 2049.2
0.00 264.78 2002.6
5.12 261.11 1974.8
10.28 262.03 1981.7
15.44 262.42 1984.7
20.75 264.51 2000.5
26.24 267.65 2024.2
31.10 264.36 1999.4
35.96 261.99 1981.4
41.90 267.09 2020.0
47.50 269.17 2035.7
54.21 276.49 2091.1
60.42 280.14 2118.7
62.37 265.05 2004.6
65.62 257.43 1947.0
74.40 271.03 2049.8
81.21 276.11 2088.3
86.16 274.65 2077.2
94.55 283.65 2145.3
101.86 288.59 2182.6
107.89 289.61 2190.3
115.40 294.28 2225.7
120.19 291.89 2207.5
124.65 288.97 2185.5
134.25 297.69 2251.4
-152.21 292.71 2258.0
-144.26 288.52 2225.7
-138.39 288.31 2224.1
-130.28 283.22 2184.9
-123.85 281.47 2171.3
-120.50 286.90 2213.2
-115.19 287.97 2221.5
-106.66 280.68 2165.3
-97.59 271.09 2091.2
-90.61 266.50 2055.8
-86.85 271.41 2093.7
-82.28 274.26 2115.7
-75.29 268.89 2074.3
-69.08 265.70 2049.7
-63.47 264.44 2040.0
-57.87 263.04 2029.2
-53.02 265.12 2045.2
-48.46 269.25 2077.1
-43.23 270.16 2084.1
-37.50 267.86 2066.4
-31.70 264.15 2037.7
-26.43 264.29 2038.8
-21.09 263.65 2033.9
-15.70 261.60 2018.1
-10.68 267.00 2059.7
-5.37 268.42 2070.7
0.00 259.55 2002.2
5.16 257.88 1989.3
10.43 260.83 2012.1
15.64 260.70 2011.1
20.95 261.85 2020.0
26.03 260.30 2008.0
30.32 252.71 1949.5
35.07 250.51 1932.5
40.88 255.51 1971.1
46.85 260.25 2007.7
54.00 270.00 2082.9
60.87 276.67 2134.3
63.56 264.82 2042.9
66.74 256.71 1980.3
75.47 269.53 2079.2
83.63 278.76 2150.4
90.10 281.55 2172.0
96.37 283.45 2186.6
100.74 279.82 2158.6
107.29 282.35 2178.2
115.55 288.86 2228.4
121.25 288.70 2227.1
127.01 288.66 2226.8
-154.66 291.47 2294.4
-147.52 289.13 2276.0
-141.21 288.30 2269.4
-132.69 282.68 2225.2
-125.24 278.95 2195.8
-121.02 282.39 2222.9
-116.15 284.56 2240.0
-107.92 278.31 2190.8
-101.65 276.70 2178.1
-97.02 279.63 2201.2
-90.25 276.39 2175.7
-83.04 271.25 2135.2
-75.82 265.36 2088.8
-69.34 261.35 2057.3
-65.83 268.81 2116.0
-61.90 275.76 2170.7
-54.58 267.46 2105.4
-47.97 261.18 2055.9
-42.62 261.07 2055.0
-36.74 257.17 2024.4
-31.25 255.17 2008.6
-26.21 256.82 2021.6
-21.18 259.47 2042.5
-15.94 260.36 2049.5
-10.63 260.49 2050.5
-5.23 256.21 2016.8
0.00 251.29 1978.1
5.18 253.69 1996.9
10.49 256.96 2022.7
15.73 256.96 2022.7
20.84 255.31 2009.7
25.63 251.15 1976.9
30.75 251.14 1976.9
36.69 256.80 2021.4
41.76 255.77 2013.4
46.77 254.63 2004.4
52.30 256.25 2017.1
57.21 254.84 2006.1
63.08 257.60 2027.7
70.37 265.26 2088.0
76.18 266.62 2098.8
80.76 263.82 2076.8
88.44 270.85 2132.0
96.23 277.37 2183.4
99.38 270.54 2129.6
104.40 269.24 2119.4
113.48 278.02 2188.5
120.59 281.38 2214.9
126.82 282.47 2223.5
-153.64 283.64 2279.3
-147.18 282.58 2270.8
-141.19 282.38 2269.1
-133.62 278.85 2240.8
-126.81 276.67 2223.3
-121.39 277.45 2229.5
-115.67 277.61 2230.8
-107.61 271.85 2184.5
-101.54 270.77 2175.9
-95.65 270.07 2170.2
-87.69 263.06 2113.9
-81.56 260.99 2097.3
-75.34 258.30 2075.6
-68.83 254.13 2042.1
-65.33 261.31 2099.8
-62.24 271.57 2182.3
-55.50 266.41 2140.8
-48.66 259.51 2085.4
-43.09 258.54 2077.5
-37.18 254.97 2048.9
-31.58 252.63 2030.1
-26.33 252.77 2031.2
-21.15 253.76 2039.2
-16.01 256.11 2058.1
-10.74 257.85 2072.0
-5.29 253.77 2039.3
0.00 249.08 2001.6
5.23 250.81 2015.4
10.55 253.28 2035.3
15.88 254.14 2042.2
21.15 253.76 2039.2
25.78 247.46 1988.5
30.58 244.61 1965.6
35.81 245.59 1973.5
45.49 242.60 1949.4
51.67 248.01 1993.0
57.29 249.97 2008.7
64.06 256.25 2059.1
69.83 257.83 2071.9
73.83 253.12 2034.0
79.28 253.71 2038.7
88.10 264.30 2123.8
96.39 272.16 2187.0
100.15 267.07 2146.1
104.92 265.07 2130.0
114.08 273.79 2200.1
121.44 277.58 2230.5
127.77 278.77 2240.1
132.43 276.39 2221.0
135.52 271.04 2178.0
146.15 280.61 2254.9
-153.76 277.94 2281.0
-147.03 276.42 2268.5
-140.56 275.26 2259.0
-132.59 270.95 2223.6
-124.98 267.01 2191.3
-119.16 266.68 2188.6
-113.04 265.63 2180.0
-104.71 259.02 2125.7
-98.56 257.36 2112.1
-92.57 255.94 2100.4
-84.92 249.44 2047.1
-79.19 248.14 2036.4
-76.33 256.26 2103.1
-72.73 262.93 2157.8
-65.81 257.76 2115.3
-59.74 255.24 2094.7
-54.98 258.40 2120.6
-49.65 259.26 2127.7
-44.34 260.49 2137.7
-38.56 258.93 2124.9
-32.72 256.28 2103.2
-27.19 255.56 2097.3
-21.51 252.79 2074.5
-16.07 251.70 2065.7
-10.79 253.52 2080.6
-5.31 249.65 2048.8
0.00 247.36 2030.0
5.35 251.23 2061.7
10.68 250.98 2059.7
15.90 249.16 2044.8
21.36 250.97 2059.7
26.29 247.10 2027.8
30.79 241.16 1979.1
35.65 239.34 1964.2
40.26 236.54 1941.2
46.31 241.85 1984.8
52.74 247.88 2034.3
58.60 250.40 2055.0
64.79 253.77 2082.6
69.78 252.30 2070.5
74.53 250.22 2053.5
80.93 253.58 2081.0
88.58 260.20 2135.4
95.50 264.04 2166.9
100.37 262.08 2150.8
106.62 263.73 2164.4
114.42 268.89 2206.7
120.02 268.62 2204.5
125.66 268.46 2203.1
129.46 264.55 2171.1
136.24 266.81 2189.6
-148.55 273.34 2292.0
-141.40 271.02 2272.5
-131.87 263.73 2211.4
-123.27 257.74 2161.2
-115.63 253.29 2123.8
-107.98 248.35 2082.5
-103.67 250.99 2104.6
-100.77 257.52 2159.4
-95.23 257.67 2160.6
-87.74 252.26 2115.2
-80.41 246.60 2067.8
-76.21 250.41 2099.7
-73.85 261.33 2191.2
-67.81 259.93 2179.5
-60.83 254.38 2133.0
-55.28 254.28 2132.2
-49.62 253.59 2126.4
-44.06 253.37 2124.5
-38.36 252.08 2113.7
-32.62 250.07 2096.9
-27.02 248.54 2084.1
-21.30 245.00 2054.3
-15.62 239.44 2007.7
-10.28 236.36 1981.9
-5.24 240.87 2019.7
0.00 247.02 2071.3
5.39 247.97 2079.3
10.64 244.77 2052.4
15.93 244.29 2048.4
21.51 247.37 2074.2
26.90 247.48 2075.1
32.12 246.28 2065.1
37.69 247.69 2076.9
43.20 248.39 2082.8
47.92 244.95 2053.9
52.68 242.33 2031.9
58.45 244.44 2049.6
64.47 247.14 2072.3
70.27 248.66 2085.0
75.96 249.59 2092.8
82.23 252.17 2114.4
89.96 258.65 2168.8
95.75 259.09 2172.5
99.01 253.03 2121.7
106.89 258.79 2170.0
116.82 268.69 2253.0
121.30 265.70 2227.9
125.59 262.59 2201.8
-155.45 269.05 2306.2
-148.15 266.67 2285.7
-140.89 264.17 2264.3
-131.08 256.46 2198.2
-123.19 251.98 2159.9
-116.21 249.01 2134.4
-109.71 246.85 2115.8
-106.24 251.62 2156.8
-101.59 253.97 2176.9
-94.34 249.72 2140.4
-87.77 246.85 2115.8
-81.13 243.40 2086.3
-74.98 240.99 2065.6
-70.96 245.65 2105.5
-66.65 249.95 2142.4
-61.05 249.74 2140.6
-54.21 243.96 2091.1
-47.64 238.19 2041.6
-42.33 238.08 2040.7
-36.87 237.05 2031.9
-31.48 236.14 2024.0
-26.20 235.80 2021.1
-21.08 237.20 2033.1
-15.75 236.27 2025.2
-10.36 233.15 1998.4
-5.27 237.32 2034.2
0.00 239.99 2057.0
5.27 237.32 2034.2
10.58 238.02 2040.1
16.11 241.60 2070.9
21.54 242.29 2076.8
26.69 240.20 2058.9
31.98 239.84 2055.8
37.67 242.15 2075.6
43.87 246.77 2115.2
49.47 247.34 2120.0
53.73 241.76 2072.3
58.84 240.70 2063.2
65.36 245.09 2100.7
71.70 248.19 2127.4
76.16 244.81 2098.4
80.98 242.94 2082.3
87.89 247.20 2118.8
92.68 245.32 2102.7
98.62 246.56 2113.4
109.86 260.19 2230.2
123.17 263.94 2262.3
127.49 260.78 2235.2
-148.71 261.72 2294.3
-140.99 258.49 2266.0
-132.71 253.89 2225.6
-125.83 251.66 2206.1
-121.37 254.30 2229.3
-116.94 257.28 2255.4
-109.06 252.56 2214.0
-100.65 246.02 2156.7
-94.32 244.12 2140.1
-88.74 244.04 2139.3
-83.94 246.22 2158.4
-79.32 249.30 2185.4
-72.26 244.56 2143.9
-65.34 239.60 2100.4
-60.22 240.86 2111.5
-53.79 236.69 2074.9
-47.63 232.85 2041.2
-42.67 234.68 2057.2
-37.01 232.65 2039.4
-31.46 230.73 2022.6
-26.53 233.46 2046.6
-21.61 237.66 2083.4
-16.18 237.32 2080.4
-10.67 234.72 2057.6
-5.35 235.40 2063.6
0.00 234.73 2057.7
5.28 232.46 2037.8
10.61 233.48 2046.7
16.03 235.17 2061.6
21.30 234.26 2053.6
26.32 231.65 2030.7
31.49 230.96 2024.6
37.16 233.55 2047.4
43.37 238.53 2091.0
49.78 243.39 2133.6
55.05 242.24 2123.5
60.64 242.56 2126.4
67.72 248.32 2176.8
73.19 247.73 2171.7
76.40 240.12 2105.0
80.58 236.36 2072.0
86.68 238.38 2089.7
92.61 239.71 2101.3
100.00 244.44 2142.8
109.45 253.46 2221.9
116.64 256.60 2249.4
123.26 258.26 2264.0
-142.76 255.78 2294.4
-133.64 249.85 2241.2
-125.64 245.57 2202.8
-120.16 246.05 2207.1
-118.57 254.93 2286.8
-112.81 255.30 2290.1
-103.27 246.70 2212.9
-96.01 242.85 2178.4
-90.17 242.32 2173.7
-85.16 244.12 2189.8
-79.56 244.37 2192.0
-71.68 237.08 2126.6
-64.87 232.45 2085.1
-59.89 234.13 2100.1
-54.94 236.25 2119.2
-49.96 238.70 2141.2
-44.62 239.82 2151.2
-38.59 237.06 2126.5
-32.35 231.87 2079.9
-26.88 231.21 2074.0
-21.94 235.87 2115.8
-16.47 236.10 2117.8
-10.70 230.12 2064.2
-5.29 227.46 2040.4
0.00 228.02 2045.3
5.28 227.13 2037.4
10.58 227.46 2040.3
15.92 228.23 2047.3
21.43 230.33 2066.1
26.85 230.88 2071.0
31.30 224.33 2012.3
35.94 220.78 1980.4
41.42 222.65 1997.2
47.02 224.63 2015.0
53.34 229.38 2057.6
60.37 236.01 2117.0
67.43 241.64 2167.5
72.78 240.73 2159.4
75.27 231.19 2073.8
78.63 225.41 2022.0
86.67 232.92 2089.3
94.87 239.97 2152.6
100.54 240.17 2154.3
107.67 243.68 2185.8
117.75 253.16 2270.9
-143.36 250.87 2304.0
-133.20 243.24 2233.9
-124.54 237.77 2183.6
-116.47 232.94 2139.2
-113.05 237.40 2180.2
-111.66 246.84 2266.9
-105.29 245.68 2256.2
-96.39 238.14 2187.0
-89.12 233.94 2148.5
-83.33 233.32 2142.7
-77.10 231.29 2124.1
-70.39 227.41 2088.5
-64.61 226.13 2076.7
-60.02 229.18 2104.7
-55.45 232.87 2138.6
-49.58 231.37 2124.9
-43.52 228.47 2098.1
-37.81 226.85 2083.3
-31.82 222.75 2045.7
-26.74 224.60 2062.6
-22.03 231.32 2124.3
-16.46 230.46 2116.4
-10.66 223.86 2055.8
-5.19 217.80 2000.2
0.00 214.98 1974.3
5.25 220.39 2024.0
10.78 226.45 2079.7
15.91 222.77 2045.8
20.96 220.06 2020.9
26.61 223.52 2052.7
31.37 219.61 2016.8
35.88 215.27 1977.0
41.17 216.13 1984.8
46.54 217.20 1994.7
52.69 221.30 2032.3
58.78 224.42 2061.0
64.67 226.35 2078.7
71.13 229.79 2110.3
74.97 224.90 2065.4
85.21 223.67 2054.1
95.56 236.08 2168.1
103.62 241.78 2220.5
110.29 243.81 2239.1
-142.96 244.23 2297.6
-131.88 235.09 2211.6
-125.54 233.96 2201.0
-119.53 233.36 2195.4
-112.36 230.33 2166.9
-108.03 233.11 2193.0
-104.02 236.94 2229.0
-96.90 233.69 2198.5
-89.23 228.65 2151.0
-83.35 227.83 2143.3
-77.51 227.00 2135.6
-71.08 224.17 2108.9
-65.40 223.45 2102.1
-60.92 227.06 2136.1
-56.13 230.14 2165.1
-50.10 228.25 2147.3
-43.88 224.88 2115.6
-38.04 222.78 2095.8
-31.91 218.03 2051.2
-26.75 219.31 2063.2
-21.66 222.07 2089.1
-15.89 217.10 2042.4
-10.51 215.52 2027.6
-5.23 214.47 2017.6
0.00 211.72 1991.8
5.29 216.79 2039.5
10.86 222.60 2094.2
15.99 218.58 2056.4
21.04 215.62 2028.5
26.66 218.57 2056.2
32.09 219.30 2063.1
37.49 219.61 2066.0
43.34 222.14 2089.8
49.29 224.55 2112.5
54.40 223.06 2098.5
59.10 220.30 2072.5
64.35 219.86 2068.4
70.01 220.79 2077.1
77.30 226.37 2129.6
84.28 230.36 2167.2
88.73 227.38 2139.1
95.15 229.47 2158.8
104.39 237.78 2237.0
123.20 240.54 2262.9
-159.27 235.95 2275.3
-152.46 234.55 2261.8
-151.06 241.70 2330.6
-144.18 240.29 2317.1
-131.56 228.80 2206.3
-124.16 225.74 2176.8
-122.59 233.50 2251.6
-119.03 238.06 2295.6
-108.84 229.13 2209.5
-100.25 222.77 2148.2
-96.31 226.61 2185.2
-91.31 228.28 2201.3
-85.38 227.69 2195.6
-79.37 226.78 2186.8
-72.00 221.55 2136.3
-65.67 218.88 2110.7
-60.74 220.86 2129.7
-55.66 222.63 2146.8
-50.93 226.35 2182.7
-38.98 222.77 2148.1
-32.23 214.84 2071.6
-26.49 211.96 2043.9
-21.08 210.83 2033.0
-15.87 211.66 2041.0
-10.78 215.68 2079.8
-5.35 214.14 2064.9
0.00 210.94 2034.1
5.28 211.05 2035.1
10.60 211.97 2044.0
15.97 212.90 2052.9
21.50 214.95 2072.8
27.38 219.07 2112.5
33.14 220.92 2130.3
38.21 218.33 2105.4
43.56 217.81 2100.3
49.51 220.06 2122.0
54.57 218.30 2105.0
59.40 216.01 2083.0
64.80 216.00 2082.8
69.86 214.95 2072.7
76.42 218.33 2105.3
85.00 226.66 2185.6
91.15 227.87 2197.3
95.26 224.14 2161.3
101.73 226.07 2179.9
108.79 229.03 2208.5
113.31 226.63 2185.4
120.42 229.38 2211.9
-149.15 223.73 2212.7
-148.78 232.10 2295.5
-145.08 235.75 2331.6
-134.38 227.86 2253.5
-124.64 220.96 2185.3
-121.43 225.51 2230.3
-118.45 230.97 2284.3
-108.43 222.56 2201.1
-99.58 215.75 2133.8
-95.72 219.60 2171.8
-89.52 218.21 2158.1
-82.43 214.31 2119.6
-78.78 219.46 2170.5
-73.29 219.88 2174.7
-66.33 215.58 2132.1
-60.89 215.90 2135.2
-55.72 217.32 2149.3
-50.92 220.65 2182.3
-38.96 217.06 2146.7
-32.56 211.63 2093.1
-27.04 210.94 2086.2
-21.71 211.65 2093.2
-16.45 213.87 2115.2
-10.97 213.97 2116.2
-5.35 208.74 2064.5
0.00 206.63 2043.6
5.33 207.84 2055.5
10.73 209.14 2068.4
16.20 210.55 2082.3
21.48 209.43 2071.3
26.95 210.23 2079.2
32.62 212.04 2097.1
37.53 209.11 2068.1
43.10 210.10 2078.0
49.39 214.02 2116.6
54.95 214.30 2119.5
60.33 213.89 2115.4
64.63 210.05 2077.4
68.07 204.20 2019.6
74.27 206.90 2046.2
82.51 214.52 2121.6
90.18 219.82 2174.1
96.25 220.80 2183.8
103.20 223.59 2211.3
110.87 227.58 2250.8
115.51 225.24 2227.7
122.73 227.92 2254.2
-143.57 227.32 2307.4
-135.24 223.44 2268.0
-127.06 219.46 2227.6
-121.57 219.98 2232.9
-117.08 222.46 2258.0
-107.57 215.14 2183.8
-98.77 208.51 2116.5
-95.96 214.51 2177.4
-90.54 215.02 2182.6
-82.57 209.17 2123.1
-78.55 213.20 2164.1
-74.45 217.63 2209.1
-68.33 216.38 2196.3
-62.50 215.90 2191.5
-56.95 216.41 2196.6
-50.68 213.97 2171.9
-44.24 210.16 2133.2
-38.26 207.72 2108.4
-32.44 205.48 2085.7
-27.48 208.82 2119.6
-22.41 212.94 2161.4
-16.49 208.83 2119.7
-10.68 202.85 2059.0
-5.25 199.32 2023.2
0.00 198.64 2016.2
5.29 201.09 2041.1
10.72 203.73 2068.0
16.35 207.16 2102.8
21.83 207.35 2104.7
27.51 209.11 2122.5
33.45 211.85 2150.3
38.26 207.72 2108.4
43.67 207.42 2105.4
49.82 210.35 2135.1
55.07 209.25 2124.0
60.40 208.65 2117.9
64.59 204.52 2076.0
68.49 200.19 2032.0
75.55 205.07 2081.6
83.03 210.34 2135.1
89.67 212.97 2161.7
97.28 217.45 2207.2
-132.53 222.89 2323.6
-118.30 218.85 2281.5
-104.61 203.72 2123.7
-98.84 203.17 2118.0
-99.01 215.50 2246.5
-94.44 218.39 2276.6
-87.07 214.78 2239.0
-79.65 210.51 2194.5
-72.63 206.71 2154.9
-67.48 208.06 2169.0
-62.49 210.18 2191.1
-56.42 208.76 2176.3
-49.69 204.29 2129.6
-43.39 200.67 2091.9
-37.43 197.82 2062.2
-32.20 198.59 2070.2
-27.75 205.38 2141.0
-22.11 204.52 2132.1
-15.88 195.84 2041.6
-10.45 193.36 2015.7
-5.22 193.27 2014.7
0.00 190.88 1989.9
5.18 191.64 1997.8
10.49 194.12 2023.7
15.99 197.18 2055.5
21.87 202.33 2109.2
38.02 200.97 2095.0
42.83 198.09 2065.1
48.28 198.47 2068.9
53.53 198.07 2064.8
58.97 198.34 2067.7
65.78 202.81 2114.3
73.13 208.14 2169.8
77.67 205.26 2139.8
82.04 202.38 2109.7
88.83 205.41 2141.3
96.47 209.97 2188.8
103.85 213.47 2225.4
-132.11 216.18 2316.2
-124.39 213.24 2284.7
-112.76 202.97 2174.6
-100.12 200.23 2145.4
-100.75 213.35 2285.9
-87.29 209.49 2244.6
-78.48 201.80 2162.2
-70.16 194.30 2081.8
-64.12 192.36 2061.0
-59.49 194.70 2086.1
-53.78 193.60 2074.3
-48.80 195.19 2091.3
-43.92 197.62 2117.3
-38.37 197.35 2114.5
-33.42 200.52 2148.4
-28.03 201.83 2162.4
-21.74 195.70 2096.8
-15.63 187.62 2010.2
-5.28 189.95 2035.1
0.00 191.71 2054.1
5.22 188.09 2015.2
10.36 186.41 1997.3
15.86 190.31 2039.1
21.80 196.16 2101.8
27.48 197.83 2119.6
32.13 192.81 2065.8
37.07 190.66 2042.8
43.01 193.53 2073.5
48.03 192.13 2058.5
52.77 189.98 2035.5
58.47 191.36 2050.3
65.61 196.82 2108.8
73.89 204.61 2192.2
79.31 203.94 2185.1
82.53 198.07 2122.2
87.94 197.86 2120.0
95.00 201.18 2155.5
101.51 203.02 2175.2
108.90 206.33 2210.7
-134.51 204.69 2255.7
-129.25 205.62 2266.0
-124.26 207.09 2282.3
-114.64 200.62 2211.0
-105.89 195.05 2149.6
-100.65 195.71 2156.8
-99.32 204.49 2253.6
-95.43 208.76 2300.6
-86.50 201.82 2224.2
-78.10 195.25 2151.7
-70.25 189.13 2084.3
-53.30 186.55 2055.9
-49.27 191.62 2111.8
-44.13 193.08 2127.8
-38.35 191.73 2113.0
-33.12 193.19 2129.0
-27.56 192.92 2126.1
-22.09 193.29 2130.1
-16.38 191.13 2106.3
-10.48 183.45 2021.7
-5.20 182.09 2006.7
0.00 187.25 2063.5
5.34 186.79 2058.5
10.51 183.90 2026.6
16.02 186.88 2059.5
21.51 188.23 2074.4
26.44 185.06 2039.5
32.20 187.86 2070.2
38.76 193.81 2135.9
43.88 191.99 2115.9
47.72 185.57 2045.0
52.58 184.02 2028.0
58.54 186.27 2052.7
65.31 190.50 2099.4
73.20 197.08 2171.8
79.18 197.96 2181.6
82.78 193.16 2128.7
89.61 196.02 2160.3
98.40 202.59 2232.7
103.58 201.40 2219.5
109.07 200.92 2214.2
-144.20 204.29 2317.5
-134.60 198.97 2257.3
-131.94 203.91 2313.3
-126.83 205.34 2329.5
-116.78 198.53 2252.3
-108.70 194.52 2206.8
-104.30 197.00 2234.9
-100.14 200.27 2272.0
-93.88 199.50 2263.3
-87.33 197.95 2245.6
-80.94 196.56 2229.9
-72.81 190.44 2160.4
-65.58 185.80 2107.8
-59.21 183.01 2076.1
-53.80 182.93 2075.3
-49.36 186.45 2115.2
-43.67 185.59 2105.4
-38.07 184.89 2097.5
