ply
format ascii 1.0
element vertex 2140
property float x
property float y
property float z
end_header
157.66 -601.97 1842.8
161.99 -600.30 1837.7
166.37 -598.94 1833.5
171.18 -599.12 1834.0
183.31 -607.82 1860.7
181.97 -587.90 1799.7
206.23 -604.30 1849.9
209.57 -600.13 1837.1
210.75 -590.09 1806.4
250.48 -595.48 1822.9
255.79 -596.83 1827.0
388.34 -568.96 1741.7
392.45 -568.37 1739.9
398.88 -571.12 1748.3
409.25 -572.96 1753.9
426.06 -589.93 1805.9
458.49 -595.56 1823.2
460.14 -591.61 1811.0
470.02 -598.21 1831.3
480.00 -604.80 1851.4
504.37 -617.00 1888.8
506.48 -613.62 1878.4
508.04 -609.65 1866.3
518.89 -616.80 1888.2
529.85 -623.93 1910.0
531.38 -619.95 1897.8
524.30 -606.07 1855.3
527.74 -604.50 1850.5
545.39 -619.10 1895.2
554.52 -618.31 1892.8
575.50 -614.52 1881.2
582.81 -617.09 1889.1
599.33 -613.95 1879.4
612.26 -622.14 1904.5
606.76 -611.62 1872.3
622.91 -608.42 1862.5
633.69 -614.20 1880.2
636.27 -611.98 1873.4
628.29 -599.73 1835.9
638.63 -596.06 1824.7
659.09 -610.63 1869.3
712.04 -606.19 1855.7
712.18 -594.27 1819.2
763.98 -617.06 1889.0
772.94 -620.32 1898.9
755.80 -602.73 1845.1
758.99 -590.32 1807.1
774.21 -598.47 1832.0
802.27 -616.38 1886.9
799.32 -610.39 1868.5
793.62 -602.39 1844.0
819.79 -618.52 1893.4
820.15 -615.12 1883.0
-772.95 -602.24 1829.1
-756.63 -593.16 1801.5
-727.82 -596.34 1811.2
-726.55 -599.17 1819.8
-688.24 -586.62 1781.6
-680.05 -583.56 1772.3
-667.29 -592.63 1799.9
-657.19 -587.77 1785.1
-659.68 -602.73 1830.6
-653.81 -601.70 1827.4
-647.96 -600.67 1824.3
-639.90 -597.56 1814.8
-612.78 -603.28 1832.2
-618.69 -613.85 1864.3
-608.61 -608.61 1848.4
-592.69 -597.39 1814.3
-588.98 -598.40 1817.4
-590.22 -604.50 1835.9
-550.94 -598.03 1816.3
-553.18 -605.64 1839.4
-538.96 -595.20 1807.7
-541.37 -603.11 1831.7
-543.13 -610.42 1853.9
-513.04 -597.76 1815.5
-514.55 -605.08 1837.7
-511.12 -606.66 1842.5
-502.36 -601.88 1828.0
-504.17 -609.81 1852.1
-506.37 -618.35 1878.0
-499.58 -615.99 1870.8
-489.90 -609.98 1852.6
-488.52 -614.28 1865.6
-483.96 -614.63 1866.7
-469.68 -602.52 1829.9
-454.14 -600.79 1824.7
-443.05 -592.29 1798.9
-344.03 -590.43 1793.2
-349.61 -608.23 1847.3
-346.54 -611.26 1856.5
-284.08 -572.66 1739.2
-247.15 -541.18 1643.6
-224.73 -570.82 1733.7
-228.33 -591.80 1797.4
-221.86 -587.00 1782.8
-213.18 -588.57 1787.6
-213.01 -601.16 1825.8
-160.44 -599.31 1820.2
-157.70 -606.91 1843.3
-150.52 -597.36 1814.3
-139.83 -612.35 1859.8
-134.21 -608.72 1848.7
-127.05 -597.58 1814.9
-122.49 -598.30 1817.1
-83.96 -592.38 1799.1
-80.47 -601.19 1825.9
-76.46 -606.88 1843.2
-72.20 -611.31 1856.6
-42.12 -594.38 1805.2
-19.06 -605.13 1837.8
-14.72 -623.28 1893.0
-4.88 -620.17 1883.5
9.50 -602.96 1831.3
14.32 -606.39 1841.7
38.11 -605.04 1837.6
100.96 -610.60 1854.5
108.35 -598.26 1817.0
114.57 -606.29 1841.4
142.05 -601.33 1826.3
148.20 -607.14 1844.0
152.72 -606.09 1840.8
155.92 -600.05 1822.4
161.78 -604.29 1835.3
168.05 -609.78 1852.0
172.64 -609.02 1849.7
179.21 -615.12 1868.2
185.69 -620.59 1884.8
207.65 -613.30 1862.7
210.81 -608.48 1848.0
211.91 -598.06 1816.4
228.31 -604.08 1834.7
256.65 -603.60 1833.2
262.39 -605.88 1840.1
269.12 -610.33 1853.6
272.58 -607.34 1844.5
271.05 -593.51 1802.5
401.34 -579.20 1759.1
405.05 -577.99 1755.4
408.31 -576.17 1749.9
418.53 -584.10 1774.0
429.54 -592.95 1800.8
456.29 -591.31 1795.9
468.26 -600.70 1824.4
476.79 -605.52 1839.0
497.93 -608.05 1846.7
514.69 -610.89 1855.3
521.24 -612.94 1861.6
519.26 -605.01 1837.5
533.93 -610.89 1855.4
550.37 -624.08 1895.4
552.36 -604.74 1836.7
576.14 -625.38 1899.3
578.45 -622.56 1890.8
582.54 -611.43 1857.0
584.66 -608.62 1848.5
599.49 -618.98 1879.9
600.44 -614.97 1867.7
626.11 -616.40 1872.1
630.20 -615.66 1869.8
626.61 -607.48 1845.0
630.01 -606.15 1841.0
636.82 -608.09 1846.8
635.18 -602.00 1828.4
645.45 -607.20 1844.1
662.77 -618.91 1879.7
666.19 -617.56 1875.6
683.80 -603.08 1831.6
684.32 -599.37 1820.4
691.99 -597.84 1815.7
713.95 -612.65 1860.7
753.85 -617.67 1875.9
770.64 -627.38 1905.4
766.29 -619.86 1882.6
762.92 -613.23 1862.5
797.54 -621.39 1887.2
802.93 -618.01 1877.0
784.40 -600.11 1822.6
797.57 -606.54 1842.1
929.85 -641.80 1949.2
928.65 -637.51 1936.2
-778.39 -611.25 1841.9
-751.36 -597.35 1800.1
-743.66 -594.93 1792.7
-723.77 -597.69 1801.1
-736.34 -612.02 1844.3
-713.48 -596.90 1798.7
-693.56 -591.84 1783.5
-681.57 -585.51 1764.4
-666.17 -596.29 1796.9
-657.07 -592.29 1784.8
-659.22 -607.05 1829.3
-659.47 -611.68 1843.2
-647.83 -605.28 1823.9
-634.06 -596.77 1798.3
-629.55 -596.91 1798.7
-574.16 -587.94 1771.7
-551.92 -593.66 1788.9
-549.03 -595.56 1794.7
-545.57 -596.86 1798.6
-529.32 -589.15 1775.3
-535.31 -601.05 1811.2
-536.58 -607.81 1831.6
-515.00 -604.77 1822.4
-522.40 -619.14 1865.7
-514.82 -615.86 1855.8
-501.99 -606.18 1826.7
-498.80 -608.07 1832.3
-495.29 -615.50 1854.8
-491.50 -616.78 1858.6
-482.38 -611.33 1842.2
-470.23 -601.89 1813.7
-449.67 -599.56 1806.7
-427.03 -607.34 1830.1
-421.01 -605.50 1824.6
-416.70 -606.11 1826.5
-392.80 -605.77 1825.4
-366.42 -601.31 1812.0
-366.92 -609.94 1838.0
-356.61 -600.61 1809.9
-345.39 -597.42 1800.3
-350.59 -614.73 1852.4
-347.50 -617.78 1861.6
-306.46 -585.49 1764.3
-292.93 -585.85 1765.4
-286.16 -581.40 1752.0
-207.17 -576.48 1737.2
-209.00 -594.48 1791.4
-156.61 -607.45 1830.5
-150.95 -603.80 1819.5
-99.85 -608.64 1834.1
-96.44 -617.21 1859.9
-71.11 -606.83 1828.6
-67.45 -616.64 1858.2
-9.51 -608.50 1833.6
-4.79 -612.60 1846.0
29.17 -622.30 1875.2
33.72 -616.60 1858.1
52.79 -614.27 1851.0
57.08 -608.87 1834.8
80.75 -607.97 1832.1
95.50 -611.23 1841.9
102.85 -626.88 1889.0
110.52 -615.08 1853.5
115.67 -616.88 1858.9
211.39 -629.25 1896.2
214.85 -625.01 1883.4
214.72 -610.76 1840.5
229.66 -612.44 1845.5
253.58 -624.21 1881.0
260.19 -628.38 1893.6
264.75 -627.56 1891.1
264.87 -616.43 1857.5
265.50 -606.87 1828.7
274.32 -616.02 1856.3
278.33 -614.25 1851.0
403.58 -587.03 1768.9
407.53 -586.11 1766.2
411.46 -585.19 1763.4
423.03 -595.03 1793.1
450.70 -607.25 1829.9
457.49 -609.99 1838.1
457.36 -603.52 1818.6
462.75 -604.41 1821.3
469.58 -607.13 1829.5
502.17 -624.05 1880.5
510.46 -628.26 1893.2
507.31 -618.43 1863.6
508.55 -614.10 1850.5
512.02 -612.51 1845.7
514.70 -610.01 1838.2
518.63 -609.03 1835.2
523.84 -609.56 1836.9
565.77 -618.96 1865.2
578.56 -617.13 1859.6
590.98 -625.16 1883.9
600.06 -629.57 1897.1
618.20 -604.04 1820.2
632.97 -613.79 1849.6
635.54 -602.59 1815.8
648.98 -610.80 1840.6
664.76 -621.09 1871.6
669.12 -620.63 1870.2
687.68 -611.27 1842.0
698.30 -616.43 1857.5
700.20 -613.87 1849.8
699.68 -609.25 1835.9
705.94 -610.54 1839.8
725.81 -607.22 1829.8
750.87 -624.10 1880.7
751.56 -620.65 1870.2
752.08 -613.16 1847.7
766.03 -620.58 1870.0
785.84 -617.10 1859.6
782.13 -610.44 1839.5
796.00 -617.51 1860.8
805.43 -621.06 1871.5
799.70 -612.95 1847.0
815.64 -621.44 1872.6
829.97 -621.26 1872.1
827.85 -616.07 1856.5
830.36 -614.37 1851.3
824.97 -606.88 1828.8
831.35 -608.07 1832.4
856.16 -615.66 1855.2
874.70 -625.48 1884.8
916.76 -644.76 1942.9
-757.43 -610.68 1826.0
-756.61 -613.85 1835.4
-733.25 -610.25 1824.7
-734.82 -619.56 1852.5
-689.63 -593.08 1773.3
-681.47 -602.12 1800.4
-662.55 -601.89 1799.7
-663.63 -607.15 1815.4
-660.40 -608.51 1819.5
-658.44 -611.07 1827.1
-659.01 -616.03 1842.0
-647.70 -609.88 1823.6
-634.57 -601.91 1799.7
-631.00 -602.96 1802.9
-635.55 -611.83 1829.4
-633.75 -614.69 1837.9
-622.96 -608.80 1820.3
-615.92 -606.52 1813.5
-560.90 -597.98 1788.0
-556.35 -598.08 1788.3
-554.05 -600.61 1795.8
-554.49 -606.18 1812.5
-555.13 -612.07 1830.1
-538.46 -604.01 1806.0
-531.96 -601.95 1799.9
-521.74 -595.61 1780.9
-518.50 -608.06 1818.1
-516.44 -611.20 1827.5
-511.76 -611.26 1827.7
-487.69 -599.17 1791.5
-486.80 -603.82 1805.4
-486.82 -609.71 1823.1
-486.03 -614.68 1837.9
-480.34 -613.50 1834.4
-473.94 -611.39 1828.1
-445.67 -598.86 1790.6
-428.90 -601.40 1798.2
-434.29 -615.64 1840.8
-437.52 -627.11 1875.1
-430.96 -624.65 1867.7
-419.57 -615.05 1839.0
-399.67 -613.79 1835.2
-366.15 -605.55 1810.6
-368.87 -617.98 1847.8
-323.30 -622.47 1861.2
-303.86 -593.91 1775.8
-297.01 -589.44 1762.5
-297.68 -600.01 1794.0
-281.35 -576.10 1722.6
-242.76 -530.79 1587.1
-250.45 -557.03 1665.6
-253.71 -574.19 1716.8
-245.11 -564.64 1688.3
-239.21 -561.05 1677.6
-230.46 -550.54 1646.1
-223.33 -554.04 1656.6
-224.83 -568.68 1700.4
-206.56 -579.28 1732.1
-205.98 -590.47 1765.5
-194.61 -583.84 1745.7
-195.78 -601.34 1798.0
-191.77 -603.38 1804.1
-182.22 -602.72 1802.2
-180.19 -611.71 1829.0
-175.49 -611.84 1829.4
-167.79 -601.24 1797.7
-155.84 -609.20 1821.5
-151.78 -611.84 1829.4
-105.27 -617.27 1845.7
-102.10 -627.17 1875.3
-70.91 -609.83 1823.4
-67.74 -624.15 1866.2
-4.82 -621.66 1858.8
0.00 -622.30 1860.7
28.93 -621.91 1859.5
52.91 -620.49 1855.3
57.51 -618.22 1848.5
61.82 -613.42 1834.2
66.91 -616.54 1843.5
72.35 -622.19 1860.4
77.12 -621.82 1859.3
81.56 -618.90 1850.5
94.01 -606.34 1813.0
115.75 -622.17 1860.3
116.20 -599.60 1792.8
131.80 -607.22 1815.6
136.56 -607.44 1816.3
140.50 -604.16 1806.5
158.19 -618.36 1848.9
186.13 -615.67 1840.9
225.12 -617.87 1847.5
234.06 -629.03 1880.8
238.27 -627.28 1875.6
257.19 -638.04 1907.8
265.21 -633.55 1894.3
275.58 -612.93 1832.7
407.06 -603.57 1804.7
412.59 -604.82 1808.4
408.30 -591.80 1769.5
412.46 -591.19 1767.7
459.24 -623.59 1864.6
467.72 -628.50 1879.2
469.78 -624.76 1868.0
470.61 -619.48 1852.3
473.49 -616.97 1844.8
476.09 -614.16 1836.4
508.11 -630.25 1884.5
517.69 -636.02 1901.7
514.24 -625.82 1871.2
513.18 -618.69 1849.9
525.29 -616.02 1841.9
593.03 -607.15 1815.4
603.58 -613.09 1833.2
614.21 -619.01 1850.9
620.08 -620.08 1854.1
622.62 -617.83 1847.3
634.01 -624.33 1866.8
633.15 -618.76 1850.1
656.52 -627.34 1875.8
659.31 -625.37 1869.9
702.26 -616.27 1842.7
704.43 -613.99 1835.9
754.96 -632.40 1890.9
752.24 -610.31 1824.8
764.39 -616.29 1842.7
831.46 -630.93 1886.5
845.31 -637.69 1906.7
822.63 -616.97 1844.8
892.45 -636.06 1901.8
919.85 -651.98 1949.4
-722.01 -613.47 1820.2
-707.37 -604.99 1795.0
-691.11 -594.99 1765.4
-688.12 -596.37 1769.4
-680.33 -605.77 1797.3
-681.90 -611.36 1813.9
-679.72 -613.64 1820.7
-629.26 -615.07 1824.9
-620.97 -611.57 1814.5
-617.63 -612.92 1818.5
-606.66 -606.66 1800.0
-597.28 -606.61 1799.8
-594.51 -608.56 1805.6
-582.73 -606.04 1798.2
-561.33 -608.10 1804.3
-562.07 -614.02 1821.8
-566.34 -623.94 1851.2
-535.62 -610.79 1812.2
-523.34 -618.50 1835.1
-510.11 -608.39 1805.1
-489.33 -605.84 1797.6
-490.90 -613.63 1820.7
-485.98 -613.37 1819.9
-480.08 -611.87 1815.4
-477.81 -615.01 1824.8
-475.26 -617.84 1833.2
-472.19 -620.05 1839.7
-447.86 -606.48 1799.4
-451.17 -617.39 1831.8
-450.93 -623.63 1850.3
-444.37 -621.17 1843.0
-437.62 -618.38 1834.8
-433.75 -619.64 1838.5
-428.56 -619.03 1836.7
-424.01 -619.35 1837.6
-402.28 -608.10 1804.2
-402.70 -615.90 1827.4
-333.71 -611.02 1812.9
-337.45 -626.70 1859.4
-330.26 -622.23 1846.2
-326.92 -625.00 1854.4
-322.40 -625.56 1856.1
-256.81 -556.42 1650.9
-240.76 -549.09 1629.2
-235.52 -546.75 1622.2
-216.19 -540.48 1603.6
-224.03 -571.07 1694.4
-188.92 -599.01 1777.3
-187.97 -610.91 1812.6
-173.91 -611.02 1812.9
-167.74 -605.74 1797.3
-162.09 -602.05 1786.3
-160.57 -613.96 1821.6
-154.75 -609.62 1808.8
-140.10 -607.10 1801.3
-135.03 -605.30 1795.9
-92.42 -632.33 1876.2
-62.25 -622.48 1846.9
-57.17 -619.34 1837.6
-38.67 -628.43 1864.6
-9.61 -624.39 1852.6
-4.77 -620.24 1840.3
9.51 -618.32 1834.6
14.12 -611.92 1815.6
66.82 -620.52 1841.1
81.79 -625.45 1855.7
86.59 -625.38 1855.5
113.48 -614.71 1823.9
116.85 -607.60 1802.8
122.33 -611.65 1814.8
136.02 -609.76 1809.2
189.71 -632.36 1876.2
253.83 -634.57 1882.8
399.18 -603.41 1790.3
417.00 -623.10 1848.8
420.31 -620.91 1842.3
416.11 -607.80 1803.4
453.67 -620.81 1842.0
475.98 -625.02 1854.5
482.42 -627.15 1860.8
480.70 -618.73 1835.8
542.77 -635.68 1886.1
549.71 -638.05 1893.1
543.83 -625.65 1856.3
608.67 -618.19 1834.2
619.95 -624.75 1853.7
627.66 -627.66 1862.3
638.47 -633.59 1879.9
634.54 -620.23 1840.2
657.93 -638.29 1893.8
665.82 -636.44 1888.3
671.67 -619.27 1837.4
692.72 -634.18 1881.6
697.40 -634.00 1881.1
698.06 -630.20 1869.8
757.55 -619.38 1837.7
777.41 -631.64 1874.1
837.78 -636.91 1889.7
829.87 -627.23 1861.0
876.32 -647.28 1920.5
862.56 -633.52 1879.7
-726.45 -606.15 1784.7
-713.07 -610.54 1797.7
-711.08 -612.84 1804.4
-707.31 -613.63 1806.8
-693.86 -605.97 1784.2
-673.71 -608.66 1792.1
-673.58 -612.77 1804.2
-615.47 -606.22 1784.9
-605.43 -600.84 1769.1
-610.49 -615.18 1811.3
-619.20 -628.80 1851.4
-605.84 -620.04 1825.6
-577.47 -610.07 1796.3
-570.03 -607.10 1787.5
-562.90 -604.43 1779.7
-563.79 -610.39 1797.2
-562.61 -614.19 1808.4
-560.54 -617.06 1816.9
-565.65 -627.97 1849.0
-527.13 -627.77 1848.4
-522.92 -628.46 1850.4
-503.83 -611.13 1799.4
-501.95 -626.24 1843.9
-496.97 -625.99 1843.2
-486.11 -618.25 1820.4
-467.23 -631.00 1857.9
-456.70 -623.21 1835.0
-450.60 -621.36 1829.5
-444.98 -620.13 1825.9
-430.47 -612.95 1804.7
-430.59 -619.86 1825.1
-424.35 -617.67 1818.7
-419.00 -616.73 1815.9
-354.61 -627.76 1848.4
-351.56 -630.88 1857.5
-339.75 -618.16 1820.1
-336.89 -621.59 1830.2
-334.14 -625.33 1841.2
-320.15 -607.83 1789.7
-309.55 -596.33 1755.8
-262.73 -546.32 1608.6
-265.88 -561.78 1654.1
-270.13 -580.11 1708.1
-264.34 -577.13 1699.3
-227.46 -562.22 1655.4
-226.79 -571.33 1682.2
-224.48 -576.61 1697.8
-218.32 -571.99 1684.2
-210.91 -563.86 1660.2
-211.93 -578.39 1703.0
-207.46 -578.24 1702.6
-186.56 -610.97 1798.9
-180.13 -605.04 1781.5
-174.86 -619.08 1822.8
-168.67 -613.77 1807.2
-163.08 -610.38 1797.2
-160.03 -616.59 1815.5
-152.77 -606.46 1785.6
-127.11 -616.74 1815.9
-122.43 -616.84 1816.2
-118.04 -618.54 1821.2
-115.81 -632.11 1861.2
-110.10 -627.06 1846.3
-87.80 -639.02 1881.5
-82.98 -639.40 1882.7
-9.66 -632.88 1863.4
-4.74 -621.31 1829.4
0.00 -611.98 1801.9
4.77 -625.17 1840.7
9.53 -624.20 1837.9
42.98 -625.66 1842.2
81.35 -626.87 1845.8
86.70 -630.98 1857.9
108.12 -615.83 1813.2
115.04 -627.94 1848.9
120.55 -631.70 1860.0
125.29 -631.28 1858.7
128.24 -622.19 1832.0
131.11 -613.43 1806.2
169.33 -633.77 1866.1
476.80 -630.92 1857.7
479.92 -628.69 1851.1
495.18 -629.79 1854.3
499.69 -629.42 1853.3
511.01 -619.83 1825.0
515.94 -620.08 1825.7
525.83 -626.21 1843.8
538.96 -636.06 1872.8
553.43 -630.43 1856.2
546.38 -617.04 1816.8
594.64 -623.18 1834.9
621.73 -626.52 1844.7
635.56 -635.56 1871.3
639.95 -635.11 1870.0
643.09 -633.42 1865.0
648.40 -633.88 1866.4
644.58 -625.48 1841.7
652.99 -628.99 1852.0
664.64 -635.53 1871.3
654.27 -612.21 1802.6
670.87 -623.29 1835.2
690.26 -636.79 1875.0
692.27 -634.18 1867.3
703.24 -639.75 1883.7
711.60 -642.90 1892.9
700.77 -628.77 1851.3
727.82 -631.42 1859.1
731.00 -630.01 1855.0
763.58 -629.11 1852.3
784.56 -642.36 1891.3
786.96 -640.32 1885.4
805.31 -631.71 1860.0
796.08 -620.76 1827.7
843.52 -631.43 1859.2
867.41 -645.63 1901.0
-784.87 -631.72 1845.9
-724.51 -609.14 1780.0
-723.71 -612.37 1789.4
-712.22 -614.47 1795.5
-713.73 -619.82 1811.2
-713.42 -623.65 1822.4
-704.08 -619.59 1810.5
-671.56 -611.35 1786.4
-672.11 -616.10 1800.3
-673.25 -621.46 1816.0
-674.31 -626.83 1831.6
-666.15 -623.63 1822.3
-662.90 -625.02 1826.4
-657.69 -624.57 1825.0
-615.52 -624.99 1826.3
-620.26 -634.69 1854.6
-602.71 -621.54 1816.2
-586.07 -623.89 1823.0
-577.12 -619.35 1809.8
-568.23 -614.81 1796.5
-551.34 -616.75 1802.2
-556.68 -628.05 1835.2
-547.35 -622.85 1820.0
-521.79 -626.15 1829.7
-522.28 -632.48 1848.2
-508.32 -621.29 1815.4
-431.46 -619.05 1808.9
-427.87 -620.64 1813.6
-418.00 -613.06 1791.4
-411.64 -610.53 1784.0
-351.73 -619.05 1808.9
-355.77 -634.61 1854.4
-356.22 -644.13 1882.2
-349.06 -639.94 1869.9
-340.06 -632.23 1847.4
-330.50 -623.23 1821.1
-273.64 -582.59 1702.4
-276.28 -597.85 1747.0
-268.79 -591.34 1727.9
-254.81 -570.08 1665.8
-226.00 -562.86 1644.7
-223.95 -568.50 1661.2
-218.22 -564.81 1650.4
-208.29 -549.88 1606.8
-211.22 -569.01 1662.7
-221.47 -609.05 1779.7
-214.17 -601.50 1757.6
-188.67 -592.95 1732.7
-186.92 -601.80 1758.5
-180.84 -596.79 1743.9
-180.75 -611.75 1787.6
-182.56 -634.14 1853.0
-177.88 -634.60 1854.4
-168.89 -619.26 1809.5
-142.82 -628.39 1836.2
-139.50 -634.96 1855.4
-108.54 -622.95 1820.3
-95.55 -630.63 1842.7
-91.34 -634.58 1854.3
-86.76 -636.27 1859.2
-82.24 -638.60 1866.0
-74.98 -618.60 1807.6
-28.12 -618.69 1807.9
-24.10 -636.19 1859.0
-19.63 -647.87 1893.1
-4.71 -621.99 1817.5
4.78 -630.41 1842.1
43.59 -639.32 1868.2
48.01 -633.78 1852.0
62.41 -633.65 1851.6
67.85 -639.75 1869.4
75.61 -623.78 1822.7
81.24 -630.84 1843.4
86.37 -633.36 1850.7
89.71 -623.26 1821.2
93.15 -614.78 1796.4
98.00 -616.00 1800.0
104.00 -624.00 1823.4
110.12 -632.00 1846.7
115.89 -637.40 1862.5
120.89 -638.28 1865.1
124.94 -634.30 1853.5
127.08 -621.28 1815.4
135.81 -618.17 1806.3
143.18 -630.00 1840.9
171.50 -646.81 1890.0
174.43 -639.58 1868.9
188.08 -636.57 1860.1
189.73 -626.11 1829.5
228.60 -642.03 1876.0
236.32 -649.88 1899.0
236.04 -635.87 1858.1
240.91 -636.01 1858.5
473.30 -637.51 1862.8
477.86 -637.15 1861.8
496.03 -635.69 1857.5
503.52 -639.09 1867.5
544.40 -641.61 1874.8
556.39 -649.94 1899.2
558.80 -647.04 1890.7
557.92 -640.39 1871.3
551.18 -627.21 1832.8
564.69 -631.68 1845.8
611.10 -650.53 1900.9
597.43 -630.89 1843.5
624.70 -629.47 1839.4
629.33 -629.33 1839.0
634.57 -629.80 1840.3
642.00 -632.42 1848.0
655.11 -617.67 1804.9
666.48 -623.94 1823.2
680.23 -632.33 1847.7
681.85 -629.40 1839.2
692.42 -634.72 1854.7
696.02 -633.62 1851.5
713.20 -636.09 1858.7
720.20 -638.03 1864.4
726.18 -639.04 1867.3
741.90 -648.55 1895.1
735.74 -638.93 1867.0
761.23 -648.28 1894.3
755.87 -639.58 1868.9
767.19 -640.95 1872.9
756.51 -628.05 1835.2
756.98 -624.51 1824.9
787.43 -626.15 1829.7
807.03 -637.90 1864.0
895.21 -645.72 1886.9
-783.55 -639.34 1854.1
-730.19 -614.65 1782.6
-722.21 -611.81 1774.3
-718.20 -612.31 1775.8
-708.42 -628.13 1821.6
-707.34 -631.38 1831.1
-682.35 -613.19 1778.3
-667.08 -603.55 1750.4
-672.09 -616.47 1787.8
-667.64 -616.64 1788.3
-663.18 -616.80 1788.8
-673.83 -631.13 1830.3
-674.17 -635.92 1844.2
-663.40 -630.23 1827.7
-651.42 -623.30 1807.6
-613.18 -617.82 1791.8
-616.92 -626.33 1816.4
-610.82 -624.92 1812.3
-601.73 -620.39 1799.2
-596.88 -620.20 1798.6
-586.52 -629.09 1824.4
-579.01 -626.08 1815.7
-568.67 -619.95 1797.9
-562.40 -618.18 1792.8
-547.50 -627.73 1820.5
-548.55 -634.41 1839.9
-493.46 -637.18 1847.9
-490.65 -639.77 1855.4
-478.91 -630.64 1828.9
-456.02 -631.77 1832.2
-446.75 -625.45 1813.9
-406.92 -615.00 1783.6
-408.13 -623.92 1809.4
-386.94 -643.30 1865.6
-367.94 -635.53 1843.1
-361.67 -632.92 1835.5
-361.59 -641.22 1859.6
-357.28 -642.14 1862.3
-349.61 -636.96 1847.2
-346.01 -639.15 1853.6
-341.17 -639.10 1853.4
-335.83 -638.07 1850.5
-323.66 -623.87 1809.3
-311.86 -609.97 1769.0
-309.02 -613.43 1779.0
-279.44 -599.44 1738.4
-276.36 -602.56 1747.5
-264.07 -585.36 1697.6
-246.31 -555.24 1610.2
-232.45 -542.38 1573.0
-229.94 -546.11 1583.8
-226.98 -548.88 1591.8
-212.61 -577.08 1673.6
-216.04 -598.61 1736.0
-193.48 -598.44 1735.6
-191.39 -606.05 1757.6
-185.57 -601.99 1745.8
-180.31 -599.54 1738.7
-182.50 -638.76 1852.5
-177.11 -636.63 1846.3
-169.63 -626.71 1817.5
-147.81 -634.16 1839.1
-142.85 -633.30 1836.6
-137.69 -631.46 1831.3
-120.42 -640.65 1858.0
-95.18 -632.94 1835.6
-75.51 -627.68 1820.3
-42.39 -626.38 1816.6
-28.22 -625.49 1814.0
-23.98 -637.89 1850.0
-19.52 -648.99 1882.2
-14.32 -634.99 1841.5
23.61 -628.12 1821.6
28.78 -637.87 1849.9
47.85 -636.45 1845.8
67.90 -645.06 1870.7
73.66 -653.15 1894.2
76.61 -636.80 1846.8
87.31 -645.14 1871.0
91.87 -643.11 1865.1
94.10 -625.78 1814.8
97.66 -618.54 1793.8
129.16 -636.23 1845.1
143.29 -635.25 1842.3
173.06 -639.37 1854.2
179.64 -645.72 1872.7
182.97 -640.39 1857.2
185.08 -631.15 1830.4
190.26 -632.63 1834.7
204.80 -648.53 1880.8
212.56 -657.45 1906.7
219.70 -649.33 1883.1
225.45 -637.96 1850.2
234.85 -650.73 1887.2
430.16 -628.69 1823.3
480.57 -645.61 1872.3
482.29 -641.45 1860.3
497.13 -641.93 1861.7
501.17 -640.92 1858.7
535.27 -641.36 1860.0
537.11 -637.82 1849.7
544.67 -635.44 1842.9
549.64 -635.67 1843.5
570.38 -642.89 1864.4
580.72 -649.04 1882.3
606.29 -650.30 1885.9
637.69 -628.24 1822.0
670.90 -632.84 1835.3
687.64 -644.06 1867.8
692.62 -644.18 1868.2
701.58 -647.99 1879.2
704.24 -645.96 1873.3
713.86 -645.87 1873.1
720.88 -647.82 1878.7
706.65 -630.77 1829.3
746.28 -632.20 1833.4
769.97 -640.04 1856.2
792.85 -654.97 1899.5
784.19 -643.81 1867.1
823.33 -640.37 1857.1
824.31 -637.40 1848.5
817.06 -628.14 1821.7
843.02 -644.38 1868.8
871.56 -662.38 1921.0
910.38 -668.95 1940.0
917.84 -670.73 1945.2
916.72 -666.25 1932.2
930.34 -672.47 1950.2
934.94 -672.15 1949.3
937.06 -670.05 1943.2
-741.95 -629.25 1811.3
-737.86 -629.77 1812.8
-736.62 -632.73 1821.3
-719.71 -622.20 1791.0
-692.40 -618.55 1780.5
-698.61 -628.28 1808.5
-681.18 -616.75 1775.3
-677.79 -617.85 1778.4
-688.51 -631.92 1819.0
-674.29 -623.14 1793.7
-629.47 -620.21 1785.3
-628.44 -623.78 1795.5
-595.26 -618.34 1779.9
-605.72 -634.11 1825.3
-595.76 -628.60 1809.4
-595.10 -637.94 1836.3
-597.71 -645.91 1859.2
-585.22 -637.55 1835.2
-570.26 -626.35 1802.9
-563.98 -624.57 1797.8
-557.43 -622.46 1791.7
-536.09 -635.72 1829.9
-534.86 -639.92 1842.0
-522.54 -630.82 1815.8
-509.31 -620.43 1785.9
-501.38 -616.38 1774.2
-499.13 -619.29 1782.6
-497.34 -622.84 1792.8
-490.40 -637.99 1836.4
-481.43 -638.73 1838.6
-475.27 -636.86 1833.2
-467.69 -639.49 1840.7
-417.14 -635.19 1828.4
-410.73 -632.62 1821.0
-400.85 -624.58 1797.8
-377.43 -640.20 1842.8
-371.27 -654.61 1884.3
-351.45 -645.12 1857.0
-336.36 -626.00 1801.9
-330.28 -623.35 1794.3
-323.57 -619.41 1782.9
-317.08 -615.77 1772.5
-310.96 -612.78 1763.9
-312.02 -624.03 1796.3
-307.80 -624.92 1798.8
-284.45 -595.57 1714.3
-279.96 -595.47 1714.0
-276.52 -597.64 1720.3
-275.85 -605.96 1744.2
-266.19 -594.49 1711.2
-244.83 -556.05 1600.6
-230.71 -552.06 1589.1
-237.35 -578.26 1664.5
-228.91 -568.04 1635.1
-216.63 -547.71 1576.6
-214.38 -552.44 1590.2
-204.69 -559.78 1611.3
-196.26 -611.60 1760.5
-194.41 -620.25 1785.4
-188.23 -615.17 1770.8
-180.88 -637.83 1836.0
-177.24 -641.89 1847.7
-171.08 -636.80 1833.0
-146.10 -631.55 1817.9
-141.49 -631.99 1819.2
-136.51 -630.79 1815.7
-132.03 -631.88 1818.8
-120.94 -648.23 1865.9
-115.00 -642.10 1848.3
-81.61 -643.31 1851.7
-75.68 -633.86 1824.5
-61.76 -636.65 1832.6
-57.84 -645.88 1859.2
-52.94 -644.94 1856.4
-47.89 -641.70 1847.1
-43.52 -647.97 1865.2
-38.55 -645.71 1858.7
-28.81 -643.47 1852.2
-23.80 -637.91 1836.2
23.35 -625.77 1801.3
28.36 -633.30 1822.9
33.32 -637.86 1836.1
37.84 -633.90 1824.7
73.02 -652.29 1877.6
78.58 -658.13 1894.4
81.66 -643.64 1852.7
92.17 -650.05 1871.2
96.08 -643.75 1853.0
132.22 -656.22 1888.9
136.00 -650.87 1873.5
151.34 -633.72 1824.1
156.60 -635.88 1830.4
161.56 -636.74 1832.8
176.61 -639.60 1841.1
180.41 -636.19 1831.3
202.69 -646.69 1861.5
220.53 -642.43 1849.2
224.92 -641.27 1845.9
244.45 -629.92 1813.2
251.77 -636.56 1832.3
258.54 -641.56 1846.7
417.41 -628.45 1809.0
425.75 -633.90 1824.7
438.53 -645.74 1858.8
445.31 -648.61 1867.0
473.99 -648.10 1865.5
477.14 -645.83 1859.0
500.67 -651.36 1874.9
507.81 -641.95 1847.8
513.82 -643.47 1852.2
522.06 -635.96 1830.6
533.30 -643.80 1853.2
548.83 -645.12 1857.0
567.74 -644.72 1855.8
579.73 -652.81 1879.1
652.30 -647.46 1863.7
671.18 -661.31 1903.6
670.53 -655.85 1887.8
660.66 -632.34 1820.2
671.40 -638.07 1836.7
682.88 -644.41 1854.9
691.46 -647.94 1865.1
704.41 -655.49 1886.8
717.12 -662.72 1907.6
720.16 -660.97 1902.6
703.87 -641.62 1846.9
742.10 -649.95 1870.8
730.82 -635.91 1830.5
761.04 -637.37 1834.7
788.64 -656.38 1889.4
784.76 -649.12 1868.5
788.20 -647.97 1865.1
805.78 -658.38 1895.1
796.89 -647.17 1862.9
792.00 -639.32 1840.3
792.68 -636.04 1830.8
788.75 -629.12 1810.9
791.00 -623.49 1794.7
839.31 -646.37 1860.5
876.48 -671.13 1931.8
871.21 -663.30 1909.3
872.59 -660.61 1901.5
882.33 -664.23 1912.0
872.84 -653.41 1880.8
894.27 -665.73 1916.3
922.65 -675.60 1944.7
929.31 -676.78 1948.1
-754.73 -632.85 1808.1
-739.27 -631.65 1804.7
-742.00 -638.03 1822.9
-743.94 -643.80 1839.4
-730.20 -635.98 1817.1
-687.09 -618.38 1766.8
-691.27 -626.31 1789.5
-682.40 -622.46 1778.5
-687.46 -631.34 1803.8
-688.02 -636.18 1817.7
-608.98 -637.30 1820.9
-613.94 -647.52 1850.1
-598.59 -636.30 1818.0
-591.44 -638.75 1825.0
-589.72 -642.04 1834.4
-572.68 -628.55 1795.9
-557.33 -637.62 1821.8
-560.67 -646.93 1848.4
-547.23 -636.86 1819.6
-529.30 -632.35 1806.7
-533.93 -643.57 1838.8
-526.87 -640.79 1830.8
-514.65 -631.61 1804.6
-507.19 -628.17 1794.8
-499.26 -624.08 1783.1
-486.02 -624.88 1785.4
-486.60 -631.65 1804.7
-483.43 -633.62 1810.3
-447.13 -649.06 1854.5
-419.13 -642.99 1837.1
-413.33 -641.37 1832.5
-406.72 -638.46 1824.2
-371.44 -634.74 1813.6
-373.66 -646.71 1847.8
-364.40 -638.89 1825.4
-359.46 -638.52 1824.3
-363.19 -653.75 1867.8
-354.69 -655.93 1874.1
-338.53 -634.74 1813.5
-331.74 -630.77 1802.2
-323.15 -623.21 1780.6
-314.33 -615.00 1757.1
-304.98 -605.47 1729.9
-305.17 -624.20 1783.4
-298.46 -619.87 1771.1
-286.70 -604.77 1727.9
-278.67 -597.16 1706.2
-276.37 -611.64 1747.5
-268.01 -603.03 1722.9
-241.29 -592.26 1692.2
-232.27 -580.66 1659.0
-219.29 -558.57 1595.9
-215.98 -560.71 1602.0
-174.07 -618.39 1766.8
-172.23 -628.40 1795.4
-169.19 -634.46 1812.7
-164.78 -635.58 1815.9
-159.69 -634.06 1811.6
-155.91 -637.81 1822.3
-151.84 -640.57 1830.2
-148.33 -645.96 1845.6
-142.69 -642.13 1834.6
-136.76 -636.64 1819.0
-86.12 -645.87 1845.3
-81.38 -646.27 1846.5
-75.70 -638.74 1825.0
-70.61 -635.50 1815.7
-62.10 -644.85 1842.4
-58.47 -657.77 1879.4
-53.82 -660.46 1887.0
-48.22 -650.93 1859.8
-43.40 -650.96 1859.9
-33.19 -640.13 1828.9
-28.80 -648.08 1851.7
4.83 -651.45 1861.3
9.62 -649.46 1855.6
23.56 -636.21 1817.7
28.44 -639.82 1828.1
33.26 -641.45 1832.7
38.26 -645.71 1844.9
42.74 -641.05 1831.6
76.13 -642.37 1835.3
132.95 -641.03 1831.5
137.33 -639.27 1826.5
142.84 -642.78 1836.5
150.15 -653.87 1868.2
154.57 -652.10 1863.1
157.92 -646.04 1845.8
163.59 -649.54 1855.8
167.60 -646.44 1847.0
185.26 -641.27 1832.2
220.47 -647.03 1848.7
228.74 -657.03 1877.2
242.48 -629.53 1798.6
249.39 -635.23 1814.9
256.50 -641.25 1832.1
255.70 -627.62 1793.2
416.40 -638.79 1825.1
432.41 -655.90 1874.0
435.32 -652.98 1865.7
442.97 -657.16 1877.6
448.93 -658.75 1882.1
444.47 -645.20 1843.4
462.59 -643.80 1839.4
476.66 -656.62 1876.1
478.90 -653.04 1865.8
466.11 -629.25 1797.9
493.69 -647.07 1848.8
506.33 -657.26 1877.9
514.14 -661.03 1888.7
507.93 -646.89 1848.3
522.14 -646.68 1847.7
528.42 -648.52 1852.9
527.39 -641.42 1832.6
544.93 -645.31 1843.7
549.63 -645.22 1843.5
557.89 -638.26 1823.6
563.92 -639.74 1827.8
620.90 -639.86 1828.2
636.57 -651.04 1860.1
649.90 -659.68 1884.8
655.25 -660.14 1886.1
666.88 -666.88 1905.4
664.06 -659.18 1883.4
685.34 -651.56 1861.6
707.81 -668.21 1909.2
700.58 -656.80 1876.6
693.20 -645.39 1844.0
710.90 -657.34 1878.1
726.82 -649.80 1856.6
729.25 -639.28 1826.5
787.65 -652.35 1863.8
806.34 -663.75 1896.4
797.09 -652.16 1863.3
794.09 -645.79 1845.1
797.43 -644.63 1841.8
798.09 -641.33 1832.4
797.95 -637.42 1821.2
833.49 -650.41 1858.3
877.17 -669.03 1911.5
894.91 -678.72 1939.2
893.92 -674.18 1926.2
883.59 -662.69 1893.4
885.26 -660.28 1886.5
900.33 -667.83 1908.1
912.22 -672.95 1922.7
-760.09 -638.10 1809.7
-768.12 -648.85 1840.2
-755.97 -642.57 1822.4
-749.69 -641.25 1818.7
-753.88 -648.91 1840.4
-743.63 -644.16 1826.9
-734.15 -640.03 1815.2
-690.04 -625.64 1774.4
-700.01 -638.94 1812.1
-696.88 -640.38 1816.2
-690.01 -638.37 1810.5
-677.49 -639.85 1814.7
-644.21 -634.88 1800.6
-641.29 -636.61 1805.5
-641.18 -641.18 1818.5
-620.13 -638.92 1812.1
-615.56 -639.06 1812.5
-610.69 -638.88 1811.9
-607.62 -640.60 1816.8
-599.45 -636.92 1806.4
-591.92 -633.87 1797.7
-590.02 -636.85 1806.2
-587.79 -639.51 1813.7
-580.58 -636.76 1806.0
-569.66 -629.87 1786.4
-564.77 -640.07 1815.3
-553.72 -632.83 1794.8
-551.65 -635.80 1803.2
-557.78 -648.36 1838.8
-547.36 -641.74 1820.1
-520.32 -631.82 1791.9
-526.47 -645.05 1829.4
-526.98 -651.54 1847.9
-512.73 -639.73 1814.4
-506.79 -650.22 1844.1
-498.83 -646.10 1832.4
-493.87 -645.83 1831.7
-487.94 -644.27 1827.2
-476.47 -635.29 1801.8
-455.16 -658.53 1867.7
-428.75 -647.89 1837.5
-421.65 -644.32 1827.4
-411.34 -643.02 1823.7
-410.11 -648.55 1839.4
-403.30 -645.28 1830.1
-397.54 -643.64 1825.4
-376.64 -640.29 1815.9
-367.93 -633.40 1796.4
-352.17 -647.23 1835.6
-349.67 -651.43 1847.6
-323.23 -627.99 1781.1
-316.08 -623.00 1766.9
-308.84 -617.67 1751.8
-295.55 -618.39 1753.8
-278.63 -611.19 1733.4
-273.35 -609.43 1728.4
-228.45 -554.80 1573.5
-230.84 -570.80 1618.9
-205.72 -621.73 1763.3
-165.98 -627.05 1778.4
-161.83 -628.84 1783.5
-151.56 -644.13 1826.8
-146.63 -643.26 1824.4
-107.24 -634.13 1798.5
-103.83 -641.85 1820.4
-101.38 -656.54 1862.0
-96.37 -655.29 1858.5
-86.66 -654.78 1857.0
-80.57 -644.55 1828.0
-62.52 -654.08 1855.1
-58.77 -666.10 1889.1
-53.61 -662.82 1879.8
-47.59 -647.24 1835.7
-43.19 -652.59 1850.8
-38.47 -653.96 1854.7
-33.01 -641.35 1819.0
4.85 -659.73 1871.1
9.68 -658.40 1867.3
37.74 -641.66 1819.8
42.79 -646.61 1833.9
47.62 -647.57 1836.6
61.12 -639.46 1813.6
66.06 -641.74 1820.0
70.88 -642.68 1822.7
76.23 -647.93 1837.6
108.31 -640.43 1816.4
135.73 -636.52 1805.3
142.21 -644.70 1828.5
149.19 -654.53 1856.3
153.04 -650.43 1844.7
157.39 -648.65 1839.7
164.04 -656.14 1860.9
169.76 -659.65 1870.9
181.05 -647.97 1837.7
189.38 -660.40 1873.0
194.58 -661.57 1876.3
211.15 -652.64 1851.0
218.08 -659.08 1869.2
226.67 -670.14 1900.6
244.63 -652.36 1850.2
248.35 -649.52 1842.1
412.29 -637.17 1807.1
428.46 -654.72 1856.9
431.55 -652.11 1849.5
437.61 -646.90 1834.7
446.79 -653.36 1853.0
459.86 -665.33 1887.0
463.01 -642.54 1822.3
467.71 -642.51 1822.2
477.19 -636.26 1804.5
488.68 -645.24 1830.0
497.82 -650.99 1846.3
503.55 -652.22 1849.8
495.50 -635.74 1803.0
503.93 -640.51 1816.6
525.95 -662.30 1878.4
531.27 -662.87 1880.0
555.17 -656.55 1862.1
562.10 -659.01 1869.0
560.53 -651.56 1847.9
568.25 -649.43 1841.9
569.55 -645.49 1830.7
615.88 -654.37 1855.9
625.67 -659.62 1870.8
625.63 -649.51 1842.1
642.86 -662.34 1878.5
646.95 -661.55 1876.2
642.94 -652.54 1850.7
653.85 -658.70 1868.2
650.01 -650.01 1843.5
687.80 -658.74 1868.3
709.61 -674.87 1914.0
701.40 -662.44 1878.8
687.69 -645.01 1829.3
730.11 -657.58 1865.0
747.76 -656.10 1860.8
743.06 -647.80 1837.2
791.40 -664.38 1884.3
792.28 -661.04 1874.8
791.63 -656.47 1861.9
840.70 -660.90 1874.4
833.86 -651.75 1848.5
871.26 -661.96 1877.4
907.13 -670.49 1901.6
938.43 -689.87 1956.6
-779.06 -658.84 1854.9
-784.05 -667.17 1878.4
-769.63 -659.00 1855.4
-761.11 -655.80 1846.4
-762.35 -661.02 1861.1
-749.19 -653.75 1840.6
-699.13 -634.31 1785.9
-700.21 -639.52 1800.5
-697.80 -641.60 1806.4
-695.93 -648.59 1826.1
-681.99 -639.95 1801.7
-676.84 -639.50 1800.5
-679.33 -646.30 1819.6
-650.82 -641.46 1806.0
-652.05 -647.32 1822.5
-645.90 -645.90 1818.5
-642.60 -647.32 1822.5
-595.33 -642.21 1808.1
-593.41 -645.21 1816.6
-591.14 -647.89 1824.1
-584.21 -645.45 1817.2
-573.27 -638.52 1797.7
-570.65 -646.11 1819.1
-572.50 -653.61 1840.2
-561.68 -646.64 1820.6
-540.96 -644.45 1814.4
-536.06 -644.21 1813.7
-524.24 -635.58 1789.4
-519.40 -635.33 1788.7
-525.02 -648.00 1824.4
-525.81 -654.87 1843.7
-506.07 -647.96 1824.3
-509.66 -658.72 1854.6
-499.44 -651.65 1834.7
-487.09 -641.65 1806.5
-464.64 -656.24 1847.6
-449.14 -640.96 1804.6
-436.36 -664.24 1870.1
-424.94 -654.12 1841.6
-383.20 -648.13 1824.8
-382.67 -655.33 1845.0
-371.05 -643.47 1811.6
-300.62 -614.70 1730.6
-241.78 -581.12 1636.1
-229.21 -560.75 1578.8
-173.39 -642.01 1807.5
-167.69 -638.15 1796.7
-148.32 -635.00 1787.8
-144.69 -639.45 1800.3
-117.35 -643.10 1810.6
-112.97 -644.86 1815.6
-107.94 -642.95 1810.2
-96.29 -659.58 1857.0
-93.15 -671.69 1891.1
-81.66 -658.12 1852.9
-57.67 -658.41 1853.7
-43.22 -657.86 1852.2
-38.51 -659.57 1857.0
-33.05 -646.88 1821.2
-14.03 -640.60 1803.6
4.83 -661.70 1863.0
9.66 -662.03 1863.9
61.14 -644.31 1814.0
66.90 -654.62 1843.1
72.58 -662.93 1866.4
78.39 -671.23 1889.8
89.72 -646.95 1821.4
96.09 -658.24 1853.2
99.66 -650.14 1830.4
103.96 -647.38 1822.7
110.30 -656.98 1849.7
115.95 -661.90 1863.5
119.30 -653.79 1840.7
138.52 -654.37 1842.3
141.37 -645.58 1817.6
159.27 -661.23 1861.6
163.57 -659.10 1855.6
174.02 -644.35 1814.1
177.11 -638.54 1797.8
182.02 -639.39 1800.2
193.74 -663.56 1868.2
202.22 -675.72 1902.5
202.10 -659.24 1856.1
213.53 -650.09 1830.3
222.13 -661.55 1862.6
247.90 -665.92 1874.9
249.15 -656.43 1848.1
413.68 -636.78 1792.8
420.47 -640.05 1802.0
427.53 -643.64 1812.1
436.83 -650.49 1831.4
451.98 -665.82 1874.6
460.63 -671.34 1890.1
485.60 -658.68 1854.5
496.65 -667.07 1878.1
499.28 -664.09 1869.7
517.23 -650.09 1830.3
543.40 -658.81 1854.8
610.65 -653.58 1840.1
612.58 -650.57 1831.6
615.39 -648.52 1825.9
626.39 -655.08 1844.3
645.76 -670.22 1887.0
650.80 -670.38 1887.4
653.00 -657.80 1852.0
651.93 -651.93 1835.5
680.98 -647.88 1824.1
696.87 -658.43 1853.8
736.67 -659.63 1857.2
753.92 -670.69 1888.3
755.02 -667.34 1878.8
748.59 -657.41 1850.9
754.95 -650.50 1831.4
765.99 -655.88 1846.6
778.93 -662.81 1866.1
785.32 -664.13 1869.8
778.77 -654.55 1842.8
784.75 -655.56 1845.7
765.69 -635.76 1789.9
795.88 -641.38 1805.8
-817.08 -683.38 1910.1
-812.44 -683.64 1910.8
-705.48 -640.50 1790.2
-710.38 -649.22 1814.6
-695.93 -644.55 1801.5
-690.10 -643.47 1798.5
-654.84 -650.13 1817.1
-649.01 -649.01 1814.0
-634.64 -639.27 1786.8
-613.08 -640.94 1791.5
-614.35 -647.18 1808.9
-611.90 -649.56 1815.5
-603.55 -661.03 1847.6
-600.92 -663.41 1854.3
-593.04 -659.99 1844.7
-528.10 -644.93 1802.6
-533.51 -657.36 1837.3
-517.82 -643.78 1799.4
-500.88 -646.00 1805.6
-503.76 -655.84 1833.1
-465.09 -654.92 1830.5
-464.97 -661.51 1848.9
-435.67 -639.59 1787.7
-385.68 -649.07 1814.2
-384.06 -654.33 1828.9
-381.60 -658.27 1839.9
-376.82 -658.24 1839.8
-372.03 -658.20 1839.7
-333.00 -647.24 1809.1
-304.57 -627.33 1753.4
-295.85 -618.59 1729.0
-235.52 -570.21 1593.8
-228.22 -562.39 1571.9
-180.45 -638.51 1784.6
-178.45 -648.04 1811.3
-171.63 -640.14 1789.2
-148.05 -659.05 1842.1
-139.39 -663.31 1854.0
-120.54 -639.77 1788.2
-117.44 -648.27 1811.9
-112.47 -646.69 1807.5
-108.58 -651.48 1820.9
-91.87 -667.29 1865.1
-87.00 -667.03 1864.4
-81.68 -663.06 1853.3
-74.97 -646.63 1807.3
-42.33 -648.99 1813.9
-28.28 -650.42 1817.9
-23.80 -656.84 1835.9
-19.22 -662.92 1852.9
-14.23 -654.51 1829.4
-9.27 -639.70 1788.0
4.88 -673.73 1883.1
14.46 -665.29 1859.5
19.00 -655.51 1832.2
23.70 -654.15 1828.4
47.54 -656.02 1833.6
62.10 -659.25 1842.6
86.39 -662.31 1851.2
89.60 -650.80 1819.0
110.99 -665.95 1861.3
116.39 -669.22 1870.5
121.46 -670.46 1874.0
125.73 -667.34 1865.2
137.84 -655.92 1833.3
140.23 -645.06 1803.0
172.89 -644.83 1802.3
187.27 -646.07 1805.8
200.57 -675.08 1886.9
206.12 -677.26 1893.0
207.32 -665.36 1859.7
210.59 -660.50 1846.1
243.40 -671.78 1877.6
245.10 -663.22 1853.7
415.90 -644.88 1802.5
431.97 -655.07 1830.9
449.20 -673.79 1883.3
444.76 -659.97 1844.6
461.11 -662.85 1852.7
462.21 -657.57 1837.9
462.06 -650.66 1818.6
480.21 -662.70 1852.3
495.75 -677.37 1893.3
502.31 -679.60 1899.5
503.04 -673.98 1883.8
512.72 -649.13 1814.3
538.25 -663.20 1853.7
541.92 -661.82 1849.8
584.93 -650.97 1819.5
599.46 -661.80 1849.8
610.88 -663.79 1855.3
626.89 -675.87 1889.1
621.44 -664.80 1858.1
617.05 -655.02 1830.8
627.44 -660.97 1847.4
646.51 -675.89 1889.1
660.96 -680.69 1902.5
644.47 -649.17 1814.5
687.78 -659.13 1842.3
695.70 -662.11 1850.6
726.69 -655.45 1832.0
737.89 -661.23 1848.2
743.86 -662.27 1851.1
756.23 -656.35 1834.5
765.81 -660.51 1846.2
765.20 -655.89 1833.2
758.93 -638.61 1784.9
763.66 -638.69 1785.2
771.01 -640.96 1791.5
810.09 -665.43 1859.9
818.40 -668.28 1867.9
806.82 -654.95 1830.6
810.48 -654.07 1828.1
825.74 -662.51 1851.7
823.98 -657.28 1837.1
917.70 -692.04 1934.3
930.48 -697.86 1950.5
-802.74 -672.18 1865.2
-731.67 -647.78 1797.5
-720.22 -654.32 1815.7
-712.61 -651.66 1808.3
-708.83 -652.50 1810.6
-704.69 -653.01 1812.1
-695.42 -648.75 1800.2
-679.41 -638.09 1770.7
-651.47 -651.47 1807.8
-648.85 -653.55 1813.6
-637.34 -646.64 1794.4
-618.09 -660.89 1833.9
-615.57 -663.29 1840.6
-598.98 -660.78 1833.6
-536.19 -659.57 1830.2
-535.21 -664.23 1843.2
-498.22 -647.22 1796.0
-503.87 -660.74 1833.5
-492.71 -652.26 1810.0
-486.09 -649.68 1802.8
-489.74 -660.91 1834.0
-476.33 -649.12 1801.2
-473.20 -664.39 1843.6
-465.65 -660.47 1832.7
-439.12 -649.34 1801.9
-438.44 -655.31 1818.4
-408.73 -660.63 1833.2
-400.73 -655.31 1818.4
-393.59 -651.30 1807.3
-388.90 -651.28 1807.3
-382.04 -647.60 1797.0
-379.00 -658.52 1827.3
-379.17 -667.14 1851.3
-373.97 -666.44 1849.3
-367.13 -662.74 1839.1
-358.27 -663.99 1842.5
-357.02 -670.61 1860.9
-345.50 -657.88 1825.6
-336.42 -649.47 1802.2
-252.97 -586.04 1626.2
-240.15 -565.77 1570.0
-235.60 -564.62 1566.8
-241.67 -589.33 1635.3
-230.20 -571.38 1585.5
-184.78 -626.45 1738.4
-162.03 -643.51 1785.7
-159.25 -651.07 1806.7
-154.60 -651.20 1807.0
-145.29 -651.45 1807.7
-142.30 -659.34 1829.6
-135.82 -651.00 1806.5
-125.12 -644.11 1787.4
-121.58 -649.97 1803.6
-116.67 -648.71 1800.1
-112.20 -649.82 1803.2
-69.14 -640.67 1777.8
-56.32 -652.35 1810.2
-52.41 -662.22 1837.6
-28.24 -654.25 1815.5
-23.79 -661.39 1835.3
-19.17 -666.16 1848.5
-9.38 -651.60 1808.2
-4.73 -657.71 1825.1
0.00 -659.41 1829.8
4.81 -669.24 1857.1
9.74 -676.69 1877.8
14.33 -664.14 1842.9
18.80 -653.28 1812.8
47.69 -662.94 1839.6
53.21 -672.39 1865.8
58.48 -677.43 1879.8
63.45 -678.39 1882.5
68.42 -679.35 1885.2
73.49 -680.99 1889.7
85.18 -657.76 1825.2
89.67 -655.99 1820.3
94.72 -658.29 1826.7
100.92 -668.03 1853.7
114.95 -665.73 1847.3
119.96 -666.99 1850.8
125.12 -668.91 1856.2
129.06 -664.41 1843.7
209.34 -676.72 1877.8
214.58 -677.89 1881.1
218.86 -676.03 1875.9
237.51 -660.28 1832.2
242.44 -660.76 1833.6
244.85 -654.51 1816.2
460.75 -667.13 1851.2
465.65 -660.47 1832.7
476.95 -669.66 1858.3
483.40 -671.92 1864.5
491.54 -676.48 1877.2
497.09 -677.41 1879.8
496.80 -670.44 1860.4
518.74 -661.52 1835.7
523.35 -649.51 1802.3
531.94 -654.34 1815.7
590.79 -667.64 1852.7
590.27 -661.68 1836.1
621.07 -679.75 1886.3
631.62 -665.12 1845.6
646.13 -675.28 1873.9
657.98 -682.53 1894.0
656.78 -676.24 1876.5
692.58 -673.20 1868.1
700.87 -676.53 1877.3
681.85 -653.64 1813.8
728.57 -657.61 1824.8
741.55 -665.01 1845.3
743.24 -662.25 1837.7
744.84 -651.15 1806.9
746.36 -648.40 1799.3
774.71 -660.65 1833.2
766.93 -650.02 1803.8
791.91 -651.34 1807.4
803.57 -657.04 1823.2
831.47 -675.87 1875.5
845.66 -683.41 1896.4
842.06 -676.57 1877.4
845.02 -675.04 1873.2
849.13 -674.45 1871.5
-792.04 -672.04 1851.5
-755.32 -669.27 1843.9
-750.08 -668.86 1842.8
-733.11 -657.92 1812.6
-681.38 -631.74 1740.5
-685.98 -640.25 1763.9
-685.35 -643.96 1774.2
-677.89 -641.25 1766.7
-678.02 -654.64 1803.6
-665.25 -646.77 1781.9
-653.52 -648.88 1787.7
-661.64 -661.64 1822.9
-653.55 -658.25 1813.5
-619.73 -642.68 1770.6
-623.65 -651.58 1795.2
-606.15 -652.78 1798.5
-613.91 -666.26 1835.6
-605.70 -662.48 1825.2
-597.84 -659.03 1815.7
-580.19 -649.82 1790.3
-577.68 -652.21 1796.9
-558.04 -645.67 1778.9
-561.94 -655.59 1806.2
-558.17 -656.68 1809.2
-547.21 -649.23 1788.7
-523.04 -665.69 1834.0
-514.49 -660.82 1820.6
-507.53 -657.91 1812.6
-499.10 -653.03 1799.2
-495.31 -660.41 1819.5
-502.67 -676.67 1864.3
-498.85 -678.05 1868.1
-470.95 -665.99 1834.9
-432.13 -650.52 1792.2
-429.46 -653.52 1800.5
-420.46 -646.86 1782.2
-413.76 -650.86 1793.2
-413.93 -658.52 1814.3
-402.26 -654.83 1804.1
-401.83 -661.83 1823.4
-401.70 -669.51 1844.6
-393.34 -663.47 1827.9
-383.30 -654.42 1803.0
-373.96 -646.35 1780.8
-373.53 -653.68 1801.0
-376.41 -667.05 1837.8
-373.68 -670.70 1847.8
-368.31 -669.66 1845.0
-361.32 -665.59 1833.8
-316.35 -651.31 1794.4
-301.67 -630.35 1736.7
-292.67 -620.82 1710.4
-290.38 -625.44 1723.1
-242.51 -575.46 1585.4
-237.51 -573.29 1579.5
-233.35 -573.14 1579.1
-161.05 -644.20 1774.8
-157.80 -649.78 1790.2
-133.30 -666.49 1836.2
-70.07 -653.95 1801.7
-67.04 -670.38 1847.0
-52.93 -673.60 1855.8
-47.39 -663.41 1827.8
-4.72 -661.21 1821.7
0.00 -678.27 1868.7
4.87 -682.37 1880.0
9.77 -684.07 1884.7
14.36 -670.07 1846.1
18.77 -657.09 1810.3
67.72 -677.20 1865.7
72.73 -678.84 1870.3
79.72 -656.56 1808.9
85.37 -663.99 1829.4
100.99 -673.30 1855.0
106.22 -675.94 1862.3
127.24 -659.79 1817.8
134.45 -672.27 1852.2
156.96 -665.89 1834.6
159.95 -658.62 1814.6
206.41 -656.77 1809.5
218.68 -680.34 1874.4
402.05 -654.50 1803.2
475.40 -672.29 1852.2
479.94 -671.91 1851.2
491.16 -680.81 1875.7
500.08 -686.39 1891.1
498.36 -677.39 1866.3
513.39 -665.50 1833.5
525.02 -674.34 1857.9
518.90 -660.41 1819.5
536.84 -665.11 1832.5
549.28 -674.56 1858.5
578.81 -664.21 1830.0
591.20 -672.92 1854.0
616.17 -679.24 1871.4
624.46 -683.00 1881.7
629.50 -683.18 1882.2
642.28 -671.04 1848.8
652.85 -677.03 1865.3
656.27 -675.57 1861.3
660.61 -675.08 1859.9
668.63 -673.44 1855.4
685.78 -676.12 1862.8
685.81 -671.42 1849.8
691.89 -663.46 1827.9
714.11 -653.43 1800.3
734.37 -667.61 1839.3
744.20 -672.18 1851.9
756.40 -670.22 1846.5
759.11 -668.40 1841.5
753.45 -659.27 1816.4
761.61 -658.18 1813.3
778.59 -668.73 1842.4
808.17 -681.59 1877.8
796.14 -667.42 1838.8
791.90 -652.16 1796.8
807.80 -661.36 1822.1
810.27 -659.52 1817.1
816.99 -661.15 1821.5
829.20 -667.17 1838.1
860.46 -672.98 1854.1
880.16 -684.57 1886.0
936.35 -704.78 1941.7
932.64 -698.23 1923.7
-789.19 -678.51 1856.1
-774.71 -670.15 1833.2
-788.21 -686.04 1876.7
-773.41 -677.34 1852.9
-745.93 -661.48 1809.5
-757.64 -676.12 1849.6
-754.53 -677.64 1853.7
-735.77 -665.03 1819.2
-714.34 -649.82 1777.6
-659.85 -664.56 1818.0
-654.98 -664.41 1817.5
-639.23 -657.89 1799.7
-622.87 -655.41 1792.9
-617.74 -654.90 1791.5
-588.10 -658.11 1800.3
-592.27 -668.08 1827.6
-589.37 -670.18 1833.3
-572.10 -655.83 1794.1
-556.44 -643.10 1759.2
-555.92 -647.81 1772.1
-562.06 -660.43 1806.6
-560.81 -664.49 1817.7
-557.28 -665.91 1821.6
-529.67 -672.83 1840.6
-529.88 -679.21 1858.0
-517.17 -669.00 1830.1
-516.04 -673.72 1843.0
-513.33 -676.45 1850.5
-500.59 -665.88 1821.5
-498.39 -669.26 1830.8
-495.89 -672.31 1839.2
-438.19 -664.35 1817.4
-433.71 -664.70 1818.3
-423.16 -655.66 1793.6
-419.89 -672.77 1840.4
-418.22 -677.81 1854.2
-404.39 -663.02 1813.7
-404.59 -679.13 1857.8
-402.54 -683.83 1870.7
-387.11 -665.63 1820.9
-372.89 -649.10 1775.7
-368.84 -650.07 1778.3
-368.74 -658.12 1800.3
-368.57 -674.91 1846.3
-359.75 -667.44 1825.8
-316.31 -646.37 1768.2
-311.19 -645.27 1765.2
-303.84 -639.42 1749.2
-295.61 -631.53 1727.6
-294.05 -637.87 1744.9
-285.94 -629.97 1723.3
-273.42 -632.01 1728.9
-272.94 -641.41 1754.6
-237.17 -576.57 1577.3
-97.44 -654.23 1789.7
-85.17 -667.15 1825.0
-71.29 -670.09 1833.1
-68.11 -685.93 1876.4
-62.87 -681.86 1865.3
-47.35 -667.59 1826.2
-42.99 -673.46 1842.3
-38.19 -673.15 1841.4
-23.62 -666.02 1821.9
-18.53 -653.33 1787.2
0.00 -679.46 1858.7
4.87 -687.01 1879.4
9.79 -690.09 1887.8
14.40 -676.69 1851.1
18.82 -663.29 1814.5
23.31 -657.44 1798.5
42.55 -666.60 1823.5
61.03 -661.96 1810.8
66.23 -667.05 1824.8
81.81 -678.53 1856.2
87.53 -685.67 1875.7
91.55 -679.42 1858.6
105.06 -673.34 1842.0
111.50 -683.54 1869.9
114.52 -672.82 1840.5
156.99 -670.77 1834.9
161.80 -670.98 1835.5
167.71 -675.64 1848.2
171.33 -671.05 1835.7
174.62 -665.43 1820.3
180.59 -670.07 1833.0
185.49 -670.61 1834.5
188.16 -663.27 1814.4
216.21 -677.46 1853.2
228.20 -684.60 1872.8
442.19 -685.16 1874.3
443.32 -679.44 1858.7
458.66 -673.66 1842.8
462.73 -672.62 1840.0
468.87 -674.59 1845.4
473.62 -674.56 1845.3
495.59 -685.08 1874.1
498.46 -682.36 1866.6
523.16 -683.02 1868.4
528.20 -683.27 1869.1
534.79 -685.51 1875.3
535.93 -680.78 1862.3
565.84 -676.14 1849.6
580.79 -676.79 1851.4
573.53 -662.85 1813.3
591.62 -662.05 1811.1
605.83 -667.37 1825.6
642.26 -665.87 1821.5
688.87 -684.01 1871.2
691.55 -681.88 1865.3
674.02 -659.98 1805.4
682.51 -663.68 1815.5
700.76 -676.76 1851.3
698.28 -669.77 1832.2
702.29 -660.15 1805.9
714.00 -666.72 1823.9
716.43 -664.58 1818.0
730.67 -668.99 1830.1
756.21 -674.84 1846.1
753.15 -667.89 1827.0
761.62 -671.18 1836.0
766.84 -671.58 1837.2
775.74 -675.18 1847.0
782.83 -677.17 1852.4
801.60 -680.87 1862.6
806.87 -681.25 1863.6
794.97 -663.26 1814.4
795.55 -659.84 1805.0
887.58 -676.48 1850.5
-808.04 -695.40 1888.9
-771.21 -667.75 1813.8
-762.27 -672.31 1826.2
-769.05 -682.53 1853.9
-746.47 -666.66 1810.8
-740.22 -665.27 1807.1
-750.41 -678.72 1843.6
-743.40 -676.68 1838.1
-727.23 -666.24 1809.7
-719.61 -663.53 1802.4
-682.44 -641.77 1743.2
-681.88 -645.52 1753.4
-660.97 -670.41 1821.0
-661.86 -676.14 1836.6
-654.72 -673.69 1830.0
-643.81 -667.30 1812.6
-627.95 -655.65 1781.0
-586.89 -656.20 1782.4
-590.58 -665.57 1807.9
-586.87 -666.68 1810.9
-575.92 -659.53 1791.5
-554.93 -651.23 1768.9
-554.06 -655.64 1780.9
-551.75 -658.39 1788.4
-547.47 -658.82 1789.6
-552.21 -670.21 1820.5
-547.30 -669.97 1819.8
-539.42 -666.07 1809.2
-535.34 -666.82 1811.3
-511.27 -654.06 1776.6
-507.50 -667.27 1812.5
-509.65 -676.36 1837.2
-501.69 -672.08 1825.6
-498.98 -674.82 1833.0
-496.24 -677.55 1840.4
-481.71 -670.62 1821.6
-477.98 -672.00 1825.4
-439.86 -664.48 1804.9
-449.76 -686.73 1865.4
-430.82 -672.26 1826.1
-418.81 -660.79 1794.9
-419.66 -669.57 1818.8
-423.32 -683.08 1855.4
-411.65 -679.70 1846.3
-396.45 -670.20 1820.5
-399.44 -683.38 1856.3
-388.16 -672.19 1825.9
-362.78 -652.08 1771.2
-366.06 -675.07 1833.7
-358.74 -670.27 1820.7
-323.52 -656.29 1782.7
-304.25 -654.59 1778.1
-292.41 -638.80 1735.2
-282.35 -646.68 1756.6
-280.83 -653.74 1775.8
-155.31 -648.67 1762.0
-149.66 -643.98 1749.2
-103.42 -667.55 1813.3
-97.71 -660.73 1794.7
-93.80 -665.99 1809.0
-78.97 -659.65 1791.8
-74.88 -664.55 1805.1
-70.20 -664.61 1805.3
-65.05 -659.83 1792.3
-60.73 -663.34 1801.8
-42.89 -676.63 1837.9
-29.16 -690.20 1874.8
-24.10 -684.34 1858.9
-18.85 -669.16 1817.6
-4.73 -672.30 1826.2
0.00 -679.56 1845.9
4.76 -675.41 1834.6
9.40 -667.11 1812.1
42.73 -674.22 1831.4
47.57 -675.56 1835.0
52.54 -678.28 1842.4
57.46 -679.96 1847.0
61.93 -676.46 1837.5
90.78 -678.49 1843.0
94.19 -668.75 1816.5
106.71 -658.84 1789.6
111.51 -659.78 1792.2
127.82 -672.24 1826.0
150.82 -669.24 1817.9
157.42 -677.38 1840.0
163.31 -682.07 1852.7
167.15 -678.14 1842.0
183.66 -686.31 1864.2
187.60 -683.06 1855.4
211.50 -682.57 1854.1
216.14 -682.05 1852.6
489.56 -674.93 1833.3
513.68 -681.71 1851.7
525.55 -691.00 1877.0
531.87 -680.40 1848.2
536.59 -680.32 1847.9
574.56 -685.60 1862.3
587.13 -694.78 1887.2
587.12 -689.02 1871.6
611.91 -678.84 1843.9
631.59 -664.33 1804.5
657.17 -686.16 1863.8
689.98 -689.98 1874.2
707.90 -698.07 1896.2
692.98 -678.64 1843.4
686.18 -667.38 1812.8
730.57 -691.60 1878.6
733.82 -690.09 1874.5
728.39 -680.47 1848.4
719.61 -663.53 1802.4
755.85 -675.03 1833.6
769.67 -674.65 1832.6
782.63 -681.80 1852.0
803.62 -679.25 1845.0
812.66 -682.82 1854.8
820.59 -685.43 1861.8
850.36 -682.21 1853.1
862.76 -688.27 1869.5
868.03 -688.61 1870.5
873.31 -688.94 1871.4
886.64 -695.60 1889.4
904.91 -706.03 1917.8
898.49 -697.19 1893.8
889.50 -686.46 1864.6
892.70 -685.21 1861.2
-804.10 -696.89 1879.7
-800.64 -698.12 1883.0
-795.32 -697.73 1882.0
-769.11 -678.91 1831.2
-774.64 -692.34 1867.4
-751.69 -676.05 1823.5
-729.53 -664.48 1792.3
-732.21 -671.19 1810.4
-724.93 -668.81 1804.0
-718.37 -667.06 1799.3
-706.26 -660.10 1780.5
-688.48 -652.01 1758.7
-677.95 -646.31 1743.3
-668.39 -663.74 1790.3
-663.40 -672.81 1814.8
-658.86 -672.98 1815.2
-639.27 -657.67 1773.9
-636.41 -659.47 1778.8
-630.05 -657.64 1773.9
-626.53 -658.78 1776.9
-590.65 -659.86 1779.8
-593.22 -667.96 1801.7
-585.73 -664.76 1793.0
-557.27 -664.09 1791.2
-552.16 -663.52 1789.7
-541.53 -656.26 1770.1
-539.75 -659.69 1779.4
-546.06 -673.16 1815.7
-548.43 -681.96 1839.4
-542.93 -681.04 1837.0
-528.70 -669.07 1804.7
-501.01 -663.37 1789.3
-495.06 -667.86 1801.4
-497.85 -678.02 1828.8
-498.05 -684.82 1847.2
-489.90 -680.15 1834.6
-484.46 -679.19 1832.0
-477.83 -676.54 1824.8
-439.70 -676.09 1823.6
-439.56 -683.23 1842.9
-419.32 -673.74 1817.3
-419.00 -680.88 1836.5
-415.27 -682.57 1841.1
-401.06 -674.73 1819.9
-393.93 -670.62 1808.9
-390.61 -672.99 1815.3
-389.80 -679.78 1833.6
-380.59 -671.91 1812.3
-368.05 -657.89 1774.5
-365.50 -661.60 1784.5
-356.26 -670.34 1808.1
-327.12 -668.25 1802.5
-302.25 -654.88 1766.4
-97.53 -664.13 1791.4
