ply
format ascii 1.0
element vertex 2269
property float x
property float y
property float z
end_header
-332.04 468.02 1219.8
-311.98 443.98 1157.1
-304.56 437.63 1140.5
-301.30 437.18 1139.4
-297.09 435.33 1134.6
-293.13 433.84 1130.7
-284.30 425.02 1107.7
-273.51 413.05 1076.5
-268.80 410.13 1068.9
-267.08 411.75 1073.1
-264.44 411.97 1073.7
-264.68 416.73 1086.1
-265.07 421.84 1099.4
-256.05 411.91 1073.5
-247.81 403.03 1050.4
-245.63 403.93 1052.7
-240.50 399.93 1042.3
-235.83 396.63 1033.7
-234.92 399.63 1041.5
-232.12 399.47 1041.1
-228.12 397.20 1035.2
-225.35 397.04 1034.8
-221.59 395.12 1029.8
-217.27 392.14 1022.0
-214.72 392.32 1022.5
-212.73 393.56 1025.7
-213.93 400.77 1044.5
-215.21 408.34 1064.2
-211.62 406.76 1060.1
-207.34 403.77 1052.3
-202.55 399.71 1041.7
-199.23 398.47 1038.5
-198.19 401.81 1047.2
-193.67 398.09 1037.5
-187.67 391.19 1019.5
-184.93 391.00 1019.0
-182.03 390.44 1017.6
-181.74 395.55 1030.9
-182.02 402.06 1047.8
-177.32 397.62 1036.3
-173.61 395.29 1030.2
-173.14 400.39 1043.5
-171.25 402.31 1048.5
-168.74 402.81 1049.8
-166.08 402.95 1050.2
-161.69 398.83 1039.4
-158.91 398.61 1038.9
-157.52 401.94 1047.5
-154.17 400.30 1043.3
-149.36 394.75 1028.8
-145.69 392.04 1021.7
-144.64 396.42 1033.1
-143.28 400.10 1042.7
-141.37 402.35 1048.6
-140.40 407.45 1061.9
-137.33 406.50 1059.4
-134.62 406.62 1059.7
-133.18 410.64 1070.2
-129.65 408.26 1064.0
-126.26 406.24 1058.7
-123.33 405.63 1057.2
-118.29 397.90 1037.0
-114.50 394.08 1027.0
-113.68 400.59 1044.0
-110.71 399.62 1041.5
-105.24 389.37 1014.8
-101.78 386.25 1006.6
-99.84 388.84 1013.4
-98.84 395.34 1030.3
-97.83 402.21 1048.2
-94.63 400.15 1042.9
-89.24 388.45 1012.4
-86.15 386.38 1007.0
-83.79 387.53 1010.0
-79.24 378.31 985.9
-74.60 368.02 959.1
-72.19 368.44 960.2
-71.81 379.58 989.2
-70.04 383.93 1000.6
-66.14 376.48 981.2
-59.86 354.37 923.5
-53.65 330.81 862.2
-53.47 344.09 896.8
-53.07 357.02 930.4
-48.73 343.46 895.1
-46.85 346.73 903.6
-46.77 364.30 949.4
-44.57 366.49 955.1
-40.62 353.64 921.6
-37.19 344.01 896.5
-34.58 341.18 889.2
-34.71 366.98 956.4
-34.12 388.50 1012.5
-30.05 370.62 965.9
-24.62 331.25 863.3
-21.90 324.11 844.7
-21.50 353.50 921.3
-19.50 360.68 940.0
-15.28 323.08 842.0
-12.01 296.23 772.0
-10.55 312.36 814.1
-9.00 333.15 868.2
-6.86 338.53 882.3
-4.58 338.89 883.2
-2.14 316.32 824.4
0.00 267.96 698.4
1.91 282.65 736.6
4.41 326.35 850.5
6.16 304.14 792.6
7.02 259.71 676.9
9.85 291.58 759.9
13.51 333.13 868.2
15.04 318.07 828.9
16.46 304.44 793.4
18.34 301.56 785.9
20.40 301.91 786.8
23.77 319.79 833.4
27.64 340.90 888.4
28.53 324.76 846.4
28.45 300.75 783.8
32.22 317.91 828.5
36.30 335.78 875.1
37.58 327.15 852.6
39.74 326.76 851.6
42.50 331.02 862.7
45.31 335.28 873.8
52.29 368.51 960.4
59.13 397.80 1036.7
60.76 390.95 1018.9
64.14 395.54 1030.9
69.04 408.72 1065.2
69.03 392.93 1024.0
73.76 404.30 1053.7
83.65 442.13 1152.3
86.48 441.34 1150.2
90.82 448.05 1167.7
100.64 480.48 1252.2
110.66 511.82 1333.9
114.02 511.37 1332.7
109.25 475.56 1239.4
112.70 476.54 1241.9
-402.51 533.06 1398.7
-385.74 515.49 1352.6
-379.40 511.66 1342.6
-357.91 487.16 1278.3
-332.23 456.42 1197.6
-321.85 446.34 1171.2
-310.13 434.18 1139.2
-301.00 425.45 1116.3
-300.94 429.49 1127.0
-301.30 434.23 1139.4
-299.94 436.55 1145.5
-292.19 429.53 1127.0
-279.17 414.53 1087.7
-277.89 416.83 1093.7
-281.38 426.42 1118.9
-274.32 420.06 1102.2
-266.45 412.30 1081.8
-264.01 412.86 1083.3
-261.99 414.12 1086.6
-255.40 408.08 1070.8
-249.09 402.37 1055.8
-245.41 400.84 1051.8
-239.22 395.12 1036.8
-233.32 389.75 1022.7
-231.40 390.98 1025.9
-232.93 398.15 1044.7
-233.76 404.27 1060.8
-227.13 397.48 1042.9
-219.80 389.29 1021.5
-216.86 388.77 1020.1
-215.67 391.40 1027.0
-214.24 393.67 1033.0
-215.80 401.54 1053.6
-215.76 406.62 1066.9
-210.70 402.25 1055.5
-207.15 400.67 1051.3
-203.08 398.04 1044.4
-199.58 396.46 1040.3
-198.18 399.08 1047.1
-195.72 399.59 1048.5
-192.06 397.65 1043.4
-189.60 398.16 1044.7
-186.80 397.97 1044.2
-182.70 394.96 1036.3
-179.44 393.71 1033.1
-178.41 397.37 1042.7
-178.42 403.50 1058.8
-175.59 403.30 1058.2
-171.25 399.57 1048.4
-169.03 400.77 1051.6
-166.37 400.92 1052.0
-162.40 397.88 1044.0
-159.89 398.37 1045.3
-159.18 403.44 1058.6
-156.35 403.22 1058.0
-152.31 399.83 1049.1
-149.38 399.25 1047.6
-146.19 397.96 1044.2
-142.76 395.97 1039.0
-140.11 396.09 1039.3
-138.44 399.03 1047.0
-135.16 397.38 1042.7
-132.26 396.79 1041.1
-132.72 406.45 1066.5
-130.89 409.39 1074.2
-126.26 403.48 1058.7
-122.25 399.34 1047.8
-119.99 400.86 1051.8
-118.84 406.28 1066.0
-115.10 402.83 1057.0
-109.12 391.24 1026.6
-104.75 384.95 1010.1
-102.06 384.68 1009.4
-100.20 387.61 1017.0
-99.28 394.43 1034.9
-97.92 399.83 1049.1
-94.54 397.08 1041.9
-89.40 386.51 1014.2
-85.99 383.04 1005.1
-83.71 384.53 1009.0
-79.46 376.79 988.7
-77.20 378.28 992.6
-77.44 392.55 1030.0
-74.85 392.97 1031.1
-70.43 383.44 1006.1
-66.32 374.97 983.9
-59.97 352.63 925.3
-55.32 338.81 889.0
-55.91 357.35 937.7
-54.87 366.64 962.0
-50.45 353.18 926.7
-48.59 357.13 937.1
-48.19 372.82 978.3
-45.40 370.73 972.8
-40.78 352.62 925.2
-37.88 348.03 913.2
-35.88 351.62 922.6
-37.19 390.44 1024.5
-36.51 412.90 1083.4
-30.95 379.11 994.8
-24.77 331.08 868.7
-21.89 321.84 844.5
-21.30 347.85 912.7
-19.34 355.35 932.4
-15.33 321.89 844.6
-12.30 301.25 790.5
-10.95 321.91 844.7
-9.31 342.22 898.0
-6.98 341.87 897.0
-4.34 319.08 837.2
-1.82 267.09 700.8
2.08 305.91 802.7
4.28 314.81 826.0
5.41 265.31 696.1
9.85 289.51 759.6
13.92 341.13 895.1
15.79 331.50 869.8
17.73 325.79 854.9
20.29 331.47 869.8
21.99 323.27 848.2
24.85 332.15 871.5
27.66 338.89 889.2
27.35 309.32 811.6
29.32 307.87 807.8
35.73 350.20 918.9
39.12 359.42 943.1
39.26 339.46 890.7
40.86 333.73 875.7
43.04 332.98 873.7
45.59 335.08 879.2
51.93 363.49 953.8
59.34 396.52 1040.4
61.53 393.26 1031.9
62.75 384.32 1008.4
65.11 382.84 1004.5
69.34 392.03 1028.6
79.70 433.90 1138.5
91.57 480.73 1261.4
94.26 477.81 1253.7
94.81 464.59 1219.0
100.73 477.64 1253.3
106.28 488.21 1281.0
103.92 462.91 1214.6
115.83 500.80 1314.0
-399.46 525.41 1388.1
-386.56 513.07 1355.5
-360.54 482.92 1275.8
-327.80 443.14 1170.7
-312.40 426.27 1126.2
-309.92 426.86 1127.7
-306.92 426.77 1127.5
-304.67 427.70 1129.9
-299.49 424.51 1121.5
-295.31 422.69 1116.7
-295.19 426.71 1127.3
-288.43 421.10 1112.5
-278.23 410.32 1084.0
-279.04 415.71 1098.3
-285.04 429.03 1133.4
-279.76 425.47 1124.0
-271.38 417.07 1101.9
-269.11 417.98 1104.3
-263.75 414.06 1093.9
-253.86 402.87 1064.3
-246.06 394.78 1043.0
-241.35 391.52 1034.4
-240.69 394.83 1043.1
-240.60 399.18 1054.6
-234.27 393.15 1038.6
-232.10 394.03 1041.0
-234.76 403.23 1065.3
-230.51 400.65 1058.5
-223.14 392.51 1037.0
-220.16 392.00 1035.6
-218.16 393.22 1038.8
-215.56 393.40 1039.3
-213.53 394.62 1042.5
-209.99 393.06 1038.4
-206.11 390.80 1032.4
-203.34 390.62 1032.0
-201.82 392.88 1037.9
-200.80 396.18 1046.7
-198.87 397.74 1050.8
-195.54 396.51 1047.5
-190.36 391.44 1034.1
-186.25 388.45 1026.2
-184.81 391.05 1033.1
-182.37 391.55 1034.4
-180.08 392.41 1036.7
-180.62 399.55 1055.6
-178.10 400.05 1056.9
-172.51 393.55 1039.7
-170.64 395.44 1044.7
-170.51 401.53 1060.8
-168.12 402.38 1063.0
-164.27 399.71 1056.0
-161.87 400.55 1058.2
-161.13 405.59 1071.5
-158.40 405.73 1071.9
-154.46 402.70 1063.9
-150.83 400.38 1057.7
-146.31 395.59 1045.1
-142.50 392.55 1037.1
-139.61 391.97 1035.5
-137.08 392.44 1036.8
-133.11 388.69 1026.9
-129.90 387.04 1022.5
-129.59 394.18 1041.4
-128.97 400.62 1058.4
-125.59 398.62 1053.1
-122.03 395.91 1045.9
-120.19 398.83 1053.7
-118.74 403.15 1065.1
-114.79 399.03 1054.2
-110.40 393.13 1038.6
-107.54 392.52 1037.0
-104.78 392.26 1036.3
-102.94 395.52 1044.9
-100.17 395.25 1044.2
-96.96 393.22 1038.8
-95.22 397.18 1049.3
-91.86 394.44 1042.1
-87.82 388.52 1026.4
-84.86 387.18 1022.9
-82.37 387.96 1024.9
-81.91 398.62 1053.1
-79.82 401.87 1061.7
-74.98 390.99 1032.9
-70.49 381.16 1007.0
-66.13 371.32 981.0
-63.35 369.97 977.4
-62.22 378.50 1000.0
-60.41 383.50 1013.2
-56.78 376.84 995.6
-52.94 368.04 972.3
-51.34 374.81 990.2
-50.71 389.70 1029.5
-47.57 385.85 1019.4
-41.84 359.37 949.4
-37.45 341.71 902.8
-34.06 331.49 875.7
-32.98 343.90 908.5
-33.99 381.78 1008.6
-29.81 362.70 958.2
-25.38 336.89 890.0
-23.95 349.66 923.7
-21.56 349.68 923.8
-18.17 331.64 876.2
-15.63 325.99 861.2
-13.63 331.67 876.2
-11.14 325.31 859.4
-8.71 317.88 839.8
-7.01 341.25 901.6
-4.66 339.84 897.8
-2.10 306.92 810.9
0.00 311.88 823.9
2.18 318.96 842.7
3.89 283.91 750.1
5.48 266.91 705.2
7.96 290.63 767.8
10.36 302.65 799.6
12.79 311.14 822.0
15.17 316.44 836.0
17.67 322.44 851.8
20.12 326.32 862.1
21.67 316.39 835.9
23.94 317.79 839.5
26.15 318.12 840.4
28.01 314.56 831.0
32.54 339.30 896.4
38.13 371.11 980.4
39.93 364.35 962.6
40.94 351.58 928.8
43.52 352.96 932.5
46.30 355.75 939.9
49.21 359.25 949.1
51.36 357.08 943.4
53.91 357.75 945.1
57.24 363.35 959.9
59.66 362.95 958.9
65.83 384.45 1015.7
75.00 421.14 1112.6
81.14 438.74 1159.1
86.90 453.15 1197.2
92.03 463.31 1224.0
94.10 457.94 1209.8
100.66 474.09 1252.5
105.98 483.54 1277.4
113.66 502.85 1328.5
-425.29 540.93 1438.9
-425.26 545.68 1451.6
-425.95 551.45 1466.9
-413.56 540.24 1437.1
-388.68 512.35 1362.9
-353.15 469.79 1249.7
-347.84 467.01 1242.3
-356.39 482.95 1284.7
-337.07 461.09 1226.5
-319.52 441.24 1173.7
-312.74 436.03 1159.9
-303.12 426.73 1135.1
-295.06 419.45 1115.8
-292.10 419.35 1115.5
-290.55 421.29 1120.7
-285.23 417.76 1111.3
-277.18 410.12 1091.0
-275.42 411.71 1095.2
-275.90 416.73 1108.5
-272.50 415.92 1106.4
-266.44 411.00 1093.3
-258.46 402.98 1072.0
-252.98 398.72 1060.6
-248.85 396.52 1054.8
-245.81 396.03 1053.5
-247.43 403.11 1072.3
-246.23 405.72 1079.3
-238.80 398.00 1058.7
-231.88 390.96 1040.0
-230.10 392.53 1044.2
-228.70 394.79 1050.2
-223.92 391.18 1040.6
-223.27 394.81 1050.2
-223.16 399.48 1062.7
-216.88 393.10 1045.7
-211.63 388.44 1033.3
-208.12 386.89 1029.2
-204.44 384.98 1024.1
-202.96 387.23 1030.1
-202.35 391.20 1040.6
-200.62 393.10 1045.7
-197.64 392.57 1044.3
-193.98 390.65 1039.2
-188.31 384.57 1023.0
-185.23 383.69 1020.6
-184.80 388.35 1033.1
-183.33 390.93 1039.9
-182.31 394.56 1049.6
-181.87 399.57 1062.9
-178.10 397.29 1056.8
-173.43 392.92 1045.2
-172.59 397.23 1056.7
-171.70 401.55 1068.2
-168.55 400.65 1065.8
-165.84 400.79 1066.1
-164.98 405.46 1078.6
-163.49 408.73 1087.3
-159.90 406.77 1082.1
-154.59 400.28 1064.8
-149.50 394.13 1048.4
-145.14 389.72 1036.7
-141.35 386.70 1028.7
-138.47 386.12 1027.1
-135.97 386.59 1028.4
-133.46 387.05 1029.6
-131.66 389.60 1036.4
-131.67 397.75 1058.1
-131.23 404.86 1077.0
-126.92 400.07 1064.2
-122.24 393.88 1047.8
-120.08 395.73 1052.7
-118.53 399.68 1063.2
-114.78 396.28 1054.1
-110.69 391.47 1041.4
-107.63 390.16 1037.9
-104.68 389.20 1035.3
-102.02 389.29 1035.6
-98.55 386.22 1027.4
-94.78 381.75 1015.5
-92.33 382.53 1017.6
-91.11 388.57 1033.6
-89.49 393.20 1046.0
-86.10 390.12 1037.8
-83.27 389.49 1036.1
-83.21 402.19 1069.9
-81.86 409.28 1088.7
-76.27 394.96 1050.6
-71.07 381.68 1015.3
-68.51 382.09 1016.4
-67.64 392.33 1043.6
-64.19 387.82 1031.6
-60.02 378.39 1006.6
-57.58 379.49 1009.5
-54.61 377.08 1003.1
-51.29 371.85 989.2
-48.73 371.90 989.3
-47.13 379.67 1010.0
-43.53 371.27 987.6
-39.65 359.35 955.9
-36.30 350.95 933.6
-31.48 326.01 867.2
-28.85 321.81 856.1
-27.28 329.57 876.7
-25.22 332.41 884.2
-23.56 341.58 908.6
-20.98 338.08 899.3
-17.72 321.21 854.4
-15.47 320.52 852.6
-13.28 320.88 853.6
-10.69 309.99 824.6
-8.50 308.24 819.9
-6.99 337.80 898.6
-4.97 360.32 958.5
-2.43 352.23 937.0
0.00 331.12 880.8
2.14 309.66 823.7
4.18 302.97 805.9
6.47 312.82 832.1
8.85 320.90 853.6
11.21 325.12 864.8
13.82 333.90 888.2
16.46 340.93 906.9
18.83 341.26 907.8
21.05 339.13 902.1
22.61 327.86 872.1
24.84 327.49 871.1
26.81 323.95 861.7
28.32 315.83 840.1
32.70 338.67 900.9
38.23 369.58 983.1
40.89 370.61 985.8
42.75 364.59 969.9
46.17 371.94 989.4
49.93 381.04 1013.6
51.92 376.42 1001.3
53.24 367.59 977.8
55.77 367.55 977.7
59.13 372.77 991.6
61.23 369.91 984.0
67.22 389.87 1037.1
75.50 421.07 1120.1
80.16 430.49 1145.1
90.84 470.44 1251.4
101.86 509.32 1354.8
98.75 477.30 1269.7
99.32 464.58 1235.8
109.55 496.42 1320.5
-401.61 516.36 1383.1
-403.22 523.09 1401.1
-389.76 510.23 1366.7
-369.05 487.55 1305.9
-374.00 498.67 1335.7
-375.79 505.73 1354.6
-349.81 475.21 1272.9
-330.15 452.78 1212.8
-322.30 446.26 1195.3
-310.40 433.96 1162.4
-300.59 424.36 1136.7
-293.29 418.15 1120.0
-289.13 416.34 1115.2
-283.82 412.83 1105.8
-276.25 405.92 1087.3
-272.20 404.09 1082.4
-270.45 405.68 1086.6
-267.78 405.89 1087.2
-262.87 402.70 1078.7
-257.13 398.13 1066.4
-253.62 396.97 1063.3
-249.70 395.13 1058.4
-247.08 395.33 1058.9
-244.88 396.21 1061.3
-240.37 393.33 1053.6
-236.31 391.13 1047.7
-232.07 388.58 1040.9
-230.90 391.17 1047.8
-230.29 394.78 1057.5
-224.10 388.80 1041.4
-222.09 390.01 1044.7
-221.80 394.31 1056.2
-215.35 387.62 1038.3
-211.43 385.39 1032.3
-209.22 386.25 1034.6
-207.18 387.46 1037.8
-206.94 392.10 1050.3
-206.10 395.71 1059.9
-204.14 397.25 1064.1
-199.37 393.29 1053.4
-193.97 387.94 1039.1
-191.86 389.13 1042.3
-192.59 396.18 1061.2
-190.90 398.41 1067.2
-187.72 397.53 1064.8
-185.03 397.69 1065.2
-182.50 398.18 1066.6
-181.83 402.82 1079.0
-180.33 405.74 1086.8
-175.46 401.05 1074.2
-171.10 397.39 1064.4
-168.54 397.87 1065.7
-166.85 400.44 1072.6
-163.41 398.84 1068.3
-159.58 396.21 1061.3
-156.61 395.65 1059.8
-151.62 389.88 1044.3
-149.09 390.36 1045.6
-147.47 393.25 1053.4
-143.25 389.21 1042.5
-139.84 387.25 1037.3
-136.70 385.98 1033.9
-133.34 384.01 1028.6
-132.48 389.33 1042.8
-133.63 400.90 1073.8
-132.02 404.49 1083.4
-126.58 396.25 1061.4
-123.10 393.93 1055.2
-122.52 400.98 1074.1
-119.66 400.74 1073.4
-114.78 393.53 1054.1
-110.09 386.66 1035.7
-106.27 382.58 1024.8
-104.02 384.06 1028.7
-102.11 386.93 1036.4
-98.99 385.28 1032.0
-95.56 382.22 1023.8
-92.67 381.26 1021.2
-90.94 385.17 1031.7
-88.52 386.29 1034.7
-84.62 380.78 1020.0
-82.36 382.60 1024.8
-83.06 398.71 1068.0
-80.59 400.18 1071.9
-74.50 383.15 1026.3
-70.80 377.62 1011.5
-69.58 385.36 1032.2
-67.22 387.16 1037.0
-62.38 374.30 1002.6
-58.73 367.72 985.0
-56.45 369.51 989.8
-54.45 373.40 1000.2
-52.06 374.84 1004.0
-48.17 365.10 978.0
-45.16 361.30 967.8
-42.37 358.89 961.3
-39.30 353.68 947.4
-37.86 363.50 973.7
-34.94 359.34 962.5
-30.74 340.49 912.0
-27.85 334.22 895.2
-25.56 334.60 896.2
-23.60 339.86 910.3
-21.64 346.17 927.3
-18.98 341.65 915.1
-16.12 331.52 888.0
-13.48 323.49 866.5
-10.21 294.12 787.8
-7.24 260.55 697.9
-6.24 299.73 802.9
-4.47 321.77 861.9
-2.31 333.31 892.8
0.00 331.92 889.1
2.25 323.52 866.6
4.57 328.77 880.6
6.75 323.86 867.5
8.88 319.66 856.2
11.10 319.65 856.2
13.51 324.19 868.4
16.46 338.51 906.7
19.16 344.79 923.6
21.68 346.87 929.1
23.58 339.51 909.4
25.48 333.55 893.4
27.01 324.08 868.1
28.62 317.07 849.3
33.20 341.51 914.8
36.99 355.11 951.2
37.94 341.45 914.6
40.84 345.96 926.7
45.21 361.65 968.7
49.33 373.84 1001.4
52.01 374.49 1003.1
56.54 387.72 1038.5
63.02 412.47 1104.8
64.42 403.34 1080.4
64.36 386.17 1034.4
67.52 388.91 1041.7
71.85 397.93 1065.9
77.81 414.97 1111.5
90.99 467.94 1253.4
106.83 512.78 1373.5
106.54 494.90 1325.6
115.61 520.26 1393.6
-424.26 541.69 1461.1
-415.00 534.64 1442.1
-394.20 512.46 1382.3
-368.06 482.87 1302.4
-363.89 481.81 1299.6
-358.72 479.41 1293.1
-339.85 458.48 1236.7
-326.21 444.27 1198.3
-327.70 450.59 1215.4
-323.77 449.50 1212.4
-312.86 438.62 1183.1
-304.96 431.78 1164.6
-291.01 416.15 1122.5
-278.20 401.85 1083.9
-272.53 397.67 1072.6
-270.13 398.23 1074.1
-268.85 400.47 1080.2
-266.42 401.03 1081.7
-264.87 402.93 1086.8
-262.41 403.48 1088.3
-254.92 396.23 1068.8
-247.53 388.97 1049.2
-244.50 388.49 1047.9
-242.12 389.02 1049.3
-241.61 392.62 1059.0
-241.05 396.21 1068.7
-235.12 390.96 1054.5
-232.10 390.47 1053.2
-232.08 395.09 1065.7
-226.66 390.50 1053.3
-220.32 384.21 1036.3
-215.99 381.32 1028.5
-211.70 378.42 1020.7
-210.47 380.98 1027.6
-211.63 387.98 1046.5
-212.69 394.99 1065.4
-210.38 395.84 1067.7
-207.52 395.67 1067.3
-205.90 397.90 1073.2
-201.28 394.30 1063.5
-197.58 392.41 1058.4
-197.12 397.02 1070.9
-195.26 398.90 1075.9
-190.73 395.28 1066.2
-189.67 398.87 1075.9
-188.40 402.11 1084.6
-183.28 397.12 1071.1
-180.11 396.24 1068.8
-178.94 399.82 1078.4
-174.54 396.19 1068.6
-170.79 393.92 1062.5
-169.42 397.16 1071.3
-167.13 398.33 1074.4
-163.41 396.06 1068.3
-158.74 391.37 1055.7
-154.41 387.37 1044.9
-150.53 384.40 1036.8
-149.09 387.62 1045.5
-150.07 397.40 1071.9
-148.48 400.62 1080.6
-144.72 397.99 1073.5
-141.12 395.69 1067.3
-136.58 390.63 1053.6
-134.48 392.47 1058.6
-132.01 393.27 1060.8
-126.91 386.13 1041.5
-124.58 387.27 1044.6
-124.62 396.01 1068.2
-123.26 400.61 1080.6
-119.97 398.98 1076.2
-116.20 395.62 1067.1
-112.27 391.57 1056.2
-106.46 380.59 1026.6
-102.40 375.48 1012.8
-103.39 389.07 1049.4
-103.38 399.54 1077.7
-98.43 390.97 1054.6
-93.68 382.74 1032.4
-92.58 389.40 1050.3
-91.16 395.02 1065.5
-87.25 389.89 1051.7
-85.14 392.74 1059.3
-83.06 395.93 1067.9
-78.06 384.90 1038.2
-72.25 369.01 995.3
-68.70 363.87 981.5
-68.06 374.33 1009.7
-66.36 379.60 1023.9
-62.73 373.75 1008.1
-60.29 374.84 1011.1
-58.05 377.32 1017.8
-55.93 380.84 1027.2
-53.61 383.32 1033.9
-49.78 374.68 1010.6
-46.51 369.51 996.7
-43.31 364.34 982.7
-40.19 359.17 968.8
-38.55 367.54 991.4
-35.41 361.66 975.5
-31.21 343.28 925.9
-29.97 357.20 963.5
-29.14 378.77 1021.7
-25.91 370.45 999.2
-23.03 365.96 987.1
-20.09 359.02 968.4
-16.88 344.79 930.0
-14.04 334.72 902.8
-10.54 301.36 812.9
-7.71 275.65 743.5
-6.24 297.55 802.6
-4.50 321.54 867.3
-2.35 336.15 906.7
0.00 345.53 932.0
2.45 350.75 946.1
4.81 343.79 927.3
6.77 322.58 870.1
8.91 318.40 858.8
11.07 316.66 854.1
12.82 305.53 824.1
14.94 305.17 823.1
18.06 322.88 870.9
21.26 337.81 911.2
23.14 330.84 892.4
25.02 325.26 877.3
27.41 326.62 881.0
30.07 330.77 892.2
32.52 332.13 895.9
33.89 323.07 871.4
35.79 319.92 862.9
39.39 331.35 893.7
43.85 348.33 939.5
47.89 360.45 972.2
52.74 377.07 1017.1
60.16 409.66 1105.0
63.23 410.99 1108.6
61.18 380.40 1026.0
65.35 389.37 1050.2
73.04 417.76 1126.8
74.62 410.42 1107.0
77.68 411.39 1109.6
92.83 474.10 1278.8
115.65 551.25 1486.9
120.38 555.31 1497.8
-417.67 534.32 1451.4
-390.12 503.61 1367.9
-365.53 476.19 1293.5
-363.16 477.48 1297.0
-357.24 474.09 1287.8
-337.63 452.29 1228.6
-322.76 436.49 1185.6
-322.81 440.76 1197.2
-324.51 447.38 1215.2
-318.65 443.61 1205.0
-308.31 433.46 1177.4
-291.72 414.24 1125.2
-280.76 402.71 1093.9
-276.46 400.58 1088.1
-275.17 402.82 1094.2
-275.21 407.07 1105.7
-270.68 404.60 1099.0
-266.64 402.79 1094.1
-263.94 403.01 1094.7
-256.00 395.13 1073.3
-248.59 387.91 1053.7
-245.98 388.11 1054.2
-247.61 395.06 1073.1
-250.81 404.71 1099.3
-247.05 403.22 1095.3
-237.98 392.94 1067.3
-231.07 386.02 1048.6
-227.66 384.86 1045.4
-225.26 385.38 1046.8
-221.86 384.20 1043.6
-219.45 384.72 1045.0
-217.23 385.58 1047.3
-213.10 383.04 1040.4
-211.80 385.58 1047.4
-212.31 391.53 1063.5
-209.28 391.02 1062.1
-205.90 389.83 1058.9
-203.59 390.68 1061.2
-200.40 389.82 1058.9
-197.74 389.98 1059.3
-193.20 386.40 1049.6
-187.36 380.08 1032.4
-188.57 388.07 1054.1
-193.26 403.56 1096.2
-191.29 405.42 1101.3
-184.70 397.39 1079.4
-182.60 398.91 1083.6
-182.16 404.18 1097.9
-174.99 394.42 1071.4
-168.70 386.37 1049.5
-168.09 391.29 1062.9
-166.84 394.84 1072.5
-162.97 392.24 1065.5
-157.75 386.22 1049.1
-155.77 388.06 1054.1
-154.03 390.58 1060.9
-150.01 387.29 1052.0
-148.50 390.49 1060.7
-147.20 394.38 1071.3
-143.84 392.79 1066.9
-143.21 398.74 1083.1
-141.65 402.28 1092.7
-137.79 399.31 1084.6
-133.51 394.96 1072.8
-127.47 385.12 1046.1
-124.68 384.88 1045.4
-123.85 390.82 1061.6
-121.88 393.33 1068.4
-120.28 397.21 1078.9
-118.22 399.71 1085.7
-114.45 396.37 1076.7
-108.68 385.81 1048.0
-104.66 381.08 1035.1
-105.78 395.27 1073.7
-105.53 404.99 1100.1
-100.08 394.75 1072.3
-95.54 387.61 1052.9
-94.48 394.57 1071.8
-93.40 401.88 1091.6
-89.88 398.86 1083.4
-85.36 391.01 1062.1
-80.80 382.47 1038.9
-77.35 378.74 1028.8
-73.33 371.91 1010.2
-70.07 368.52 1001.0
-69.70 380.65 1034.0
-68.60 389.67 1058.5
-65.75 389.04 1056.7
-62.97 388.75 1056.0
-60.29 389.14 1057.0
-55.72 376.77 1023.4
-50.98 361.98 983.2
-49.13 367.20 997.4
-47.86 377.59 1025.7
-44.26 369.69 1004.2
-40.80 362.13 983.7
-38.37 363.20 986.6
-34.45 349.42 949.1
-30.38 331.84 901.4
-29.07 343.95 934.3
-28.87 372.64 1012.2
-26.41 375.08 1018.8
-22.48 354.72 963.5
-18.82 334.02 907.3
-16.18 328.16 891.4
-13.84 327.48 889.5
-11.58 328.87 893.3
-9.44 335.10 910.2
-7.23 342.36 930.0
-5.04 357.57 971.3
-2.70 383.48 1041.7
0.00 393.16 1067.9
2.76 391.77 1064.2
5.37 381.41 1036.0
7.38 349.27 948.7
9.35 331.99 901.8
11.64 330.60 898.0
13.44 318.15 864.2
14.64 297.07 806.9
16.64 295.33 802.2
21.21 334.69 909.1
24.59 349.18 948.5
26.27 339.14 921.2
28.57 338.08 918.3
30.79 336.33 913.6
32.82 332.85 904.1
35.23 333.51 905.9
38.28 339.69 922.7
41.49 346.57 941.4
45.28 357.23 970.3
47.93 358.23 973.0
50.93 361.64 982.3
56.54 382.29 1038.4
58.37 376.72 1023.3
62.58 386.33 1049.4
74.03 438.01 1189.8
80.63 457.95 1243.9
80.43 439.26 1193.2
84.30 443.33 1204.2
100.04 507.37 1378.2
109.70 519.26 1410.5
-422.29 531.64 1454.3
-404.17 513.40 1404.4
-379.56 486.52 1330.9
-357.86 462.92 1266.4
-357.34 466.52 1276.2
-353.23 465.47 1273.3
-334.89 445.47 1218.6
-321.77 432.09 1182.0
-316.68 429.35 1174.5
-314.06 429.93 1176.1
-306.85 424.18 1160.4
-294.94 411.75 1126.4
-293.37 413.65 1131.6
-293.64 418.22 1144.1
-286.66 412.44 1128.2
-283.66 412.33 1128.0
-279.29 410.21 1122.2
-270.67 401.74 1099.0
-265.74 398.60 1090.4
-262.16 397.47 1087.3
-258.17 395.67 1082.4
-254.41 394.20 1078.4
-246.82 386.69 1057.8
-243.78 386.21 1056.5
-247.45 396.48 1084.6
-243.93 395.33 1081.5
-238.37 390.82 1069.1
-234.70 389.33 1065.0
-230.65 387.16 1059.1
-227.62 386.67 1057.8
-224.59 386.18 1056.4
-222.53 387.37 1059.7
-218.93 385.87 1055.6
-213.84 381.66 1044.0
-212.16 383.52 1049.1
-212.11 388.41 1062.5
-210.54 390.61 1068.5
-208.40 391.79 1071.8
-204.29 389.25 1064.8
-199.51 385.36 1054.2
-198.93 389.58 1065.7
-196.42 390.08 1067.1
-187.35 377.38 1032.3
-185.91 379.90 1039.2
-191.94 398.00 1088.8
-190.80 401.54 1098.4
-187.55 400.68 1096.1
-188.38 408.63 1117.8
-186.32 410.48 1122.9
-177.26 396.72 1085.2
-170.18 387.02 1058.7
-168.81 390.21 1067.4
-166.25 390.69 1068.7
-161.12 385.04 1053.3
-157.04 381.78 1044.4
-156.17 386.32 1056.8
-156.05 392.92 1074.8
-153.31 393.04 1075.2
-150.57 393.17 1075.5
-148.09 393.97 1077.7
-144.46 391.71 1071.5
-143.57 396.94 1085.8
-142.25 401.14 1097.4
-138.62 398.87 1091.1
-135.71 398.64 1090.5
-130.99 392.96 1075.0
-126.12 386.58 1057.5
-123.08 385.66 1055.0
-121.12 388.15 1061.8
-119.76 392.69 1074.2
-116.59 391.42 1070.8
-111.76 384.34 1051.4
-109.45 385.80 1055.4
-108.82 393.41 1076.2
-106.05 393.50 1076.4
-101.76 387.77 1060.8
-97.63 382.38 1046.0
-94.34 380.07 1039.7
-92.33 382.88 1047.4
-90.03 384.67 1052.3
-87.39 385.08 1053.4
-83.70 380.70 1041.4
-80.14 376.66 1030.4
-77.55 377.07 1031.5
-75.16 378.51 1035.4
-73.80 385.42 1054.3
-71.27 386.51 1057.3
-68.05 383.82 1050.0
-66.45 390.39 1067.9
-64.86 397.64 1087.8
-61.25 392.56 1073.9
-55.92 375.46 1027.1
-50.44 355.62 972.8
-47.51 352.57 964.5
-46.55 364.61 997.4
-43.55 361.22 988.1
-40.57 357.48 977.9
-38.54 362.32 991.1
-36.05 363.04 993.1
-33.09 358.95 981.9
-28.36 333.24 911.6
-24.85 318.50 871.3
-24.22 341.52 934.2
-22.06 345.65 945.6
-18.39 324.05 886.4
-15.70 316.17 864.9
-13.86 325.79 891.2
-12.00 338.50 926.0
-9.67 340.92 932.6
-7.36 345.73 945.8
-4.96 349.51 956.1
-2.55 359.81 984.3
0.00 399.98 1094.2
3.10 437.41 1196.6
5.71 402.38 1100.7
7.47 350.88 959.9
9.41 331.65 907.2
11.64 328.20 897.8
14.01 329.22 900.6
15.90 320.28 876.2
16.89 297.61 814.1
20.24 317.17 867.6
24.54 345.98 946.4
27.39 351.11 960.5
29.44 345.93 946.3
31.35 340.07 930.3
34.48 347.25 949.9
38.18 358.89 981.8
41.77 368.12 1007.0
45.50 377.34 1032.3
49.39 386.91 1058.4
51.76 384.12 1050.8
52.19 367.96 1006.6
54.85 368.26 1007.4
58.74 376.44 1029.8
65.26 400.04 1094.3
77.18 453.46 1240.5
84.28 475.33 1300.3
87.13 472.51 1292.6
94.14 491.62 1344.9
99.24 499.76 1367.1
96.78 470.57 1287.3
100.03 470.15 1286.1
110.80 503.95 1378.6
-402.13 507.19 1397.4
-369.75 470.59 1296.5
-360.45 462.97 1275.5
-369.83 479.41 1320.8
-360.57 471.78 1299.8
-338.15 446.62 1230.5
-320.29 427.05 1176.6
-312.51 420.68 1159.0
-310.66 422.25 1163.3
-303.72 416.86 1148.5
-299.95 415.78 1145.5
-304.96 426.95 1176.3
-307.01 434.15 1196.1
-300.36 429.08 1182.2
-290.32 419.03 1154.5
-279.51 407.63 1123.1
-269.99 397.87 1096.2
-265.05 394.76 1087.6
-262.15 394.64 1087.3
-258.81 393.84 1085.1
-256.35 394.38 1086.6
-249.80 388.58 1070.6
-243.55 383.11 1055.5
-244.29 388.64 1070.7
-243.50 391.84 1079.6
-240.20 391.03 1077.3
-240.37 395.90 1090.7
-239.26 398.76 1098.6
-233.94 394.61 1087.2
-228.30 389.77 1073.9
-226.20 390.96 1077.1
-222.93 390.13 1074.9
-215.52 381.94 1052.3
-211.95 380.43 1048.1
-213.94 388.98 1071.7
-214.53 395.19 1088.8
-209.29 390.67 1076.3
-201.97 382.10 1052.7
-198.45 380.59 1048.6
-199.27 387.47 1067.5
-200.50 395.36 1089.3
-194.23 388.46 1070.2
-186.06 377.51 1040.1
-185.40 381.70 1051.6
-188.54 393.97 1085.4
-189.29 401.53 1106.3
-185.71 400.00 1102.0
-179.53 392.73 1082.0
-175.88 390.85 1076.8
-174.20 393.36 1083.7
-170.72 391.81 1079.5
-165.95 387.22 1066.8
-162.82 386.34 1064.4
-160.81 388.16 1069.4
-159.74 392.35 1081.0
-159.42 398.56 1098.1
-156.10 397.34 1094.7
-152.79 396.11 1091.3
-151.80 400.97 1104.7
-149.61 402.79 1109.7
-146.16 401.22 1105.4
-142.25 398.29 1097.3
-139.56 398.74 1098.6
-137.68 401.56 1106.4
-132.91 395.91 1090.8
-127.89 389.24 1072.4
-125.36 390.02 1074.6
-123.89 394.20 1086.1
-121.00 393.96 1085.4
-116.38 387.95 1068.8
-112.45 383.97 1057.9
-110.99 388.47 1070.3
-108.34 388.90 1071.5
-103.83 382.54 1053.9
-99.33 375.82 1035.4
-94.83 368.77 1016.0
-92.47 369.87 1019.0
-91.33 376.06 1036.1
-88.98 377.50 1040.0
-86.38 377.91 1041.2
-83.54 377.30 1039.5
-80.65 376.34 1036.9
-78.82 380.49 1048.3
-77.00 384.98 1060.7
-75.31 390.49 1075.8
-72.66 391.24 1077.9
-69.08 386.87 1065.9
-66.97 390.67 1076.3
-64.64 393.45 1084.0
-60.44 384.64 1059.7
-57.09 380.60 1048.6
-53.40 373.83 1030.0
-49.45 364.34 1003.8
-47.29 367.78 1013.3
-43.63 359.30 989.9
-40.01 350.13 964.6
-39.20 365.85 1007.9
-37.95 379.52 1045.6
-34.86 375.46 1034.4
-30.23 352.63 971.5
-25.86 329.12 906.8
-24.27 339.72 936.0
-22.85 355.43 979.2
-19.78 346.24 953.9
-17.02 340.45 938.0
-15.10 352.41 970.9
-12.12 339.45 935.2
-9.04 316.26 871.3
-7.13 332.65 916.5
-5.09 356.53 982.3
-2.47 346.30 954.1
0.00 356.54 982.3
2.68 375.30 1034.0
4.99 349.03 961.6
7.04 328.55 905.2
9.36 327.52 902.4
11.93 333.99 920.2
14.78 344.90 950.2
17.52 350.34 965.2
19.55 342.14 942.6
21.09 328.14 904.1
23.41 327.78 903.1
26.32 334.92 922.7
28.59 333.54 918.9
31.13 335.22 923.6
34.81 348.15 959.2
38.94 363.46 1001.4
43.21 378.09 1041.7
45.86 377.71 1040.6
48.65 378.35 1042.4
53.65 395.35 1089.2
56.81 397.69 1095.7
58.88 392.53 1081.5
61.73 392.82 1082.3
66.21 402.99 1110.3
75.50 440.40 1213.3
83.62 468.26 1290.1
87.58 471.59 1299.3
94.02 487.52 1343.2
98.85 494.25 1361.7
103.21 498.25 1372.7
-404.76 511.47 1419.3
-401.58 512.11 1421.1
-390.75 502.91 1395.5
-364.39 473.36 1313.5
-348.93 457.56 1269.7
-335.92 444.69 1234.0
-320.13 427.86 1187.3
-312.12 421.21 1168.8
-307.33 418.82 1162.2
-305.21 420.04 1165.6
-304.25 422.91 1173.6
-300.44 421.83 1170.6
-296.41 420.42 1166.6
-287.79 412.40 1144.4
-277.00 401.07 1112.9
-267.04 390.72 1084.2
-263.70 389.94 1082.0
-262.36 392.13 1088.1
-256.83 388.03 1076.8
-252.43 385.58 1070.0
-249.57 385.45 1069.6
-246.71 385.32 1069.2
-246.37 389.16 1079.9
-244.73 391.01 1085.0
-241.01 389.54 1080.9
-240.35 393.05 1090.7
-239.65 396.56 1100.4
-234.13 392.10 1088.0
-227.69 385.97 1071.0
-225.02 386.15 1071.5
-221.58 384.99 1068.3
-213.99 376.51 1044.8
-210.44 375.02 1040.6
-212.45 383.52 1064.2
-213.61 390.69 1084.1
-208.73 386.85 1073.5
-203.37 382.01 1060.1
-201.59 383.85 1065.1
-199.95 386.01 1071.1
-198.45 388.51 1078.1
-197.08 391.34 1085.9
-193.34 389.49 1080.8
-187.18 382.62 1061.7
-184.82 383.44 1064.0
-186.43 392.63 1089.5
-183.83 393.11 1090.8
-178.75 388.23 1077.3
-176.48 389.38 1080.5
-175.09 392.54 1089.3
-172.03 392.01 1087.8
-167.97 389.13 1079.8
-165.80 390.60 1083.9
-163.32 391.41 1086.1
-161.80 394.56 1094.9
-162.26 402.75 1117.6
-159.68 403.56 1119.8
-153.56 395.28 1096.9
-149.87 393.05 1090.7
-149.35 399.23 1107.8
-147.51 402.04 1115.6
-142.97 397.45 1102.9
-139.91 396.89 1101.3
-137.33 397.68 1103.5
-132.00 390.38 1083.3
-127.55 385.43 1069.5
-125.69 388.23 1077.3
-125.17 395.41 1097.2
-123.40 398.88 1106.9
-118.31 391.56 1086.6
-113.83 385.92 1070.9
-110.60 384.33 1066.5
-106.44 379.35 1052.7
-105.58 386.19 1071.7
-104.80 393.71 1092.5
-99.63 384.67 1067.4
-96.63 383.74 1064.8
-94.21 385.17 1068.8
-90.58 381.53 1058.7
-87.54 380.25 1055.2
-84.14 377.28 1046.9
-82.03 380.05 1054.6
-80.93 387.90 1076.4
-76.99 382.21 1060.6
-73.20 376.86 1045.8
-71.45 382.00 1060.0
-68.71 382.05 1060.2
-66.62 385.83 1070.7
-64.41 389.27 1080.2
-60.76 383.91 1065.3
-57.85 382.94 1062.6
-54.13 376.21 1044.0
-50.23 367.45 1019.6
-48.73 376.30 1044.2
-45.74 373.97 1037.7
-40.16 348.93 968.3
-37.07 343.54 953.3
-37.33 370.68 1028.6
-36.19 386.98 1073.8
-33.26 385.31 1069.2
-30.47 385.00 1068.3
-26.82 372.82 1034.5
-23.55 363.69 1009.2
-20.99 364.72 1012.1
-18.74 372.20 1032.8
-15.83 366.79 1017.8
-12.06 335.27 930.4
-9.55 331.89 921.0
-7.89 365.80 1015.1
-5.40 375.30 1041.4
-2.54 353.27 980.3
0.00 352.25 977.5
2.57 357.00 990.6
4.93 342.41 950.2
7.09 328.51 911.6
9.71 337.32 936.0
12.68 352.56 978.3
15.70 363.74 1009.3
18.59 369.15 1024.4
21.03 365.40 1014.0
22.87 353.18 980.1
26.04 361.97 1004.5
30.07 379.91 1054.2
31.83 368.70 1023.1
33.88 362.24 1005.2
36.82 365.60 1014.5
39.89 369.63 1025.7
44.34 385.18 1068.8
47.52 388.53 1078.1
48.47 374.27 1038.6
50.64 370.50 1028.1
53.99 375.20 1041.1
56.47 373.80 1037.3
65.05 410.99 1140.5
78.08 471.86 1309.4
83.74 485.00 1345.8
86.85 482.90 1340.0
89.68 479.44 1330.4
95.15 489.85 1359.3
100.36 498.23 1382.5
105.06 503.55 1397.3
-422.97 530.63 1483.1
-410.38 519.56 1452.2
-390.80 499.35 1395.7
-359.61 463.80 1296.3
-341.18 444.18 1241.5
-341.64 449.01 1255.0
-335.63 445.36 1244.8
-321.38 430.59 1203.5
-310.71 420.38 1175.0
-303.77 415.06 1160.1
-298.80 412.34 1152.5
-296.45 413.23 1155.0
-293.62 413.46 1155.6
-286.63 407.79 1139.8
-276.99 398.17 1112.9
-267.02 387.88 1084.1
-263.46 386.78 1081.1
-263.67 391.25 1093.6
-259.66 389.49 1088.6
-254.58 386.07 1079.1
-250.41 383.97 1073.2
-245.63 380.87 1064.5
-243.63 382.05 1067.8
-243.68 386.52 1080.3
-241.41 387.37 1082.7
-239.33 388.55 1086.0
-237.63 390.39 1091.2
-233.13 387.61 1083.4
-227.48 382.83 1070.0
-226.36 385.66 1077.9
-224.25 386.83 1081.2
-218.33 381.38 1066.0
-216.60 383.21 1071.1
-215.02 385.36 1077.1
-212.32 385.53 1077.6
-211.06 388.35 1085.5
-209.05 389.85 1089.6
-203.85 385.37 1077.1
-198.90 381.22 1065.5
-197.92 384.69 1075.2
-196.90 388.17 1084.9
-194.99 389.99 1090.0
-190.12 385.82 1078.4
-184.16 379.32 1060.2
-182.44 381.47 1066.2
-184.13 390.93 1092.7
-183.22 395.07 1104.2
-180.27 394.88 1103.7
-178.37 397.02 1109.7
-176.15 398.50 1113.8
-173.03 397.97 1112.3
-169.49 396.44 1108.1
-165.70 394.24 1101.9
-161.24 390.37 1091.1
-159.14 392.17 1096.1
-157.55 395.30 1104.9
-152.77 390.42 1091.2
-149.86 390.21 1090.6
-149.85 397.68 1111.5
-146.15 395.46 1105.3
-139.93 386.21 1079.5
-136.94 385.66 1077.9
-134.65 387.11 1082.0
-130.62 383.53 1072.0
-127.43 382.30 1068.5
-124.04 380.39 1063.2
-122.06 382.84 1070.0
-123.29 395.67 1105.9
-121.06 397.78 1111.8
-114.92 386.81 1081.2
-110.11 379.86 1061.7
-107.47 380.29 1062.9
-108.34 393.46 1099.7
-105.96 395.22 1104.7
-99.27 380.54 1063.6
-97.04 382.63 1069.5
-95.70 388.42 1085.6
-91.62 383.12 1070.8
-88.08 379.84 1061.7
-84.96 378.23 1057.2
-83.12 382.33 1068.6
-82.05 390.46 1091.4
-78.08 384.81 1075.6
-72.87 372.44 1041.0
-69.55 369.14 1031.7
-67.31 371.55 1038.5
-65.80 378.33 1057.4
-63.85 383.09 1070.7
-60.65 380.45 1063.4
-58.77 386.22 1079.5
-56.08 386.94 1081.5
-52.91 384.29 1074.1
-52.32 401.16 1121.2
-49.09 398.51 1113.8
-43.40 374.31 1046.2
-38.46 353.81 988.9
-36.85 363.27 1015.3
-36.60 388.55 1086.0
-34.76 399.69 1117.1
-31.30 392.64 1097.5
-27.14 374.48 1046.7
-24.56 376.53 1052.4
-22.67 391.03 1092.9
-18.96 373.87 1045.0
-15.05 346.26 967.8
-12.80 353.35 987.6
-11.25 388.05 1084.6
-8.52 391.77 1095.0
-5.38 370.89 1036.6
-2.65 365.16 1020.6
0.00 379.65 1061.1
2.75 379.65 1061.1
5.25 362.13 1012.2
7.82 359.76 1005.6
10.97 378.62 1058.3
13.40 369.85 1033.7
15.64 359.73 1005.5
18.78 370.16 1034.6
21.57 372.17 1040.2
24.42 374.51 1046.8
28.70 396.04 1106.9
33.26 417.23 1166.2
35.31 406.09 1135.0
36.35 385.85 1078.5
38.36 378.08 1056.7
41.46 381.41 1066.1
45.97 396.53 1108.3
49.67 403.22 1127.0
50.88 390.05 1090.2
52.72 382.94 1070.3
55.74 384.58 1074.9
58.21 382.51 1069.1
66.71 418.46 1169.6
77.92 467.51 1306.7
82.00 471.48 1317.8
92.28 509.41 1423.8
104.11 532.11 1487.3
101.88 502.11 1403.4
103.24 491.27 1373.1
112.91 519.40 1451.8
-414.81 521.37 1467.9
-390.33 495.15 1394.0
-354.07 453.35 1276.4
-331.17 428.02 1205.1
-329.48 429.89 1210.3
-332.69 438.25 1233.9
-324.56 431.69 1215.4
-319.90 429.67 1209.7
-318.14 431.54 1215.0
-310.90 425.93 1199.2
-307.73 425.84 1198.9
-299.66 418.92 1179.4
-288.70 407.75 1148.0
-281.08 401.13 1129.4
-273.11 393.85 1108.9
-267.69 390.15 1098.4
-266.98 393.29 1107.3
-266.22 396.44 1116.1
-263.25 396.31 1115.8
-258.77 393.90 1109.0
-253.47 390.18 1098.5
-246.97 384.49 1082.5
-242.83 382.39 1076.6
-238.51 379.96 1069.7
-235.24 379.16 1067.5
-235.20 383.60 1080.0
-232.12 383.13 1078.7
-229.62 383.64 1080.1
-231.40 391.37 1101.9
-229.60 393.20 1107.0
-223.62 387.79 1091.8
-221.63 389.28 1096.0
-219.63 390.77 1100.2
-215.05 387.65 1091.4
-211.95 387.16 1090.0
-209.93 388.65 1094.2
-204.89 384.53 1082.6
-199.40 379.41 1068.2
-197.91 381.88 1075.2
-196.72 385.01 1084.0
-194.48 386.15 1087.2
-190.27 383.33 1079.2
-185.12 378.53 1065.7
-181.95 377.68 1063.3
-182.40 384.44 1082.4
-180.90 387.23 1090.2
-177.37 385.72 1086.0
-177.17 391.48 1102.2
-176.73 396.92 1117.5
-172.88 394.74 1111.4
-168.35 390.91 1100.6
-166.53 393.36 1107.5
-164.13 394.49 1110.6
-156.56 383.01 1078.3
-150.22 374.18 1053.5
-149.89 380.27 1070.6
-151.40 391.34 1101.8
-148.84 392.13 1104.0
-142.56 382.95 1078.2
-138.47 379.41 1068.2
-137.52 384.50 1082.5
-135.57 386.94 1089.4
-132.10 385.05 1084.1
-128.65 383.16 1078.8
-125.02 380.60 1071.6
-121.74 379.04 1067.2
-121.61 387.46 1090.9
-120.55 393.22 1107.1
-115.31 385.32 1084.8
-111.36 381.41 1073.8
-109.74 385.50 1085.4
-106.95 385.59 1085.6
-101.10 374.34 1053.9
-96.99 369.09 1039.1
-97.29 380.84 1072.2
-97.02 390.92 1100.6
-94.10 390.67 1099.9
-88.85 380.40 1071.0
-84.13 371.79 1046.8
-82.60 377.20 1062.0
-81.70 385.95 1086.6
-79.51 389.02 1095.2
-75.96 385.41 1085.1
-72.46 381.79 1074.9
-70.11 384.19 1081.7
-66.73 380.90 1072.4
-63.00 375.28 1056.6
-60.75 378.33 1065.2
-59.84 390.42 1099.2
-58.03 397.48 1119.1
-55.22 398.20 1121.1
-53.73 408.94 1151.4
-49.92 402.30 1132.6
-45.78 391.97 1103.6
-42.04 383.98 1081.1
-38.76 379.33 1068.0
-37.05 390.40 1099.1
-34.23 390.76 1100.2
-30.11 375.06 1056.0
-26.77 366.72 1032.5
-24.71 376.11 1058.9
-22.49 385.17 1084.4
-18.79 367.78 1035.5
-15.29 349.05 982.7
-13.12 359.44 1012.0
-11.35 388.57 1094.0
-8.55 390.25 1098.7
-5.61 384.57 1082.7
-2.90 397.62 1119.5
0.00 398.29 1121.4
2.80 383.23 1079.0
5.59 383.23 1078.9
8.73 398.62 1122.3
11.55 395.60 1113.8
13.53 370.82 1044.0
15.49 353.74 995.9
18.30 358.08 1008.1
21.14 362.08 1019.4
24.03 365.74 1029.7
27.23 373.08 1050.4
30.44 379.08 1067.3
34.02 388.42 1093.6
37.05 390.40 1099.1
39.45 386.02 1086.8
43.25 395.02 1112.1
46.56 398.66 1122.4
49.05 395.27 1112.9
52.41 398.91 1123.1
56.75 409.23 1152.2
60.81 416.54 1172.7
64.15 418.49 1178.2
69.18 430.81 1212.9
75.51 449.80 1266.4
78.96 450.74 1269.0
88.64 485.75 1367.6
100.67 530.43 1493.4
101.89 516.99 1455.6
104.14 509.56 1434.6
110.67 522.83 1472.0
118.42 540.76 1522.5
-410.23 511.85 1451.7
-379.91 478.40 1356.8
-356.62 453.28 1285.6
-343.46 440.67 1249.8
-333.46 431.91 1225.0
-330.23 431.84 1224.8
-323.34 426.94 1210.8
-319.66 426.21 1208.8
-320.30 431.30 1223.2
-314.46 427.67 1212.9
-307.73 422.74 1198.9
-296.87 411.98 1168.4
-286.38 401.53 1138.8
-279.47 395.92 1122.9
-277.39 397.11 1126.2
-277.75 401.86 1139.7
-275.17 402.39 1141.2
-273.23 403.90 1145.5
-266.27 397.95 1128.6
-258.54 390.68 1108.0
-256.01 391.21 1109.5
-251.79 389.13 1103.6
-246.76 385.75 1094.0
-241.99 382.68 1085.3
-233.60 373.76 1060.0
-228.75 370.35 1050.4
-229.12 375.42 1064.7
-229.41 380.49 1079.1
-230.80 387.52 1099.0
-228.82 389.00 1103.3
-221.90 382.00 1083.4
-219.00 381.84 1083.0
-221.10 390.51 1107.5
-219.78 393.30 1115.4
-212.66 385.62 1093.7
-206.89 380.22 1078.4
-202.95 378.09 1072.3
-198.52 374.98 1063.5
-197.38 378.08 1072.3
-196.54 381.84 1083.0
-192.98 380.36 1078.7
-187.79 375.59 1065.2
-185.59 376.72 1068.4
-185.60 382.45 1084.7
-181.60 379.97 1077.6
-176.09 374.20 1061.3
-173.86 375.32 1064.5
-174.91 383.68 1088.2
-175.25 390.72 1108.1
-172.29 390.53 1107.6
-166.91 384.74 1091.2
-164.00 384.54 1090.6
-162.33 387.31 1098.5
-155.19 376.90 1068.9
-150.07 371.09 1052.4
-150.92 380.11 1078.0
-150.62 386.49 1096.1
-146.43 382.98 1086.2
-142.55 380.13 1078.1
-140.77 382.88 1085.9
-138.35 383.98 1089.0
-134.98 382.44 1084.7
-131.86 381.56 1082.2
-128.76 380.67 1079.6
-127.63 385.73 1094.0
-127.18 393.11 1114.9
-122.55 387.59 1099.2
-116.97 378.75 1074.2
-114.31 379.18 1075.4
-112.72 383.24 1086.9
-109.17 380.68 1079.7
-104.82 375.14 1063.9
-101.99 374.89 1063.2
-100.92 381.27 1081.3
-100.02 388.63 1102.2
-98.34 393.35 1115.6
-95.79 394.76 1119.6
-90.80 385.88 1094.4
-85.48 375.01 1063.6
-83.47 378.40 1073.2
-81.76 383.44 1087.5
-78.75 382.51 1084.8
-76.94 387.55 1099.1
-75.31 393.92 1117.2
-71.26 387.67 1099.5
-66.37 376.11 1066.7
-63.67 376.49 1067.8
-62.52 386.50 1096.2
-59.74 386.89 1097.3
-55.68 378.63 1073.8
-53.46 382.66 1085.3
-52.15 394.00 1117.4
-49.17 393.37 1115.7
-45.66 388.10 1100.7
-42.44 384.81 1091.4
-39.48 383.51 1087.7
-37.23 389.53 1104.7
-34.23 387.89 1100.1
-31.00 383.27 1087.0
-28.48 387.28 1098.4
-24.73 373.67 1059.8
-21.02 357.40 1013.6
-18.72 363.73 1031.6
-16.27 368.73 1045.8
-13.26 360.77 1023.2
-10.77 366.10 1038.3
-8.36 379.07 1075.1
-5.70 387.72 1099.6
-2.96 402.36 1141.1
0.00 401.69 1139.3
2.87 389.72 1105.3
5.78 392.71 1113.8
8.63 391.37 1110.0
11.04 375.41 1064.7
13.19 358.77 1017.5
15.36 348.12 987.3
18.43 358.08 1015.6
21.61 367.37 1041.9
23.89 361.04 1024.0
26.47 360.02 1021.1
29.95 370.30 1050.2
33.84 383.57 1087.9
37.17 388.86 1102.9
40.30 391.49 1110.3
42.66 386.80 1097.0
44.45 377.80 1071.5
47.34 378.75 1074.2
51.22 387.02 1097.6
54.81 392.29 1112.6
57.98 394.24 1118.1
64.82 419.76 1190.5
74.39 459.89 1304.3
78.38 463.48 1314.5
78.97 447.48 1269.1
84.38 459.03 1301.9
91.36 477.88 1355.3
98.22 494.72 1403.1
107.64 522.84 1482.8
-412.06 501.15 1431.9
-417.18 511.99 1462.8
-397.57 496.96 1419.9
-379.94 479.37 1369.6
-357.53 455.35 1301.0
-340.93 438.34 1252.4
-333.69 433.16 1237.6
-323.34 423.80 1210.9
-317.97 420.84 1202.4
-316.71 423.33 1209.5
-311.38 420.36 1201.0
-304.20 414.81 1185.2
-297.33 409.58 1170.2
-289.84 403.38 1152.5
-277.63 390.42 1115.5
-270.58 384.52 1098.6
-272.81 391.80 1119.4
-271.61 394.27 1126.5
-271.46 398.34 1138.1
-265.39 393.71 1124.9
-258.74 388.11 1108.9
-257.06 389.92 1114.1
-252.62 387.54 1107.2
-247.37 383.85 1096.7
-243.41 382.10 1091.7
-235.61 374.21 1069.2
-233.36 375.04 1071.5
-236.26 384.28 1097.9
-233.92 385.11 1100.3
-232.73 387.88 1108.2
-232.08 391.63 1118.9
-226.62 387.27 1106.5
-221.04 382.58 1093.1
-220.34 386.32 1103.8
-217.21 385.84 1102.4
-208.49 375.29 1072.2
-204.38 372.85 1065.3
-202.40 374.31 1069.5
-199.19 373.49 1067.1
-199.08 378.53 1081.5
-198.55 382.92 1094.0
-195.29 382.09 1091.7
-191.39 379.96 1085.6
-190.75 384.35 1098.1
-189.89 388.41 1109.8
-184.89 384.00 1097.1
-179.64 378.92 1082.6
-177.81 381.02 1088.6
-177.30 386.06 1103.0
-176.13 389.79 1113.7
-173.59 390.58 1115.9
-168.61 385.81 1102.3
-164.97 383.98 1097.1
-162.60 385.09 1100.3
-156.67 377.69 1079.1
-152.33 373.89 1068.3
-152.62 381.54 1090.1
-151.64 386.25 1103.6
-147.81 383.75 1096.4
-144.40 382.22 1092.1
-142.94 385.94 1102.7
-140.60 387.37 1106.8
-136.72 384.53 1098.6
-133.11 382.34 1092.4
-130.54 383.10 1094.6
-130.14 390.43 1115.5
-128.89 395.46 1129.9
-123.59 388.00 1108.6
-119.00 382.51 1092.9
-117.00 385.24 1100.7
-112.71 380.40 1086.9
-106.59 368.98 1054.2
-105.64 375.31 1072.3
-106.49 388.55 1110.2
-103.64 388.64 1110.4
-101.04 389.71 1113.5
-97.34 386.50 1104.3
-92.72 379.33 1083.8
-91.34 385.33 1100.9
-89.71 390.67 1116.2
-87.20 392.39 1121.1
-84.80 394.77 1127.9
-80.59 388.57 1110.2
-77.66 388.31 1109.4
-76.07 394.96 1128.5
-71.99 388.76 1110.7
-66.95 376.61 1076.0
-64.12 376.33 1075.2
-63.22 387.93 1108.4
-60.71 390.29 1115.1
-56.70 382.75 1093.6
-54.34 386.09 1103.1
-52.98 397.36 1135.3
-50.04 397.40 1135.4
-45.46 383.57 1095.9
-41.12 370.07 1057.4
-38.59 372.09 1063.1
-36.66 380.70 1087.7
-34.31 386.01 1102.9
-31.62 388.02 1108.6
-28.72 387.72 1107.8
-24.81 372.21 1063.5
-21.59 364.31 1040.9
-19.49 375.88 1074.0
-17.26 388.45 1109.9
-14.42 389.45 1112.7
-11.42 385.50 1101.4
-8.68 390.46 1115.6
-5.67 382.54 1093.0
-2.80 378.58 1081.7
0.00 386.18 1103.4
2.83 382.21 1092.0
5.72 385.84 1102.4
8.62 387.82 1108.1
11.13 375.59 1073.1
13.36 360.72 1030.6
15.56 350.13 1000.4
18.55 357.72 1022.0
21.59 364.31 1040.9
23.78 356.69 1019.1
26.81 361.96 1034.2
31.08 381.42 1089.8
35.02 393.94 1125.5
38.00 394.57 1127.3
41.05 395.86 1131.0
43.21 388.89 1111.1
45.15 380.93 1088.4
48.17 382.55 1093.0
51.62 387.13 1106.1
54.71 388.73 1110.7
58.81 396.94 1134.1
67.23 432.19 1234.8
75.74 464.79 1328.0
77.94 457.47 1307.1
79.03 444.55 1270.1
84.75 457.67 1307.6
98.04 509.03 1454.4
-410.53 495.60 1426.6
-398.73 499.35 1437.4
-361.82 457.40 1316.6
-349.41 445.91 1283.5
-346.29 446.17 1284.3
-331.90 431.80 1242.9
-323.54 425.04 1223.5
-319.35 423.69 1219.6
-311.85 417.88 1202.8
-307.49 416.20 1198.0
-302.46 413.56 1190.4
-292.60 404.21 1163.5
-277.84 387.82 1116.3
-266.49 375.89 1082.0
-264.72 377.37 1086.2
-268.48 386.85 1113.5
-272.33 396.66 1141.8
-267.34 393.66 1133.1
-260.45 387.78 1116.2
-255.98 385.41 1109.4
-248.81 378.87 1090.6
-242.77 373.92 1076.3
-238.45 371.54 1069.5
-234.16 369.15 1062.6
-235.15 375.12 1079.8
-237.44 383.34 1103.4
-234.49 383.20 1103.0
-232.52 384.67 1107.2
-231.30 387.42 1115.2
-224.33 380.51 1095.3
-217.65 373.91 1076.3
-216.63 376.98 1085.1
-213.72 376.83 1084.7
-209.38 374.09 1076.8
-210.42 381.03 1096.8
-209.07 383.78 1104.7
-206.47 384.26 1106.1
-204.37 385.72 1110.3
-202.25 387.17 1114.5
-200.94 390.24 1123.3
-198.93 392.01 1128.4
-196.41 392.81 1130.7
-193.87 393.62 1133.0
-189.12 389.88 1122.2
-183.80 384.84 1107.7
-177.34 377.20 1085.7
-172.19 372.14 1071.2
-172.42 378.77 1090.3
-170.82 381.50 1098.1
-169.46 384.88 1107.9
-169.32 391.19 1126.0
-167.70 394.24 1134.8
-162.50 388.85 1119.3
-155.52 378.89 1090.6
-153.26 380.32 1094.7
-154.85 391.50 1126.9
-153.36 395.20 1137.6
-148.60 390.44 1123.9
-145.73 390.56 1124.2
-143.10 391.32 1126.4
-138.81 387.52 1115.5
-134.13 382.42 1100.8
-130.75 380.89 1096.4
-128.60 382.95 1102.3
-125.46 382.07 1099.8
-122.53 381.84 1099.1
-120.02 382.92 1102.2
-118.19 386.28 1111.9
-113.87 381.47 1098.1
-108.39 372.42 1072.0
-108.41 382.30 1100.4
-108.92 394.48 1135.5
-105.74 393.59 1132.9
-101.20 387.46 1115.3
-95.76 377.40 1086.3
-91.43 371.26 1068.7
-90.24 377.88 1087.7
-89.71 387.76 1116.2
-88.29 394.38 1135.2
-85.37 394.45 1135.4
-80.59 385.68 1110.2
-76.14 377.88 1087.7
-73.01 376.30 1083.2
-71.56 383.57 1104.1
-69.12 385.92 1110.8
-66.08 384.99 1108.2
-64.99 395.85 1139.4
-62.46 398.53 1147.1
-58.56 392.35 1129.4
-55.68 392.72 1130.4
-53.86 400.96 1154.1
-50.46 397.72 1144.8
-45.42 380.38 1094.9
-41.70 372.55 1072.4
-39.75 380.45 1095.1
-38.60 397.87 1145.2
-37.07 413.97 1191.6
-33.74 411.05 1183.2
-30.11 403.53 1161.5
-25.98 386.82 1113.4
-22.49 376.66 1084.2
-20.17 386.20 1111.7
-17.84 398.35 1146.6
-15.22 407.88 1174.1
-12.18 407.89 1174.1
-8.99 401.67 1156.2
-5.73 383.95 1105.2
-2.75 368.53 1060.8
0.00 364.27 1048.5
2.79 374.11 1076.9
5.86 392.81 1130.7
9.06 404.62 1164.7
12.01 402.31 1158.0
14.31 383.60 1104.2
16.71 373.09 1073.9
19.66 376.35 1083.3
22.59 378.30 1088.9
25.50 379.60 1092.7
29.43 394.34 1135.1
32.72 398.58 1147.3
35.43 395.60 1138.7
38.44 396.23 1140.5
41.29 395.21 1137.6
45.52 406.65 1170.5
49.45 414.16 1192.1
52.62 414.77 1193.9
56.06 417.35 1201.3
60.61 427.47 1230.5
67.02 449.05 1292.6
70.72 451.29 1299.0
73.06 445.01 1280.9
78.28 456.09 1312.8
82.97 463.23 1333.4
88.79 475.94 1370.0
110.55 529.08 1522.9
110.59 510.98 1470.8
-401.32 498.83 1446.7
-361.84 454.01 1316.7
-347.68 440.39 1277.2
-356.92 456.45 1323.7
-352.23 454.82 1319.0
-332.03 432.94 1255.6
-319.11 420.22 1218.7
-310.42 412.86 1197.3
-305.37 410.24 1189.7
-303.15 411.42 1193.2
-295.14 404.67 1173.6
-288.36 399.50 1158.6
-283.24 396.54 1150.0
-278.17 393.58 1141.4
-280.25 400.78 1162.3
-280.90 406.08 1177.7
-272.55 398.34 1155.2
-266.68 394.09 1142.9
-263.42 393.65 1141.6
-250.48 378.56 1097.9
-241.08 368.55 1068.8
-241.93 374.15 1085.1
-242.50 379.44 1100.4
-235.53 372.92 1081.5
-230.05 368.63 1069.1
-231.32 375.20 1088.1
-233.87 384.01 1113.7
-232.82 387.07 1122.5
-225.07 378.92 1098.9
-218.20 372.05 1079.0
-217.91 376.38 1091.5
-217.00 379.75 1101.3
-215.14 381.52 1106.5
-214.69 385.86 1119.0
-212.05 386.34 1120.4
-208.02 384.26 1114.4
-205.05 384.10 1113.9
-200.72 381.37 1106.0
-197.26 380.24 1102.7
-193.83 379.10 1099.4
-189.92 377.00 1093.3
-193.06 389.05 1128.3
-193.83 396.61 1150.2
-187.05 388.70 1127.3
-179.31 378.54 1097.8
-170.37 365.47 1059.9
-166.94 363.99 1055.6
-168.19 372.82 1081.2
-169.45 381.99 1107.8
-169.59 388.90 1127.8
-168.25 392.58 1138.5
-166.30 394.97 1145.5
-161.92 391.55 1135.5
-155.09 381.98 1107.8
-152.39 382.42 1109.1
-152.98 391.27 1134.7
-149.96 391.07 1134.1
-145.97 388.27 1126.0
-142.02 385.47 1117.9
-137.99 382.35 1108.8
-133.55 377.92 1096.0
-129.85 375.43 1088.8
-127.50 376.83 1092.8
-125.13 378.23 1096.9
-123.15 380.92 1104.7
-119.40 378.09 1096.5
-116.28 377.21 1094.0
-114.65 381.20 1105.5
-111.90 381.61 1106.7
-110.08 385.27 1117.3
-108.83 391.20 1134.5
-106.09 391.93 1136.7
-102.05 387.80 1124.6
-97.66 382.03 1107.9
-94.57 381.13 1105.3
-90.94 377.95 1096.1
-87.96 377.37 1094.4
-87.26 386.87 1122.0
-84.94 389.54 1129.7
-81.13 385.38 1117.6
-77.59 382.19 1108.4
-74.47 380.95 1104.8
-73.09 388.82 1127.6
-69.82 386.92 1122.1
-66.13 382.42 1109.1
-64.99 392.89 1139.4
-62.71 397.17 1151.8
-57.92 385.17 1117.0
-54.15 379.03 1099.2
-52.10 384.93 1116.3
-48.58 380.09 1102.3
-45.34 376.87 1093.0
-43.35 384.40 1114.8
-40.23 382.15 1108.3
-37.99 388.70 1127.3
-36.78 407.62 1182.2
-33.96 410.59 1190.7
-30.80 409.63 1188.0
-27.06 399.88 1159.7
-22.96 381.65 1106.8
-20.21 383.95 1113.5
-17.56 389.18 1128.7
-14.66 389.84 1130.6
-11.91 396.05 1148.6
-8.93 396.05 1148.6
-5.74 381.39 1106.1
-2.76 367.70 1066.4
0.00 372.27 1079.6
2.94 391.17 1134.4
5.93 394.43 1143.9
8.77 388.88 1127.8
11.98 398.33 1155.2
14.78 393.10 1140.0
18.06 400.26 1160.8
22.23 422.41 1225.0
24.29 403.81 1171.1
26.16 386.52 1120.9
29.67 394.64 1144.5
32.48 392.66 1138.8
35.07 388.73 1127.3
37.90 387.72 1124.4
42.22 401.05 1163.1
48.61 430.98 1249.9
53.10 441.36 1280.0
56.83 444.58 1289.3
59.46 439.32 1274.1
63.17 442.20 1282.4
67.42 448.34 1300.2
68.83 435.91 1264.2
73.60 444.97 1290.5
82.17 475.18 1378.1
86.61 479.99 1392.0
92.41 491.63 1425.8
99.21 507.50 1471.8
100.37 494.41 1433.8
107.63 511.24 1482.6
-379.48 472.56 1380.9
-354.92 446.19 1303.8
-357.43 453.67 1325.6
-350.78 449.54 1313.6
-329.12 425.93 1244.6
-320.07 418.31 1222.3
-314.70 415.41 1213.9
-305.60 407.46 1190.6
-300.11 404.23 1181.2
-295.36 401.93 1174.5
-291.10 400.26 1169.6
-287.09 398.90 1165.6
