ply
format ascii 1.0
element vertex 2127
property float x
property float y
property float z
end_header
-1035.93 223.44 1958.7
-1035.65 224.48 1967.8
-1052.87 229.34 2010.4
-1036.81 226.96 1989.6
-1024.49 225.39 1975.8
-1031.38 228.04 1999.1
-1023.64 227.47 1994.1
-1006.86 224.88 1971.4
-1008.65 226.43 1984.9
-1025.64 231.43 2028.7
-1006.68 228.32 2001.5
-969.13 220.94 1936.8
-964.21 220.97 1937.0
-980.92 225.97 1980.9
-956.12 221.42 1941.0
-976.74 228.60 2003.9
-1025.47 241.29 2115.2
-1009.34 238.77 2093.1
-980.40 233.18 2044.1
-968.37 231.57 2030.0
-978.99 235.39 2063.4
-975.45 235.82 2067.3
-961.76 233.80 2049.5
-952.34 232.79 2040.7
-945.46 232.40 2037.3
-944.02 233.35 2045.6
-943.78 234.61 2056.7
-958.77 239.69 2101.2
-968.21 243.44 2134.0
-918.62 232.29 2036.3
-886.94 225.58 1977.5
-920.33 235.43 2063.9
-953.34 245.30 2150.4
-902.55 237.80 2084.6
-862.60 228.64 2004.3
-844.12 225.10 1973.3
-866.63 232.51 2038.2
-893.88 241.29 2115.2
-877.66 238.38 2089.7
-847.76 231.69 2031.0
-828.40 227.81 1997.0
-826.62 228.75 2005.3
-841.76 234.42 2054.9
-859.68 240.93 2112.0
-844.90 238.31 2089.0
-816.13 231.68 2030.9
-824.49 235.57 2065.0
-833.79 239.78 2102.0
-816.31 236.30 2071.5
-821.79 239.46 2099.2
-839.05 246.12 2157.5
-831.66 245.59 2152.9
-769.77 233.58 2047.7
-752.82 231.64 2030.6
-770.51 238.75 2092.9
-756.50 236.07 2069.5
-737.51 231.79 2031.9
-730.48 231.23 2027.0
-733.52 233.88 2050.2
-741.77 238.23 2088.4
-734.64 237.68 2083.5
-704.20 229.52 2012.0
-699.87 229.81 2014.5
-737.65 244.04 2139.3
-750.07 250.02 2191.8
-720.99 242.16 2122.9
-699.21 236.66 2074.6
-692.16 236.09 2069.6
-685.13 235.51 2064.6
-690.87 239.36 2098.3
-719.29 251.18 2201.9
-725.16 255.25 2237.6
-715.02 253.72 2224.2
-713.11 255.10 2236.2
-679.05 244.90 2146.9
-653.15 237.51 2082.1
-663.88 243.42 2133.9
-634.25 238.52 2090.9
-657.05 249.23 2184.8
-666.61 255.05 2235.8
-671.42 259.14 2271.7
-651.18 253.56 2222.7
-641.98 252.21 2210.9
-648.51 257.07 2253.5
-633.29 253.31 2220.6
-607.14 245.08 2148.4
-615.64 250.81 2198.7
-1028.28 141.27 1267.2
-1073.69 148.45 1331.6
-1030.39 142.93 1282.1
-1054.52 146.75 1316.3
-1168.67 163.16 1463.6
-1255.57 177.01 1587.8
-1088.38 153.95 1380.9
-1095.78 156.54 1404.2
-1198.08 171.72 1540.4
-1157.13 166.97 1497.7
-1158.33 167.70 1504.3
-1144.34 166.24 1491.2
-1079.56 157.36 1411.5
-1121.92 164.09 1471.9
-1131.55 166.06 1489.6
-1070.16 157.59 1413.6
-1065.42 157.43 1412.2
-1116.94 165.62 1485.6
-1144.93 170.35 1528.1
-1095.89 163.62 1467.7
-1113.65 166.85 1496.7
-1070.20 160.90 1443.3
-1048.24 158.16 1418.7
-1144.47 173.28 1554.4
-1198.99 182.18 1634.2
-1146.52 175.45 1573.8
-1138.57 174.85 1568.4
-1169.16 180.19 1616.4
-1196.68 185.10 1660.3
-1236.23 191.91 1721.4
-1218.78 189.88 1703.3
-1195.61 186.95 1677.0
-1175.98 184.55 1655.5
-1091.42 171.91 1542.0
-1034.79 163.59 1467.4
-1062.58 168.60 1512.4
-1088.49 173.35 1555.0
-1110.26 177.48 1592.0
-1126.22 180.70 1620.9
-1117.14 179.91 1613.8
-1111.46 179.67 1611.7
-1075.91 174.58 1566.0
-1039.39 169.29 1518.6
-1037.25 169.59 1521.2
-1051.89 172.64 1548.6
-1061.96 174.96 1569.4
-1061.94 175.63 1575.4
-1094.64 181.74 1630.2
-1114.41 185.74 1666.1
-1092.64 182.81 1639.9
-1068.20 179.42 1609.5
-1052.66 177.51 1592.3
-1064.01 180.13 1615.8
-1079.64 183.50 1646.0
-1070.10 182.60 1637.9
-1054.08 180.58 1619.8
-1051.11 180.79 1621.7
-1057.31 182.59 1637.8
-1077.46 186.82 1675.8
-1104.43 192.27 1724.7
-1086.25 189.87 1703.2
-1052.67 184.75 1657.3
-1059.71 186.75 1675.2
-1063.49 188.19 1688.1
-1053.46 187.18 1679.1
-1057.70 188.72 1692.8
-1060.32 189.97 1704.1
-1070.22 192.55 1727.2
-1067.50 192.87 1730.0
-1054.33 191.29 1715.9
-1052.12 191.70 1719.6
-1040.57 190.40 1707.9
-1034.23 190.05 1704.8
-1038.19 191.60 1718.6
-1049.27 194.48 1744.5
-1065.37 198.32 1778.9
-1065.02 199.11 1786.1
-1057.01 198.48 1780.4
-1069.29 201.66 1808.9
-1073.37 203.33 1823.8
-1058.77 201.45 1807.0
-1054.26 201.48 1807.3
-1050.75 201.71 1809.3
-1032.77 199.14 1786.4
-1025.81 198.69 1782.3
-1025.29 199.49 1789.5
-1027.21 200.77 1801.0
-1058.56 207.85 1864.4
-1079.38 212.90 1909.8
-1053.64 208.79 1872.8
-1029.03 204.85 1837.6
-1028.78 205.76 1845.6
-1030.90 207.14 1858.1
-1040.19 209.99 1883.7
-1050.34 213.04 1911.0
-1053.68 214.73 1926.2
-1057.43 216.52 1942.2
-1040.26 214.02 1919.8
-1016.55 210.15 1885.1
-1022.16 212.33 1904.6
-1036.60 216.38 1940.9
-1042.47 218.66 1961.4
-1055.70 222.53 1996.1
-1042.56 223.04 2000.7
-1007.77 216.67 1943.6
-993.75 214.73 1926.1
-990.24 215.05 1929.0
-978.12 213.50 1915.1
-979.58 214.91 1927.7
-996.69 219.78 1971.5
-1006.46 223.08 2001.1
-998.30 222.42 1995.1
-963.11 215.70 1934.8
-946.26 213.03 1910.9
-959.86 217.23 1948.6
-971.54 221.04 1982.7
-962.14 220.07 1974.0
-946.27 217.59 1951.8
-946.91 218.91 1963.6
-935.88 217.53 1951.3
-924.04 215.95 1937.0
-933.59 219.37 1967.7
-949.79 224.40 2012.9
-958.60 227.73 2042.8
-973.60 232.58 2086.3
-990.08 237.84 2133.5
-968.42 233.95 2098.5
-946.49 229.94 2062.6
-923.48 225.62 2023.9
-896.92 220.39 1976.9
-913.93 225.86 2026.0
-946.19 235.18 2109.6
-950.54 237.63 2131.6
-953.57 239.79 2150.9
-934.79 240.69 2159.0
-904.49 234.30 2101.7
-894.80 233.19 2091.7
-859.84 225.44 2022.3
-834.47 220.14 1974.6
-832.04 220.85 1981.0
-816.55 218.08 1956.2
-835.84 224.63 2015.0
-872.70 236.01 2117.1
-846.50 230.38 2066.5
-826.14 226.27 2029.7
-836.16 230.48 2067.4
-830.80 230.48 2067.4
-822.85 229.76 2060.9
-815.66 229.24 2056.3
-806.30 228.10 2046.1
-820.91 233.77 2096.9
-799.60 229.22 2056.1
-782.09 228.78 2052.1
-819.33 241.31 2164.6
-789.91 234.25 2101.2
-738.15 221.96 1991.0
-758.68 229.74 2060.8
-718.63 223.92 2008.6
-733.97 230.37 2066.5
-747.39 236.31 2119.7
-736.91 234.72 2105.5
-694.17 222.76 1998.2
-694.40 224.51 2013.8
-744.79 242.62 2176.3
-753.48 247.32 2218.5
-708.29 234.28 2101.5
-680.36 226.79 2034.3
-683.43 229.59 2059.4
-700.38 237.14 2127.1
-718.86 245.33 2200.6
-713.39 245.41 2201.3
-706.08 244.85 2196.3
-706.65 247.04 2216.0
-690.03 243.21 2181.6
-678.92 241.27 2164.2
-697.43 249.91 2241.8
-675.41 244.06 2189.2
-646.83 237.72 2132.4
-644.62 238.95 2143.4
-655.82 247.37 2218.9
-665.61 253.29 2272.0
-621.09 245.02 2197.8
-617.41 245.82 2205.0
-630.17 253.25 2271.6
-1104.49 146.80 1348.2
-1120.46 150.83 1385.2
-1074.50 145.11 1332.6
-1076.14 145.80 1339.0
-1011.09 137.43 1262.1
-1062.56 144.89 1330.7
-1160.96 158.83 1458.6
-1125.19 154.44 1418.3
-1100.05 151.48 1391.2
-1041.69 143.92 1321.7
-1101.12 152.63 1401.7
-1128.14 159.54 1465.1
-1034.16 146.74 1347.6
-1051.31 149.68 1374.6
-1163.19 166.17 1526.1
-1147.32 165.03 1515.5
-1113.01 160.64 1475.3
-1141.09 165.26 1517.7
-1129.14 165.82 1522.8
-1027.12 151.36 1390.1
-1061.98 157.05 1442.3
-1126.72 167.22 1535.7
-1122.95 167.25 1535.9
-1140.28 170.43 1565.2
-1166.84 177.56 1630.7
-1128.76 172.39 1583.2
-1101.21 168.80 1550.2
-1085.29 166.97 1533.4
-1091.24 168.50 1547.5
-1082.25 167.73 1540.4
-1069.85 166.42 1528.4
-1085.40 169.47 1556.3
-1098.02 172.08 1580.3
-1123.02 176.65 1622.3
-1148.43 181.33 1665.3
-1101.50 174.58 1603.3
-1058.15 168.34 1546.0
-1052.04 168.01 1542.9
-1063.29 170.45 1565.4
-1078.91 173.62 1594.5
-1087.20 175.62 1612.9
-1102.07 178.71 1641.3
-1103.55 179.65 1649.8
-1063.58 173.82 1596.3
-1022.15 167.70 1540.1
-1033.10 170.16 1562.7
-1070.24 176.97 1625.2
-1091.32 181.17 1663.8
-1085.02 180.84 1660.7
-1059.72 177.32 1628.5
-1050.24 176.44 1620.4
-1055.91 178.10 1635.7
-1074.44 181.96 1671.1
-1105.73 188.02 1726.7
-1091.29 186.32 1711.1
-1051.28 180.22 1655.1
-1051.94 181.07 1662.9
-1081.22 186.88 1716.2
-1097.07 190.40 1748.6
-1084.30 188.97 1735.4
-1070.00 187.25 1719.6
-1067.82 187.65 1723.3
-1051.51 185.56 1704.1
-1044.64 185.13 1700.1
-1048.70 186.63 1714.0
-1034.57 184.90 1698.1
-1025.66 184.09 1690.7
-1041.49 187.74 1724.1
-1065.92 192.97 1772.2
-1068.66 194.30 1784.4
-1054.02 192.47 1767.6
-1036.90 190.17 1746.5
-1039.62 191.51 1758.8
-1053.39 194.90 1789.9
-1048.92 194.93 1790.2
-1048.96 195.81 1798.2
-1049.97 196.87 1808.0
-1048.94 197.56 1814.3
-1059.30 200.41 1840.5
-1066.59 202.70 1861.5
-1077.25 205.66 1888.7
-1082.87 207.67 1907.2
-1073.73 206.87 1899.8
-1063.63 205.86 1890.6
-1053.57 204.86 1881.4
-1049.84 205.09 1883.4
-1049.96 206.07 1892.5
-1049.08 206.86 1899.7
-1050.09 208.04 1910.5
-1056.78 210.35 1931.8
-1062.90 212.58 1952.3
-1055.19 212.05 1947.4
-1039.93 209.99 1928.4
-1033.21 209.64 1925.2
-1036.35 211.30 1940.5
-1045.97 214.30 1968.0
-1049.19 218.15 2003.4
-1029.91 215.21 1976.4
-1008.00 211.68 1944.0
-984.84 207.86 1908.9
-971.83 206.15 1893.2
-972.91 207.42 1904.9
-987.91 211.70 1944.1
-1007.24 216.94 1992.3
-1019.66 220.75 2027.3
-999.86 217.59 1998.2
-954.45 208.79 1917.4
-942.95 207.35 1904.2
-962.27 212.71 1953.5
-959.94 213.32 1959.1
-937.51 209.44 1923.5
-931.73 209.27 1921.8
-942.38 212.79 1954.2
-946.86 214.96 1974.1
-949.97 216.84 1991.4
-956.41 219.50 2015.9
-969.12 223.64 2053.9
-969.82 225.04 2066.7
-976.77 227.91 2093.1
-999.11 234.43 2152.9
-981.99 231.71 2127.9
-950.04 225.43 2070.3
-917.91 219.05 2011.7
-911.52 218.77 2009.1
-948.52 228.95 2102.6
-966.37 234.61 2154.6
-954.41 233.05 2140.3
-934.04 229.41 2106.8
-936.28 231.32 2124.3
-937.34 234.34 2152.1
-907.73 228.29 2096.6
-905.50 229.10 2104.0
-911.45 232.00 2130.7
-887.68 227.33 2087.8
-848.61 218.66 2008.1
-837.25 217.06 1993.4
-831.69 216.96 1992.5
-860.83 225.97 2075.2
-830.47 222.16 2040.3
-804.66 216.64 1989.5
-802.44 217.43 1996.8
-798.33 217.73 1999.5
-813.29 223.26 2050.3
-827.29 228.59 2099.3
-818.58 227.68 2091.0
-779.24 218.19 2003.8
-760.37 218.74 2008.8
-786.61 227.84 2092.4
-783.93 228.65 2099.8
-756.66 222.24 2040.9
-747.87 221.20 2031.4
-768.84 229.01 2103.2
-773.18 231.95 2130.2
-733.88 221.75 2036.5
-717.47 218.36 2005.4
-723.84 221.91 2037.9
-728.73 225.05 2066.8
-739.07 229.93 2111.6
-718.51 225.20 2068.2
-697.50 220.26 2022.8
-726.94 231.30 2124.2
-758.15 243.07 2232.3
-731.66 236.38 2170.9
-695.04 226.29 2078.2
-691.13 226.78 2082.6
-703.67 232.71 2137.1
-716.27 238.76 2192.7
-713.88 239.86 2202.8
-686.31 236.27 2169.8
-685.05 237.79 2183.8
-713.57 249.75 2293.6
-701.68 247.65 2274.4
-664.86 236.65 2173.3
-669.52 240.34 2207.2
-656.53 237.71 2183.1
-631.74 232.75 2137.5
-634.17 242.14 2223.7
-617.46 237.92 2185.0
-616.23 239.65 2200.8
-630.87 247.63 2274.2
-1023.20 132.76 1248.9
-1017.13 134.09 1261.5
-1173.71 155.23 1460.4
-1250.53 165.93 1561.0
-1147.31 152.73 1436.8
-1096.61 146.45 1377.8
-1153.87 154.60 1454.5
-1207.17 162.28 1526.6
-1178.81 158.98 1495.7
-1269.98 171.85 1616.7
-1256.31 170.56 1604.6
-1094.93 149.14 1403.1
-1098.16 150.08 1411.9
-1070.23 146.75 1380.6
-1170.33 161.02 1514.8
-1095.78 153.33 1442.5
-1074.75 150.91 1419.7
-1047.19 147.54 1388.0
-1052.07 148.74 1399.3
-1106.50 156.98 1476.8
-1147.55 163.37 1536.9
-1116.28 160.03 1505.5
-1040.92 149.75 1408.8
-1045.63 150.95 1420.1
-1078.60 156.26 1470.1
-1070.22 155.60 1463.8
-1080.06 157.59 1482.5
-1158.30 169.61 1595.6
-1194.79 176.21 1657.7
-1101.28 163.01 1533.5
-1084.73 161.14 1515.9
-1090.79 162.63 1529.9
-1093.34 163.60 1539.1
-1102.18 165.53 1557.2
-1122.44 169.19 1591.7
-1127.12 170.52 1604.2
-1064.90 161.71 1521.3
-1031.47 157.21 1479.0
-1087.99 166.45 1565.9
-1153.85 177.18 1666.9
-1118.63 173.07 1628.2
-1087.61 168.91 1589.0
-1093.21 170.42 1603.3
-1072.45 167.83 1578.8
-1059.58 166.45 1565.9
-1060.68 167.26 1573.5
-1068.96 169.22 1591.9
-1081.61 171.88 1617.0
-1051.08 167.68 1577.5
-1011.88 162.06 1524.6
-1025.60 164.90 1551.3
-1067.16 172.26 1620.6
-1090.44 176.71 1662.4
-1078.70 175.50 1651.1
-1048.52 171.27 1611.3
-1027.15 168.45 1584.7
-1020.46 168.03 1580.7
-1034.25 170.98 1608.6
-1059.21 175.82 1654.1
-1065.80 177.63 1671.1
-1044.55 174.80 1644.5
-1026.05 172.41 1622.0
-1034.71 174.58 1642.4
-1070.29 181.33 1705.9
-1076.60 183.16 1723.1
-1057.59 180.67 1699.7
-1048.63 179.89 1692.3
-1029.75 177.39 1668.9
-1020.87 176.61 1661.4
-1043.71 181.32 1705.8
-1050.33 183.25 1723.9
-1050.67 184.09 1731.9
-1076.20 189.38 1781.6
-1080.50 190.95 1796.4
-1064.28 188.90 1777.1
-1052.20 187.57 1764.6
-1037.62 185.78 1747.7
-1030.71 185.35 1743.7
-1034.42 186.83 1757.7
-1030.51 186.95 1758.8
-1032.62 188.17 1770.2
-1032.68 189.02 1778.2
-1030.72 189.50 1782.8
-1044.13 192.83 1814.1
-1053.45 195.44 1838.6
-1065.63 198.59 1868.3
-1072.28 200.75 1888.6
-1056.81 198.76 1869.8
-1040.42 196.58 1849.3
-1045.52 198.46 1867.0
-1056.85 201.54 1896.0
-1048.25 200.83 1889.4
-1040.16 200.22 1883.6
-1038.80 200.90 1890.0
-1043.62 202.79 1907.8
-1053.60 205.70 1935.2
-1049.24 205.83 1936.4
-1048.18 206.61 1943.7
-1055.56 209.07 1966.9
-1044.08 207.80 1954.9
-1041.99 208.40 1960.5
-1043.13 209.65 1972.3
-1025.67 207.16 1948.9
-998.14 202.59 1905.9
-972.17 198.30 1865.6
-979.81 200.86 1889.6
-984.15 202.76 1907.5
-983.86 203.73 1916.6
-999.84 208.09 1957.6
-998.05 208.78 1964.1
-998.03 209.84 1974.1
-1011.39 213.75 2010.9
-993.40 211.03 1985.3
-954.66 203.86 1917.9
-949.34 203.78 1917.1
-984.04 212.35 1997.7
-995.63 215.98 2031.9
-969.56 211.45 1989.2
-962.77 211.09 1985.9
-973.72 214.64 2019.2
-976.77 216.47 2036.5
-996.04 221.94 2088.0
-966.89 220.24 2071.9
-940.26 215.37 2026.1
-925.08 213.08 2004.6
-899.19 208.29 1959.5
-892.91 208.01 1956.9
-911.73 213.61 2009.5
-957.33 225.58 2122.2
-950.98 226.69 2132.6
-914.89 219.36 2063.7
-893.94 215.60 2028.3
-894.32 216.97 2041.1
-895.03 218.43 2054.9
-890.15 218.54 2055.9
-885.64 218.74 2057.9
-889.35 220.99 2079.0
-906.58 226.65 2132.2
-904.99 227.63 2141.5
-884.08 223.75 2104.9
-872.14 222.10 2089.4
-887.34 227.38 2139.1
-851.68 222.41 2092.4
-831.71 218.59 2056.4
-837.51 221.53 2084.1
-814.02 216.72 2038.8
-809.08 216.81 2039.7
-826.03 222.81 2096.1
-821.31 223.00 2098.0
-802.51 219.35 2063.6
-777.41 213.92 2012.5
-767.16 212.52 1999.4
-771.49 215.18 2024.3
-770.77 216.45 2036.3
-776.99 219.70 2066.9
-781.33 222.46 2092.9
-761.34 218.29 2053.6
-756.30 218.37 2054.3
-782.35 227.49 2140.2
-792.72 232.15 2184.0
-758.01 223.59 2103.4
-744.46 221.18 2080.8
-753.99 225.65 2122.8
-720.30 217.15 2042.9
-695.50 212.80 2002.0
-695.07 214.27 2015.8
-699.74 217.34 2044.7
-704.58 220.52 2074.5
-721.04 227.40 2139.3
-725.19 230.49 2168.4
-705.40 225.95 2125.6
-702.60 226.82 2133.9
-709.03 230.72 2170.5
-700.56 229.78 2161.7
-686.04 226.84 2134.0
-674.06 224.69 2113.8
-664.57 223.34 2101.1
-676.29 229.16 2155.8
-710.79 242.85 2284.7
-703.91 242.53 2281.6
-669.40 232.59 2188.1
-678.93 237.92 2238.2
-687.36 242.95 2285.5
-669.97 238.86 2247.1
-667.15 239.94 2257.3
-616.27 231.81 2180.8
-626.31 237.77 2236.8
-1186.03 152.06 1466.2
-989.77 127.30 1227.5
-1031.54 133.10 1283.5
-1064.40 137.79 1328.7
-957.18 124.31 1198.7
-1015.48 132.31 1275.8
-1227.78 160.49 1547.6
-1260.95 166.46 1605.2
-965.89 127.93 1233.6
-1018.80 136.75 1318.7
-1168.05 157.31 1517.0
-1175.88 158.90 1532.3
-1074.08 145.64 1404.4
-901.86 123.12 1187.2
-1001.55 137.20 1323.0
-953.74 131.10 1264.2
-945.05 130.35 1257.0
-1005.11 139.12 1341.5
-1046.39 145.33 1401.4
-1060.70 147.83 1425.5
-1018.54 142.45 1373.7
-1009.72 141.71 1366.5
-1068.27 150.46 1450.9
-1089.40 153.98 1484.8
-1066.88 151.33 1459.3
-1040.93 148.18 1428.8
-1079.48 154.21 1487.0
-1097.97 157.41 1517.9
-1017.29 146.37 1411.5
-1032.31 149.07 1437.5
-1098.84 159.25 1535.6
-1094.46 159.19 1535.1
-1086.61 158.63 1529.6
-1099.50 161.10 1553.5
-1128.96 166.02 1600.9
-1133.62 167.32 1613.5
-1070.24 158.55 1528.9
-1037.36 154.25 1487.4
-1095.58 163.52 1576.8
-1100.18 164.82 1589.3
-1065.71 160.26 1545.3
-1088.37 164.28 1584.1
-1123.27 170.19 1641.1
-1109.69 168.77 1627.5
-1070.40 163.42 1575.8
-1051.96 161.22 1554.6
-1048.62 161.33 1555.7
-1044.17 161.26 1555.0
-1044.15 161.88 1561.0
-1052.39 163.80 1579.5
-1050.64 164.16 1583.0
-1046.13 164.10 1582.4
-1067.37 168.09 1620.9
-1047.48 165.61 1596.9
-993.90 157.76 1521.3
-998.18 159.07 1533.9
-1010.55 161.69 1559.1
-1003.90 161.27 1555.1
-1017.75 164.15 1582.9
-1040.08 168.43 1624.2
-1041.36 169.33 1632.8
-1031.93 168.48 1624.6
-1024.65 167.98 1619.8
-1022.70 168.35 1623.3
-1046.67 173.00 1668.3
-1055.17 175.13 1688.8
-1036.74 172.79 1666.2
-1042.53 174.48 1682.5
-1038.84 174.60 1683.6
-1012.72 170.92 1648.2
-1018.44 172.62 1664.5
-1041.20 177.23 1709.0
-1058.62 180.96 1745.0
-1062.00 182.32 1758.1
-1044.78 180.13 1737.0
-1039.41 179.98 1735.6
-1038.64 180.63 1741.8
-1046.98 182.88 1763.5
-1060.82 186.11 1794.6
-1029.07 181.33 1748.6
-989.93 175.21 1689.5
-1019.28 181.21 1747.3
-1048.90 187.30 1806.1
-1030.43 184.83 1782.3
-1027.94 185.21 1786.0
-1032.87 186.94 1802.7
-1037.72 188.68 1819.4
-1063.65 194.27 1873.4
-1068.29 196.02 1890.2
-1058.22 195.06 1881.0
-1071.53 198.43 1913.4
-1059.49 197.11 1900.7
-1027.21 192.00 1851.4
-1042.30 195.74 1887.5
-1064.44 200.84 1936.6
-1041.45 197.43 1903.8
-1025.25 195.29 1883.1
-1038.08 198.67 1915.8
-1054.55 202.80 1955.5
-1037.42 200.47 1933.1
-1003.49 194.85 1878.9
-1006.22 196.34 1893.2
-1012.16 198.46 1913.7
-1007.34 198.49 1914.0
-992.35 196.51 1894.9
-969.15 192.87 1859.8
-980.01 196.00 1890.0
-993.49 199.70 1925.6
-1001.35 202.29 1950.7
-1006.85 204.44 1971.3
-991.95 202.44 1952.1
-975.33 200.07 1929.2
-970.89 200.18 1930.3
-983.81 203.90 1966.2
-976.61 203.46 1961.9
-958.82 200.80 1936.3
-978.98 206.10 1987.4
-985.77 208.63 2011.8
-957.12 203.64 1963.7
-959.94 205.33 1980.0
-980.85 210.94 2034.0
-945.99 204.54 1972.3
-926.81 201.48 1942.9
-961.96 210.26 2027.5
-981.02 215.61 2079.1
-975.25 217.93 2101.5
-954.07 214.40 2067.4
-908.53 205.32 1979.8
-883.61 200.82 1936.5
-883.55 201.95 1947.4
-910.06 209.21 2017.4
-963.14 222.69 2147.4
-962.14 223.75 2157.6
-956.25 223.68 2157.0
-918.49 217.39 2096.3
-878.94 209.27 2018.0
-889.16 212.97 2053.7
-901.19 217.15 2094.0
-889.55 215.65 2079.5
-889.65 216.99 2092.4
-883.11 216.71 2089.7
-860.38 212.44 2048.5
-857.77 213.11 2055.0
-881.06 220.27 2124.0
-869.90 218.84 2110.3
-816.53 206.72 1993.3
-819.98 208.91 2014.5
-859.15 220.29 2124.3
-854.40 220.49 2126.2
-819.38 212.83 2052.2
-793.49 207.45 2000.4
-787.17 207.15 1997.5
-784.49 207.81 2003.9
-766.99 204.53 1972.3
-780.11 209.42 2019.5
-810.13 218.95 2111.3
-791.87 215.48 2077.8
-768.13 210.45 2029.3
-768.42 211.98 2044.1
-764.81 212.45 2048.6
-753.22 210.69 2031.7
-757.17 213.29 2056.7
-769.21 218.21 2104.2
-766.08 218.88 2110.6
-758.87 218.38 2105.8
-775.15 224.68 2166.6
-761.51 223.97 2159.8
-725.62 215.00 2073.2
-719.51 214.78 2071.1
-706.27 212.41 2048.3
-697.65 211.41 2038.6
-680.74 207.86 2004.4
-693.49 215.04 2073.6
-690.84 215.89 2081.8
-671.65 211.54 2039.9
-681.71 218.15 2103.6
-699.30 225.58 2175.2
-666.67 216.80 2090.6
-653.22 215.94 2082.3
-692.34 230.78 2225.4
-701.74 235.88 2274.6
-683.54 231.71 2234.3
-679.38 232.27 2239.7
-673.20 232.14 2238.5
-664.17 231.02 2227.6
-671.83 235.73 2273.1
-652.36 232.98 2246.6
-624.81 233.57 2252.3
-1149.91 142.82 1412.5
-965.52 120.30 1189.8
-963.02 120.38 1190.5
-930.48 116.68 1154.0
-951.76 119.74 1184.2
-951.13 120.05 1187.3
-939.29 119.32 1180.1
-1086.72 138.50 1369.8
-1274.96 163.03 1612.4
-1143.65 147.69 1460.7
-943.82 122.29 1209.5
-982.25 127.69 1262.9
-1004.02 130.96 1295.2
-978.14 128.01 1266.0
-994.93 130.65 1292.1
-1110.54 146.32 1447.1
-1090.60 144.18 1426.0
-910.00 120.71 1193.9
-920.70 122.55 1212.0
-1093.17 146.01 1444.0
-1102.18 147.71 1460.9
-1047.64 140.89 1393.4
-1077.59 145.42 1438.2
-1025.70 138.90 1373.7
-965.68 131.23 1297.8
-1024.65 139.73 1381.9
-1109.40 151.81 1501.4
-1092.68 150.05 1484.0
-1046.54 144.22 1426.4
-1081.77 149.61 1479.6
-1105.08 153.37 1516.9
-1066.20 148.51 1468.7
-1015.21 141.91 1403.5
-987.75 138.57 1370.5
-1049.35 147.74 1461.2
-1081.63 152.84 1511.6
-1042.58 147.86 1462.3
-1062.56 151.24 1495.8
-1104.30 157.76 1560.2
-1123.99 161.16 1593.9
-1120.07 161.19 1594.2
-1068.71 154.37 1526.7
-1046.09 151.66 1500.0
-1096.91 159.63 1578.7
-1095.27 159.98 1582.3
-1054.01 154.54 1528.4
-1069.37 157.38 1556.5
-1094.20 161.64 1598.7
-1072.84 159.09 1573.4
-1059.96 157.78 1560.5
-1065.55 159.22 1574.7
-1059.40 158.91 1571.6
-1052.69 158.51 1567.7
-1042.68 157.61 1558.8
-1041.53 158.05 1563.2
-1050.83 160.09 1583.3
-1057.31 161.71 1599.3
-1063.18 163.24 1614.5
-1028.00 158.47 1567.2
-994.08 153.85 1521.5
-1019.56 158.42 1566.8
-1022.66 159.53 1577.8
-1005.71 157.52 1557.9
-1014.16 159.49 1577.3
-1031.14 162.81 1610.2
-1050.67 166.57 1647.4
-1059.37 168.63 1667.8
-1062.13 169.77 1679.0
-1069.10 171.58 1697.0
-1076.00 173.40 1715.0
-1069.10 173.01 1711.1
-1048.52 170.38 1685.1
-1052.18 171.69 1698.1
-1068.34 175.06 1731.4
-1061.95 174.75 1728.3
-1029.04 170.05 1681.8
-1011.34 167.84 1659.9
-1033.51 172.25 1703.6
-1041.08 174.26 1723.4
-1031.63 173.42 1715.2
-1034.49 174.65 1727.4
-1048.53 177.79 1758.4
-1070.58 182.33 1803.2
-1069.65 182.97 1809.6
-1023.71 175.88 1739.5
-988.11 170.52 1686.4
-1019.48 176.71 1747.7
-1070.62 186.40 1843.5
-1074.01 187.83 1857.7
-1053.49 185.07 1830.4
-1039.51 183.44 1814.3
-1039.90 184.35 1823.2
-1058.45 188.49 1864.2
-1077.33 192.73 1906.2
-1082.85 194.61 1924.7
-1070.77 193.33 1912.1
-1034.00 187.56 1855.0
-1021.13 186.09 1840.5
-1053.10 192.82 1907.0
-1085.76 199.74 1975.4
-1073.69 198.45 1962.7
-1037.84 192.74 1906.2
-1034.49 193.04 1909.2
-1037.74 194.58 1924.4
-1007.96 189.90 1878.2
-984.45 186.38 1843.3
-997.55 189.78 1876.9
-1021.68 195.32 1931.7
-1035.38 198.92 1967.3
-1023.05 197.52 1953.5
-1002.95 194.60 1924.6
-1005.89 196.15 1939.9
-1008.76 197.70 1955.2
-1019.75 200.86 1986.5
-1029.25 203.76 2015.2
-1003.89 199.75 1975.6
-976.89 195.38 1932.3
-973.78 195.76 1936.1
-988.47 199.74 1975.5
-988.80 200.85 1986.4
-979.80 200.06 1978.7
-986.67 202.53 2003.0
-981.60 202.55 2003.3
-973.47 201.94 1997.2
-1000.11 208.58 2062.9
-990.15 207.61 2053.3
-926.38 195.29 1931.4
-941.67 200.68 1984.8
-950.21 203.62 2013.8
-966.65 208.28 2060.0
-993.43 215.24 2128.8
-985.94 214.81 2124.5
-990.16 216.95 2145.6
-968.12 213.31 2109.7
-945.39 209.49 2071.9
-952.45 212.26 2099.3
-917.63 205.67 2034.1
-908.34 204.77 2025.2
-918.96 208.37 2060.8
-925.79 211.14 2088.2
-939.72 215.58 2132.1
-899.92 207.67 2053.9
-860.05 199.65 1974.6
-869.97 203.17 2009.3
-906.51 212.97 2106.3
-921.08 217.71 2153.2
-875.05 208.09 2058.0
-824.78 197.34 1951.7
-837.82 201.70 1994.8
-869.47 210.62 2083.0
-850.74 207.37 2050.9
-801.79 196.67 1945.1
-838.07 209.52 2072.1
-843.09 212.13 2098.0
-834.33 211.29 2089.7
-833.32 212.41 2100.8
-824.77 215.88 2135.1
-799.15 212.02 2096.9
-797.91 213.14 2108.0
-795.97 215.58 2132.1
-766.54 209.06 2067.6
-757.00 207.91 2056.2
-755.71 209.03 2067.3
-776.79 216.39 2140.1
-755.21 213.43 2110.8
-716.36 203.93 2016.9
-750.77 215.29 2129.3
-768.68 223.72 2212.6
-743.76 218.09 2157.0
-735.52 217.31 2149.3
-721.24 214.72 2123.6
-690.54 207.16 2048.9
-686.08 207.42 2051.4
-697.90 212.64 2103.0
-691.42 212.33 2099.9
-686.50 212.49 2101.5
-715.63 223.28 2208.2
-731.46 230.05 2275.3
-691.62 219.30 2168.9
-659.49 210.82 2085.0
-677.81 218.47 2160.7
-705.22 229.20 2266.8
-697.80 228.69 2261.8
-677.00 223.76 2213.0
-669.44 223.15 2206.9
-657.88 221.18 2187.5
-641.58 217.58 2151.9
-654.22 223.81 2213.5
-655.37 226.19 2237.0
-635.25 227.29 2247.9
-617.23 222.89 2204.4
-629.48 229.44 2269.2
-615.04 226.29 2238.0
-941.16 114.26 1159.8
-971.95 118.38 1201.6
-1015.11 124.03 1259.0
-1144.92 140.34 1424.6
-1277.94 157.16 1595.2
-1162.79 143.46 1456.2
-1033.81 127.96 1298.9
-971.63 120.66 1224.7
-1285.06 160.11 1625.1
-1110.65 139.75 1418.5
-986.29 124.52 1263.9
-1055.25 133.66 1356.7
-1075.64 136.70 1387.6
-1073.38 136.87 1389.3
-1031.58 131.99 1339.7
-1109.51 142.44 1445.8
-1116.84 144.35 1465.2
-979.34 127.01 1289.2
-989.25 128.74 1306.7
-1111.97 145.21 1473.9
-1165.83 152.76 1550.6
-1144.72 150.52 1527.8
-1071.19 141.34 1434.6
-984.29 130.32 1322.8
-1011.76 134.43 1364.5
-1083.52 144.47 1466.4
-1062.13 142.12 1442.5
-1031.39 138.49 1405.7
-1075.48 144.92 1471.0
-1080.03 146.05 1482.5
-1027.14 139.40 1414.9
-1051.60 143.23 1453.8
-1091.66 149.22 1514.6
-1072.78 147.17 1493.8
-1033.67 142.32 1444.6
-999.93 138.17 1402.5
-1024.64 142.10 1442.4
-1038.27 144.52 1466.9
-1029.98 143.89 1460.6
-1084.74 152.10 1543.9
-1084.33 152.61 1549.0
-1024.61 144.74 1469.2
-1038.52 147.25 1494.7
-1071.64 152.52 1548.1
-1059.29 151.33 1536.0
-1050.94 150.70 1529.7
-1053.29 151.61 1538.9
-1067.97 154.31 1566.3
-1089.27 157.99 1603.6
-1092.55 159.07 1614.6
-1083.54 158.36 1607.4
-1076.77 157.98 1603.6
-1066.69 157.11 1594.7
-1024.58 151.49 1537.7
-994.80 147.67 1498.9
-1036.06 154.39 1567.2
-1075.43 160.89 1633.1
-1055.51 158.54 1609.2
-1038.41 156.59 1589.4
-1039.86 157.43 1598.0
-1016.88 154.57 1568.9
-1028.60 156.97 1593.3
-1064.47 163.10 1655.6
-1059.81 163.05 1655.0
-1056.22 163.16 1656.1
-1059.03 164.26 1667.3
-1055.40 164.37 1668.4
-1078.86 168.71 1712.5
-1103.21 173.23 1758.4
-1084.08 170.93 1735.0
-1052.40 166.63 1691.4
-1054.47 167.66 1701.8
-1068.54 170.61 1731.7
-1087.71 174.40 1770.2
-1082.28 174.27 1768.9
-1041.60 168.43 1709.6
-1037.84 168.54 1710.7
-1043.85 170.24 1728.0
-1032.85 169.17 1717.2
-1034.18 170.12 1726.8
-1044.65 172.59 1751.9
-1065.19 176.76 1794.1
-1065.29 177.55 1802.2
-1037.55 173.69 1763.0
-1019.53 171.43 1740.0
-1016.66 171.70 1742.9
-1032.79 175.21 1778.4
-1031.33 175.74 1783.8
-1006.47 172.28 1748.7
-1020.89 175.54 1781.8
-1049.98 181.36 1840.9
-1043.90 181.13 1838.6
-1036.36 180.65 1833.7
-1030.30 180.42 1831.3
-1008.18 177.36 1800.3
-995.88 176.02 1786.6
-1004.42 178.35 1810.4
-1072.09 191.27 1941.4
-1072.83 194.13 1970.5
-1031.37 187.52 1903.4
-999.65 182.63 1853.7
-994.02 182.48 1852.2
-992.16 183.02 1857.7
-1004.76 186.25 1890.5
-1027.01 191.31 1941.8
-1010.53 189.16 1920.1
-971.96 182.84 1855.9
-970.01 183.38 1861.4
-990.05 188.11 1909.4
-992.52 189.53 1923.8
-1003.13 192.52 1954.1
-1021.76 197.09 2000.5
-1007.70 195.37 1983.1
-994.17 193.73 1966.5
-1002.62 196.39 1993.4
-998.04 196.50 1994.6
-979.24 193.81 1967.2
-974.70 193.92 1968.3
-985.99 197.20 2001.6
-1001.52 201.36 2043.9
-1017.31 205.63 2087.2
-988.59 200.89 2039.1
-927.18 189.42 1922.7
-923.56 189.70 1925.6
-965.37 199.37 2023.7
-989.26 205.42 2085.1
-983.56 205.36 2084.5
-975.32 204.76 2078.4
-976.79 206.21 2093.1
-943.80 200.36 2033.7
-921.92 196.82 1997.7
-933.84 200.49 2035.0
-946.84 204.43 2075.0
-973.23 211.33 2145.1
-956.32 208.85 2119.9
-907.31 199.29 2022.9
-881.84 194.82 1977.5
-881.59 195.91 1988.5
-887.31 198.34 2013.2
-888.12 199.70 2027.0
-884.89 200.15 2031.6
-873.72 198.81 2018.0
-889.38 203.59 2066.6
-905.22 208.47 2116.1
-861.99 199.73 2027.3
-823.80 192.05 1949.4
-848.42 199.01 2020.0
-873.88 206.26 2093.6
-848.64 201.55 2045.8
-818.29 195.57 1985.1
-805.57 193.75 1966.6
-791.95 192.91 1958.1
-826.19 202.55 2056.0
-847.07 209.02 2121.6
-857.37 212.94 2161.4
-796.29 199.07 2020.7
-791.15 200.43 2034.4
-822.98 211.31 2144.8
-807.84 208.83 2119.7
-798.59 210.74 2139.1
-749.06 199.05 2020.4
-738.79 199.11 2021.0
-781.72 212.18 2153.7
-795.00 217.34 2206.1
-746.32 205.51 2086.0
-709.52 196.80 1997.6
-742.66 207.51 2106.3
-758.19 213.42 2166.2
-730.95 207.29 2104.0
-733.86 209.68 2128.3
-751.81 216.43 2196.9
-751.51 217.99 2212.7
-733.63 214.45 2176.7
-715.29 210.71 2138.7
-713.74 211.89 2150.8
-710.57 212.61 2158.1
-710.15 214.17 2173.9
-729.91 221.89 2252.3
-732.85 224.58 2279.6
-725.36 224.10 2274.7
-695.55 218.44 2217.2
-673.45 213.26 2164.7
-689.16 220.07 2233.8
-692.89 223.13 2264.9
-693.00 225.08 2284.6
-689.29 225.80 2292.0
-658.88 221.57 2249.0
-1298.81 152.56 1590.4
-1302.61 154.48 1610.4
-1288.80 153.33 1598.4
-1307.96 157.12 1638.0
-1230.83 148.34 1546.4
-1100.69 133.09 1387.4
-1250.62 151.71 1581.6
-1109.41 135.47 1412.3
-1021.07 125.10 1304.1
-1073.56 131.97 1375.7
-1022.35 126.09 1314.5
-988.45 122.32 1275.1
-1005.27 124.82 1301.2
-950.83 118.45 1234.8
-952.36 120.26 1253.7
-952.09 120.64 1257.7
-1038.88 132.09 1377.0
-995.85 127.06 1324.5
-927.28 118.72 1237.6
-1043.93 134.12 1398.1
-1128.49 145.48 1516.6
-1045.18 135.22 1409.6
-1016.15 131.92 1375.2
-1052.25 137.09 1429.1
-1071.07 140.03 1459.8
-1058.59 138.89 1447.9
-1014.45 133.58 1392.5
-948.83 125.38 1307.1
-954.19 126.54 1319.2
-1031.22 137.25 1430.8
-1050.86 140.37 1463.3
-1042.55 139.76 1457.0
-1037.14 139.54 1454.7
-1051.37 141.97 1480.0
-1055.15 143.01 1490.8
-1010.04 137.40 1432.3
-1029.90 140.61 1465.9
-1088.52 149.17 1555.0
-1078.95 148.41 1547.1
-1015.38 140.18 1461.4
-974.23 135.01 1407.4
-995.52 138.47 1443.6
-1018.94 142.27 1483.1
-1032.08 144.65 1507.9
-1058.04 148.85 1551.7
-1068.17 150.85 1572.5
-1058.66 150.08 1564.5
-1039.71 147.96 1542.4
-1024.72 146.39 1526.1
-1045.81 149.98 1563.5
-1032.50 148.65 1549.6
-1001.59 144.76 1509.1
-1043.39 151.39 1578.2
-1067.39 155.49 1620.9
-1031.64 150.87 1572.8
-1010.24 148.33 1546.3
-1007.42 148.50 1548.1
-1013.81 150.04 1564.2
-1053.10 156.49 1631.3
-1090.54 162.70 1696.1
-1085.26 162.57 1694.7
-1050.51 158.00 1647.1
-1020.20 154.07 1606.2
-1027.35 155.79 1624.0
-1062.05 161.71 1685.8
-1092.81 167.08 1741.8
-1081.63 166.06 1731.1
-1032.58 159.19 1659.5
-1016.34 157.34 1640.2
-1030.00 160.13 1669.3
-1048.77 163.73 1706.9
-1103.28 172.97 1803.2
-1077.31 170.34 1775.8
-1035.80 164.48 1714.7
-1036.64 165.33 1723.5
-1050.75 168.30 1754.5
-1054.03 169.56 1767.6
-1066.41 172.30 1796.2
-1091.35 177.10 1846.3
-1087.79 177.30 1848.3
-1042.40 170.66 1779.1
-1013.34 166.64 1737.2
-1016.47 167.90 1750.3
-1003.59 166.51 1735.9
-991.75 165.29 1723.1
-1020.09 170.78 1780.4
-1048.20 176.29 1837.8
-1040.16 175.74 1832.0
-1024.79 173.93 1813.2
-1011.44 172.46 1797.8
-975.75 167.14 1742.4
-990.59 171.27 1785.4
-1092.53 189.78 1978.4
-1072.08 188.89 1969.1
-1028.25 182.03 1897.7
-1011.66 179.96 1876.0
-1022.96 182.85 1906.1
-1018.64 182.96 1907.3
-1027.87 185.52 1934.0
-1025.35 185.97 1938.7
-987.06 179.91 1875.5
-963.37 176.46 1839.5
-977.11 179.87 1875.0
-993.45 183.79 1915.9
-991.35 184.32 1921.5
-989.68 184.94 1927.9
-994.32 186.75 1946.8
-1012.42 191.12 1992.4
-1031.22 195.67 2039.8
-1017.15 193.99 2022.3
-990.21 189.83 1979.0
-965.67 186.09 1940.0
-955.00 185.00 1928.6
-970.34 188.96 1969.9
-987.70 193.36 2015.7
-972.12 191.32 1994.5
-920.12 182.06 1897.9
-951.75 190.35 1984.3
-961.71 193.39 2016.0
-951.03 192.29 2004.5
-962.93 195.76 2040.8
-972.98 198.90 2073.4
-967.72 198.92 2073.7
-927.64 191.75 1998.9
-899.57 186.99 1949.3
-904.12 189.00 1970.2
-904.02 190.05 1981.2
-915.40 193.54 2017.6
-935.22 198.87 2073.1
-922.58 197.32 2057.0
-902.31 194.10 2023.4
-907.61 196.38 2047.2
-899.14 195.70 2040.1
-885.91 193.96 2021.9
-901.78 198.61 2070.4
-911.11 201.86 2104.4
-903.35 201.35 2099.0
-896.79 201.10 2096.4
-884.39 199.53 2080.0
-877.48 199.18 2076.4
-868.66 198.40 2068.2
-859.48 197.52 2059.1
-856.45 198.05 2064.7
-846.18 196.91 2052.7
-843.13 197.44 2058.3
-832.54 196.20 2045.4
-812.66 192.75 2009.3
-824.14 196.73 2050.9
-838.02 201.34 2098.9
-838.82 202.85 2114.7
-821.29 199.92 2084.1
-803.53 196.89 2052.5
-812.99 200.54 2090.5
-821.55 204.01 2126.7
-817.81 204.45 2131.4
-816.17 205.43 2141.6
-800.38 202.84 2114.5
-770.34 196.57 2049.2
-778.91 200.14 2086.4
-773.46 200.13 2086.3
-735.66 191.69 1998.3
-748.53 196.42 2047.6
-774.42 204.67 2133.6
-768.17 204.48 2131.6
-754.54 202.30 2109.0
-750.02 202.56 2111.6
-766.67 208.58 2174.4
-763.62 209.29 2181.8
-731.12 201.88 2104.5
-729.48 202.94 2115.6
-751.01 210.51 2194.5
-752.95 212.67 2217.0
-735.39 209.30 2181.9
-718.61 206.11 2148.7
-726.13 209.90 2188.1
-734.41 213.96 2230.5
-708.77 208.13 2169.7
-660.29 203.59 2122.4
-670.91 210.37 2193.0
-648.31 210.42 2193.5
-666.87 218.36 2276.3
-950.03 108.23 1159.6
-1087.65 124.30 1331.8
-1320.44 151.39 1622.0
-1187.80 136.62 1463.7
-1036.22 119.56 1281.0
-1081.62 126.42 1354.5
-1026.67 120.39 1289.9
-920.48 108.29 1160.3
-1082.55 127.78 1369.0
-1199.50 142.05 1521.9
-1051.66 124.95 1338.7
-976.95 116.46 1247.8
-1062.68 127.10 1361.8
-1053.74 126.45 1354.8
-1013.65 122.05 1307.6
-1003.60 121.24 1299.0
-1036.96 127.41 1365.1
-1141.24 140.70 1507.5
-1072.68 132.70 1421.8
-917.50 113.90 1220.3
-977.87 122.23 1309.6
-1086.40 136.27 1460.1
-1040.00 130.91 1402.6
-1002.08 126.58 1356.2
-1029.36 130.48 1398.0
-1025.82 130.49 1398.1
-996.97 127.27 1363.6
-1020.49 130.74 1400.8
-1018.69 130.97 1403.3
-979.48 126.38 1354.1
-1011.56 130.99 1403.5
-1018.46 132.36 1418.2
-999.78 130.41 1397.2
-1015.31 132.91 1424.1
-1049.23 137.86 1477.0
-1110.04 146.38 1568.3
-1115.94 147.70 1582.5
-1044.40 138.74 1486.5
-1022.94 136.39 1461.3
-1080.27 144.57 1549.0
-1077.56 144.75 1550.9
-1016.38 137.04 1468.3
-1026.25 138.89 1488.1
-1022.49 138.90 1488.3
-1010.29 137.77 1476.1
-1023.40 140.08 1500.9
-1021.85 140.41 1504.4
-1043.75 143.97 1542.5
-1053.26 145.84 1562.5
-1014.89 141.07 1511.4
-1013.84 141.47 1515.7
-1032.67 144.65 1549.9
-1032.08 145.14 1555.0
-1037.52 146.47 1569.4
-1027.00 145.56 1559.6
-1017.06 144.72 1550.6
-1021.87 145.98 1564.1
-1027.71 147.40 1579.3
-1042.18 150.07 1607.9
-1046.80 151.34 1621.5
-1049.21 152.30 1631.8
-1067.71 155.62 1667.3
-1056.05 154.54 1655.8
-1025.19 150.64 1614.0
-1032.32 152.31 1631.9
-1060.64 157.13 1683.6
-1085.05 161.41 1729.4
-1081.82 161.60 1731.4
-1040.14 156.02 1671.6
-1020.20 153.67 1646.5
-1030.19 155.83 1669.6
-1021.30 155.13 1662.1
-1047.81 159.84 1712.5
-1086.58 166.45 1783.4
-1055.27 162.35 1739.5
-1028.25 158.87 1702.2
-1042.48 161.76 1733.2
-1070.40 166.82 1787.3
-1090.46 170.68 1828.7
-1072.20 168.55 1805.9
-1066.18 168.34 1803.7
-1083.43 171.82 1841.0
-1061.23 169.05 1811.2
-1010.51 161.68 1732.3
-993.63 159.69 1711.0
-1024.72 165.43 1772.4
-1057.07 171.42 1836.6
-1050.50 171.12 1833.5
-1042.47 170.59 1827.7
-1043.80 171.58 1838.4
-1037.73 171.37 1836.1
-1035.08 171.72 1839.8
-1014.40 169.07 1811.4
-992.22 166.92 1788.4
-1032.51 174.51 1869.7
-1034.06 175.60 1881.4
-1048.48 178.89 1916.7
-1045.59 179.24 1920.5
-1030.34 177.48 1901.5
-1044.02 180.70 1936.0
-1058.03 184.01 1971.5
-1054.52 184.28 1974.5
-1031.81 181.20 1941.4
-998.52 176.21 1888.0
-979.36 173.68 1860.9
-975.57 173.86 1862.8
-994.33 178.09 1908.1
-1018.41 183.31 1964.1
-1012.56 183.18 1962.6
-1004.89 182.71 1957.6
-988.16 180.58 1934.8
-985.08 180.93 1938.6
-1008.04 186.10 1993.9
-1000.78 185.71 1989.8
-993.08 185.24 1984.7
-988.95 185.43 1986.7
-972.43 183.29 1963.8
-980.22 185.73 1989.9
-983.51 187.33 2007.2
-954.85 182.84 1959.0
-920.30 177.17 1898.2
-926.26 179.28 1920.8
-951.94 185.24 1984.7
-943.88 184.67 1978.6
-939.69 184.86 1980.6
-956.75 189.25 2027.6
-956.24 190.19 2037.8
-942.21 188.44 2019.0
-918.60 184.75 1979.4
-904.76 182.99 1960.6
-897.24 182.49 1955.2
-885.18 181.06 1939.9
-889.65 183.01 1960.9
-902.22 186.67 2000.0
-906.46 188.63 2021.0
-903.30 189.06 2025.7
-884.78 186.27 1995.7
-858.10 182.79 1958.5
-894.81 191.74 2054.4
-906.15 195.34 2092.9
-899.60 195.09 2090.3
-891.88 194.59 2084.9
-880.67 193.32 2071.3
-893.56 197.35 2114.5
-902.79 200.62 2149.5
-871.94 194.97 2088.9
-848.99 191.02 2046.7
-815.98 184.75 1979.5
-818.06 187.58 2009.8
-835.24 192.75 2065.2
-849.58 197.32 2114.2
-848.55 199.66 2139.2
-810.51 191.96 2056.7
-807.70 192.56 2063.2
-834.46 200.27 2145.8
-824.59 199.23 2134.6
-803.35 195.41 2093.7
-796.83 195.14 2090.8
-776.22 191.40 2050.7
-755.43 187.56 2009.5
-773.50 193.38 2071.9
-810.68 204.09 2186.6
-796.23 203.29 2178.1
-790.22 203.20 2177.1
-754.15 195.32 2092.7
-711.42 185.59 1988.4
-727.17 191.08 2047.3
-765.18 202.55 2170.2
-741.66 200.75 2150.9
-724.41 197.57 2116.8
-742.23 203.97 2185.4
-740.00 204.92 2195.6
-718.77 200.59 2149.1
-724.10 203.65 2182.0
-737.68 209.11 2240.4
-716.35 204.67 2192.9
-706.92 206.90 2216.8
-721.82 213.00 2282.1
-672.27 201.68 2160.9
-996.32 110.35 1216.1
-979.28 109.85 1210.6
-1014.55 115.29 1270.5
-1034.90 117.98 1300.2
-903.87 103.38 1139.3
-1085.18 124.53 1372.4
-1085.32 125.78 1386.2
-1077.56 125.30 1380.8
-1121.87 130.88 1442.4
-1117.69 130.83 1441.8
-1110.47 130.42 1437.3
-962.68 113.45 1250.2
-983.13 117.04 1289.8
-1107.10 132.25 1457.4
-1124.56 134.79 1485.5
-968.92 116.54 1284.3
-939.22 113.35 1249.2
-1000.53 121.17 1335.4
-988.16 120.09 1323.4
-976.42 119.08 1312.3
-946.30 115.81 1276.2
-920.45 113.04 1245.7
-927.22 114.27 1259.3
-909.16 112.44 1239.1
-931.20 115.57 1273.7
-1002.44 124.86 1376.0
-1051.07 131.38 1447.9
-1057.37 132.64 1461.8
-1044.96 131.56 1449.8
-1010.47 127.68 1407.1
-997.03 126.44 1393.4
-1017.21 129.46 1426.7
-1028.61 131.39 1448.0
-1062.40 136.20 1501.0
-1092.55 140.59 1549.3
-1048.01 135.35 1491.6
-1015.67 131.66 1451.0
-1065.04 138.57 1527.1
-1116.99 145.88 1607.6
-1105.09 144.86 1596.4
-1075.67 141.54 1559.8
-1041.29 137.53 1515.6
-1017.77 134.93 1487.0
-1020.75 135.84 1497.0
-1019.77 136.23 1501.3
-1043.36 139.91 1541.9
-1071.26 144.21 1589.2
-1048.41 141.68 1561.3
-1021.21 138.54 1526.7
-1015.15 138.25 1523.6
-1022.33 139.77 1540.3
-1035.49 142.13 1566.3
-1046.36 144.18 1589.0
-1057.69 146.32 1612.5
-1045.49 145.21 1600.2
-1034.95 144.32 1590.4
-1022.83 143.20 1578.1
-1001.01 140.70 1550.6
-1018.11 143.68 1583.5
-1050.68 148.88 1640.7
-1057.30 150.43 1657.8
-1045.15 149.31 1645.4
-1041.56 149.40 1646.5
-1058.70 152.49 1680.5
-1067.75 154.43 1701.8
-1047.14 152.07 1675.9
-1031.36 150.41 1657.5
-1038.23 152.04 1675.6
-1035.07 152.22 1677.5
-1013.12 149.62 1648.8
-1023.02 151.72 1672.0
-1042.67 155.29 1711.4
-1048.73 156.86 1728.7
-1059.88 159.21 1754.6
-1051.39 158.62 1748.0
-1055.74 159.96 1762.8
-1065.13 162.08 1786.2
-1038.28 158.69 1748.8
-1033.90 158.71 1749.1
-1051.77 162.17 1787.1
-1067.97 165.39 1822.7
-1056.40 164.33 1811.0
-1017.84 159.04 1752.7
-1028.90 161.49 1779.6
-1077.64 169.90 1872.4
-1088.36 172.36 1899.5
-1048.58 166.82 1838.4
-1018.88 162.84 1794.5
-1027.12 164.91 1817.3
-1040.16 167.77 1848.9
-1050.14 170.16 1875.3
-1039.63 169.24 1865.1
-998.69 163.34 1800.0
-977.28 160.59 1769.7
-1016.01 167.74 1848.5
-1067.33 177.05 1951.1
-1069.14 178.19 1963.7
-1058.08 177.19 1952.7
-1065.51 179.29 1975.9
-1070.48 181.00 1994.7
-1060.82 180.24 1986.3
-1032.94 176.35 1943.5
-1021.07 175.18 1930.6
-1023.65 176.49 1945.0
-1000.72 173.39 1910.9
-1003.27 174.70 1925.3
-1024.57 179.30 1976.0
-1014.58 178.44 1966.5
-1000.52 176.86 1949.1
-977.47 173.66 1913.8
-957.72 171.02 1884.7
-963.26 172.89 1905.4
-980.82 176.95 1950.1
-1002.19 181.74 2002.9
-1015.79 185.17 2040.6
-1015.08 186.01 2049.9
-1001.10 184.41 2032.3
-981.94 181.84 2004.0
-974.24 181.38 1998.8
-960.04 179.69 1980.2
-957.17 180.11 1984.9
-973.67 184.21 2030.1
-971.96 184.88 2037.5
-973.62 186.21 2052.1
-956.51 183.94 2027.1
-921.71 178.23 1964.2
-945.34 183.82 2025.7
-959.90 187.69 2068.4
-925.40 181.96 2005.3
-897.83 177.54 1956.5
-893.63 177.71 1958.4
-906.29 181.26 1997.5
-903.63 181.76 2003.1
-892.36 180.54 1989.6
-896.18 182.36 2009.7
-885.35 181.21 1997.0
-874.58 180.06 1984.4
-903.46 187.11 2062.0
-906.52 188.86 2081.3
-882.97 185.05 2039.4
-893.08 188.30 2075.1
-902.64 191.47 2110.1
-866.42 184.91 2037.7
-853.40 183.25 2019.4
-876.73 189.42 2087.5
-862.52 187.50 2066.4
-846.11 185.09 2039.7
-820.70 180.66 1990.9
-809.59 180.48 1989.0
-826.82 185.50 2044.3
-838.98 189.45 2087.8
-841.69 191.29 2108.1
-807.21 184.66 2035.0
-789.85 181.87 2004.3
-807.86 187.25 2063.6
-815.49 190.28 2097.0
-787.42 184.96 2038.4
-779.95 184.45 2032.7
-786.35 187.23 2063.3
-790.84 189.59 2089.3
-797.31 192.45 2120.9
-769.48 187.03 2061.1
-762.01 186.51 2055.4
-787.26 194.04 2138.4
-791.95 196.58 2166.4
-787.32 196.83 2169.2
-748.90 188.57 2078.1
-714.99 182.66 2013.0
-745.46 191.85 2114.2
-760.66 197.21 2173.3
-771.97 201.63 2222.1
-750.26 197.44 2175.8
-727.14 192.80 2124.8
-740.46 197.83 2180.2
-756.39 203.64 2244.2
-751.78 203.97 2247.9
-717.35 196.15 2161.7
-693.28 191.06 2105.6
-721.14 200.32 2207.6
-689.22 196.12 2161.3
-679.01 194.80 2146.8
-673.30 196.38 2164.2
-694.61 204.30 2251.4
-679.36 201.51 2220.7
-642.76 202.67 2233.5
-1186.65 128.49 1457.7
-1271.17 138.52 1571.5
-1092.10 119.39 1354.5
-1048.52 115.37 1308.8
-963.03 106.31 1206.0
-1157.43 128.18 1454.2
-1153.25 128.14 1453.7
-1061.21 118.30 1342.0
-1107.22 123.83 1404.8
-973.38 109.95 1247.3
-1001.12 113.84 1291.5
-1149.05 131.10 1487.3
-1114.37 127.57 1447.2
-1060.99 121.87 1382.6
-1021.15 117.69 1335.2
-1050.40 121.47 1378.1
-1058.99 122.89 1394.1
-976.61 113.71 1290.0
-959.45 112.10 1271.7
-1045.46 122.57 1390.5
-1030.59 121.25 1375.5
-957.27 113.01 1282.1
-968.82 114.77 1302.1
-956.54 113.71 1290.0
-911.69 108.76 1233.9
-896.60 107.34 1217.7
-895.73 107.61 1220.8
-931.92 112.36 1274.7
-937.40 113.42 1286.7
-927.59 112.64 1277.8
-989.72 120.61 1368.3
-1028.20 125.75 1426.6
-1006.56 123.55 1401.6
-1004.15 123.70 1403.3
-1017.36 125.78 1427.0
-1020.10 126.58 1436.0
-1041.24 129.68 1471.1
-1061.11 132.64 1504.7
-1044.73 131.07 1487.0
-1036.99 130.58 1481.4
-1044.10 131.97 1497.1
-1051.72 133.43 1513.7
-1066.66 135.83 1540.9
-1063.95 135.99 1542.8
-1041.46 133.62 1515.9
-1029.76 132.62 1504.5
-1028.22 132.93 1508.0
-1023.30 132.79 1506.5
-1023.97 133.39 1513.3
-1030.18 134.72 1528.3
-1033.01 135.61 1538.4
-1030.25 135.77 1540.2
-1024.71 135.56 1537.9
-1034.07 137.34 1558.0
-1025.21 136.69 1550.7
-1014.72 135.83 1540.9
-1027.78 138.12 1566.9
-1017.29 137.25 1557.1
-1024.24 138.74 1574.0
-1029.50 140.01 1588.4
-1010.90 138.04 1565.9
-1031.22 141.38 1603.9
-1058.92 145.76 1653.6
-1060.16 146.53 1662.3
-1041.04 144.47 1639.0
-1029.47 143.45 1627.4
-1054.09 147.49 1673.2
-1069.52 150.26 1704.7
-1040.97 146.86 1666.0
-1016.78 144.04 1634.1
-1022.12 145.41 1649.6
-1018.49 145.50 1650.6
-1007.03 144.47 1638.9
-1025.27 147.71 1675.7
-1061.01 153.51 1741.5
-1085.63 157.74 1789.5
-1096.80 160.74 1823.5
-1060.53 156.09 1770.8
-1031.09 152.42 1729.2
-1023.19 151.91 1723.4
-1035.09 154.36 1751.1
-1042.34 156.12 1771.1
-1046.48 157.43 1786.0
-1050.55 158.75 1800.9
-1026.53 155.81 1767.6
-1009.11 153.86 1745.4
-1029.58 157.68 1788.9
-1077.14 165.71 1880.0
-1074.94 166.13 1884.6
-1032.35 160.27 1818.2
-1027.30 160.22 1817.6
-1035.45 162.24 1840.5
-1040.58 163.80 1858.2
-1045.16 165.28 1875.0
-1017.25 161.62 1833.5
-997.21 159.18 1805.8
-1040.68 166.90 1893.4
-1083.31 174.56 1980.3
-1070.29 173.28 1965.8
-1057.32 172.00 1951.3
-1062.86 173.74 1971.0
-1057.94 173.77 1971.3
-1037.99 171.32 1943.5
-1031.25 171.04 1940.3
-1042.23 173.71 1970.6
-1052.62 176.30 2000.1
-1035.59 174.31 1977.4
-1014.05 171.53 1945.9
-1010.99 171.87 1949.8
-981.85 167.75 1903.1
-954.98 164.82 1869.8
-966.47 167.65 1902.0
-979.63 170.81 1937.7
-1007.87 176.64 2003.9
-1025.57 180.67 2049.6
-1016.59 180.96 2052.9
-985.87 176.42 2001.4
-986.51 177.47 2013.3
-999.32 180.73 2050.3
-989.36 179.88 2040.7
-990.26 181.01 2053.5
-995.84 183.02 2076.3
-979.86 181.06 2054.1
-957.99 177.99 2019.2
-915.42 171.01 1940.1
-927.82 175.25 1988.2
-967.21 183.72 2084.2
-957.74 182.94 2075.4
-939.16 180.40 2046.6
-945.93 182.74 2073.1
-946.41 183.87 2086.0
-931.26 181.97 2064.4
-903.96 177.66 2015.4
-893.10 176.54 2002.8
-917.04 182.33 2068.5
-942.29 188.46 2138.0
-938.04 188.72 2140.9
-907.10 183.58 2082.6
-892.25 181.66 2060.8
-912.17 186.83 2119.5
-885.70 183.62 2083.1
-831.06 173.35 1966.6
-812.45 170.51 1934.4
-837.73 176.91 2007.0
-865.37 183.89 2086.2
-873.66 186.82 2119.4
-874.62 188.21 2135.1
-864.23 187.16 2123.2
-850.90 185.45 2103.9
-836.54 183.50 2081.7
-811.19 179.09 2031.7
-780.91 173.54 1968.7
-766.99 171.56 1946.3
-770.24 173.43 1967.5
-762.19 172.76 1959.9
-755.61 172.42 1956.1
-769.04 176.67 2004.3
-776.93 179.70 2038.6
-784.30 182.64 2072.0
-811.50 190.28 2158.7
-802.40 189.46 2149.3
-753.50 179.15 2032.4
-740.25 177.24 2010.7
-747.29 180.20 2044.2
-746.34 181.25 2056.2
-754.80 184.63 2094.5
-751.32 185.11 2100.0
-741.15 183.94 2086.7
-750.25 187.56 2127.8
-764.76 192.61 2185.0
-775.08 196.66 2231.0
-754.31 192.83 2187.6
-732.45 188.66 2140.3
-735.49 190.89 2165.6
-740.31 193.62 2196.5
-745.93 196.60 2230.4
-721.26 191.59 2173.4
-709.32 189.90 2154.3
-711.61 198.32 2249.8
-688.70 193.52 2195.4
-712.52 201.88 2290.2
-679.52 202.66 2299.1
-1035.09 108.44 1267.5
-1114.79 119.06 1391.6
-936.39 100.33 1172.7
-1048.85 112.74 1317.8
-1152.17 124.25 1452.3
-1149.99 124.83 1459.1
-923.18 101.21 1183.0
-962.75 106.26 1242.0
-1144.94 126.79 1481.9
-1152.26 128.03 1496.4
-1126.13 125.55 1467.4
-1113.42 124.55 1455.8
-1072.32 120.36 1406.8
-1015.08 114.33 1336.3
-1021.31 115.42 1349.1
-1080.96 122.58 1432.8
-1078.58 122.74 1434.6
-1003.21 114.55 1338.9
-955.62 109.50 1279.8
-979.09 112.58 1315.8
-961.43 110.93 1296.6
-915.38 105.99 1238.9
-934.59 108.60 1269.3
-965.49 112.58 1315.9
-972.69 113.83 1330.4
-955.16 112.17 1311.1
-910.73 107.34 1254.6
-936.07 110.72 1294.1
-981.11 116.46 1361.2
-968.30 115.36 1348.3
-1001.39 119.73 1399.5
-1049.95 125.99 1472.7
-1008.70 121.49 1420.0
-988.37 119.47 1396.4
-991.13 120.25 1405.5
-960.58 116.97 1367.2
-968.50 118.37 1383.6
-995.75 122.16 1427.8
-1017.16 125.25 1463.9
-1042.97 128.91 1506.7
-1028.43 127.59 1491.3
-994.73 123.87 1447.9
-1018.09 127.26 1487.5
-1050.85 131.86 1541.2
-1036.90 130.60 1526.5
-1026.92 129.84 1517.6
-1043.72 132.47 1548.4
-1054.85 134.40 1570.9
-1037.61 132.72 1551.3
-1018.79 130.82 1529.0
-1003.89 129.41 1512.6
-973.66 126.00 1472.8
-978.67 127.15 1486.2
-1007.15 131.37 1535.5
-1016.91 133.17 1556.5
-1045.08 137.40 1606.0
-1057.33 139.57 1631.3
-1045.14 138.51 1619.0
-1044.33 138.96 1624.2
-1049.41 140.20 1638.7
-1058.72 142.02 1660.0
-1048.16 141.18 1650.2
-1025.37 138.68 1620.9
-1037.24 140.86 1646.4
-1085.06 147.96 1729.4
-1088.70 149.08 1742.4
-1056.46 145.26 1697.9
-1054.85 145.65 1702.4
-1055.84 146.40 1711.1
-1048.44 145.99 1706.3
-1021.27 142.80 1669.1
-1012.40 142.17 1661.7
-1042.87 147.07 1719.0
-1064.87 150.82 1762.8
-1080.53 153.70 1796.5
-1066.85 152.41 1781.4
-1037.90 148.92 1740.6
-1031.50 148.64 1737.4
-1022.07 147.93 1729.1
-1006.60 146.33 1710.4
-1018.92 148.78 1739.0
-1030.13 151.09 1765.9
-1017.18 149.85 1751.5
-1010.78 149.58 1748.3
-1016.33 151.08 1765.8
-1047.58 156.43 1828.4
-1084.51 162.68 1901.4
-1082.26 163.08 1906.1
-1043.18 157.91 1845.7
-1016.56 154.59 1806.9
-1024.19 156.47 1828.9
-1029.31 157.99 1846.6
-1031.94 159.13 1860.0
-1040.77 161.25 1884.7
-1013.48 157.76 1843.9
-985.87 154.19 1802.2
-1004.67 157.88 1845.3
-1023.77 161.65 1889.4
-1040.80 165.13 1930.0
-1048.69 167.18 1954.1
-1044.28 167.29 1955.3
-1053.43 169.58 1982.1
-1006.52 162.82 1903.1
-962.24 156.42 1828.3
-1010.33 165.05 1929.2
-1052.02 172.72 2018.8
-1034.12 170.63 1994.4
-991.63 164.44 1922.0
-948.52 158.09 1847.8
-946.07 158.48 1852.4
-981.55 165.26 1931.6
-1023.00 173.12 2023.5
-1016.60 174.73 2042.3
-969.43 167.49 1957.7
-961.82 167.05 1952.6
-983.18 171.67 2006.5
-1002.56 175.98 2056.9
-999.98 176.47 2062.6
-972.68 172.57 2017.1
-948.16 169.13 1976.9
-940.98 168.76 1972.5
-926.54 167.08 1952.9
-928.78 168.41 1968.4
-950.01 173.21 2024.5
-925.03 169.59 1982.2
-904.02 166.66 1948.0
-928.67 172.17 2012.4
-945.98 176.37 2061.5
-952.73 178.64 2088.0
-955.24 180.13 2105.4
-942.09 178.67 2088.4
-915.96 174.72 2042.2
-893.27 171.38 2003.2
-907.51 175.13 2047.0
-917.94 178.19 2082.7
-900.20 175.78 2054.6
-898.51 176.49 2062.9
-913.02 180.42 2108.8
-906.82 180.27 2107.1
-890.83 178.17 2082.5
-883.53 177.78 2078.0
-853.73 172.84 2020.2
-846.96 172.53 2016.6
-890.50 182.53 2133.4
-885.40 182.61 2134.4
-859.77 178.44 2085.7
-861.94 180.03 2104.2
-853.87 179.48 2097.8
-852.56 180.35 2108.0
-849.71 180.91 2114.5
-809.13 173.38 2026.6
-765.99 165.21 1931.1
-777.66 169.95 1986.4
-790.16 173.84 2031.8
-804.25 178.12 2082.0
-783.83 174.77 2042.8
-758.62 170.30 1990.5
-761.51 172.12 2011.8
-786.05 178.89 2091.0
-817.55 187.36 2189.9
-800.08 184.63 2158.1
-762.44 177.19 2071.0
-748.46 175.17 2047.5
-755.67 178.12 2082.0
-774.55 183.89 2149.3
-762.89 182.43 2132.3
-744.30 179.28 2095.5
-757.71 188.00 2197.4
-727.11 181.78 2124.7
-721.85 181.84 2125.4
-700.06 180.48 2109.6
-741.55 194.22 2270.1
-664.41 192.33 2248.0
-1109.68 111.67 1346.0
-1104.87 111.89 1348.6
-1012.50 102.86 1239.8
-934.96 95.28 1148.5
-1046.34 106.97 1289.4
-1162.78 120.03 1446.8
-1058.16 109.58 1320.9
-1161.30 120.65 1454.3
-1263.34 132.11 1592.4
-1270.47 134.18 1617.3
-970.12 102.79 1239.0
-938.66 99.79 1202.8
-976.53 104.16 1255.5
-987.33 105.67 1273.7
-1037.11 111.37 1342.4
-1067.19 114.98 1386.0
-1077.07 116.44 1403.5
-1080.84 117.24 1413.2
-1050.08 114.29 1377.7
-1021.26 111.54 1344.4
-1046.74 114.71 1382.7
