ply
format ascii 1.0
element vertex 2290
property float x
property float y
property float z
end_header
270.98 263.75 1393.6
269.52 258.88 1367.9
281.02 266.42 1407.7
293.50 274.68 1451.4
288.04 266.16 1406.3
286.55 261.48 1381.6
299.08 269.54 1424.2
308.75 274.86 1452.3
310.29 272.90 1442.0
319.09 277.31 1465.2
329.71 283.16 1496.2
324.64 275.56 1456.0
324.56 272.33 1438.9
334.23 277.26 1465.0
352.22 288.90 1526.5
364.03 295.27 1560.1
353.86 283.87 1499.9
342.72 271.94 1436.9
359.85 282.46 1492.5
384.47 298.58 1577.6
392.57 301.66 1593.9
385.30 292.99 1548.1
380.69 286.50 1513.8
394.32 293.73 1552.0
383.92 283.09 1495.8
359.67 262.56 1387.3
375.50 271.40 1434.0
378.23 270.69 1430.3
365.46 259.01 1368.6
374.92 263.16 1390.5
386.81 268.93 1420.9
382.16 263.19 1390.6
373.69 254.95 1347.1
391.52 264.64 1398.3
408.80 273.79 1446.6
405.54 269.13 1422.0
417.66 274.68 1451.3
426.35 277.89 1468.3
396.12 255.90 1352.1
383.18 243.24 1285.2
416.00 261.80 1383.3
409.30 255.38 1349.3
426.62 263.92 1394.5
471.99 289.54 1529.9
498.43 303.21 1602.1
489.26 295.17 1559.6
449.91 269.21 1422.4
441.02 261.74 1383.0
495.78 291.87 1542.2
542.80 317.00 1674.9
554.99 321.54 1699.0
549.75 316.00 1669.6
538.78 307.27 1623.6
560.38 317.11 1675.5
601.70 337.88 1785.3
606.50 337.97 1785.8
592.81 327.84 1732.2
610.96 335.34 1771.9
609.26 331.91 1753.7
589.27 318.64 1683.6
551.26 295.90 1563.5
605.91 320.52 1693.5
27.46 395.40 2118.2
43.01 387.10 2073.7
49.23 393.86 2110.0
59.58 389.96 2089.1
63.40 380.40 2037.8
70.93 392.84 2104.5
75.54 339.92 1821.0
79.90 338.42 1813.0
82.72 330.86 1772.5
86.91 329.36 1764.4
93.05 335.00 1794.6
95.93 328.91 1762.0
95.84 313.65 1680.3
97.78 306.10 1639.8
101.04 303.12 1623.9
104.85 301.97 1617.7
108.10 299.36 1603.7
112.45 299.86 1606.4
116.88 300.54 1610.0
117.78 292.43 1566.6
119.15 285.97 1532.0
124.76 289.76 1552.3
130.06 292.62 1567.6
133.09 290.37 1555.5
135.10 286.10 1532.7
137.80 283.48 1518.6
144.17 288.35 1544.7
149.93 291.75 1562.9
156.45 296.43 1588.0
159.64 294.71 1578.8
156.18 281.13 1506.0
156.72 275.22 1474.4
159.97 274.23 1469.1
167.00 279.63 1498.0
176.85 289.40 1550.3
181.62 290.59 1556.7
181.76 284.49 1524.1
184.94 283.31 1517.7
191.85 287.78 1541.7
198.27 291.33 1560.7
201.74 290.51 1556.3
200.69 283.32 1517.8
200.88 278.14 1490.0
208.55 283.32 1517.8
218.96 291.94 1564.0
222.38 291.12 1559.6
219.14 281.75 1509.4
216.50 273.48 1465.1
216.42 268.66 1439.2
225.12 274.73 1471.7
238.07 285.69 1530.5
244.10 288.12 1543.5
246.29 286.01 1532.2
247.62 283.00 1516.1
246.95 277.81 1488.3
250.70 277.70 1487.7
261.59 285.37 1528.7
265.44 285.25 1528.1
264.84 280.42 1502.3
269.66 281.39 1507.4
271.87 279.64 1498.1
264.41 268.14 1436.5
260.44 260.44 1395.2
271.62 267.90 1435.2
280.96 273.36 1464.4
279.93 268.73 1439.6
279.34 264.64 1417.7
285.77 267.21 1431.5
292.27 269.78 1445.3
297.64 271.27 1453.2
309.65 278.69 1493.0
307.50 273.34 1464.3
299.48 262.96 1408.7
310.63 269.47 1443.6
329.91 282.78 1514.9
341.71 289.45 1550.6
336.99 282.13 1511.4
327.08 270.69 1450.1
326.51 267.14 1431.1
361.23 292.23 1565.5
359.67 284.57 1524.5
326.67 255.65 1369.6
335.79 259.97 1392.7
354.59 271.60 1455.0
357.21 270.73 1450.3
338.42 253.81 1359.7
336.94 250.10 1339.8
357.42 262.59 1406.7
388.98 282.89 1515.5
406.50 292.68 1567.9
398.85 284.33 1523.2
372.86 263.20 1410.0
376.03 262.85 1408.1
406.34 281.31 1507.0
395.25 271.03 1451.9
366.16 248.71 1332.4
369.64 248.73 1332.5
404.17 269.45 1443.5
431.20 284.83 1525.9
432.98 283.40 1518.2
437.17 283.57 1519.1
438.61 281.97 1510.5
436.97 278.43 1491.6
423.52 267.49 1433.0
406.41 254.45 1363.1
402.58 249.88 1338.6
428.91 263.94 1414.0
481.81 293.98 1574.9
492.22 297.82 1595.4
484.02 290.41 1555.8
497.43 295.99 1585.7
478.31 282.28 1512.2
456.76 267.37 1432.3
506.54 294.12 1575.6
550.93 317.33 1700.0
556.15 317.80 1702.5
544.44 308.66 1653.5
525.05 295.34 1582.2
552.18 308.19 1651.0
600.07 332.35 1780.4
606.13 333.14 1784.7
592.75 323.32 1732.1
628.88 340.44 1823.8
635.39 338.87 1815.4
604.22 319.88 1713.7
565.33 297.11 1591.7
632.71 330.11 1768.4
37.15 376.85 2047.3
41.68 369.95 2009.8
48.98 386.40 2099.2
60.67 391.60 2127.4
64.28 380.35 2066.3
71.82 392.26 2131.0
74.56 352.94 1917.4
73.41 325.77 1769.8
77.21 322.48 1751.9
80.97 319.37 1735.0
86.18 322.04 1749.5
90.86 322.54 1752.2
92.18 311.65 1693.1
94.60 305.28 1658.5
98.70 304.70 1655.3
100.05 295.98 1607.9
102.23 290.33 1577.2
107.29 292.99 1591.7
113.60 298.72 1622.8
119.21 302.28 1642.2
121.08 296.45 1610.5
117.91 279.06 1516.0
119.06 272.69 1481.4
129.63 287.61 1562.5
137.93 296.75 1612.1
139.40 291.09 1581.4
141.69 287.42 1561.5
146.25 288.44 1567.0
150.18 288.19 1565.6
154.98 289.56 1573.1
156.44 284.81 1547.2
156.76 278.25 1511.6
160.85 278.54 1513.2
163.34 276.13 1500.1
169.58 280.01 1521.2
177.27 286.05 1554.0
179.76 283.63 1540.8
182.66 281.93 1531.6
188.71 285.08 1548.7
191.94 283.91 1542.4
194.52 281.85 1531.2
199.31 283.02 1537.5
199.88 278.26 1511.7
201.10 274.58 1491.7
209.99 281.30 1528.2
215.92 283.90 1542.3
214.43 276.81 1503.8
213.30 270.44 1469.2
213.44 265.86 1444.3
217.54 266.30 1446.7
230.88 277.84 1509.4
241.51 285.78 1552.5
244.82 284.96 1548.1
245.46 281.09 1527.1
245.20 276.33 1501.2
247.54 274.61 1491.9
254.74 278.25 1511.6
263.36 283.32 1539.1
264.38 280.16 1522.0
267.53 279.33 1517.5
276.54 284.56 1545.9
275.86 279.80 1520.0
265.25 265.25 1441.0
265.07 261.39 1420.0
281.62 273.90 1488.0
288.50 276.80 1503.8
283.62 268.49 1458.6
282.13 263.57 1431.9
288.21 265.75 1443.7
296.30 269.71 1465.2
303.90 273.12 1483.8
315.39 279.91 1520.6
312.09 273.56 1486.1
309.85 268.28 1457.5
330.03 282.31 1533.7
338.44 286.06 1554.1
338.05 282.37 1534.0
343.13 283.28 1539.0
344.99 281.54 1529.5
336.07 271.14 1473.0
367.14 292.89 1591.1
365.93 285.51 1551.0
330.92 255.38 1387.4
342.63 261.58 1421.1
347.98 262.84 1427.9
330.29 246.85 1341.0
327.63 242.31 1316.4
352.21 257.81 1400.6
354.42 256.77 1395.0
369.57 265.05 1439.9
388.15 275.59 1497.1
376.83 264.90 1439.1
387.62 269.81 1465.8
398.79 269.66 1464.9
389.80 261.09 1418.4
416.13 276.12 1500.1
409.12 268.96 1461.2
393.90 256.57 1393.9
422.36 272.62 1481.0
454.78 290.90 1580.3
451.71 286.35 1555.6
444.91 279.55 1518.7
441.29 274.84 1493.1
435.85 269.09 1461.9
431.68 264.22 1435.4
457.68 277.74 1508.8
496.71 298.87 1623.6
489.53 292.07 1586.7
467.55 276.63 1502.8
469.34 275.40 1496.1
530.79 308.90 1678.2
537.49 305.30 1658.6
507.44 285.94 1553.4
456.25 255.07 1385.7
481.53 267.10 1451.0
565.85 311.44 1691.9
616.37 336.63 1828.8
614.62 333.11 1809.7
567.47 305.23 1658.2
571.01 304.83 1656.0
38.14 381.35 2101.3
42.93 375.62 2069.8
48.91 380.42 2096.2
55.03 385.22 2122.6
61.09 388.76 2142.2
66.76 389.45 2145.9
74.24 371.18 2045.3
75.55 352.59 1942.8
77.57 339.35 1869.9
80.19 330.21 1819.5
83.34 324.11 1785.9
85.69 315.69 1739.5
87.64 306.73 1690.2
93.88 312.93 1724.3
101.19 321.98 1774.2
101.74 309.63 1706.1
100.03 291.76 1607.7
105.46 295.28 1627.1
114.09 307.17 1692.6
117.43 304.45 1677.6
119.98 299.94 1652.7
121.73 293.83 1619.1
118.35 276.15 1521.6
121.48 274.31 1511.5
134.16 293.48 1617.1
137.49 291.64 1607.0
133.76 275.38 1517.4
138.73 277.46 1528.8
146.23 284.33 1566.7
147.34 278.75 1536.0
149.64 275.66 1519.0
154.83 277.90 1531.3
158.86 278.01 1531.9
165.81 283.09 1559.9
171.51 285.85 1575.1
174.13 283.47 1562.0
178.35 283.74 1563.5
179.50 279.23 1538.6
181.34 275.95 1520.6
192.61 286.86 1580.7
201.14 293.33 1616.3
199.94 285.62 1573.8
201.04 281.46 1550.9
205.64 282.25 1555.3
211.18 284.28 1566.5
219.73 290.21 1599.1
225.43 292.23 1610.2
222.44 283.11 1560.0
220.61 275.76 1519.5
223.75 274.78 1514.1
230.81 278.56 1534.9
235.45 279.34 1539.2
236.93 276.41 1523.1
237.25 272.25 1500.1
234.48 264.74 1458.7
240.71 267.45 1473.7
249.58 272.98 1504.2
254.03 273.58 1507.5
259.50 275.22 1516.5
267.19 279.16 1538.2
277.56 285.72 1574.4
274.93 278.92 1536.9
261.92 261.92 1443.2
263.94 260.22 1433.9
278.74 270.99 1493.2
289.80 277.89 1531.2
290.30 274.60 1513.1
289.20 269.92 1487.3
291.96 268.91 1481.8
290.26 263.88 1454.0
290.18 260.42 1435.0
294.75 261.17 1439.1
303.53 265.59 1463.4
312.63 270.18 1488.7
326.36 278.60 1535.2
332.87 280.73 1546.9
325.18 270.98 1493.2
335.02 275.90 1520.3
354.00 288.14 1587.7
361.82 291.12 1604.1
359.87 286.26 1577.3
352.69 277.39 1528.5
346.38 269.41 1484.5
355.69 273.61 1507.6
381.10 289.97 1597.8
369.79 278.34 1533.7
338.57 252.13 1389.3
344.80 254.06 1399.9
386.29 281.67 1552.0
377.32 266.79 1470.1
345.06 241.54 1330.9
338.57 234.65 1293.0
348.51 239.17 1317.9
389.31 264.58 1457.9
391.56 263.55 1452.2
380.59 253.72 1398.1
400.67 264.59 1458.0
422.36 276.31 1522.5
407.97 264.42 1457.0
383.35 246.19 1356.5
402.82 256.34 1412.5
439.18 276.96 1526.1
437.34 273.34 1506.1
446.76 276.76 1525.0
459.63 282.23 1555.1
455.18 277.06 1526.7
451.72 272.59 1502.0
478.75 286.43 1578.3
487.70 286.88 1580.8
441.98 257.82 1420.7
460.09 266.17 1466.7
546.53 306.06 1686.4
507.96 282.20 1555.0
475.86 262.28 1445.2
543.18 297.05 1636.8
607.97 329.91 1817.8
619.14 333.38 1837.0
613.66 325.43 1793.2
568.03 298.96 1647.4
590.30 308.36 1699.1
642.75 333.28 1836.4
54.70 377.42 2109.8
58.37 366.13 2046.7
62.75 360.82 2017.0
66.38 352.35 1969.6
72.52 357.42 1998.0
77.16 354.92 1984.0
83.35 338.31 1891.2
83.70 320.86 1793.6
83.45 303.05 1694.1
86.00 296.68 1658.5
92.91 305.26 1706.4
97.93 307.15 1717.0
96.63 289.88 1620.4
95.74 275.25 1538.6
102.07 281.71 1574.7
112.29 298.00 1665.8
117.07 299.18 1672.4
117.82 290.34 1623.0
117.65 279.93 1564.8
120.46 277.06 1548.8
130.05 289.47 1618.2
136.26 293.80 1642.4
132.60 277.25 1549.8
131.14 266.13 1487.7
138.52 273.09 1526.6
146.84 281.44 1573.3
149.00 277.87 1553.3
149.04 270.62 1512.8
152.13 269.15 1504.6
156.50 269.96 1509.1
163.80 275.67 1541.0
169.67 278.74 1558.2
172.68 277.09 1549.0
172.41 270.37 1511.4
176.41 264.61 1479.2
193.89 284.64 1591.2
202.45 291.02 1626.8
200.89 282.89 1581.4
203.28 280.53 1568.2
209.35 283.23 1583.3
212.86 282.44 1578.9
219.42 285.66 1596.9
226.76 289.75 1619.7
225.60 283.03 1582.1
226.79 279.44 1562.1
233.20 282.30 1578.1
237.06 282.02 1576.5
238.08 278.43 1556.5
243.84 280.42 1567.6
248.43 281.01 1570.8
243.18 270.63 1512.9
247.48 271.05 1515.2
253.72 273.55 1529.1
254.80 270.48 1512.0
259.44 271.24 1516.2
266.80 274.77 1536.0
273.58 277.60 1551.8
266.03 266.03 1487.1
257.29 253.61 1417.7
265.48 258.00 1442.2
277.59 266.03 1487.1
284.80 269.19 1504.8
290.24 270.63 1512.8
294.02 270.50 1512.1
302.37 274.52 1534.6
306.97 275.08 1537.7
304.76 269.59 1507.0
307.92 268.94 1503.4
313.06 270.02 1509.4
318.64 271.43 1517.3
302.74 254.75 1424.1
295.13 242.43 1355.2
343.65 278.96 1559.4
348.15 279.33 1561.5
334.67 265.42 1483.7
347.75 272.67 1524.2
357.05 276.81 1547.4
349.67 268.08 1498.6
365.57 277.19 1549.5
343.38 252.06 1409.0
326.10 236.85 1324.0
372.89 268.01 1498.2
364.25 251.33 1405.0
346.20 236.51 1322.1
344.37 232.96 1302.2
367.10 245.92 1374.7
390.96 259.39 1450.0
398.09 261.60 1462.4
421.21 274.18 1532.7
435.51 278.24 1555.4
409.77 259.40 1450.0
417.04 261.60 1462.4
440.18 273.62 1529.6
439.72 270.90 1514.4
452.77 276.47 1545.5
458.98 277.80 1552.9
445.51 267.31 1494.3
437.72 260.37 1455.5
462.64 272.84 1525.2
507.21 296.59 1658.0
475.41 275.66 1540.9
424.89 244.31 1365.7
442.88 252.55 1411.8
477.13 269.85 1508.5
489.38 274.53 1534.6
518.34 288.43 1612.3
546.14 301.47 1685.2
541.53 296.55 1657.8
548.82 298.18 1666.8
603.65 325.40 1819.0
619.39 328.75 1837.8
611.63 322.16 1800.9
622.21 325.25 1818.1
612.30 317.66 1775.7
612.21 315.24 1762.2
644.96 329.65 1842.8
54.72 372.12 2110.8
60.31 315.47 1789.4
63.80 309.89 1757.8
71.03 322.00 1826.5
76.70 325.96 1848.9
80.31 321.24 1822.2
80.98 305.94 1735.4
84.94 304.00 1724.3
91.69 311.76 1768.4
94.07 304.61 1727.8
94.50 292.09 1656.8
97.31 287.71 1632.0
100.12 283.68 1609.1
101.60 276.36 1567.6
107.24 280.47 1590.9
114.23 287.70 1631.9
117.16 284.53 1613.9
119.40 279.98 1588.1
124.56 282.35 1601.5
126.09 276.58 1568.8
124.43 264.41 1499.8
129.55 266.95 1514.2
137.08 274.15 1555.1
139.65 271.33 1539.0
143.24 270.57 1534.8
151.14 277.77 1575.6
157.21 281.33 1595.8
157.74 275.04 1560.1
159.41 271.00 1537.2
166.06 275.42 1562.2
171.24 277.24 1572.6
170.57 269.75 1530.1
166.23 256.90 1457.2
180.92 267.44 1517.0
191.94 277.71 1575.2
193.17 273.66 1552.3
196.51 272.71 1546.9
204.26 277.79 1575.7
209.44 279.25 1584.0
211.50 276.58 1568.8
207.32 265.99 1508.8
203.23 255.92 1451.7
211.51 261.51 1483.3
223.21 271.04 1537.4
229.99 274.38 1556.4
234.09 274.45 1556.8
238.19 274.52 1557.1
247.28 280.25 1589.7
257.46 287.00 1628.0
257.98 282.95 1605.0
251.40 271.35 1539.2
246.42 261.82 1485.1
248.53 260.00 1474.8
255.07 262.80 1490.7
263.55 267.48 1517.2
271.47 271.47 1539.9
272.22 268.28 1521.7
271.65 263.89 1496.8
272.55 261.04 1480.7
276.27 260.92 1480.0
281.99 262.68 1490.0
285.16 262.04 1486.4
292.08 264.82 1502.1
304.21 272.19 1543.9
312.70 276.15 1566.4
314.46 274.14 1555.0
310.42 267.20 1515.6
307.59 261.45 1483.0
306.62 257.41 1460.1
294.00 238.00 1350.0
339.13 271.30 1538.9
332.42 262.85 1490.9
312.47 244.23 1385.3
325.76 251.72 1427.8
332.82 254.29 1442.4
318.01 240.28 1362.9
325.44 243.19 1379.4
359.93 266.04 1509.0
386.04 282.27 1601.1
353.10 255.43 1448.9
336.32 235.77 1337.3
405.02 272.69 1546.8
413.82 275.88 1564.9
386.33 255.05 1446.7
364.43 238.28 1351.6
379.61 245.84 1394.5
411.98 264.29 1499.1
432.73 275.00 1559.9
410.17 258.26 1464.9
403.78 251.90 1428.8
438.31 270.95 1536.9
452.36 277.12 1571.9
441.83 268.25 1521.6
460.72 277.25 1572.6
438.65 259.37 1471.2
408.08 239.22 1356.9
408.16 237.22 1345.6
428.09 246.70 1399.3
454.67 259.81 1473.7
465.78 263.94 1497.2
422.10 237.21 1345.5
435.05 240.51 1364.3
481.12 263.84 1496.6
522.95 284.49 1613.7
534.71 288.57 1636.9
547.19 292.98 1661.9
634.15 321.81 1825.4
54.93 368.00 2118.6
57.41 349.67 2013.0
61.46 343.15 1975.5
64.76 309.91 1784.1
69.07 308.51 1776.1
71.95 301.30 1734.6
73.23 288.61 1661.5
78.31 291.49 1678.1
86.63 305.47 1758.6
95.15 318.76 1835.1
99.20 316.50 1822.1
99.42 302.78 1743.1
101.99 297.10 1710.4
107.51 300.13 1727.8
111.40 298.55 1718.7
111.39 287.06 1652.6
113.53 281.71 1621.8
117.64 281.49 1620.5
121.08 279.73 1610.4
125.61 280.53 1615.0
126.30 272.97 1571.5
123.18 257.91 1484.7
127.25 258.36 1487.4
137.92 271.78 1564.6
143.37 274.44 1579.9
145.05 269.95 1554.1
151.20 273.80 1576.3
153.51 270.67 1558.2
149.88 257.49 1482.4
156.33 261.85 1507.5
168.42 275.23 1584.5
172.38 274.99 1583.1
170.43 265.55 1528.8
173.12 263.61 1517.6
182.02 271.01 1560.2
189.87 276.54 1592.0
194.89 277.82 1599.4
196.54 274.34 1579.3
200.70 274.42 1579.8
209.16 280.28 1613.5
214.44 281.71 1621.8
216.07 278.40 1602.7
210.89 266.60 1534.8
206.60 256.34 1475.7
215.22 262.18 1509.4
219.91 263.10 1514.7
219.14 257.59 1482.9
225.98 261.05 1502.8
233.37 265.01 1525.7
244.96 273.54 1574.8
256.95 282.23 1624.8
260.91 281.95 1623.2
256.59 272.88 1571.0
251.20 262.98 1513.9
253.55 261.35 1504.6
257.51 261.41 1504.9
262.82 262.82 1513.0
272.10 268.10 1543.4
273.90 265.96 1531.1
267.36 255.90 1473.2
262.14 247.37 1424.1
270.96 252.14 1451.6
282.66 259.43 1493.5
280.64 254.09 1462.8
282.98 252.80 1455.3
289.48 255.20 1469.2
289.48 251.89 1450.1
306.19 263.01 1514.1
318.47 270.09 1554.9
303.92 254.53 1465.3
289.73 239.66 1379.7
292.75 239.20 1377.0
303.43 244.94 1410.1
310.07 247.32 1423.8
319.11 251.54 1448.1
331.71 258.42 1487.7
340.81 262.46 1511.0
346.95 264.15 1520.7
345.60 260.17 1497.8
300.45 223.67 1287.6
335.81 236.83 1363.4
306.99 214.25 1233.4
363.88 251.34 1446.9
412.70 268.45 1545.5
374.08 240.99 1387.4
387.54 247.29 1423.6
402.48 254.40 1464.5
400.74 250.93 1444.6
386.40 239.71 1380.0
390.80 240.22 1382.9
417.12 254.06 1462.6
427.45 258.01 1485.3
425.78 254.71 1466.3
452.31 268.18 1543.9
468.42 272.91 1571.1
444.61 256.80 1478.4
454.71 260.39 1499.1
445.87 253.16 1457.4
447.58 252.00 1450.8
515.20 287.66 1656.0
514.40 284.83 1639.8
429.91 236.10 1359.2
437.62 238.38 1372.3
502.45 271.49 1562.9
561.45 291.60 1678.7
598.46 308.44 1775.6
625.01 312.50 1799.1
647.76 321.48 1850.7
54.13 357.27 2088.0
58.95 353.71 2067.1
65.10 358.07 2092.6
68.40 347.25 2029.4
73.70 304.01 1776.7
76.95 298.75 1746.0
84.36 309.33 1807.8
88.99 309.13 1806.6
93.71 309.26 1807.3
99.46 312.58 1826.8
101.54 304.62 1780.3
99.92 286.73 1675.7
101.13 278.10 1625.3
110.36 291.36 1702.7
115.75 293.83 1717.2
115.23 281.67 1646.1
117.19 276.23 1614.3
120.98 275.34 1609.1
125.90 276.97 1618.7
130.86 278.60 1628.2
131.87 271.98 1589.5
133.11 266.21 1555.8
140.75 273.21 1596.7
145.57 274.49 1604.2
146.39 268.39 1568.5
152.21 271.51 1586.8
154.16 267.75 1564.8
152.13 257.45 1504.6
160.67 265.10 1549.3
171.41 275.93 1612.6
173.52 272.67 1593.6
175.09 268.74 1570.6
181.68 272.52 1592.7
187.47 274.96 1606.9
191.70 275.05 1607.4
197.72 277.64 1622.6
200.40 275.55 1610.4
201.03 270.78 1582.5
206.08 272.03 1589.8
215.95 279.47 1633.2
222.09 281.88 1647.4
219.84 273.77 1599.9
218.31 266.82 1559.3
225.20 270.24 1579.3
227.37 267.97 1566.1
225.58 261.20 1526.5
232.09 264.10 1543.5
233.62 261.34 1527.3
239.76 263.74 1541.3
255.37 276.30 1614.7
261.96 278.86 1629.7
264.17 276.75 1617.4
265.03 273.31 1597.3
262.17 266.21 1555.8
260.78 260.78 1524.0
255.50 251.69 1470.9
253.38 245.93 1437.3
263.60 252.14 1473.5
266.42 251.20 1468.0
265.11 246.44 1440.2
279.58 256.28 1497.7
292.68 264.62 1546.5
291.16 259.69 1517.7
285.17 250.95 1466.6
282.74 245.53 1434.9
285.35 244.59 1429.4
304.95 258.03 1508.0
315.83 263.86 1542.0
297.64 245.55 1435.0
293.70 239.32 1398.6
312.56 251.57 1470.2
316.42 251.61 1470.4
311.04 244.39 1428.2
311.39 241.79 1413.0
313.17 240.34 1404.6
343.33 260.46 1522.2
339.12 248.69 1453.4
351.04 243.88 1425.3
358.82 246.69 1441.7
324.08 220.51 1288.7
296.62 199.76 1167.5
363.23 242.16 1415.2
380.87 246.44 1440.2
325.56 208.61 1219.2
305.65 193.97 1133.6
352.71 221.70 1295.7
409.44 254.93 1489.9
405.12 249.89 1460.4
383.37 234.28 1369.2
376.47 227.95 1332.2
388.60 233.16 1362.6
408.24 242.74 1418.6
415.77 245.01 1431.9
415.59 242.73 1418.6
427.09 247.26 1445.1
423.78 243.21 1421.4
414.09 235.60 1376.9
457.47 258.06 1508.2
476.65 266.60 1558.1
428.56 237.69 1389.1
440.65 242.36 1416.4
524.65 286.17 1672.4
507.47 274.53 1604.4
418.90 224.78 1313.6
489.59 258.51 1510.7
554.44 290.42 1697.3
538.98 280.10 1636.9
517.01 266.58 1557.9
522.84 267.50 1563.3
594.91 302.03 1765.1
622.52 313.63 1832.9
61.23 361.79 2146.9
69.06 345.29 2049.0
72.23 313.01 1857.4
85.32 326.23 1935.9
96.46 313.50 1860.3
97.73 302.50 1795.1
100.29 296.32 1758.4
99.03 279.85 1660.7
100.13 271.19 1609.2
109.01 283.42 1681.8
115.27 288.18 1710.1
115.62 278.35 1651.7
117.24 272.16 1615.0
120.59 270.29 1603.9
125.87 272.72 1618.4
131.23 275.15 1632.8
135.43 275.10 1632.5
139.72 275.21 1633.1
142.28 272.00 1614.1
141.53 262.84 1559.7
144.25 260.46 1545.6
152.18 267.35 1586.4
158.87 271.75 1612.6
161.52 269.20 1597.4
168.16 273.26 1621.6
176.70 280.13 1662.3
179.89 278.41 1652.1
182.70 276.18 1638.9
185.56 274.12 1626.7
186.87 269.92 1601.7
189.21 267.36 1586.5
193.50 267.61 1588.0
195.37 264.56 1569.9
195.40 259.20 1538.1
200.59 260.77 1547.4
210.61 268.43 1592.9
218.10 272.62 1617.8
216.71 265.78 1577.1
214.84 258.61 1534.6
221.95 262.30 1556.5
238.23 276.52 1640.9
251.77 287.11 1703.7
253.75 284.37 1687.5
249.97 275.39 1634.2
244.26 264.61 1570.2
248.85 265.17 1573.5
254.55 266.87 1583.6
255.38 263.48 1563.5
262.55 266.66 1582.4
266.71 266.71 1582.7
266.37 262.34 1556.7
262.53 254.69 1511.4
253.66 242.47 1438.8
257.45 242.53 1439.2
274.28 254.69 1511.3
288.25 263.90 1566.0
289.47 261.32 1550.7
286.75 255.32 1515.1
295.93 259.94 1542.5
302.24 261.94 1554.4
303.83 259.86 1542.0
310.39 262.02 1554.8
313.87 261.56 1552.1
305.86 251.66 1493.4
297.76 241.93 1435.6
310.25 248.97 1477.4
329.10 260.87 1548.0
331.91 259.93 1542.4
300.46 232.50 1379.6
312.43 233.42 1385.1
390.48 285.18 1692.3
368.19 265.91 1577.9
342.61 244.72 1452.2
350.53 247.66 1469.6
387.45 270.80 1606.9
357.97 247.53 1468.9
325.93 223.01 1323.3
312.48 211.58 1255.5
284.02 190.32 1129.4
288.72 191.50 1136.4
361.66 237.46 1409.1
411.66 267.58 1587.8
381.02 245.21 1455.1
334.84 213.38 1266.2
300.12 187.58 1113.1
367.89 227.74 1351.4
403.59 247.48 1468.6
380.22 230.97 1370.6
356.64 214.64 1273.7
346.55 206.66 1226.3
358.16 211.64 1255.9
369.37 216.29 1283.5
406.02 235.64 1398.3
440.18 253.20 1502.5
419.15 238.99 1418.2
380.51 215.07 1276.2
386.39 216.51 1284.8
440.75 244.86 1453.0
468.75 258.21 1532.2
429.02 234.34 1390.6
451.97 244.81 1452.7
522.49 280.68 1665.5
528.51 281.58 1670.9
439.46 232.24 1378.1
481.99 248.65 1475.5
527.76 270.11 1602.9
544.58 276.54 1641.0
592.26 298.43 1770.9
595.77 297.88 1767.7
553.21 274.49 1628.9
43.31 346.45 2088.0
59.56 346.55 2088.6
63.26 337.37 2033.2
68.46 337.01 2031.1
96.91 310.11 1869.0
97.34 296.67 1787.9
99.10 288.29 1737.5
104.06 289.55 1745.1
111.08 296.21 1785.2
111.48 285.38 1719.9
109.41 269.33 1623.2
112.64 266.99 1609.1
116.93 267.27 1610.8
119.68 264.12 1591.8
124.40 265.38 1599.4
128.20 264.67 1595.1
130.60 261.19 1574.1
135.91 263.58 1588.6
139.48 262.55 1582.3
140.96 257.76 1553.5
145.97 259.49 1563.9
152.72 264.16 1592.0
157.68 265.56 1600.5
161.69 265.33 1599.1
169.96 271.94 1638.9
175.83 274.47 1654.2
176.34 268.70 1619.4
181.14 269.61 1624.9
186.31 270.99 1633.2
189.23 269.13 1622.0
193.61 269.37 1623.5
195.97 266.85 1608.3
195.81 261.09 1573.5
198.71 259.54 1564.2
207.14 265.14 1598.0
214.19 268.79 1619.9
218.45 268.86 1620.4
221.91 267.96 1614.9
225.19 266.90 1608.5
230.54 268.26 1616.8
246.13 281.29 1695.3
255.05 286.37 1725.9
251.36 277.36 1671.6
255.75 277.42 1672.0
258.01 275.21 1658.6
256.81 269.44 1623.9
256.69 264.97 1596.9
257.87 261.96 1578.8
265.25 265.25 1598.6
270.26 266.11 1603.8
270.81 262.61 1582.7
274.29 262.01 1579.1
273.30 257.22 1550.2
269.72 250.18 1507.8
279.33 255.38 1539.1
298.56 269.12 1621.9
304.07 270.29 1629.0
290.54 254.72 1535.1
288.06 249.13 1501.5
304.06 259.46 1563.7
317.50 267.37 1611.4
316.31 262.91 1584.5
310.28 254.59 1534.4
307.57 249.17 1501.7
306.10 244.88 1475.8
310.78 245.56 1479.9
320.41 250.08 1507.2
340.76 262.76 1583.6
327.25 249.34 1502.7
306.12 230.49 1389.1
339.85 252.91 1524.2
325.37 239.35 1442.5
322.56 234.59 1413.8
368.22 264.79 1595.8
379.10 269.58 1624.7
359.30 252.69 1522.9
378.38 263.22 1586.4
352.04 239.68 1444.5
344.24 231.91 1397.7
359.82 239.88 1445.7
326.99 215.75 1300.3
331.14 216.25 1303.3
346.10 223.74 1348.4
326.09 208.70 1257.8
340.90 216.02 1301.9
334.22 209.70 1263.8
334.22 207.67 1251.6
399.46 245.82 1481.5
417.31 254.36 1533.0
385.43 232.71 1402.5
376.14 224.98 1355.9
363.43 215.37 1298.0
343.46 201.67 1215.4
342.32 199.17 1200.4
362.95 209.27 1261.2
399.30 228.17 1375.1
428.13 242.48 1461.4
399.44 224.25 1351.5
388.27 216.08 1302.3
428.92 236.65 1426.2
446.08 244.01 1470.6
430.79 233.65 1408.2
417.25 224.40 1352.4
473.56 252.56 1522.2
512.93 271.30 1635.1
471.22 247.20 1489.8
444.73 231.41 1394.6
419.60 216.57 1305.2
430.89 220.62 1329.6
512.23 260.18 1568.1
531.05 267.62 1612.9
519.89 259.95 1566.6
548.00 271.87 1638.5
532.89 262.35 1581.1
548.97 268.20 1616.4
42.61 335.54 2054.3
48.28 337.94 2069.0
53.61 337.76 2067.9
62.64 328.85 2013.4
70.78 343.00 2100.0
73.35 330.08 2020.9
86.34 286.27 1752.7
90.87 286.23 1752.5
96.26 288.77 1768.0
99.70 285.51 1748.0
106.28 291.10 1782.3
112.04 294.11 1800.7
111.08 279.91 1713.7
112.05 271.50 1662.3
118.68 276.92 1695.4
123.48 277.84 1701.0
126.91 275.70 1687.9
128.58 270.02 1653.2
129.20 262.57 1607.6
131.38 258.66 1583.6
136.89 261.34 1600.0
141.53 262.24 1605.6
144.14 259.46 1588.5
147.40 257.95 1579.3
152.31 259.34 1587.8
157.84 261.68 1602.1
162.25 262.09 1604.7
169.01 266.20 1629.8
173.51 266.61 1632.3
173.31 259.97 1591.6
177.83 260.53 1595.1
184.82 264.63 1620.2
189.99 265.99 1628.5
197.55 270.56 1656.5
203.45 272.72 1669.7
209.43 274.87 1682.9
219.20 281.82 1725.4
221.44 279.02 1708.3
221.91 274.13 1678.3
229.36 277.87 1701.3
236.24 280.81 1719.3
234.59 273.69 1675.7
234.81 268.97 1646.7
244.53 275.09 1684.3
246.35 272.28 1667.0
242.65 263.57 1613.7
246.75 263.47 1613.1
256.45 269.27 1648.6
262.62 271.24 1660.6
263.38 267.63 1638.5
265.77 265.77 1627.2
269.72 265.50 1625.5
270.21 261.89 1603.4
267.76 255.59 1564.8
268.49 252.46 1545.7
274.26 254.10 1555.7
278.18 253.99 1555.0
278.38 250.54 1533.9
287.95 255.51 1564.3
311.99 272.99 1671.4
317.09 273.65 1675.4
309.75 263.71 1614.5
323.03 271.34 1661.3
322.40 267.26 1636.3
304.65 249.26 1526.1
303.17 244.87 1499.2
305.71 243.80 1492.6
307.42 242.10 1482.2
316.18 245.92 1505.6
321.15 246.74 1510.7
333.42 253.08 1549.5
351.13 263.35 1612.3
377.86 280.06 1714.7
326.86 234.00 1432.7
286.87 203.07 1243.3
373.19 261.23 1599.4
370.06 253.41 1551.5
317.61 215.16 1317.3
310.08 207.82 1272.4
342.01 226.81 1388.6
345.41 226.68 1387.8
311.22 202.13 1237.6
358.27 230.31 1410.1
400.99 255.18 1562.3
321.01 202.24 1238.2
294.24 183.54 1123.7
315.15 194.65 1191.8
359.58 219.94 1346.6
364.11 216.41 1324.9
313.18 184.39 1128.9
358.78 209.29 1281.4
401.89 232.29 1422.2
367.65 210.56 1289.2
351.62 199.57 1221.8
382.10 214.93 1315.9
401.36 223.76 1370.0
385.59 213.09 1304.6
394.07 215.88 1321.7
421.40 228.87 1401.2
425.60 229.17 1403.1
407.83 217.74 1333.1
393.52 208.33 1275.5
421.49 221.28 1354.8
440.37 229.29 1403.8
434.75 224.50 1374.5
458.71 234.95 1438.5
448.79 228.02 1396.0
475.84 239.82 1468.3
525.62 262.81 1609.0
487.98 242.07 1482.1
454.42 223.66 1369.3
455.74 222.57 1362.7
505.95 245.19 1501.2
613.69 295.13 1806.9
56.01 347.29 2160.5
57.70 325.21 2023.2
63.15 326.30 2030.0
66.84 276.26 1718.7
85.15 293.29 1824.6
84.18 274.71 1709.0
88.40 274.04 1704.9
94.95 280.34 1744.1
99.80 281.25 1749.7
105.73 285.01 1773.1
110.68 285.92 1778.8
113.74 282.07 1754.8
119.00 283.77 1765.4
120.87 277.55 1726.7
120.96 267.84 1666.3
126.14 269.69 1677.8
129.55 267.74 1665.7
133.37 266.74 1659.4
138.95 269.21 1674.8
141.58 265.99 1654.8
143.41 261.51 1626.9
146.43 259.39 1613.7
150.21 258.70 1609.4
155.48 260.54 1620.8
161.29 263.16 1637.2
164.40 261.36 1625.9
169.90 263.34 1638.3
175.35 265.17 1649.6
175.84 259.57 1614.8
179.54 258.87 1610.5
185.90 261.95 1629.6
183.43 252.73 1572.3
182.89 246.51 1533.6
198.52 261.88 1629.2
215.12 277.86 1728.6
225.76 285.65 1777.1
228.89 283.83 1765.7
230.68 280.43 1744.6
239.61 285.69 1777.3
244.13 285.59 1776.7
238.80 274.17 1705.7
236.44 266.53 1658.2
244.06 270.21 1681.0
247.32 269.01 1673.6
244.66 261.53 1627.1
249.53 262.22 1631.3
259.74 268.39 1669.7
259.49 263.74 1640.8
253.14 253.14 1574.8
261.58 257.42 1601.5
272.73 264.21 1643.7
273.43 260.81 1622.6
270.86 254.45 1583.0
273.50 253.09 1574.5
282.43 257.51 1602.0
289.42 260.06 1617.9
291.01 257.76 1603.6
284.67 248.58 1546.5
292.90 252.22 1569.1
313.18 265.99 1654.8
322.90 270.54 1683.1
325.60 269.17 1674.5
311.65 254.24 1581.7
303.22 244.15 1518.9
314.25 249.79 1554.0
326.84 256.51 1595.8
339.04 262.76 1634.7
359.14 274.90 1710.2
361.99 267.18 1662.2
363.76 265.33 1650.7
371.29 267.67 1665.2
356.71 254.21 1581.5
338.09 232.91 1449.0
316.58 211.05 1313.0
287.28 189.48 1178.8
280.24 182.89 1137.8
278.33 177.90 1106.8
380.30 240.60 1496.8
366.44 224.95 1399.4
334.98 203.62 1266.7
324.03 195.05 1213.4
346.78 206.73 1286.1
401.28 236.95 1474.1
359.28 210.14 1307.3
319.90 185.36 1153.2
383.70 220.27 1370.3
407.15 231.59 1440.8
338.79 190.95 1188.0
335.35 187.32 1165.3
386.65 214.04 1331.6
423.18 232.19 1444.5
427.47 232.49 1446.3
426.12 229.74 1429.2
447.75 239.31 1488.8
408.83 216.65 1347.8
356.81 187.47 1166.3
370.65 193.11 1201.4
468.34 241.97 1505.4
514.50 263.63 1640.1
527.62 268.13 1668.1
539.66 272.03 1692.3
525.80 262.90 1635.6
508.93 252.43 1570.4
504.02 248.01 1542.9
516.92 252.35 1569.9
519.97 251.86 1566.9
34.00 345.64 2185.6
37.37 325.64 2059.1
43.40 330.93 2092.5
57.21 349.01 2206.8
59.44 329.62 2084.3
64.16 326.16 2062.4
69.70 283.46 1792.4
90.39 290.20 1835.0
92.58 282.36 1785.4
96.66 280.77 1775.3
101.98 282.75 1787.9
108.83 288.64 1825.1
111.64 283.76 1794.3
112.51 274.52 1735.8
116.46 273.23 1727.7
116.85 263.98 1669.2
118.15 257.39 1627.5
124.57 262.02 1656.8
126.46 257.14 1625.9
128.75 253.35 1602.0
135.66 258.59 1635.1
139.36 257.60 1628.9
140.34 251.79 1592.1
142.47 248.31 1570.1
149.91 254.01 1606.1
158.75 261.72 1654.9
163.29 262.13 1657.5
164.76 257.71 1629.5
170.68 260.28 1645.8
176.36 262.39 1659.1
178.58 259.37 1640.0
184.21 261.32 1652.4
188.10 260.78 1648.9
182.59 247.51 1565.1
181.45 240.61 1521.4
197.64 256.51 1622.0
211.91 269.30 1702.9
218.75 272.32 1721.9
225.05 274.56 1736.1
230.38 275.55 1742.4
238.65 279.95 1770.2
242.21 278.77 1762.7
239.57 270.63 1711.2
239.88 266.05 1682.3
242.88 264.56 1672.9
240.48 257.36 1627.3
249.75 262.67 1660.9
267.56 276.63 1749.2
269.25 273.74 1730.9
261.14 261.14 1651.2
255.90 251.78 1592.0
266.62 258.15 1632.3
277.85 264.83 1674.6
277.81 260.71 1648.5
276.97 255.99 1618.6
281.89 256.65 1622.8
282.03 253.00 1599.7
279.09 246.73 1560.1
293.77 256.00 1618.8
300.34 258.04 1631.6
284.13 240.72 1522.1
277.65 232.01 1467.0
294.91 243.11 1537.2
307.06 249.74 1579.2
307.95 247.17 1562.9
316.49 250.73 1585.4
332.98 260.41 1646.6
349.97 270.23 1708.7
358.24 273.16 1727.2
362.76 263.43 1665.7
357.95 256.88 1624.3
364.76 258.73 1636.0
349.45 245.02 1549.3
284.03 196.88 1244.9
313.07 212.19 1341.7
354.95 237.93 1504.5
377.68 250.42 1583.4
333.38 218.67 1382.7
321.55 208.67 1319.4
319.82 205.36 1298.5
295.78 187.94 1188.4
338.94 213.15 1347.8
384.83 239.54 1514.6
397.86 245.14 1550.1
402.62 245.60 1553.0
356.32 215.20 1360.8
350.77 209.78 1326.5
363.68 215.38 1361.9
392.20 230.04 1454.6
405.52 233.36 1475.6
351.20 200.22 1266.0
408.63 230.80 1459.4
394.94 221.02 1397.5
380.40 210.95 1333.9
416.96 229.14 1448.9
392.03 213.52 1350.1
364.41 196.72 1243.9
399.61 213.83 1352.1
427.41 226.71 1433.6
438.23 230.45 1457.2
392.34 204.55 1293.4
343.92 177.79 1124.2
348.63 178.71 1130.0
464.69 236.22 1493.6
521.50 262.90 1662.4
533.26 262.33 1658.8
490.82 239.52 1514.5
527.54 255.40 1614.9
56.67 340.04 2186.0
61.04 332.95 2140.4
68.55 342.76 2203.4
73.44 314.74 2023.3
79.33 317.32 2039.9
86.78 325.43 2092.1
85.31 284.36 1828.0
89.99 284.18 1826.8
94.92 284.75 1830.6
97.77 279.34 1795.8
101.85 277.77 1785.7
109.05 284.48 1828.8
111.87 279.68 1797.9
112.81 270.74 1740.5
117.37 270.85 1741.2
119.86 266.35 1712.3
123.42 264.47 1700.1
128.47 265.80 1708.7
128.73 257.47 1655.2
130.78 253.13 1627.2
137.91 258.59 1662.4
141.10 256.54 1649.2
141.44 249.60 1604.6
152.40 247.13 1588.7
166.46 262.83 1689.6
167.12 257.10 1652.8
172.07 258.11 1659.3
178.73 261.55 1681.4
181.97 259.96 1671.1
187.24 261.26 1679.5
190.64 259.96 1671.2
193.77 258.36 1660.9
202.58 264.24 1698.7
210.87 269.19 1730.5
215.41 269.26 1731.0
216.34 264.91 1703.0
215.99 259.18 1666.2
225.81 265.65 1707.8
239.93 276.84 1779.7
234.10 265.02 1703.7
220.89 245.44 1577.8
231.60 252.66 1624.2
247.52 265.20 1704.8
243.03 255.82 1644.6
251.17 259.83 1670.4
273.04 277.67 1785.0
278.78 278.78 1792.1
270.35 265.91 1709.4
266.36 257.76 1657.1
271.34 258.42 1661.3
276.18 258.92 1664.5
281.20 259.57 1668.7
285.91 259.92 1670.9
287.75 257.69 1656.6
283.34 250.01 1607.2
279.03 242.63 1559.8
294.59 252.51 1623.3
308.15 260.41 1674.1
298.02 248.35 1596.5
286.76 235.70 1515.2
299.68 242.99 1562.1
314.53 251.63 1617.6
317.05 250.30 1609.1
319.90 249.27 1602.5
329.78 253.67 1630.8
344.75 261.83 1683.2
349.54 262.16 1685.3
354.34 262.47 1687.3
354.62 259.48 1668.1
373.53 270.02 1735.9
379.57 267.93 1722.4
361.46 252.18 1621.2
386.56 266.60 1713.8
363.96 248.16 1595.3
314.77 212.20 1364.2
318.35 212.23 1364.4
346.00 228.13 1466.6
352.36 229.80 1477.3
356.91 230.26 1480.3
382.72 236.73 1521.9
351.12 214.97 1382.0
365.80 221.70 1425.2
361.58 216.95 1394.6
340.17 202.08 1299.1
369.87 217.57 1398.7
399.54 232.74 1496.2
318.40 180.23 1158.6
306.39 171.81 1104.5
373.85 207.69 1335.2
408.53 224.88 1445.6
414.79 222.21 1428.5
366.77 194.74 1251.9
377.05 198.45 1275.7
406.09 211.87 1362.0
416.74 215.56 1385.7
404.54 207.45 1333.6
372.69 189.51 1218.2
391.04 197.16 1267.5
463.98 231.99 1491.4
479.35 237.69 1528.0
478.78 235.47 1513.7
488.56 234.51 1507.6
484.73 230.82 1483.9
546.06 257.98 1658.5
508.73 233.01 1497.9
553.86 251.75 1618.4
39.89 336.22 2198.1
45.24 333.64 2181.2
57.29 337.98 2209.6
74.90 315.66 2063.7
80.86 318.05 2079.3
85.11 278.98 1823.8
87.40 271.39 1774.2
92.34 272.41 1780.9
94.91 266.64 1743.2
98.85 265.09 1733.1
105.80 271.39 1774.2
108.91 267.73 1750.3
110.29 260.29 1701.7
117.68 267.04 1745.8
123.29 269.41 1761.3
124.68 262.72 1717.6
127.70 259.81 1698.5
131.54 258.70 1691.3
137.49 261.67 1710.7
148.59 273.97 1791.1
155.82 278.58 1821.2
152.00 263.76 1724.3
141.69 238.85 1561.5
151.04 240.85 1574.5
165.65 257.19 1681.4
165.99 251.11 1641.6
171.12 252.40 1650.1
178.28 256.54 1677.2
183.32 257.53 1683.6
191.03 262.11 1713.6
198.56 266.25 1740.6
205.99 270.08 1765.6
207.58 266.24 1740.6
207.84 260.91 1705.7
213.91 262.93 1718.9
215.93 260.00 1699.7
219.25 258.71 1691.3
234.06 270.77 1770.2
242.27 274.88 1797.0
227.86 253.66 1658.3
223.32 239.56 1566.1
246.19 259.38 1695.7
248.62 257.34 1682.4
249.36 253.66 1658.3
263.43 263.43 1722.2
278.73 274.09 1791.9
279.25 270.10 1765.8
268.81 255.80 1672.3
267.78 250.78 1639.5
280.66 258.73 1691.5
295.28 268.02 1752.2
298.86 267.16 1746.6
297.84 262.28 1714.7
308.68 267.83 1750.9
320.05 273.67 1789.1
324.90 273.84 1790.3
328.14 272.68 1782.7
319.73 262.00 1712.8
311.70 251.92 1646.9
318.43 253.88 1659.8
325.03 255.69 1671.6
326.53 253.49 1657.2
328.15 251.44 1643.8
328.14 248.21 1622.7
331.38 247.49 1618.0
330.39 243.66 1593.0
327.44 238.51 1559.2
332.13 238.98 1562.3
355.78 252.90 1653.3
354.17 245.84 1607.2
316.18 216.91 1418.1
317.29 215.17 1406.7
322.08 215.94 1411.7
307.32 203.73 1331.9
318.47 208.78 1364.9
362.03 234.72 1534.5
385.35 236.83 1548.3
338.95 206.17 1347.8
325.19 195.78 1279.9
346.26 206.36 1349.1
369.90 218.24 1426.8
379.63 221.77 1449.8
354.57 205.10 1340.8
338.94 194.15 1269.3
358.75 203.52 1330.5
333.13 187.19 1223.7
308.29 171.60 1121.8
360.72 198.90 1300.3
401.46 219.32 1433.8
420.25 227.47 1487.1
440.91 236.49 1546.1
437.51 232.55 1520.3
435.91 229.63 1501.2
427.54 223.23 1459.4
444.21 229.90 1503.0
443.11 225.37 1473.4
385.73 194.51 1271.6
381.80 190.90 1248.0
431.14 213.76 1397.5
452.68 222.57 1455.0
420.58 205.08 1340.7
478.06 231.19 1511.4
496.36 234.28 1531.6
460.62 215.69 1410.1
483.12 224.44 1467.3
442.61 204.01 1333.7
454.53 206.28 1348.6
564.92 254.43 1663.4
79.02 327.37 2177.1
82.08 317.39 2110.7
87.71 317.95 2114.4
89.83 306.47 2038.1
87.92 268.38 1784.8
90.54 262.55 1746.1
96.72 267.12 1776.4
104.46 275.40 1831.5
109.08 275.06 1829.2
109.81 265.37 1764.8
108.48 251.68 1673.7
113.07 252.23 1677.4
121.54 261.08 1736.3
126.02 261.04 1736.0
128.27 256.54 1706.1
131.29 253.82 1688.0
133.58 249.92 1662.0
140.72 255.05 1696.2
152.08 267.30 1777.6
151.97 259.24 1724.0
150.68 249.70 1660.6
155.23 250.09 1663.2
156.48 245.29 1631.3
157.28 240.05 1596.4
163.17 242.66 1613.7
175.06 253.84 1688.1
183.47 259.54 1726.0
189.71 261.98 1742.2
191.43 258.21 1717.2
192.69 254.00 1689.2
200.11 257.92 1715.2
201.33 253.85 1688.2
205.53 253.63 1686.7
216.80 261.96 1742.1
222.74 263.65 1753.4
230.01 266.81 1774.4
240.76 273.80 1820.9
243.81 271.94 1808.5
247.07 270.38 1798.1
250.41 268.96 1788.6
238.62 251.64 1673.4
237.05 245.51 1632.7
251.89 256.31 1704.5
266.22 266.22 1770.4
274.30 269.65 1793.2
283.40 273.95 1821.8
289.16 270.51 1798.9
283.34 260.86 1734.8
292.91 265.45 1765.3
304.76 271.94 1808.4
304.14 267.28 1777.5
300.16 259.84 1728.0
307.77 262.51 1745.7
318.26 267.52 1779.1
322.90 267.55 1779.3
323.96 264.65 1760.0
310.77 250.34 1664.8
304.27 241.75 1607.7
315.75 247.48 1645.8
330.06 255.25 1697.5
340.81 260.09 1729.7
358.70 263.35 1751.4
336.14 243.70 1620.7
305.19 218.53 1453.3
295.55 206.53 1373.5
325.48 224.74 1494.5
393.28 259.21 1723.8
372.62 242.83 1614.9
365.35 235.45 1565.8
352.39 224.60 1493.6
347.11 218.83 1455.3
394.34 235.79 1568.1
335.79 198.73 1321.6
318.83 186.79 1242.2
306.71 177.89 1183.0
365.23 209.74 1394.8
397.71 226.15 1504.0
333.19 187.62 1247.7
317.40 177.01 1177.2
388.35 214.52 1426.6
394.83 210.09 1397.2
356.11 187.77 1248.7
390.59 204.09 1357.2
428.89 222.10 1477.0
414.06 212.52 1413.3
429.22 218.37 1452.2
442.41 221.21 1471.1
377.53 187.15 1244.6
377.88 185.74 1235.2
395.40 192.72 1281.6
394.03 190.45 1266.5
363.25 174.12 1157.9
433.15 205.92 1369.4
531.02 246.39 1638.6
471.85 217.20 1444.4
482.30 216.85 1442.1
61.79 320.18 2166.6
67.80 322.05 2179.3
81.00 307.79 2082.8
85.08 303.09 2051.0
92.33 276.99 1874.4
96.41 274.77 1859.3
106.81 276.74 1872.7
105.17 260.64 1763.7
112.74 267.75 1811.9
118.06 269.17 1821.4
117.10 256.72 1737.2
120.41 254.20 1720.2
126.78 258.09 1746.5
131.14 257.75 1744.2
134.25 255.08 1726.1
136.40 250.80 1697.2
136.19 242.59 1641.6
139.49 240.94 1630.4
148.64 249.19 1686.2
157.62 256.70 1737.1
162.18 256.79 1737.7
163.34 251.63 1702.8
163.15 244.73 1656.1
168.90 246.85 1670.4
180.74 257.55 1742.8
188.87 262.57 1776.8
189.89 257.70 1743.9
185.91 246.44 1667.7
187.94 243.47 1647.5
196.97 249.50 1688.3
206.45 255.81 1731.1
219.97 266.77 1805.2
225.92 268.28 1815.4
225.94 262.83 1778.5
227.43 259.26 1754.4
232.42 259.76 1757.8
243.37 266.77 1805.2
254.84 274.07 1854.6
261.02 265.68 1797.8
270.64 270.64 1831.4
278.23 273.44 1850.3
278.14 268.71 1818.3
280.61 266.58 1803.9
282.09 263.59 1783.7
289.11 265.80 1798.6
294.61 266.56 1803.8
310.94 264.53 1790.0
302.38 253.47 1715.2
295.20 243.86 1650.2
301.46 245.48 1661.1
306.71 246.23 1666.2
286.19 226.57 1533.1
295.54 227.65 1540.5
329.05 250.08 1692.3
333.85 250.39 1694.4
346.80 256.72 1737.2
302.86 213.13 1442.2
280.51 194.99 1319.5
307.11 210.90 1427.2
362.45 245.95 1664.3
390.04 255.54 1729.2
393.64 254.97 1725.4
370.21 234.46 1586.6
345.47 216.39 1464.3
317.84 196.92 1332.5
327.37 200.65 1357.8
269.53 163.44 1106.0
390.41 231.81 1568.6
395.45 232.38 1572.5
339.32 197.36 1335.5
321.41 185.05 1252.2
287.19 163.70 1107.7
314.20 177.32 1199.9
381.65 213.28 1443.2
366.51 202.83 1372.5
349.73 191.68 1297.1
365.98 193.15 1307.1
315.81 165.15 1117.6
335.69 172.38 1166.5
407.23 207.25 1402.4
442.32 223.11 1509.8
411.97 205.98 1393.9
406.24 201.35 1362.5
410.34 201.63 1364.4
379.67 184.97 1251.7
364.11 175.88 1190.2
358.76 171.84 1162.8
408.58 194.07 1313.3
427.10 201.19 1361.5
430.01 200.91 1359.5
525.28 243.42 1647.2
510.37 234.61 1587.6
437.88 198.09 1340.4
59.61 303.47 2090.2
65.21 304.31 2096.0
74.97 322.95 2224.4
79.69 318.76 2195.6
80.64 301.07 2073.7
84.21 294.72 2030.0
88.72 292.25 2013.0
94.62 294.37 2027.6
101.91 300.36 2068.8
109.72 307.21 2116.0
110.24 293.97 2024.8
104.15 265.10 1825.9
104.27 253.87 1748.6
113.46 264.73 1823.4
124.76 279.46 1924.8
129.33 278.55 1918.6
123.43 256.00 1763.2
121.31 242.62 1671.1
127.33 245.87 1693.5
132.08 246.54 1698.1
140.02 252.94 1742.2
145.24 254.17 1750.7
147.05 249.54 1718.8
155.64 256.36 1765.7
161.71 258.73 1782.1
163.16 253.81 1748.2
165.39 250.31 1724.1
166.13 244.82 1686.2
169.96 244.04 1680.9
180.29 252.41 1738.5
195.21 266.63 1836.5
202.28 269.70 1857.7
200.79 261.49 1801.1
207.08 263.56 1815.3
212.07 263.91 1817.7
216.84 263.97 1818.2
222.32 264.89 1824.5
219.28 255.83 1762.1
222.28 254.04 1749.7
227.51 254.81 1755.1
232.63 255.44 1759.4
244.12 262.90 1810.8
241.46 255.12 1757.2
241.95 250.91 1728.2
272.19 267.42 1841.9
254.34 245.57 1691.4
272.10 258.27 1778.9
287.76 264.17 1819.5
288.43 260.52 1794.4
293.60 260.98 1797.6
313.66 258.31 1779.2
299.14 242.78 1672.2
300.86 240.69 1657.8
303.41 239.31 1648.3
274.66 213.63 1471.4
321.20 243.07 1674.2
350.62 258.35 1779.5
330.64 240.47 1656.3
351.45 252.33 1738.0
358.70 251.09 1729.4
317.62 219.59 1512.5
336.41 229.74 1582.4
334.50 225.69 1554.5
340.88 227.25 1565.3
278.28 183.34 1262.8
261.64 166.50 1146.8
335.04 210.81 1452.0
374.84 233.23 1606.4
351.96 216.59 1491.8
326.91 198.99 1370.6
350.93 211.31 1455.5
310.65 185.07 1274.7
278.86 162.67 1120.4
334.73 193.24 1331.0
344.31 196.75 1355.2
339.49 192.04 1322.7
311.89 174.66 1203.0
300.72 163.50 1126.1
348.56 187.69 1292.7
344.14 183.54 1264.2
302.58 159.86 1101.0
331.45 173.47 1194.8
372.78 193.29 1331.3
330.46 169.78 1169.4
317.25 161.51 1112.4
332.24 167.62 1154.5
364.56 182.28 1255.5
412.12 204.23 1406.7
412.39 202.58 1395.3
425.91 207.40 1428.5
457.26 220.75 1520.5
395.62 189.35 1304.2
342.50 162.54 1119.6
335.81 158.03 1088.5
369.29 172.33 1187.0
423.09 195.81 1348.7
468.40 215.00 1480.9
418.98 189.22 1303.3
466.63 207.39 1428.5
48.40 295.80 2074.5
57.45 315.96 2215.8
60.54 302.68 2122.7
65.70 301.10 2111.6
81.29 298.06 2090.3
87.44 300.57 2107.9
98.35 300.50 2107.4
102.38 296.38 2078.5
95.78 239.46 1679.3
105.72 252.81 1772.9
114.67 262.77 1842.8
126.02 277.24 1944.3
131.44 278.04 1949.9
125.41 255.46 1791.5
122.72 241.05 1690.5
128.78 244.25 1712.9
132.35 242.65 1701.7
139.44 247.39 1734.9
153.40 263.65 1849.0
164.57 274.29 1923.6
165.79 268.18 1880.8
163.82 257.44 1805.4
161.20 246.27 1727.1
159.21 236.66 1659.7
166.87 241.52 1693.7
179.38 252.97 1774.1
190.98 262.60 1841.6
206.69 277.27 1944.5
211.68 277.19 1944.0
207.55 265.47 1861.7
218.91 261.74 1835.6
215.33 251.99 1767.2
219.24 251.21 1761.7
230.72 258.97 1816.2
239.43 263.37 1847.0
267.23 282.65 1982.2
272.01 282.27 1979.6
246.02 250.57 1757.3
247.97 247.97 1739.0
265.63 256.31 1797.5
247.37 234.57 1645.0
268.46 250.26 1755.0
283.82 251.78 1765.7
272.64 238.02 1669.2
296.63 254.92 1787.7
311.32 259.43 1819.4
288.45 236.79 1660.6
303.80 245.72 1723.3
311.10 247.98 1739.1
312.64 245.65 1722.7
317.86 246.23 1726.8
320.74 245.01 1718.2
353.25 252.32 1769.5
334.89 236.14 1656.1
331.66 230.91 1619.3
302.91 208.25 1460.5
288.42 195.84 1373.4
336.11 225.44 1581.0
360.87 239.13 1677.0
330.88 216.65 1519.4
257.33 160.83 1127.9
270.80 167.35 1173.6
318.47 194.62 1364.9
302.73 182.97 1283.1
299.67 179.15 1256.4
354.07 209.39 1468.5
384.87 225.19 1579.3
357.70 207.09 1452.3
321.78 184.35 1292.9
314.55 178.35 1250.8
315.16 176.88 1240.4
304.64 169.24 1186.9
297.33 163.53 1146.9
316.67 169.09 1185.9
339.14 179.35 1257.8
321.36 168.33 1180.5
295.86 153.51 1076.6
333.41 171.38 1201.9
408.70 208.13 1459.6
394.43 199.02 1395.7
356.21 178.10 1249.0
353.45 175.13 1228.2
343.69 168.77 1183.6
341.78 166.35 1166.6
368.72 177.89 1247.5
418.69 200.24 1404.3
450.00 213.36 1496.3
402.08 189.01 1325.5
357.98 166.85 1170.1
345.27 159.58 1119.1
364.70 167.15 1172.3
416.71 189.41 1328.3
440.46 198.57 1392.6
448.87 200.71 1407.6
471.59 209.17 1466.9
495.81 218.16 1529.9
525.25 229.28 1607.9
536.77 232.46 1630.2
500.08 213.21 1495.2
537.11 227.24 1593.6
561.86 235.90 1654.3
560.18 231.65 1624.6
53.13 286.91 2049.3
61.71 302.96 2164.0
81.70 294.13 2100.9
85.95 290.08 2072.0
93.97 298.50 2132.2
96.86 290.57 2075.5
91.28 246.47 1760.5
104.33 256.09 1829.2
111.54 261.87 1870.5
116.98 263.21 1880.1
125.17 270.36 1931.2
126.69 263.12 1879.4
128.70 257.41 1838.6
134.09 258.60 1847.2
142.05 264.50 1889.3
147.22 265.00 1892.9
147.42 256.80 1834.3
155.26 261.99 1871.4
171.84 272.93 1949.5
168.00 259.20 1851.4
163.00 244.50 1746.5
160.49 234.23 1673.1
168.28 239.14 1708.2
178.35 246.94 1763.9
186.96 252.40 1802.8
200.06 263.50 1882.1
201.67 259.29 1852.1
195.44 245.44 1753.1
202.51 248.54 1775.3
234.67 258.62 1847.3
227.42 245.61 1754.4
241.89 256.11 1829.4
263.72 258.92 1849.4
280.68 256.90 1835.0
280.61 252.55 1803.9
294.30 260.53 1860.9
286.75 249.75 1783.9
282.47 242.12 1729.4
305.33 246.09 1757.8
277.59 220.44 1574.6
305.80 239.32 1709.4
337.11 246.00 1757.1
305.20 219.74 1569.6
292.26 207.66 1483.3
334.17 234.35 1674.0
351.66 240.37 1717.0
319.51 215.67 1540.5
302.57 201.71 1440.8
352.09 231.87 1656.2
341.61 222.25 1587.5
275.55 177.14 1265.3
271.22 172.30 1230.7
329.03 206.60 1475.7
377.31 231.53 1653.8
317.45 192.61 1375.8
303.72 182.23 1301.7
318.98 189.29 1352.0
346.90 203.62 1454.4
332.82 193.25 1380.4
308.52 177.23 1266.0
328.91 186.96 1335.4
339.36 190.89 1363.5
323.60 180.15 1286.8
318.93 175.73 1255.2
315.58 172.13 1229.5
307.63 166.12 1186.6
287.92 153.94 1099.6
298.70 158.13 1129.5
347.45 182.16 1301.1
373.82 194.10 1386.4
390.97 201.07 1436.2
393.91 200.67 1433.4
371.41 187.44 1338.9
379.98 189.99 1357.1
389.98 193.20 1380.0
377.53 185.33 1323.8
365.63 177.87 1270.5
346.84 167.23 1194.5
356.94 170.57 1218.4
410.98 194.67 1390.5
383.43 180.04 1286.0
351.95 163.84 1170.3
374.30 172.75 1234.0
395.79 181.12 1293.7
345.09 156.60 1118.5
381.54 170.27 1216.2
411.01 181.92 1299.5
391.79 172.01 1228.6
388.32 169.11 1207.9
462.05 199.61 1425.8
543.89 233.10 1665.0
537.25 228.44 1631.7
497.36 209.83 1498.8
480.43 201.11 1436.5
543.30 225.68 1612.0
49.83 293.41 2135.4
70.55 287.61 2093.2
76.61 290.04 2110.8
79.77 281.85 2051.2
84.17 278.83 2029.2
92.09 287.09 2089.4
96.98 285.56 2078.2
98.36 274.38 1996.8
109.44 276.21 2010.2
127.42 281.39 2047.8
128.29 271.97 1979.3
129.60 264.18 1922.6
130.96 257.07 1870.9
134.21 254.04 1848.8
140.46 256.71 1868.2
150.96 266.70 1941.0
155.96 266.65 1940.6
151.54 250.99 1826.6
153.63 246.73 1795.6
166.08 258.88 1884.1
171.64 259.91 1891.5
171.35 252.26 1835.8
173.32 248.27 1806.8
170.97 238.45 1735.4
170.04 231.08 1681.7
177.73 235.49 1713.8
189.14 244.50 1779.3
210.22 265.27 1930.6
218.73 257.61 1874.8
233.61 269.16 1958.8
241.25 272.05 1979.9
240.61 255.05 1856.2
245.48 255.10 1856.5
274.62 274.62 1998.6
306.90 271.10 1973.0
316.70 275.16 2002.5
319.87 273.44 1990.0
300.74 234.40 1705.9
297.01 228.14 1660.3
343.38 245.94 1789.8
320.81 226.71 1649.9
298.30 208.03 1513.9
335.26 230.76 1679.4
341.63 229.20 1668.0
319.02 211.35 1538.1
323.45 211.64 1540.2
339.02 219.12 1594.7
302.53 193.18 1405.9
272.69 172.06 1252.2
299.89 186.99 1360.9
332.16 204.70 1489.8
350.67 213.63 1554.7
375.67 226.26 1646.6
345.85 205.96 1498.9
337.38 198.68 1445.9
352.77 205.46 1495.3
295.71 166.73 1213.4
267.39 149.18 1085.6
326.30 180.15 1311.0
351.01 189.83 1381.5
321.84 172.30 1253.9
326.39 172.99 1258.9
310.87 163.13 1187.2
292.71 152.10 1106.9
315.34 162.26 1180.9
352.27 179.52 1306.5
383.03 193.34 1407.0
399.03 199.52 1452.0
386.10 191.25 1391.8
345.35 169.48 1233.4
312.46 151.93 1105.7
328.98 158.51 1153.6
348.20 166.26 1210.0
349.72 165.49 1204.4
381.86 179.10 1303.5
379.64 176.50 1284.5
342.93 156.68 1140.3
432.27 195.81 1425.1
425.50 191.12 1390.9
345.79 154.01 1120.8
365.63 160.15 1165.5
389.62 169.26 1231.8
366.62 157.97 1149.7
356.27 152.28 1108.2
412.37 174.85 1272.5
501.57 210.98 1535.4
492.15 205.39 1494.7
540.62 223.85 1629.1
551.06 222.95 1622.5
96.69 279.34 2072.0
100.64 275.44 2043.1
105.00 273.00 2025.0
109.75 271.76 2015.8
119.53 282.53 2095.7
132.31 275.20 2041.3
133.04 266.08 1973.7
135.30 260.57 1932.8
139.28 258.66 1918.6
139.99 251.02 1861.9
144.87 251.10 1862.6
157.05 263.44 1954.1
159.71 259.52 1925.0
154.44 243.36 1805.1
160.04 244.77 1815.6
169.64 252.03 1869.5
173.25 250.24 1856.2
173.28 243.53 1806.4
168.79 230.98 1713.3
177.97 237.30 1760.2
197.52 256.77 1904.6
202.30 256.57 1903.2
226.95 262.26 1945.3
235.33 266.03 1973.3
281.25 265.91 1972.4
290.68 265.19 1967.0
297.66 238.13 1766.3
311.64 245.54 1821.3
320.67 241.67 1792.6
355.75 240.24 1782.0
346.43 230.96 1713.1
311.71 205.18 1521.9
288.92 187.80 1393.0
279.55 179.46 1331.2
276.67 175.45 1301.4
303.67 190.25 1411.2
351.47 217.58 1613.9
343.95 210.41 1560.8
305.52 184.73 1370.3
310.21 185.41 1375.3
310.51 183.49 1361.0
305.62 178.56 1324.5
329.61 190.44 1412.6
320.79 183.31 1359.7
330.34 186.71 1385.0
310.16 169.77 1259.3
314.20 170.19 1262.4
373.87 200.42 1486.7
367.24 194.86 1445.4
347.83 182.70 1355.2
360.34 187.38 1389.9
345.38 177.82 1319.0
317.65 161.94 1201.2
327.98 165.58 1228.2
346.96 173.48 1286.8
353.20 174.92 1297.5
350.55 171.97 1275.6
370.85 180.23 1336.9
365.78 176.12 1306.4
320.92 153.10 1135.6
334.26 158.01 1172.1
357.91 167.67 1243.7
357.85 166.14 1232.4
377.53 173.73 1288.6
362.89 165.53 1227.8
336.64 152.22 1129.1
383.88 172.09 1276.5
455.73 202.54 1502.4
402.43 177.34 1315.4
371.34 162.26 1203.6
403.65 174.92 1297.4
428.09 183.97 1364.6
416.36 177.47 1316.4
396.56 167.65 1243.6
384.31 161.16 1195.4
422.59 175.80 1304.0
469.39 193.72 1436.9
