ply
format ascii 1.0
element vertex 2113
property float x
property float y
property float z
end_header
-640.52 -73.20 1411.8
-640.36 -73.60 1419.5
-629.53 -72.78 1403.6
-615.10 -71.52 1379.4
-625.88 -73.20 1411.7
-638.52 -75.12 1448.7
-651.41 -77.09 1486.7
-645.71 -77.33 1491.4
-608.49 -73.31 1413.9
-588.89 -71.38 1376.6
-587.04 -71.59 1380.7
-593.34 -72.80 1404.0
-600.30 -74.11 1429.3
-595.99 -74.04 1427.8
-577.91 -72.24 1393.2
-553.12 -69.57 1341.8
-544.84 -68.97 1330.1
-552.80 -70.42 1358.1
-547.16 -70.15 1352.9
-534.08 -68.91 1329.0
-537.77 -69.84 1346.9
-535.13 -69.95 1349.1
-518.18 -68.18 1314.9
-519.60 -68.82 1327.3
-531.45 -70.86 1366.6
-535.93 -71.94 1387.3
-531.00 -71.76 1383.9
-522.89 -71.14 1372.0
-522.25 -71.54 1379.7
-521.23 -71.89 1386.5
-515.28 -71.57 1380.2
-507.97 -71.04 1370.1
-508.64 -71.64 1381.6
-508.22 -72.09 1390.3
-496.86 -70.98 1368.9
-488.64 -70.31 1355.9
-488.21 -70.76 1364.6
-486.41 -71.01 1369.4
-485.24 -71.36 1376.2
-476.46 -70.59 1361.3
-471.34 -70.35 1356.7
-480.24 -72.22 1392.8
-477.01 -72.27 1393.9
-468.31 -71.50 1378.9
-465.42 -71.60 1380.9
-467.27 -72.44 1397.2
-467.78 -73.09 1409.6
-446.68 -70.34 1356.6
-431.41 -68.48 1320.6
-438.47 -70.16 1353.0
-459.44 -74.10 1429.1
-471.25 -76.63 1477.8
-455.72 -74.71 1440.8
-444.25 -73.43 1416.1
-456.33 -76.05 1466.8
-461.69 -77.60 1496.5
-452.59 -76.71 1479.4
-456.62 -78.05 1505.3
-464.26 -80.04 1543.7
-463.72 -80.65 1555.3
-462.10 -83.26 1605.8
-465.65 -84.66 1632.8
-478.57 -87.81 1693.5
-478.00 -88.52 1707.1
-468.55 -87.58 1689.0
-467.92 -88.29 1702.7
-450.17 -85.75 1653.7
-436.81 -84.00 1620.0
-432.89 -84.06 1621.1
-419.52 -82.26 1586.4
-403.52 -79.91 1541.0
-384.24 -76.85 1482.1
-373.93 -75.54 1456.9
-381.45 -77.85 1501.3
-382.18 -78.80 1519.7
-391.73 -81.61 1573.9
-402.93 -84.83 1636.0
-382.14 -81.31 1568.1
-365.89 -78.69 1517.5
-364.95 -79.34 1530.1
-374.27 -82.26 1586.4
-391.70 -87.04 1678.7
-399.02 -89.67 1729.3
-397.20 -90.27 1741.0
-374.89 -86.18 1662.1
-368.39 -85.67 1652.3
-384.51 -90.47 1744.8
-372.12 -88.60 1708.7
-362.63 -87.38 1685.2
-368.21 -89.81 1732.0
-350.37 -86.51 1668.4
-337.70 -84.43 1628.2
-351.29 -88.93 1715.1
-369.98 -94.87 1829.6
-371.09 -96.39 1858.9
-363.55 -95.67 1845.1
-373.62 -99.63 1921.5
-349.62 -101.34 1954.4
-340.89 -100.26 1933.6
-1069.51 -104.95 1927.7
-1070.83 -107.08 1966.8
-972.85 -98.22 1804.1
-964.97 -97.90 1798.1
-948.17 -96.66 1775.3
-927.70 -95.03 1745.5
-905.02 -93.16 1711.2
-875.96 -90.62 1664.4
-919.84 -95.63 1756.4
-936.11 -97.80 1796.4
-902.55 -94.77 1740.6
-881.12 -92.98 1707.8
-847.51 -89.89 1651.0
-849.57 -90.56 1663.4
-869.22 -93.13 1710.6
-808.91 -87.11 1600.0
-744.56 -80.60 1480.3
-756.68 -82.33 1512.2
-766.90 -83.88 1540.6
-738.42 -81.19 1491.2
-726.48 -80.30 1474.8
-730.87 -81.21 1491.6
-715.06 -79.87 1467.1
-681.91 -76.58 1406.5
-683.73 -77.19 1417.9
-715.29 -81.20 1491.3
-725.04 -82.75 1519.9
-717.12 -82.29 1511.5
-706.24 -81.49 1496.7
-689.91 -80.04 1470.2
-691.42 -80.67 1481.6
-686.58 -80.55 1479.5
-664.59 -78.41 1440.1
-661.08 -78.43 1440.6
-652.19 -77.82 1429.3
-635.50 -76.26 1400.7
-648.09 -78.22 1436.6
-649.48 -78.84 1448.1
-626.01 -76.43 1403.8
-628.23 -77.15 1417.1
-636.84 -78.67 1444.9
-645.32 -80.19 1472.8
-655.27 -81.91 1504.4
-632.94 -79.59 1461.9
-615.13 -77.82 1429.3
-613.57 -78.09 1434.3
-603.39 -77.26 1419.1
-602.21 -77.59 1425.0
-597.52 -77.46 1422.7
-580.92 -75.77 1391.7
-583.58 -76.59 1406.8
-577.42 -76.26 1400.7
-559.54 -74.37 1366.0
-558.76 -74.74 1372.8
-557.95 -75.11 1379.5
-548.54 -74.32 1365.0
-541.04 -73.78 1355.1
-527.33 -72.38 1329.4
-512.63 -70.82 1300.8
-517.35 -71.95 1321.5
-528.13 -73.94 1358.0
-530.82 -74.81 1374.1
-527.36 -74.83 1374.4
-521.05 -74.44 1367.2
-523.25 -75.26 1382.4
-525.03 -76.04 1396.6
-507.53 -74.02 1359.5
-489.16 -71.83 1319.4
-491.67 -72.71 1335.5
-493.41 -73.49 1349.8
-495.43 -74.31 1365.0
-500.43 -75.60 1388.6
-485.12 -73.82 1355.9
-468.30 -71.78 1318.5
-468.58 -72.35 1329.0
-461.55 -71.80 1318.7
-455.55 -71.39 1311.3
-462.93 -73.09 1342.5
-460.79 -73.31 1346.5
-453.80 -72.75 1336.2
-457.71 -73.94 1358.0
-467.21 -76.06 1397.0
-469.93 -77.10 1416.1
-451.94 -74.73 1372.6
-439.11 -73.18 1344.2
-448.58 -75.36 1384.2
-450.83 -76.35 1402.3
-442.06 -75.47 1386.3
-445.72 -76.72 1409.2
-455.55 -79.06 1452.2
-457.46 -80.06 1470.4
-452.51 -79.85 1466.7
-454.58 -80.90 1485.9
-469.32 -84.24 1547.2
-471.96 -85.44 1569.3
-466.80 -85.24 1565.7
-468.73 -86.35 1585.9
-470.28 -87.40 1605.2
-468.11 -87.77 1612.1
-460.94 -87.20 1601.7
-461.21 -88.05 1617.2
-469.82 -90.52 1662.5
-472.28 -91.83 1686.7
-469.02 -92.05 1690.7
-452.78 -89.70 1647.6
-423.62 -84.72 1556.1
-406.60 -82.10 1508.0
-396.77 -80.89 1485.8
-390.87 -80.47 1478.1
-384.25 -79.89 1467.4
-385.19 -80.89 1485.7
-394.74 -83.73 1537.9
-386.32 -82.78 1520.5
-372.87 -80.72 1482.7
-376.73 -82.41 1513.6
-381.87 -84.41 1550.4
-368.62 -82.35 1512.6
-360.70 -81.45 1496.0
-362.59 -82.76 1520.2
-371.93 -85.83 1576.4
-377.58 -88.10 1618.2
-373.82 -88.21 1620.1
-379.83 -90.64 1664.8
-368.25 -88.89 1632.6
-357.04 -87.19 1601.4
-365.77 -90.37 1659.8
-356.35 -89.09 1636.3
-351.24 -88.87 1632.3
-369.20 -94.55 1736.7
-362.22 -93.91 1724.9
-356.52 -93.59 1718.9
-380.69 -101.20 1858.7
-374.89 -103.59 1902.7
-365.19 -102.25 1878.1
-363.77 -104.65 1922.1
-356.03 -103.84 1907.3
-364.08 -107.69 1977.9
-1059.02 -112.01 1963.8
-1009.70 -107.83 1890.6
-931.82 -100.00 1753.2
-857.29 -92.45 1620.9
-816.32 -88.47 1551.1
-853.94 -93.00 1630.6
-924.00 -101.13 1773.1
-935.55 -102.91 1804.3
-904.84 -100.03 1753.8
-861.10 -95.68 1677.5
-841.75 -94.00 1648.1
-841.07 -94.41 1655.2
-824.13 -92.98 1630.2
-797.42 -90.43 1585.5
-790.56 -90.12 1580.0
-781.49 -89.55 1570.0
-755.18 -86.98 1525.0
-744.94 -86.26 1512.3
-735.62 -85.63 1501.3
-706.66 -82.69 1449.8
-698.82 -82.21 1441.4
-723.55 -85.58 1500.5
-725.14 -86.23 1511.9
-704.75 -84.26 1477.3
-699.48 -84.09 1474.3
-690.81 -83.51 1464.1
-680.49 -82.71 1450.1
-687.96 -84.08 1474.2
-689.86 -84.79 1486.5
-673.71 -83.27 1459.9
-671.42 -83.45 1463.1
-663.72 -82.96 1454.6
-656.46 -82.53 1446.9
-678.40 -85.77 1503.8
-678.42 -86.27 1512.6
-654.81 -83.76 1468.4
-638.28 -82.12 1439.7
-628.71 -81.36 1426.5
-627.21 -81.65 1431.5
-626.88 -82.09 1439.3
-621.35 -81.86 1435.1
-618.61 -81.98 1437.4
-606.03 -80.80 1416.7
-586.51 -78.68 1379.4
-588.92 -79.49 1393.6
-587.78 -79.82 1399.5
-567.77 -77.58 1360.2
-565.52 -77.76 1363.3
-578.49 -80.04 1403.3
-578.02 -80.48 1411.1
-570.36 -79.92 1401.3
-562.75 -79.36 1391.4
-552.57 -78.43 1375.1
-543.57 -77.65 1361.4
-538.68 -77.46 1358.0
-534.17 -77.31 1355.5
-527.84 -76.90 1348.3
-527.70 -77.40 1356.9
-530.76 -78.37 1374.0
-528.01 -78.49 1376.1
-519.92 -77.81 1364.2
-520.71 -78.46 1375.7
-518.29 -78.64 1378.7
-496.99 -75.93 1331.2
-482.15 -74.18 1300.5
-486.78 -75.42 1322.2
-487.18 -76.01 1332.7
-487.53 -76.61 1343.2
-497.66 -78.77 1381.0
-488.09 -77.81 1364.2
-470.91 -75.62 1325.8
-471.51 -76.27 1337.3
-470.40 -76.66 1344.0
-469.58 -77.10 1351.7
-472.31 -78.13 1369.8
-465.58 -77.60 1360.4
-453.10 -76.09 1334.1
-450.63 -76.26 1337.0
-453.85 -77.40 1357.0
-449.74 -77.30 1355.2
-449.69 -77.90 1365.8
-455.79 -79.58 1395.3
-459.60 -80.89 1418.2
-456.27 -80.95 1419.3
-440.19 -78.73 1380.4
-434.83 -78.41 1374.7
-450.41 -81.89 1435.8
-460.07 -84.35 1478.8
-453.33 -83.81 1469.4
-454.52 -84.74 1485.7
-459.69 -86.44 1515.5
-451.77 -85.68 1502.2
-449.62 -86.01 1508.1
-456.22 -88.04 1543.6
-455.06 -88.60 1553.3
-447.72 -87.95 1541.9
-437.40 -86.69 1519.9
-436.23 -87.25 1529.6
-445.04 -89.83 1574.9
-447.45 -91.15 1598.0
-444.40 -91.37 1602.0
-430.75 -89.40 1567.4
-414.91 -86.93 1524.1
-408.36 -86.38 1514.5
-413.20 -88.26 1547.4
-423.75 -91.40 1602.4
-410.25 -89.36 1566.7
-402.43 -88.54 1552.2
-414.54 -92.12 1615.1
-409.63 -91.96 1612.2
-392.79 -89.09 1561.9
-394.28 -90.36 1584.2
-394.71 -91.41 1602.6
-377.08 -88.25 1547.3
-377.97 -89.41 1567.6
-389.64 -93.18 1633.6
-374.40 -90.51 1586.9
-356.43 -87.13 1527.6
-351.77 -86.95 1524.5
-356.68 -89.17 1563.4
-376.11 -95.11 1667.5
-396.32 -101.39 1777.5
-390.86 -101.16 1773.6
-366.92 -96.10 1684.8
-360.85 -95.65 1676.9
-374.76 -100.55 1762.8
-377.97 -102.66 1799.9
-383.84 -105.56 1850.7
-381.04 -106.11 1860.4
-371.66 -104.83 1837.9
-327.59 -96.09 1684.8
-349.00 -111.27 1950.9
-345.82 -111.88 1961.6
-1042.78 -115.31 1933.7
-1034.98 -115.56 1937.9
-957.48 -107.42 1801.5
-900.14 -101.49 1701.9
-874.83 -99.12 1662.2
-870.52 -99.12 1662.2
-903.58 -103.40 1734.0
-883.03 -101.55 1703.0
-828.27 -95.73 1605.4
-829.53 -96.36 1616.0
-848.92 -99.11 1662.1
-845.94 -99.27 1664.8
-827.19 -97.57 1636.2
-804.51 -95.38 1599.5
-802.08 -95.59 1603.0
-800.09 -95.84 1607.3
-779.46 -93.86 1574.1
-771.76 -93.42 1566.7
-764.97 -93.09 1561.2
-747.70 -91.47 1534.0
-751.45 -92.42 1550.0
-772.48 -95.52 1601.9
-769.10 -95.62 1603.5
-718.85 -89.86 1506.9
-688.27 -86.50 1450.7
-683.49 -86.37 1448.5
-677.44 -86.08 1443.6
-681.97 -87.14 1461.4
-679.27 -87.28 1463.7
-664.42 -85.85 1439.8
-662.59 -86.10 1443.9
-681.46 -89.05 1493.5
-700.94 -92.12 1544.9
-693.92 -91.72 1538.2
-666.08 -88.55 1485.1
-636.84 -85.16 1428.1
-615.53 -82.79 1388.4
-627.42 -84.89 1423.6
-644.76 -87.75 1471.6
-636.77 -87.18 1462.0
-624.85 -86.06 1443.2
-625.24 -86.63 1452.8
-615.77 -85.84 1439.5
-598.55 -83.94 1407.7
-603.22 -85.12 1427.4
-603.95 -85.75 1438.0
-586.54 -83.79 1405.2
-571.57 -82.16 1377.9
-571.18 -82.62 1385.6
-574.16 -83.58 1401.7
-570.29 -83.55 1401.1
-563.42 -83.07 1393.1
-554.36 -82.26 1379.5
-543.50 -81.17 1361.3
-537.14 -80.75 1354.1
-539.22 -81.59 1368.3
-540.51 -82.33 1380.7
-531.25 -81.46 1366.1
-525.29 -81.09 1359.8
-533.66 -82.93 1390.8
-537.27 -84.06 1409.7
-526.30 -82.91 1390.4
-512.60 -81.31 1363.6
-501.47 -80.10 1343.2
-496.32 -79.83 1338.7
-492.92 -79.84 1338.9
-484.37 -79.01 1325.0
-475.89 -78.18 1311.1
-477.28 -78.97 1324.4
-480.96 -80.16 1344.3
-477.20 -80.11 1343.5
-477.75 -80.80 1355.0
-475.94 -81.09 1359.8
-471.81 -80.98 1358.1
-470.62 -81.39 1364.8
-473.59 -82.52 1383.9
-471.66 -82.81 1388.8
-464.60 -82.20 1378.5
-463.92 -82.71 1387.1
-455.97 -81.93 1374.0
-451.19 -81.71 1370.3
-466.27 -85.11 1427.4
-479.54 -88.24 1479.7
-471.48 -87.45 1466.6
-451.05 -84.34 1414.4
-441.69 -83.27 1396.4
-450.35 -85.60 1435.6
-462.67 -88.68 1487.2
-461.21 -89.14 1494.9
-453.29 -88.35 1481.7
-448.32 -88.13 1478.0
-453.44 -89.91 1507.7
-465.25 -93.05 1560.5
-454.17 -91.63 1536.7
-436.19 -88.78 1488.9
-445.71 -91.53 1535.0
-454.46 -94.17 1579.2
-448.49 -93.77 1572.6
-452.58 -95.50 1601.5
-456.54 -97.23 1630.5
-455.28 -97.86 1641.2
-447.36 -97.07 1627.9
-437.40 -95.81 1606.8
-432.74 -95.70 1604.9
-439.16 -98.06 1644.6
-452.02 -101.93 1709.3
-436.49 -99.40 1666.9
-418.66 -96.29 1614.8
-421.19 -97.85 1641.0
-419.16 -98.37 1649.7
-402.72 -95.49 1601.4
-398.57 -95.49 1601.4
-394.89 -95.61 1603.3
-384.59 -94.10 1578.1
-393.12 -97.22 1630.5
-399.55 -99.89 1675.1
-377.78 -95.48 1601.3
-373.62 -95.48 1601.2
-383.82 -99.19 1663.4
-365.51 -95.53 1602.1
-359.58 -95.06 1594.2
-411.26 -109.99 1844.5
-394.27 -107.95 1810.4
-376.13 -104.23 1748.0
-404.18 -113.37 1901.2
-366.56 -106.72 1789.7
-361.12 -106.48 1785.7
-338.38 -105.17 1763.8
-344.92 -108.67 1822.5
-323.68 -103.40 1734.0
-1060.97 -120.68 1939.5
-1038.94 -118.74 1908.3
-1022.27 -117.39 1886.6
-1031.28 -118.99 1912.4
-1030.26 -119.45 1919.7
-993.93 -115.80 1861.0
-957.83 -112.14 1802.2
-936.44 -110.17 1770.6
-937.03 -110.78 1780.4
-953.79 -113.32 1821.2
-940.39 -112.28 1804.6
-881.08 -105.73 1699.2
-828.16 -99.88 1605.2
-830.80 -100.70 1618.4
-855.17 -104.18 1674.4
-854.43 -104.62 1681.5
-846.00 -104.12 1673.4
-834.02 -103.18 1658.2
-818.51 -101.78 1635.8
-803.55 -100.44 1614.3
-766.95 -96.37 1548.8
-744.75 -94.07 1511.9
-751.69 -95.45 1534.1
-748.48 -95.55 1535.6
-751.79 -96.49 1550.7
-774.11 -99.89 1605.3
-775.91 -100.66 1617.7
-730.36 -95.26 1531.0
-696.74 -91.38 1468.5
-689.79 -90.96 1461.9
-684.56 -90.77 1458.8
-688.63 -91.82 1475.6
-691.37 -92.70 1489.8
-682.74 -92.06 1479.5
-663.34 -89.94 1445.5
-666.04 -90.82 1459.7
-678.98 -93.12 1496.5
-666.32 -91.91 1477.1
-657.00 -91.14 1464.8
-643.67 -89.81 1443.4
-621.12 -87.17 1401.0
-631.76 -89.19 1433.4
-650.68 -92.40 1485.1
-643.86 -91.98 1478.2
-630.32 -90.58 1455.8
-630.29 -91.13 1464.5
-621.19 -90.35 1452.1
-604.33 -88.44 1421.3
-601.59 -88.58 1423.6
-596.52 -88.37 1420.3
-578.77 -86.28 1386.6
-563.84 -84.58 1359.3
-563.87 -85.11 1367.9
-566.89 -86.11 1383.9
-565.32 -86.42 1388.9
-560.73 -86.27 1386.4
-555.77 -86.05 1383.0
-549.72 -85.67 1376.8
-537.80 -84.36 1355.8
-534.02 -84.32 1355.1
-540.08 -85.84 1379.6
-535.16 -85.63 1376.1
-524.14 -84.43 1356.8
-526.80 -85.43 1372.9
-532.22 -86.89 1396.5
-523.40 -86.04 1382.8
-520.96 -86.23 1385.8
-520.25 -86.71 1393.5
-512.56 -86.02 1382.5
-506.65 -85.63 1376.2
-495.96 -84.42 1356.7
-485.36 -83.20 1337.2
-480.94 -83.04 1334.6
-478.20 -83.17 1336.6
-475.13 -83.23 1337.7
-475.03 -83.83 1347.2
-479.17 -85.19 1369.1
-480.92 -86.13 1384.3
-474.78 -85.68 1376.9
-472.56 -85.92 1380.9
-467.10 -85.58 1375.3
-456.57 -84.29 1354.6
-473.04 -88.01 1414.4
-483.57 -90.67 1457.2
-462.68 -87.44 1405.2
-460.01 -87.62 1408.2
-477.94 -91.76 1474.8
-475.08 -91.95 1477.8
-461.90 -90.13 1448.5
-460.29 -90.55 1455.3
-455.96 -90.44 1453.5
-453.42 -90.68 1457.4
-457.91 -92.35 1484.2
-457.02 -92.95 1493.9
-465.93 -95.58 1536.0
-485.86 -100.52 1615.5
-486.29 -101.49 1631.0
-464.29 -97.75 1570.9
-441.18 -93.70 1505.9
-445.09 -95.38 1532.8
-472.62 -102.19 1642.3
-486.75 -106.20 1706.8
-485.36 -106.87 1717.5
-484.46 -107.66 1730.2
-472.03 -105.88 1701.6
-449.41 -101.75 1635.3
-450.71 -103.02 1655.7
-457.62 -105.60 1697.2
-454.54 -105.91 1702.2
-456.54 -107.42 1726.4
-450.84 -107.13 1721.7
-442.15 -106.12 1705.4
-404.25 -98.00 1575.0
-366.25 -89.69 1441.5
-372.96 -92.28 1483.0
-389.59 -97.40 1565.3
-397.70 -100.47 1614.7
-399.66 -102.04 1639.9
-397.04 -102.46 1646.7
-391.15 -102.04 1639.9
-397.89 -104.94 1686.5
-421.65 -112.44 1807.1
-374.78 -102.21 1642.7
-358.65 -98.94 1590.1
-398.60 -111.24 1787.7
-415.44 -117.30 1885.2
-374.46 -106.99 1719.4
-360.33 -104.19 1674.5
-396.44 -116.03 1864.8
-385.15 -115.54 1857.0
-360.70 -109.58 1761.1
-363.63 -111.89 1798.2
-369.90 -115.29 1852.9
-370.29 -116.93 1879.3
-362.28 -120.76 1940.8
-1073.84 -126.63 1953.7
-1056.52 -125.18 1931.4
-1066.50 -126.96 1958.9
-1053.89 -126.67 1954.3
-1021.16 -123.33 1902.8
-988.63 -119.98 1851.1
-954.43 -116.39 1795.8
-957.79 -117.38 1811.0
-982.01 -120.94 1865.9
-938.38 -116.14 1791.8
-871.52 -108.40 1672.4
-891.54 -111.44 1719.4
-908.62 -114.15 1761.1
-878.10 -110.87 1710.6
-873.22 -110.81 1709.7
-872.86 -111.33 1717.7
-863.46 -110.70 1707.9
-841.53 -108.45 1673.2
-816.62 -105.78 1632.0
-805.67 -104.90 1618.5
-772.61 -101.13 1560.2
-740.68 -97.46 1503.6
-738.42 -97.67 1507.0
-732.20 -97.37 1502.2
-732.96 -97.99 1511.8
-737.15 -99.08 1528.7
-724.00 -97.84 1509.5
-720.81 -97.94 1511.0
-723.60 -98.85 1525.2
-705.46 -96.90 1495.1
-690.41 -95.36 1471.3
-687.70 -95.51 1473.6
-684.55 -95.61 1475.1
-683.49 -96.00 1481.1
-671.99 -94.91 1464.4
-665.12 -94.48 1457.6
-670.23 -95.75 1477.2
-663.35 -95.31 1470.5
-658.54 -95.17 1468.3
-651.30 -94.67 1460.6
-634.79 -92.81 1431.8
-642.55 -94.49 1457.9
-657.80 -97.31 1501.3
-639.78 -95.21 1468.9
-615.95 -92.21 1422.6
-606.92 -91.40 1410.2
-588.91 -89.23 1376.7
-583.54 -88.95 1372.4
-592.18 -90.83 1401.3
-588.32 -90.79 1400.8
-571.38 -88.72 1368.9
-558.03 -87.19 1345.2
-559.61 -87.99 1357.5
-567.57 -89.81 1385.6
-570.13 -90.79 1400.7
-553.54 -88.71 1368.6
-538.57 -86.87 1340.2
-544.09 -88.33 1362.7
-543.98 -88.89 1371.4
-531.39 -87.40 1348.4
-528.72 -87.54 1350.6
-532.55 -88.76 1369.4
-529.46 -88.84 1370.6
-526.01 -88.85 1370.9
-526.10 -89.47 1380.4
-514.49 -88.10 1359.2
-509.29 -87.81 1354.8
-514.59 -89.34 1378.4
-512.84 -89.66 1383.3
-505.19 -88.94 1372.3
-492.46 -87.32 1347.2
-489.37 -87.39 1348.3
-492.71 -88.62 1367.2
-483.85 -87.65 1352.4
-474.72 -86.63 1336.6
-476.62 -87.61 1351.8
-483.06 -89.46 1380.2
-475.94 -88.79 1370.0
-462.02 -86.85 1339.9
-462.79 -87.65 1352.3
-460.61 -87.90 1356.2
-445.66 -85.70 1322.3
-456.19 -88.41 1364.0
-479.41 -93.63 1444.7
-472.91 -93.09 1436.3
-458.70 -91.01 1404.2
-464.02 -92.80 1431.8
-469.82 -94.72 1461.4
-466.08 -94.73 1461.6
-459.92 -94.25 1454.1
-450.52 -93.08 1436.1
-445.05 -92.72 1430.5
-445.78 -93.65 1444.9
-444.98 -94.28 1454.5
-453.12 -96.82 1493.8
-464.22 -100.05 1543.6
-456.84 -99.31 1532.3
-452.62 -99.26 1531.4
-447.56 -99.02 1527.7
-445.02 -99.34 1532.6
-464.54 -104.63 1614.2
-488.32 -110.98 1712.3
-498.05 -114.23 1762.4
-493.81 -114.31 1763.6
-478.63 -111.83 1725.4
-465.48 -109.78 1693.8
-474.49 -112.97 1743.0
-478.60 -115.05 1775.0
-473.53 -114.93 1773.3
-480.71 -117.82 1817.8
-479.34 -118.65 1830.6
-470.63 -117.66 1815.3
-431.23 -108.90 1680.1
-393.72 -100.44 1549.6
-404.06 -104.14 1606.7
-403.75 -105.14 1622.2
-393.34 -103.51 1597.0
-404.08 -107.47 1658.1
-410.08 -110.24 1700.8
-410.31 -111.50 1720.2
-424.42 -116.60 1798.9
-438.14 -121.70 1877.7
-418.26 -117.49 1812.7
-388.26 -110.30 1701.8
-383.18 -110.11 1698.8
-397.01 -115.41 1780.6
-389.82 -114.65 1768.9
-361.87 -107.70 1661.6
-357.96 -107.82 1663.5
-364.63 -111.17 1715.1
-352.58 -108.82 1678.9
-359.55 -112.36 1733.5
-370.46 -117.23 1808.7
-339.64 -108.86 1679.5
-333.38 -109.67 1692.0
-364.60 -123.18 1900.4
-974.63 -121.83 1807.3
-1003.56 -126.05 1870.0
-1019.07 -128.62 1908.1
-986.16 -125.07 1855.5
-995.00 -126.81 1881.3
-972.58 -124.57 1848.0
-888.71 -114.39 1697.0
-841.88 -108.90 1615.6
-876.72 -113.97 1690.8
-898.88 -117.44 1742.3
-875.25 -114.93 1705.0
-849.95 -112.18 1664.1
-831.60 -110.31 1636.5
-839.02 -111.87 1659.6
-831.55 -111.45 1653.3
-804.90 -108.43 1608.6
-793.55 -107.46 1594.2
-784.47 -106.79 1584.2
-774.54 -105.99 1572.4
-761.15 -104.71 1553.4
-744.34 -102.94 1527.1
-730.25 -101.53 1506.2
-722.31 -100.97 1497.9
-726.49 -102.10 1514.7
-740.48 -104.63 1552.2
-721.36 -102.49 1520.4
-681.93 -97.42 1445.2
-678.86 -97.52 1446.7
-687.18 -99.26 1472.5
-685.30 -99.54 1476.7
-685.07 -100.07 1484.5
-674.39 -99.06 1469.6
-667.51 -98.61 1462.9
-669.72 -99.50 1476.1
-660.39 -98.68 1463.9
-654.37 -98.34 1459.0
-646.33 -97.70 1449.4
-630.65 -95.89 1422.5
-639.24 -97.77 1450.4
-648.90 -99.83 1481.0
-626.14 -96.90 1437.6
-598.41 -93.17 1382.1
-586.32 -91.83 1362.4
-577.05 -90.93 1348.9
-580.33 -92.00 1364.9
-587.04 -93.64 1389.1
-580.50 -93.17 1382.2
-569.76 -92.01 1365.0
-562.92 -91.47 1357.0
-570.18 -93.24 1383.2
-583.00 -95.94 1423.2
-574.94 -95.21 1412.5
-548.59 -91.43 1356.4
-532.91 -89.39 1326.1
-537.35 -90.72 1345.9
-540.95 -91.93 1363.8
-532.77 -91.13 1352.0
-527.91 -90.90 1348.5
-529.58 -91.79 1361.8
-524.71 -91.56 1358.3
-519.85 -91.32 1354.8
-524.60 -92.79 1376.5
-517.95 -92.24 1368.3
-507.46 -90.99 1349.9
-507.88 -91.70 1360.4
-492.98 -89.63 1329.7
-472.71 -86.55 1284.0
-477.65 -88.08 1306.6
-491.68 -91.31 1354.6
-489.25 -91.51 1357.6
-475.04 -89.50 1327.7
-474.65 -90.08 1336.4
-485.51 -92.82 1377.0
-484.64 -93.34 1384.7
-469.97 -91.19 1352.8
-460.00 -89.93 1334.1
-464.98 -91.59 1358.7
-466.64 -92.62 1374.0
-455.79 -91.16 1352.3
-462.77 -93.27 1383.7
-480.59 -97.62 1448.2
-478.14 -97.89 1452.2
-468.23 -96.62 1433.4
-465.49 -96.82 1436.4
-463.03 -97.09 1440.3
-458.73 -96.97 1438.5
-451.42 -96.21 1427.2
-452.54 -97.24 1442.6
-458.32 -99.30 1473.2
-450.71 -98.47 1460.9
-439.95 -96.94 1438.1
-445.51 -99.00 1468.7
-453.81 -101.71 1509.0
-446.79 -101.01 1498.6
-443.50 -101.15 1500.6
-450.86 -103.74 1539.0
-461.09 -107.04 1587.9
-469.99 -110.09 1633.2
-481.40 -113.78 1688.0
-489.56 -116.77 1732.4
-483.51 -116.40 1726.8
-496.16 -120.56 1788.5
-511.94 -125.57 1862.9
-488.84 -121.04 1795.7
-461.37 -115.34 1711.1
-469.33 -118.47 1757.6
-490.33 -124.99 1854.2
-480.78 -123.76 1836.1
-463.04 -120.39 1786.0
-469.62 -123.33 1829.7
-476.22 -126.34 1874.3
-463.86 -124.33 1844.5
-434.29 -117.62 1744.9
-415.95 -113.84 1688.8
-421.03 -116.45 1727.6
-422.88 -118.22 1753.9
-418.58 -118.29 1754.9
-429.39 -122.68 1820.0
-436.02 -125.96 1868.7
-432.32 -126.30 1873.6
-421.27 -124.47 1846.5
-409.47 -122.37 1815.4
-413.24 -124.93 1853.4
-416.17 -127.30 1888.5
-398.76 -123.42 1831.0
-381.62 -119.55 1773.5
-374.94 -118.88 1763.7
-356.00 -114.27 1695.3
-355.03 -115.39 1711.8
-391.42 -128.82 1911.1
-346.92 -117.14 1737.8
-353.78 -121.03 1795.5
-368.91 -127.89 1897.2
-971.65 -126.13 1801.8
-984.54 -128.42 1834.6
-1055.60 -138.36 1976.5
-1014.46 -134.27 1918.1
-937.59 -124.70 1781.5
-897.84 -120.01 1714.4
-882.81 -118.59 1694.1
-869.24 -117.35 1676.4
-847.50 -114.99 1642.7
-847.32 -115.54 1650.6
-842.11 -115.42 1648.8
-819.72 -112.92 1613.2
-824.04 -114.10 1630.0
-828.74 -115.34 1647.7
-813.71 -113.84 1626.2
-796.10 -111.95 1599.3
-781.70 -110.50 1578.6
-781.49 -111.05 1586.5
-777.29 -111.04 1586.3
-759.54 -109.08 1558.3
-745.38 -107.62 1537.5
-732.18 -106.28 1518.3
-733.72 -107.08 1529.8
-742.95 -109.02 1557.4
-718.26 -105.97 1513.9
-686.52 -101.85 1454.9
-689.79 -102.90 1469.9
-695.10 -104.26 1489.5
-690.24 -104.11 1487.3
-695.00 -105.42 1506.0
-688.03 -104.95 1499.3
-671.55 -103.02 1471.7
-664.68 -102.55 1465.0
-655.77 -101.76 1453.7
-650.59 -101.54 1450.5
-647.86 -101.70 1452.8
-637.43 -100.65 1437.8
-630.29 -100.10 1430.1
-625.97 -100.01 1428.7
-622.06 -99.97 1428.2
-613.00 -99.11 1415.8
-601.61 -97.85 1397.9
-593.84 -97.17 1388.2
-592.35 -97.52 1393.2
-594.72 -98.51 1407.3
-589.69 -98.28 1404.0
-580.44 -97.34 1390.6
-567.42 -95.75 1367.9
-567.81 -96.42 1377.4
-572.32 -97.80 1397.2
-556.42 -95.69 1367.0
-545.14 -94.35 1347.9
-542.88 -94.57 1350.9
-542.44 -95.10 1358.6
-541.24 -95.51 1364.5
-537.45 -95.47 1363.8
-536.93 -96.01 1371.5
-535.64 -96.42 1377.4
-526.78 -95.46 1363.7
-515.12 -93.97 1342.5
-512.44 -94.12 1344.6
-515.75 -95.38 1362.5
-514.05 -95.72 1367.4
-505.36 -94.75 1353.6
-482.15 -91.04 1300.5
-473.67 -90.06 1286.6
-490.25 -93.88 1341.1
-492.97 -95.07 1358.2
-479.03 -93.05 1329.3
-473.95 -92.73 1324.7
-482.59 -95.11 1358.7
-493.06 -97.89 1398.4
-491.48 -98.30 1404.2
-478.74 -96.46 1378.0
-470.34 -95.48 1364.0
-474.60 -97.08 1386.8
-475.23 -97.95 1399.3
-465.28 -96.63 1380.5
-472.82 -98.96 1413.7
-479.26 -101.09 1444.2
-464.65 -98.78 1411.2
-460.72 -98.73 1410.4
-464.49 -100.33 1433.3
-462.04 -100.60 1437.2
-457.74 -100.48 1435.4
-449.25 -99.42 1420.3
-448.88 -100.16 1430.9
-459.43 -103.37 1476.7
-458.29 -103.98 1485.4
-454.47 -103.99 1485.6
-466.58 -107.67 1538.2
-468.10 -108.95 1556.5
-455.27 -106.89 1527.0
-458.70 -108.64 1552.0
-472.95 -113.00 1614.4
-471.87 -113.75 1625.1
-467.70 -113.77 1625.2
-469.83 -115.32 1647.4
-468.58 -116.07 1658.2
-474.55 -118.64 1694.8
-496.87 -125.38 1791.1
-512.65 -130.58 1865.4
-490.33 -126.08 1801.2
-471.69 -122.46 1749.4
-488.30 -128.00 1828.6
-486.93 -128.89 1841.3
-455.42 -121.75 1739.2
-431.17 -116.42 1663.1
-431.34 -117.64 1680.5
-442.73 -121.98 1742.5
-437.02 -121.64 1737.8
-425.54 -119.68 1709.8
-422.80 -120.16 1716.6
-421.19 -120.98 1728.3
-415.56 -120.65 1723.5
-415.96 -122.07 1743.9
-430.23 -127.65 1823.6
-424.16 -127.25 1817.8
-407.13 -123.51 1764.4
-418.09 -128.28 1832.5
-431.79 -134.00 1914.3
-420.33 -131.96 1885.2
-409.44 -130.06 1858.0
-386.78 -130.54 1864.8
-1038.85 -137.86 1899.0
-1046.69 -141.58 1950.4
-1018.78 -138.48 1907.6
-1046.30 -142.91 1968.7
-1002.19 -137.55 1894.9
-968.13 -133.53 1839.5
-960.68 -133.16 1834.4
-920.96 -128.29 1767.3
-883.36 -123.67 1703.6
-880.78 -123.93 1707.2
-896.42 -126.77 1746.3
-837.90 -119.09 1640.6
-768.52 -109.79 1512.4
-789.71 -113.39 1562.1
-810.69 -117.01 1611.8
-814.04 -118.10 1626.9
-814.22 -118.74 1635.7
-791.32 -116.01 1598.0
-784.46 -115.60 1592.5
-789.03 -116.89 1610.3
-780.41 -116.23 1601.1
-743.96 -111.40 1534.5
-711.26 -107.07 1475.0
-716.35 -108.42 1493.5
-729.95 -111.08 1530.2
-725.85 -111.06 1529.9
-713.67 -109.79 1512.5
-709.60 -109.77 1512.2
-706.81 -109.95 1514.6
-688.45 -107.69 1483.5
-679.43 -106.88 1472.3
-680.02 -107.57 1481.9
-670.62 -106.69 1469.7
-656.33 -105.01 1446.6
-640.08 -103.00 1418.9
-635.39 -102.84 1416.6
-633.13 -103.07 1419.8
-623.18 -102.04 1405.7
-616.51 -101.54 1398.8
-617.87 -102.37 1410.2
-619.58 -103.26 1422.5
-620.43 -104.02 1433.0
-618.09 -104.26 1436.2
-606.30 -102.89 1417.3
-600.46 -102.52 1412.2
-603.95 -103.75 1429.2
-600.03 -103.71 1428.6
-593.80 -103.27 1422.6
-584.15 -102.23 1408.2
-571.14 -100.58 1385.5
-562.02 -99.60 1372.0
-553.32 -98.68 1359.4
-548.05 -98.37 1355.1
-541.67 -97.85 1347.9
-537.18 -97.67 1345.4
-554.40 -101.46 1397.6
-568.45 -104.71 1442.5
-549.93 -101.97 1404.7
-530.86 -99.09 1365.1
-531.01 -99.79 1374.6
-526.48 -99.60 1372.1
-514.84 -98.07 1350.9
-509.66 -97.74 1346.5
-505.19 -97.55 1343.9
-493.76 -96.01 1322.6
-483.81 -94.73 1305.0
-488.76 -96.37 1327.6
-498.05 -98.90 1362.5
-493.57 -98.71 1359.8
-489.77 -98.66 1359.1
-494.71 -100.38 1382.7
-480.51 -98.21 1352.8
-468.10 -96.37 1327.6
-477.56 -99.05 1364.5
-476.69 -99.61 1372.1
-465.38 -97.98 1349.7
-467.10 -99.08 1364.9
-473.23 -101.15 1393.4
-469.66 -101.16 1393.5
-466.41 -101.24 1394.6
-461.90 -101.04 1391.9
-458.02 -100.98 1391.1
-464.98 -103.33 1423.4
-469.33 -105.13 1448.2
-467.76 -105.62 1455.0
-467.06 -106.32 1464.7
-461.20 -105.85 1458.1
-456.57 -105.65 1455.4
-463.80 -108.22 1490.8
-459.09 -108.02 1488.0
-451.18 -107.06 1474.8
-465.35 -111.37 1534.1
-468.59 -113.11 1558.1
-464.31 -113.05 1557.3
-475.59 -116.81 1609.1
-485.77 -120.37 1658.1
-480.97 -120.24 1656.4
-473.69 -119.49 1646.0
-471.66 -120.06 1653.9
-454.94 -116.87 1609.9
-444.88 -115.34 1588.9
-481.59 -126.02 1736.0
-511.50 -135.11 1861.3
-493.91 -131.71 1814.4
-480.70 -129.42 1782.8
-480.50 -130.62 1799.4
-462.37 -126.92 1748.4
-453.32 -125.67 1731.2
-451.62 -126.45 1742.0
-457.80 -129.48 1783.6
-476.55 -136.16 1875.6
-476.11 -137.43 1893.2
-470.76 -137.31 1891.5
-469.48 -138.37 1906.2
-466.00 -138.81 1912.1
-448.45 -135.02 1859.9
-439.26 -133.69 1841.6
-466.02 -144.98 1997.2
-430.60 -135.47 1866.2
-423.56 -134.77 1856.5
-429.08 -138.09 1902.3
-406.36 -132.30 1822.6
-377.39 -124.32 1712.5
-378.67 -126.22 1738.8
-379.80 -136.34 1878.1
-378.05 -137.47 1893.7
-954.70 -134.40 1787.6
-921.11 -130.30 1733.1
-961.92 -136.74 1818.8
-1002.83 -143.26 1905.5
-972.11 -139.56 1856.2
-911.60 -131.52 1749.3
-904.35 -131.13 1744.1
-926.40 -135.00 1795.6
-923.17 -135.21 1798.4
-848.67 -124.93 1661.6
-770.66 -114.03 1516.6
-782.83 -116.42 1548.5
-826.25 -123.51 1642.8
-851.42 -127.93 1701.6
-837.66 -126.52 1682.8
-801.83 -121.74 1619.3
-787.43 -120.19 1598.5
-785.84 -120.58 1603.8
-776.79 -119.82 1593.7
-739.06 -114.61 1524.4
-707.68 -110.34 1467.5
-714.94 -112.07 1490.6
-709.65 -111.85 1487.6
-688.11 -109.04 1450.3
-706.32 -112.55 1496.9
-731.11 -117.14 1558.0
-713.02 -114.88 1527.9
-679.10 -110.02 1463.4
-665.52 -108.43 1442.1
-662.43 -108.53 1443.6
-663.48 -109.32 1454.0
-659.52 -109.29 1453.6
-643.67 -107.28 1426.9
-639.78 -107.25 1426.4
-635.47 -107.14 1425.1
-623.49 -105.74 1406.4
-612.38 -104.47 1389.4
-610.96 -104.84 1394.4
-613.50 -105.90 1408.5
-615.18 -106.83 1420.9
-617.20 -107.82 1434.1
-609.35 -107.10 1424.4
-588.26 -104.02 1383.5
-577.45 -102.74 1366.4
-580.62 -103.94 1382.4
-581.79 -104.79 1393.8
-583.29 -105.72 1406.2
-580.18 -105.82 1407.4
-561.55 -103.07 1370.9
-543.83 -100.45 1336.1
-550.20 -102.28 1360.4
-555.35 -103.90 1382.0
-543.75 -102.39 1361.9
-554.31 -105.06 1397.4
-566.16 -108.02 1436.7
-545.84 -104.83 1394.3
-525.71 -101.64 1351.8
-523.74 -101.94 1355.8
-527.46 -103.35 1374.7
-524.35 -103.44 1375.8
-515.58 -102.41 1362.1
-507.92 -101.58 1351.1
-503.45 -101.39 1348.5
-500.03 -101.40 1348.7
-500.05 -102.12 1358.3
-505.16 -103.90 1381.9
-503.70 -104.34 1387.7
-503.22 -104.99 1396.4
-500.01 -105.07 1397.5
-477.09 -100.99 1343.2
-462.71 -98.67 1312.3
-469.90 -100.94 1342.6
-470.72 -101.87 1354.9
-461.40 -100.61 1338.1
-451.84 -99.27 1320.3
-447.16 -98.99 1316.6
-454.93 -101.48 1349.8
-463.49 -104.19 1385.8
-467.47 -105.91 1408.7
-473.23 -108.06 1437.2
-467.69 -107.64 1431.7
-458.18 -106.30 1413.8
-467.98 -109.45 1455.7
-478.80 -112.89 1501.5
-468.64 -111.40 1481.7
-460.37 -110.34 1467.5
-457.79 -110.63 1471.5
-442.84 -107.92 1435.4
-434.47 -106.78 1420.2
-447.32 -110.87 1474.7
-457.60 -114.40 1521.6
-460.24 -116.06 1543.7
-472.68 -120.24 1599.3
-483.72 -124.14 1651.1
-470.32 -121.78 1619.7
-454.02 -118.62 1577.7
-473.77 -124.90 1661.3
-483.07 -128.52 1709.4
-464.17 -124.64 1657.7
-490.84 -133.03 1769.4
-510.09 -139.55 1856.1
-483.08 -133.42 1774.6
-458.54 -127.86 1700.6
-448.25 -126.21 1678.6
-455.15 -129.40 1721.1
-471.18 -135.29 1799.4
-489.09 -141.84 1886.5
-491.59 -146.97 1954.8
-491.40 -148.44 1974.4
-496.11 -151.44 2014.3
-475.96 -148.42 1974.0
-449.36 -141.65 1884.0
-455.27 -145.09 1929.7
-468.20 -150.87 2006.6
-446.00 -145.33 1932.9
-432.14 -142.41 1894.1
-427.69 -142.56 1896.1
-414.32 -139.71 1858.3
-393.41 -134.22 1785.2
-379.02 -130.85 1740.4
-445.64 -163.59 2175.8
-1007.21 -145.27 1867.8
-1011.00 -146.52 1883.8
-979.46 -142.64 1833.9
-935.49 -136.90 1760.1
-972.50 -143.01 1838.8
-992.92 -146.74 1886.6
-940.02 -139.61 1794.9
-886.57 -132.32 1701.3
-889.52 -133.43 1715.5
-902.01 -135.98 1748.3
-888.85 -134.67 1731.5
-871.22 -132.67 1705.8
-845.56 -129.42 1664.0
-866.43 -133.30 1713.8
-899.05 -139.75 1796.8
-847.75 -132.46 1703.1
-804.80 -126.41 1625.3
-781.57 -123.41 1586.6
-766.40 -121.65 1564.1
-745.20 -118.92 1528.9
-757.66 -121.55 1562.8
-771.70 -124.47 1600.3
-729.07 -118.23 1520.1
-677.75 -110.50 1420.7
-676.45 -110.89 1425.8
-715.57 -117.95 1516.5
-718.28 -119.05 1530.7
-678.32 -113.05 1453.5
-661.78 -110.91 1426.0
-665.42 -112.15 1441.9
-666.90 -113.03 1453.3
-674.13 -114.91 1477.4
-680.43 -116.65 1499.7
-674.74 -116.33 1495.7
-648.24 -112.41 1445.3
-622.77 -108.62 1396.6
-617.72 -108.37 1393.4
-613.89 -108.33 1392.9
-616.07 -109.36 1406.1
-622.16 -111.10 1428.4
-607.94 -109.21 1404.1
-596.59 -107.82 1386.2
-604.93 -109.99 1414.1
-598.31 -109.45 1407.2
-575.41 -105.90 1361.6
-567.00 -105.00 1350.0
-569.78 -106.17 1365.1
-572.88 -107.41 1381.0
-575.90 -108.66 1397.1
-562.96 -106.89 1374.3
-558.03 -106.63 1370.9
-578.16 -111.18 1429.5
-570.50 -110.42 1419.7
-545.51 -106.27 1366.3
-532.88 -104.49 1343.4
-522.92 -103.21 1327.0
-531.57 -105.61 1357.8
-539.72 -107.94 1387.8
-533.35 -107.39 1380.7
-533.09 -108.06 1389.3
-526.74 -107.50 1382.1
-515.13 -105.85 1360.9
-507.13 -104.92 1349.0
-503.01 -104.79 1347.4
-505.14 -105.97 1362.5
-510.30 -107.81 1386.1
-507.47 -107.97 1388.2
-498.84 -106.90 1374.4
-491.29 -106.03 1363.3
-480.43 -104.44 1342.8
-479.34 -104.97 1349.6
-485.18 -107.03 1376.0
-489.58 -108.80 1398.8
-487.66 -109.18 1403.7
-478.23 -107.87 1386.9
-467.90 -106.34 1367.2
-459.59 -105.25 1353.2
-463.45 -106.95 1375.1
-465.62 -108.28 1392.2
-463.31 -108.59 1396.1
-462.85 -109.33 1405.7
-451.19 -107.43 1381.2
-452.87 -108.69 1397.4
-473.40 -114.53 1472.5
-475.08 -115.87 1489.8
-456.53 -112.26 1443.4
-448.65 -111.23 1430.2
-446.75 -111.69 1436.0
-438.94 -110.66 1422.7
-438.19 -111.40 1432.3
-442.02 -113.34 1457.2
-442.58 -114.46 1471.6
-453.61 -118.33 1521.4
-475.13 -125.04 1607.6
-476.62 -126.54 1626.9
-453.27 -121.41 1561.0
-434.64 -117.47 1510.3
-450.16 -122.77 1578.5
-495.18 -136.29 1752.3
-518.39 -144.00 1851.4
-487.81 -136.77 1758.5
-447.11 -126.54 1626.9
-466.23 -133.21 1712.7
-497.14 -143.40 1843.8
-471.84 -137.43 1766.9
-462.46 -136.02 1748.8
-471.60 -140.08 1801.0
-482.49 -144.75 1861.0
-501.51 -151.97 1953.9
-490.86 -150.26 1932.0
-462.07 -142.91 1837.4
-454.94 -142.17 1827.9
-454.76 -143.61 1846.4
-448.83 -143.24 1841.7
-455.77 -147.02 1890.3
-455.53 -148.54 1909.8
-445.80 -146.97 1889.6
-442.74 -147.58 1897.5
-421.48 -142.07 1826.6
-419.71 -144.73 1860.8
-425.09 -148.29 1906.6
-468.28 -167.24 2150.3
-1016.52 -151.50 1885.0
-989.61 -148.20 1844.0
-1003.27 -150.98 1878.5
-995.73 -150.57 1873.5
-1038.56 -157.82 1963.7
-1011.60 -155.25 1931.6
-944.97 -145.74 1813.4
-887.08 -137.50 1710.8
-852.47 -132.80 1652.3
-870.94 -136.36 1696.6
-880.61 -138.57 1724.2
-865.31 -136.86 1702.9
-893.74 -142.08 1767.8
-900.83 -143.95 1791.1
-849.81 -136.50 1698.4
-828.50 -133.77 1664.4
-809.54 -131.39 1634.8
-791.58 -129.15 1607.0
-781.63 -128.20 1595.2
-744.20 -122.71 1526.9
-741.43 -122.91 1529.3
-770.70 -128.45 1598.2
-741.02 -124.17 1545.0
-701.69 -118.22 1470.9
-713.53 -120.87 1503.9
-729.49 -124.25 1546.0
-709.68 -121.55 1512.3
-674.41 -116.15 1445.2
-663.35 -114.88 1429.4
-669.06 -116.52 1449.8
-673.03 -117.88 1466.6
-674.43 -118.79 1478.1
-674.96 -119.56 1487.7
-675.86 -120.41 1498.2
-657.52 -117.82 1466.0
-621.04 -111.93 1392.7
-605.09 -109.69 1364.9
-619.42 -112.95 1405.4
-637.57 -116.95 1455.2
-630.82 -116.40 1448.3
-605.46 -112.39 1398.4
-592.94 -110.73 1377.7
-600.12 -112.75 1402.9
-596.25 -112.71 1402.3
-575.31 -109.42 1361.4
-574.24 -109.89 1367.2
-584.67 -112.58 1400.7
-573.54 -111.12 1382.6
-564.01 -109.97 1368.2
-561.35 -110.14 1370.4
-565.82 -111.72 1390.1
-579.55 -115.17 1433.0
-566.31 -113.26 1409.3
-545.04 -109.72 1365.1
-534.99 -108.40 1348.7
-512.59 -104.54 1300.7
-508.94 -104.48 1300.0
-522.27 -107.94 1343.0
-521.76 -108.55 1350.7
-526.56 -110.29 1372.3
-525.58 -110.84 1379.1
-507.98 -107.86 1342.0
-494.76 -105.78 1316.1
-488.97 -105.26 1309.7
-489.80 -106.18 1321.1
-492.98 -107.62 1339.1
-488.21 -107.34 1335.5
-487.19 -107.88 1342.3
-486.13 -108.42 1349.0
-475.64 -106.85 1329.4
-474.58 -107.39 1336.2
-487.09 -111.03 1381.4
-497.40 -114.22 1421.1
-501.64 -116.05 1443.9
-498.29 -116.14 1445.1
-487.83 -114.57 1425.5
-478.43 -113.22 1408.7
-471.32 -112.39 1398.4
-462.37 -111.11 1382.5
-459.45 -111.27 1384.5
-458.71 -111.97 1393.2
-455.14 -111.98 1393.3
-464.78 -115.26 1434.2
-473.00 -118.25 1471.3
-462.87 -116.66 1451.5
-460.36 -116.98 1455.5
-469.45 -120.27 1496.5
-464.14 -119.90 1491.9
-453.55 -118.15 1470.1
-449.77 -118.16 1470.2
-450.91 -119.47 1486.5
-452.83 -121.02 1505.7
-464.92 -125.33 1559.3
-478.72 -130.18 1619.7
-471.49 -129.35 1609.4
-462.36 -127.97 1592.3
-457.99 -127.91 1591.5
-457.46 -128.92 1604.1
-483.43 -137.49 1710.7
-512.11 -147.00 1829.0
-489.05 -141.69 1762.9
-459.44 -134.36 1671.8
-492.59 -145.43 1809.5
-497.73 -149.80 1863.9
-465.68 -141.53 1761.0
-453.33 -139.14 1731.2
-466.13 -144.50 1797.9
-485.06 -151.89 1889.8
-478.74 -151.44 1884.2
-452.50 -144.61 1799.3
-462.56 -149.37 1858.5
-478.76 -156.23 1943.8
-468.57 -154.53 1922.7
-471.10 -157.03 1953.9
-466.08 -157.05 1954.1
-450.98 -153.63 1911.5
-460.78 -158.71 1974.8
-452.78 -157.71 1962.3
-431.53 -152.02 1891.5
-449.53 -162.04 2016.1
-473.29 -172.61 2147.7
-455.31 -170.06 2115.9
-452.96 -171.24 2130.7
-451.98 -172.98 2152.3
-1036.14 -160.18 1930.7
-997.47 -154.95 1867.7
-1039.56 -162.27 1956.0
-917.69 -146.83 1769.8
-877.48 -141.10 1700.8
-895.39 -144.71 1744.3
-889.99 -144.57 1742.5
-857.93 -140.07 1688.4
-851.74 -139.77 1684.8
-829.88 -136.89 1650.0
-814.86 -135.11 1628.5
-823.47 -137.24 1654.3
-815.60 -136.64 1647.1
-807.75 -136.04 1639.8
-794.23 -134.47 1620.9
-751.51 -127.92 1541.8
-718.68 -122.98 1482.4
-720.76 -124.00 1494.7
-733.13 -126.81 1528.5
-734.63 -127.76 1540.0
-713.84 -124.82 1504.6
-699.16 -122.93 1481.7
-698.97 -123.57 1489.5
-683.15 -121.45 1463.9
-668.27 -119.47 1440.0
-669.78 -120.41 1451.4
-681.23 -123.16 1484.5
-690.05 -125.46 1512.3
-668.67 -122.27 1473.8
-647.86 -119.15 1436.1
-654.14 -121.00 1458.4
-642.05 -119.45 1439.8
-623.57 -116.69 1406.6
-634.59 -119.45 1439.8
-636.66 -120.55 1453.1
-615.97 -117.33 1414.2
-608.92 -116.68 1406.4
-614.51 -118.46 1427.9
-607.07 -117.73 1419.1
-590.30 -115.18 1388.3
-573.27 -112.54 1356.5
-575.68 -113.71 1370.7
-579.95 -115.27 1389.4
-563.12 -112.62 1357.5
-549.85 -110.66 1333.9
-542.73 -109.92 1324.9
-541.66 -110.40 1330.7
-549.91 -112.80 1359.7
-559.14 -115.44 1391.4
-560.10 -116.38 1402.8
-559.53 -117.03 1410.6
-545.39 -114.82 1384.0
-518.66 -109.91 1324.9
-509.89 -108.78 1311.1
-515.19 -110.65 1333.7
-526.11 -113.75 1371.1
-527.26 -114.78 1383.5
-512.12 -112.25 1353.0
-500.28 -110.41 1330.8
-495.16 -110.04 1326.3
-489.71 -109.58 1320.9
-487.38 -109.83 1323.9
-485.72 -110.23 1328.7
-487.10 -111.34 1342.0
-488.75 -112.52 1356.2
-481.26 -111.60 1345.1
-477.50 -111.53 1344.4
-487.33 -114.67 1382.1
-497.97 -118.04 1422.8
-502.85 -120.08 1447.4
-489.75 -117.83 1420.3
-469.99 -113.94 1373.3
-469.36 -114.65 1382.0
-470.60 -115.84 1396.3
-463.86 -115.07 1387.0
-464.39 -116.10 1399.4
-471.09 -118.70 1430.8
-475.48 -120.76 1455.6
-457.01 -116.99 1410.2
-435.99 -112.51 1356.2
-446.43 -116.14 1400.0
-466.28 -122.30 1474.2
-478.61 -126.58 1525.7
-477.38 -127.30 1534.4
-470.51 -126.52 1525.1
-470.98 -127.72 1539.5
-464.43 -127.02 1531.1
-457.91 -126.32 1522.6
-466.82 -129.90 1565.7
-475.80 -133.56 1609.9
-480.93 -136.19 1641.6
-486.17 -138.91 1674.3
-482.44 -139.08 1676.4
-480.33 -139.73 1684.3
-483.88 -142.06 1712.3
-488.63 -144.78 1745.1
-501.75 -150.06 1808.7
-512.97 -154.86 1866.6
-508.20 -154.88 1866.9
-495.39 -152.43 1837.3
-499.17 -155.08 1869.3
-498.72 -156.46 1885.9
-490.86 -155.52 1874.6
-508.82 -162.82 1962.6
-509.25 -164.61 1984.1
-486.50 -158.86 1914.8
-470.89 -155.34 1872.5
-491.59 -163.86 1975.2
-505.84 -170.39 2053.8
-491.84 -167.44 2018.2
-474.98 -163.43 1970.0
-447.02 -155.49 1874.2
-443.79 -156.06 1881.1
-465.89 -165.65 1996.7
-465.68 -167.44 2018.2
-452.29 -164.47 1982.4
-482.62 -179.58 2164.6
-478.34 -180.08 2170.6
-456.27 -175.91 2120.3
-448.56 -179.42 2162.7
-1068.43 -168.70 1971.8
-1047.28 -166.96 1951.5
-1022.67 -163.83 1914.8
-983.82 -161.52 1887.9
-914.32 -150.86 1763.3
-871.84 -144.58 1689.9
-850.16 -141.69 1656.2
-813.19 -136.22 1592.2
-813.07 -136.89 1600.1
-834.05 -141.15 1649.8
-828.84 -140.99 1647.9
-829.44 -141.82 1657.6
-845.54 -145.33 1698.6
-843.33 -145.71 1703.1
-797.03 -138.43 1618.0
-749.34 -130.84 1529.3
-731.72 -128.44 1501.2
-721.17 -127.26 1487.5
-719.77 -127.70 1492.6
-729.99 -130.21 1522.0
-743.94 -133.42 1559.5
-735.08 -132.56 1549.4
-711.80 -129.06 1508.5
-703.51 -128.26 1499.2
-709.59 -130.09 1520.5
-715.99 -132.00 1542.8
-683.03 -126.63 1480.1
-663.23 -123.65 1445.3
-678.33 -127.19 1486.6
-662.37 -124.90 1459.9
-634.62 -120.36 1406.8
-635.25 -121.18 1416.3
-648.84 -124.49 1455.0
-654.17 -126.24 1475.6
-637.69 -123.79 1446.9
-614.54 -120.00 1402.6
-599.54 -117.77 1376.5
-599.70 -118.50 1385.1
-616.37 -122.53 1432.2
-619.11 -123.82 1447.3
-595.26 -119.78 1400.0
-571.61 -115.72 1352.6
-559.75 -114.02 1332.7
-549.51 -112.63 1316.5
-542.39 -111.87 1307.6
-536.83 -111.42 1302.3
-543.01 -113.41 1325.6
-554.34 -116.52 1361.9
-547.94 -115.91 1354.8
-543.43 -115.70 1352.3
-551.86 -118.26 1382.2
-558.32 -120.42 1407.5
-562.10 -122.04 1426.4
-552.35 -120.71 1410.9
-534.00 -117.48 1373.1
-530.18 -117.42 1372.5
-536.01 -119.52 1396.9
-532.13 -119.46 1396.3
-518.73 -117.25 1370.4
-507.55 -115.51 1350.1
-505.17 -115.77 1353.1
-502.09 -115.87 1354.3
-495.55 -115.16 1346.1
-489.73 -114.62 1339.7
-487.68 -114.95 1343.6
-486.63 -115.53 1350.4
-485.87 -116.19 1358.0
-489.08 -117.81 1377.0
-492.20 -119.43 1396.0
-495.56 -121.14 1415.9
-504.72 -124.30 1452.8
-496.15 -123.11 1438.9
-473.45 -118.36 1383.4
-470.23 -118.45 1384.5
-474.01 -120.33 1406.4
-470.41 -120.34 1406.5
-464.61 -119.78 1400.1
-465.39 -120.93 1413.4
-475.70 -124.59 1456.2
-463.98 -122.49 1431.7
-438.35 -116.66 1363.5
-443.92 -119.10 1392.1
-458.67 -124.07 1450.1
-465.69 -127.01 1484.5
-474.32 -130.44 1524.6
-478.94 -132.81 1552.4
-476.13 -133.16 1556.4
-465.49 -131.29 1534.6
-461.56 -131.30 1534.7
-472.99 -135.73 1586.4
-490.40 -141.96 1659.2
-506.05 -147.78 1727.3
-495.25 -145.92 1705.6
-471.59 -140.20 1638.7
-471.49 -141.45 1653.3
-478.09 -144.74 1691.8
-490.95 -150.01 1753.4
-510.44 -157.43 1840.0
-502.83 -156.54 1829.7
-478.00 -150.23 1755.9
-480.24 -152.38 1781.1
-498.56 -159.73 1867.0
-521.29 -168.65 1971.3
-516.33 -172.11 2011.7
-505.05 -170.07 1987.8
-503.85 -171.41 2003.5
-511.23 -175.74 2054.1
-482.30 -169.32 1979.1
-447.55 -158.81 1856.2
-447.39 -160.48 1875.7
-474.82 -172.19 2012.6
-495.24 -181.59 2122.4
-494.27 -183.27 2142.1
-477.12 -180.98 2115.3
-474.81 -184.34 2154.6
-436.69 -182.41 2132.1
-1071.57 -174.32 1977.6
-1055.11 -174.99 1985.2
-997.95 -166.32 1886.9
-999.69 -167.44 1899.5
-950.93 -160.85 1824.8
-921.96 -156.73 1778.1
-883.57 -150.96 1712.6
-866.85 -148.85 1688.7
-826.65 -142.67 1618.5
-824.66 -143.05 1622.9
-833.90 -145.40 1649.5
-816.60 -143.12 1623.6
-804.75 -141.77 1608.3
-809.41 -143.33 1626.0
-817.96 -145.61 1651.8
-785.44 -140.55 1594.5
-747.89 -134.54 1526.3
-737.70 -133.41 1513.5
-728.86 -132.52 1503.4
-728.73 -133.21 1511.2
-746.23 -137.15 1555.9
-767.84 -141.88 1609.6
-765.71 -142.26 1613.9
-747.82 -139.70 1584.9
-730.48 -137.22 1556.7
-727.16 -137.35 1558.2
-740.62 -140.68 1595.9
-712.56 -136.11 1544.1
-680.15 -130.65 1482.2
-686.48 -132.62 1504.5
-677.07 -131.54 1492.3
-656.23 -128.23 1454.7
-653.90 -128.51 1457.9
-664.95 -131.44 1491.2
-661.72 -131.57 1492.6
-636.77 -127.35 1444.8
-616.02 -123.93 1406.0
-605.79 -122.60 1390.9
-591.67 -120.46 1366.5
-594.98 -121.86 1382.5
-606.45 -124.97 1417.7
-590.86 -122.49 1389.6
-572.28 -119.37 1354.2
-565.43 -118.67 1346.3
-567.45 -119.83 1359.5
-570.93 -121.32 1376.4
-553.06 -118.27 1341.7
-547.06 -117.72 1335.5
-549.35 -118.97 1349.6
-535.50 -116.71 1324.0
-536.63 -117.71 1335.4
-550.65 -121.57 1379.2
-549.02 -122.01 1384.1
-544.09 -121.70 1380.7
-535.17 -120.50 1367.0
-517.64 -117.33 1331.1
-512.48 -116.94 1326.7
-517.34 -118.85 1348.3
-522.09 -120.76 1369.9
-515.81 -120.12 1362.7
-512.01 -120.06 1362.0
-515.88 -121.81 1381.8
-514.81 -122.40 1388.6
-509.57 -122.01 1384.1
-497.51 -119.97 1361.0
-488.95 -118.74 1347.1
-491.26 -120.16 1363.2
-493.50 -121.59 1379.3
-494.66 -122.76 1392.7
-495.42 -123.86 1405.1
-489.54 -123.29 1398.7
-488.59 -123.97 1406.4
-495.08 -126.56 1435.8
-487.55 -125.58 1424.7
-480.07 -124.60 1413.5
-480.28 -125.61 1425.0
-470.32 -123.96 1406.3
-457.30 -121.47 1378.0
-460.93 -123.40 1399.9
-474.05 -127.92 1451.2
-470.65 -128.02 1452.3
-454.42 -124.60 1413.5
-450.49 -124.53 1412.7
-454.37 -126.63 1436.5
-460.23 -129.32 1467.1
-468.01 -132.60 1504.3
-470.91 -134.55 1526.4
-466.12 -134.31 1523.6
-461.64 -134.15 1521.9
-464.90 -136.27 1545.9
-468.06 -138.38 1569.9
-476.46 -142.10 1612.1
-486.89 -146.50 1662.0
-471.25 -143.06 1622.9
-460.75 -141.13 1601.1
-473.30 -146.29 1659.6
-472.30 -147.32 1671.3
-476.88 -150.13 1703.1
-502.34 -159.62 1810.8
-500.35 -160.49 1820.7
-484.70 -156.95 1780.5
-498.82 -163.07 1850.0
-493.82 -163.01 1849.3
-488.83 -162.94 1848.5
-504.54 -169.84 1926.8
-503.86 -171.31 1943.5
-494.42 -169.80 1926.3
-491.69 -170.59 1935.2
-500.83 -175.55 1991.5
-519.79 -184.09 2088.4
-494.00 -178.68 2027.0
-476.18 -174.09 1975.0
-494.17 -184.63 2094.6
-441.79 -190.14 2157.0
-439.58 -191.61 2173.7
-1048.37 -178.99 1972.6
-933.67 -161.77 1782.8
-920.82 -160.34 1767.0
-927.24 -163.91 1806.3
-858.23 -152.48 1680.4
-816.39 -145.78 1606.6
-791.93 -142.14 1566.5
-812.42 -146.57 1615.3
-833.15 -151.09 1665.1
-816.36 -148.82 1640.0
-808.08 -148.08 1631.9
-792.34 -145.96 1608.5
-767.92 -142.21 1567.2
-762.01 -141.86 1563.4
-756.99 -141.68 1561.4
-764.09 -143.78 1584.5
-792.21 -149.88 1651.7
-805.46 -153.21 1688.5
-793.34 -151.73 1672.1
-745.98 -143.46 1581.0
-702.82 -135.90 1497.7
-691.62 -134.48 1482.0
-695.59 -136.01 1498.9
-701.57 -137.95 1520.3
-702.05 -138.82 1529.9
-694.21 -138.05 1521.4
-672.00 -134.40 1481.1
-653.64 -131.48 1449.0
-654.59 -132.43 1459.5
-646.97 -131.65 1450.8
-626.45 -128.22 1413.1
-633.83 -130.50 1438.1
-645.90 -133.77 1474.2
-633.13 -131.90 1453.6
-616.89 -129.29 1424.8
-600.77 -126.67 1395.9
-594.97 -126.21 1390.8
-601.27 -128.32 1414.1
-604.36 -129.77 1430.1
-591.17 -127.72 1407.6
-586.91 -127.59 1406.1
-591.82 -129.46 1426.7
-574.60 -126.48 1393.9
-560.55 -124.17 1368.4
-555.25 -123.78 1364.1
-547.73 -122.89 1354.3
-555.85 -125.51 1383.2
-553.86 -125.88 1387.2
-536.79 -122.80 1353.3
-530.83 -122.23 1347.0
-521.26 -120.82 1331.5
-506.70 -118.23 1303.0
-504.48 -118.50 1305.9
-514.02 -121.56 1339.6
-523.05 -124.54 1372.4
-514.65 -123.37 1359.6
-508.05 -122.63 1351.5
-514.38 -125.02 1377.8
-515.05 -126.06 1389.2
-516.35 -127.27 1402.6
-510.40 -126.70 1396.2
-492.93 -123.23 1358.1
-485.42 -122.23 1347.0
-489.70 -124.20 1368.7
-492.55 -125.84 1386.8
-493.66 -127.05 1400.1
-488.78 -126.72 1396.5
-476.07 -124.35 1370.3
-470.62 -123.85 1364.8
-478.74 -126.94 1398.9
-487.66 -130.29 1435.9
-478.59 -128.85 1420.0
-458.53 -124.41 1371.0
-445.60 -121.84 1342.8
-449.00 -123.74 1363.7
-463.44 -128.73 1418.7
-460.11 -128.83 1419.8
-454.63 -128.32 1414.2
-461.60 -131.35 1447.5
-460.89 -132.22 1457.1
-461.03 -133.35 1469.6
-469.09 -136.82 1507.8
-471.98 -138.82 1529.8
-460.20 -136.50 1504.3
-448.24 -134.09 1477.7
-449.89 -135.74 1495.9
-451.45 -137.40 1514.2
-454.33 -139.49 1537.2
-459.06 -142.19 1567.0
-464.20 -145.06 1598.7
-476.08 -150.11 1654.3
-481.95 -153.35 1689.9
-473.55 -152.06 1675.7
-467.11 -151.38 1668.2
-481.46 -157.49 1735.6
-500.25 -165.18 1820.3
-508.41 -169.47 1867.6
-514.53 -173.16 1908.3
-500.91 -170.21 1875.8
-493.31 -169.27 1865.5
-506.20 -175.41 1933.1
-524.25 -183.49 2022.1
-532.55 -190.20 2096.1
-514.62 -187.62 2067.7
-476.69 -175.62 1935.4
-492.71 -183.46 2021.8
-518.11 -194.99 2148.8
-503.90 -193.81 2135.8
-488.91 -190.13 2095.3
-427.24 -194.20 2140.1
-1050.05 -184.40 1975.7
-1026.24 -181.99 1949.9
-938.15 -168.03 1800.3
-932.63 -167.87 1798.6
-902.03 -164.01 1757.2
-863.96 -157.88 1691.6
-851.44 -156.39 1675.6
-795.38 -146.84 1573.3
-790.77 -146.74 1572.2
-854.84 -159.45 1708.4
-873.49 -163.78 1754.8
-830.04 -156.45 1676.2
-783.82 -148.51 1591.2
-765.14 -145.74 1561.5
-766.23 -146.73 1572.1
-764.24 -147.13 1576.3
-776.50 -150.29 1610.2
-786.46 -153.04 1639.7
-781.28 -152.86 1637.8
-763.71 -150.24 1609.7
-710.97 -140.63 1506.8
-691.68 -137.57 1474.0
-702.44 -140.49 1505.2
-690.42 -138.86 1487.7
-682.23 -137.98 1478.3
-685.71 -139.47 1494.3
-682.08 -139.52 1494.8
-671.87 -138.21 1480.8
-664.99 -137.58 1474.1
-653.65 -136.02 1457.3
-635.07 -132.92 1424.2
-615.83 -129.65 1389.1
-624.87 -132.32 1417.8
-641.77 -136.71 1464.7
-632.21 -135.47 1451.5
-619.14 -133.47 1430.0
-606.56 -131.54 1409.4
-598.77 -130.64 1399.7
-603.10 -132.39 1418.4
-596.10 -131.65 1410.6
-573.31 -127.40 1365.0
-577.20 -129.06 1382.8
-589.03 -132.53 1420.0
-590.81 -133.77 1433.2
-594.43 -135.44 1451.1
-581.06 -133.24 1427.5
-565.92 -130.60 1399.3
-561.68 -130.45 1397.7
-547.84 -128.07 1372.1
-532.27 -125.24 1341.9
-529.26 -125.35 1343.0
-530.23 -126.41 1354.4
-525.74 -126.18 1351.9
-518.02 -125.16 1341.0
-521.77 -126.92 1359.8
-524.01 -128.33 1374.9
-508.90 -125.48 1344.4
-495.67 -123.06 1318.5
-495.11 -123.78 1326.2
-501.78 -126.32 1353.5
-508.67 -128.96 1381.7
-513.38 -131.07 1404.4
-506.76 -130.31 1396.2
-491.06 -127.18 1362.6
-486.58 -126.93 1360.0
-487.45 -128.09 1372.4
-486.93 -128.89 1381.0
-488.35 -130.23 1395.3
-481.20 -129.28 1385.1
-466.94 -126.39 1354.2
-467.67 -127.55 1366.6
-480.19 -131.96 1413.9
-474.99 -131.53 1409.3
-461.91 -128.90 1381.1
-456.17 -128.30 1374.6
-450.15 -127.60 1367.2
-454.68 -129.91 1391.9
-462.16 -133.10 1426.1
-466.43 -135.41 1450.9
-472.09 -138.17 1480.4
-470.10 -138.72 1486.3
-457.65 -136.16 1458.9
-451.53 -135.46 1451.4
-457.79 -138.49 1483.8
-450.19 -137.35 1471.6
-451.90 -139.05 1489.8
-467.57 -145.11 1554.7
-461.02 -144.32 1546.3
-455.36 -143.80 1540.7
-453.08 -144.34 1546.5
-449.66 -144.53 1548.6
-465.78 -151.06 1618.6
-476.65 -155.99 1671.4
-477.51 -157.71 1689.8
-481.24 -160.41 1718.7
-483.75 -162.76 1743.8
-487.47 -165.55 1773.8
-489.20 -167.73 1797.1
-488.23 -169.00 1810.7
-502.09 -175.49 1880.2
-522.48 -184.41 1975.8
-521.47 -185.87 1991.5
-524.38 -188.78 2022.6
-524.41 -190.70 2043.2
-504.97 -185.50 1987.5
-520.77 -193.27 2070.8
-510.66 -191.50 2051.8
-486.59 -184.39 1975.6
-517.29 -200.24 2145.5
-486.38 -190.32 2039.2
-509.04 -201.38 2157.6
-486.97 -203.85 2184.1
-462.60 -198.26 2124.2
-459.64 -199.36 2136.0
-456.61 -202.94 2174.3
-1050.32 -189.57 1976.2
-928.76 -172.68 1800.2
-920.97 -172.10 1794.1
-920.45 -172.88 1802.2
-903.64 -170.58 1778.3
-841.97 -159.76 1665.4
-793.30 -151.30 1577.3
-822.13 -157.61 1643.0
-844.46 -162.74 1696.5
-798.04 -154.59 1611.6
-778.38 -151.58 1580.2
-789.98 -154.65 1612.2
-777.87 -153.09 1595.9
-762.78 -150.92 1573.3
-756.44 -150.47 1568.7
-750.54 -150.11 1564.8
-744.66 -149.74 1561.0
