ply
format ascii 1.0
element vertex 2267
property float x
property float y
property float z
end_header
-626.38 38.41 1139.6
-609.71 37.57 1114.6
-568.29 35.18 1043.8
-513.82 31.96 948.3
-513.81 32.11 952.8
-501.02 31.47 933.6
-484.54 30.58 907.3
-510.39 32.37 960.3
-559.85 35.68 1058.5
-593.55 38.01 1127.8
-603.31 38.83 1152.0
-587.56 38.00 1127.5
-544.31 35.38 1049.7
-535.29 34.97 1037.5
-554.61 36.41 1080.4
-568.31 37.50 1112.7
-563.30 37.36 1108.5
-548.38 36.56 1084.7
-522.33 35.00 1038.5
-497.37 33.50 994.0
-472.14 31.97 948.5
-467.51 31.82 944.1
-515.89 35.30 1047.3
-556.80 38.30 1136.3
-560.99 38.79 1151.0
-555.53 38.62 1145.9
-542.26 37.90 1124.5
-545.51 38.33 1137.4
-541.39 38.25 1134.9
-513.71 36.49 1082.8
-508.43 36.32 1077.5
-543.51 39.04 1158.2
-536.81 38.77 1150.3
-451.89 32.82 973.8
-461.90 33.92 1006.6
-510.78 37.73 1119.4
-533.56 39.64 1176.0
-570.90 42.65 1265.5
-587.39 44.14 1309.6
-557.29 42.12 1249.7
-507.59 38.59 1144.9
-504.30 38.56 1144.2
-513.04 39.46 1170.9
-500.11 38.70 1148.2
-512.70 39.91 1184.2
-559.50 43.82 1300.0
-560.97 44.20 1311.4
-521.33 41.33 1226.1
-531.48 42.39 1257.7
-577.47 46.34 1374.9
-604.47 48.81 1448.1
-599.35 48.70 1444.9
-596.15 48.74 1446.2
-590.67 48.60 1442.0
-581.06 48.11 1427.5
-583.50 48.62 1442.7
-588.85 49.39 1465.3
-607.81 51.31 1522.3
-647.15 54.99 1631.5
-944.86 46.47 1493.6
-897.86 44.34 1425.2
-961.09 47.66 1531.8
-926.98 46.16 1483.6
-797.46 39.87 1281.6
-741.88 37.25 1197.3
-813.12 41.00 1317.8
-875.54 44.33 1424.9
-829.02 42.15 1354.9
-781.21 39.89 1282.2
-749.23 38.42 1235.0
-807.36 41.58 1336.5
-866.64 44.83 1440.8
-688.24 35.75 1149.2
-528.36 27.57 886.1
-514.41 26.96 866.4
-554.97 29.21 938.9
-615.01 32.51 1045.0
-573.07 30.43 978.1
-518.80 27.67 889.4
-565.77 30.31 974.2
-555.37 29.89 960.6
-547.02 29.57 950.4
-602.81 32.73 1052.1
-647.81 35.33 1135.8
-630.77 34.56 1111.0
-581.87 32.03 1029.5
-605.33 33.47 1076.0
-641.79 35.65 1146.1
-623.46 34.80 1118.5
-640.16 35.90 1153.8
-663.49 37.56 1207.2
-625.59 35.58 1143.6
-565.46 32.31 1038.6
-511.47 29.37 943.9
-512.42 29.56 950.2
-514.77 29.84 959.2
-510.95 29.76 956.7
-536.69 31.42 1009.8
-592.60 34.86 1120.5
-591.72 34.98 1124.3
-557.90 33.14 1065.3
-557.11 33.26 1069.1
-534.68 32.08 1031.2
-521.12 31.42 1010.1
-540.50 32.76 1052.9
-572.89 34.90 1121.7
-581.45 35.60 1144.2
-575.48 35.41 1138.3
-558.30 34.53 1110.0
-517.53 32.18 1034.3
-481.08 30.07 966.5
-475.52 29.88 960.3
-522.11 32.98 1059.9
-553.32 35.13 1129.2
-546.14 34.86 1120.5
-549.46 35.26 1133.3
-544.47 35.13 1129.1
-548.14 35.56 1142.8
-543.58 35.45 1139.5
-531.74 34.87 1120.8
-537.47 35.44 1139.1
-541.00 35.87 1152.9
-508.53 33.90 1089.7
-499.47 33.48 1076.3
-521.05 35.13 1129.1
-507.79 34.43 1106.6
-487.57 33.24 1068.5
-484.45 33.22 1067.8
-500.65 34.53 1109.8
-557.57 38.68 1243.1
-571.17 39.85 1280.9
-543.27 38.12 1225.4
-553.92 39.10 1256.8
-591.30 41.99 1349.5
-599.54 42.82 1376.5
-570.32 40.98 1317.3
-578.50 41.82 1344.2
-607.01 44.15 1419.0
-588.25 43.04 1383.5
-550.97 40.56 1303.8
-557.39 41.29 1327.1
-601.82 44.86 1441.8
-614.33 46.07 1481.0
-592.00 44.68 1436.1
-567.60 43.11 1385.6
-586.37 44.82 1440.6
-616.89 47.45 1525.3
-603.05 46.69 1500.7
-604.15 47.08 1513.2
-614.03 48.16 1548.0
-623.38 49.21 1581.9
-646.43 51.37 1651.2
-658.29 52.66 1692.7
-1039.33 46.66 1636.3
-1002.63 45.20 1585.0
-1040.19 47.09 1651.1
-1033.93 47.00 1647.9
-933.39 42.60 1493.9
-881.48 40.40 1416.7
-891.99 41.05 1439.6
-868.81 40.16 1408.0
-815.40 37.85 1327.0
-769.59 35.87 1257.8
-718.84 33.65 1179.9
-651.27 30.62 1073.5
-652.85 30.82 1080.7
-756.94 35.89 1258.5
-670.30 31.92 1119.2
-528.39 25.27 886.1
-523.11 25.13 881.1
-562.12 27.12 951.0
-621.64 30.12 1056.3
-618.09 30.08 1054.9
-599.42 29.31 1027.6
-632.07 31.04 1088.4
-604.44 29.82 1045.5
-562.51 27.87 977.3
-591.42 29.44 1032.2
-636.95 31.85 1116.7
-620.45 31.16 1092.8
-551.89 27.85 976.5
-546.54 27.70 971.5
-613.98 31.27 1096.4
-637.13 32.60 1143.0
-566.48 29.12 1021.0
-532.07 27.48 963.5
-545.56 28.31 992.6
-543.58 28.34 993.7
-558.80 29.27 1026.4
-571.99 30.10 1055.6
-537.13 28.41 996.0
-511.96 27.21 954.0
-532.17 28.42 996.4
-586.46 31.47 1103.4
-626.29 33.77 1184.2
-600.14 32.52 1140.3
-559.33 30.46 1068.0
-546.06 29.88 1047.9
-543.00 29.87 1047.2
-543.61 30.05 1053.7
-530.95 29.50 1034.3
-526.55 29.40 1030.9
-529.86 29.74 1042.7
-520.49 29.36 1029.5
-541.72 30.72 1077.0
-539.93 30.77 1079.1
-521.65 29.89 1048.0
-538.99 31.04 1088.5
-543.79 31.48 1103.9
-530.48 30.87 1082.6
-500.19 29.27 1026.2
-480.15 28.24 990.4
-477.20 28.22 989.6
-480.74 28.58 1002.3
-509.61 30.47 1068.3
-529.20 31.81 1115.4
-517.88 31.30 1097.5
-500.26 30.40 1066.1
-502.64 30.72 1077.1
-522.23 32.09 1125.3
-507.68 31.37 1100.1
-463.21 28.79 1009.4
-472.25 29.52 1035.0
-503.07 31.62 1108.8
-489.58 30.95 1085.3
-512.60 32.59 1142.9
-570.80 36.50 1280.0
-588.28 37.84 1327.0
-553.95 35.84 1256.9
-541.99 35.28 1237.0
-591.99 38.76 1359.2
-603.72 39.77 1394.4
-586.05 38.83 1361.7
-590.14 39.34 1379.6
-587.90 39.43 1382.7
-561.90 37.92 1329.6
-533.03 36.19 1269.1
-542.56 37.07 1299.8
-551.94 37.95 1330.6
-528.04 36.53 1281.0
-531.64 37.01 1297.8
-576.99 40.43 1417.5
-637.92 44.98 1577.3
-657.14 46.64 1635.3
-622.72 44.48 1559.7
-591.95 42.56 1492.3
-574.68 41.59 1458.3
-572.86 41.73 1463.3
-600.72 44.05 1544.7
-643.35 47.50 1665.4
-655.70 48.73 1708.9
-1067.66 43.40 1674.0
-920.38 37.57 1449.0
-830.58 34.04 1313.0
-864.91 35.59 1372.9
-852.26 35.22 1358.4
-875.69 36.34 1401.5
-941.21 39.22 1512.7
-972.60 40.69 1569.6
-877.20 37.01 1427.6
-807.20 34.20 1319.3
-719.40 30.61 1180.8
-619.15 26.46 1020.6
-598.09 25.67 990.1
-663.19 28.59 1102.6
-750.98 32.51 1254.0
-705.57 30.68 1183.3
-632.36 27.61 1065.1
-649.14 28.47 1098.2
-704.33 31.03 1196.8
-680.29 30.10 1161.0
-588.88 26.17 1009.5
-570.85 25.48 983.0
-589.96 26.46 1020.4
-584.98 26.35 1016.4
-581.01 26.29 1014.0
-596.86 27.13 1046.4
-634.30 28.96 1117.2
-614.40 28.18 1087.1
-591.18 27.24 1050.8
-646.26 29.92 1154.0
-678.05 31.54 1216.4
-605.31 28.29 1091.0
-512.28 24.05 927.7
-482.03 22.74 877.0
-512.42 24.29 936.7
-558.36 26.59 1025.6
-610.60 29.22 1126.9
-604.06 29.04 1120.2
-550.28 26.58 1025.4
-553.87 26.89 1037.1
-559.28 27.28 1052.3
-550.60 26.99 1041.1
-548.02 27.00 1041.3
-525.50 26.01 1003.4
-515.14 25.63 988.5
-512.20 25.61 987.8
-535.39 26.90 1037.7
-543.76 27.46 1059.3
-534.31 27.12 1046.1
-533.96 27.24 1050.8
-543.52 27.87 1075.1
-590.71 30.45 1174.5
-565.91 29.32 1131.0
-535.05 27.87 1074.9
-535.47 28.04 1081.4
-525.71 27.67 1067.2
-516.00 27.30 1053.1
-485.76 25.84 996.6
-468.84 25.07 967.0
-473.75 25.47 982.4
-482.93 26.10 1006.9
-519.11 28.21 1088.2
-523.23 28.59 1102.8
-497.01 27.31 1053.3
-463.77 25.62 988.3
-450.25 25.01 964.8
-475.55 26.57 1024.7
-472.52 26.55 1023.9
-474.91 26.83 1034.9
-538.26 30.58 1179.6
-555.14 31.72 1223.6
-501.94 28.85 1112.7
-513.45 29.68 1144.8
-564.32 32.81 1265.5
-593.99 34.74 1339.8
-568.50 33.44 1289.9
-504.71 29.86 1151.9
-499.41 29.73 1146.6
-551.72 33.04 1274.3
-580.95 35.00 1349.9
-577.20 34.98 1349.3
-565.25 34.47 1329.4
-555.32 34.07 1314.1
-538.87 33.26 1283.0
-524.49 32.58 1256.5
-515.20 32.20 1242.0
-510.92 32.13 1239.4
-532.43 33.70 1299.8
-574.39 36.59 1411.1
-625.97 40.13 1547.7
-643.76 41.53 1602.0
-610.90 39.67 1530.1
-613.74 40.11 1547.2
-627.13 41.26 1591.4
-625.74 41.44 1598.4
-660.18 44.01 1697.6
-1063.05 38.58 1653.4
-1024.42 37.33 1599.7
-1042.98 38.16 1635.3
-818.86 30.20 1294.4
-813.26 30.12 1290.9
-832.11 30.95 1326.3
-889.50 33.22 1423.6
-949.70 35.61 1526.3
-921.92 34.86 1494.1
-793.49 30.13 1291.4
-808.28 30.82 1321.0
-817.75 31.32 1342.2
-716.67 27.56 1181.3
-702.02 27.12 1162.1
-714.76 27.73 1188.3
-723.79 28.20 1208.6
-657.47 25.73 1102.6
-576.25 22.65 970.6
-623.23 24.60 1054.3
-697.26 27.64 1184.8
-716.71 28.54 1223.2
-651.88 26.08 1117.5
-608.54 24.45 1047.9
-613.01 24.74 1060.3
-592.49 24.02 1029.4
-575.57 23.44 1004.6
-616.21 25.21 1080.4
-681.72 28.02 1200.7
-621.81 25.67 1100.2
-560.32 23.24 996.0
-619.42 25.81 1106.1
-655.20 27.43 1175.4
-614.55 25.85 1107.7
-550.49 23.26 996.9
-484.94 20.59 882.3
-487.50 20.79 891.2
-543.56 23.30 998.4
-600.63 25.86 1108.5
-633.52 27.41 1174.8
-605.62 26.33 1128.5
-545.41 23.83 1021.2
-499.71 21.94 940.2
-502.95 22.19 951.0
-514.99 22.83 978.5
-499.09 22.24 953.0
-494.37 22.14 948.7
-494.27 22.24 953.2
-519.83 23.51 1007.6
-568.90 25.86 1108.2
-602.55 27.53 1179.7
-584.72 26.85 1150.7
-583.69 26.94 1154.6
-589.65 27.50 1178.4
-535.97 25.12 1076.7
-516.87 24.35 1043.8
-508.06 24.07 1031.4
-493.15 23.48 1006.4
-510.75 24.45 1047.9
-540.83 26.03 1115.5
-536.75 25.97 1113.1
-543.48 26.44 1133.1
-547.12 26.76 1146.9
-513.41 25.25 1082.1
-489.35 24.20 1037.1
-457.00 22.72 973.9
-449.43 22.47 963.1
-481.46 24.21 1037.5
-509.83 25.78 1104.8
-550.41 27.99 1199.4
-576.89 29.50 1264.3
-537.82 27.66 1185.4
-498.27 25.77 1104.5
-521.25 27.12 1162.2
-524.03 27.42 1175.2
-510.95 26.89 1152.5
-534.26 28.28 1212.2
-517.98 27.58 1182.2
-499.84 26.78 1147.6
-535.86 28.88 1237.7
-544.22 29.51 1264.5
-524.94 28.63 1227.1
-536.33 29.43 1261.4
-550.68 30.41 1303.1
-545.48 30.30 1298.8
-542.23 30.31 1299.0
-545.49 30.68 1315.0
-555.15 31.42 1346.7
-561.26 31.97 1370.2
-587.23 33.66 1442.7
-601.64 34.71 1487.6
-580.80 33.72 1445.3
-577.94 33.78 1447.5
-609.72 35.87 1537.1
-644.39 38.15 1635.2
-673.15 40.12 1719.5
-1033.23 33.88 1633.3
-950.11 31.41 1514.3
-824.90 27.38 1320.2
-724.72 24.16 1164.7
-777.83 26.04 1255.3
-777.58 26.14 1260.2
-727.05 24.54 1183.3
-777.52 26.36 1270.8
-859.92 29.27 1411.4
-853.10 29.17 1406.2
-786.84 27.02 1302.6
-740.04 25.52 1230.4
-588.20 20.37 982.2
-624.78 21.92 1057.0
-693.23 24.43 1177.9
-702.59 24.87 1199.1
-584.40 20.78 1001.8
-499.61 17.84 860.3
-562.99 20.20 973.8
-606.48 21.86 1053.7
-573.11 20.75 1000.3
-602.86 21.92 1057.0
-647.19 23.64 1139.9
-565.26 20.74 1000.1
-502.01 18.51 892.3
-562.29 20.83 1004.1
-612.88 22.80 1099.5
-583.05 21.80 1050.9
-570.33 21.42 1032.8
-546.60 20.63 994.5
-483.20 18.32 883.3
-482.39 18.38 886.0
-559.69 21.42 1032.9
-616.46 23.71 1143.2
-598.56 23.13 1115.3
-545.44 21.18 1021.3
-508.18 19.83 956.2
-522.14 20.48 987.2
-508.96 20.06 967.1
-468.03 18.54 893.7
-510.10 20.30 978.9
-582.20 23.29 1122.8
-551.48 22.17 1068.9
-547.46 22.12 1066.5
-602.57 24.47 1179.8
-613.28 25.03 1206.9
-569.29 23.36 1126.1
-570.55 23.53 1134.4
-561.94 23.29 1123.0
-523.96 21.83 1052.6
-535.97 22.45 1082.4
-558.01 23.50 1132.8
-513.41 21.73 1047.8
-505.52 21.51 1037.2
-545.65 23.34 1125.5
-545.46 23.46 1131.1
-544.37 23.54 1135.0
-543.27 23.62 1138.8
-472.71 20.67 996.4
-436.20 19.28 929.6
-498.92 22.17 1069.1
-519.36 23.21 1119.1
-535.83 24.08 1161.1
-515.83 23.31 1124.1
-484.78 22.04 1062.4
-506.45 23.15 1116.3
-526.25 24.20 1166.6
-511.87 23.67 1141.2
-489.45 22.77 1097.6
-478.56 22.39 1079.5
-498.80 23.47 1131.7
-536.87 25.41 1225.3
-569.73 27.13 1308.1
-578.00 27.69 1335.0
-559.27 26.95 1299.5
-535.58 25.97 1252.0
-546.13 26.64 1284.5
-533.58 26.19 1262.6
-506.79 25.03 1206.7
-526.85 26.18 1262.2
-557.39 27.87 1343.7
-557.08 28.03 1351.4
-550.29 27.86 1343.4
-540.15 27.52 1327.0
-521.44 26.74 1289.3
-554.73 28.63 1380.4
-606.51 31.51 1519.1
-611.96 32.00 1542.8
-618.03 32.53 1568.3
-659.33 34.93 1684.2
-1058.39 30.36 1673.1
-1035.04 29.82 1642.9
-1019.23 29.48 1624.5
-886.92 25.76 1419.5
-715.24 20.86 1149.5
-728.88 21.35 1176.3
-811.73 23.87 1315.5
-856.89 25.31 1394.6
-843.83 25.03 1379.1
-823.01 24.52 1350.8
-744.74 22.28 1227.6
-612.64 18.41 1014.2
-658.12 19.86 1094.2
-582.06 17.64 971.9
-516.57 15.79 870.1
-658.89 20.23 1114.7
-715.57 22.07 1215.9
-721.32 22.34 1231.1
-600.04 18.67 1028.6
-491.59 15.36 846.5
-531.98 16.70 920.2
-584.56 18.43 1015.6
-560.21 17.74 977.7
-496.87 15.81 871.1
-506.73 16.27 896.6
-570.17 18.39 1013.5
-570.62 18.49 1019.0
-555.95 18.10 997.4
-550.09 17.99 991.5
-549.09 18.05 994.3
-559.63 18.48 1018.2
-527.37 17.50 964.0
-517.79 17.26 951.0
-604.01 20.23 1114.7
-641.16 21.58 1189.0
-595.74 20.15 1110.1
-570.43 19.38 1068.1
-555.60 18.97 1045.4
-538.99 18.49 1019.1
-496.87 17.13 944.1
-547.25 19.15 1055.4
-560.21 19.71 1085.8
-536.07 18.95 1044.3
-572.58 20.35 1121.1
-611.26 21.94 1209.1
-582.26 21.01 1157.7
-552.12 20.02 1103.4
-533.34 19.44 1071.4
-561.72 20.59 1134.4
-572.17 21.08 1161.6
-523.55 19.39 1068.5
-487.14 18.14 999.5
-496.39 18.58 1023.9
-498.14 18.75 1033.0
-498.13 18.85 1038.6
-528.22 20.10 1107.3
-490.31 18.75 1033.4
-432.65 16.64 916.9
-461.28 17.84 983.0
-505.28 19.65 1082.7
-512.65 20.05 1104.7
-514.90 20.25 1115.8
-484.57 19.16 1056.0
-466.95 18.57 1023.3
-503.17 20.13 1109.0
-524.63 21.11 1163.0
-509.84 20.63 1136.7
-506.57 20.62 1136.0
-520.32 21.30 1173.7
-524.23 21.59 1189.4
-542.51 22.47 1238.2
-560.57 23.36 1287.0
-552.99 23.18 1277.2
-552.57 23.30 1283.9
-548.19 23.26 1281.5
-553.20 23.61 1301.1
-536.33 23.03 1269.1
-513.01 22.17 1221.5
-538.05 23.39 1289.0
-573.89 25.11 1383.5
-575.78 25.35 1396.8
-576.09 25.52 1406.4
-575.60 25.66 1414.1
-557.83 25.03 1379.3
-591.29 26.70 1471.4
-636.94 28.95 1595.3
-635.95 29.10 1603.2
-621.72 28.63 1577.7
-635.31 29.45 1622.8
-656.66 30.64 1688.6
-647.81 30.43 1677.0
-601.04 28.43 1566.4
-587.52 27.98 1541.6
-1045.25 25.49 1638.9
-1043.83 25.56 1643.3
-1039.87 25.68 1650.6
-1006.51 24.95 1604.2
-874.26 21.86 1405.1
-821.60 20.63 1326.0
-872.14 21.99 1413.4
-882.05 22.33 1435.5
-814.63 20.71 1331.4
-745.52 19.03 1223.7
-620.29 15.90 1022.5
-547.52 14.10 906.4
-630.83 16.31 1048.8
-743.91 19.32 1242.1
-681.62 17.78 1143.1
-614.09 16.09 1034.3
-635.00 16.71 1074.2
-671.98 17.76 1141.8
-662.70 17.59 1131.0
-698.30 18.62 1197.1
-717.58 19.22 1235.6
-662.13 17.82 1145.3
-613.51 16.58 1065.9
-588.07 15.97 1026.4
-526.12 14.35 922.4
-499.86 13.76 884.4
-559.90 15.48 995.2
-554.51 15.40 990.2
-558.88 15.60 1002.7
-569.03 15.95 1025.6
-554.91 15.63 1004.9
-551.94 15.62 1004.2
-550.90 15.67 1007.1
-573.27 16.38 1052.9
-539.24 15.48 995.2
-484.57 13.98 898.6
-512.55 14.86 955.1
-552.54 16.09 1034.6
-542.95 15.89 1021.6
-536.20 15.77 1013.8
-532.75 15.75 1012.3
-511.67 15.20 977.0
-494.89 14.77 949.7
-539.90 16.20 1041.2
-538.69 16.24 1044.1
-509.60 15.44 992.7
-520.30 15.85 1018.7
-540.85 16.56 1064.4
-532.79 16.39 1053.9
-509.49 15.76 1013.0
-518.13 16.11 1035.5
-538.70 16.83 1082.2
-547.10 17.19 1104.8
-534.63 16.88 1085.3
-521.81 16.57 1064.9
-519.14 16.57 1065.1
-515.60 16.54 1063.5
-504.67 16.28 1046.6
-489.06 15.86 1019.7
-504.99 16.47 1058.6
-540.04 17.71 1138.3
-541.47 17.85 1147.5
-509.30 16.88 1085.3
-488.81 16.29 1047.4
-481.94 16.15 1038.5
-468.41 15.79 1015.0
-473.75 16.06 1032.4
-493.53 16.82 1081.6
-529.63 18.16 1167.3
-543.15 18.73 1204.0
-522.14 18.11 1164.1
-513.11 17.90 1150.7
-527.63 18.51 1190.2
-533.52 18.83 1210.5
-534.50 18.98 1219.9
-536.23 19.15 1231.2
-530.77 19.07 1225.9
-532.04 19.23 1236.2
-515.57 18.75 1205.2
-508.23 18.59 1195.3
-548.80 20.20 1298.7
-578.85 21.44 1378.2
-580.05 21.62 1389.6
-588.09 22.05 1417.7
-602.47 22.73 1461.5
-615.53 23.37 1502.6
-618.60 23.64 1519.8
-606.59 23.33 1499.8
-598.77 23.18 1490.0
-602.85 23.49 1509.9
-662.15 25.97 1669.3
-600.72 24.52 1576.2
-831.34 17.25 1330.5
-865.83 18.04 1391.5
-930.64 19.47 1501.9
-882.14 18.53 1429.6
-790.98 16.69 1287.3
-912.24 19.33 1491.0
-888.96 18.99 1465.3
-717.63 15.40 1188.0
-736.50 15.87 1224.5
-743.93 16.10 1242.2
-722.61 15.71 1211.8
-668.73 14.60 1126.4
-643.16 14.10 1088.0
-641.06 14.12 1089.3
-580.83 12.85 991.3
-578.41 12.85 991.6
-648.30 14.47 1116.3
-653.13 14.64 1129.7
-626.49 14.11 1088.5
-624.87 14.14 1090.6
-594.00 13.50 1041.4
-554.44 12.66 976.5
-530.87 12.18 939.3
-537.85 12.39 956.0
-538.41 12.46 961.4
-546.73 12.71 980.8
-571.95 13.36 1030.9
-573.29 13.46 1038.1
-555.33 13.10 1010.4
-540.84 12.82 988.7
-548.42 13.06 1007.3
-515.44 12.33 951.3
-486.95 11.71 903.0
-542.82 13.11 1011.5
-568.58 13.80 1064.6
-547.18 13.35 1029.5
-558.66 13.69 1056.3
-565.83 13.94 1075.1
-586.84 14.53 1120.6
-621.06 15.45 1191.8
-606.20 15.15 1169.1
-542.83 13.64 1052.1
-507.79 12.82 989.2
-515.76 13.09 1009.8
-505.08 12.88 994.0
-472.35 12.11 934.3
-489.74 12.62 973.7
-536.04 13.89 1071.3
-529.36 13.79 1063.5
-510.29 13.36 1030.5
-507.26 13.35 1029.8
-500.26 13.23 1020.9
-503.38 13.39 1032.8
-506.01 13.53 1043.7
-522.93 14.06 1084.4
-539.67 14.59 1125.2
-530.41 14.41 1111.9
-536.63 14.66 1131.1
-542.77 14.91 1150.3
-513.99 14.20 1095.3
-482.48 13.40 1033.9
-465.96 13.02 1004.1
-454.18 12.76 984.2
-460.42 13.01 1003.3
-514.72 14.62 1128.0
-590.38 16.87 1301.2
-574.00 16.49 1272.4
-523.38 15.13 1166.9
-509.46 14.81 1142.5
-517.52 15.13 1167.3
-533.54 15.69 1210.5
-548.16 16.22 1251.1
-545.04 16.22 1251.4
-531.98 15.93 1228.7
-524.15 15.79 1217.9
-499.85 15.15 1168.5
-496.51 15.14 1167.7
-540.65 16.58 1279.4
-559.12 17.26 1331.2
-545.79 16.95 1307.6
-547.49 17.11 1319.8
-552.19 17.36 1339.5
-526.48 16.66 1285.2
-501.00 15.96 1230.8
-541.75 17.36 1339.5
-586.86 18.93 1460.4
-560.23 18.19 1403.2
-582.90 19.05 1469.5
-672.36 22.12 1706.2
-1047.79 17.18 1656.3
-1030.47 17.03 1642.4
-869.51 14.43 1391.6
-880.65 14.68 1415.3
-896.96 15.01 1447.6
-808.12 13.58 1309.7
-749.12 12.64 1219.2
-886.17 15.02 1448.3
-864.61 14.78 1425.2
-752.29 12.91 1245.4
-816.41 14.08 1357.3
-726.48 12.58 1213.0
-638.63 11.11 1071.0
-637.60 11.14 1073.9
-654.87 11.49 1107.9
-660.86 11.65 1122.9
-604.10 10.69 1031.0
-504.35 8.97 864.6
-557.05 9.99 963.5
-621.02 11.19 1079.0
-618.92 11.20 1080.2
-581.13 10.57 1018.9
-566.79 10.35 998.3
-569.26 10.45 1007.2
-549.14 10.12 976.1
-524.25 9.71 936.2
-509.74 9.48 914.5
-509.87 9.53 919.0
-524.96 9.86 950.6
-521.14 9.83 948.2
-523.57 9.93 957.1
-542.70 10.34 996.8
-552.61 10.58 1019.9
-560.06 10.77 1038.6
-575.46 11.12 1072.3
-552.10 10.72 1033.8
-535.00 10.44 1006.6
-542.31 10.63 1025.4
-546.75 10.77 1038.9
-558.55 11.06 1066.5
-615.53 12.25 1181.2
-575.85 11.57 1116.2
-542.97 10.97 1057.7
-562.62 11.42 1101.6
-559.90 11.43 1101.9
-507.55 10.41 1003.9
-516.71 10.65 1027.3
-542.77 11.25 1084.7
-512.89 10.69 1030.4
-478.35 10.02 966.0
-457.34 9.63 928.4
-472.12 9.99 963.5
-500.77 10.65 1027.4
-483.34 10.34 997.0
-481.25 10.35 998.0
-466.17 10.08 971.9
-438.29 9.53 918.8
-480.49 10.50 1012.7
-530.41 11.66 1124.1
-525.89 11.62 1120.7
-517.59 11.50 1109.1
-501.33 11.20 1080.3
-491.90 11.05 1065.9
-485.45 10.97 1057.9
-523.45 11.90 1147.2
-581.71 13.30 1282.1
-548.53 12.61 1215.9
-530.76 12.27 1183.4
-541.64 12.60 1214.6
-521.99 12.21 1177.4
-511.77 12.04 1161.2
-523.29 12.39 1194.3
-516.70 12.30 1186.3
-516.10 12.36 1192.0
-513.89 12.38 1194.1
-504.19 12.22 1178.6
-516.47 12.60 1214.7
-547.67 13.44 1296.0
-554.88 13.70 1321.1
-537.33 13.35 1287.3
-533.33 13.33 1285.7
-541.92 13.63 1314.6
-522.32 13.22 1275.1
-492.34 12.54 1209.6
-526.39 13.50 1301.5
-582.77 15.04 1450.2
-567.29 14.73 1420.9
-565.96 14.80 1426.8
-616.28 16.22 1563.9
-628.44 16.65 1605.3
-623.38 16.62 1603.0
-603.20 16.53 1593.6
-582.34 16.06 1549.1
-939.83 11.75 1510.4
-856.97 10.80 1388.9
-834.47 10.56 1358.1
-835.04 10.61 1364.8
-820.49 10.47 1346.7
-696.05 8.92 1147.3
-626.14 8.06 1036.5
-715.91 9.26 1190.3
-669.97 8.70 1118.7
-622.77 8.12 1044.4
-670.79 8.79 1129.8
-663.54 8.73 1122.5
-632.47 8.36 1074.7
-647.58 8.60 1105.2
-582.97 7.77 999.4
-556.42 7.45 958.1
-640.65 8.62 1108.1
-675.40 9.13 1173.5
-641.80 8.71 1120.1
-572.72 7.81 1004.1
-540.14 7.40 951.3
-563.86 7.76 997.7
-564.35 7.80 1003.1
-541.85 7.53 967.6
-537.01 7.49 963.4
-541.90 7.60 976.7
-562.68 7.93 1018.9
-566.43 8.02 1030.6
-564.37 8.02 1031.7
-534.10 7.63 981.0
-502.12 7.21 926.7
-517.35 7.46 959.4
-535.75 7.76 998.3
-506.42 7.38 948.2
-481.97 7.05 906.9
-485.75 7.14 918.4
-489.47 7.23 930.0
-480.16 7.13 916.9
-494.00 7.37 948.0
-550.07 8.25 1060.8
-557.06 8.40 1079.7
-524.71 7.95 1022.2
-542.62 8.26 1062.4
-578.49 8.85 1138.4
-543.65 8.36 1075.4
-535.14 8.28 1064.0
-543.23 8.44 1085.6
-528.94 8.26 1062.6
-513.42 8.06 1036.8
-517.00 8.16 1049.5
-554.41 8.80 1131.4
-545.46 8.70 1119.1
-493.82 7.92 1018.6
-463.88 7.48 962.0
-474.93 7.79 1001.0
-524.01 8.64 1110.5
-516.56 8.56 1100.8
-551.85 9.20 1182.5
-584.27 9.79 1259.0
-577.81 9.74 1252.1
-572.63 9.71 1247.9
-556.25 9.48 1219.1
-552.80 9.48 1218.4
-550.18 9.49 1219.6
-556.14 9.64 1240.0
-568.12 9.91 1274.0
-547.94 9.61 1236.0
-513.80 9.07 1165.8
-506.05 8.98 1155.0
-527.49 9.42 1211.1
-550.67 9.89 1271.9
-541.17 9.78 1257.5
-522.29 9.50 1220.9
-521.96 9.55 1227.6
-541.84 9.97 1282.2
-571.93 10.59 1361.7
-578.94 10.79 1387.0
-578.94 10.86 1395.6
-589.18 11.12 1429.3
-587.15 11.15 1433.4
-574.16 10.97 1410.6
-567.27 10.91 1402.6
-575.70 11.14 1432.6
-597.71 11.64 1497.0
-636.02 12.47 1603.4
-649.29 12.81 1647.6
-618.98 12.30 1581.1
-609.62 12.19 1567.6
-839.71 6.94 1338.4
-874.30 7.26 1399.3
-944.91 7.91 1525.0
-901.62 7.58 1461.2
-897.82 7.58 1461.2
-915.42 7.76 1496.1
-886.06 7.54 1454.3
-761.42 6.51 1255.1
-677.86 5.82 1122.1
-770.56 6.64 1281.1
-650.46 5.63 1086.1
-532.64 4.63 893.2
-629.96 5.50 1061.1
-673.21 5.91 1138.9
-569.58 5.02 967.8
-516.66 4.57 881.8
-543.17 4.83 931.1
-618.20 5.52 1064.5
-679.20 6.09 1174.8
-683.89 6.16 1188.2
-660.70 5.98 1153.1
-609.39 5.54 1068.4
-544.59 4.97 959.2
-540.74 4.96 956.8
-584.46 5.39 1038.9
-604.88 5.60 1080.2
-579.38 5.39 1039.4
-577.32 5.40 1040.6
-570.90 5.36 1033.8
-540.43 5.10 983.3
-553.82 5.25 1012.4
-537.93 5.12 988.0
-513.56 4.91 947.8
-539.66 5.19 1000.8
-577.85 5.58 1076.7
-558.72 5.42 1046.1
-518.12 5.05 974.9
-511.47 5.01 967.1
-496.47 4.89 943.3
-469.03 4.64 895.6
-491.70 4.89 943.6
-537.64 5.38 1036.9
-537.82 5.41 1042.4
-495.03 5.00 964.4
-516.70 5.25 1011.7
-547.24 5.58 1076.9
-536.89 5.51 1062.0
-554.47 5.72 1102.4
-536.52 5.56 1072.2
-497.31 5.18 999.1
-496.56 5.20 1002.8
-512.59 5.40 1040.6
-565.41 5.98 1153.9
-584.47 6.22 1199.1
-527.86 5.65 1088.8
-493.42 5.31 1023.2
-479.59 5.18 999.9
-504.18 5.48 1056.9
-459.93 5.03 969.4
-505.34 5.61 1082.9
-591.85 6.61 1275.3
-577.64 6.53 1258.8
-520.14 5.91 1139.9
-512.32 5.86 1129.2
-502.08 5.77 1113.0
-510.73 5.90 1138.7
-529.04 6.15 1186.4
-535.79 6.27 1208.5
-527.92 6.21 1197.8
-522.51 6.18 1192.5
-546.27 6.50 1254.2
-553.46 6.63 1278.3
-528.93 6.37 1229.0
-531.35 6.44 1242.1
-552.10 6.73 1298.5
-554.30 6.80 1311.7
-566.90 7.00 1349.8
-575.86 7.15 1379.6
-576.26 7.20 1389.2
-586.14 7.37 1421.9
-585.26 7.41 1428.8
-594.15 7.57 1459.7
-610.02 7.82 1508.3
-604.04 7.79 1503.2
-612.18 7.95 1533.3
-631.98 8.26 1593.2
-622.17 8.19 1578.8
-616.43 8.16 1574.6
-639.35 8.52 1644.0
-1022.36 4.21 1622.8
-829.08 3.43 1321.4
-870.07 3.61 1392.5
-903.84 3.78 1458.7
-867.49 3.64 1405.9
-873.22 3.68 1421.2
-888.81 3.77 1452.7
-846.00 3.60 1388.6
-814.33 3.48 1342.3
-728.05 3.15 1215.7
-562.34 2.44 943.1
-629.46 2.75 1060.2
-691.54 3.03 1169.9
-585.31 2.58 994.5
-547.90 2.45 943.4
-630.65 2.83 1090.8
-621.05 2.80 1079.0
-598.06 2.71 1043.8
-625.75 2.84 1097.1
-625.08 2.85 1100.9
-591.92 2.72 1047.3
-604.08 2.78 1073.7
-625.41 2.90 1116.8
-600.32 2.79 1077.0
-560.83 2.62 1010.8
-515.80 2.42 934.0
-502.86 2.37 914.9
-535.59 2.54 979.1
-550.37 2.62 1010.9
-551.20 2.64 1017.3
-569.57 2.74 1056.2
-593.93 2.87 1106.7
-586.99 2.85 1099.1
-553.79 2.70 1042.0
-551.21 2.70 1042.2
-539.32 2.66 1024.7
-495.94 2.46 947.0
-509.73 2.54 978.2
-559.28 2.80 1078.6
-553.87 2.78 1073.5
-547.10 2.76 1065.8
-608.59 3.09 1191.6
-593.90 3.03 1168.8
-554.94 2.85 1097.7
-550.88 2.84 1095.3
-508.78 2.64 1016.8
-464.34 2.42 932.8
-460.62 2.41 930.2
-480.33 2.53 975.1
-535.94 2.84 1093.7
-595.42 3.17 1221.6
-566.69 3.03 1168.9
-545.12 2.93 1130.4
-549.22 2.97 1145.1
-564.89 3.07 1184.2
-494.23 2.70 1041.7
-454.97 2.51 969.6
-519.72 2.89 1113.7
-576.70 3.22 1242.7
-595.42 3.35 1290.2
-528.43 2.99 1151.5
-490.26 2.79 1074.4
-485.88 2.78 1070.9
-491.39 2.82 1089.3
-513.60 2.97 1145.1
-530.67 3.09 1190.0
-533.36 3.12 1203.1
-539.62 3.17 1224.4
-550.61 3.26 1256.7
-537.09 3.20 1233.1
-512.54 3.07 1183.8
-528.53 3.18 1228.1
-573.43 3.48 1340.5
-586.53 3.58 1379.5
-579.61 3.56 1371.6
-545.22 3.37 1298.1
-516.55 3.21 1237.5
-533.74 3.34 1286.7
-561.38 3.53 1361.8
-570.10 3.61 1391.8
-589.63 3.76 1448.6
-604.78 3.88 1495.3
-597.71 3.86 1487.4
-606.99 3.94 1520.3
-626.45 4.09 1579.3
-633.17 4.17 1606.7
-649.25 4.30 1658.4
-649.86 4.33 1671.1
-1006.78 -0.00 1611.3
-856.47 -0.00 1388.0
-848.62 -0.00 1381.1
-847.06 -0.00 1384.4
-830.40 -0.00 1363.0
-826.78 -0.00 1362.8
-848.49 -0.00 1404.6
-836.03 -0.00 1389.9
-774.29 -0.00 1292.9
-721.11 -0.00 1209.3
-680.51 -0.00 1146.2
-641.67 -0.00 1085.5
-704.50 -0.00 1197.1
-694.11 -0.00 1184.6
-558.79 -0.00 957.9
-559.45 -0.00 963.3
-607.63 -0.00 1051.0
-571.16 -0.00 992.4
-551.51 -0.00 971.4
-657.85 -0.00 1164.0
-622.22 -0.00 1106.0
-591.70 -0.00 1056.6
-554.55 -0.00 994.9
-507.95 -0.00 915.5
-509.52 -0.00 922.7
-535.13 -0.00 973.6
-565.35 -0.00 1033.5
-583.37 -0.00 1071.5
-526.43 -0.00 971.5
-497.90 -0.00 923.3
-564.61 -0.00 1052.1
-611.48 -0.00 1144.9
-570.22 -0.00 1072.9
-559.16 -0.00 1057.2
-547.70 -0.00 1040.7
-509.40 -0.00 972.7
-500.95 -0.00 961.3
-532.59 -0.00 1027.1
-588.26 -0.00 1140.2
-559.47 -0.00 1101.0
-482.31 -0.00 954.0
-444.39 -0.00 883.5
-472.09 -0.00 943.5
-510.68 -0.00 1025.9
-472.16 -0.00 953.5
-464.43 -0.00 942.8
-504.26 -0.00 1029.1
-524.01 -0.00 1075.1
-511.28 -0.00 1054.6
-508.63 -0.00 1054.8
-535.39 -0.00 1116.2
-579.10 -0.00 1213.9
-566.24 -0.00 1193.5
-527.87 -0.00 1118.7
-529.74 -0.00 1128.9
-555.67 -0.00 1190.7
-539.24 -0.00 1162.0
-502.82 -0.00 1089.6
-509.24 -0.00 1109.7
-528.87 -0.00 1159.0
-520.59 -0.00 1147.4
-520.59 -0.00 1154.0
-552.07 -0.00 1230.9
-574.66 -0.00 1288.7
-565.38 -0.00 1275.3
-561.81 -0.00 1274.7
-565.05 -0.00 1289.6
-544.28 -0.00 1249.6
-536.38 -0.00 1238.9
-572.81 -0.00 1331.0
-573.83 -0.00 1341.4
-540.36 -0.00 1270.9
-524.72 -0.00 1241.7
-491.79 -0.00 1170.9
-499.22 -0.00 1196.0
-554.05 -0.00 1335.6
-571.29 -0.00 1385.9
-565.94 -0.00 1381.6
-584.73 -0.00 1436.6
-599.15 -0.00 1481.4
-592.87 -0.00 1475.3
-602.92 -0.00 1510.1
-642.31 -0.00 1619.3
-669.47 -0.00 1698.8
-654.35 -0.00 1671.5
-617.97 -0.00 1589.1
-618.71 -0.00 1601.7
-654.50 -0.00 1705.7
-1022.68 -4.24 1636.8
-1021.29 -4.27 1648.2
-925.78 -3.89 1500.4
-850.19 -3.60 1389.5
-791.89 -3.37 1299.8
-758.83 -3.24 1250.8
-744.56 -3.20 1232.6
-786.54 -3.39 1307.7
-792.78 -3.43 1323.8
-865.03 -3.76 1450.7
-784.66 -3.44 1327.4
-718.70 -3.17 1221.2
-763.87 -3.38 1303.7
-652.51 -2.90 1118.6
-583.05 -2.60 1004.0
-588.61 -2.64 1018.1
-599.10 -2.70 1040.9
-538.90 -2.44 940.6
-541.14 -2.47 953.1
-669.66 -3.07 1184.8
-649.19 -2.99 1153.9
-609.29 -2.82 1088.0
-571.59 -2.66 1025.5
-509.40 -2.38 918.2
-494.05 -2.32 894.6
-527.43 -2.49 959.6
-564.39 -2.67 1031.7
-610.14 -2.91 1120.7
-570.26 -2.73 1052.4
-500.75 -2.41 928.6
-533.40 -2.58 993.9
-597.35 -2.90 1118.5
-573.03 -2.80 1078.2
-548.41 -2.69 1036.9
-528.61 -2.60 1004.4
-515.43 -2.55 984.2
-530.98 -2.64 1018.9
-546.86 -2.73 1054.6
-590.55 -2.97 1144.6
-594.59 -3.00 1158.3
-541.27 -2.75 1059.8
-529.12 -2.70 1041.3
-503.96 -2.58 996.8
-448.43 -2.31 891.6
-456.87 -2.37 913.1
-508.45 -2.65 1021.4
-498.78 -2.61 1007.3
-498.45 -2.62 1011.9
-534.18 -2.83 1090.2
-546.35 -2.91 1120.9
-528.73 -2.83 1090.6
-528.61 -2.84 1096.2
-569.55 -3.08 1187.5
-587.28 -3.19 1231.1
-547.38 -2.99 1153.7
-482.63 -2.65 1022.8
-456.67 -2.52 973.2
-507.46 -2.82 1087.4
-532.08 -2.97 1146.5
-497.79 -2.80 1078.7
-503.82 -2.85 1097.9
-542.98 -3.09 1190.0
-551.99 -3.15 1216.6
-509.07 -2.93 1128.5
-502.95 -2.91 1121.4
-548.18 -3.19 1229.3
-562.14 -3.29 1268.0
-559.79 -3.29 1270.1
-562.64 -3.33 1284.1
-555.06 -3.30 1274.4
-555.85 -3.33 1283.8
-568.07 -3.42 1319.9
-545.12 -3.30 1274.3
-530.97 -3.24 1248.8
-532.12 -3.26 1259.2
-525.47 -3.24 1251.1
-557.76 -3.46 1336.3
-608.84 -3.81 1467.7
-616.26 -3.88 1495.0
-581.10 -3.68 1418.6
-573.80 -3.65 1409.7
-608.15 -3.90 1503.7
-624.93 -4.03 1555.1
-614.04 -3.99 1537.9
-629.77 -4.12 1587.7
-640.14 -4.21 1624.4
-602.59 -3.99 1539.2
-596.95 -3.98 1535.0
-631.32 -4.24 1634.3
-1013.27 -8.44 1628.5
-1023.97 -8.60 1659.5
-906.55 -7.68 1481.6
-829.87 -7.06 1362.1
-778.53 -6.65 1283.3
-724.39 -6.22 1199.2
-727.26 -6.27 1209.1
-745.51 -6.45 1244.8
-841.97 -7.32 1412.0
-840.63 -7.37 1422.1
-711.09 -6.27 1208.3
-691.06 -6.12 1179.4
-635.38 -5.65 1089.2
-620.71 -5.54 1068.8
-654.17 -5.87 1131.5
-712.83 -6.42 1238.5
-774.54 -7.01 1351.8
-673.46 -6.15 1186.1
-613.56 -5.63 1085.6
-587.89 -5.42 1045.0
-561.40 -5.20 1002.5
-601.78 -5.60 1079.6
-615.65 -5.75 1109.6
-555.43 -5.22 1005.8
-550.06 -5.19 1000.8
-540.39 -5.12 987.8
-533.63 -5.08 980.1
-579.78 -5.55 1070.0
-580.48 -5.58 1076.4
-576.90 -5.57 1075.0
-603.00 -5.85 1129.1
-591.33 -5.77 1112.6
-569.44 -5.58 1076.7
-576.11 -5.68 1094.6
-591.51 -5.86 1129.5
-569.34 -5.67 1092.5
-544.55 -5.45 1050.2
-580.91 -5.84 1126.0
-583.63 -5.90 1136.9
-542.63 -5.51 1062.4
-549.05 -5.60 1080.5
-578.40 -5.93 1144.1
-548.18 -5.65 1089.9
-507.44 -5.26 1014.1
-507.11 -5.28 1018.8
-545.82 -5.72 1102.2
-590.80 -6.22 1199.4
-605.89 -6.41 1236.5
-597.61 -6.36 1226.1
-589.37 -6.30 1215.7
-603.32 -6.49 1251.1
-619.71 -6.70 1292.1
-594.16 -6.46 1245.5
-591.53 -6.46 1246.8
-547.06 -6.01 1159.4
-464.74 -5.14 990.4
-469.82 -5.22 1006.8
-572.07 -6.39 1232.7
-610.08 -6.85 1322.0
-563.88 -6.37 1228.8
-547.13 -6.22 1199.1
-567.27 -6.48 1250.3
-532.51 -6.12 1180.4
-489.86 -5.66 1092.2
-498.90 -5.80 1118.8
-554.03 -6.48 1249.7
-581.96 -6.85 1320.4
-574.28 -6.80 1310.7
-556.25 -6.62 1277.1
-564.59 -6.76 1304.0
-581.11 -7.00 1350.2
-567.53 -6.88 1326.7
-562.27 -6.86 1322.4
-581.94 -7.14 1377.1
-592.85 -7.32 1411.5
-571.24 -7.10 1368.5
-561.70 -7.02 1354.1
-600.24 -7.55 1456.1
-601.56 -7.61 1468.5
-562.48 -7.17 1381.9
-566.53 -7.26 1400.8
-616.35 -7.95 1533.8
-641.47 -8.33 1606.7
-631.98 -8.26 1593.2
-616.30 -8.11 1563.9
-615.34 -8.15 1571.8
-648.41 -8.65 1667.3
-1045.13 -12.85 1652.1
-932.63 -11.86 1524.3
-856.91 -10.94 1406.5
-752.07 -9.64 1239.7
-664.40 -8.55 1099.9
-697.36 -9.02 1159.4
-755.78 -9.82 1262.0
-744.66 -9.71 1248.8
-748.90 -9.81 1261.4
-751.57 -9.89 1271.4
-777.02 -10.27 1320.3
-694.09 -9.21 1184.6
-620.76 -8.28 1064.2
-592.58 -7.94 1020.4
-607.62 -8.17 1051.0
-687.38 -9.29 1194.3
-755.64 -10.26 1318.8
-709.96 -9.68 1244.7
-582.11 -7.97 1025.2
-579.11 -7.97 1024.6
-597.20 -8.26 1061.5
-545.76 -7.58 974.6
-571.10 -7.97 1024.6
-602.05 -8.44 1085.1
-561.71 -7.91 1017.2
-559.21 -7.91 1017.4
-552.86 -7.86 1010.6
-525.97 -7.51 966.1
-552.62 -7.93 1019.9
-530.16 -7.65 983.1
-513.53 -7.44 956.9
-564.83 -8.23 1057.6
-580.06 -8.49 1091.4
-588.60 -8.66 1112.9
-627.79 -9.28 1192.9
-640.21 -9.51 1222.5
-599.37 -8.95 1150.2
-548.68 -8.23 1058.2
-563.94 -8.50 1093.1
-577.23 -8.75 1124.5
-542.17 -8.26 1061.5
-525.94 -8.05 1035.0
-525.16 -8.08 1038.8
-540.08 -8.35 1073.8
-540.99 -8.41 1081.2
-504.88 -7.89 1014.3
-512.97 -8.06 1035.9
-555.44 -8.77 1127.6
-570.69 -9.06 1164.7
-561.68 -8.96 1152.4
-558.39 -8.96 1151.7
-570.30 -9.20 1182.6
-578.62 -9.38 1206.4
-580.38 -9.46 1216.6
-598.38 -9.81 1261.2
-605.52 -9.98 1283.3
-554.37 -9.19 1181.4
-490.53 -8.18 1051.1
-537.12 -9.00 1157.4
-610.07 -10.28 1322.0
-583.05 -9.88 1270.6
-563.31 -9.60 1234.5
-582.96 -9.99 1284.9
-568.27 -9.80 1259.7
-541.00 -9.38 1206.2
-502.96 -8.77 1127.9
-516.33 -9.06 1164.6
-584.78 -10.32 1326.8
-613.20 -10.89 1399.5
-604.16 -10.79 1387.1
-619.81 -11.13 1431.5
-618.26 -11.17 1436.6
-588.37 -10.70 1375.4
-549.35 -10.05 1292.0
-538.33 -9.91 1273.9
-553.34 -10.25 1317.5
-532.71 -9.93 1276.2
-531.43 -9.96 1281.1
-573.18 -10.81 1390.5
-611.79 -11.62 1493.5
-611.86 -11.69 1503.2
-563.89 -10.84 1394.2
-560.78 -10.85 1395.5
-631.82 -12.31 1582.5
-647.82 -12.79 1643.9
-634.29 -12.60 1620.2
-1029.08 -16.87 1626.8
-1005.16 -17.04 1642.8
-905.28 -15.41 1485.9
-797.18 -13.63 1314.0
-698.00 -11.98 1155.5
-726.21 -12.52 1207.4
-845.67 -14.64 1412.1
-790.75 -13.81 1331.9
-745.45 -13.08 1261.1
-651.22 -11.48 1106.5
-516.13 -9.14 880.9
-537.61 -9.56 921.6
-580.01 -10.36 998.7
-632.63 -11.35 1094.2
-730.76 -13.17 1269.7
-714.36 -12.93 1246.8
-576.68 -10.49 1011.1
-536.18 -9.79 944.4
-591.90 -10.86 1047.3
-683.97 -12.61 1215.8
-674.73 -12.50 1204.9
-607.11 -11.30 1089.2
-563.23 -10.53 1015.2
-532.21 -9.99 963.8
-535.11 -10.10 973.6
-590.76 -11.20 1079.9
-619.20 -11.79 1137.3
-659.80 -12.63 1217.7
-630.78 -12.13 1169.7
-538.58 -10.41 1003.6
-540.80 -10.50 1012.6
-539.69 -10.53 1015.4
-535.76 -10.51 1013.0
-588.66 -11.60 1118.5
-610.97 -12.10 1166.6
-561.92 -11.18 1078.3
-517.37 -10.35 997.8
-547.88 -11.01 1061.9
-574.93 -11.61 1120.0
-545.80 -11.08 1068.6
-527.74 -10.77 1038.6
-492.66 -10.11 974.5
-468.18 -9.65 930.8
-536.06 -11.11 1071.3
-563.69 -11.74 1132.4
-527.16 -11.04 1064.6
-533.34 -11.23 1082.7
-546.92 -11.57 1116.2
-538.88 -11.47 1105.6
-537.00 -11.49 1107.6
-548.57 -11.80 1137.6
-576.01 -12.45 1200.9
-593.71 -12.91 1244.6
-579.08 -12.66 1220.5
-558.14 -12.27 1182.9
-570.07 -12.60 1214.8
-572.98 -12.73 1227.8
-548.06 -12.25 1181.0
-546.37 -12.28 1184.0
-569.28 -12.87 1240.6
-598.17 -13.59 1310.9
-603.20 -13.79 1329.5
-573.20 -13.18 1270.6
-568.41 -13.14 1267.3
-553.86 -12.88 1242.0
-509.02 -11.91 1148.2
-531.94 -12.52 1206.9
-606.36 -14.35 1383.9
-629.30 -14.98 1444.8
-597.54 -14.31 1380.1
-551.83 -13.30 1282.2
-563.58 -13.66 1317.5
-568.12 -13.86 1336.2
-551.95 -13.54 1306.1
-562.24 -13.88 1338.7
-551.58 -13.70 1321.4
-560.15 -14.00 1350.4
-612.04 -15.40 1484.7
-665.98 -16.86 1625.8
-659.35 -16.80 1619.9
-598.38 -15.34 1479.5
-574.94 -14.84 1430.7
-629.21 -16.34 1576.0
-659.91 -17.37 1674.6
-627.35 -16.62 1602.5
-638.60 -17.03 1642.1
-1005.43 -21.03 1622.6
-1007.64 -21.17 1633.0
-1021.84 -21.65 1670.1
-849.03 -18.14 1399.5
-756.93 -16.24 1253.0
-754.54 -16.26 1254.5
-836.41 -18.10 1396.6
-894.17 -19.44 1499.5
-808.60 -17.65 1362.0
-657.40 -14.42 1112.1
-582.44 -12.94 998.5
-673.91 -15.04 1160.4
-764.24 -17.14 1321.9
-779.63 -17.56 1354.6
-667.62 -15.10 1165.2
-565.27 -12.85 991.1
-572.21 -13.06 1007.8
-620.91 -14.24 1098.6
-692.29 -15.95 1230.5
-677.65 -15.69 1210.1
-603.69 -14.04 1083.0
-610.28 -14.26 1100.0
-622.59 -14.61 1127.4
-519.21 -12.25 944.6
-486.13 -11.52 888.7
-572.81 -13.64 1052.1
-683.13 -16.34 1260.7
-652.59 -15.69 1210.2
-546.13 -13.19 1017.6
-655.25 -15.90 1226.9
-633.46 -15.53 1197.7
-571.42 -14.07 1085.7
-563.64 -13.95 1076.3
-507.38 -12.62 973.7
-501.25 -12.53 966.7
-571.25 -14.35 1107.2
-600.49 -15.16 1169.8
-566.70 -14.38 1109.6
-531.35 -13.55 1045.7
-478.21 -12.26 945.9
-463.68 -11.95 921.9
-540.97 -14.01 1081.1
-593.97 -15.47 1193.3
-574.18 -15.03 1159.5
-562.49 -14.80 1141.9
-557.02 -14.74 1136.8
-532.74 -14.17 1093.0
-513.87 -13.74 1059.9
-532.05 -14.30 1103.3
-566.92 -15.32 1182.0
-579.49 -15.75 1214.8
-558.92 -15.27 1178.0
-552.15 -15.17 1170.2
-579.83 -16.02 1235.6
-590.31 -16.40 1264.9
-568.25 -15.87 1224.5
-571.50 -16.05 1238.4
-601.38 -16.99 1310.5
-597.73 -16.98 1310.0
-570.13 -16.29 1256.6
-565.37 -16.25 1253.3
-579.03 -16.74 1291.0
-591.31 -17.19 1326.0
-573.85 -16.78 1294.4
-539.59 -15.87 1224.3
-558.19 -16.51 1274.0
-582.97 -17.35 1338.4
-550.25 -16.47 1270.9
-544.71 -16.41 1265.7
-594.63 -18.02 1390.0
-607.23 -18.51 1428.2
-599.42 -18.39 1418.4
-595.52 -18.38 1417.9
-573.52 -17.81 1374.0
-584.66 -18.27 1409.4
-644.79 -20.28 1564.2
-646.63 -20.46 1578.6
-587.33 -18.70 1442.9
-585.24 -18.76 1447.0
-615.94 -19.87 1532.8
-617.70 -20.06 1547.1
-613.87 -20.06 1547.6
-654.03 -21.51 1659.7
-922.55 -23.26 1495.1
-1007.68 -25.51 1640.0
-816.85 -20.94 1346.5
-737.78 -19.00 1221.3
-731.33 -18.91 1215.9
-705.89 -18.33 1178.7
-648.84 -16.93 1088.1
-701.89 -18.39 1182.2
-697.07 -18.34 1179.3
-598.95 -15.83 1017.7
-646.02 -17.15 1102.6
-704.35 -18.78 1207.5
-765.78 -20.51 1318.6
-797.75 -21.46 1379.8
-750.18 -20.28 1303.4
-671.08 -18.22 1171.2
-602.41 -16.43 1056.2
-594.41 -16.29 1046.9
-633.68 -17.44 1121.2
-650.11 -17.98 1155.6
-581.87 -16.16 1039.1
-510.69 -14.25 916.2
-511.78 -14.35 922.4
-563.61 -15.88 1020.6
-512.45 -14.50 932.4
-496.19 -14.11 907.1
-617.26 -17.64 1133.7
-681.68 -19.57 1258.1
-610.34 -17.61 1131.8
-535.24 -15.51 997.3
-651.47 -18.97 1219.8
-650.74 -19.14 1230.4
-561.62 -16.60 1067.1
-531.62 -15.79 1015.1
-513.38 -15.32 985.2
-546.80 -16.40 1054.6
-585.91 -17.67 1135.6
-569.88 -17.27 1110.2
-547.59 -16.68 1072.1
-527.26 -16.14 1037.6
-513.84 -15.81 1016.4
-536.00 -16.58 1065.7
-546.32 -16.98 1091.8
-532.47 -16.64 1069.7
-535.12 -16.81 1080.6
-550.10 -17.37 1116.7
-552.17 -17.53 1126.9
-536.66 -17.13 1101.1
-515.60 -16.54 1063.5
-526.82 -16.99 1092.5
-549.60 -17.82 1145.9
-555.36 -18.11 1164.2
-519.04 -17.02 1094.0
-498.80 -16.44 1057.1
-548.80 -18.19 1169.5
-594.10 -19.80 1273.1
-576.65 -19.33 1242.6
-583.63 -19.67 1264.7
-610.53 -20.70 1330.5
-607.26 -20.70 1330.9
-576.72 -19.77 1271.1
-570.29 -19.67 1264.2
-574.92 -19.94 1281.8
-577.04 -20.13 1294.0
-557.62 -19.57 1257.8
-526.66 -18.59 1195.0
-539.32 -19.15 1230.9
-566.58 -20.24 1300.8
-576.06 -20.70 1330.5
-611.49 -22.10 1420.8
-616.24 -22.41 1440.6
-582.17 -21.30 1369.2
-556.20 -20.47 1316.2
-538.20 -19.93 1281.4
-527.67 -19.66 1264.2
-549.39 -20.60 1324.4
-606.67 -22.89 1471.7
-606.43 -23.03 1480.4
-582.79 -22.27 1431.8
-610.34 -23.47 1509.1
-633.82 -24.53 1577.2
-625.10 -24.35 1565.6
-610.90 -23.96 1540.1
-642.27 -25.35 1629.8
-994.17 -29.61 1631.8
-855.51 -25.81 1422.3
-684.81 -20.75 1143.5
-699.01 -21.27 1172.2
-837.13 -25.59 1410.0
-760.20 -23.44 1291.7
-709.18 -21.97 1210.4
-673.09 -20.94 1153.9
-682.90 -21.34 1175.9
-684.62 -21.49 1184.2
-698.28 -22.02 1213.2
-653.16 -20.69 1140.0
-646.48 -20.57 1133.4
-685.23 -21.90 1206.9
-642.03 -20.62 1136.0
-588.31 -18.98 1045.7
-561.82 -18.21 1003.3
-512.62 -16.69 919.6
-487.51 -15.95 878.7
-518.64 -17.04 939.2
-563.00 -18.59 1024.3
-639.17 -21.20 1168.4
-680.83 -22.69 1250.5
-634.97 -21.27 1171.9
-606.99 -20.43 1125.6
-573.52 -19.39 1068.7
-593.03 -20.15 1110.4
-612.85 -20.93 1153.1
-577.32 -19.81 1091.6
-535.52 -18.47 1017.5
-513.04 -17.78 979.6
-512.43 -17.85 983.3
-521.01 -18.24 1004.8
-526.75 -18.53 1021.0
-547.49 -19.36 1066.5
-564.39 -20.05 1105.1
-568.01 -20.29 1117.8
-579.23 -20.79 1145.7
-565.18 -20.39 1123.7
-542.27 -19.67 1083.7
-544.92 -19.87 1094.7
-568.82 -20.85 1148.7
-574.38 -21.16 1166.0
-567.10 -21.00 1157.4
-565.56 -21.06 1160.3
-557.45 -20.87 1149.8
-528.98 -19.91 1097.0
-516.72 -19.55 1077.3
-545.87 -20.77 1144.3
-534.45 -20.44 1126.5
-511.16 -19.66 1083.3
-557.28 -21.55 1187.6
-596.61 -23.20 1278.5
-580.84 -22.71 1251.6
-585.29 -23.02 1268.3
-612.18 -24.21 1334.0
-623.84 -24.81 1367.2
-606.03 -24.24 1335.7
-594.93 -23.93 1318.8
-599.05 -24.24 1335.6
-561.95 -22.87 1260.2
-515.46 -21.10 1162.7
-514.95 -21.20 1168.4
-558.96 -23.15 1275.7
-591.71 -24.65 1358.5
-602.65 -25.26 1391.9
-614.23 -25.90 1427.2
-598.92 -25.41 1400.1
-586.85 -25.05 1380.2
-584.20 -25.09 1382.4
-561.41 -24.26 1336.7
-544.21 -23.66 1303.8
-530.22 -23.20 1278.2
-556.73 -24.51 1350.5
-604.14 -26.77 1474.8
-626.11 -27.92 1538.2
-657.18 -29.49 1624.9
-679.28 -30.68 1690.4
-651.40 -29.61 1631.5
-616.78 -28.22 1554.9
-637.48 -29.36 1617.7
-929.10 -31.36 1512.1
-1003.50 -34.16 1647.1
-993.59 -34.26 1651.9
-847.11 -29.34 1414.5
-749.59 -26.53 1279.3
-697.75 -24.81 1196.1
-698.95 -24.96 1203.5
-631.55 -22.66 1092.4
-591.02 -21.30 1026.9
-650.65 -23.55 1135.6
-769.80 -27.99 1349.6
-770.61 -28.15 1357.2
-697.10 -25.58 1233.4
-659.87 -24.33 1172.9
-651.69 -24.14 1163.7
-559.33 -20.81 1003.5
-493.80 -18.46 890.0
-582.41 -21.87 1054.7
-680.97 -25.70 1239.0
-635.31 -24.09 1161.4
-566.06 -21.56 1039.7
-549.21 -21.02 1013.6
-550.02 -21.15 1020.0
-535.68 -20.70 998.2
-575.58 -22.35 1077.7
-579.98 -22.63 1091.2
-521.20 -20.44 985.5
-526.66 -20.75 1000.7
-562.66 -22.28 1074.4
-596.97 -23.76 1145.6
-650.32 -26.01 1254.2
-582.20 -23.40 1128.5
-537.42 -21.71 1046.9
-551.18 -22.38 1079.2
-554.40 -22.63 1091.0
-576.95 -23.67 1141.2
-574.15 -23.68 1141.5
-561.04 -23.26 1121.3
-577.43 -24.06 1160.0
-574.12 -24.05 1159.4
-549.17 -23.12 1114.9
-554.32 -23.46 1131.3
-562.91 -23.95 1154.9
-537.37 -22.99 1108.4
-503.33 -21.65 1043.8
-485.13 -20.98 1011.5
-497.21 -21.62 1042.3
-557.57 -24.37 1175.2
-612.68 -26.93 1298.5
-611.20 -27.01 1302.5
-597.01 -26.53 1279.3
-576.60 -25.77 1242.5
-578.56 -26.00 1253.7
-590.47 -26.69 1286.7
-586.05 -26.64 1284.4
-610.97 -27.93 1346.6
-640.96 -29.47 1420.8
-623.16 -28.82 1389.4
-561.52 -26.12 1259.2
-542.99 -25.40 1224.8
-579.04 -27.25 1313.8
-628.75 -29.76 1435.0
-655.97 -31.24 1506.0
-626.86 -30.03 1447.8
-600.77 -28.95 1395.9
-611.47 -29.65 1429.4
-623.59 -30.42 1466.6
-598.96 -29.40 1417.4
-557.90 -27.55 1328.3
-584.24 -29.03 1399.7
-615.62 -30.78 1484.1
-583.37 -29.35 1415.2
-579.48 -29.34 1414.6
-594.05 -30.27 1459.4
-608.41 -31.20 1504.3
-636.00 -32.83 1582.7
-618.75 -32.14 1549.7
-585.78 -30.63 1476.8
-608.13 -32.01 1543.2
-642.20 -34.02 1640.4
-1032.18 -39.03 1672.8
-1009.61 -39.00 1671.3
-821.43 -31.87 1365.7
-691.94 -26.96 1155.4
-734.79 -28.75 1232.3
-710.45 -28.17 1207.2
-672.23 -26.77 1147.3
-773.28 -30.93 1325.6
-789.80 -31.73 1360.0
-700.08 -28.25 1210.9
-691.74 -28.04 1201.9
-742.93 -30.53 1308.5
-709.37 -29.29 1255.1
-704.94 -29.24 1253.0
-691.72 -28.82 1235.2
-595.33 -24.92 1068.0
-484.08 -20.36 872.5
-511.83 -21.63 926.8
-643.38 -27.31 1170.6
-656.88 -28.02 1200.8
-537.83 -23.05 987.8
-484.88 -20.88 894.9
-538.61 -23.31 998.8
-580.09 -25.22 1080.9
-627.37 -27.41 1174.7
-636.26 -27.93 1197.1
-538.94 -23.78 1019.0
-547.59 -24.28 1040.5
-586.75 -26.14 1120.4
-610.80 -27.35 1172.1
-673.30 -30.30 1298.5
-606.47 -27.43 1175.5
-543.33 -24.70 1058.4
-540.24 -24.68 1057.8
-519.50 -23.85 1022.3
-516.03 -23.82 1020.7
-545.82 -25.32 1085.2
-565.94 -26.39 1131.0
-582.30 -27.30 1169.8
-576.76 -27.18 1164.7
-557.54 -26.41 1131.9
-567.50 -27.02 1158.2
-545.80 -26.13 1119.8
-498.52 -23.99 1028.3
-497.23 -24.06 1031.1
-507.16 -24.67 1057.4
-499.33 -24.42 1046.7
-527.55 -25.94 1111.9
-611.37 -30.23 1295.7
-654.06 -32.52 1393.8
-625.73 -31.29 1340.9
-590.47 -29.69 1272.4
-605.34 -30.61 1311.7
-629.64 -32.02 1372.1
-620.88 -31.75 1360.7
-640.27 -32.93 1411.2
-661.07 -34.19 1465.4
-639.50 -33.27 1425.8
-616.06 -32.24 1381.5
-626.44 -32.97 1413.0
-613.69 -32.49 1392.4
-618.29 -32.93 1411.1
-627.99 -33.64 1441.8
-582.74 -31.40 1345.9
-581.77 -31.54 1351.8
-615.77 -33.59 1439.5
-569.97 -31.28 1340.5
-501.25 -27.68 1186.1
-530.77 -29.49 1263.7
-631.96 -35.33 1514.0
-655.81 -36.89 1581.0
-616.49 -34.90 1495.5
-608.25 -34.65 1484.9
-616.26 -35.33 1514.0
-619.63 -35.75 1532.1
-637.46 -37.01 1586.3
-623.16 -36.42 1560.8
-591.65 -34.80 1491.6
-607.73 -35.98 1542.2
-640.35 -38.17 1635.7
-799.78 -34.62 1335.4
-750.26 -32.76 1263.7
-543.08 -23.92 922.8
-715.16 -31.64 1220.6
-786.35 -34.95 1348.0
-775.70 -34.63 1335.7
-695.54 -31.19 1203.1
-652.81 -29.41 1134.2
-728.63 -32.97 1271.7
-693.94 -31.54 1216.7
-634.30 -28.96 1117.2
-653.26 -29.97 1155.8
-631.86 -29.12 1123.1
-588.62 -27.25 1051.1
-654.20 -30.43 1173.6
-649.45 -30.35 1170.6
-566.41 -26.59 1025.7
-604.34 -28.51 1099.5
-652.05 -30.90 1192.0
-547.36 -26.06 1005.4
-489.62 -23.43 903.6
-546.65 -26.28 1013.7
-574.86 -27.77 1071.2
-609.44 -29.58 1141.1
-688.77 -33.60 1296.0
-645.48 -31.64 1220.5
-585.27 -28.83 1112.1
-564.46 -27.94 1077.8
-557.64 -27.74 1070.1
-575.24 -28.76 1109.4
-578.47 -29.07 1121.2
-572.98 -28.94 1116.2
-552.49 -28.05 1081.8
-517.66 -26.41 1018.7
-509.69 -26.14 1008.2
-533.66 -27.51 1061.0
-544.88 -28.23 1089.0
-547.52 -28.52 1099.9
-571.85 -29.94 1154.8
-587.11 -30.90 1191.9
-594.30 -31.44 1212.9
-561.97 -29.89 1153.0
-510.71 -27.31 1053.4
-512.84 -27.57 1063.5
-544.75 -29.45 1135.8
-553.97 -30.11 1161.3
-514.66 -28.12 1084.8
-521.32 -28.64 1104.8
-637.47 -35.22 1358.5
-629.99 -35.20 1357.5
-608.24 -34.17 1318.0
-648.37 -36.63 1412.9
-651.98 -37.04 1428.8
-636.93 -36.40 1403.8
-627.74 -36.08 1391.5
-659.10 -38.10 1469.5
-694.60 -40.38 1557.7
-675.02 -39.48 1522.6
-622.93 -36.64 1413.4
-594.58 -35.18 1357.0
-577.66 -34.38 1326.3
-565.23 -33.85 1305.5
-599.13 -36.09 1392.1
-628.32 -38.08 1468.8
-576.20 -35.13 1355.2
-523.41 -32.11 1238.6
-577.59 -35.65 1375.2
-646.56 -40.16 1549.0
-621.30 -38.83 1497.8
-597.79 -37.60 1450.2
-604.81 -38.28 1476.5
-627.91 -39.99 1542.6
-645.09 -41.35 1595.0
-616.92 -39.80 1535.2
-560.85 -36.42 1404.7
-566.19 -37.01 1427.4
-632.99 -41.64 1606.3
-1006.48 -47.11 1652.0
-654.79 -31.45 1102.9
-526.51 -25.40 890.7
-675.90 -32.75 1148.5
-665.99 -32.85 1151.9
-675.21 -33.46 1173.2
-777.79 -38.71 1357.5
-707.28 -35.36 1240.0
-637.23 -32.01 1122.3
-558.78 -28.20 988.7
-566.55 -28.99 1016.4
-678.03 -34.85 1222.1
-686.23 -35.44 1242.7
-592.75 -30.76 1078.5
-527.75 -27.51 964.7
-527.73 -27.64 969.3
-546.75 -28.78 1009.0
-560.38 -29.64 1039.2
-554.03 -29.44 1032.4
-621.65 -33.19 1164.0
-677.23 -36.52 1280.5
-602.93 -32.67 1145.6
-606.17 -33.01 1157.5
-613.05 -33.55 1176.4
-577.51 -31.76 1113.8
-544.07 -30.07 1054.5
-577.51 -32.08 1125.0
-592.93 -33.11 1160.9
-560.65 -31.47 1103.3
-559.28 -31.55 1106.3
-562.83 -31.91 1119.0
-550.22 -31.36 1099.6
-561.30 -32.16 1127.6
-598.88 -34.49 1209.4
-611.82 -35.42 1242.0
-613.18 -35.69 1251.4
-598.30 -35.01 1227.5
-556.03 -32.71 1146.9
-532.78 -31.51 1104.8
-541.26 -32.18 1128.5
-575.89 -34.43 1207.2
-557.91 -33.54 1175.9
-526.84 -31.84 1116.5
-597.51 -36.31 1273.3
-650.60 -39.76 1394.2
-565.15 -34.73 1217.8
-595.64 -36.81 1290.7
-677.93 -42.13 1477.3
-636.17 -39.76 1394.2
-577.00 -36.27 1271.8
-576.32 -36.43 1277.6
-612.83 -38.97 1366.4
-657.11 -42.02 1473.6
-650.67 -41.86 1467.7
-620.07 -40.12 1406.9
-606.99 -39.51 1385.3
-606.36 -39.70 1392.2
-613.25 -40.39 1416.4
-635.05 -42.08 1475.6
-649.51 -43.30 1518.3
-632.49 -42.42 1487.6
-615.99 -41.57 1457.6
-607.74 -41.27 1447.0
-603.01 -41.20 1444.7
-625.10 -42.98 1506.9
-646.90 -44.75 1569.3
-631.67 -43.98 1542.1
-630.13 -44.15 1548.1
-644.30 -45.43 1593.0
-614.28 -43.59 1528.6
-586.77 -41.91 1469.6
-630.65 -45.34 1589.9
-781.64 -41.87 1345.9
-706.48 -38.02 1222.0
-731.01 -39.87 1281.6
-600.67 -32.91 1057.9
-496.28 -27.32 878.1
-496.24 -27.57 886.1
-552.40 -30.83 991.0
-632.88 -35.49 1140.7
-658.65 -37.11 1192.7
-571.05 -32.32 1039.0
-514.28 -29.25 940.1
-518.62 -29.64 952.6
-533.38 -30.62 984.4
-539.94 -31.15 1001.3
-531.78 -30.83 990.9
-595.24 -34.67 1114.5
-703.71 -41.19 1324.0
-654.29 -38.49 1237.1
-574.03 -33.93 1090.7
-572.74 -34.02 1093.6
-601.46 -35.91 1154.2
-586.22 -35.17 1130.6
-533.03 -32.14 1033.2
-544.15 -32.98 1060.0
-570.62 -34.76 1117.2
-559.71 -34.27 1101.5
-575.93 -35.44 1139.2
-593.34 -36.70 1179.7
-572.55 -35.60 1144.3
-580.42 -36.28 1166.0
-611.26 -38.40 1234.4
-613.99 -38.78 1246.4
-584.55 -37.11 1193.0
-539.13 -34.41 1106.1
-523.73 -33.61 1080.3
-524.93 -33.87 1088.6
-542.09 -35.16 1130.2
-579.73 -37.81 1215.3
-611.01 -40.07 1287.8
-623.64 -41.12 1321.7
-594.93 -39.44 1267.8
-544.04 -36.27 1165.8
-542.39 -36.36 1168.8
-647.96 -43.68 1404.1
-712.07 -48.28 1551.7
-649.41 -44.28 1423.2
-607.11 -41.63 1338.1
-626.84 -43.23 1389.5
-607.89 -42.17 1355.3
-597.22 -41.67 1339.3
-631.19 -44.29 1423.7
-644.63 -45.50 1462.6
-601.33 -42.70 1372.4
-566.01 -40.43 1299.5
-576.68 -41.44 1331.9
-600.63 -43.42 1395.6
-656.15 -47.72 1533.9
-679.38 -49.71 1597.9
-649.41 -47.81 1536.7
-634.41 -46.99 1510.5
-647.64 -48.27 1551.6
-673.05 -51.44 1653.5
-653.25 -50.25 1615.2
-674.99 -52.26 1679.7
-737.35 -42.60 1264.0
-797.15 -46.26 1372.6
-769.37 -45.05 1336.7
-552.09 -32.48 963.6
-591.80 -34.97 1037.6
-633.69 -37.62 1116.1
-592.16 -35.31 1047.7
-601.37 -36.03 1068.9
-590.95 -35.57 1055.3
-619.53 -37.46 1111.4
-697.34 -42.36 1256.9
-708.86 -43.26 1283.6
-617.71 -37.88 1123.9
-568.94 -35.05 1040.0
-537.70 -33.29 987.6
-518.11 -32.23 956.2
-560.31 -35.02 1039.0
-578.07 -36.30 1077.1
-538.23 -33.97 1007.8
-536.19 -34.00 1008.9
-565.46 -36.03 1069.1
-573.06 -36.70 1088.9
-569.46 -36.65 1087.4
-601.42 -38.90 1154.1
-591.70 -38.46 1141.1
-533.00 -34.82 1033.1
-529.05 -34.74 1030.6
-545.12 -35.97 1067.3
-555.15 -36.82 1092.5
-593.48 -39.57 1173.9
-624.73 -41.86 1242.1
-610.53 -41.12 1220.2
-554.99 -37.58 1114.9
-518.96 -35.32 1048.0
-551.23 -37.72 1119.0
-546.69 -37.60 1115.7
-513.70 -35.52 1053.9
-506.69 -35.22 1045.1
-520.99 -36.41 1080.4
-552.86 -38.85 1152.7
-564.20 -39.86 1182.7
-566.84 -40.27 1194.7
-600.56 -42.90 1272.8
-590.21 -42.39 1257.8
-558.37 -40.33 1196.5
-579.38 -42.08 1248.5
