ply
format ascii 1.0
element vertex 2280
property float x
property float y
property float z
end_header
634.96 305.61 1144.5
654.80 313.70 1174.7
669.53 319.27 1195.6
612.71 290.82 1089.1
650.83 307.50 1151.5
768.07 361.24 1352.8
807.44 378.03 1415.6
737.61 343.77 1287.4
694.96 322.44 1207.5
772.94 357.01 1336.9
854.12 387.55 1451.3
824.72 372.57 1395.2
585.94 558.56 2112.2
568.57 536.98 2030.6
570.83 534.18 2020.0
553.64 513.38 1941.3
563.68 517.97 1958.7
585.41 533.14 2016.1
591.89 534.27 2020.3
606.62 542.77 2052.5
610.15 541.18 2046.5
601.37 528.79 1999.6
585.32 510.28 1929.6
565.24 488.60 1847.7
566.79 485.82 1837.1
584.12 496.50 1877.5
606.28 511.08 1932.7
606.19 506.81 1916.5
610.43 506.21 1914.2
650.57 535.15 2023.7
653.26 533.06 2015.8
628.20 508.54 1923.1
606.34 486.98 1841.5
597.53 476.16 1800.6
632.53 500.14 1891.3
631.07 495.15 1872.4
596.46 464.42 1756.2
631.04 487.62 1843.9
673.29 516.36 1952.6
672.75 512.09 1936.5
683.66 516.55 1953.3
704.98 528.73 1999.4
717.41 534.13 2019.8
713.92 527.68 1995.4
667.21 489.61 1851.5
666.19 485.37 1835.4
730.48 521.04 1970.3
699.01 495.13 1872.4
696.13 489.69 1851.8
729.57 509.70 1927.4
733.28 508.81 1924.1
708.80 488.50 1847.3
715.81 490.02 1853.0
721.07 490.33 1854.2
716.79 484.19 1831.0
730.55 490.23 1853.8
743.69 495.79 1874.8
750.44 497.05 1879.6
744.18 489.72 1851.9
667.13 436.20 1649.5
627.63 407.76 1541.9
677.85 437.60 1654.8
695.25 446.01 1686.6
675.94 430.91 1629.5
675.46 427.93 1618.2
705.02 443.90 1678.6
745.06 466.23 1763.1
719.72 439.59 1662.3
694.66 421.76 1594.9
714.94 431.50 1631.7
716.95 430.17 1626.7
722.10 430.72 1628.8
738.33 437.84 1655.7
755.07 445.19 1683.5
746.75 437.75 1655.3
696.12 405.74 1534.3
670.39 388.52 1469.2
693.45 399.61 1511.1
674.71 386.63 1462.1
634.89 361.78 1368.1
682.66 386.84 1462.8
705.23 397.42 1502.9
654.08 366.57 1386.2
689.16 384.12 1452.6
725.35 402.10 1520.5
650.77 358.80 1356.8
588.59 322.78 1220.6
555.11 302.79 1145.0
560.10 303.89 1149.1
620.76 335.01 1266.9
638.06 342.54 1295.3
619.20 330.67 1250.4
592.78 314.91 1190.9
580.48 306.78 1160.1
594.72 312.69 1182.4
606.85 317.43 1200.4
613.77 319.41 1207.9
621.16 321.62 1216.2
641.03 330.23 1248.8
637.37 326.69 1235.4
630.08 321.34 1215.1
663.18 336.54 1272.6
662.65 334.61 1265.3
602.22 302.60 1144.3
571.34 285.67 1080.3
600.52 298.80 1129.9
645.05 319.39 1207.8
696.33 343.12 1297.5
701.29 343.90 1300.5
654.75 319.54 1208.4
645.56 313.56 1185.7
638.61 308.71 1167.4
646.60 311.10 1176.4
712.56 341.23 1290.3
720.83 343.57 1299.2
671.26 318.46 1204.3
613.69 289.80 1095.9
590.56 277.59 1049.7
659.78 308.71 1167.4
749.69 349.17 1320.4
755.21 350.14 1324.1
781.10 360.51 1363.3
829.99 381.35 1442.1
752.33 344.12 1301.3
729.93 332.38 1256.9
804.62 364.76 1379.3
751.63 339.23 1282.8
767.00 344.64 1303.3
845.96 378.46 1431.1
843.77 375.83 1421.2
859.53 381.18 1441.4
805.43 349.59 1322.0
560.10 518.99 1982.0
561.95 515.97 1970.5
587.88 534.92 2042.8
609.83 549.93 2100.2
615.96 550.55 2102.5
624.02 552.86 2111.4
619.66 544.22 2078.4
631.05 549.45 2098.3
634.37 547.62 2091.3
614.10 525.63 2007.4
614.88 521.87 1993.0
616.45 518.84 1981.4
622.61 519.70 1984.7
652.48 540.16 2062.9
669.19 540.71 2064.9
660.20 529.21 2021.0
652.21 518.69 1980.9
643.42 507.70 1938.9
686.76 537.70 2053.4
689.51 531.61 2030.2
697.71 533.86 2038.8
705.32 535.62 2045.5
718.47 529.68 2022.8
724.14 529.99 2024.0
675.49 490.82 1874.4
684.80 490.53 1873.3
733.07 521.41 1991.2
714.69 504.78 1927.7
708.58 496.99 1898.0
730.70 508.97 1943.7
733.42 507.37 1937.6
709.14 487.23 1860.7
691.11 471.63 1801.1
707.46 479.55 1831.4
698.24 470.15 1795.5
677.87 453.41 1731.6
708.15 470.55 1797.0
739.45 488.13 1864.1
736.81 483.23 1845.4
722.12 470.55 1797.0
706.49 457.41 1746.8
722.87 465.03 1775.9
754.85 482.53 1842.8
753.05 478.35 1826.8
723.61 456.78 1744.4
718.14 450.51 1720.5
723.48 451.06 1722.6
733.74 454.65 1736.3
761.55 469.01 1791.1
766.67 469.29 1792.2
781.01 475.19 1814.7
724.16 435.36 1662.6
700.50 418.64 1598.8
685.57 407.31 1555.5
674.40 398.33 1521.2
689.21 404.71 1545.6
704.13 411.08 1569.9
734.35 426.26 1627.9
729.45 421.00 1607.8
644.50 369.86 1412.5
611.04 348.67 1331.6
637.16 361.53 1380.7
644.65 363.74 1389.1
604.02 338.92 1294.3
539.02 300.78 1148.7
578.86 321.23 1226.8
697.86 385.16 1470.9
706.25 385.57 1472.5
654.01 355.13 1356.2
616.97 333.23 1272.6
606.03 325.58 1243.4
652.78 348.84 1332.2
664.63 353.30 1349.2
645.44 341.31 1303.4
649.49 341.66 1304.8
667.48 349.30 1334.0
686.03 357.16 1364.0
697.67 361.36 1380.0
673.64 347.13 1325.7
654.26 335.43 1281.0
665.82 339.64 1297.1
651.99 330.91 1263.7
648.33 327.41 1250.4
686.93 345.17 1318.2
705.47 352.73 1347.1
660.15 328.45 1254.3
583.93 289.10 1104.1
567.45 279.57 1067.7
616.45 302.24 1154.2
675.95 329.81 1259.5
711.35 345.42 1319.1
688.50 332.72 1270.6
638.43 307.05 1172.6
588.88 281.88 1076.5
606.55 288.97 1103.6
684.17 324.42 1238.9
740.58 349.52 1334.8
743.73 349.38 1334.3
722.59 337.88 1290.3
742.38 345.53 1319.6
791.07 366.51 1399.7
844.89 389.65 1488.1
799.54 367.06 1401.8
776.63 354.93 1355.5
772.99 351.68 1343.0
631.64 286.08 1092.5
674.94 304.33 1162.2
800.58 359.37 1372.4
763.83 341.36 1303.6
787.16 350.24 1337.5
838.92 371.63 1419.2
816.29 360.02 1374.9
880.92 386.84 1477.3
815.48 349.00 1332.8
568.98 526.83 2032.1
591.55 537.77 2074.3
585.00 527.03 2032.8
575.55 513.88 1982.1
608.41 538.41 2076.7
632.98 531.91 2051.7
607.58 506.32 1952.9
640.40 529.26 2041.4
630.23 508.25 1960.4
628.57 502.86 1939.6
644.00 511.11 1971.4
660.18 519.83 2005.0
676.52 528.53 2038.6
694.59 530.22 2045.1
690.88 523.39 2018.8
695.91 523.24 2018.2
680.19 496.49 1915.0
667.93 484.01 1866.9
697.94 502.12 1936.7
733.24 523.74 2020.1
686.86 487.13 1878.9
673.54 471.01 1816.7
720.19 500.13 1929.1
748.89 516.47 1992.1
752.41 515.35 1987.8
717.84 488.33 1883.5
695.32 469.81 1812.1
742.17 498.10 1921.3
702.70 465.36 1795.0
696.43 458.18 1767.3
750.97 490.83 1893.2
745.36 480.88 1854.8
724.74 464.58 1791.9
710.07 452.27 1744.5
711.77 450.49 1737.6
733.44 461.29 1779.2
724.00 452.50 1745.4
709.91 440.94 1700.8
708.43 437.30 1686.7
692.87 425.07 1639.6
696.88 424.93 1639.0
733.03 444.26 1713.6
781.43 470.74 1815.7
769.97 461.06 1778.4
698.52 415.79 1603.7
718.05 424.88 1638.8
744.80 438.12 1689.9
690.93 404.05 1558.5
667.78 388.25 1497.5
666.67 385.36 1486.4
673.11 386.84 1492.1
745.52 426.01 1643.2
745.45 423.55 1633.7
669.82 378.43 1459.7
655.85 368.46 1421.2
641.71 358.50 1382.8
585.40 325.22 1254.4
557.55 306.35 1181.6
640.63 350.07 1350.3
649.39 352.93 1361.3
664.09 358.97 1384.6
672.11 361.35 1393.8
686.97 367.36 1417.0
716.43 381.08 1469.9
703.26 372.09 1435.2
660.67 347.72 1341.2
648.37 339.46 1309.3
658.94 343.20 1323.8
679.16 351.89 1357.3
698.20 359.90 1388.2
691.87 354.81 1368.5
652.36 332.84 1283.8
637.31 323.51 1247.8
651.03 328.80 1268.2
646.96 325.10 1254.0
651.35 325.68 1256.2
622.87 309.89 1195.3
585.55 289.88 1118.1
603.29 297.18 1146.3
584.68 286.61 1105.5
575.51 280.74 1082.8
628.70 305.19 1177.2
660.15 318.91 1230.1
655.71 315.25 1216.0
630.32 301.59 1163.3
580.46 276.41 1066.2
583.09 276.35 1065.9
658.52 310.62 1198.1
677.43 318.04 1226.7
673.75 314.84 1214.4
753.59 350.51 1352.0
818.26 378.82 1461.2
800.14 368.73 1422.2
812.58 372.74 1437.7
796.66 363.77 1403.1
696.98 316.81 1222.0
617.92 279.60 1078.5
610.46 273.75 1055.9
762.71 337.48 1301.7
796.45 350.86 1353.3
848.76 372.26 1435.9
821.16 358.59 1383.1
882.34 383.63 1479.7
575.94 537.90 2095.7
574.52 531.56 2071.0
609.07 553.19 2155.3
569.00 512.10 1995.2
584.01 516.22 2011.2
583.48 502.30 1957.0
601.86 513.66 2001.3
619.32 524.04 2041.7
610.55 512.24 1995.8
587.82 489.02 1905.3
584.56 482.26 1878.9
632.34 517.37 2015.7
667.86 537.54 2094.3
613.64 489.92 1908.8
598.38 473.92 1846.4
610.88 479.98 1870.0
623.18 485.79 1892.7
641.10 495.85 1931.9
674.29 517.48 2016.2
688.64 524.42 2043.2
669.67 506.09 1971.8
661.38 496.03 1932.6
660.50 491.65 1915.5
669.43 494.58 1926.9
689.00 505.27 1968.6
715.23 520.64 2028.5
728.07 526.12 2049.8
711.20 510.21 1987.8
736.56 524.60 2043.9
729.96 512.53 1996.9
678.47 473.02 1842.9
713.79 494.16 1925.3
759.36 522.06 2034.0
773.82 524.72 2044.4
728.62 490.71 1911.8
713.47 477.25 1859.4
773.77 514.12 2003.1
733.53 465.51 1813.7
686.61 432.96 1686.9
690.76 432.82 1686.3
714.56 444.91 1733.4
732.97 453.53 1767.0
747.78 459.81 1791.5
731.79 447.21 1742.4
700.81 425.65 1658.4
707.54 427.11 1664.1
750.27 450.16 1753.9
752.99 449.07 1749.6
688.78 408.32 1590.9
666.24 392.61 1529.6
735.63 430.93 1678.9
781.32 455.00 1772.7
743.77 430.60 1677.7
714.53 411.27 1602.3
714.04 408.61 1592.0
714.30 406.41 1583.4
768.44 434.72 1693.7
744.34 413.99 1612.9
689.60 381.40 1486.0
603.01 331.65 1292.2
546.62 297.34 1158.5
593.78 321.23 1251.5
590.58 317.76 1238.0
591.54 316.55 1233.3
675.00 359.27 1399.8
700.15 368.69 1436.5
620.01 324.77 1265.3
585.65 305.15 1188.9
570.42 295.66 1151.9
616.71 317.99 1238.9
671.21 344.30 1341.4
660.45 337.03 1313.1
633.29 321.52 1252.7
617.80 312.05 1215.8
622.55 312.86 1218.9
639.33 319.67 1245.5
637.45 317.12 1235.5
647.19 320.36 1248.2
629.04 309.83 1207.1
595.34 291.78 1136.8
614.03 299.45 1166.7
626.92 304.24 1185.3
646.28 312.11 1216.0
690.58 331.88 1293.0
704.29 336.83 1312.3
671.32 319.52 1244.9
620.87 294.10 1145.8
601.74 283.68 1105.2
645.18 302.71 1179.4
717.58 335.10 1305.6
727.29 338.04 1317.0
653.73 302.42 1178.3
648.97 298.83 1164.3
722.82 331.29 1290.7
724.92 330.73 1288.5
694.84 315.55 1229.4
646.69 292.34 1139.0
632.51 284.63 1109.0
625.49 280.20 1091.7
682.09 302.81 1179.8
787.57 346.53 1350.1
646.59 283.24 1103.5
731.95 319.22 1243.7
829.28 360.08 1402.9
835.51 361.20 1407.3
860.25 370.28 1442.7
586.54 537.20 2114.3
580.91 527.12 2074.7
607.42 541.16 2129.9
577.62 509.97 2007.2
628.97 540.69 2128.1
562.75 475.42 1871.2
626.16 524.48 2064.3
619.38 510.08 2007.6
596.15 486.86 1916.2
602.73 488.17 1921.4
613.74 493.00 1940.4
646.09 514.77 2026.1
645.23 509.94 2007.0
611.01 479.03 1885.4
603.98 469.76 1848.9
622.32 480.21 1890.1
646.36 494.87 1947.7
666.04 505.98 1991.5
664.18 500.69 1970.7
652.54 488.16 1921.3
652.30 484.29 1906.1
676.72 498.64 1962.6
708.73 518.33 2040.1
692.92 503.01 1979.8
683.94 492.84 1939.7
696.57 498.28 1961.1
683.09 485.09 1909.3
677.94 477.97 1881.2
684.61 479.23 1886.2
732.04 508.79 2002.5
742.91 498.66 1962.7
757.43 504.96 1987.4
753.63 473.43 1863.4
718.91 448.75 1766.2
738.37 457.97 1802.5
735.72 453.46 1784.8
728.89 446.44 1757.1
746.30 454.27 1788.0
732.56 443.15 1744.2
707.63 425.45 1674.5
717.44 428.71 1687.4
749.52 445.17 1752.1
738.76 436.13 1716.6
699.59 410.54 1615.8
707.82 412.89 1625.1
737.19 427.48 1682.5
736.16 424.38 1670.3
738.24 423.08 1665.2
749.02 426.77 1679.7
768.23 435.18 1712.8
711.68 398.54 1568.6
619.63 345.02 1358.0
693.28 383.85 1510.8
768.00 422.83 1664.2
720.31 394.36 1552.1
647.00 352.26 1386.4
566.77 306.87 1207.8
561.04 302.10 1189.0
607.45 325.30 1280.3
610.19 324.99 1279.1
585.52 310.17 1220.8
644.43 339.54 1336.4
698.30 365.96 1440.4
618.92 322.63 1269.8
576.14 298.74 1175.8
563.11 290.45 1143.2
572.87 293.94 1156.9
644.40 328.91 1294.5
691.19 350.97 1381.4
676.56 341.77 1345.1
639.77 321.53 1265.5
616.34 308.17 1212.9
625.08 310.95 1223.9
646.33 319.90 1259.1
646.71 318.48 1253.5
656.94 321.90 1267.0
656.85 320.26 1260.5
644.52 312.69 1230.7
675.68 326.19 1283.8
694.74 333.75 1313.6
662.63 316.77 1246.8
649.09 308.79 1215.4
676.03 320.05 1259.7
661.45 311.65 1226.6
641.63 300.86 1184.1
653.37 304.90 1200.1
652.99 303.28 1193.7
668.56 309.05 1216.4
712.07 327.62 1289.5
678.67 310.79 1223.2
664.96 303.10 1193.0
725.07 328.97 1294.8
742.98 335.54 1320.6
725.92 326.33 1284.4
702.93 314.55 1238.0
706.35 314.65 1238.4
734.54 325.72 1282.0
748.77 330.54 1300.9
778.71 342.21 1346.9
844.15 369.31 1453.6
847.00 368.92 1452.0
805.90 349.46 1375.4
801.66 346.09 1362.2
811.78 348.92 1373.3
874.30 374.15 1472.6
562.63 524.76 2086.7
606.40 544.63 2165.7
593.54 518.68 2062.5
572.76 483.11 1921.0
571.19 477.63 1899.3
620.59 514.51 2045.9
652.81 527.69 2098.3
652.85 523.36 2081.1
645.76 513.43 2041.6
665.07 524.48 2085.6
675.65 528.53 2101.7
649.43 503.96 2004.0
636.33 489.88 1948.0
648.22 495.10 1968.7
671.53 508.90 2023.6
689.55 518.50 2061.8
675.12 503.74 2003.1
653.84 484.14 1925.2
669.05 491.65 1955.0
709.44 517.41 2057.5
700.51 507.08 2016.4
647.98 465.59 1851.4
651.96 465.00 1849.0
680.67 481.93 1916.4
694.61 488.24 1941.5
718.57 501.45 1994.0
690.30 478.28 1901.8
698.02 480.20 1909.5
759.91 519.09 2064.1
776.15 526.48 2093.5
772.39 516.70 2054.6
724.36 481.25 1913.7
721.44 476.05 1893.0
793.76 520.24 2068.7
759.35 478.29 1901.9
744.03 465.62 1851.5
748.92 465.67 1851.7
761.15 470.27 1870.0
762.02 467.82 1860.3
740.94 452.02 1797.4
721.44 437.37 1739.2
725.69 437.21 1738.6
733.33 439.09 1746.0
727.34 432.84 1721.1
710.57 420.28 1671.2
713.89 419.68 1668.8
719.12 420.21 1670.9
697.25 404.99 1610.4
702.74 405.75 1613.4
726.23 416.83 1657.5
733.01 418.25 1663.1
744.94 422.57 1680.3
758.94 428.00 1701.9
675.80 374.59 1489.5
600.93 331.19 1317.0
680.22 372.78 1482.3
777.79 423.85 1685.4
774.03 419.45 1667.9
717.43 386.61 1537.3
641.62 343.85 1367.3
609.60 324.89 1291.9
632.01 335.00 1332.1
639.89 337.33 1341.4
622.09 326.17 1297.0
638.40 332.93 1323.9
650.15 337.24 1341.0
619.23 319.50 1270.5
598.74 307.29 1221.9
592.27 302.37 1202.4
612.12 310.87 1236.1
652.11 329.45 1310.0
669.27 336.37 1337.5
644.01 322.01 1280.4
594.74 295.85 1176.4
598.97 296.43 1178.7
636.93 313.62 1247.1
654.23 320.51 1274.5
650.16 316.91 1260.2
615.03 298.29 1186.1
574.18 277.09 1101.8
614.49 295.08 1173.4
697.37 333.23 1325.1
705.12 335.28 1333.2
662.49 313.47 1246.5
591.45 278.50 1107.4
563.24 263.94 1049.5
585.31 272.96 1085.4
607.52 281.96 1121.2
662.55 306.04 1216.9
699.23 321.45 1278.2
717.80 328.43 1306.0
752.54 342.71 1362.7
705.53 319.80 1271.6
678.60 306.16 1217.4
747.85 335.84 1335.4
777.34 347.48 1381.7
750.30 333.85 1327.5
716.28 317.26 1261.6
718.79 316.92 1260.2
759.66 333.42 1325.8
770.56 336.69 1338.8
784.94 341.43 1357.7
870.55 376.98 1499.0
825.55 354.33 1409.0
773.28 330.43 1313.9
791.26 336.63 1338.6
864.23 366.07 1455.7
594.78 519.08 2085.6
594.42 514.09 2065.5
568.73 487.49 1958.6
571.78 481.50 1934.6
603.09 503.45 2022.8
604.01 499.87 2008.4
598.35 490.96 1972.6
607.89 494.56 1987.1
649.05 523.60 2103.7
653.45 514.19 2065.9
662.48 517.06 2077.5
660.84 511.62 2055.6
642.59 493.51 1982.8
637.59 485.79 1951.8
641.27 484.74 1947.6
654.13 490.59 1971.1
649.49 483.34 1942.0
630.10 461.75 1855.2
688.95 501.06 2013.2
673.74 479.11 1925.0
651.99 460.23 1849.1
705.48 494.35 1986.2
746.49 519.29 2086.4
694.72 473.00 1900.5
670.50 453.29 1821.3
672.31 451.34 1813.4
682.94 455.29 1829.3
688.84 456.06 1832.4
680.21 444.22 1784.8
782.67 507.68 2039.8
777.84 501.16 2013.6
751.34 480.86 1932.0
781.28 496.71 1995.7
744.32 467.03 1876.4
730.85 455.60 1830.5
734.25 454.76 1827.2
756.26 465.39 1869.9
754.32 455.44 1829.9
725.92 435.55 1750.0
727.19 433.61 1742.2
732.20 433.90 1743.3
734.55 432.62 1738.2
726.96 425.54 1709.8
729.60 424.49 1705.6
736.06 425.67 1710.3
693.35 398.57 1601.4
677.02 386.87 1554.4
727.39 413.19 1660.1
762.09 430.36 1729.1
749.67 420.87 1691.0
740.66 413.39 1660.9
718.74 398.84 1602.5
674.91 372.36 1496.1
668.09 366.49 1472.5
692.33 377.64 1517.3
717.58 389.20 1563.7
742.62 400.52 1609.2
755.54 405.21 1628.1
717.38 382.60 1537.2
670.95 355.86 1429.8
666.94 351.79 1413.4
633.16 332.15 1334.5
589.38 307.50 1235.5
615.22 319.25 1282.7
674.32 348.04 1398.4
706.67 362.78 1457.6
698.21 356.53 1432.5
671.61 341.14 1370.6
651.65 329.26 1322.9
637.98 320.66 1288.4
645.91 322.95 1297.6
611.94 304.39 1223.0
551.34 272.83 1096.2
549.67 270.61 1087.3
597.49 292.65 1175.8
622.59 303.39 1219.0
627.35 304.17 1222.1
620.04 299.11 1201.8
586.12 281.34 1130.4
603.34 288.16 1157.8
710.84 337.82 1357.3
678.52 319.30 1282.9
662.81 310.39 1247.1
626.25 291.84 1172.6
592.61 274.84 1104.2
612.48 282.68 1135.8
646.90 297.14 1193.9
710.05 324.59 1304.2
742.70 337.91 1357.7
754.38 341.61 1372.5
742.03 334.44 1343.7
653.72 293.26 1178.3
651.32 290.82 1168.5
763.00 339.11 1362.5
751.84 329.58 1324.2
677.48 295.63 1187.8
748.83 325.29 1307.0
796.77 344.55 1384.3
762.80 328.38 1319.4
794.36 340.44 1367.8
556.18 508.05 2062.8
572.36 512.96 2082.7
601.84 534.35 2169.5
609.82 521.92 2119.1
633.37 537.23 2181.2
632.03 531.36 2157.4
642.44 535.37 2173.7
645.98 533.63 2166.6
641.34 525.24 2132.5
624.68 507.22 2059.4
594.28 478.44 1942.5
590.58 471.47 1914.2
615.08 486.94 1977.0
613.07 481.34 1954.3
608.01 473.45 1922.3
622.32 480.66 1951.5
626.34 479.86 1948.3
615.63 467.88 1899.7
645.50 486.69 1976.0
686.09 513.21 2083.7
664.61 493.26 2002.7
625.75 460.83 1871.0
651.74 472.63 1919.0
709.18 499.05 2026.2
653.29 446.49 1812.8
680.74 461.93 1875.5
674.02 454.13 1843.8
674.89 451.51 1833.2
696.72 462.85 1879.3
687.39 453.49 1841.2
672.40 440.54 1788.7
680.63 442.88 1798.1
763.86 493.65 2004.3
792.87 508.93 2066.3
725.57 462.61 1878.3
700.87 443.88 1802.2
718.10 451.78 1834.3
749.76 468.60 1902.6
764.48 474.68 1927.3
746.78 460.68 1870.4
742.63 455.16 1848.0
748.25 455.66 1850.1
753.50 455.94 1851.2
773.91 465.32 1889.3
756.95 452.26 1836.3
725.55 430.80 1749.1
723.44 426.87 1733.2
715.21 419.41 1702.9
705.70 411.30 1669.9
711.31 412.04 1672.9
727.29 418.74 1700.2
742.99 425.21 1726.4
711.92 404.99 1644.3
690.22 390.30 1584.7
737.16 414.38 1682.4
759.34 424.33 1722.9
733.06 407.25 1653.5
704.09 388.88 1578.9
669.20 367.48 1492.0
664.82 362.98 1473.7
695.03 377.30 1531.9
682.96 368.64 1496.8
668.70 358.91 1457.2
683.30 364.68 1480.7
682.79 362.38 1471.3
657.48 347.00 1408.9
623.60 327.31 1328.9
639.78 333.95 1355.9
626.78 325.38 1321.1
580.01 299.46 1215.9
598.64 307.41 1248.1
663.21 338.74 1375.3
704.46 357.88 1453.1
699.84 353.64 1435.8
678.82 341.21 1385.3
650.25 325.12 1320.0
626.16 311.44 1264.5
651.45 322.33 1308.7
634.97 312.55 1269.0
592.42 290.10 1177.9
618.68 301.41 1223.8
650.88 315.48 1280.9
651.77 314.31 1276.1
624.09 299.44 1215.8
589.43 281.39 1142.5
588.20 279.39 1134.4
639.75 302.37 1227.7
704.83 331.48 1345.9
679.84 318.15 1291.8
635.90 296.13 1202.3
636.53 294.98 1197.6
661.53 305.08 1238.7
692.25 317.70 1289.9
700.44 319.91 1298.9
715.19 325.09 1319.9
732.82 331.51 1346.0
724.28 326.10 1324.0
630.91 282.72 1147.9
579.09 257.07 1043.7
756.35 334.20 1356.9
824.03 362.42 1471.5
841.83 368.54 1496.3
844.41 366.30 1487.2
705.89 304.82 1237.6
734.59 315.78 1282.1
804.45 344.25 1397.7
797.42 339.71 1379.3
813.39 344.97 1400.6
849.05 356.90 1449.1
833.53 348.83 1416.3
585.28 539.37 2213.2
564.35 510.08 2093.0
582.40 511.64 2099.4
592.66 501.89 2059.4
583.76 489.94 2010.4
595.43 495.31 2032.4
617.13 508.86 2088.0
627.14 512.62 2103.4
629.92 510.45 2094.6
633.50 508.97 2088.5
615.40 490.24 2011.6
605.55 478.33 1962.8
626.12 490.46 2012.5
619.53 481.29 1974.9
610.40 470.31 1929.8
625.33 477.89 1961.0
630.26 477.78 1960.5
624.67 469.76 1927.6
658.86 491.53 2016.9
696.57 511.55 2099.0
701.50 511.17 2097.5
707.37 503.73 2067.0
720.45 509.19 2089.4
687.90 482.55 1980.1
675.76 470.53 1930.7
652.05 450.68 1849.3
657.32 447.74 1837.2
675.45 456.78 1874.3
691.74 464.46 1905.8
688.10 458.73 1882.3
690.07 456.81 1874.4
768.93 505.45 2074.0
776.71 503.52 2066.1
752.09 484.22 1986.9
779.20 498.26 2044.5
752.76 478.11 1961.8
718.92 453.55 1861.1
717.84 449.85 1845.9
721.32 449.03 1842.5
736.21 455.29 1868.2
761.65 467.94 1920.1
751.87 458.93 1883.2
724.47 439.36 1802.8
710.60 428.18 1757.0
716.38 428.91 1760.0
735.11 437.34 1794.6
746.93 441.58 1812.0
742.75 436.36 1790.6
727.19 424.57 1742.2
706.51 409.95 1682.2
726.96 419.23 1720.2
765.89 438.99 1801.3
748.00 426.13 1748.6
727.17 411.77 1689.6
702.59 395.47 1622.7
685.12 383.34 1573.0
672.51 374.06 1534.9
643.60 355.87 1460.3
663.80 364.90 1497.3
679.79 371.51 1524.5
667.54 362.71 1488.3
687.63 371.48 1524.3
670.37 360.09 1477.6
608.33 324.90 1333.2
708.94 376.50 1544.9
740.68 388.96 1596.0
621.88 324.76 1332.6
591.97 307.43 1261.5
611.76 315.96 1296.5
644.26 330.93 1357.9
642.95 328.46 1347.8
623.44 316.77 1299.8
644.02 325.47 1335.5
681.80 342.72 1406.3
681.78 340.89 1398.8
649.92 323.24 1326.4
610.42 301.99 1239.2
591.35 291.03 1194.2
616.06 301.61 1237.6
630.90 307.28 1260.9
616.86 298.89 1226.4
634.41 305.82 1254.9
655.18 314.22 1289.3
639.64 305.21 1252.4
599.84 284.77 1168.5
587.03 277.29 1137.8
609.18 286.31 1174.8
630.12 294.68 1209.2
650.30 302.61 1241.7
640.10 296.40 1216.2
610.61 281.36 1154.5
615.72 282.33 1158.5
641.12 292.55 1200.4
683.79 310.51 1274.1
705.88 319.00 1309.0
702.95 316.16 1297.3
700.43 313.53 1286.5
684.26 304.84 1250.8
594.93 263.79 1082.4
595.96 261.78 1074.2
808.13 353.32 1449.8
820.64 355.48 1458.7
807.18 348.05 1428.2
854.46 366.75 1504.9
845.81 361.39 1482.9
760.22 323.35 1326.8
723.31 306.27 1256.7
723.83 305.11 1252.0
743.98 312.21 1281.1
833.28 348.13 1428.5
826.18 343.63 1410.0
830.43 343.88 1411.1
579.21 538.67 2234.1
550.97 492.69 2043.4
606.32 537.03 2227.3
610.16 535.33 2220.3
609.28 529.56 2196.3
597.25 514.30 2133.0
591.27 504.48 2092.3
599.78 507.09 2103.1
591.91 495.92 2056.8
581.91 483.19 2004.0
594.66 489.41 2029.8
600.35 489.76 2031.3
595.74 481.77 1998.1
613.43 491.80 2039.7
631.59 502.03 2082.2
614.31 484.16 2008.0
606.16 473.72 1964.8
650.49 504.13 2090.9
668.29 513.64 2130.3
617.79 470.94 1953.2
600.20 453.81 1882.2
639.25 479.44 1988.5
671.89 499.88 2073.3
642.57 474.28 1967.1
623.11 456.30 1892.5
656.73 477.15 1979.0
690.07 486.19 2016.4
673.16 470.71 1952.2
689.86 478.79 1985.7
730.23 503.05 2086.4
742.02 492.91 2044.3
699.51 461.38 1913.6
688.41 450.86 1869.9
754.42 490.63 2034.9
730.78 468.71 1943.9
705.27 443.18 1838.1
750.23 468.27 1942.1
718.22 445.29 1846.8
693.59 427.18 1771.7
703.32 430.32 1784.7
726.42 441.55 1831.3
745.75 450.35 1867.8
746.31 447.79 1857.2
729.99 435.19 1804.9
730.36 432.63 1794.3
749.55 441.19 1829.8
762.93 446.24 1850.8
758.09 440.64 1827.5
742.23 428.74 1778.2
729.93 419.03 1737.9
759.24 433.19 1796.6
787.16 443.67 1840.1
755.71 423.38 1756.0
720.01 400.97 1663.0
682.73 377.94 1567.5
654.43 360.13 1493.6
634.86 347.31 1440.4
655.03 356.25 1477.5
663.03 358.50 1486.9
634.70 341.19 1415.1
655.85 350.54 1453.8
640.84 340.56 1412.5
622.41 328.89 1364.1
776.92 408.21 1693.0
721.71 374.97 1555.2
630.86 325.95 1351.9
634.18 325.85 1351.5
630.41 322.13 1336.0
641.64 326.08 1352.4
640.74 323.85 1343.2
620.78 312.07 1294.3
618.87 309.43 1283.4
635.23 315.92 1310.3
641.43 317.30 1316.0
616.69 303.45 1258.6
615.03 301.04 1248.6
633.27 308.35 1278.9
614.18 297.49 1233.8
588.77 283.71 1176.7
597.39 286.38 1187.7
637.80 304.18 1261.6
634.67 301.15 1249.0
598.58 282.58 1172.0
605.93 284.60 1180.4
642.45 300.24 1245.2
643.22 299.10 1240.5
635.84 294.20 1220.2
653.33 300.79 1247.5
641.77 294.01 1219.4
616.84 281.21 1166.3
624.28 283.21 1174.6
639.58 288.74 1197.5
668.85 300.50 1246.3
697.38 311.81 1293.2
702.34 312.52 1296.2
684.85 303.29 1257.9
654.53 288.49 1196.5
634.32 278.26 1154.1
627.66 274.05 1136.6
654.15 284.28 1179.0
761.81 329.53 1366.7
787.49 339.06 1406.2
683.30 292.84 1214.5
763.24 325.60 1350.4
822.85 346.27 1436.1
763.68 319.92 1326.9
748.17 312.02 1294.1
764.97 317.60 1317.2
844.51 349.06 1447.7
865.16 356.02 1476.6
576.34 524.98 2201.0
618.21 531.55 2228.5
593.11 505.24 2118.3
584.17 493.06 2067.2
588.35 492.07 2063.0
606.52 502.70 2107.6
619.46 508.84 2133.4
597.45 486.42 2039.3
573.32 462.68 1939.8
576.29 461.03 1932.9
601.12 476.75 1998.8
618.06 486.00 2037.6
599.81 467.65 1960.6
580.62 448.88 1882.0
611.45 468.78 1965.4
658.43 500.63 2098.9
639.59 482.31 2022.1
614.45 459.59 1926.8
647.35 480.29 2013.7
675.25 496.99 2083.6
638.07 465.89 1953.3
614.30 445.00 1865.7
642.64 461.90 1936.5
636.04 453.61 1901.8
659.06 462.85 1940.5
704.02 490.68 2057.2
681.15 471.17 1975.4
694.71 476.96 1999.7
716.12 488.02 2046.0
704.64 476.67 1998.5
713.52 479.15 2008.9
724.41 482.94 2024.8
729.75 483.00 2025.0
720.10 473.21 1984.0
712.95 465.18 1950.3
739.01 478.79 2007.4
742.93 477.97 2003.9
719.54 459.70 1927.3
703.34 446.26 1871.0
678.24 427.39 1791.8
718.23 446.47 1871.8
795.64 491.27 2059.7
797.84 489.34 2051.6
717.43 437.11 1832.6
679.34 411.18 1723.9
719.02 426.77 1789.3
745.74 439.79 1843.9
727.05 426.04 1786.2
727.72 423.73 1776.5
743.60 430.26 1803.9
743.50 427.51 1792.4
740.72 423.27 1774.6
742.40 421.61 1767.6
766.09 432.39 1812.8
789.09 439.98 1844.6
759.57 420.97 1764.9
737.45 406.26 1703.3
712.33 390.09 1635.5
710.43 386.74 1621.4
720.68 390.02 1635.2
717.92 386.25 1619.4
697.58 373.12 1564.3
669.00 355.77 1491.6
683.90 361.60 1516.0
669.02 351.71 1474.6
653.15 341.42 1431.4
698.63 363.13 1522.4
692.50 357.92 1500.6
646.36 332.21 1392.8
629.10 321.54 1348.1
632.00 321.24 1346.8
630.30 318.61 1335.8
616.39 309.88 1299.2
593.49 296.74 1244.1
582.61 289.73 1214.7
587.31 290.50 1217.9
603.97 297.14 1245.8
609.18 298.11 1249.8
594.61 289.44 1213.5
602.79 291.88 1223.7
658.31 317.09 1329.4
675.49 323.67 1357.0
635.44 302.91 1269.9
636.78 301.98 1266.1
661.49 312.09 1308.4
640.73 300.75 1260.9
606.87 283.41 1188.2
614.70 285.62 1197.5
629.74 291.14 1220.6
609.30 280.28 1175.1
640.66 293.24 1229.4
703.56 320.43 1343.4
677.62 307.10 1287.5
642.29 289.66 1214.4
653.04 293.07 1228.7
672.14 300.18 1258.5
670.08 297.81 1248.6
664.72 294.01 1232.7
675.15 297.20 1246.0
666.45 291.97 1224.1
670.33 292.28 1225.4
688.36 298.72 1252.4
706.02 304.95 1278.5
757.04 325.45 1364.5
752.62 322.05 1350.2
667.78 284.43 1192.5
663.86 280.16 1174.6
781.74 328.40 1376.8
757.31 316.69 1327.7
762.37 317.37 1330.6
785.51 325.53 1364.8
794.58 327.81 1374.3
843.02 346.24 1451.6
592.98 529.03 2242.4
601.19 531.15 2251.3
586.09 512.83 2173.7
605.45 524.72 2224.1
610.31 523.95 2220.8
584.40 497.02 2106.7
571.61 481.63 2041.5
573.35 478.67 2028.9
589.20 487.43 2066.0
618.71 507.23 2150.0
610.01 495.63 2100.8
572.54 461.07 1954.3
601.83 480.41 2036.3
649.20 509.29 2158.7
632.55 491.98 2085.3
616.11 475.14 2013.9
600.77 459.42 1947.3
615.54 466.79 1978.5
646.81 486.44 2061.9
660.23 492.46 2087.4
658.64 487.29 2065.4
647.40 475.11 2013.8
626.88 456.37 1934.4
621.74 449.04 1903.3
629.88 451.33 1913.0
629.45 447.50 1896.8
699.01 481.90 2042.6
703.46 481.31 2040.1
683.22 463.98 1966.6
667.80 450.15 1908.0
673.16 443.89 1881.5
719.54 471.06 1996.7
733.13 476.54 2019.9
750.19 484.16 2052.2
770.76 493.94 2093.6
766.74 487.92 2068.1
737.67 466.16 1975.9
718.48 450.91 1911.2
749.11 466.91 1979.1
777.27 481.17 2039.5
780.87 480.13 2035.1
806.74 489.42 2074.5
725.28 437.09 1852.6
690.07 413.14 1751.1
681.78 405.50 1718.8
726.70 423.91 1796.8
742.88 430.59 1825.1
741.78 427.23 1810.9
758.49 434.10 1840.0
753.23 428.40 1815.8
742.97 419.94 1780.0
747.31 419.78 1779.3
773.70 431.94 1830.8
757.20 417.61 1770.1
732.13 401.35 1701.2
716.07 390.19 1653.9
693.17 375.46 1591.5
692.34 372.80 1580.2
720.25 385.54 1634.2
737.29 392.36 1663.1
733.36 388.00 1644.6
725.34 381.54 1617.2
725.24 379.29 1607.7
693.18 360.45 1527.8
673.35 348.15 1475.7
713.25 366.70 1554.3
706.36 361.12 1530.6
660.67 335.87 1423.6
663.32 335.34 1421.4
679.66 341.71 1448.4
670.66 335.33 1421.3
655.26 325.84 1381.1
611.04 302.20 1280.9
579.50 285.05 1208.2
593.54 290.39 1230.8
616.64 300.07 1271.9
630.47 305.18 1293.5
625.03 300.94 1275.6
615.61 294.85 1249.7
651.24 310.28 1315.1
678.86 321.75 1363.8
649.32 306.15 1297.7
627.41 294.30 1247.4
630.90 294.42 1247.9
641.03 297.62 1261.5
637.87 294.65 1248.9
638.68 293.53 1244.2
647.09 295.90 1254.2
611.84 278.38 1180.0
622.41 281.79 1194.4
672.10 302.78 1283.4
635.53 284.89 1207.5
618.78 276.03 1170.0
645.99 286.76 1215.4
656.77 290.13 1229.7
646.31 284.13 1204.3
656.20 287.09 1216.9
682.46 297.15 1259.5
663.47 287.50 1218.6
657.00 283.35 1201.0
683.96 293.58 1244.4
715.34 305.61 1295.4
798.24 339.44 1438.7
808.75 342.31 1450.9
728.38 306.86 1300.7
673.83 282.57 1197.7
670.43 279.86 1186.2
678.59 281.97 1195.2
785.61 320.59 1358.8
818.79 332.63 1409.9
879.81 355.84 1508.3
567.93 511.13 2190.6
582.90 519.41 2226.1
580.63 507.34 2174.3
581.43 498.37 2135.9
610.64 518.47 2222.0
601.67 506.08 2168.9
603.48 502.90 2155.3
598.86 494.47 2119.2
610.12 499.19 2139.4
631.56 507.50 2175.0
590.41 470.23 2015.3
618.74 488.48 2093.5
623.54 479.64 2055.6
601.59 458.84 1966.5
603.11 456.13 1954.8
635.01 476.25 2041.1
667.89 488.70 2094.4
645.05 468.18 2006.5
669.95 482.36 2067.3
681.81 483.17 2070.7
640.85 450.60 1931.1
645.07 450.05 1928.8
666.74 461.59 1978.2
664.77 456.71 1957.3
665.55 453.78 1944.8
689.81 466.79 2000.5
689.02 462.78 1983.3
690.73 460.48 1973.5
681.02 450.67 1931.5
678.30 445.60 1909.7
736.35 480.23 2058.1
755.34 489.07 2096.0
741.51 476.68 2042.9
752.58 480.37 2058.7
766.09 485.55 2080.9
762.37 479.82 2056.4
732.23 457.65 1961.3
756.31 469.44 2011.9
786.86 478.50 2050.7
767.58 463.64 1987.0
722.86 433.71 1858.8
760.20 453.10 1941.8
737.09 430.77 1846.2
705.90 409.88 1756.6
721.93 416.50 1785.0
720.41 412.97 1769.9
703.62 400.80 1717.7
725.71 410.78 1760.5
726.27 408.52 1750.8
748.24 418.27 1792.6
785.91 436.62 1871.2
753.53 416.06 1783.1
713.10 391.34 1677.2
711.04 387.84 1662.2
719.73 390.22 1672.4
696.22 375.21 1608.0
665.78 356.67 1528.6
680.12 362.20 1552.3
724.15 383.37 1643.0
727.74 383.02 1641.5
708.62 370.79 1589.1
699.67 363.99 1560.0
696.63 360.32 1544.2
692.70 356.25 1526.8
700.48 358.20 1535.1
697.68 354.75 1520.4
648.49 327.89 1405.2
627.22 315.36 1351.5
664.46 332.23 1423.8
700.35 348.24 1492.5
712.32 352.25 1509.6
704.22 346.34 1484.3
666.94 326.22 1398.1
619.98 301.61 1292.6
619.33 299.67 1284.3
624.61 300.62 1288.4
622.62 298.06 1277.4
645.99 307.62 1318.4
663.91 314.48 1347.8
657.63 309.88 1328.0
642.97 301.39 1291.7
625.53 291.70 1250.1
618.90 287.12 1230.5
617.50 285.00 1221.4
618.71 284.10 1217.6
666.22 304.37 1304.4
681.95 308.42 1321.8
596.79 268.56 1151.0
594.19 266.05 1140.2
622.89 277.52 1189.4
635.82 281.89 1208.1
670.81 295.94 1268.3
679.84 298.46 1279.1
666.76 291.30 1248.4
658.19 286.17 1226.4
670.44 290.10 1243.3
684.63 294.82 1263.5
653.00 279.86 1199.4
633.32 270.14 1157.7
638.96 271.26 1162.5
654.56 276.57 1185.3
725.39 305.07 1307.4
763.31 319.53 1369.4
691.84 288.27 1235.4
654.90 271.62 1164.1
681.81 281.48 1206.4
713.24 293.11 1256.2
811.96 327.70 1404.4
586.73 506.98 2197.2
595.33 504.61 2186.9
605.79 508.64 2204.4
577.98 480.75 2083.5
614.33 506.26 2194.0
624.63 505.39 2190.3
627.47 503.11 2180.4
623.38 490.98 2127.9
573.13 447.44 1939.2
572.56 435.54 1887.6
587.30 439.24 1903.6
589.50 437.21 1894.8
591.66 435.19 1886.0
635.30 463.45 2008.5
656.37 474.93 2058.3
652.56 468.37 2029.8
693.16 485.76 2105.2
663.34 461.23 1998.9
679.18 468.58 2030.8
710.14 486.17 2107.0
697.52 470.30 2038.2
695.58 465.47 2017.3
689.70 458.08 1985.3
686.88 452.84 1962.5
673.20 427.96 1854.7
767.06 484.17 2098.3
769.52 482.30 2090.2
758.00 471.76 2044.6
746.28 461.24 1999.0
784.90 481.77 2087.9
764.13 462.64 2005.0
736.13 442.67 1918.5
717.24 428.42 1856.7
711.53 422.17 1829.6
788.02 464.46 2012.9
741.09 428.29 1856.2
706.61 405.73 1758.4
705.79 402.66 1745.1
689.06 390.61 1692.9
680.22 380.75 1650.1
701.89 390.43 1692.1
744.08 411.33 1782.6
779.86 428.44 1856.8
747.04 407.90 1767.8
728.76 395.48 1714.0
750.63 404.88 1754.7
742.12 397.89 1724.4
700.83 373.50 1618.7
665.32 352.46 1527.5
672.60 354.21 1535.1
706.35 369.79 1602.6
699.54 364.09 1577.9
699.79 362.10 1569.3
712.02 366.30 1587.5
701.39 358.76 1554.8
689.80 350.81 1520.4
675.62 341.65 1480.7
653.11 328.40 1423.2
627.88 313.94 1360.6
629.16 312.82 1355.7
634.97 313.96 1360.7
642.88 316.11 1370.0
663.78 324.60 1406.8
664.27 323.06 1400.1
661.35 319.89 1386.4
647.79 311.64 1350.6
600.91 287.53 1246.1
563.82 268.34 1163.0
615.62 291.44 1263.1
693.26 326.46 1414.8
678.07 317.62 1376.5
640.98 298.68 1294.4
654.18 303.24 1314.2
665.26 306.78 1329.5
637.23 292.34 1267.0
611.15 278.94 1208.9
596.81 271.00 1174.5
619.30 279.79 1212.6
679.97 305.64 1324.6
649.48 290.47 1258.9
583.98 259.87 1126.3
600.34 265.82 1152.0
629.08 277.17 1201.2
638.84 280.08 1213.8
661.03 288.39 1249.8
658.99 286.10 1239.9
637.98 275.63 1194.5
620.02 266.58 1155.3
653.53 279.64 1211.9
691.94 294.65 1277.0
661.25 280.25 1214.5
643.01 271.22 1175.4
642.08 269.55 1168.2
651.53 272.24 1179.8
649.15 269.97 1170.0
617.60 255.66 1108.0
630.35 259.73 1125.6
682.11 279.76 1212.4
691.76 282.42 1224.0
704.84 286.44 1241.4
756.85 306.18 1326.9
771.18 310.56 1345.9
798.78 320.23 1387.8
882.69 341.56 1480.3
558.31 501.34 2197.4
589.12 518.42 2272.3
588.94 508.10 2227.1
601.15 513.60 2251.2
603.05 510.27 2236.6
589.74 494.26 2166.4
572.26 466.28 2043.8
606.93 490.00 2147.7
600.05 480.04 2104.1
592.14 469.45 2057.6
595.17 467.64 2049.7
586.36 456.63 2001.5
568.07 430.95 1888.9
576.83 433.85 1901.6
605.57 436.80 1914.6
623.45 446.05 1955.1
616.11 437.24 1916.5
636.29 447.95 1963.4
645.17 450.59 1975.0
635.75 440.52 1930.8
639.67 439.77 1927.6
662.79 452.13 1981.8
702.70 475.67 2084.9
720.15 483.76 2120.4
704.84 469.89 2059.6
719.20 475.86 2085.8
727.58 477.81 2094.3
710.48 463.13 2030.0
712.05 444.40 1947.9
712.13 441.32 1934.4
746.82 459.58 2014.4
748.14 447.87 1963.1
715.12 425.21 1863.7
720.06 425.27 1864.0
737.05 432.40 1895.3
738.13 430.17 1885.5
732.35 423.99 1858.4
745.20 428.61 1878.7
732.74 418.71 1835.3
719.73 408.62 1791.0
737.68 416.13 1823.9
724.44 406.05 1779.8
707.28 393.93 1726.6
718.96 397.92 1744.1
736.72 405.20 1776.0
746.71 408.14 1788.9
747.65 406.13 1780.1
747.79 403.71 1769.5
758.60 407.05 1784.2
759.46 405.04 1775.4
727.78 385.81 1691.1
719.83 379.31 1662.6
720.36 377.33 1653.9
695.70 362.26 1587.8
694.44 359.48 1575.6
716.14 368.54 1615.3
745.98 381.66 1672.9
762.04 387.63 1699.0
754.86 381.77 1673.3
750.40 377.34 1653.9
740.98 370.49 1623.9
725.70 360.80 1581.4
706.54 349.30 1531.0
675.21 331.95 1455.0
651.01 318.27 1395.0
636.11 309.27 1355.6
634.00 306.55 1343.6
615.46 295.96 1297.2
595.87 284.98 1249.1
619.29 294.58 1291.2
608.84 288.05 1262.6
579.90 272.89 1196.1
638.65 298.94 1310.3
703.49 327.55 1435.7
677.08 313.60 1374.5
632.58 291.45 1277.5
637.88 292.36 1281.5
651.53 297.07 1302.1
624.75 283.39 1242.1
630.00 284.31 1246.2
644.14 289.20 1267.6
627.16 280.15 1227.9
639.55 284.25 1245.9
688.86 304.62 1335.2
710.12 312.45 1369.5
675.80 295.87 1296.8
645.73 281.31 1233.0
645.98 280.03 1227.4
658.58 284.09 1245.2
643.18 276.10 1210.2
609.16 260.23 1140.6
601.29 255.62 1120.4
645.91 273.27 1197.8
697.85 293.83 1287.9
680.30 285.08 1249.5
663.06 276.54 1212.1
670.22 278.21 1219.4
653.71 270.08 1183.8
624.69 256.88 1125.9
630.76 258.17 1131.6
691.01 281.52 1233.9
727.61 295.07 1293.3
714.26 288.33 1263.8
759.87 305.34 1338.3
841.26 336.50 1474.9
840.76 334.78 1467.4
861.76 341.60 1497.3
879.93 347.24 1522.0
864.69 339.70 1488.9
572.29 513.29 2275.7
561.49 498.46 2209.9
584.75 498.76 2211.2
595.67 503.14 2230.7
589.12 492.82 2184.9
573.88 475.50 2108.1
585.20 471.41 2090.0
614.69 490.62 2175.2
596.34 471.65 2091.1
580.29 454.82 2016.4
593.85 461.29 2045.1
595.73 458.66 2033.5
590.07 450.32 1996.5
610.48 461.84 2047.6
637.89 478.42 2121.1
649.76 483.16 2142.1
632.56 466.38 2067.7
617.30 451.30 2000.9
605.79 439.20 1947.2
601.63 432.58 1917.8
608.23 433.74 1923.0
618.22 433.75 1923.0
666.16 463.65 2055.6
667.96 461.21 2044.8
654.73 448.51 1988.5
641.53 436.04 1933.2
647.61 436.76 1936.4
656.83 439.57 1948.8
645.03 428.38 1899.2
657.06 433.06 1920.0
696.29 455.47 2019.3
713.82 463.45 2054.7
706.32 455.18 2018.0
717.50 458.99 2034.9
695.37 441.58 1957.8
674.54 419.18 1858.4
701.32 432.73 1918.5
686.80 420.78 1865.5
706.04 429.55 1904.4
742.94 439.70 1949.4
735.80 432.53 1917.6
766.96 447.82 1985.4
765.78 444.15 1969.2
750.98 432.68 1918.3
724.09 414.45 1837.5
713.08 405.48 1797.7
732.01 413.54 1833.4
751.46 421.79 1870.0
746.12 416.10 1844.8
711.50 394.27 1748.0
709.10 390.45 1731.1
734.61 401.95 1782.1
756.58 411.39 1823.9
771.20 416.74 1847.6
752.56 404.15 1791.8
734.80 392.20 1738.8
737.50 391.24 1734.5
729.01 384.39 1704.2
722.70 378.77 1679.3
738.85 384.91 1706.5
750.42 388.61 1722.9
739.66 380.77 1688.1
726.77 371.93 1649.0
736.32 374.62 1660.9
774.25 391.63 1736.3
751.59 375.80 1666.1
705.02 350.50 1553.9
718.96 355.39 1575.6
728.08 357.87 1586.6
722.88 353.32 1566.4
706.05 343.16 1521.4
697.30 337.03 1494.2
699.26 336.11 1490.1
665.65 318.20 1410.7
616.16 292.93 1298.7
610.49 288.66 1279.8
645.85 303.72 1346.6
668.29 312.59 1385.9
671.65 312.48 1385.4
662.99 306.81 1360.2
659.39 303.53 1345.7
647.07 296.29 1313.6
614.60 279.95 1241.2
603.67 273.54 1212.7
600.50 270.69 1200.1
614.46 275.56 1221.7
659.47 294.23 1304.5
666.19 295.71 1311.0
643.49 284.18 1259.9
655.51 288.03 1277.0
704.46 307.98 1365.4
703.21 305.90 1356.2
648.01 280.48 1243.5
642.83 276.86 1227.5
668.19 286.37 1269.6
686.38 292.72 1297.8
674.76 286.36 1269.6
610.82 257.97 1143.7
618.73 258.79 1147.4
662.64 275.84 1222.9
671.22 278.07 1232.8
683.12 281.67 1248.8
722.97 296.69 1315.4
745.53 304.51 1350.1
728.25 296.06 1312.6
746.64 302.13 1339.5
757.94 305.28 1353.5
725.52 290.88 1289.6
777.33 310.22 1375.4
840.14 330.73 1466.3
833.24 326.54 1447.7
821.35 320.44 1420.7
797.03 309.56 1372.4
862.53 333.51 1478.6
568.28 498.69 2236.7
608.82 493.95 2215.4
585.94 470.95 2112.2
601.85 479.25 2149.5
625.91 493.84 2214.9
601.74 470.45 2110.0
591.67 458.41 2056.0
613.51 471.09 2112.9
610.60 464.71 2084.2
600.90 453.31 2033.1
610.52 456.56 2047.7
627.52 465.23 2086.6
648.96 477.01 2139.4
644.90 470.01 2108.0
633.47 457.80 2053.3
621.21 445.20 1996.7
629.75 447.59 2007.5
651.90 459.54 2061.1
649.94 454.43 2038.1
683.20 473.83 2125.1
680.97 468.51 2101.3
635.19 433.54 1944.4
659.95 446.89 2004.3
689.00 462.92 2076.2
668.73 445.82 1999.5
652.78 431.84 1936.8
659.51 432.96 1941.9
693.82 452.04 2027.4
712.58 460.77 2066.6
706.47 453.41 2033.5
710.22 452.44 2029.2
730.55 461.96 2071.9
740.59 464.89 2085.1
713.43 444.60 1994.1
679.21 420.23 1884.8
694.24 426.46 1912.7
735.27 448.46 2011.4
739.21 447.69 2007.9
725.78 436.48 1957.7
768.61 459.03 2058.8
777.45 461.11 2068.1
705.58 415.62 1864.1
702.16 410.79 1842.4
757.55 440.20 1974.3
777.56 448.79 2012.9
766.15 439.26 1970.1
777.75 442.96 1986.7
773.98 437.91 1964.1
744.11 418.26 1875.9
746.16 416.69 1868.9
757.30 420.18 1884.5
746.84 411.72 1846.6
719.22 393.97 1767.0
719.09 391.40 1755.5
715.92 387.23 1736.7
707.41 380.23 1705.4
751.57 401.46 1800.6
765.81 406.54 1823.4
739.73 390.29 1750.5
734.79 385.31 1728.2
737.45 384.37 1723.9
741.63 384.22 1723.2
753.21 387.88 1739.7
760.95 389.53 1747.1
759.67 386.58 1733.8
757.93 383.42 1719.7
729.12 366.69 1644.6
725.92 362.96 1627.9
755.13 375.38 1683.6
716.48 354.12 1588.3
677.81 333.10 1494.0
694.06 339.15 1521.1
667.92 324.53 1455.5
635.33 306.96 1376.7
662.63 318.36 1427.9
694.30 331.72 1487.8
706.24 335.56 1505.0
683.52 322.98 1448.6
634.09 297.99 1336.5
625.54 292.37 1311.3
649.96 302.14 1355.1
660.93 305.59 1370.6
659.98 303.52 1361.3
646.97 295.95 1327.4
643.30 292.72 1312.8
629.16 284.78 1277.2
614.88 276.86 1241.7
620.54 277.95 1246.6
616.13 274.55 1231.4
628.84 278.76 1250.3
658.88 290.58 1303.3
650.93 285.61 1281.0
616.56 269.16 1207.2
622.20 270.25 1212.1
667.89 288.64 1294.5
664.24 285.62 1281.0
618.37 264.58 1186.6
615.35 261.98 1175.0
629.18 266.55 1195.5
639.43 269.56 1209.0
672.75 282.23 1265.8
655.92 273.83 1228.1
603.20 250.61 1124.0
626.91 259.20 1162.5
683.03 281.06 1260.6
707.17 289.60 1298.9
715.44 291.60 1307.9
749.75 304.14 1364.1
790.92 319.34 1432.3
792.37 318.43 1428.2
800.48 320.19 1436.1
795.68 316.80 1420.9
720.05 285.37 1279.9
720.18 284.11 1274.2
840.50 330.06 1480.3
872.13 340.92 1529.1
790.22 307.51 1379.2
763.07 295.60 1325.8
853.15 329.02 1475.7
552.66 489.34 2220.5
551.89 483.62 2194.6
569.54 493.99 2241.6
557.74 478.87 2173.0
587.15 494.14 2242.3
606.28 495.52 2248.6
612.75 496.04 2250.9
605.76 485.75 2204.2
585.46 465.08 2110.5
558.37 439.46 1994.2
584.88 451.95 2050.9
637.15 487.91 2214.0
599.36 443.01 2010.3
599.37 439.19 1993.0
604.69 439.31 1993.5
606.86 437.15 1983.7
602.35 430.25 1952.4
616.87 436.95 1982.8
652.62 458.45 2080.4
674.95 470.26 2133.9
667.51 461.29 2093.2
675.15 462.80 2100.1
647.82 440.51 1999.0
616.66 416.00 1887.7
655.99 439.05 1992.3
708.14 470.25 2133.9
710.66 468.27 2124.9
673.43 440.32 1998.1
661.10 428.96 1946.5
698.60 449.86 2041.4
719.31 459.71 2086.1
712.60 452.02 2051.2
712.51 448.62 2035.7
717.56 448.47 2035.1
713.75 442.84 2009.5
727.63 448.18 2033.7
736.31 450.26 2043.2
713.28 433.07 1965.2
714.78 430.90 1955.3
701.34 419.82 1905.0
678.13 403.09 1829.1
707.33 417.52 1894.6
709.24 415.76 1886.7
698.29 406.54 1844.8
743.31 429.80 1950.4
744.93 427.83 1941.4
716.52 408.75 1854.8
710.43 402.57 1826.8
722.42 406.66 1845.3
781.54 437.04 1983.2
767.22 423.47 1921.6
733.91 402.47 1826.3
765.19 416.93 1892.0
781.25 422.97 1919.4
753.60 405.42 1839.7
724.10 387.10 1756.6
679.58 361.03 1638.3
677.94 357.92 1624.2
717.59 376.52 1708.6
723.67 377.37 1712.5
736.28 381.61 1731.7
755.91 389.41 1767.1
735.78 376.75 1709.6
723.96 368.49 1672.1
738.21 373.50 1694.9
744.67 374.54 1699.6
761.44 380.72 1727.6
752.10 373.85 1696.5
689.13 340.56 1545.4
663.20 325.85 1478.6
686.97 335.59 1522.8
712.15 345.90 1569.6
716.36 345.97 1569.9
676.40 324.83 1474.0
651.23 310.98 1411.2
686.47 325.98 1479.2
668.91 315.87 1433.4
632.40 296.98 1347.7
646.59 301.98 1370.3
637.32 296.02 1343.3
575.15 265.69 1205.7
602.00 275.11 1248.4
644.44 292.93 1329.3
667.45 301.77 1369.4
699.70 314.68 1428.0
678.86 303.70 1378.1
658.25 292.94 1329.3
647.49 286.65 1300.8
626.50 275.92 1252.1
637.05 279.12 1266.6
665.37 290.03 1316.1
684.56 296.87 1347.2
679.32 293.11 1330.1
644.88 276.84 1256.3
653.33 279.06 1266.3
663.17 281.85 1279.0
627.26 265.26 1203.7
629.73 264.99 1202.5
651.86 272.94 1238.6
621.81 259.09 1175.7
615.92 255.38 1158.9
662.22 273.24 1239.9
681.91 280.01 1270.6
666.79 272.49 1236.5
683.33 277.91 1261.1
691.98 280.09 1271.0
680.88 274.29 1244.7
678.66 272.10 1234.8
673.07 268.60 1218.8
734.11 291.58 1323.2
824.25 325.87 1478.7
820.96 323.06 1466.0
750.69 294.05 1334.3
689.08 268.68 1219.2
752.11 291.92 1324.7
824.81 318.67 1446.1
782.25 300.87 1365.3
799.64 306.17 1389.3
571.51 489.87 2249.4
574.33 487.31 2237.6
569.71 478.56 2197.5
587.21 488.37 2242.5
598.86 488.39 2242.6
596.14 481.50 2211.0
602.27 481.81 2212.4
594.65 471.23 2163.8
567.96 445.88 2047.4
577.12 440.71 2023.7
628.81 475.86 2185.1
618.68 451.91 2075.1
619.97 448.94 2061.5
608.69 437.01 2006.7
596.57 424.67 1950.0
590.24 416.64 1913.1
601.76 421.23 1934.2
611.03 424.19 1947.8
605.90 417.18 1915.6
611.02 417.28 1916.1
629.03 426.12 1956.7
637.87 428.65 1968.3
639.46 426.31 1957.5
649.27 429.44 1971.9
666.54 437.42 2008.6
687.71 447.81 2056.3
671.88 434.14 1993.5
663.94 425.73 1954.9
703.38 447.61 2055.3
711.68 449.48 2064.0
693.34 434.63 1995.8
698.30 434.50 1995.1
707.81 437.18 2007.4
692.13 424.37 1948.6
693.99 422.43 1939.7
715.41 432.33 1985.2
707.28 424.37 1948.6
707.39 421.42 1935.1
693.89 410.47 1884.8
684.36 399.21 1833.1
723.72 419.26 1925.2
751.01 432.09 1984.1
777.51 444.29 2040.1
758.63 430.57 1977.1
719.33 405.53 1862.1
702.59 393.45 1806.7
704.18 391.73 1798.8
745.97 412.25 1893.0
769.40 419.67 1927.1
717.45 388.81 1785.3
728.07 392.04 1800.2
771.64 412.85 1895.8
774.76 411.90 1891.4
750.22 396.34 1819.9
711.07 373.31 1714.2
694.87 362.54 1664.7
717.93 372.26 1709.4
707.59 364.65 1674.4
702.86 360.00 1653.1
714.99 364.00 1671.4
688.44 348.37 1599.6
690.01 347.07 1593.7
714.66 357.33 1640.8
685.19 340.57 1563.8
660.53 326.38 1498.7
690.44 339.16 1557.4
677.86 331.05 1520.1
651.46 316.32 1452.5
674.38 325.56 1494.9
701.94 336.93 1547.1
707.73 337.78 1551.0
711.89 337.85 1551.3
727.16 343.15 1575.7
733.03 343.99 1579.5
679.99 317.33 1457.1
630.60 292.66 1343.8
637.66 294.31 1351.4
645.60 296.34 1360.7
597.38 272.72 1252.3
606.53 273.92 1257.8
649.87 291.92 1340.4
673.77 301.05 1382.4
714.69 317.64 1458.5
700.84 309.85 1422.8
685.54 301.50 1384.4
681.89 298.32 1369.9
653.13 284.26 1305.3
656.74 284.36 1305.7
677.18 291.71 1339.5
688.41 295.03 1354.7
686.32 292.64 1343.8
656.37 278.46 1278.6
656.31 277.04 1272.1
655.32 275.24 1263.8
647.04 270.40 1241.7
682.39 283.77 1303.0
684.15 283.10 1299.9
626.67 258.04 1184.9
604.20 247.58 1136.8
637.98 260.15 1194.5
675.70 274.20 1259.1
675.46 272.78 1252.6
660.69 265.54 1219.3
635.91 254.36 1168.0
715.35 280.79 1289.4
792.55 309.65 1421.8
789.14 306.89 1409.2
839.16 324.84 1491.6
844.60 323.95 1487.5
781.33 298.33 1369.9
831.91 316.20 1451.9
556.99 476.60 2214.8
564.09 477.75 2220.2
572.90 448.59 2084.7
564.48 433.81 2016.0
597.83 455.23 2115.5
566.39 427.37 1986.1
573.53 421.26 1957.7
589.32 429.06 1993.9
611.71 441.50 2051.7
623.94 446.44 2074.7
623.20 442.10 2054.5
614.34 432.12 2008.1
612.18 426.98 1984.3
636.39 440.17 2045.5
657.07 450.72 2094.6
639.28 434.92 2021.2
634.54 428.18 1989.8
644.33 431.29 2004.3
643.32 427.16 1985.1
650.42 428.45 1991.1
667.97 436.55 2028.7
670.57 434.82 2020.7
676.55 435.30 2022.9
685.04 437.37 2032.5
704.28 446.22 2073.7
705.94 443.89 2062.8
674.97 421.22 1957.5
679.20 420.70 1955.1
707.05 434.70 2020.1
719.88 439.34 2041.7
706.89 428.26 1990.2
685.41 412.24 1915.7
682.19 407.35 1893.0
708.95 420.31 1953.2
746.09 439.19 2041.0
745.69 435.86 2025.5
729.21 423.25 1966.9
739.20 426.07 1980.0
766.15 438.55 2038.0
771.49 438.59 2038.2
775.43 437.83 2034.7
776.55 435.50 2023.8
749.70 417.62 1940.7
744.50 411.96 1914.4
758.12 416.72 1936.6
758.54 414.20 1924.9
764.33 414.64 1926.9
770.12 415.07 1928.9
750.69 401.98 1868.1
711.86 378.74 1760.1
703.60 371.97 1728.6
757.65 398.01 1849.6
784.20 409.36 1902.4
748.98 388.53 1805.6
738.64 380.79 1769.6
745.23 381.81 1774.3
717.08 365.14 1696.9
703.56 356.07 1654.7
706.44 355.36 1651.4
683.32 341.66 1587.8
685.65 340.77 1583.6
703.62 347.62 1615.5
669.36 328.74 1527.7
637.09 311.05 1445.5
654.96 317.90 1477.4
678.96 327.64 1522.6
691.91 331.96 1542.7
684.77 326.64 1518.0
680.36 322.68 1499.6
678.30 319.88 1486.5
671.69 314.97 1463.7
681.01 317.55 1475.7
679.23 314.95 1463.6
696.90 321.35 1493.4
710.52 325.82 1514.1
667.69 304.49 1415.0
630.31 285.88 1328.5
658.50 297.04 1380.4
692.00 310.47 1442.8
673.32 300.46 1396.3
653.58 290.09 1348.1
596.20 263.22 1223.2
608.73 265.92 1235.8
664.49 288.76 1341.9
681.74 294.71 1369.6
673.62 289.69 1346.3
643.34 275.24 1279.1
628.73 267.61 1243.6
649.11 274.88 1277.4
657.57 277.05 1287.5
650.82 272.82 1267.8
674.16 281.18 1306.7
718.45 298.16 1385.6
758.53 313.22 1455.6
741.92 304.85 1416.7
689.01 281.71 1309.2
659.08 268.16 1246.2
658.86 266.76 1239.7
674.35 271.70 1262.6
691.78 277.38 1289.0
697.20 278.21 1292.9
689.05 273.64 1271.7
684.10 270.38 1256.5
664.47 261.38 1214.7
637.57 249.62 1160.0
697.86 271.94 1263.7
765.23 296.80 1379.3
786.17 303.50 1410.4
818.76 314.62 1462.1
777.76 293.43 1363.6
740.86 278.24 1293.0
814.03 304.34 1414.3
790.24 294.12 1366.8
833.40 308.81 1435.1
586.57 466.97 2196.6
560.67 429.67 2021.1
628.68 477.33 2245.3
569.35 428.32 2014.7
606.55 436.29 2052.2
616.77 439.78 2068.7
616.35 435.69 2049.4
628.63 440.58 2072.4
633.27 440.07 2070.0
639.64 440.76 2073.3
673.09 459.94 2163.5
652.89 438.83 2064.2
659.56 439.71 2068.3
683.94 452.28 2127.5
684.42 448.98 2111.9
697.30 453.80 2134.6
695.27 448.91 2111.6
674.91 432.36 2033.8
665.37 422.95 1989.5
658.44 415.32 1953.6
666.15 416.98 1961.4
659.30 409.57 1926.5
696.05 422.79 1988.7
743.04 448.01 2107.4
734.14 439.41 2066.9
714.80 424.74 1997.9
713.42 420.87 1979.7
742.74 435.04 2046.3
751.47 433.94 2041.2
753.08 431.83 2031.3
744.01 415.02 1952.2
697.85 386.64 1818.7
717.53 394.88 1857.5
758.71 414.76 1951.0
768.13 417.13 1962.1
763.93 412.12 1938.5
762.15 408.47 1921.4
760.29 404.83 1904.3
764.93 404.67 1903.5
750.44 394.46 1855.5
716.13 374.03 1759.4
745.72 387.02 1820.5
782.69 403.65 1898.7
756.84 387.88 1824.5
726.88 370.21 1741.4
712.88 360.84 1697.3
733.83 369.17 1736.5
768.39 384.20 1807.2
768.91 382.12 1797.4
744.16 367.60 1729.1
720.27 353.67 1663.6
710.99 347.03 1632.4
720.48 349.58 1644.4
730.80 352.51 1658.1
709.36 340.16 1600.1
698.45 332.98 1566.3
720.34 341.43 1606.0
720.19 339.40 1596.5
662.00 310.19 1459.1
608.09 283.32 1332.7
