ply
format ascii 1.0
element vertex 2078
property float x
property float y
property float z
end_header
1147.44 -788.08 2431.8
1163.37 -794.65 2452.1
1173.61 -797.29 2460.2
1211.26 -814.02 2511.8
1177.68 -787.22 2429.1
1192.96 -793.19 2447.6
1223.10 -808.93 2496.1
1198.71 -788.63 2433.5
1164.67 -762.22 2352.0
1163.23 -757.31 2336.9
1180.64 -764.66 2359.5
1205.04 -776.44 2395.9
1212.69 -777.37 2398.7
1200.32 -765.51 2362.2
1206.16 -765.33 2361.6
1237.87 -781.48 2411.4
1268.46 -796.77 2458.6
1258.55 -786.60 2427.2
1232.96 -766.77 2366.0
1237.88 -766.01 2363.7
1258.45 -774.91 2391.1
1258.00 -770.84 2378.6
1248.03 -760.99 2348.2
1267.82 -769.31 2373.9
1276.79 -771.01 2379.1
1256.12 -754.88 2329.3
1265.02 -756.59 2334.6
1308.88 -779.10 2404.1
1332.72 -789.52 2436.2
1316.36 -776.16 2395.0
1284.03 -753.54 2325.2
1299.02 -758.77 2341.3
1330.46 -773.52 2386.9
1322.59 -765.39 2361.8
1345.28 -774.93 2391.2
1395.55 -800.20 2469.2
1405.26 -802.09 2475.0
1385.90 -787.44 2429.8
1370.26 -761.25 2349.0
1433.82 -793.04 2447.1
994.39 -846.57 2591.5
1003.76 -848.81 2598.4
1002.40 -842.02 2577.6
1008.52 -836.01 2559.2
1031.97 -849.86 2601.6
1021.90 -836.10 2559.5
1018.06 -827.59 2533.4
1056.44 -853.28 2612.1
1060.53 -851.13 2605.5
1020.32 -813.67 2490.8
1024.09 -811.55 2484.3
1037.74 -817.22 2501.7
1045.93 -818.55 2505.8
1025.58 -797.67 2441.9
1036.47 -796.31 2437.7
1055.84 -806.27 2468.2
1057.91 -802.99 2458.1
1120.07 -845.08 2587.0
1093.93 -810.80 2482.0
1071.83 -789.77 2417.7
1093.53 -801.08 2452.3
1105.58 -805.22 2465.0
1127.93 -816.78 2500.3
1154.78 -831.44 2545.2
1143.63 -818.73 2506.3
1151.09 -819.42 2508.4
1155.34 -817.82 2503.5
1151.09 -810.26 2480.4
1137.41 -796.18 2437.3
1134.68 -781.26 2391.6
1170.80 -801.74 2454.3
1192.66 -812.30 2486.6
1169.24 -792.07 2424.7
1151.41 -775.82 2374.9
1180.02 -790.87 2421.0
1235.28 -819.18 2507.7
1197.16 -789.75 2417.6
1191.59 -781.98 2393.8
1192.79 -778.71 2383.8
1200.84 -779.93 2387.5
1232.30 -796.25 2437.5
1244.82 -800.24 2449.7
1245.59 -796.67 2438.8
1238.86 -776.60 2377.3
1214.84 -757.77 2319.7
1250.97 -776.46 2376.9
1268.92 -783.74 2399.2
1222.92 -751.65 2301.0
1246.94 -759.01 2323.5
1261.75 -764.33 2339.8
1248.68 -752.80 2304.5
1268.11 -760.86 2329.2
1324.07 -790.68 2420.4
1342.90 -798.14 2443.3
1298.60 -768.19 2351.6
1301.97 -766.58 2346.7
1355.89 -794.61 2432.5
1368.32 -798.19 2443.4
1358.39 -777.99 2381.6
1392.81 -794.09 2430.9
1428.03 -806.87 2470.0
1385.58 -779.39 2385.9
1403.30 -782.37 2395.0
1429.51 -793.48 2429.0
1029.32 -883.27 2682.6
1050.96 -878.11 2666.9
1047.50 -869.49 2640.8
1030.79 -850.07 2581.8
1019.16 -835.06 2536.2
1051.79 -856.27 2600.6
1052.97 -851.77 2586.9
1016.74 -817.25 2482.1
1022.32 -816.57 2480.0
1046.22 -830.43 2522.1
1062.19 -837.88 2544.7
1063.07 -833.39 2531.1
1058.29 -824.56 2504.3
1067.99 -827.04 2511.8
1056.65 -813.30 2470.1
1101.40 -818.00 2484.4
1113.10 -821.88 2496.2
1112.70 -816.84 2480.8
1112.23 -811.80 2465.5
1118.02 -811.36 2464.2
1110.68 -801.45 2434.1
1118.78 -802.74 2438.0
1136.53 -810.89 2462.8
1145.91 -813.02 2469.2
1157.75 -816.86 2480.9
1137.88 -798.40 2424.8
1127.57 -786.82 2389.7
1154.50 -801.21 2433.4
1142.40 -788.51 2394.8
1146.85 -783.06 2378.3
1184.98 -804.77 2444.2
1189.36 -803.45 2440.2
1216.93 -817.72 2483.5
1235.99 -821.84 2496.0
1228.46 -812.58 2467.9
1225.96 -806.72 2450.1
1208.71 -791.27 2403.2
1214.65 -791.08 2402.6
1251.00 -810.59 2461.9
1261.32 -809.03 2457.1
1247.98 -796.45 2418.9
1273.35 -808.58 2455.7
1254.51 -792.65 2407.4
1228.79 -772.55 2346.3
1265.85 -791.94 2405.2
1301.81 -810.44 2461.4
1272.19 -788.14 2393.7
1221.94 -753.33 2288.0
1228.92 -753.98 2289.9
1306.57 -797.76 2422.9
1349.10 -815.89 2477.9
1350.88 -809.25 2457.8
1307.25 -775.80 2356.2
1397.09 -821.44 2494.8
1369.02 -790.30 2400.2
1399.16 -804.04 2442.0
1419.54 -804.83 2444.4
1418.53 -797.14 2421.0
1020.75 -882.81 2660.3
1037.16 -890.98 2684.9
1045.57 -886.31 2670.8
996.65 -839.28 2529.1
1061.94 -888.42 2677.2
1034.51 -854.31 2574.4
1017.40 -834.79 2515.5
1071.72 -873.76 2633.0
1085.63 -879.50 2650.3
1077.02 -867.03 2612.7
1089.48 -871.58 2626.4
1073.63 -853.57 2572.1
1045.32 -825.93 2488.9
1057.83 -820.62 2472.8
1056.89 -814.95 2455.8
1106.36 -842.94 2540.1
1119.68 -838.12 2525.6
1105.75 -822.88 2479.7
1125.69 -832.88 2509.8
1143.39 -841.11 2534.6
1140.63 -834.29 2514.0
1125.85 -818.80 2467.4
1113.26 -805.07 2426.0
1109.72 -798.00 2404.7
1133.08 -810.25 2441.6
1159.03 -824.20 2483.6
1166.84 -825.17 2486.6
1183.66 -832.46 2508.5
1172.19 -815.44 2457.2
1127.34 -780.00 2350.4
1141.54 -785.57 2367.2
1185.48 -811.45 2445.2
1197.00 -814.98 2455.9
1211.94 -820.78 2473.3
1228.64 -827.71 2494.2
1216.92 -815.53 2457.5
1206.33 -804.22 2423.4
1208.45 -801.46 2415.1
1195.03 -788.47 2376.0
1185.76 -778.35 2345.5
1205.90 -787.53 2373.1
1220.05 -792.72 2388.8
1192.21 -770.72 2322.5
1212.95 -772.42 2327.6
1242.72 -787.46 2372.9
1238.70 -781.05 2353.6
1231.92 -772.97 2329.3
1219.62 -761.52 2294.8
1335.38 -821.77 2476.3
1356.57 -822.94 2479.8
1287.62 -777.43 2342.7
1341.41 -802.34 2417.8
1384.98 -820.73 2473.2
1330.63 -784.89 2365.2
1328.77 -780.20 2351.0
1379.04 -806.01 2428.8
1388.20 -807.68 2433.8
1363.93 -789.97 2380.5
1389.78 -801.31 2414.7
1433.18 -818.96 2467.8
1431.78 -814.52 2454.5
1009.71 -862.60 2579.2
1025.38 -870.22 2602.0
1012.09 -842.32 2518.6
1045.07 -858.69 2567.5
1075.48 -878.08 2625.5
1082.11 -877.94 2625.1
1092.05 -875.00 2616.3
1052.39 -838.02 2505.7
1052.61 -822.95 2460.6
1085.67 -843.68 2522.6
1095.06 -845.89 2529.2
1102.19 -846.33 2530.5
1122.16 -841.62 2516.5
1110.85 -828.32 2476.7
1115.10 -826.71 2471.9
1101.15 -811.70 2427.0
1127.10 -826.11 2470.1
1154.43 -841.37 2515.7
1120.62 -812.13 2428.3
1114.62 -803.27 2401.8
1157.06 -829.23 2479.4
1182.76 -842.96 2520.5
1195.75 -838.33 2506.6
1145.25 -798.58 2387.8
1129.99 -783.70 2343.3
1144.61 -789.60 2360.9
1138.75 -781.38 2336.3
1138.68 -777.19 2323.8
1177.48 -799.45 2390.4
1187.67 -802.14 2398.4
1169.70 -785.89 2349.8
1165.67 -779.13 2329.6
1171.89 -779.24 2330.0
1181.99 -781.93 2338.0
1183.87 -779.18 2329.8
1180.05 -772.72 2310.5
1202.40 -783.38 2342.3
1231.04 -798.01 2386.1
1211.31 -781.29 2336.1
1212.63 -778.26 2327.0
1241.05 -792.55 2369.8
1234.36 -784.40 2345.4
1221.74 -772.57 2310.0
1289.10 -803.35 2402.0
1335.02 -827.97 2475.6
1320.44 -815.01 2436.9
1305.25 -801.79 2397.4
1275.61 -779.87 2331.8
1281.29 -779.65 2331.2
1323.15 -801.34 2396.0
1333.14 -803.62 2402.9
1317.91 -790.75 2364.4
1343.80 -802.55 2399.7
1356.65 -806.49 2411.4
1323.25 -783.02 2341.3
1340.75 -789.76 2361.4
1337.40 -784.21 2344.8
1386.55 -802.08 2398.3
1444.87 -832.09 2488.0
1035.45 -891.44 2644.9
1037.89 -876.14 2599.5
1033.92 -856.11 2540.1
1051.23 -864.93 2566.3
1031.17 -843.09 2501.5
1027.64 -834.96 2477.4
1058.95 -855.05 2537.0
1055.38 -846.91 2512.8
1050.59 -837.89 2486.1
1072.95 -850.51 2523.5
1076.70 -848.31 2517.0
1080.03 -845.81 2509.5
1106.48 -861.33 2555.6
1119.71 -861.31 2555.5
1124.19 -859.68 2550.7
1122.19 -848.17 2516.5
1087.82 -817.44 2425.4
1108.90 -819.07 2430.2
1136.13 -834.45 2475.8
1100.65 -803.85 2385.0
1110.20 -801.81 2379.0
1128.35 -810.42 2404.5
1146.61 -819.01 2430.0
1171.54 -832.24 2469.3
1147.61 -810.81 2405.7
1135.40 -797.85 2367.2
1157.10 -808.73 2399.5
1163.08 -808.56 2399.0
1148.08 -793.89 2355.5
1142.58 -785.90 2331.8
1176.73 -805.13 2388.8
1197.52 -815.07 2418.3
1189.43 -805.34 2389.5
1180.78 -795.34 2359.8
1181.47 -791.70 2349.0
1177.35 -784.90 2328.8
1218.94 -804.38 2386.6
1255.97 -816.38 2422.2
1244.19 -804.70 2387.6
1258.05 -809.64 2402.2
1254.56 -803.42 2383.8
1242.93 -792.06 2350.1
1256.79 -796.99 2364.7
1297.34 -818.71 2429.1
1323.20 -831.00 2465.6
1309.16 -818.23 2427.7
1300.90 -809.17 2400.8
1290.23 -798.71 2369.8
1293.23 -796.78 2364.1
1338.24 -820.62 2434.8
1363.14 -831.96 2468.5
1346.75 -818.12 2427.4
1328.32 -803.17 2383.0
1353.77 -814.77 2417.4
1397.70 -837.33 2484.4
1381.93 -824.09 2445.1
1400.59 -831.40 2466.8
1397.93 -826.05 2450.9
1385.67 -815.10 2418.4
1398.20 -815.10 2418.4
1014.40 -868.54 2557.3
1026.76 -862.22 2538.7
1073.85 -896.02 2638.2
1083.05 -897.98 2644.0
1053.37 -867.87 2555.4
1033.16 -845.90 2490.6
1049.40 -853.86 2514.1
1077.21 -871.07 2564.8
1103.74 -887.06 2611.8
1118.77 -888.23 2615.3
1081.56 -853.52 2513.1
1070.45 -839.70 2472.4
1091.19 -850.86 2505.3
1082.17 -838.84 2469.9
1091.09 -840.78 2475.6
1114.35 -853.69 2513.6
1108.61 -844.35 2486.1
1089.05 -824.66 2428.1
1099.88 -828.07 2438.2
1129.69 -845.65 2489.9
1126.01 -838.11 2467.7
1110.27 -821.73 2419.5
1113.94 -819.81 2413.8
1132.06 -828.49 2439.4
1125.23 -818.92 2411.2
1109.34 -802.89 2364.0
1116.89 -803.92 2367.0
1130.61 -809.34 2383.0
1140.68 -812.12 2391.2
1164.85 -824.84 2428.6
1199.96 -845.14 2488.4
1202.70 -824.89 2428.8
1198.04 -817.42 2406.8
1195.01 -811.12 2388.2
1194.47 -806.57 2374.9
1188.68 -798.55 2351.2
1174.13 -784.75 2310.6
1226.87 -815.84 2402.1
1253.62 -825.25 2429.8
1231.81 -806.84 2375.6
1250.04 -814.71 2398.8
1271.92 -824.86 2428.7
1276.07 -823.48 2424.6
1268.12 -814.33 2397.7
1285.22 -821.29 2418.2
1281.64 -815.02 2399.7
1262.57 -799.02 2352.6
1274.69 -802.81 2363.8
1293.70 -810.88 2387.5
1307.30 -815.50 2401.2
1342.56 -833.53 2454.2
1367.31 -837.00 2464.4
1348.97 -821.93 2420.1
1364.65 -827.63 2436.9
1387.44 -837.58 2466.1
1359.85 -817.16 2406.0
1361.38 -814.34 2397.7
1389.48 -827.37 2436.1
1412.48 -837.26 2465.2
1425.07 -840.92 2476.0
1004.49 -878.09 2565.9
1058.67 -913.36 2668.9
1036.30 -882.53 2578.8
1068.08 -898.00 2624.0
1068.64 -887.17 2592.4
1048.52 -865.03 2527.7
1056.03 -865.81 2530.0
1077.21 -877.73 2564.8
1105.25 -884.20 2583.7
1072.25 -837.49 2447.2
1114.22 -865.16 2528.1
1104.71 -852.76 2491.8
1085.20 -828.01 2419.5
1129.37 -856.76 2503.5
1146.66 -859.99 2513.0
1130.24 -842.89 2463.0
1134.01 -840.95 2457.3
1148.19 -846.71 2474.2
1137.41 -834.10 2437.3
1118.75 -815.88 2384.1
1123.50 -814.84 2381.0
1138.05 -820.89 2398.7
1147.75 -823.38 2406.0
1168.63 -833.83 2436.5
1202.50 -853.39 2493.7
1170.13 -812.94 2375.5
1160.76 -802.20 2344.1
1178.52 -810.23 2367.6
1190.38 -814.15 2379.0
1206.16 -820.68 2398.1
1202.16 -813.77 2377.9
1188.97 -800.73 2339.8
1195.20 -800.84 2340.1
1204.91 -803.28 2347.2
1199.74 -795.81 2325.4
1203.72 -794.46 2321.5
1228.46 -806.75 2357.4
1257.35 -821.63 2400.9
1283.73 -834.74 2439.2
1298.64 -840.30 2455.4
1310.01 -843.52 2464.8
1298.42 -832.00 2431.2
1275.82 -813.56 2377.3
1283.43 -814.49 2380.0
1290.15 -814.83 2381.0
1291.37 -811.72 2371.9
1314.60 -822.41 2403.1
1338.89 -833.65 2436.0
1326.26 -821.90 2401.7
1288.84 -794.99 2323.0
1309.42 -803.92 2349.1
1373.17 -839.16 2452.1
1388.46 -844.59 2468.0
1352.41 -818.89 2392.9
1329.78 -801.51 2342.1
1397.81 -816.42 2385.6
1044.04 -919.59 2666.9
1047.33 -916.41 2657.7
1013.31 -852.97 2473.7
1037.58 -862.49 2501.3
1083.85 -889.83 2580.6
1082.20 -883.02 2560.9
1097.24 -889.84 2580.6
1050.88 -847.07 2456.6
1059.15 -843.51 2446.3
1081.33 -856.05 2482.6
1108.64 -872.48 2530.3
1118.46 -875.03 2537.7
1078.45 -838.79 2432.6
1069.82 -827.24 2399.1
1114.52 -856.83 2484.9
1132.92 -865.97 2511.4
1131.72 -860.11 2494.4
1137.57 -859.64 2493.1
1135.05 -852.89 2473.5
1121.25 -837.79 2429.7
1118.90 -831.36 2411.0
1128.58 -833.89 2418.4
1130.98 -831.05 2410.1
1120.31 -818.68 2374.3
1118.88 -813.18 2358.3
1133.83 -819.56 2376.8
1160.42 -834.25 2419.4
1191.34 -851.87 2470.5
1199.40 -848.51 2460.8
1148.33 -808.09 2343.5
1143.20 -800.24 2320.8
1181.63 -822.81 2386.2
1206.71 -835.90 2424.2
1229.38 -847.19 2456.9
1230.28 -843.44 2446.1
1210.00 -825.28 2393.4
1200.33 -814.51 2362.2
1210.51 -817.25 2370.1
1230.77 -826.73 2397.6
1234.92 -825.35 2393.6
1225.40 -814.89 2363.3
1237.84 -819.07 2375.4
1229.92 -809.80 2348.5
1219.21 -798.80 2316.6
1248.17 -813.76 2360.0
1272.36 -825.49 2394.0
1289.03 -832.24 2413.6
1294.01 -831.42 2411.2
1300.79 -831.76 2412.2
1305.29 -830.64 2408.9
1285.98 -814.45 2362.0
1289.89 -813.06 2358.0
1352.34 -848.40 2460.5
1378.18 -860.56 2495.7
1344.24 -835.44 2422.9
1375.73 -851.04 2468.1
1369.04 -842.97 2444.7
1309.65 -802.69 2327.9
1311.99 -800.43 2321.3
1327.07 -805.94 2337.3
1356.92 -820.32 2379.0
1392.17 -837.82 2429.8
1395.60 -836.10 2424.8
1389.39 -824.95 2392.4
1461.40 -860.03 2494.2
1037.76 -920.93 2650.9
1024.42 -891.38 2565.8
1029.89 -890.35 2562.9
1024.62 -880.13 2533.4
1030.65 -863.17 2484.6
1098.22 -908.40 2614.8
1074.41 -883.26 2542.4
1065.18 -870.33 2505.2
1080.51 -877.50 2525.9
1098.55 -881.47 2537.3
1074.50 -857.04 2467.0
1063.14 -842.96 2426.4
1080.74 -841.97 2423.6
1127.42 -873.26 2513.7
1147.83 -883.96 2544.5
1139.62 -872.62 2511.8
1138.78 -867.03 2495.7
1157.36 -876.19 2522.1
1163.65 -876.01 2521.6
1133.01 -848.17 2441.4
1116.93 -831.49 2393.4
1137.11 -841.84 2423.2
1142.76 -841.37 2421.9
1116.91 -817.85 2354.1
1122.51 -813.06 2340.4
1141.63 -822.46 2367.4
1181.27 -846.47 2436.5
1181.04 -841.81 2423.1
1152.20 -816.90 2351.4
1171.13 -825.96 2377.5
1192.29 -836.48 2407.8
1200.81 -838.07 2412.3
1226.01 -851.22 2450.2
1230.34 -849.82 2446.2
1206.20 -828.87 2385.9
1191.32 -814.48 2344.4
1213.64 -825.52 2376.2
1248.30 -844.81 2431.7
1264.34 -851.37 2450.6
1266.83 -848.78 2443.2
1256.03 -837.36 2410.3
1225.14 -812.72 2339.4
1250.46 -817.38 2352.8
1305.32 -849.09 2444.1
1314.89 -851.18 2450.1
1327.20 -855.02 2461.2
1349.11 -864.98 2489.8
1344.16 -857.70 2468.9
1323.97 -840.81 2420.2
1364.85 -862.69 2483.2
1368.43 -845.02 2432.4
1361.57 -836.93 2409.1
1367.36 -836.65 2408.3
1388.81 -845.91 2434.9
1417.49 -859.47 2474.0
1417.67 -855.71 2463.1
1426.42 -857.13 2467.2
1485.69 -880.89 2535.6
1017.35 -891.84 2548.1
1029.62 -885.35 2529.6
1019.73 -860.39 2458.3
1086.83 -911.31 2603.8
1082.69 -891.24 2546.4
1067.78 -873.64 2496.1
1078.32 -866.51 2475.7
1067.58 -837.93 2394.1
1111.05 -867.01 2477.2
1138.82 -883.57 2524.5
1138.85 -878.54 2510.1
1123.37 -861.68 2461.9
1124.78 -857.88 2451.1
1160.87 -880.43 2515.5
1159.92 -874.80 2499.4
1125.85 -844.39 2412.5
1127.44 -840.91 2402.6
1152.16 -854.63 2441.8
1143.54 -843.60 2410.3
1129.04 -828.37 2366.8
1137.84 -830.32 2372.3
1139.63 -827.15 2363.3
1163.83 -840.20 2400.6
1202.41 -863.43 2466.9
1208.52 -863.23 2466.4
1196.07 -849.84 2428.1
1186.00 -838.27 2395.1
1180.03 -829.71 2370.6
1191.04 -833.11 2380.3
1208.08 -840.68 2401.9
1195.07 -827.36 2363.9
1174.11 -808.70 2310.6
1191.56 -816.55 2333.0
1254.02 -855.01 2442.9
1245.35 -840.61 2401.7
1208.84 -807.89 2308.2
1231.88 -819.23 2340.7
1227.36 -812.22 2320.6
1287.32 -847.75 2422.1
1335.42 -866.74 2476.4
1316.09 -838.08 2394.5
1275.22 -808.24 2309.3
1316.11 -830.25 2372.2
1386.58 -870.64 2487.5
1380.01 -854.59 2441.7
1350.92 -832.76 2379.3
1361.39 -835.40 2386.9
1382.36 -844.43 2412.6
1412.01 -858.66 2453.3
1446.61 -875.75 2502.2
999.12 -893.95 2535.4
1010.49 -898.22 2547.5
1043.59 -904.00 2563.9
1019.47 -877.52 2488.8
1058.72 -899.91 2552.3
1058.11 -877.46 2488.6
1062.25 -865.07 2453.4
1097.19 -882.94 2504.1
1085.07 -868.05 2461.9
1091.27 -867.91 2461.5
1122.67 -887.69 2517.6
1134.45 -891.82 2529.3
1129.43 -882.77 2503.7
1136.10 -882.91 2504.1
1128.14 -871.74 2472.4
1106.14 -849.91 2410.5
1117.38 -853.73 2421.3
1164.35 -884.64 2509.0
1148.53 -862.98 2447.5
1142.03 -853.39 2420.3
1151.35 -855.65 2426.7
1153.71 -852.74 2418.5
1166.34 -857.42 2431.7
1172.81 -857.54 2432.1
1175.53 -854.93 2424.7
1192.00 -862.30 2445.6
1208.48 -860.49 2440.5
1200.50 -850.35 2411.7
1191.95 -839.93 2382.1
1189.28 -833.73 2364.6
1198.16 -835.64 2370.0
1198.83 -831.84 2359.2
1208.57 -834.34 2366.3
1225.64 -833.44 2363.7
1239.05 -834.21 2365.9
1269.32 -850.38 2411.8
1269.86 -846.57 2401.0
1292.76 -857.64 2432.4
1300.49 -858.58 2435.0
1288.36 -846.46 2400.7
1284.24 -839.70 2381.5
1287.32 -837.68 2375.8
1293.11 -837.44 2375.1
1309.90 -844.29 2394.5
1276.60 -818.95 2322.6
1313.88 -834.99 2368.1
1341.03 -848.28 2405.8
1334.70 -840.36 2383.4
1341.86 -840.98 2385.1
1325.05 -826.63 2344.4
1324.58 -822.57 2332.9
1365.28 -843.99 2393.7
1401.93 -862.73 2446.8
1450.25 -888.44 2519.7
1466.77 -894.53 2537.0
1070.88 -940.46 2647.8
1028.17 -897.19 2526.0
1037.47 -899.58 2532.7
1047.16 -902.27 2540.3
1099.22 -929.59 2617.2
1058.84 -889.94 2505.6
1046.96 -874.59 2462.4
1112.70 -896.70 2524.6
1092.06 -874.92 2463.3
1105.24 -880.33 2478.5
1094.73 -866.92 2440.8
1109.09 -873.25 2458.6
1134.92 -888.48 2501.5
1141.58 -888.62 2501.8
1134.35 -878.00 2471.9
1119.80 -861.87 2426.5
1138.31 -871.22 2452.9
1157.73 -881.16 2480.8
1133.99 -858.33 2416.6
1133.13 -852.96 2401.5
1149.34 -860.44 2422.5
1150.88 -856.91 2412.6
1162.67 -861.00 2424.1
1173.67 -864.48 2433.9
1180.14 -864.59 2434.2
1165.32 -849.19 2390.9
1156.18 -838.08 2359.5
1181.00 -851.56 2397.5
1191.60 -854.71 2406.4
1190.78 -849.67 2392.2
1186.90 -842.51 2372.0
1180.78 -833.85 2347.7
1186.61 -833.67 2347.1
1175.58 -821.71 2313.5
1175.25 -817.30 2301.1
1217.10 -842.13 2371.0
1233.00 -848.85 2389.9
1225.72 -839.62 2363.9
1246.96 -849.92 2392.9
1250.63 -848.20 2388.0
1225.39 -826.99 2328.3
1223.98 -821.99 2314.2
1244.45 -831.66 2341.5
1263.68 -840.41 2366.1
1267.22 -838.69 2361.3
1250.79 -823.84 2319.5
1242.38 -814.38 2292.8
1249.37 -815.06 2294.8
1264.15 -820.80 2310.9
1285.89 -830.98 2339.6
1323.91 -851.53 2397.4
1344.54 -860.76 2423.4
1327.15 -845.67 2380.9
1325.91 -840.97 2367.7
1342.42 -847.52 2386.1
1369.80 -860.84 2423.6
1414.32 -884.75 2491.0
1424.54 -887.10 2497.6
1443.33 -894.73 2519.1
1465.15 -896.10 2522.9
1418.15 -863.50 2431.1
1489.21 -902.75 2541.6
1071.54 -947.90 2649.4
1025.64 -901.52 2519.8
1028.09 -897.95 2509.8
1047.50 -909.15 2541.1
1072.82 -919.56 2570.2
1029.25 -871.39 2435.6
1065.92 -896.93 2506.9
1063.66 -889.61 2486.5
1055.31 -877.30 2452.1
1062.27 -877.81 2453.5
1106.04 -908.53 2539.4
1113.45 -903.86 2526.3
1079.36 -871.06 2434.6
1079.30 -865.95 2420.4
1084.63 -865.20 2418.3
1113.40 -883.04 2468.1
1134.53 -894.66 2500.6
1136.85 -891.39 2491.5
1117.30 -871.12 2434.8
1094.32 -848.41 2371.3
1109.10 -855.06 2389.9
1120.73 -859.23 2401.6
1133.21 -864.00 2414.9
1170.52 -887.54 2480.7
1182.04 -881.74 2464.5
1157.99 -859.15 2401.4
1167.71 -861.73 2408.6
1155.77 -848.38 2371.3
1147.70 -829.23 2317.7
1162.39 -835.47 2335.2
1177.58 -842.00 2353.4
1189.41 -846.07 2364.8
1186.24 -839.50 2346.4
1165.30 -820.47 2293.2
1164.93 -816.04 2280.9
1210.20 -843.47 2357.5
1209.46 -838.72 2344.3
1183.66 -816.73 2282.8
1204.29 -826.83 2311.0
1209.56 -826.33 2309.6
1208.60 -821.61 2296.4
1231.20 -832.87 2327.9
1232.00 -829.35 2318.1
1232.31 -825.53 2307.4
1238.88 -825.92 2308.5
1227.34 -814.29 2276.0
1237.48 -817.09 2283.8
1264.07 -830.67 2321.8
1268.37 -829.55 2318.6
1275.41 -830.22 2320.5
1304.14 -844.93 2361.6
1313.58 -847.08 2367.6
1339.77 -859.95 2403.6
1385.69 -885.30 2474.5
1393.52 -886.20 2477.0
1408.39 -891.55 2491.9
1433.22 -903.12 2524.3
1429.31 -896.57 2505.9
1469.91 -897.56 2508.7
1028.37 -972.41 2698.3
1038.79 -908.13 2520.0
1038.65 -902.33 2503.9
1051.42 -896.61 2488.0
1045.47 -886.10 2458.9
1057.75 -880.40 2443.0
1080.24 -893.77 2480.1
1099.84 -904.60 2510.2
1101.56 -900.69 2499.3
1099.38 -893.65 2479.8
1110.66 -897.57 2490.7
1128.58 -906.78 2516.2
1108.33 -885.39 2456.9
1079.17 -857.17 2378.6
1124.62 -888.19 2464.7
1147.84 -901.41 2501.3
1097.55 -857.07 2378.3
1084.32 -842.02 2336.5
1127.19 -870.44 2415.4
1170.80 -899.12 2495.0
1167.69 -891.80 2474.7
1153.07 -875.83 2430.4
1180.75 -882.39 2448.6
1166.08 -866.77 2405.2
1149.98 -850.25 2359.4
1139.74 -829.45 2301.7
1172.21 -848.63 2354.9
1206.17 -868.69 2410.6
1221.97 -875.54 2429.5
1222.38 -871.34 2417.9
1180.05 -836.87 2322.2
1195.91 -839.55 2329.7
1189.45 -830.82 2305.5
1207.02 -834.70 2316.2
1242.79 -855.19 2373.1
1273.02 -871.68 2418.8
1278.94 -871.44 2418.2
1262.49 -856.03 2375.4
1250.80 -843.99 2342.0
1246.18 -836.81 2322.1
1242.37 -830.24 2303.9
1261.19 -838.79 2327.6
1264.61 -837.05 2322.8
1257.19 -820.42 2276.6
1301.62 -845.45 2346.1
1370.02 -885.74 2457.8
1379.21 -887.55 2462.9
1346.77 -862.68 2393.9
1366.17 -871.09 2417.2
1395.55 -885.76 2457.9
1459.60 -922.20 2559.0
1457.40 -896.36 2487.3
997.71 -969.99 2672.4
1052.51 -969.41 2670.8
1015.62 -929.32 2560.4
1012.65 -920.59 2536.3
1029.36 -929.75 2561.6
1022.38 -917.52 2527.9
1028.94 -889.21 2449.9
1056.95 -907.81 2501.1
1056.44 -890.97 2454.7
1072.83 -899.38 2477.9
1074.92 -895.77 2467.9
1097.53 -909.20 2504.9
1103.84 -909.05 2504.5
1090.15 -892.52 2459.0
1091.70 -888.60 2448.2
1093.60 -884.99 2438.2
1092.69 -869.18 2394.7
1129.21 -893.16 2460.8
1092.80 -859.51 2368.0
1082.37 -846.54 2332.3
1129.62 -878.59 2420.6
1126.80 -871.56 2401.2
1115.78 -848.96 2339.0
1167.77 -874.27 2408.7
1134.20 -844.62 2327.0
1132.48 -838.88 2311.2
1170.19 -862.25 2375.6
1179.90 -864.85 2382.7
1195.99 -872.08 2402.7
1208.33 -876.51 2414.9
1203.19 -868.28 2392.2
1228.43 -881.95 2429.9
1210.28 -864.49 2381.8
1203.48 -846.67 2332.7
1244.30 -871.01 2399.7
1261.18 -865.51 2384.6
1290.71 -881.46 2428.5
1296.70 -877.00 2416.2
1261.45 -849.05 2339.2
1277.61 -855.82 2357.9
1276.99 -851.33 2345.5
1257.11 -834.10 2298.0
1259.98 -832.06 2292.4
1290.92 -848.49 2337.7
1356.73 -887.58 2445.4
1390.48 -905.43 2494.5
1356.42 -879.16 2422.2
1315.52 -848.72 2338.3
1328.69 -853.29 2350.9
1364.98 -872.59 2404.1
1430.78 -910.50 2508.5
1454.94 -913.42 2516.6
1441.76 -901.10 2482.6
1452.48 -903.77 2490.0
1466.73 -904.59 2492.2
1004.91 -970.50 2654.9
996.72 -918.55 2512.7
1042.81 -954.78 2611.9
1033.05 -921.90 2521.9
1046.55 -910.88 2491.8
1067.25 -923.21 2525.5
1047.31 -900.43 2463.2
1065.86 -910.83 2491.6
1078.16 -915.79 2505.2
1050.21 -886.71 2425.6
1051.44 -882.46 2414.0
1074.30 -896.31 2451.9
1073.61 -890.46 2435.9
1052.85 -868.14 2374.9
1075.86 -881.96 2412.7
1095.15 -892.58 2441.7
1074.78 -870.94 2382.5
1076.48 -867.33 2372.6
1102.95 -883.61 2417.2
1114.57 -887.88 2428.8
1107.15 -877.01 2399.1
1127.16 -887.87 2428.8
1117.99 -875.76 2395.7
1127.85 -859.60 2351.5
1134.15 -859.76 2351.9
1152.61 -859.88 2352.3
1196.26 -887.75 2428.5
1211.99 -894.71 2447.5
1205.76 -885.48 2422.3
1195.17 -873.16 2388.6
1183.58 -860.23 2353.2
1206.14 -872.13 2385.8
1227.55 -883.09 2415.7
1207.13 -863.98 2363.5
1176.06 -837.49 2291.0
1193.95 -845.96 2314.2
1237.33 -872.32 2386.3
1273.10 -893.07 2443.0
1240.75 -861.80 2357.5
1230.53 -850.51 2326.6
1297.44 -892.38 2441.2
1268.38 -863.97 2363.4
1239.37 -840.15 2298.3
1263.61 -852.49 2332.0
1292.99 -868.15 2374.9
1302.89 -870.65 2381.7
1308.23 -870.10 2380.2
1349.47 -893.31 2443.7
1371.09 -903.38 2471.3
1353.39 -887.57 2428.0
1341.10 -875.44 2394.8
1317.93 -856.35 2342.6
1336.27 -864.28 2364.3
1382.92 -890.37 2435.7
1381.69 -885.54 2422.4
1406.94 -897.64 2455.6
1451.85 -913.89 2500.0
1494.34 -928.20 2539.2
1031.63 -983.16 2670.6
1045.62 -989.86 2688.7
1039.01 -977.08 2654.0
1072.32 -982.38 2668.4
1071.63 -975.45 2649.6
1086.90 -983.06 2670.3
1050.95 -944.53 2565.6
1032.04 -915.94 2488.0
1048.22 -924.51 2511.3
1086.86 -952.68 2587.8
1083.81 -944.18 2564.7
1036.92 -897.82 2438.8
1052.43 -905.73 2460.2
1060.54 -907.20 2464.2
1072.80 -912.20 2477.8
1105.09 -928.54 2522.2
1070.93 -894.54 2429.8
1042.88 -866.02 2352.4
1058.11 -873.56 2372.8
1067.61 -876.30 2380.3
1085.90 -881.13 2393.4
1136.72 -911.95 2477.1
1095.63 -874.05 2374.2
1115.58 -884.99 2403.9
1105.57 -872.17 2369.1
1086.54 -852.42 2315.4
1114.64 -869.66 2362.3
1114.06 -864.46 2348.1
1113.82 -859.58 2334.9
1141.02 -875.81 2379.0
1130.06 -862.73 2343.4
1114.39 -846.22 2298.6
1141.78 -862.41 2342.6
1148.05 -862.56 2343.0
1153.48 -862.07 2341.6
1166.90 -867.54 2356.5
1160.92 -858.59 2332.2
1181.17 -869.05 2360.6
1199.41 -877.92 2384.7
1222.04 -889.89 2417.2
1246.51 -903.09 2453.1
1239.59 -893.51 2427.0
1221.26 -875.85 2379.1
1187.04 -847.03 2300.8
1182.68 -839.70 2280.9
1227.87 -867.45 2356.2
1247.34 -876.85 2381.8
1215.56 -850.29 2309.6
1219.92 -849.16 2306.6
1249.70 -865.65 2351.4
1233.52 -850.29 2309.6
1225.70 -840.82 2283.9
1245.32 -850.17 2309.3
1265.04 -859.50 2334.7
1288.04 -870.96 2365.8
1267.78 -853.20 2317.5
1320.97 -880.65 2392.1
1379.42 -915.32 2486.3
1369.65 -904.61 2457.2
1365.34 -897.59 2438.1
1344.61 -879.88 2390.0
1371.47 -893.34 2426.6
1412.58 -915.92 2487.9
1394.95 -900.37 2445.7
1372.87 -882.12 2396.1
1402.87 -897.33 2437.4
1474.52 -938.93 2550.4
1445.81 -912.47 2478.5
1445.45 -908.20 2467.0
1035.97 -994.25 2681.8
1053.30 -990.93 2672.9
1055.21 -986.24 2660.2
1046.18 -971.46 2620.3
1031.68 -951.81 2567.3
1056.65 -968.60 2612.6
1090.22 -980.51 2644.7
1097.99 -981.33 2646.9
1071.60 -940.11 2535.8
1040.98 -907.69 2448.3
1068.79 -926.28 2498.5
1094.19 -942.59 2542.4
1110.76 -939.87 2535.1
1108.35 -932.32 2514.7
1110.46 -928.63 2504.8
1059.67 -881.00 2376.3
1074.95 -878.39 2369.3
1116.94 -902.39 2434.0
1077.38 -865.54 2334.6
1100.43 -879.11 2371.2
1125.64 -894.26 2412.1
1143.36 -903.32 2436.5
1152.29 -905.37 2442.1
1129.12 -882.32 2379.9
1111.81 -864.07 2330.7
1123.40 -868.36 2342.2
1152.75 -886.26 2390.5
1177.34 -900.32 2428.4
1184.63 -901.08 2430.5
1169.38 -884.77 2386.5
1151.84 -866.91 2338.3
1142.51 -855.39 2307.2
1143.20 -851.44 2296.6
1169.74 -866.70 2337.7
1185.36 -873.75 2356.8
1206.20 -884.55 2385.9
1234.47 -900.66 2429.4
1230.53 -893.23 2409.3
1241.24 -896.45 2418.0
1234.13 -886.84 2392.1
1189.74 -850.66 2294.5
1200.25 -853.91 2303.3
1279.56 -905.82 2443.3
1261.74 -884.46 2385.7
1233.70 -860.58 2321.2
1250.60 -868.13 2341.6
1277.92 -882.81 2381.2
1293.67 -889.40 2399.0
1312.66 -898.13 2422.5
1334.01 -908.40 2450.2
1311.20 -888.63 2396.9
1274.57 -855.70 2308.1
1392.35 -930.40 2509.6
1410.91 -929.77 2507.9
1380.40 -905.49 2442.4
1358.08 -886.79 2391.9
1372.81 -892.33 2406.9
1384.76 -896.02 2416.8
1417.16 -912.85 2462.2
1442.59 -912.79 2462.1
990.86 -997.79 2672.6
986.80 -986.80 2643.2
1004.86 -997.93 2673.0
1018.86 -984.67 2637.5
1035.40 -987.40 2644.8
1028.96 -974.81 2611.1
1042.23 -980.92 2627.5
1045.41 -977.52 2618.4
1045.72 -971.50 2602.2
1084.16 -988.10 2646.7
1060.95 -960.86 2573.7
1055.16 -949.65 2543.7
1073.27 -959.94 2571.3
1091.49 -970.21 2598.8
1094.37 -966.81 2589.7
1100.54 -966.33 2588.4
1101.86 -961.62 2575.8
1102.00 -955.95 2560.6
1102.06 -950.28 2545.4
1086.94 -931.67 2495.5
1051.47 -895.93 2399.8
1048.77 -888.37 2379.6
1080.50 -909.90 2437.2
1056.59 -884.59 2369.4
1068.58 -884.34 2368.8
1078.48 -887.43 2377.1
1082.51 -885.69 2372.4
1134.31 -922.83 2471.9
1120.38 -901.31 2414.2
1071.16 -856.93 2295.3
1098.68 -874.09 2341.3
1116.70 -883.54 2366.6
1143.76 -900.01 2410.7
1150.07 -895.19 2397.8
1142.47 -884.50 2369.2
1188.51 -915.22 2451.5
1162.72 -885.88 2372.9
1153.92 -869.97 2330.3
1212.56 -909.42 2435.9
1211.80 -904.14 2421.8
1199.46 -890.32 2384.8
1214.36 -896.76 2402.0
1235.34 -907.60 2431.1
1196.45 -874.56 2342.6
1171.91 -852.30 2282.9
1239.38 -896.83 2402.2
1220.05 -874.07 2341.2
1240.80 -884.53 2369.3
1283.23 -901.39 2414.4
1322.18 -910.98 2440.1
1272.68 -872.70 2337.6
1312.60 -895.80 2399.5
1312.03 -891.19 2387.1
1301.29 -879.75 2356.5
1374.36 -924.80 2477.2
1425.36 -945.86 2533.6
1416.46 -935.64 2506.2
1368.93 -900.12 2411.0
1357.30 -888.41 2379.7
1375.33 -896.14 2400.4
1416.70 -918.94 2461.4
1460.97 -939.19 2515.7
1454.00 -930.56 2492.6
989.12 -1002.96 2668.0
1021.10 -1007.20 2679.3
1025.83 -991.64 2637.9
1032.21 -991.20 2636.7
1000.03 -947.74 2521.1
1056.18 -994.45 2645.3
1088.41 -1005.22 2674.0
1057.22 -970.23 2580.9
1030.29 -939.57 2499.4
1041.35 -943.72 2510.4
1074.66 -967.86 2574.6
1059.95 -948.72 2523.7
1036.19 -921.76 2452.0
1108.39 -962.38 2560.0
1099.74 -949.18 2524.9
1067.40 -915.82 2436.2
1052.21 -897.47 2387.4
1070.90 -908.08 2415.6
1077.40 -908.27 2416.1
1090.08 -913.65 2430.4
1101.65 -918.04 2442.1
1088.65 -902.02 2399.5
1096.66 -903.50 2403.4
1100.31 -881.47 2344.8
1107.02 -881.96 2346.1
1122.65 -889.53 2366.2
1170.05 -912.14 2426.4
1164.82 -893.65 2377.2
1116.73 -852.24 2267.0
1172.03 -889.76 2366.9
1220.58 -921.79 2452.1
1207.56 -907.23 2413.3
1222.05 -913.39 2429.7
1219.34 -897.48 2387.4
1190.16 -871.58 2318.5
1258.09 -916.70 2438.5
1265.24 -912.74 2428.0
1189.77 -854.04 2271.8
1230.30 -874.48 2326.2
1293.93 -915.22 2434.6
1279.31 -900.48 2395.4
1266.31 -887.03 2359.6
1286.96 -897.16 2386.5
1240.77 -860.82 2289.9
1308.98 -899.54 2392.9
1307.94 -894.58 2379.7
1297.20 -883.07 2349.1
1371.13 -929.04 2471.3
1443.57 -960.17 2554.2
1403.69 -929.38 2472.2
1389.84 -916.03 2436.7
1409.87 -925.03 2460.7
1406.28 -918.52 2443.3
1434.50 -932.75 2481.2
986.29 -999.99 2641.8
1043.12 -1008.58 2664.5
996.84 -951.24 2513.0
1062.03 -1006.86 2660.0
1089.67 -1019.82 2694.2
1070.87 -995.84 2630.9
1042.48 -963.30 2544.9
1020.17 -936.76 2474.8
1035.87 -945.24 2497.2
1050.22 -952.38 2516.1
1093.32 -955.83 2525.2
1077.81 -936.67 2474.6
1091.64 -943.08 2491.5
1115.32 -952.26 2515.8
1094.32 -928.90 2454.0
1081.16 -912.43 2410.5
1067.42 -895.65 2366.2
1067.15 -890.31 2352.1
1088.02 -902.56 2384.4
1107.44 -913.48 2413.3
1072.69 -879.85 2324.4
1063.43 -867.38 2291.5
1133.62 -919.49 2429.2
1150.23 -922.71 2437.7
1114.96 -889.53 2350.0
1122.48 -890.67 2353.0
1148.44 -906.34 2394.4
1159.77 -910.35 2405.0
1174.85 -917.26 2423.3
1166.37 -905.80 2393.0
1162.75 -898.21 2373.0
1175.78 -903.49 2386.9
1188.86 -908.76 2400.8
1193.55 -907.60 2397.8
1196.96 -905.47 2392.1
1228.86 -924.81 2443.2
1238.77 -922.76 2437.8
1269.32 -926.60 2448.0
1239.84 -900.58 2379.2
1253.43 -892.69 2358.4
1265.03 -896.57 2368.6
1301.36 -904.75 2390.3
1334.51 -923.41 2439.5
1281.00 -882.20 2330.7
1313.10 -895.85 2366.7
1398.82 -949.90 2509.5
1429.99 -957.70 2530.1
1421.04 -947.36 2502.8
1443.04 -957.65 2530.0
1465.14 -967.92 2557.1
1464.59 -963.20 2544.7
1038.95 -1025.01 2689.5
1029.06 -1008.48 2646.2
1022.06 -994.99 2610.8
1011.78 -978.50 2567.5
1042.66 -1001.77 2628.6
1066.47 -1018.00 2671.1
1065.16 -1010.19 2650.6
1086.03 -1023.37 2685.2
1056.71 -983.14 2579.7
1022.64 -945.46 2480.8
1030.04 -946.35 2483.1
1037.08 -946.90 2484.6
1059.84 -961.70 2523.4
1100.69 -986.59 2588.7
1054.51 -939.47 2465.1
1079.42 -955.87 2508.1
1100.76 -968.93 2542.4
1080.78 -945.68 2481.4
1091.60 -949.50 2491.4
1101.21 -941.15 2469.5
1082.30 -919.65 2413.1
1073.25 -906.71 2379.1
1078.87 -906.25 2377.9
1073.89 -896.94 2353.5
1069.19 -887.97 2330.0
1074.68 -887.52 2328.8
1107.22 -909.28 2385.9
1142.14 -922.50 2420.6
1119.42 -899.21 2359.4
1098.88 -877.91 2303.6
1097.72 -872.24 2288.7
1103.06 -871.78 2287.5
1108.40 -871.31 2286.2
1128.65 -882.51 2315.6
1156.93 -899.83 2361.1
1166.16 -902.24 2367.4
1174.58 -903.99 2372.0
1172.04 -897.35 2354.6
1167.74 -889.42 2333.7
1220.34 -924.69 2426.3
1229.32 -921.99 2419.2
1227.54 -915.98 2403.5
1258.13 -934.07 2450.9
1238.53 -914.90 2400.6
1203.46 -884.54 2321.0
1202.63 -875.18 2296.4
1242.73 -899.91 2361.3
1244.51 -888.07 2330.2
1283.80 -902.96 2369.3
1335.84 -935.09 2453.6
1313.58 -915.14 2401.3
1284.70 -890.80 2337.4
1286.73 -888.03 2330.1
1294.72 -889.36 2333.6
1327.66 -907.75 2381.8
1357.55 -923.89 2424.2
1351.77 -915.71 2402.8
1398.21 -942.83 2473.9
1453.83 -975.86 2560.6
1412.44 -943.77 2476.4
1368.34 -910.16 2388.2
1419.09 -939.67 2465.6
987.88 -1008.32 2627.9
1032.66 -1032.66 2691.3
1018.82 -1011.98 2637.4
1032.71 -1018.94 2655.5
1054.58 -1033.63 2693.8
1061.66 -1026.97 2676.5
1044.36 -1003.67 2615.7
1067.52 -1019.31 2656.5
1071.27 -1003.47 2615.2
1042.34 -970.23 2528.6
1054.91 -975.79 2543.1
1068.26 -982.00 2559.3
1071.09 -966.59 2519.1
1032.58 -926.20 2413.8
1066.68 -951.02 2478.5
1102.19 -976.79 2545.7
1091.66 -961.70 2506.4
1086.25 -951.27 2479.2
1106.21 -963.05 2509.9
1113.68 -963.88 2512.1
1093.48 -940.90 2452.2
1100.05 -941.08 2452.6
1115.15 -948.52 2472.0
1106.16 -935.49 2438.1
1086.04 -913.26 2380.1
1083.77 -906.20 2361.7
1091.71 -907.71 2365.7
1089.32 -900.67 2347.3
1089.64 -895.93 2334.9
1076.26 -880.04 2293.5
1078.15 -867.21 2260.1
1092.84 -874.27 2278.5
1115.00 -887.20 2312.2
1122.86 -888.68 2316.1
1145.65 -901.89 2350.5
1161.92 -909.87 2371.3
1158.64 -902.52 2352.1
1155.28 -895.19 2333.0
1140.02 -878.77 2290.2
1153.37 -884.45 2305.0
1227.12 -936.15 2439.8
1230.60 -929.23 2421.7
1201.28 -902.49 2352.0
1206.25 -901.64 2349.8
1194.27 -888.20 2314.8
1200.47 -879.56 2292.3
1270.09 -925.98 2413.3
1247.67 -905.17 2359.0
1223.25 -883.12 2301.6
1263.28 -907.60 2365.4
1267.29 -906.08 2361.4
1281.62 -911.92 2376.6
1323.09 -936.93 2441.8
1324.95 -933.78 2433.6
1358.16 -952.64 2482.8
1376.13 -956.18 2492.0
1383.99 -957.15 2494.5
1377.07 -947.94 2470.5
1357.55 -930.17 2424.2
1331.32 -908.00 2366.4
1360.39 -923.57 2407.0
1445.80 -972.63 2534.8
1416.01 -948.28 2471.4
1007.30 -1035.09 2679.5
1018.72 -1025.61 2655.0
1036.68 -1036.68 2683.6
1018.26 -978.85 2533.9
1028.61 -982.45 2543.3
1011.65 -960.10 2485.4
1033.34 -974.48 2522.6
1067.39 -1000.26 2589.4
1069.27 -995.75 2577.7
1074.71 -994.61 2574.7
1069.92 -984.06 2547.4
1050.70 -960.46 2486.3
1045.95 -950.28 2460.0
1052.19 -950.16 2459.7
1079.30 -968.77 2507.8
1107.73 -988.34 2558.5
1082.56 -960.13 2485.5
1061.60 -935.97 2422.9
1081.05 -947.51 2452.8
1088.39 -948.36 2455.0
1050.33 -899.42 2328.3
1080.40 -919.88 2381.3
1068.40 -904.49 2341.5
1074.71 -904.70 2342.0
1090.51 -912.84 2363.1
1094.88 -911.38 2359.3
1109.20 -918.17 2376.9
1111.17 -914.72 2367.9
1080.46 -884.55 2289.8
1082.19 -881.13 2281.0
1105.01 -894.82 2316.4
1133.71 -913.09 2363.7
1145.78 -917.86 2376.0
1138.53 -907.17 2348.4
1157.24 -917.18 2374.3
1169.40 -921.91 2386.5
1169.92 -917.46 2375.0
1168.71 -911.71 2360.1
1158.58 -899.11 2327.5
1179.61 -910.68 2357.5
1177.83 -904.62 2341.8
1147.39 -876.73 2269.6
1197.60 -910.42 2356.8
1246.42 -937.96 2428.1
1219.45 -913.05 2363.6
1214.83 -905.05 2342.9
1219.75 -904.19 2340.7
1197.00 -882.93 2285.6
1241.05 -906.45 2346.5
1287.24 -935.61 2422.0
1350.38 -967.34 2504.1
1348.79 -961.58 2489.2
1338.07 -949.40 2457.7
1356.77 -958.10 2480.2
1397.35 -968.40 2506.9
1383.48 -954.34 2470.5
1366.66 -938.40 2429.2
1371.59 -937.47 2426.8
1434.55 -976.02 2526.6
1457.03 -986.81 2554.5
1445.69 -974.70 2523.2
999.44 -1019.84 2622.4
1003.12 -1016.67 2614.3
1026.06 -1032.94 2656.1
1000.74 -981.12 2522.9
1002.65 -976.61 2511.3
1009.77 -977.19 2512.8
999.96 -961.50 2472.4
1024.36 -978.69 2516.6
1049.24 -977.55 2513.7
1041.11 -952.23 2448.6
1064.36 -967.60 2488.1
1082.50 -966.52 2485.3
1061.94 -942.55 2423.7
1084.04 -956.51 2459.6
1086.86 -947.85 2437.3
1069.86 -917.03 2358.1
1089.91 -928.90 2388.6
1095.94 -928.76 2388.2
1111.04 -936.27 2407.6
1089.71 -913.16 2348.1
1078.08 -898.40 2310.2
1129.19 -935.79 2406.3
1141.66 -940.93 2419.5
1105.26 -905.95 2329.6
1090.80 -889.24 2286.6
1100.23 -892.08 2293.9
1091.25 -880.04 2263.0
1112.18 -892.12 2294.0
1160.13 -925.63 2380.2
1163.99 -923.80 2375.5
1159.06 -915.05 2353.0
1198.04 -940.87 2419.4
1184.68 -920.74 2367.6
1204.02 -921.45 2369.4
1202.16 -915.35 2353.8
1178.73 -884.05 2273.3
1222.38 -912.23 2345.7
1240.46 -921.13 2368.6
1233.52 -911.47 2343.8
1275.55 -937.90 2411.8
1293.00 -946.10 2432.8
1323.90 -964.01 2478.9
1363.10 -969.03 2491.8
1356.36 -959.69 2467.8
1382.08 -968.75 2491.1
1377.49 -961.04 2471.2
1395.95 -969.41 2492.8
1376.87 -951.75 2447.4
1378.58 -948.56 2439.2
1381.18 -946.02 2432.6
1038.80 -1052.74 2689.1
1028.62 -1035.48 2645.0
1023.72 -1023.72 2615.0
1043.13 -1036.27 2647.0
1038.08 -1024.51 2617.0
1026.97 -1006.96 2572.2
1023.01 -996.61 2545.7
1027.73 -994.79 2541.1
1068.59 -1027.75 2625.3
1013.66 -944.83 2413.5
1021.64 -946.43 2417.6
1050.26 -967.00 2470.1
1074.66 -983.48 2512.2
1088.83 -978.65 2499.9
1036.59 -926.18 2365.8
1081.71 -960.81 2454.3
1089.12 -950.62 2428.3
1040.25 -902.75 2306.0
1042.99 -899.95 2298.8
1080.11 -926.68 2367.1
1104.16 -941.97 2406.2
1112.59 -943.82 2410.9
1084.14 -914.55 2336.1
1078.30 -899.58 2297.9
1130.77 -938.16 2396.4
1135.56 -936.99 2393.5
1082.29 -888.18 2268.8
1107.25 -894.09 2283.9
1168.79 -938.76 2398.0
1187.22 -948.52 2422.9
1150.72 -914.52 2336.0
1159.90 -916.99 2342.4
1211.70 -948.02 2421.6
1168.50 -909.50 2323.2
1189.62 -921.19 2353.1
1192.04 -918.36 2345.9
1217.71 -923.99 2360.2
1226.16 -925.75 2364.7
1245.53 -935.69 2390.1
1254.48 -937.75 2395.4
1238.37 -921.15 2353.0
1316.18 -974.23 2488.6
1332.58 -972.08 2483.1
1323.81 -961.04 2454.9
1324.84 -957.18 2445.0
1360.63 -978.36 2499.1
1353.98 -968.96 2475.1
1339.93 -954.38 2437.9
1359.56 -963.82 2462.0
1355.42 -956.40 2443.0
1357.19 -953.19 2434.8
1393.13 -973.90 2487.7
1390.77 -967.77 2472.1
1399.52 -969.39 2476.2
1401.74 -966.49 2468.8
1033.82 -1027.06 2606.3
1025.13 -1011.82 2567.6
1032.72 -1012.74 2569.9
1035.18 -1002.21 2543.2
1018.86 -980.17 2487.3
1048.48 -1002.32 2543.5
1046.11 -975.51 2475.5
1032.17 -956.64 2427.6
1054.24 -971.18 2464.5
1044.81 -945.31 2398.8
1043.71 -933.20 2368.1
1078.67 -947.74 2405.0
1035.99 -905.00 2296.5
1055.86 -911.88 2314.0
1077.42 -925.25 2347.9
1083.75 -925.45 2348.4
1080.56 -917.57 2328.4
1072.50 -905.66 2298.2
1083.51 -909.91 2309.0
1122.69 -937.64 2379.3
1146.03 -951.90 2415.5
1110.70 -917.53 2328.3
1079.88 -887.25 2251.5
1086.78 -888.12 2253.7
1116.72 -907.71 2303.4
1165.87 -942.62 2392.0
1169.88 -935.90 2374.9
1149.85 -915.07 2322.1
1186.75 -939.51 2384.1
1188.46 -935.99 2375.2
1154.94 -904.90 2296.3
1167.48 -910.04 2309.3
1162.55 -901.57 2287.8
1168.24 -901.39 2287.4
1256.85 -950.46 2411.9
1228.18 -924.18 2345.2
1223.85 -916.38 2325.4
1331.20 -977.50 2480.5
1334.99 -975.57 2475.6
1287.44 -936.32 2376.0
1266.59 -916.77 2326.4
1299.96 -936.46 2376.4
1332.16 -955.13 2423.7
1350.85 -963.98 2446.2
1348.52 -957.82 2430.6
1333.23 -942.56 2391.8
1349.20 -949.44 2409.3
1386.75 -953.78 2420.3
1040.21 -1068.14 2692.8
1060.77 -1067.74 2691.8
1055.15 -1055.15 2660.0
1033.18 -1013.31 2554.6
1021.90 -983.34 2479.0
1050.89 -1004.91 2533.4
1042.49 -990.69 2497.5
1057.93 -999.16 2518.9
1065.42 -1000.05 2521.1
1031.38 -962.20 2425.7
1035.70 -960.38 2421.1
1048.91 -966.77 2437.2
1018.51 -933.13 2352.4
1041.05 -942.49 2376.0
1094.75 -973.82 2455.0
1105.18 -977.41 2464.1
1071.56 -942.23 2375.4
1074.85 -939.72 2369.0
1108.17 -963.35 2428.6
1123.15 -965.40 2433.8
1096.39 -937.14 2362.5
1077.27 -915.68 2308.4
1077.50 -910.82 2296.2
1078.88 -906.97 2286.5
1094.47 -910.08 2294.3
1134.86 -938.56 2366.1
1118.70 -920.22 2319.9
1126.58 -921.75 2323.7
1133.65 -922.60 2325.9
1122.06 -908.34 2289.9
1139.88 -917.90 2314.0
1165.74 -933.81 2354.1
1179.59 -939.98 2369.7
1158.91 -918.72 2316.1
1149.87 -906.85 2286.2
1185.77 -930.37 2345.5
1180.50 -921.51 2323.1
1185.41 -920.65 2321.0
1232.52 -952.40 2401.0
1227.21 -943.53 2378.6
1227.87 -939.32 2368.0
1247.67 -949.72 2394.2
1262.32 -956.11 2410.4
1256.15 -937.52 2363.5
1276.18 -947.85 2389.5
1332.93 -985.21 2483.7
1325.98 -975.36 2458.9
1273.94 -932.59 2351.1
1273.21 -923.23 2327.5
1312.57 -947.28 2388.1
1338.94 -961.77 2424.6
1358.57 -971.32 2448.7
1369.56 -974.62 2457.0
1356.57 -960.90 2422.4
1386.06 -977.27 2463.7
1030.95 -1065.55 2668.8
1016.35 -1043.46 2613.5
1021.48 -1008.38 2525.6
1006.26 -980.78 2456.5
1007.17 -975.49 2443.3
1009.88 -965.97 2419.4
1060.38 -1008.02 2524.7
1064.23 -1005.47 2518.3
1027.64 -964.98 2416.9
1009.80 -942.48 2360.6
1033.10 -947.00 2371.9
1078.33 -982.62 2461.1
1078.87 -977.33 2447.9
1034.61 -926.34 2320.1
1074.73 -956.70 2396.2
1074.22 -950.75 2381.3
1086.07 -955.74 2393.8
1113.64 -963.48 2413.2
1086.07 -934.38 2340.3
1068.91 -914.51 2290.5
1074.30 -914.04 2289.4
1078.08 -912.22 2284.8
1071.75 -901.91 2259.0
1120.80 -938.06 2349.5
1164.47 -964.13 2414.8
1127.80 -928.78 2326.3
1094.87 -896.86 2246.3
1094.31 -891.66 2233.3
1122.81 -910.07 2279.4
1155.69 -931.81 2333.9
1176.62 -943.75 2363.8
1183.35 -944.23 2364.9
1198.97 -951.76 2383.8
1218.06 -961.95 2409.3
1194.57 -938.59 2350.8
1153.27 -901.54 2258.0
1153.30 -897.01 2246.7
1189.16 -920.25 2304.9
1231.76 -948.45 2375.5
1258.53 -964.25 2415.1
1241.94 -937.54 2348.2
1251.27 -939.97 2354.3
1276.22 -944.90 2366.6
1269.44 -935.37 2342.8
1295.03 -949.69 2378.6
1285.89 -938.52 2350.7
1283.00 -931.99 2334.3
1301.49 -940.98 2356.8
1314.10 -945.66 2368.5
1348.83 -966.14 2419.8
1362.54 -971.44 2433.1
1357.78 -954.78 2391.4
1009.34 -1009.34 2511.7
1029.11 -1022.51 2544.5
1043.84 -1024.02 2548.3
1043.04 -1004.17 2498.9
1066.82 -1020.72 2540.1
1041.50 -990.39 2464.6
1020.24 -964.25 2399.5
1017.50 -955.84 2378.6
1028.39 -960.24 2389.5
1049.38 -973.97 2423.7
1045.04 -964.17 2399.3
1057.91 -970.28 2414.5
1056.84 -963.59 2397.9
1066.23 -955.29 2377.2
1064.14 -947.94 2358.9
1075.93 -952.97 2371.4
1108.44 -976.18 2429.2
1112.60 -974.31 2424.6
1091.54 -950.50 2365.3
1074.57 -930.49 2315.5
1089.16 -937.89 2333.9
1126.19 -964.41 2399.9
1133.82 -965.61 2402.9
1135.01 -961.35 2392.3
1146.67 -965.95 2403.7
1154.32 -967.13 2406.7
1149.31 -957.76 2383.4
1113.83 -923.23 2297.4
1116.72 -920.70 2291.1
1155.58 -947.70 2358.3
1147.34 -935.99 2329.2
1141.48 -926.33 2305.1
1133.82 -915.33 2277.8
1115.52 -895.89 2229.4
1144.80 -914.66 2276.1
1178.94 -937.11 2332.0
1163.42 -920.05 2289.5
1166.27 -908.40 2260.5
1221.76 -946.86 2356.2
1260.23 -971.82 2418.4
1255.69 -963.52 2397.7
1237.01 -944.52 2350.4
1234.44 -937.93 2334.0
1286.19 -972.49 2420.0
1278.87 -957.61 2383.0
1261.44 -940.02 2339.2
1294.13 -959.76 2388.4
1302.68 -961.50 2392.7
1278.19 -938.96 2336.6
1268.01 -927.08 2307.0
1280.50 -931.82 2318.8
1315.46 -952.79 2371.0
1374.07 -990.61 2465.1
1371.26 -984.01 2448.7
1401.90 -987.70 2457.9
1018.53 -1005.63 2486.5
983.46 -964.90 2385.7
1010.03 -984.78 2434.9
1036.81 -1004.61 2483.9
1028.98 -990.87 2450.0
1047.26 -1002.28 2478.2
1068.95 -1016.81 2514.1
1051.73 -994.37 2458.6
1050.93 -987.63 2441.9
1065.33 -995.16 2460.6
1052.47 -977.29 2416.4
1037.91 -958.07 2368.8
1034.56 -938.32 2320.0
1089.22 -982.18 2428.5
1092.26 -979.27 2421.3
1078.99 -961.84 2378.2
1085.78 -962.40 2379.5
1097.27 -967.08 2391.1
1085.20 -951.08 2351.6
1073.75 -935.78 2313.8
1092.70 -947.01 2341.5
1139.79 -971.63 2402.4
1112.65 -943.33 2332.4
1131.51 -954.14 2359.1
1137.84 -954.31 2359.6
1146.62 -956.54 2365.1
1147.32 -942.01 2329.1
1124.36 -918.32 2270.6
1099.88 -893.65 2209.6
1126.48 -910.52 2251.3
1204.81 -968.81 2395.4
1219.24 -970.42 2399.4
1167.84 -924.79 2286.6
1149.47 -905.64 2239.2
1183.97 -928.14 2294.8
1233.86 -962.41 2379.6
1245.39 -966.57 2389.9
1215.47 -938.68 2320.9
1230.42 -945.54 2337.9
1262.16 -965.18 2386.4
1245.92 -948.12 2344.2
1212.65 -918.32 2270.6
1253.83 -940.37 2325.1
1265.82 -944.83 2336.1
1253.53 -931.19 2302.4
1268.23 -937.65 2318.4
1300.70 -957.12 2366.5
1341.11 -982.22 2428.6
1356.93 -980.00 2423.1
1363.26 -980.04 2423.2
1393.89 -979.49 2421.8
1008.62 -1028.27 2526.2
1007.50 -1007.50 2475.2
994.66 -988.37 2428.2
1003.73 -991.10 2434.9
1012.82 -993.83 2441.6
1026.62 -1001.11 2459.5
1000.26 -969.39 2381.6
997.96 -961.23 2361.5
1050.16 -1005.34 2469.9
1066.02 -1014.33 2492.0
1044.93 -988.28 2428.0
1039.56 -977.31 2401.0
1053.52 -984.54 2418.8
1064.55 -988.96 2429.7
1062.02 -980.80 2409.6
1063.95 -976.84 2399.9
1056.67 -964.51 2369.6
1061.91 -963.70 2367.6
1080.63 -975.05 2395.5
1078.94 -967.96 2378.1
1078.72 -962.27 2364.1
1085.09 -962.48 2364.6
1093.42 -964.42 2369.4
1101.37 -966.00 2373.3
1093.06 -953.39 2342.3
1120.10 -971.58 2386.9
1106.74 -949.50 2332.7
1091.60 -931.42 2288.3
1125.38 -955.05 2346.4
1129.23 -953.17 2341.7
1133.06 -951.28 2337.1
1163.60 -971.73 2387.3
1148.49 -954.03 2343.9
1158.50 -957.29 2351.8
1188.55 -976.98 2400.2
1157.26 -946.30 2324.9
1177.78 -958.09 2353.8
1208.46 -963.09 2366.1
1167.09 -925.42 2273.5
1176.63 -928.30 2280.6
1168.45 -917.23 2253.4
1204.98 -931.93 2289.5
1246.28 -959.15 2356.4
1242.37 -951.47 2337.6
1212.21 -923.87 2269.7
1222.28 -927.04 2277.5
1250.69 -944.03 2319.3
1256.39 -943.79 2318.7
1262.98 -944.23 2319.8
1300.31 -967.53 2377.0
1322.90 -979.70 2406.9
1356.09 -999.56 2455.7
1369.32 -995.29 2445.2
1385.86 -1002.67 2463.3
1391.34 -1002.02 2461.7
1379.58 -980.06 2407.8
1409.37 -996.72 2448.7
980.00 -1012.02 2470.6
969.18 -981.61 2396.3
1008.05 -1008.05 2460.9
1010.06 -1003.71 2450.3
1013.45 -1000.78 2443.1
1046.35 -1026.85 2506.8
1033.52 -1008.00 2460.8
1002.27 -971.53 2371.7
1027.37 -989.78 2416.3
1053.03 -1008.36 2461.6
1040.78 -990.63 2418.3
1048.79 -992.27 2422.4
1077.37 -1013.25 2473.6
1064.10 -994.84 2428.6
1039.29 -965.93 2358.0
1060.08 -979.49 2391.2
1073.77 -986.37 2408.0
1084.09 -990.09 2417.0
1109.07 -1007.09 2458.5
1092.81 -986.65 2408.7
1077.89 -967.65 2362.3
1075.26 -959.84 2343.2
1073.73 -953.08 2326.7
1081.98 -955.04 2331.5
1072.80 -941.68 2298.9
1093.35 -954.42 2330.0
1116.44 -969.21 2366.1
1092.64 -943.37 2303.0
1093.60 -939.07 2292.5
1132.64 -967.34 2361.5
1141.42 -969.59 2367.0
1116.65 -943.48 2303.2
1118.32 -939.87 2294.4
1144.73 -956.97 2336.2
1170.62 -963.32 2351.7
1126.06 -921.85 2250.5
1119.89 -912.08 2226.6
1180.56 -956.56 2335.2
1226.80 -988.95 2414.3
1205.85 -967.13 2361.0
1182.10 -943.29 2302.8
1176.18 -919.98 2245.9
1228.18 -955.92 2333.6
1255.48 -972.38 2373.8
1284.10 -980.14 2392.7
1278.80 -971.40 2371.4
1293.13 -977.58 2386.5
1312.91 -987.81 2411.5
1289.89 -965.89 2358.0
1249.87 -931.51 2274.0
1292.31 -958.62 2340.2
1359.69 -1003.88 2450.7
1366.40 -994.89 2428.8
1391.25 -994.65 2428.2
1398.04 -995.00 2429.0
1006.77 -1053.13 2554.8
1019.02 -1045.32 2535.8
973.66 -992.38 2407.4
1026.32 -1039.40 2521.4
1035.58 -1042.14 2528.1
999.29 -999.29 2424.1
1005.48 -999.20 2423.9
1040.84 -1027.91 2493.6
1062.02 -1042.36 2528.6
1061.53 -1035.48 2511.9
1033.88 -1002.36 2431.6
1007.70 -971.06 2355.7
1027.03 -983.72 2386.4
1065.06 -1014.04 2459.9
1064.95 -1007.90 2445.0
1026.10 -965.38 2341.9
1024.74 -952.83 2311.5
1067.98 -987.26 2395.0
1095.45 -995.29 2414.5
1087.16 -982.15 2382.6
1088.49 -977.80 2372.0
1062.70 -949.26 2302.8
1045.66 -928.83 2253.2
1048.61 -926.27 2247.0
1080.57 -949.23 2302.7
1118.78 -977.40 2371.0
1111.08 -965.37 2341.9
1088.32 -940.45 2281.4
1102.59 -947.63 2298.8
1153.58 -986.12 2392.2
1152.40 -974.63 2364.3
1160.79 -976.53 2369.0
1175.53 -978.58 2373.9
1160.54 -961.07 2331.4
1143.27 -941.87 2284.9
1121.58 -919.23 2229.9
1164.44 -949.46 2303.3
1200.80 -974.12 2363.1
1170.37 -944.61 2291.5
1182.08 -949.25 2302.8
1171.45 -935.98 2270.6
1184.92 -937.32 2273.8
1196.23 -941.59 2284.2
1166.02 -913.29 2215.5
1208.87 -942.21 2285.7
1259.96 -977.23 2370.6
1292.79 -997.83 2420.6
1293.39 -993.47 2410.0
1271.62 -972.06 2358.1
1271.14 -967.04 2345.9
1268.80 -960.66 2330.4
1331.85 -994.20 2411.8
1356.88 -1008.15 2445.7
1358.23 -1004.46 2436.7
1365.88 -1000.81 2427.8
1359.71 -991.72 2405.8
1409.45 -1014.04 2459.9
1403.62 -1005.30 2438.7
989.59 -1028.14 2478.6
986.88 -1018.72 2455.8
1028.87 -1055.25 2543.9
1016.00 -1028.86 2480.3
992.08 -998.32 2406.7
1011.84 -1011.84 2439.3
1040.73 -1034.26 2493.3
1057.56 -1044.51 2518.0
1058.87 -1039.38 2505.6
1031.96 -1006.79 2427.1
996.98 -966.77 2330.6
1008.48 -972.03 2343.3
1045.29 -1001.47 2414.3
1043.58 -993.89 2396.0
1051.17 -995.19 2399.1
1076.12 -1012.82 2441.6
1087.98 -1018.00 2454.1
1111.60 -1016.32 2450.1
1114.67 -1013.33 2442.9
1100.14 -994.47 2397.4
1058.34 -951.32 2293.4
1068.10 -954.72 2301.6
1099.26 -977.12 2355.5
1071.79 -947.44 2284.0
1046.40 -919.91 2217.6
1084.94 -948.58 2286.8
1111.68 -966.68 2330.4
1109.45 -959.52 2313.1
1141.31 -981.77 2366.8
1163.59 -995.58 2400.1
1153.57 -981.76 2366.8
1118.26 -946.67 2282.2
1097.07 -923.85 2227.1
1138.04 -953.33 2298.2
1173.45 -977.88 2357.4
1172.20 -971.77 2342.7
1166.66 -962.20 2319.6
1122.52 -921.04 2220.4
1199.62 -969.39 2336.9
1220.05 -980.94 2364.8
1214.67 -971.73 2342.6
1230.01 -979.11 2360.4
1203.18 -953.02 2297.5
1178.27 -928.69 2238.8
1224.22 -960.17 2314.7
1238.31 -966.49 2329.9
1234.77 -959.04 2312.0
1263.57 -976.67 2354.5
1268.46 -975.74 2352.2
1250.96 -957.67 2308.7
1241.56 -941.47 2269.6
1316.86 -993.86 2395.9
1371.44 -1020.61 2460.4
1310.78 -970.95 2340.7
1343.22 -990.39 2387.6
1394.88 -1009.87 2434.5
951.48 -1007.82 2414.5
981.22 -1019.20 2441.7
1007.76 -1040.06 2491.7
1012.02 -1037.80 2486.3
1020.49 -1039.86 2491.2
1032.18 -1045.16 2503.9
1025.33 -1031.74 2471.8
1030.91 -1030.91 2469.8
1055.99 -1049.48 2514.3
1048.31 -1029.13 2465.5
1020.43 -995.69 2385.4
1027.98 -997.02 2388.6
1061.15 -1023.03 2450.9
1046.86 -1003.24 2403.5
1040.97 -991.70 2375.8
1040.23 -985.16 2360.2
1028.06 -967.94 2318.9
1082.67 -1013.43 2427.9
1071.12 -991.09 2374.4
1022.29 -940.51 2253.2
1021.47 -923.92 2213.5
1124.35 -1011.29 2422.8
1094.80 -973.83 2333.0
1057.17 -935.19 2240.5
1083.71 -953.42 2284.2
1107.60 -969.15 2321.8
1105.76 -962.31 2305.4
1108.31 -959.35 2298.3
1101.44 -948.29 2271.9
1136.69 -973.44 2332.1
1148.31 -978.19 2343.5
