ply
format ascii 1.0
element vertex 2144
property float x
property float y
property float z
end_header
-309.82 -151.13 2914.7
-21.02 -140.12 2702.3
-14.09 -140.90 2717.3
14.19 -141.93 2737.3
42.09 -140.31 2706.0
64.97 -144.38 2784.5
102.66 -146.65 2828.3
111.69 -148.92 2872.0
131.89 -146.54 2826.1
237.17 -143.74 2772.2
241.94 -142.32 2744.7
253.33 -144.76 2791.8
269.87 -145.88 2813.3
269.75 -141.97 2738.1
282.51 -144.88 2794.0
294.82 -147.41 2843.0
305.49 -149.02 2874.0
338.23 -147.06 2836.1
340.53 -144.91 2794.6
351.12 -146.30 2821.5
347.62 -141.89 2736.4
348.95 -139.58 2691.9
361.05 -141.59 2730.6
367.33 -141.28 2724.7
375.22 -141.59 2730.7
386.46 -143.13 2760.4
386.99 -140.72 2713.9
388.00 -138.57 2672.4
397.26 -139.39 2688.2
403.19 -139.03 2681.3
411.79 -139.59 2692.1
427.67 -142.56 2749.3
438.68 -143.83 2773.8
441.41 -142.39 2746.1
441.10 -140.03 2700.6
448.74 -140.23 2704.4
455.56 -140.17 2703.3
456.14 -138.22 2665.7
475.15 -141.84 2735.4
482.21 -141.83 2735.2
479.76 -139.06 2681.9
491.84 -140.53 2710.1
494.12 -139.19 2684.4
505.61 -140.45 2708.6
525.39 -143.94 2776.1
529.33 -143.06 2759.0
540.80 -144.21 2781.2
555.26 -144.22 2781.5
547.34 -140.34 2706.6
582.25 -137.00 2642.1
596.82 -138.80 2676.8
600.57 -138.06 2662.6
620.24 -140.96 2718.6
641.98 -144.26 2782.3
639.97 -142.22 2742.7
632.03 -138.91 2679.0
655.99 -142.61 2750.3
680.52 -146.35 2822.4
-572.76 -158.26 2906.9
-550.21 -158.28 2907.2
-540.54 -157.66 2895.8
-531.66 -157.25 2888.3
-521.55 -156.47 2873.9
-517.85 -157.61 2894.8
-510.05 -157.52 2893.2
-505.51 -158.44 2910.2
-499.19 -158.83 2917.3
-483.54 -156.22 2869.4
-468.94 -153.87 2826.2
-468.25 -156.08 2866.8
-446.49 -156.27 2870.3
-439.82 -156.55 2875.3
-427.63 -154.83 2843.9
-415.45 -153.06 2811.3
-413.77 -155.16 2849.9
-404.27 -154.36 2835.2
-381.16 -153.93 2827.3
-375.39 -154.57 2839.1
-361.80 -158.29 2907.3
-351.08 -160.27 2943.8
-342.16 -159.67 2932.8
-330.58 -157.78 2897.9
-320.73 -156.63 2876.9
-49.32 -147.95 2717.5
-35.13 -147.53 2709.8
-27.86 -146.29 2686.9
-7.05 -148.14 2721.0
21.29 -149.06 2737.9
35.29 -148.24 2722.7
41.78 -146.22 2685.7
49.77 -149.31 2742.5
57.96 -152.13 2794.3
96.03 -155.12 2849.2
102.32 -153.48 2819.0
139.23 -153.88 2826.4
235.34 -159.43 2928.2
236.46 -150.47 2763.8
254.11 -152.46 2800.4
273.53 -151.16 2776.5
282.87 -152.31 2797.6
285.72 -150.00 2755.2
311.09 -155.54 2856.9
322.54 -153.94 2827.5
336.98 -150.56 2765.5
351.93 -153.97 2828.0
353.11 -151.33 2779.6
364.48 -147.19 2703.6
380.74 -150.86 2770.9
385.44 -149.89 2753.1
379.75 -144.99 2663.2
389.24 -145.96 2681.0
407.13 -150.00 2755.0
407.88 -147.68 2712.5
411.59 -146.50 2690.8
420.55 -147.19 2703.5
424.11 -146.01 2681.7
428.99 -145.30 2668.8
472.70 -148.16 2721.3
487.17 -150.45 2763.4
492.00 -149.74 2750.3
505.55 -147.45 2708.3
505.08 -145.30 2668.7
529.26 -150.19 2758.7
537.98 -146.72 2694.9
544.30 -146.54 2691.6
541.99 -144.07 2646.2
601.08 -148.50 2727.6
594.79 -145.24 2667.6
607.28 -144.92 2661.8
645.04 -152.20 2795.5
644.43 -150.37 2761.8
638.37 -147.32 2705.8
679.91 -150.30 2760.5
-574.04 -166.17 2913.3
-505.12 -161.05 2823.7
-499.76 -161.69 2834.7
-494.16 -162.26 2844.8
-488.01 -162.67 2852.0
-483.97 -163.80 2871.9
-480.81 -165.28 2897.7
-467.22 -163.15 2860.5
-456.34 -161.93 2839.0
-458.21 -165.26 2897.3
-442.78 -165.10 2894.7
-424.75 -161.11 2824.7
-413.35 -159.54 2797.1
-412.85 -162.19 2843.6
-402.81 -161.12 2824.9
-372.33 -160.61 2816.0
-365.28 -160.72 2817.9
-359.73 -161.51 2831.7
-364.58 -167.10 2929.7
-340.84 -166.63 2921.5
-296.19 -167.08 2929.3
-291.80 -168.94 2961.9
13.96 -153.58 2692.6
21.20 -155.45 2725.5
27.70 -152.38 2671.5
35.21 -154.93 2716.4
51.23 -161.01 2822.9
58.80 -161.69 2834.8
81.20 -162.40 2847.2
88.60 -162.44 2848.0
102.41 -160.93 2821.6
226.29 -165.95 2909.5
239.88 -164.92 2891.4
248.51 -165.67 2904.7
254.67 -164.79 2889.1
259.03 -162.82 2854.7
271.38 -165.84 2907.7
278.18 -165.41 2900.0
276.24 -159.93 2803.9
281.02 -158.53 2779.3
318.25 -162.82 2854.7
320.01 -160.00 2805.3
331.50 -155.17 2720.5
341.77 -156.65 2746.4
358.22 -160.83 2819.8
366.69 -161.34 2828.8
360.16 -155.36 2723.9
365.36 -154.58 2710.1
369.82 -153.51 2691.4
410.29 -158.36 2776.4
429.36 -154.85 2714.9
443.87 -152.58 2675.1
459.58 -155.55 2727.2
482.71 -158.50 2778.9
478.61 -154.84 2714.8
482.44 -153.82 2696.9
496.70 -156.11 2736.9
516.22 -159.95 2804.4
515.04 -155.22 2721.3
533.13 -158.50 2778.9
550.68 -159.41 2794.8
537.13 -153.47 2690.6
550.36 -155.23 2721.6
565.15 -157.38 2759.3
566.74 -155.85 2732.5
569.63 -154.71 2712.5
565.98 -151.85 2662.3
605.51 -156.72 2747.7
599.05 -153.25 2686.8
616.96 -154.24 2704.2
640.24 -158.26 2774.7
625.28 -152.85 2679.8
683.46 -159.96 2804.5
-575.55 -171.92 2883.1
-537.98 -169.50 2842.6
-529.95 -169.29 2839.0
-476.99 -166.22 2787.6
-476.76 -168.70 2829.2
-471.75 -169.54 2843.1
-457.17 -166.90 2799.0
-450.26 -167.03 2801.1
-455.18 -171.62 2878.2
-429.05 -173.13 2903.4
-400.00 -170.37 2857.1
-385.52 -167.30 2805.7
-376.38 -166.48 2791.8
-369.79 -166.77 2796.7
-377.29 -173.55 2910.5
-355.72 -174.07 2919.3
-348.02 -174.01 2918.2
-336.04 -171.76 2880.4
-42.32 -162.24 2720.8
-35.04 -161.18 2703.0
0.00 -161.13 2702.2
7.12 -163.69 2745.1
14.39 -165.47 2775.0
21.08 -161.60 2710.1
28.64 -164.69 2761.9
49.63 -163.07 2734.7
56.57 -162.64 2727.6
65.60 -167.63 2811.2
104.86 -172.27 2889.0
109.16 -167.37 2806.9
117.66 -169.14 2836.5
211.91 -174.07 2919.1
239.68 -172.27 2889.0
244.55 -165.43 2774.3
275.66 -171.36 2873.7
279.72 -169.30 2839.2
290.72 -171.45 2875.3
294.08 -169.10 2835.8
293.65 -164.73 2762.6
313.97 -164.12 2752.3
331.07 -169.21 2837.7
330.29 -165.14 2769.5
334.22 -163.56 2742.9
336.79 -161.38 2706.4
345.84 -162.33 2722.3
382.38 -169.13 2836.3
382.67 -166.06 2784.9
377.02 -160.58 2693.0
408.66 -162.05 2717.7
419.02 -163.35 2739.3
467.06 -162.76 2729.6
480.96 -162.68 2728.2
485.18 -161.73 2712.2
490.74 -161.24 2704.1
500.42 -162.11 2718.6
519.69 -166.01 2784.0
525.92 -165.70 2778.8
523.65 -162.76 2729.5
528.76 -162.15 2719.3
534.00 -161.61 2710.2
535.29 -159.89 2681.4
548.30 -161.68 2711.4
564.07 -164.22 2754.0
564.63 -162.33 2722.3
568.93 -161.55 2709.2
579.60 -162.57 2726.3
579.01 -160.45 2690.7
607.65 -162.51 2725.4
632.17 -167.13 2802.7
637.00 -164.62 2760.7
641.59 -160.40 2689.9
647.25 -160.07 2684.4
-559.30 -181.40 2915.3
-541.61 -178.07 2861.8
-514.20 -176.30 2833.3
-507.61 -176.56 2837.6
-498.22 -175.84 2826.0
-487.86 -174.76 2808.6
-481.80 -175.20 2815.7
-475.53 -175.58 2821.8
-464.82 -174.31 2801.4
-456.30 -173.83 2793.6
-454.62 -175.98 2828.3
-454.02 -178.63 2870.8
-451.97 -180.79 2905.5
-401.87 -178.61 2870.5
-388.86 -176.09 2830.0
-381.52 -176.09 2830.0
-374.44 -176.21 2831.9
-381.34 -183.04 2941.7
-352.16 -179.83 2890.1
-341.11 -177.97 2860.2
14.06 -168.67 2710.7
29.01 -174.06 2797.4
36.24 -173.93 2795.4
56.07 -168.20 2703.2
94.67 -174.78 2809.0
253.72 -179.09 2878.3
272.23 -181.48 2916.7
299.18 -179.51 2885.0
303.10 -177.42 2851.5
300.57 -171.76 2760.4
318.22 -173.57 2789.5
337.21 -175.94 2827.5
339.48 -173.35 2786.0
340.68 -170.34 2737.6
344.78 -168.87 2714.0
362.99 -174.23 2800.2
371.56 -174.85 2810.2
373.52 -172.39 2770.6
406.56 -174.24 2800.3
397.76 -167.48 2691.6
431.10 -169.61 2725.9
433.24 -167.70 2695.3
463.45 -168.53 2708.5
481.88 -172.62 2774.2
479.50 -169.24 2719.9
503.13 -167.71 2695.3
513.22 -168.73 2711.7
515.11 -167.06 2684.9
521.06 -166.74 2679.7
525.63 -165.99 2667.6
533.45 -166.27 2672.2
553.37 -170.27 2736.4
566.79 -172.19 2767.3
565.76 -169.73 2727.8
573.77 -170.01 2732.2
588.44 -172.23 2767.9
589.63 -170.49 2740.1
611.43 -168.67 2710.8
633.21 -172.69 2775.4
644.31 -173.75 2792.4
643.70 -171.65 2758.7
633.06 -166.96 2683.3
642.19 -167.53 2692.4
666.57 -172.02 2764.6
678.78 -173.30 2785.2
-543.99 -183.78 2835.4
-519.05 -182.77 2819.8
-521.42 -186.22 2873.1
-507.17 -183.76 2835.1
-512.00 -188.24 2904.2
-500.57 -189.61 2925.4
-485.41 -186.69 2880.4
-474.05 -185.18 2857.0
-464.91 -184.49 2846.4
-456.93 -184.24 2842.6
-450.52 -184.64 2848.7
-452.20 -188.42 2907.0
-397.52 -184.04 2839.4
-385.54 -181.86 2805.8
-384.53 -184.87 2852.3
-372.42 -186.21 2873.0
-360.32 -183.83 2836.3
-364.17 -189.67 2926.3
-348.15 -189.21 2919.2
-332.30 -188.81 2913.0
-328.05 -190.73 2942.6
-321.05 -191.10 2948.4
-28.93 -180.83 2790.0
7.21 -180.13 2779.2
14.04 -175.47 2707.3
21.37 -178.12 2748.2
27.93 -174.56 2693.2
55.64 -173.88 2682.8
72.78 -181.95 2807.2
81.22 -184.58 2847.9
88.56 -184.51 2846.7
95.03 -182.74 2819.5
111.06 -185.10 2855.9
276.05 -186.52 2877.8
281.10 -184.93 2853.2
291.93 -187.14 2887.3
295.22 -184.51 2846.8
300.94 -183.50 2831.1
309.92 -184.48 2846.2
317.77 -184.75 2850.4
325.52 -184.95 2853.5
330.39 -183.55 2831.9
333.61 -181.31 2797.3
338.58 -180.10 2778.7
345.80 -180.11 2778.8
355.54 -181.40 2798.7
373.60 -183.14 2825.5
366.79 -176.34 2720.7
375.76 -177.24 2734.6
391.98 -181.47 2799.9
403.04 -183.20 2826.5
415.80 -179.22 2765.2
412.24 -174.68 2695.1
426.28 -177.62 2740.4
439.49 -174.40 2690.8
455.60 -177.97 2745.8
472.63 -179.03 2762.1
469.17 -175.06 2701.0
474.06 -174.29 2689.0
493.58 -173.80 2681.4
507.08 -176.07 2716.5
509.61 -174.52 2692.6
523.68 -176.92 2729.6
541.93 -180.64 2787.1
546.96 -179.92 2775.9
555.44 -180.34 2782.4
571.70 -180.92 2791.3
583.10 -182.22 2811.4
601.29 -181.11 2794.3
591.65 -176.09 2716.8
608.70 -174.91 2698.7
638.66 -181.44 2799.3
650.83 -178.80 2758.6
666.87 -181.21 2795.9
-560.50 -194.31 2882.6
-557.43 -195.85 2905.5
-547.38 -194.96 2892.2
-543.43 -196.24 2911.2
-532.70 -195.07 2893.9
-511.54 -190.00 2818.7
-499.96 -191.16 2835.9
-500.34 -194.16 2880.4
-482.32 -190.00 2818.7
-485.49 -194.20 2880.9
-467.93 -196.23 2911.1
-449.82 -191.73 2844.3
-440.47 -190.87 2831.6
-430.43 -189.68 2814.0
-414.17 -192.29 2852.7
-407.34 -192.56 2856.7
-394.13 -189.77 2815.2
-383.16 -187.97 2788.5
-382.73 -191.37 2838.9
-364.91 -193.62 2872.4
-368.29 -199.49 2959.5
-355.06 -200.68 2977.2
-345.59 -199.68 2962.2
-42.16 -182.71 2710.5
-34.94 -181.71 2695.7
-7.19 -186.90 2772.7
0.00 -184.21 2732.8
7.20 -187.17 2776.7
28.46 -185.01 2744.6
41.92 -181.63 2694.6
49.77 -184.85 2742.3
55.82 -181.41 2691.3
73.15 -190.20 2821.7
87.40 -189.37 2809.3
95.88 -191.77 2844.9
103.21 -191.68 2843.7
249.63 -196.68 2917.7
253.81 -194.09 2879.3
302.58 -191.88 2846.5
313.02 -184.97 2744.0
324.90 -187.72 2784.8
335.92 -189.87 2816.7
342.99 -189.74 2814.8
352.15 -190.75 2829.8
354.47 -188.09 2790.3
361.72 -188.09 2790.4
375.10 -191.23 2836.9
377.00 -188.50 2796.4
381.94 -187.37 2779.6
394.55 -189.97 2818.2
400.72 -189.43 2810.3
407.72 -189.30 2808.3
409.94 -183.77 2726.2
416.25 -183.43 2721.2
447.35 -187.60 2783.0
440.71 -181.88 2698.2
459.28 -186.58 2768.0
476.26 -184.82 2741.8
481.95 -184.27 2733.7
490.75 -184.92 2743.3
498.17 -185.04 2745.0
504.88 -184.88 2742.8
507.72 -183.34 2720.0
510.82 -181.94 2699.1
525.66 -184.69 2739.9
553.01 -186.73 2770.2
552.79 -184.26 2733.6
566.20 -186.35 2764.5
595.51 -188.82 2801.2
592.59 -185.63 2753.9
589.43 -182.44 2706.6
599.56 -183.39 2720.7
623.09 -186.21 2762.5
623.02 -184.08 2730.8
646.13 -188.76 2800.2
651.88 -188.32 2793.8
640.42 -182.98 2714.5
654.26 -184.90 2743.0
659.90 -182.52 2707.8
669.86 -183.33 2719.7
-573.39 -203.70 2910.1
-513.50 -200.94 2870.5
-503.00 -199.72 2853.1
-488.47 -196.85 2812.1
-478.94 -198.94 2842.1
-446.31 -197.55 2822.1
-404.78 -195.16 2788.0
-395.72 -197.86 2826.6
-370.50 -204.15 2916.5
-363.18 -204.29 2918.4
-353.55 -203.10 2901.5
-349.09 -204.90 2927.1
-349.23 -209.54 2993.4
-339.99 -208.63 2980.4
-328.05 -205.98 2942.6
-322.56 -207.36 2962.3
-312.22 -205.61 2937.3
21.44 -193.00 2757.2
28.43 -191.88 2741.1
35.47 -191.53 2736.1
42.95 -193.26 2760.9
50.66 -195.42 2791.7
58.44 -197.23 2817.5
307.06 -202.21 2888.7
302.91 -194.73 2781.8
316.11 -198.49 2835.5
316.92 -194.48 2778.2
320.33 -192.20 2745.7
329.24 -193.25 2760.7
334.85 -192.36 2748.0
343.59 -193.27 2761.0
344.60 -189.88 2712.6
363.60 -188.79 2697.1
377.80 -192.46 2749.5
389.50 -194.75 2782.1
394.74 -193.78 2768.3
398.62 -192.19 2745.6
400.19 -189.56 2708.0
403.94 -188.04 2686.3
416.63 -190.66 2723.7
423.22 -190.45 2720.7
423.25 -187.34 2676.3
430.33 -187.40 2677.2
442.40 -189.60 2708.6
451.52 -190.49 2721.2
459.71 -190.96 2728.0
469.78 -192.18 2745.5
473.28 -190.72 2724.6
481.69 -191.26 2732.3
494.00 -193.31 2761.5
500.76 -193.15 2759.3
506.78 -192.72 2753.1
511.85 -191.94 2742.0
517.04 -191.24 2731.9
519.18 -189.43 2706.1
527.47 -189.89 2712.7
563.97 -195.22 2788.9
572.11 -195.53 2793.3
580.88 -196.05 2800.7
579.64 -193.21 2760.2
576.32 -189.76 2710.9
585.93 -188.34 2690.5
612.98 -194.71 2781.6
612.89 -190.21 2717.3
635.22 -190.57 2722.4
652.91 -193.72 2767.4
675.47 -191.98 2742.5
-558.18 -211.20 2909.4
-547.56 -210.02 2893.2
-527.03 -210.81 2904.0
-517.28 -209.91 2891.6
-512.78 -211.14 2908.6
-504.77 -210.95 2906.0
-495.94 -210.40 2898.4
-476.20 -205.13 2825.8
-466.30 -204.01 2810.3
-469.33 -208.59 2873.5
-457.80 -206.75 2848.0
-445.30 -204.40 2815.7
-442.00 -206.27 2841.4
-435.56 -206.71 2847.5
-429.23 -207.21 2854.5
-424.03 -208.29 2869.4
-410.15 -205.08 2825.0
-395.24 -204.94 2823.1
-384.52 -211.11 2908.1
-365.18 -204.50 2817.1
-352.64 -205.71 2833.7
-351.56 -209.44 2885.1
-355.40 -216.33 2980.1
-326.77 -212.78 2931.2
-308.75 -216.13 2977.2
14.52 -203.23 2799.6
21.23 -198.16 2729.7
28.56 -199.89 2753.6
35.19 -197.06 2714.6
42.18 -196.84 2711.5
50.91 -203.63 2805.2
297.72 -203.32 2800.9
309.76 -206.51 2844.7
326.14 -207.54 2859.0
328.94 -204.68 2819.5
337.57 -205.48 2830.5
331.89 -197.72 2723.7
344.79 -197.02 2714.1
358.12 -200.55 2762.7
361.11 -198.26 2731.1
369.27 -198.84 2739.1
383.30 -202.50 2789.5
395.37 -205.01 2824.1
395.65 -201.42 2774.7
394.10 -197.05 2714.5
400.26 -196.62 2708.5
407.87 -196.90 2712.4
408.86 -194.04 2673.0
428.19 -193.38 2663.9
439.91 -195.51 2693.3
448.34 -196.15 2702.0
454.99 -195.99 2699.9
463.64 -196.70 2709.6
483.27 -201.96 2782.1
494.61 -197.85 2725.4
500.55 -197.40 2719.3
505.35 -196.53 2707.2
514.73 -197.43 2719.7
520.97 -197.12 2715.5
526.80 -196.67 2709.3
551.31 -203.11 2798.0
589.79 -203.88 2808.5
579.54 -197.89 2726.1
576.02 -194.32 2676.8
587.53 -195.84 2697.8
628.37 -202.23 2785.9
613.05 -195.06 2687.1
647.76 -199.31 2745.6
642.23 -195.46 2692.6
669.59 -199.45 2747.6
-570.10 -217.54 2893.4
-556.21 -215.07 2860.5
-543.04 -212.81 2830.5
-538.93 -214.09 2847.6
-533.07 -214.71 2855.7
-516.16 -210.83 2804.1
-509.66 -211.14 2808.3
-514.20 -216.11 2874.4
-513.55 -219.01 2913.0
-496.19 -218.02 2899.8
-472.80 -210.94 2805.6
-465.72 -211.03 2806.8
-472.78 -217.63 2894.6
-467.21 -218.53 2906.6
-434.64 -217.32 2890.4
-420.16 -213.77 2843.2
-409.93 -212.29 2823.5
-381.46 -208.73 2776.2
-375.86 -209.61 2788.0
-364.21 -215.55 2866.9
-363.66 -219.71 2922.3
-357.58 -225.43 2998.3
-346.21 -223.12 2967.6
-333.12 -224.66 2988.1
-322.22 -222.49 2959.2
-28.44 -206.17 2742.1
-21.96 -212.32 2823.9
-14.76 -213.97 2845.9
-7.33 -212.47 2826.0
14.52 -210.52 2800.1
21.62 -209.02 2780.1
28.51 -206.69 2749.1
49.67 -205.77 2736.8
57.30 -207.71 2762.6
70.45 -204.31 2717.4
311.24 -209.91 2791.9
316.13 -208.36 2771.3
323.33 -208.37 2771.4
334.55 -210.91 2805.3
331.59 -204.60 2721.2
346.74 -205.21 2729.4
360.75 -209.23 2782.9
363.79 -206.86 2751.4
373.60 -208.35 2771.2
398.96 -210.36 2797.9
396.46 -205.31 2730.7
402.37 -204.72 2722.8
401.27 -200.64 2668.6
421.22 -200.25 2663.5
437.61 -204.69 2722.5
449.47 -206.90 2751.9
460.66 -208.74 2776.3
470.98 -210.13 2794.8
491.54 -206.59 2747.7
488.47 -202.37 2691.6
500.82 -204.56 2720.7
509.60 -199.71 2656.2
525.18 -203.07 2700.9
538.29 -205.40 2731.9
548.81 -206.70 2749.1
560.41 -208.36 2771.2
576.36 -206.35 2744.6
577.57 -204.26 2716.8
586.19 -204.81 2724.1
586.36 -202.43 2692.5
607.40 -207.23 2756.3
628.47 -207.11 2754.6
620.67 -202.24 2689.9
651.83 -205.47 2732.8
669.51 -204.38 2718.3
-567.87 -224.16 2882.0
-560.48 -224.19 2882.5
-553.27 -224.30 2883.9
-529.37 -217.55 2797.0
-515.44 -220.90 2840.2
-508.13 -220.92 2840.5
-495.62 -218.66 2811.3
-498.44 -223.18 2869.5
-494.07 -224.58 2887.4
-476.19 -219.78 2825.7
-474.45 -222.40 2859.4
-469.17 -227.02 2918.8
-427.29 -221.01 2841.6
-419.64 -220.86 2839.7
-415.44 -222.56 2861.4
-370.29 -222.18 2856.5
-358.22 -233.62 3003.7
-340.60 -227.07 2919.4
-331.77 -226.21 2908.4
-330.51 -230.59 2964.7
-28.21 -211.61 2720.6
-21.21 -212.08 2726.7
14.71 -220.69 2837.4
21.63 -216.26 2780.5
28.08 -210.60 2707.7
34.98 -209.89 2698.6
43.05 -215.24 2767.3
50.60 -216.85 2788.1
57.06 -213.97 2751.1
341.80 -213.62 2746.6
343.28 -210.17 2702.2
353.40 -207.88 2672.7
369.66 -213.27 2742.0
383.29 -216.96 2789.4
390.52 -216.96 2789.5
393.39 -214.58 2758.8
396.67 -212.50 2732.2
401.28 -211.20 2715.4
422.22 -211.11 2714.3
434.23 -213.55 2745.7
440.53 -213.16 2740.6
438.13 -208.64 2682.5
461.44 -212.97 2738.2
482.40 -216.00 2777.2
469.48 -207.12 2663.0
477.40 -207.57 2668.7
500.84 -214.64 2759.7
508.84 -215.00 2764.3
497.48 -207.28 2665.1
517.20 -209.68 2695.8
520.32 -208.13 2675.9
536.02 -208.84 2685.1
552.99 -212.69 2734.6
559.79 -212.58 2733.2
577.87 -211.42 2718.2
587.55 -212.37 2730.4
589.64 -210.59 2707.5
627.96 -211.67 2721.5
653.79 -213.19 2741.1
659.34 -212.69 2734.6
683.49 -213.59 2746.2
-560.44 -228.60 2844.3
-551.24 -227.84 2834.9
-556.73 -233.23 2901.9
-544.83 -231.37 2878.8
-513.26 -224.10 2788.3
-509.11 -225.46 2805.3
-488.26 -229.33 2853.5
-482.72 -230.22 2864.5
-468.31 -226.84 2822.4
-458.46 -225.59 2806.9
-456.11 -228.05 2837.5
-422.76 -225.96 2811.4
-423.35 -230.24 2864.8
-406.54 -229.14 2851.1
-385.75 -221.45 2755.3
-381.31 -223.03 2775.1
-377.04 -224.78 2796.8
-371.10 -225.57 2806.6
-368.42 -228.42 2842.1
-372.23 -235.49 2930.1
-369.06 -238.35 2965.6
-352.80 -232.70 2895.3
-350.36 -236.11 2937.8
-347.81 -239.60 2981.2
-337.81 -238.00 2961.3
-334.53 -241.17 3000.8
-28.20 -218.53 2719.1
-21.23 -219.34 2729.1
-14.26 -221.03 2750.1
-7.36 -228.08 2837.8
29.16 -225.98 2811.8
36.49 -226.22 2814.7
72.31 -224.16 2789.1
311.78 -224.77 2796.7
324.94 -223.85 2785.2
333.51 -219.97 2737.0
356.76 -221.19 2752.2
360.90 -219.37 2729.5
366.92 -218.74 2721.7
368.97 -215.81 2685.2
378.28 -217.16 2702.0
384.45 -216.69 2696.1
391.29 -216.61 2695.1
399.45 -217.24 2703.0
410.01 -219.14 2726.7
441.10 -217.05 2700.6
471.45 -221.44 2755.2
473.43 -219.05 2725.5
473.19 -215.72 2684.1
495.04 -222.41 2767.3
508.74 -222.13 2763.8
517.50 -222.81 2772.3
517.56 -213.92 2661.7
579.00 -221.59 2757.2
592.89 -221.44 2755.2
605.23 -223.36 2779.1
593.65 -216.51 2693.9
631.65 -220.01 2737.5
649.04 -218.70 2721.1
661.55 -220.52 2743.8
663.32 -218.75 2721.8
666.40 -217.46 2705.7
-541.22 -234.04 2821.0
-549.73 -240.98 2904.6
-540.44 -240.20 2895.2
-523.44 -235.91 2843.6
-505.44 -231.06 2785.1
-505.29 -234.34 2824.6
-495.00 -236.42 2849.7
-480.43 -232.93 2807.7
-481.30 -236.95 2856.1
-473.11 -236.56 2851.4
-459.97 -233.63 2816.1
-455.38 -235.04 2833.0
-446.35 -234.15 2822.3
-431.60 -234.09 2821.6
-398.87 -240.83 2902.8
-388.95 -239.35 2885.1
-378.07 -237.22 2859.4
-371.04 -237.46 2862.3
-347.74 -247.28 2980.6
-343.61 -249.90 3012.2
-333.03 -247.83 2987.3
-321.27 -244.78 2950.5
-316.56 -247.07 2978.0
-44.13 -235.36 2836.9
-35.68 -228.34 2752.3
-21.94 -234.06 2821.2
-7.43 -237.62 2864.2
0.00 -234.39 2825.3
7.35 -235.22 2835.3
14.62 -233.90 2819.3
22.25 -237.28 2860.1
29.68 -237.44 2862.0
36.29 -232.23 2799.1
43.84 -233.79 2818.0
49.89 -228.07 2749.1
315.49 -229.44 2765.6
327.76 -233.07 2809.4
332.58 -231.36 2788.7
339.83 -231.37 2788.9
355.45 -232.13 2798.0
356.91 -223.94 2699.3
374.44 -230.42 2777.4
370.92 -223.95 2699.4
375.58 -222.57 2682.7
380.15 -221.18 2666.0
385.49 -220.28 2655.1
397.47 -223.14 2689.6
412.00 -227.31 2739.9
445.26 -229.81 2770.0
460.88 -230.44 2777.6
449.50 -221.29 2667.4
457.06 -221.61 2671.1
466.34 -222.73 2684.7
472.75 -222.47 2681.6
497.57 -230.76 2781.4
527.92 -225.24 2715.0
527.95 -222.30 2679.5
532.68 -221.38 2668.4
549.01 -225.24 2714.9
559.57 -226.66 2732.1
594.87 -229.35 2764.4
594.82 -223.93 2699.2
598.24 -222.60 2683.1
611.22 -224.82 2709.8
632.39 -222.38 2680.4
640.82 -222.89 2686.7
662.36 -227.91 2747.1
672.15 -228.82 2758.1
-563.40 -241.46 2822.2
-562.71 -244.33 2855.9
-565.66 -248.89 2909.1
-547.12 -243.98 2851.8
-531.08 -240.08 2806.1
-527.53 -241.78 2826.0
-517.55 -240.55 2811.7
-509.78 -240.33 2809.0
-518.87 -248.16 2900.5
-503.59 -248.04 2899.2
-480.32 -240.16 2807.1
-472.75 -240.01 2805.3
-473.50 -244.15 2853.7
-469.19 -245.76 2872.6
-445.80 -237.28 2773.4
-432.26 -241.77 2825.9
-406.23 -243.74 2848.9
-399.12 -243.91 2850.9
-391.46 -243.74 2848.9
-382.61 -242.81 2838.1
-373.55 -241.71 2825.2
-369.93 -244.16 2853.8
-329.42 -252.81 2955.0
-320.88 -252.12 2946.9
-50.46 -237.88 2780.4
-7.31 -241.24 2819.7
22.07 -242.77 2837.5
43.84 -241.13 2818.4
311.54 -239.09 2794.5
332.16 -238.29 2785.2
331.56 -232.80 2721.0
341.95 -235.09 2747.8
339.05 -228.34 2668.9
369.24 -238.92 2792.6
383.32 -238.67 2789.7
381.72 -233.27 2726.5
380.21 -228.12 2666.4
386.69 -227.87 2663.4
399.13 -231.08 2700.9
409.54 -233.01 2723.5
422.62 -236.38 2762.9
430.38 -236.71 2766.7
431.16 -233.25 2726.3
424.13 -225.75 2638.6
451.16 -232.63 2719.0
461.33 -234.21 2737.5
459.65 -229.83 2686.3
459.94 -226.54 2647.8
466.77 -226.52 2647.6
492.02 -235.32 2750.4
503.21 -230.64 2695.8
521.39 -232.51 2717.7
539.78 -234.38 2739.5
539.40 -231.17 2702.0
614.82 -233.21 2725.8
648.73 -235.25 2749.7
649.01 -232.80 2721.0
661.75 -234.82 2744.6
-566.20 -250.01 2836.3
-547.75 -251.67 2855.1
-542.45 -252.65 2866.2
-520.33 -249.17 2826.7
-495.78 -244.30 2771.4
-495.55 -247.78 2810.9
-499.22 -253.34 2874.0
-477.28 -249.66 2832.2
-463.62 -246.30 2794.1
-463.14 -249.95 2835.6
-443.46 -251.29 2850.8
-428.25 -246.79 2799.7
-412.01 -245.76 2788.0
-406.93 -247.07 2802.9
-393.06 -242.98 2756.5
-385.91 -242.98 2756.5
-385.27 -247.16 2803.9
-384.52 -251.42 2852.2
-375.95 -250.63 2843.3
-372.67 -253.42 2874.9
-368.47 -255.68 2900.5
-362.79 -256.98 2915.3
-354.26 -256.27 2907.3
-350.37 -258.97 2937.9
-332.22 -262.69 2980.1
-42.84 -242.76 2754.0
-28.50 -242.25 2748.2
-21.89 -248.05 2814.0
-14.79 -251.48 2852.9
-7.29 -247.97 2813.1
14.69 -249.72 2833.0
42.92 -243.20 2759.0
320.54 -247.69 2810.0
330.16 -249.45 2829.9
329.49 -243.53 2762.8
334.02 -241.63 2741.2
348.89 -247.13 2803.6
350.27 -243.05 2757.2
355.13 -241.49 2739.5
375.24 -240.72 2730.8
371.96 -234.20 2656.9
400.36 -238.81 2709.2
415.23 -243.41 2761.4
446.97 -245.11 2780.7
433.11 -233.74 2651.7
441.44 -234.51 2660.4
458.25 -239.70 2719.3
462.91 -238.47 2705.3
466.14 -236.55 2683.6
477.57 -238.78 2708.9
491.04 -241.96 2744.9
500.42 -243.06 2757.4
510.23 -244.33 2771.9
500.91 -236.54 2683.4
524.84 -237.93 2699.2
526.96 -235.74 2674.4
539.89 -235.34 2669.8
604.43 -244.65 2775.4
589.42 -235.77 2674.7
607.96 -240.36 2726.7
611.62 -239.02 2711.6
618.26 -236.19 2679.5
639.22 -238.83 2709.4
-577.80 -255.99 2821.1
-560.35 -258.05 2843.9
-547.54 -255.52 2815.9
-533.74 -252.44 2782.0
-541.22 -259.49 2859.7
-509.92 -254.96 2809.7
-495.96 -255.27 2813.2
-483.80 -260.51 2870.9
-460.41 -251.79 2774.8
-447.81 -252.80 2785.9
-451.35 -258.97 2853.9
-446.42 -260.41 2869.8
-418.47 -256.95 2831.7
-408.27 -255.17 2812.1
-387.22 -255.71 2818.1
-385.24 -259.29 2857.5
-376.13 -258.13 2844.7
-378.60 -265.02 2920.7
-357.42 -260.62 2872.1
-331.26 -269.63 2971.5
-80.17 -255.10 2811.3
-49.46 -247.30 2725.4
-43.51 -253.82 2797.2
-36.58 -256.09 2822.2
-28.46 -249.04 2744.6
-21.46 -250.32 2758.6
14.62 -255.83 2819.4
316.86 -252.05 2777.6
334.60 -254.59 2805.7
345.83 -242.08 2667.8
365.81 -246.22 2713.4
372.04 -245.68 2707.5
379.89 -246.22 2713.5
393.96 -250.70 2762.8
396.40 -247.75 2730.3
405.36 -248.91 2743.1
408.32 -246.40 2715.4
414.00 -245.59 2706.5
448.43 -249.13 2745.5
451.05 -239.19 2636.0
468.43 -244.70 2696.7
475.90 -244.95 2699.4
485.32 -246.18 2713.0
489.29 -244.64 2696.1
493.71 -243.38 2682.1
506.83 -246.37 2715.1
506.96 -243.06 2678.6
506.53 -239.57 2640.2
527.38 -246.11 2712.3
534.35 -246.08 2711.9
534.49 -242.95 2677.4
537.80 -241.32 2659.5
550.82 -244.03 2689.3
568.63 -248.78 2741.6
575.24 -248.56 2739.2
582.66 -248.70 2740.7
585.89 -247.06 2722.7
590.94 -246.23 2713.5
595.73 -245.30 2703.3
610.43 -248.43 2737.8
612.14 -246.27 2713.9
631.99 -243.07 2678.7
-602.48 -271.12 2904.8
-585.06 -266.61 2856.5
-573.21 -264.56 2834.5
-564.78 -264.05 2829.1
-565.42 -267.83 2869.6
-544.18 -261.21 2798.6
-530.17 -261.46 2801.3
-519.05 -266.94 2860.1
-501.87 -261.84 2805.5
-492.18 -264.45 2833.4
-464.16 -257.07 2754.4
-465.52 -261.86 2805.6
-459.08 -262.33 2810.7
-458.93 -266.48 2855.1
-446.89 -263.74 2825.8
-426.57 -255.94 2742.2
-420.83 -256.78 2751.2
-416.19 -267.55 2866.6
-396.68 -259.64 2781.9
-392.50 -261.67 2803.6
-366.61 -263.96 2828.1
-373.83 -274.65 2942.7
-356.72 -267.54 2866.5
-74.06 -266.62 2856.6
-65.17 -260.69 2793.1
-56.98 -256.43 2747.5
-14.10 -253.79 2719.1
7.26 -261.22 2798.8
334.35 -256.09 2743.9
352.49 -258.98 2774.7
363.03 -261.38 2800.5
352.15 -248.58 2663.3
358.94 -248.49 2662.4
376.56 -255.78 2740.5
410.22 -259.09 2775.9
406.15 -252.10 2701.0
403.97 -246.49 2640.9
419.99 -251.99 2699.9
423.09 -249.69 2675.3
452.12 -246.61 2642.3
465.42 -250.08 2679.4
468.36 -247.95 2656.7
478.02 -249.40 2672.1
482.24 -248.01 2657.2
485.66 -246.25 2638.4
497.57 -248.79 2665.6
518.14 -255.52 2737.7
534.23 -253.06 2711.3
542.94 -253.84 2719.7
555.44 -256.36 2746.7
553.49 -252.22 2702.4
555.56 -250.00 2678.6
580.42 -248.75 2665.2
586.38 -248.35 2660.9
603.35 -252.57 2706.1
626.67 -256.37 2746.8
624.48 -252.60 2706.4
628.88 -251.55 2695.2
635.05 -251.23 2691.7
-622.76 -281.00 2929.4
-595.51 -278.91 2907.6
-591.62 -280.64 2925.6
-588.42 -282.75 2947.6
-576.64 -280.73 2926.5
-544.24 -268.49 2799.0
-536.90 -272.13 2836.8
-545.69 -280.42 2923.3
-527.18 -274.73 2864.0
-504.52 -266.68 2780.0
-504.55 -270.56 2820.5
-511.12 -278.11 2899.2
-485.76 -268.25 2796.5
-470.14 -271.80 2833.4
-444.14 -269.39 2808.4
-433.36 -267.24 2785.9
-437.14 -274.14 2857.8
-428.26 -273.20 2848.1
-410.12 -266.22 2775.3
-407.08 -268.96 2803.9
-407.54 -274.17 2858.1
-402.90 -276.06 2877.9
-390.29 -272.47 2840.4
-370.88 -274.45 2861.0
-371.48 -280.50 2924.2
-363.65 -280.31 2922.1
-354.25 -278.88 2907.2
-352.72 -283.71 2957.6
-344.58 -283.32 2953.5
-335.78 -282.36 2943.5
-57.88 -267.69 2790.6
-51.26 -270.95 2824.6
-44.23 -272.78 2843.6
361.79 -267.72 2790.9
363.55 -263.75 2749.6
367.50 -261.49 2725.9
383.52 -267.74 2791.1
392.27 -268.78 2801.9
393.21 -264.52 2757.6
402.50 -265.94 2772.3
413.76 -268.58 2799.9
417.60 -266.40 2777.2
421.93 -264.60 2758.4
410.40 -253.08 2638.3
443.41 -256.35 2672.4
454.95 -258.97 2699.7
470.82 -263.95 2751.6
472.30 -260.82 2719.0
471.19 -256.38 2672.7
477.20 -255.89 2667.6
488.88 -258.41 2693.8
500.87 -261.01 2721.0
495.99 -254.89 2657.1
498.39 -252.61 2633.4
535.64 -260.77 2718.5
541.06 -259.99 2710.3
575.97 -259.89 2709.3
585.00 -260.78 2718.6
603.98 -256.86 2677.7
622.98 -261.94 2730.6
635.53 -264.21 2754.3
643.67 -264.62 2758.6
656.85 -267.07 2784.1
660.45 -265.62 2769.0
654.64 -260.45 2715.1
-626.76 -290.45 2948.2
-610.64 -286.47 2907.8
-594.05 -289.41 2937.6
-583.80 -288.11 2924.4
-564.95 -282.48 2867.3
-554.75 -281.07 2853.0
-558.12 -286.60 2909.1
-548.80 -285.68 2899.7
-537.88 -283.88 2881.5
-524.17 -280.54 2847.6
-506.18 -274.78 2789.2
-488.54 -277.08 2812.5
-485.82 -279.71 2839.2
-478.16 -279.54 2837.4
-449.55 -275.53 2796.7
-437.97 -272.83 2769.3
-436.77 -276.62 2807.8
-436.43 -281.09 2853.2
-423.27 -277.32 2814.9
-395.92 -273.55 2776.6
-389.00 -273.74 2778.6
-388.16 -278.31 2824.9
-384.43 -280.93 2851.5
-378.60 -282.09 2863.3
-378.33 -287.53 2918.6
-366.51 -290.15 2945.1
-357.54 -289.07 2934.2
-94.94 -277.50 2816.8
-81.02 -279.90 2841.1
-44.15 -279.59 2837.9
-35.41 -269.11 2731.5
-28.31 -268.92 2729.6
-21.54 -272.85 2769.5
-14.07 -267.36 2713.8
340.33 -269.43 2734.8
351.32 -272.45 2765.5
361.51 -269.36 2734.1
361.16 -263.92 2678.9
375.16 -268.98 2730.3
382.10 -268.89 2729.3
393.53 -271.90 2759.9
412.75 -261.41 2653.4
452.12 -272.71 2768.1
480.02 -272.25 2763.4
473.49 -264.60 2685.8
481.65 -265.25 2692.4
495.52 -268.99 2730.4
509.93 -272.92 2770.3
507.38 -267.78 2718.1
514.61 -264.26 2682.3
606.97 -268.20 2722.3
605.81 -264.61 2685.8
636.72 -271.86 2759.5
632.43 -267.03 2710.4
648.23 -270.69 2747.6
654.29 -270.25 2743.1
657.51 -268.66 2727.0
-592.63 -292.56 2893.5
-581.87 -290.93 2877.4
-578.20 -292.85 2896.4
-560.78 -287.77 2846.0
-552.15 -287.12 2839.6
-554.79 -292.39 2891.8
-544.41 -290.85 2876.5
-526.79 -285.35 2822.1
-503.21 -280.36 2772.8
-503.95 -284.84 2817.1
-493.42 -282.99 2798.8
-493.35 -287.18 2840.2
-490.06 -289.58 2864.0
-483.17 -289.90 2867.2
-470.40 -286.65 2835.0
-441.86 -277.94 2748.9
-450.29 -287.89 2847.3
-438.34 -284.92 2817.9
-427.44 -282.55 2794.4
-408.75 -289.84 2866.5
-400.35 -289.14 2859.7
-398.90 -293.53 2903.1
-391.38 -293.53 2903.1
-382.02 -292.14 2889.2
-377.60 -294.53 2912.9
-371.92 -296.02 2927.7
-362.60 -294.62 2913.8
-354.92 -294.51 2912.7
-350.89 -297.49 2942.3
-95.68 -287.05 2838.9
-88.48 -287.57 2844.1
-28.66 -279.45 2763.8
-21.04 -273.52 2705.1
21.55 -280.16 2770.8
360.53 -270.40 2674.3
370.69 -267.72 2647.8
392.03 -277.99 2749.3
418.72 -276.78 2737.4
423.20 -275.08 2720.6
429.15 -274.38 2713.6
432.85 -272.28 2692.9
445.75 -275.94 2729.1
448.08 -273.05 2700.5
449.11 -269.46 2665.0
484.09 -277.64 2745.9
508.51 -271.67 2686.8
516.82 -268.74 2657.9
554.06 -277.03 2739.8
551.93 -269.06 2661.1
593.72 -278.97 2759.1
592.71 -275.19 2721.6
597.08 -270.77 2677.9
-650.19 -302.41 2916.1
-640.84 -301.57 2908.0
-640.62 -305.06 2941.6
-624.38 -304.57 2937.0
-584.09 -299.53 2888.3
-585.26 -304.03 2931.7
-572.75 -301.45 2906.8
-551.82 -294.30 2837.9
-541.34 -292.62 2821.7
-544.83 -298.53 2878.7
-539.62 -299.79 2890.8
-509.08 -295.12 2845.8
-510.39 -300.23 2895.1
-494.25 -295.07 2845.4
-475.34 -288.08 2777.9
-476.76 -293.39 2829.1
-473.21 -295.75 2851.9
-453.02 -287.63 2773.6
-455.16 -293.65 2831.7
-428.69 -290.63 2802.5
-427.94 -295.13 2845.9
-387.02 -297.71 2870.8
-380.88 -298.73 2880.6
-379.80 -303.84 2929.9
-370.57 -302.51 2917.0
-357.60 -298.00 2873.5
-354.59 -301.78 2910.0
-342.58 -304.52 2936.4
-58.97 -294.84 2843.1
-49.92 -285.27 2750.8
-28.82 -288.19 2778.9
-7.13 -285.31 2751.2
373.60 -287.38 2771.2
379.98 -281.46 2714.1
387.72 -281.98 2719.1
393.48 -281.06 2710.2
402.25 -282.28 2722.0
401.61 -276.97 2670.8
405.67 -275.03 2652.1
417.28 -278.19 2682.5
426.87 -279.91 2699.2
434.48 -280.31 2703.0
441.15 -280.09 2700.9
436.57 -272.86 2631.1
474.50 -283.28 2731.7
510.58 -287.65 2773.8
498.00 -276.67 2667.9
501.17 -274.61 2648.0
504.79 -272.86 2631.2
536.78 -282.52 2724.3
556.15 -281.59 2715.4
569.97 -284.99 2748.1
590.85 -284.74 2745.8
588.97 -280.46 2704.4
599.74 -278.95 2689.9
664.67 -295.41 2848.6
-671.23 -316.33 2975.9
-655.00 -312.27 2937.7
-638.96 -308.20 2899.5
-627.34 -306.20 2880.6
-616.64 -304.60 2865.6
-613.67 -306.83 2886.6
-592.32 -307.41 2892.0
-591.23 -310.78 2923.7
-574.40 -305.85 2877.3
-576.45 -310.98 2925.6
-569.14 -311.13 2927.0
-550.95 -305.26 2871.7
-546.90 -307.16 2889.7
-535.29 -309.11 2908.0
-517.51 -303.12 2851.6
-492.08 -301.12 2832.9
-480.24 -298.33 2806.6
-455.04 -300.92 2830.9
-442.13 -297.17 2795.7
-439.80 -300.53 2827.3
-427.97 -297.40 2797.9
-413.34 -292.19 2748.8
-412.90 -297.00 2794.1
-399.23 -308.84 2905.5
-381.87 -301.09 2832.6
-377.26 -303.29 2853.2
-376.89 -309.05 2907.4
-368.72 -308.52 2902.5
-361.92 -309.14 2908.3
-87.14 -297.72 2800.9
-20.95 -286.33 2693.7
0.00 -293.53 2761.4
6.98 -286.34 2693.8
42.89 -293.07 2757.1
379.21 -299.00 2812.8
382.58 -295.96 2784.3
390.08 -296.17 2786.3
389.58 -290.41 2732.1
392.52 -287.38 2703.6
399.09 -287.07 2700.6
398.10 -281.42 2647.5
430.42 -284.63 2677.7
444.88 -289.53 2723.8
447.36 -286.59 2696.2
444.08 -280.11 2635.2
452.40 -281.04 2643.9
479.31 -293.31 2759.4
490.74 -295.89 2783.6
484.08 -287.64 2706.0
487.32 -285.43 2685.3
487.04 -281.25 2645.9
508.62 -285.66 2687.4
526.40 -291.65 2743.8
562.76 -288.41 2713.3
566.02 -286.51 2695.3
582.02 -291.01 2737.7
600.02 -286.06 2691.1
623.03 -290.28 2730.8
634.23 -292.18 2748.7
634.27 -285.77 2688.4
-684.58 -326.73 3000.6
-670.83 -323.85 2974.1
-659.81 -322.23 2959.3
-639.22 -315.85 2900.7
-620.24 -313.86 2882.4
-622.60 -318.89 2928.6
-613.90 -318.32 2923.3
-606.43 -318.37 2923.8
-596.59 -321.24 2950.2
-565.10 -308.24 2830.7
-561.96 -314.70 2890.1
-558.67 -317.08 2912.0
-540.29 -310.85 2854.7
-533.50 -311.21 2858.0
-536.23 -317.21 2913.1
-503.21 -310.81 2854.4
-493.48 -309.34 2840.9
-480.31 -310.35 2850.2
-456.68 -299.70 2752.3
-452.78 -301.85 2772.1
-444.98 -301.44 2768.3
-413.08 -299.12 2747.1
-409.59 -301.81 2771.7
-412.84 -309.63 2843.6
-407.86 -311.46 2860.3
-393.70 -306.21 2812.1
-387.89 -307.39 2822.9
-381.24 -307.92 2827.9
-375.33 -309.10 2838.7
-372.82 -313.17 2876.1
-374.63 -321.11 2949.0
-13.88 -291.51 2677.1
0.00 -300.61 2760.7
7.15 -300.28 2757.7
21.07 -294.97 2708.9
364.23 -294.19 2701.7
374.12 -290.98 2672.3
388.49 -296.67 2724.5
406.70 -305.02 2801.2
410.18 -302.23 2775.6
405.98 -293.99 2699.9
406.36 -289.27 2656.6
410.64 -287.45 2639.8
421.98 -290.54 2668.3
442.30 -299.62 2751.6
450.05 -300.03 2755.4
446.43 -292.97 2690.5
459.99 -297.22 2729.6
466.44 -288.10 2645.8
475.55 -289.46 2658.3
494.65 -296.79 2725.6
500.41 -296.02 2718.5
509.78 -297.37 2731.0
514.58 -296.06 2718.9
517.45 -293.69 2697.2
523.06 -292.91 2690.0
545.64 -286.46 2630.8
551.57 -286.00 2626.5
569.46 -291.68 2678.6
590.33 -298.72 2743.3
597.05 -291.58 2677.8
-686.83 -335.61 3010.5
-636.48 -321.98 2888.2
-627.64 -321.29 2882.0
-630.32 -326.55 2929.2
-620.37 -325.31 2918.1
-600.25 -318.65 2858.3
-592.33 -318.38 2855.9
-596.99 -324.95 2914.8
-595.25 -328.15 2943.5
-576.82 -322.12 2889.4
-558.27 -315.86 2833.3
-558.78 -320.36 2873.7
-561.33 -326.18 2925.8
-547.72 -322.63 2894.0
-504.63 -309.99 2780.6
-492.74 -307.07 2754.5
-484.26 -306.23 2746.9
-493.34 -316.62 2840.1
-489.88 -319.16 2862.9
-467.13 -309.02 2772.0
-445.80 -309.19 2773.4
-436.77 -307.89 2761.8
-426.42 -305.60 2741.3
-425.33 -309.99 2780.6
-421.98 -312.85 2806.3
-417.47 -314.94 2825.0
-405.59 -311.43 2793.6
-367.25 -328.99 2951.1
-347.33 -317.77 2850.4
-73.33 -315.33 2828.5
-28.61 -307.55 2758.8
-21.52 -308.44 2766.8
-14.12 -303.69 2724.1
-7.09 -304.91 2735.0
0.00 -304.35 2730.1
7.16 -307.79 2760.9
388.39 -303.65 2723.7
398.87 -306.28 2747.4
394.22 -297.40 2667.7
404.09 -299.59 2687.3
419.62 -305.83 2743.3
417.25 -299.03 2682.3
422.02 -297.49 2668.5
433.66 -300.76 2697.9
432.14 -294.95 2645.8
449.56 -302.05 2709.4
465.27 -298.61 2678.5
478.39 -298.13 2674.2
496.47 -304.97 2735.6
500.27 -302.98 2717.8
506.72 -302.63 2714.6
508.71 -299.65 2687.9
513.94 -298.64 2678.8
521.59 -299.04 2682.4
517.52 -292.81 2626.5
545.90 -293.42 2632.0
559.59 -297.07 2664.7
571.17 -299.51 2686.7
585.36 -303.26 2720.3
594.42 -304.29 2729.5
586.84 -296.87 2663.0
595.59 -297.80 2671.3
612.03 -302.50 2713.4
619.16 -302.55 2713.9
660.09 -315.37 2828.9
690.70 -319.36 2864.7
-648.19 -339.53 2976.4
-637.05 -337.71 2960.5
-611.93 -328.35 2878.4
-600.08 -325.97 2857.5
-601.45 -330.80 2899.9
-593.64 -330.63 2898.4
-580.31 -327.35 2869.7
-575.10 -328.63 2880.8
-568.87 -329.35 2887.1
-564.31 -331.06 2902.2
-560.42 -333.22 2921.1
-540.17 -325.58 2854.1
-503.25 -316.33 2773.0
-505.03 -322.05 2823.2
-499.67 -328.14 2876.5
-477.67 -318.45 2791.6
-465.68 -315.23 2763.4
-453.99 -312.12 2736.1
-448.52 -313.25 2746.0
-448.99 -318.64 2793.3
-438.51 -316.30 2772.8
-426.91 -313.07 2744.4
-426.27 -317.89 2786.7
-422.89 -320.82 2812.3
-416.92 -321.83 2821.3
-404.33 -317.69 2784.9
-393.05 -314.44 2756.4
-390.31 -318.03 2787.9
-388.08 -322.18 2824.3
-377.44 -319.37 2799.7
-365.21 -321.38 2817.3
-358.80 -328.90 2883.2
-349.47 -334.28 2930.4
-35.40 -311.54 2731.1
-21.36 -313.26 2746.1
-7.03 -309.41 2712.4
7.17 -315.65 2767.0
366.42 -310.05 2717.9
379.15 -308.93 2708.2
397.95 -318.36 2790.9
406.90 -319.71 2802.6
407.33 -314.43 2756.4
423.70 -310.71 2723.8
448.78 -308.54 2704.7
467.00 -316.12 2771.2
454.37 -302.92 2655.4
479.82 -310.47 2721.6
489.28 -312.01 2735.1
495.80 -311.64 2731.9
494.56 -306.49 2686.7
496.19 -303.22 2658.1
511.71 -308.43 2703.8
535.82 -310.21 2719.4
531.71 -303.84 2663.5
531.07 -299.58 2626.1
546.58 -304.42 2668.6
566.74 -311.71 2732.5
568.22 -308.66 2705.8
567.70 -304.62 2670.4
575.79 -305.24 2675.8
578.19 -302.86 2654.9
582.19 -301.37 2641.9
604.51 -309.28 2711.3
673.57 -322.14 2824.0
686.08 -324.60 2845.5
-676.06 -345.71 2963.3
-664.38 -343.64 2945.5
-634.78 -344.16 2949.9
-612.17 -335.95 2879.5
-601.55 -334.19 2864.5
-585.34 -329.26 2822.2
-563.66 -329.41 2823.5
-558.34 -330.59 2833.7
-554.29 -332.57 2850.6
-557.83 -339.22 2907.6
-545.19 -336.08 2880.7
-515.37 -322.11 2760.9
-508.62 -322.37 2763.1
-516.23 -331.86 2844.6
-517.48 -337.49 2892.8
-480.82 -322.94 2768.1
-470.50 -320.79 2749.7
-470.17 -325.50 2790.0
-439.56 -319.03 2734.6
-439.78 -324.43 2780.8
-409.07 -328.71 2817.5
-392.16 -332.97 2854.0
-366.63 -329.97 2828.3
-349.62 -327.77 2809.4
-349.53 -334.65 2868.5
-336.35 -336.35 2883.0
-35.57 -320.15 2744.2
-28.55 -321.20 2753.2
0.00 -316.82 2715.6
7.12 -320.29 2745.4
21.39 -320.86 2750.3
374.94 -324.47 2781.1
382.97 -325.16 2787.1
389.64 -324.70 2783.2
416.36 -328.71 2817.5
421.44 -326.98 2802.7
412.43 -309.32 2651.3
439.26 -313.76 2689.4
436.29 -306.77 2629.5
478.95 -321.68 2757.3
502.61 -327.79 2809.6
516.36 -327.27 2805.2
513.91 -321.19 2753.1
528.07 -321.12 2752.5
517.31 -310.39 2660.5
520.69 -308.30 2642.6
523.39 -305.88 2621.8
535.25 -308.80 2646.8
564.17 -321.36 2754.5
561.93 -312.18 2675.9
573.33 -314.63 2696.8
594.94 -318.72 2731.9
597.42 -316.28 2711.0
595.26 -311.47 2669.8
601.63 -311.19 2667.3
-695.42 -355.44 2980.4
-681.60 -352.29 2954.0
-674.32 -352.49 2955.6
-653.91 -345.75 2899.1
-636.41 -348.51 2922.3
-622.68 -345.10 2893.7
-602.39 -342.10 2868.5
-565.44 -337.79 2832.4
-564.89 -341.91 2866.9
-554.70 -340.21 2852.7
-552.24 -343.28 2878.5
-538.55 -344.07 2885.1
-505.60 -327.57 2746.7
-500.54 -333.69 2798.1
-501.09 -338.97 2842.3
-480.00 -329.55 2763.3
-475.22 -331.21 2777.2
-472.34 -334.27 2802.9
-436.75 -324.04 2717.1
-445.08 -335.63 2814.3
-428.34 -328.39 2753.6
-412.90 -327.47 2745.9
-410.29 -331.11 2776.4
-382.85 -332.29 2786.3
-376.16 -332.75 2790.2
-379.33 -342.14 2868.9
-366.14 -336.85 2824.5
-352.70 -338.01 2834.2
374.56 -331.34 2778.4
383.93 -333.23 2794.1
393.24 -334.99 2808.9
412.47 -332.87 2791.1
417.03 -330.75 2773.4
418.57 -320.90 2690.8
423.83 -314.45 2636.7
449.38 -328.12 2751.3
445.43 -320.15 2684.5
461.98 -321.99 2699.9
492.99 -333.49 2796.4
490.75 -327.17 2743.3
494.27 -324.81 2723.5
516.68 -321.18 2693.1
517.92 -317.66 2663.6
533.79 -323.08 2709.1
536.08 -320.25 2685.4
547.10 -322.65 2705.4
559.62 -325.85 2732.3
552.09 -317.45 2661.9
551.16 -313.00 2624.5
571.92 -320.83 2690.2
585.91 -324.72 2722.8
578.92 -317.02 2658.3
591.91 -320.33 2686.0
601.57 -321.77 2698.1
678.72 -339.36 2845.6
-679.42 -362.87 2978.0
-623.17 -357.18 2931.3
-610.38 -354.17 2906.6
-592.26 -347.95 2855.5
-586.75 -349.08 2864.8
-568.59 -342.61 2811.7
-559.44 -341.47 2802.4
-566.07 -350.07 2872.9
-562.49 -352.49 2892.8
-553.01 -351.24 2882.5
-548.19 -352.95 2896.5
-531.64 -347.05 2848.1
-493.57 -336.20 2759.1
-483.11 -344.03 2823.4
-466.26 -337.14 2766.8
-451.80 -331.79 2722.9
-444.76 -331.81 2723.0
-440.09 -333.61 2737.9
-433.78 -334.22 2742.9
-438.13 -343.20 2816.5
-400.97 -342.64 2812.0
-397.12 -345.64 2836.6
-390.30 -346.12 2840.5
-379.62 -343.12 2815.9
-378.56 -348.87 2863.1
-375.60 -353.07 2897.5
-346.80 -346.80 2846.1
397.74 -339.89 2789.4
412.25 -345.99 2839.4
431.11 -337.70 2771.4
424.63 -327.17 2685.0
448.55 -329.40 2703.3
479.86 -336.62 2762.5
474.74 -328.13 2692.9
488.55 -323.41 2654.1
503.06 -319.51 2622.1
520.39 -321.82 2641.1
537.47 -328.07 2692.3
537.89 -324.11 2659.9
539.73 -321.10 2635.2
548.90 -322.48 2646.5
564.67 -327.65 2688.9
564.32 -323.45 2654.5
595.78 -325.60 2672.1
611.33 -330.26 2710.4
616.03 -329.02 2700.1
702.50 -347.55 2852.3
-698.84 -372.72 2995.0
-678.12 -369.88 2972.3
-651.37 -367.83 2955.8
-605.61 -350.23 2814.4
-587.75 -348.30 2798.8
-582.20 -349.32 2807.1
-596.73 -362.57 2913.5
-568.79 -354.57 2849.2
-559.95 -353.65 2841.9
-551.90 -353.22 2838.3
-537.69 -348.77 2802.7
-531.97 -349.79 2810.8
-514.91 -343.27 2758.4
-501.88 -339.30 2726.5
-505.14 -346.38 2783.4
-499.37 -347.39 2791.5
-497.34 -351.07 2821.1
-476.01 -351.52 2824.7
-454.42 -340.82 2738.7
-447.19 -340.71 2737.9
-442.31 -342.44 2751.7
-431.94 -339.89 2731.2
-432.50 -346.00 2780.4
-406.41 -348.36 2799.3
-386.94 -350.44 2816.0
-373.95 -359.00 2884.8
-367.47 -359.97 2892.6
-358.00 -358.00 2876.8
-345.73 -353.08 2837.3
394.24 -350.44 2816.0
398.87 -335.89 2699.1
417.81 -345.78 2778.6
417.80 -339.91 2731.4
447.76 -335.82 2698.6
467.23 -339.80 2730.6
483.62 -346.47 2784.1
475.07 -330.48 2655.7
493.07 -333.35 2678.7
509.08 -330.21 2653.5
530.51 -330.71 2657.5
532.02 -327.40 2630.9
550.83 -326.42 2623.0
556.72 -325.88 2618.7
574.49 -332.24 2669.8
593.78 -339.30 2726.5
580.23 -327.66 2633.0
598.84 -334.24 2685.8
670.49 -349.82 2811.0
670.63 -346.13 2781.4
684.97 -349.77 2810.7
-685.01 -377.14 2968.7
-678.57 -377.84 2974.3
-663.59 -373.75 2942.0
-602.77 -360.19 2835.3
-567.47 -351.98 2770.7
-551.14 -355.34 2797.2
-512.93 -349.08 2747.8
-518.25 -357.67 2815.4
-511.36 -357.95 2817.7
-496.42 -352.53 2775.0
-493.40 -355.54 2798.7
-481.14 -362.71 2855.1
-465.00 -356.02 2802.5
-463.68 -360.64 2838.9
-427.72 -361.35 2844.4
-413.97 -355.87 2801.3
-405.00 -354.38 2789.6
-392.73 -349.89 2754.2
-368.31 -353.87 2785.6
-362.74 -355.49 2798.3
-359.10 -359.10 2826.7
387.87 -365.49 2877.1
395.19 -365.37 2876.1
387.65 -351.76 2769.0
404.26 -341.53 2688.4
460.39 -341.80 2690.6
465.64 -340.54 2680.6
489.25 -347.44 2734.9
491.87 -344.31 2710.3
521.98 -336.54 2649.2
539.47 -343.30 2702.4
546.01 -343.01 2700.1
544.58 -337.77 2658.9
544.94 -333.78 2627.4
565.95 -342.37 2695.0
568.10 -339.48 2672.3
582.87 -344.11 2708.7
626.26 -348.71 2745.0
618.74 -340.65 2681.5
663.68 -349.68 2752.6
690.87 -360.14 2834.9
-620.86 -369.56 2850.9
-615.52 -379.95 2931.1
-595.74 -372.34 2872.3
-563.00 -365.58 2820.2
-542.53 -356.93 2753.5
-508.57 -358.15 2762.8
-501.63 -358.31 2764.1
-492.94 -357.20 2755.6
-495.65 -364.45 2811.5
-490.27 -365.88 2822.5
-476.80 -361.22 2786.5
-470.27 -361.75 2790.6
-468.91 -366.34 2826.0
-455.54 -361.54 2789.0
-442.66 -356.99 2753.9
-443.44 -363.48 2804.0
-442.29 -368.58 2843.3
-428.94 -363.51 2804.2
-410.76 -354.11 2731.7
-406.73 -356.78 2752.3
-406.16 -362.64 2797.5
-392.19 -356.53 2750.4
-357.36 -364.65 2813.0
380.19 -365.57 2820.1
391.02 -368.88 2845.7
387.12 -358.44 2765.1
421.40 -351.17 2709.0
421.29 -345.32 2663.9
456.09 -356.32 2748.7
474.29 -359.31 2771.9
466.85 -348.39 2687.6
480.67 -353.43 2726.5
479.84 -347.71 2682.3
484.27 -345.91 2668.4
508.40 -353.05 2723.6
532.90 -346.04 2669.4
553.31 -354.69 2736.2
563.11 -356.40 2749.4
579.69 -353.47 2726.7
563.70 -339.58 2619.6
587.56 -345.62 2666.2
627.39 -356.47 2749.9
613.86 -344.87 2660.4
676.56 -359.87 2776.2
-655.75 -384.41 2907.3
-648.57 -384.62 2908.9
-608.38 -373.82 2827.2
-564.93 -369.38 2793.6
-561.07 -371.62 2810.6
-551.94 -370.38 2801.2
-536.99 -365.16 2761.7
-535.13 -368.81 2789.3
-522.61 -365.11 2761.4
-511.69 -362.45 2741.2
-514.15 -369.32 2793.2
-512.45 -373.35 2823.7
-508.32 -375.72 2841.5
-495.66 -371.75 2811.5
-474.16 -360.93 2729.7
-469.96 -363.15 2746.5
-472.10 -370.41 2801.5
-464.54 -370.18 2799.7
-445.48 -360.63 2727.4
-427.81 -357.68 2705.1
-429.50 -365.07 2761.0
-420.25 -363.27 2747.4
-399.61 -363.93 2752.4
-402.70 -373.41 2824.1
-386.85 -365.36 2763.2
-384.00 -369.51 2794.6
-382.98 -375.62 2840.8
-370.28 -370.28 2800.5
-366.99 -381.97 2888.8
-343.48 -372.71 2818.8
384.70 -377.31 2853.6
387.78 -373.15 2822.1
390.43 -368.74 2788.8
395.84 -367.05 2776.0
404.03 -367.95 2782.9
413.99 -370.41 2801.5
419.92 -369.24 2792.6
429.55 -371.30 2808.2
428.43 -358.20 2709.0
448.47 -357.38 2702.8
464.52 -364.47 2756.5
469.46 -362.76 2743.6
475.69 -362.09 2738.5
484.47 -352.97 2669.5
495.30 -355.78 2690.8
508.41 -360.13 2723.6
503.07 -351.46 2658.1
515.88 -355.54 2689.0
527.72 -358.85 2714.0
522.99 -350.96 2654.3
535.64 -354.77 2683.2
553.92 -362.18 2739.2
562.54 -363.16 2746.6
571.59 -364.39 2755.9
579.86 -365.10 2761.2
583.42 -362.86 2744.3
577.71 -354.98 2684.7
576.34 -349.92 2646.5
606.15 -363.69 2750.6
615.98 -365.29 2762.7
601.63 -352.68 2667.3
611.30 -354.28 2679.4
625.04 -358.17 2708.8
646.58 -366.40 2771.1
665.72 -369.04 2791.1
663.27 -363.73 2750.9
670.48 -363.77 2751.2
695.24 -373.23 2822.8
698.55 -371.10 2806.7
706.37 -371.39 2808.8
-679.69 -401.64 2979.2
-671.68 -401.47 2977.9
-642.10 -388.25 2879.9
-611.60 -378.61 2808.3
-607.14 -380.37 2821.5
-614.36 -389.59 2889.8
-546.47 -378.88 2810.4
-536.64 -377.09 2797.1
-531.47 -378.58 2808.2
-527.53 -380.99 2826.0
-488.96 -373.91 2773.5
-462.55 -370.04 2744.8
-454.81 -369.54 2741.1
-452.36 -373.38 2769.6
-452.44 -379.47 2814.7
-433.55 -369.59 2741.4
-427.76 -377.00 2796.5
-419.48 -376.09 2789.7
-405.46 -376.50 2792.7
388.37 -373.99 2774.1
405.22 -383.12 2841.8
420.37 -376.88 2795.6
418.91 -369.21 2738.7
415.64 -360.22 2672.0
458.22 -372.30 2761.6
457.44 -365.96 2714.5
452.12 -350.90 2602.8
471.06 -360.22 2672.0
491.39 -370.33 2746.9
495.99 -368.45 2733.0
498.55 -365.13 2708.4
502.97 -363.26 2694.5
501.89 -352.68 2616.0
533.22 -369.70 2742.3
541.67 -365.80 2713.4
540.77 -360.52 2674.2
597.75 -374.49 2777.8
595.56 -368.68 2734.7
605.74 -370.57 2748.8
595.50 -360.07 2670.8
615.25 -359.47 2666.4
648.40 -374.63 2778.9
667.58 -377.33 2798.9
-671.46 -409.05 2976.9
-639.02 -403.19 2934.3
-615.69 -393.15 2861.2
-605.09 -391.09 2846.2
-592.72 -387.83 2822.5
-580.07 -384.29 2796.7
-574.10 -385.15 2803.0
-575.56 -391.08 2846.2
-540.99 -382.30 2782.2
-535.15 -383.28 2789.4
-535.54 -388.81 2829.6
-530.63 -390.60 2842.6
-514.58 -389.61 2835.5
-488.61 -375.31 2731.4
-482.95 -376.41 2739.4
-476.22 -376.71 2741.6
-452.06 -374.37 2724.5
-440.37 -382.62 2784.5
-423.42 -380.36 2768.1
-412.30 -390.21 2839.8
-352.95 -398.01 2896.6
384.39 -377.28 2745.7
397.39 -382.94 2786.9
413.44 -391.29 2847.7
410.67 -381.85 2779.0
410.50 -375.11 2729.9
413.08 -371.07 2700.5
421.44 -372.27 2709.3
452.02 -368.57 2682.3
445.41 -357.68 2603.1
459.43 -363.43 2644.9
471.76 -367.70 2676.0
483.90 -371.69 2705.0
495.30 -375.01 2729.2
505.38 -377.25 2745.5
514.53 -373.56 2718.6
501.54 -359.21 2614.2
508.83 -359.57 2616.8
535.49 -373.43 2717.7
540.72 -372.18 2708.6
537.25 -365.06 2656.7
560.77 -376.22 2738.0
571.74 -374.10 2722.6
573.14 -370.45 2696.0
567.32 -362.26 2636.4
594.92 -362.42 2637.6
601.20 -362.09 2635.1
624.63 -371.97 2707.1
643.91 -379.19 2759.6
647.05 -376.86 2742.6
654.25 -376.91 2743.0
677.71 -386.22 2810.8
691.39 -381.71 2777.9
708.33 -387.03 2816.6
-620.49 -403.69 2883.5
-607.77 -400.24 2858.8
-593.33 -395.56 2825.4
-579.87 -391.41 2795.8
-571.52 -390.66 2790.4
-569.47 -394.25 2816.1
-564.00 -395.53 2825.2
-545.07 -387.29 2766.3
-529.84 -381.48 2724.9
-531.42 -387.79 2769.9
-525.04 -388.38 2774.2
-513.90 -385.43 2753.0
-503.41 -382.87 2734.8
-484.87 -390.79 2791.4
-481.01 -393.56 2811.1
-463.22 -384.83 2748.8
-466.83 -393.88 2813.5
-447.26 -389.55 2782.5
-438.36 -388.06 2771.8
-432.56 -389.31 2780.8
-431.66 -395.08 2822.0
-405.90 -384.53 2746.7
-387.74 -380.69 2719.2
-392.64 -392.64 2804.6
400.61 -393.32 2809.5
395.22 -381.11 2722.2
402.86 -381.65 2726.1
413.31 -384.80 2748.6
417.73 -382.33 2730.9
427.84 -385.06 2750.4
426.45 -377.51 2696.5
458.46 -375.10 2679.3
469.78 -378.63 2704.5
479.34 -380.65 2719.0
485.13 -379.67 2711.9
489.47 -377.59 2697.1
497.49 -378.37 2702.7
506.63 -379.97 2714.1
514.17 -380.34 2716.7
510.33 -372.40 2660.0
509.98 -367.19 2622.8
525.73 -373.54 2668.2
541.89 -380.03 2714.5
550.82 -381.34 2723.8
547.86 -374.49 2674.9
546.30 -364.20 2601.4
565.74 -372.56 2661.1
563.17 -366.40 2617.1
583.89 -366.63 2618.8
607.58 -377.12 2693.7
601.22 -368.93 2635.2
628.21 -381.16 2722.6
653.66 -387.89 2770.6
658.40 -386.45 2760.4
665.64 -386.50 2760.7
669.82 -384.79 2748.5
693.14 -393.99 2814.2
707.85 -394.06 2814.7
-663.38 -419.38 2941.1
-645.42 -417.62 2928.8
-627.42 -410.81 2881.0
-611.73 -405.36 2842.8
-616.00 -413.17 2897.6
-566.92 -399.75 2803.5
-543.35 -393.21 2757.6
-552.53 -405.19 2841.6
