ply
format ascii 1.0
element vertex 2082
property float x
property float y
property float z
end_header
1326.67 -117.64 2520.8
1336.46 -117.92 2526.9
1310.62 -115.08 2466.0
1290.65 -112.78 2416.6
1306.39 -113.60 2434.3
1326.46 -114.79 2459.8
1340.44 -115.44 2473.8
1309.08 -112.21 2404.4
1316.75 -111.80 2395.7
1333.59 -112.70 2414.9
1331.59 -112.00 2400.1
1384.51 -115.91 2483.8
1442.32 -119.64 2563.7
1431.14 -118.17 2532.2
1436.60 -118.08 2530.2
1435.12 -117.42 2516.1
1402.78 -114.25 2448.3
1422.01 -115.30 2470.7
1466.82 -118.40 2537.1
1466.23 -117.82 2524.8
1437.38 -114.99 2464.1
1449.93 -114.97 2463.7
1170.45 -134.78 2736.1
1162.62 -133.07 2701.4
1159.39 -131.91 2677.8
1143.29 -129.30 2624.9
1146.20 -128.86 2616.0
1176.86 -131.53 2670.2
1182.25 -131.36 2666.7
1175.41 -129.84 2635.9
1190.10 -130.70 2653.4
1201.98 -131.25 2664.5
1211.43 -131.53 2670.1
1227.12 -132.47 2689.3
1198.72 -128.68 2612.2
1192.21 -126.55 2569.0
1217.54 -128.52 2609.0
1218.00 -127.86 2595.6
1241.84 -129.64 2631.8
1227.29 -127.42 2586.8
1194.91 -123.39 2504.8
1221.36 -125.44 2546.5
1247.12 -127.39 2586.2
1254.29 -127.44 2587.2
1271.97 -128.55 2609.7
1262.05 -126.87 2575.6
1244.03 -124.40 2525.5
1237.77 -123.13 2499.6
1248.75 -123.57 2508.7
1253.51 -123.40 2505.2
1245.24 -121.96 2475.8
1247.65 -121.57 2467.9
1263.15 -122.45 2485.8
1299.17 -125.30 2543.7
1308.95 -125.61 2549.9
1297.69 -123.90 2515.3
1305.59 -124.03 2517.9
1300.11 -122.90 2494.9
1271.36 -119.58 2427.6
1313.91 -122.37 2484.3
1325.97 -122.89 2494.9
1307.94 -120.64 2449.0
1324.22 -121.55 2467.5
1335.82 -122.02 2477.1
1340.79 -121.89 2474.5
1343.83 -121.58 2468.3
1349.72 -121.54 2467.3
1360.89 -121.97 2476.0
1352.78 -120.67 2449.7
1342.61 -119.20 2419.9
1382.92 -122.21 2481.0
1431.26 -125.90 2555.8
1430.42 -125.24 2542.6
1426.58 -124.33 2524.1
1441.40 -125.05 2538.7
1439.44 -124.32 2523.7
1406.13 -120.89 2454.1
1407.92 -120.50 2446.2
1433.68 -122.15 2479.8
1427.96 -121.12 2458.9
1452.84 -121.60 2468.6
1519.10 -126.59 2569.9
1144.33 -137.87 2658.9
1151.72 -137.93 2660.1
1146.76 -136.52 2632.9
1169.97 -136.84 2639.0
1192.37 -138.65 2673.9
1181.79 -136.62 2634.9
1168.99 -134.37 2591.4
1191.90 -136.22 2627.0
1219.10 -138.53 2671.7
1208.17 -136.52 2632.8
1188.27 -133.51 2574.9
1184.94 -132.40 2553.3
1199.51 -131.81 2542.1
1244.28 -135.99 2622.6
1244.56 -134.55 2594.8
1217.91 -130.96 2525.6
1223.66 -130.87 2524.0
1240.77 -132.00 2545.6
1252.25 -132.51 2555.6
1254.49 -132.05 2546.7
1272.21 -133.22 2569.2
1299.42 -133.96 2583.5
1316.02 -134.98 2603.1
1314.75 -132.80 2561.2
1327.78 -133.45 2573.6
1343.84 -133.71 2578.8
1302.74 -128.98 2487.6
1299.89 -128.07 2469.9
1350.20 -132.37 2552.9
1349.27 -131.64 2538.7
1319.58 -128.11 2470.8
1351.48 -130.58 2518.3
1378.83 -132.58 2556.9
1375.39 -131.62 2538.3
1370.44 -130.52 2517.1
1345.27 -127.51 2459.2
1328.52 -125.33 2417.1
1362.78 -127.96 2467.8
1394.34 -130.31 2513.2
1395.91 -129.85 2504.3
1403.30 -129.94 2505.9
1379.83 -127.17 2452.6
1353.20 -124.15 2394.3
1381.57 -126.17 2433.3
1394.26 -126.75 2444.5
1400.03 -126.70 2443.5
1439.18 -129.66 2500.5
1473.04 -132.11 2547.9
1473.97 -131.60 2538.1
1448.19 -128.73 2482.6
1453.99 -128.67 2481.5
1503.37 -132.46 2554.5
1538.78 -134.98 2603.2
1537.66 -134.29 2589.9
1550.29 -134.81 2599.9
1159.97 -147.63 2711.6
1135.46 -141.93 2606.9
1134.72 -141.00 2589.8
1192.64 -145.61 2674.5
1193.91 -144.09 2646.6
1197.13 -143.66 2638.6
1212.83 -143.09 2628.1
1184.80 -139.00 2553.0
1225.74 -140.66 2583.5
1262.16 -144.05 2645.8
1247.87 -141.65 2601.7
1224.72 -138.27 2539.7
1234.41 -138.62 2546.2
1220.50 -136.33 2504.1
1239.35 -136.98 2516.0
1295.56 -142.44 2616.3
1291.24 -140.50 2580.6
1273.69 -137.87 2532.4
1284.34 -138.31 2540.4
1309.48 -140.30 2577.0
1302.98 -138.90 2551.2
1297.27 -137.59 2527.2
1332.68 -140.63 2583.1
1350.83 -141.84 2605.2
1320.15 -137.93 2533.3
1320.21 -137.25 2520.9
1356.04 -140.28 2576.6
1370.14 -141.04 2590.6
1333.19 -136.57 2508.4
1296.55 -131.53 2415.9
1329.38 -134.22 2465.2
1332.90 -133.93 2459.9
1345.46 -134.55 2471.3
1338.90 -133.25 2447.5
1312.50 -130.01 2388.0
1337.53 -131.87 2422.1
1400.49 -137.43 2524.3
1433.41 -139.36 2559.7
1399.28 -135.41 2487.2
1350.60 -130.10 2389.7
1357.26 -130.15 2390.5
1367.88 -130.57 2398.2
1371.08 -130.28 2393.0
1416.11 -133.96 2460.4
1459.39 -137.43 2524.3
1460.28 -136.90 2514.5
1434.95 -133.93 2459.9
1443.74 -134.15 2464.0
1495.11 -138.31 2540.5
1520.16 -139.40 2560.5
1538.88 -140.51 2580.7
1540.22 -140.02 2571.8
1559.54 -141.17 2592.8
1152.96 -155.61 2728.3
1146.45 -153.79 2696.4
1153.83 -152.00 2665.0
1196.70 -155.78 2731.3
1156.72 -149.69 2624.5
1185.17 -151.59 2657.8
1204.85 -152.34 2670.9
1198.64 -150.69 2641.9
1217.03 -149.58 2622.5
1236.31 -149.44 2620.1
1218.74 -146.52 2568.8
1221.81 -145.30 2547.4
1256.24 -148.59 2605.1
1256.92 -147.87 2592.6
1233.04 -144.29 2529.8
1222.44 -141.55 2481.6
1265.28 -145.74 2555.2
1268.81 -145.38 2549.0
1270.08 -144.78 2538.3
1273.55 -144.42 2532.1
1236.88 -139.54 2446.6
1267.85 -141.59 2482.4
1324.03 -147.11 2579.3
1312.65 -142.96 2506.5
1333.56 -144.52 2533.9
1330.76 -143.51 2516.1
1321.32 -141.80 2486.1
1299.53 -138.78 2433.2
1324.66 -139.44 2444.7
1368.71 -143.39 2514.0
1376.61 -143.53 2516.5
1359.98 -141.13 2474.4
1372.15 -141.72 2484.8
1432.03 -144.52 2533.7
1385.22 -139.15 2439.7
1425.51 -140.01 2454.6
1416.18 -138.47 2427.7
1446.62 -140.82 2468.9
1451.38 -140.66 2466.2
1435.29 -138.49 2428.1
1446.07 -138.92 2435.7
1479.38 -141.51 2480.9
1170.68 -163.19 2736.6
1155.35 -160.08 2684.6
1207.37 -164.32 2755.6
1196.44 -161.87 2714.6
1207.59 -162.42 2723.9
1190.31 -159.17 2669.3
1174.42 -156.14 2618.4
1167.34 -154.30 2587.7
1177.86 -154.80 2596.1
1187.58 -155.20 2602.7
1193.16 -155.04 2600.1
1207.93 -156.08 2617.5
1208.47 -155.28 2604.1
1205.58 -154.05 2583.4
1238.65 -157.40 2639.6
1227.15 -154.23 2586.5
1194.89 -148.55 2491.3
1269.53 -156.99 2632.7
1283.62 -155.39 2605.8
1293.04 -155.71 2611.2
1267.33 -151.82 2546.0
1239.10 -147.66 2476.4
1259.93 -149.37 2505.0
1240.78 -146.35 2454.3
1278.60 -149.28 2503.4
1308.56 -151.24 2536.3
1330.10 -151.45 2539.8
1324.10 -150.02 2515.9
1336.21 -150.65 2526.4
1339.91 -150.33 2521.1
1311.60 -146.44 2455.8
1289.64 -143.29 2403.1
1310.59 -144.92 2430.3
1361.61 -149.84 2512.9
1372.37 -150.31 2520.7
1344.34 -146.54 2457.5
1337.70 -145.13 2433.8
1358.47 -146.69 2460.0
1412.60 -150.42 2522.5
1365.18 -144.70 2426.6
1397.96 -147.49 2473.5
1407.25 -147.79 2478.5
1385.89 -144.89 2429.8
1416.58 -146.10 2450.2
1462.97 -150.22 2519.1
1429.60 -146.14 2450.7
1464.63 -149.06 2499.7
1477.56 -149.71 2510.6
1480.35 -149.33 2504.4
1516.77 -152.34 2554.8
1533.94 -153.39 2572.4
1556.30 -154.96 2598.7
1559.72 -153.31 2571.0
1190.44 -170.06 2733.2
1171.55 -166.37 2673.9
1183.00 -167.01 2684.1
1193.68 -167.53 2692.5
1175.92 -164.08 2637.0
1184.89 -164.38 2641.8
1202.08 -165.80 2664.7
1209.88 -165.93 2666.7
1216.02 -165.82 2665.0
1187.59 -161.03 2588.0
1200.33 -160.94 2586.5
1227.38 -163.65 2630.1
1204.98 -159.78 2567.8
1184.87 -156.25 2511.1
1222.29 -160.30 2576.2
1246.65 -162.61 2613.3
1215.03 -157.63 2533.3
1232.08 -158.98 2555.0
1267.17 -158.40 2545.6
1255.04 -154.47 2482.5
1288.66 -157.80 2536.0
1306.14 -159.12 2557.4
1322.78 -158.73 2551.1
1307.22 -156.09 2508.5
1303.99 -154.93 2489.9
1317.43 -155.75 2503.2
1347.71 -158.55 2548.2
1334.81 -154.76 2487.2
1326.54 -153.06 2459.9
1352.41 -155.30 2495.9
1337.35 -152.84 2456.4
1320.22 -150.17 2413.4
1323.11 -149.79 2407.3
1314.38 -148.10 2380.2
1344.30 -150.76 2423.0
1399.66 -156.24 2511.0
1367.05 -151.89 2441.2
1338.09 -147.99 2378.4
1389.93 -153.02 2459.3
1435.19 -157.28 2527.7
1451.02 -158.29 2544.0
1430.68 -155.37 2497.0
1423.60 -153.90 2473.4
1461.40 -157.28 2527.7
1441.23 -154.42 2481.7
1423.07 -151.12 2428.7
1475.36 -155.98 2506.9
1532.01 -161.26 2591.7
1571.00 -163.22 2623.2
1192.22 -176.36 2721.0
1182.43 -173.89 2682.8
1171.67 -171.30 2642.9
1179.83 -171.49 2645.8
1217.41 -175.93 2714.3
1232.70 -177.11 2732.6
1237.35 -176.76 2727.2
1236.16 -175.59 2709.1
1195.76 -168.89 2605.8
1189.62 -167.08 2577.8
1234.21 -172.38 2659.5
1246.63 -173.14 2671.4
1207.36 -166.76 2572.9
1195.36 -164.20 2533.3
1240.52 -169.47 2614.7
1259.38 -171.11 2640.0
1222.21 -165.16 2548.2
1218.55 -162.91 2513.4
1275.00 -169.55 2615.9
1296.29 -171.47 2645.5
1289.02 -169.61 2616.8
1279.42 -167.46 2583.7
1270.11 -165.38 2551.6
1255.31 -162.60 2508.8
1256.92 -161.97 2499.0
1292.26 -165.67 2556.1
1305.68 -166.54 2569.5
1303.70 -165.44 2552.6
1304.84 -164.75 2541.9
1278.93 -160.67 2478.9
1278.03 -159.75 2464.8
1299.21 -161.59 2493.2
1298.27 -160.68 2479.0
1312.61 -161.65 2494.0
1337.74 -163.94 2529.3
1361.55 -164.44 2537.0
1330.16 -159.88 2466.6
1335.11 -159.70 2464.0
1352.46 -161.01 2484.1
1368.93 -162.19 2502.4
1349.87 -159.18 2456.0
1320.01 -154.93 2390.4
1342.32 -154.65 2386.0
1376.99 -157.91 2436.3
1401.00 -159.93 2467.5
1378.62 -156.66 2417.1
1390.75 -155.91 2405.5
1422.50 -158.76 2449.5
1438.82 -159.87 2466.5
1437.02 -158.96 2452.6
1464.04 -161.24 2487.7
1495.75 -164.01 2530.4
1500.61 -163.82 2527.5
1493.18 -162.30 2504.1
1478.99 -160.06 2469.5
1158.72 -183.70 2725.2
1197.56 -183.16 2717.2
1197.39 -182.06 2700.9
1219.50 -184.34 2734.7
1202.53 -180.73 2681.1
1163.99 -173.93 2580.3
1202.95 -178.72 2651.4
1235.99 -182.59 2708.7
1219.32 -179.11 2657.1
1236.30 -180.58 2679.0
1251.10 -180.71 2680.9
1244.51 -178.77 2652.1
1261.64 -180.23 2673.8
1266.02 -179.87 2668.4
1243.73 -175.74 2607.2
1251.39 -175.87 2609.1
1266.43 -177.03 2626.2
1254.53 -174.43 2587.6
1274.39 -176.25 2614.6
1280.30 -176.13 2612.9
1257.53 -172.08 2552.9
1250.01 -170.16 2524.3
1244.58 -168.54 2500.3
1228.34 -165.48 2454.9
1305.15 -174.02 2581.6
1328.04 -175.27 2600.2
1296.01 -170.18 2524.7
1288.37 -168.33 2497.2
1306.34 -169.82 2519.4
1340.09 -173.34 2571.6
1351.81 -174.00 2581.3
1334.28 -170.89 2535.2
1327.76 -169.22 2510.5
1357.20 -172.13 2553.6
1353.81 -170.04 2522.6
1330.46 -166.31 2467.2
1352.53 -168.26 2496.1
1388.08 -171.86 2549.5
1395.57 -171.97 2551.2
1367.97 -167.77 2488.9
1370.02 -167.23 2480.9
1374.95 -167.05 2478.2
1347.29 -162.93 2417.1
1349.63 -162.46 2410.1
1370.54 -164.21 2436.1
1394.49 -166.32 2467.3
1375.68 -163.32 2422.9
1411.56 -164.58 2441.5
1437.36 -166.84 2475.0
1409.96 -162.93 2417.1
1436.51 -164.53 2440.9
1521.47 -173.50 2573.9
1553.93 -176.43 2617.4
1524.96 -171.64 2546.3
1480.94 -165.97 2462.1
1167.52 -192.21 2745.9
1169.62 -191.39 2734.2
1158.65 -188.45 2692.2
1195.08 -190.93 2727.6
1189.33 -188.89 2698.5
1203.68 -190.05 2715.1
1212.41 -190.32 2718.8
1184.38 -184.85 2640.7
1154.38 -179.13 2559.0
1195.35 -184.42 2634.6
1221.31 -187.36 2676.6
1199.99 -183.05 2615.0
1226.50 -186.04 2657.7
1242.90 -186.43 2663.4
1229.06 -183.34 2619.2
1237.61 -183.60 2622.9
1233.75 -182.03 2600.4
1236.25 -181.41 2591.5
1268.91 -185.19 2645.6
1273.50 -183.87 2626.8
1270.71 -182.50 2607.1
1254.21 -179.17 2559.6
1227.36 -174.41 2491.6
1217.50 -172.11 2458.7
1227.95 -172.68 2466.9
1227.27 -171.69 2452.7
1243.72 -172.21 2460.1
1303.96 -179.63 2566.1
1274.74 -174.71 2495.9
1278.96 -174.40 2491.5
1309.24 -177.64 2537.6
1307.54 -176.52 2521.7
1323.30 -177.76 2539.4
1328.01 -177.51 2535.8
1303.42 -173.36 2476.6
1319.64 -174.66 2495.1
1351.27 -176.25 2517.9
1345.91 -174.71 2495.9
1369.76 -176.11 2515.9
1322.09 -169.18 2416.8
1348.55 -171.75 2453.6
1405.54 -178.17 2545.2
1398.22 -174.78 2496.8
1390.42 -173.00 2471.5
1391.85 -172.38 2462.6
1347.40 -166.12 2373.1
1353.04 -166.06 2372.2
1413.75 -172.72 2467.4
1425.04 -173.32 2475.9
1431.36 -173.30 2475.8
1463.24 -176.37 2519.6
1438.95 -172.67 2466.8
1465.68 -174.33 2490.5
1555.86 -181.07 2586.7
1538.07 -178.23 2546.2
1543.43 -178.09 2544.1
1551.36 -178.24 2546.3
1172.68 -196.62 2708.5
1127.99 -188.00 2589.8
1124.42 -186.29 2566.3
1149.31 -189.30 2607.7
1165.83 -188.69 2599.3
1199.74 -193.06 2659.5
1211.65 -193.86 2670.6
1208.28 -192.23 2648.0
1181.50 -186.90 2574.7
1200.81 -188.89 2602.1
1251.31 -195.74 2696.4
1253.26 -194.95 2685.6
1210.65 -187.28 2579.9
1191.43 -183.30 2525.0
1207.48 -184.75 2545.0
1230.05 -187.18 2578.5
1238.51 -187.45 2582.2
1229.65 -185.11 2550.0
1200.18 -179.71 2475.5
1222.85 -181.16 2495.6
1257.61 -185.33 2553.0
1243.89 -182.35 2512.0
1250.01 -182.29 2511.2
1257.90 -182.49 2513.9
1235.76 -178.36 2457.0
1224.18 -175.78 2421.5
1244.15 -176.83 2436.0
1299.74 -183.80 2532.0
1323.23 -186.18 2564.8
1315.62 -184.19 2537.3
1316.19 -183.35 2525.7
1302.82 -180.59 2487.7
1294.86 -178.60 2460.3
1329.72 -182.51 2514.2
1348.39 -184.17 2537.0
1323.90 -179.95 2478.9
1304.36 -176.43 2430.5
1313.98 -176.88 2436.6
1364.52 -182.81 2518.2
1356.20 -180.83 2491.0
1301.31 -172.69 2378.8
1322.40 -174.66 2406.0
1330.02 -174.02 2397.2
1371.70 -178.64 2460.9
1397.54 -181.16 2495.6
1380.93 -178.18 2454.6
1374.47 -176.54 2431.9
1349.68 -172.56 2377.1
1377.08 -175.26 2414.4
1469.13 -184.46 2541.1
1471.55 -183.94 2533.9
1514.29 -185.15 2550.6
1507.42 -183.51 2528.0
1530.71 -185.54 2555.9
1559.25 -188.19 2592.4
1544.06 -185.55 2556.1
1552.02 -185.71 2558.3
1161.40 -204.13 2715.0
1146.45 -200.28 2663.9
1145.10 -195.34 2598.1
1179.45 -196.58 2614.6
1206.10 -199.87 2658.4
1227.56 -202.27 2690.3
1221.26 -200.09 2661.3
1212.74 -197.58 2627.9
1237.67 -200.52 2667.0
1248.18 -199.99 2659.9
1214.66 -193.55 2574.2
1216.70 -192.81 2564.5
1225.13 -193.09 2568.2
1220.20 -191.27 2544.0
1216.02 -189.59 2521.7
1240.66 -190.37 2532.0
1290.04 -196.90 2618.9
1288.42 -195.62 2601.9
1285.83 -194.21 2583.1
1287.62 -193.48 2573.3
1271.88 -190.13 2528.8
1264.51 -188.06 2501.2
1265.15 -187.19 2489.7
1289.34 -189.80 2524.5
1319.56 -191.34 2544.9
1308.15 -188.74 2510.3
1289.66 -185.15 2462.6
1276.08 -182.30 2424.6
1297.33 -184.42 2452.9
1301.36 -184.09 2448.6
1287.98 -181.32 2411.6
1295.79 -180.66 2402.9
1351.96 -187.59 2495.1
1380.81 -190.68 2536.2
1360.50 -186.99 2487.0
1354.41 -185.27 2464.2
1348.22 -183.56 2441.4
1328.86 -180.08 2395.1
1361.30 -183.62 2442.2
1389.53 -186.56 2481.3
1377.30 -184.06 2448.1
1405.20 -186.93 2486.3
1414.52 -187.31 2491.3
1388.75 -183.06 2434.8
1414.84 -185.66 2469.3
1409.71 -184.15 2449.3
1419.94 -183.01 2434.2
1447.85 -185.79 2471.1
1445.54 -184.67 2456.2
1495.46 -190.21 2529.9
1543.11 -195.42 2599.1
1511.29 -190.55 2534.5
1506.40 -189.11 2515.3
1514.80 -189.35 2518.4
1535.76 -190.33 2531.5
1106.07 -202.33 2601.4
1127.47 -205.00 2635.7
1149.02 -207.65 2669.8
1121.57 -201.48 2590.4
1135.26 -201.53 2591.0
1167.44 -206.02 2648.8
1183.30 -207.60 2669.1
1173.64 -204.70 2631.9
1155.24 -200.33 2575.7
1163.67 -200.63 2579.6
1196.84 -205.17 2637.9
1223.21 -208.50 2680.7
1210.66 -205.20 2638.2
1195.83 -201.54 2591.3
1187.50 -199.02 2558.9
1183.26 -197.21 2535.6
1204.33 -199.61 2566.5
1207.23 -198.99 2558.5
1212.23 -198.73 2555.0
1224.93 -199.72 2567.8
1211.80 -196.51 2526.5
1198.93 -193.38 2486.3
1210.68 -194.23 2497.2
1242.58 -198.28 2549.4
1242.22 -197.18 2535.1
1232.97 -194.68 2503.0
1264.31 -198.58 2553.2
1295.40 -202.41 2602.4
1284.11 -197.56 2540.0
1264.05 -193.48 2487.6
1268.72 -193.21 2484.1
1290.23 -195.49 2513.4
1300.41 -196.04 2520.5
1286.29 -192.94 2480.7
1295.96 -193.43 2486.9
1298.26 -192.81 2479.0
1297.88 -189.93 2442.0
1311.75 -191.03 2456.1
1324.25 -191.92 2467.5
1361.89 -196.43 2525.5
1382.17 -198.40 2550.8
1370.11 -195.73 2516.5
1369.39 -194.70 2503.3
1380.63 -195.37 2511.9
1380.33 -194.41 2499.6
1366.42 -191.55 2462.8
1375.18 -191.89 2467.1
1376.65 -191.20 2458.3
1349.21 -186.53 2398.2
1362.28 -187.47 2410.3
1412.34 -193.47 2487.5
1424.13 -194.20 2496.9
1409.67 -191.36 2460.3
1363.21 -184.22 2368.5
1391.08 -185.48 2384.7
1412.94 -186.73 2400.8
1481.02 -194.87 2505.5
1505.15 -195.47 2513.2
1517.31 -195.36 2511.8
1111.41 -211.37 2630.0
1119.83 -210.39 2617.8
1157.10 -216.08 2688.6
1143.56 -212.28 2641.2
1146.14 -211.49 2631.4
1188.70 -218.04 2713.0
1174.48 -214.17 2664.8
1146.31 -207.81 2585.7
1170.19 -210.91 2624.2
1184.84 -212.31 2641.7
1195.46 -212.98 2650.0
1228.78 -217.67 2708.3
1233.36 -217.24 2703.0
1203.38 -210.76 2622.4
1188.94 -207.06 2576.3
1181.01 -204.53 2544.9
1182.22 -203.60 2533.3
1207.95 -206.89 2574.2
1199.79 -204.36 2542.7
1193.64 -202.20 2515.9
1204.12 -202.87 2524.2
1214.33 -202.39 2518.2
1265.31 -209.76 2609.9
1230.58 -202.91 2524.7
1245.95 -202.22 2516.1
1288.97 -208.11 2589.4
1289.31 -204.97 2550.3
1237.64 -195.75 2435.6
1259.95 -197.27 2454.5
1297.92 -202.19 2515.7
1295.72 -200.84 2498.9
1316.50 -203.04 2526.3
1326.74 -203.61 2533.4
1303.09 -198.99 2476.0
1295.52 -196.87 2449.5
1316.40 -199.07 2476.9
1303.08 -196.09 2439.9
1290.08 -193.20 2403.9
1364.99 -203.44 2531.2
1383.25 -204.19 2540.7
1352.42 -198.70 2472.3
1348.71 -197.22 2453.8
1333.34 -194.05 2414.5
1353.14 -196.02 2438.9
1397.80 -201.54 2507.7
1391.06 -199.64 2484.0
1354.38 -193.48 2407.4
1346.85 -191.53 2383.0
1378.94 -194.30 2417.6
1353.41 -189.85 2362.1
1401.32 -195.68 2434.7
1464.98 -203.65 2533.9
1455.87 -201.48 2506.9
1439.62 -198.35 2467.9
1474.65 -202.28 2516.8
1532.98 -207.52 2582.1
1509.54 -202.58 2520.6
1122.02 -221.63 2671.5
1113.49 -217.27 2618.8
1128.25 -218.81 2637.5
1130.09 -217.85 2625.9
1157.23 -221.74 2672.8
1141.26 -213.57 2574.3
1173.21 -217.01 2615.7
1205.51 -221.70 2672.3
1223.14 -221.13 2665.4
1195.42 -214.91 2590.4
1199.27 -214.40 2584.2
1211.95 -215.46 2597.0
1221.29 -215.92 2602.6
1194.05 -209.94 2530.6
1197.28 -209.36 2523.5
1216.79 -211.62 2550.7
1235.98 -213.79 2576.9
1239.11 -210.91 2542.2
1231.23 -207.37 2499.5
1255.04 -210.27 2534.5
1261.20 -210.20 2533.7
1288.78 -213.68 2575.6
1284.26 -211.84 2553.4
1262.99 -207.26 2498.2
1254.73 -202.79 2444.3
1301.36 -209.26 2522.4
1306.06 -208.97 2518.8
1308.45 -208.31 2510.9
1301.53 -206.18 2485.2
1291.73 -203.62 2454.4
1299.04 -203.77 2456.2
1290.91 -201.51 2428.9
1335.89 -205.52 2477.3
1355.07 -205.51 2477.1
1322.55 -199.63 2406.2
1323.00 -198.76 2395.8
1355.82 -202.74 2443.7
1381.06 -205.55 2477.7
1354.77 -200.71 2419.2
1360.04 -200.56 2417.4
1393.26 -204.52 2465.1
1371.02 -200.33 2414.7
1428.46 -205.90 2481.9
1464.66 -209.24 2522.1
1441.91 -205.07 2471.8
1469.89 -208.13 2508.7
1491.42 -210.24 2534.2
1455.19 -204.24 2461.8
1461.45 -204.22 2461.6
1491.20 -207.47 2500.8
1504.69 -208.44 2512.5
1546.51 -213.31 2571.2
1111.78 -226.47 2647.1
1125.76 -226.53 2647.7
1148.83 -229.77 2685.6
1151.17 -228.85 2674.8
1176.42 -232.47 2717.1
1179.97 -231.78 2709.1
1173.07 -229.06 2677.3
1189.74 -230.95 2699.4
1166.11 -225.04 2630.3
1151.91 -221.01 2583.2
1181.57 -225.39 2634.4
1181.92 -224.16 2620.0
1194.98 -225.34 2633.8
1229.99 -229.32 2680.4
1198.54 -222.20 2597.2
1199.90 -221.21 2585.6
1203.73 -220.68 2579.4
1202.02 -219.15 2561.5
1186.81 -214.02 2501.5
1247.48 -223.73 2615.1
1256.60 -221.75 2591.9
1247.63 -219.00 2559.7
1261.77 -220.31 2575.0
1263.18 -219.39 2564.4
1249.95 -215.96 2524.2
1224.10 -210.39 2459.1
1223.41 -209.18 2445.0
1238.78 -210.72 2463.0
1236.68 -209.28 2446.2
1244.44 -209.52 2449.0
1275.34 -213.64 2497.0
1275.47 -212.58 2484.7
1265.48 -209.85 2452.8
1290.69 -212.96 2489.2
1313.29 -215.61 2520.2
1336.01 -218.26 2551.1
1325.39 -214.40 2506.0
1295.78 -206.57 2414.5
1329.51 -210.93 2465.4
1357.27 -214.31 2504.9
1382.13 -216.16 2526.6
1337.69 -208.23 2433.8
1326.63 -205.53 2402.4
1311.57 -202.25 2364.0
1331.16 -203.37 2377.1
1404.80 -213.63 2497.0
1407.15 -211.07 2467.1
1412.47 -210.91 2465.2
1444.15 -214.67 2509.1
1427.07 -211.18 2468.3
1467.43 -216.18 2526.8
1489.66 -216.56 2531.2
1415.37 -204.86 2394.4
1487.54 -212.51 2483.8
1109.25 -231.38 2624.9
1123.21 -232.86 2641.7
1158.25 -234.41 2659.2
1143.24 -230.00 2609.3
1150.12 -230.02 2609.5
1140.03 -226.67 2571.5
1140.33 -225.41 2557.2
1197.25 -235.30 2669.4
1189.40 -231.08 2621.5
1200.42 -231.90 2630.8
1209.39 -232.31 2635.5
1202.08 -229.61 2604.8
1204.29 -228.75 2595.0
1209.41 -228.44 2591.6
1208.57 -227.02 2575.5
1187.67 -221.87 2517.0
1195.14 -222.05 2519.0
1231.44 -225.10 2553.7
1225.50 -222.82 2527.8
1258.32 -227.57 2581.7
1258.91 -226.47 2569.2
1248.86 -223.48 2535.3
1250.17 -222.54 2524.6
1237.65 -219.17 2486.4
1254.42 -220.99 2507.0
1290.08 -226.10 2565.0
1271.10 -221.63 2514.3
1262.74 -219.05 2485.0
1279.65 -220.85 2505.5
1266.59 -217.50 2467.4
1272.57 -217.42 2466.6
1314.79 -223.51 2535.7
1333.51 -221.17 2509.0
1311.81 -216.51 2456.2
1331.86 -218.76 2481.7
1351.52 -220.92 2506.3
1346.58 -219.06 2485.1
1349.66 -218.52 2479.0
1379.97 -222.37 2522.6
1379.73 -221.28 2510.3
1370.27 -218.73 2481.4
1356.33 -215.49 2444.7
1334.83 -210.11 2383.6
1388.91 -217.62 2468.8
1434.32 -218.69 2480.9
1440.64 -218.67 2480.7
1461.03 -220.78 2504.6
1434.12 -215.75 2447.6
1463.85 -218.29 2476.4
1455.88 -216.16 2452.2
1544.34 -228.29 2589.9
1500.11 -220.80 2504.8
1127.65 -242.13 2668.4
1121.82 -239.41 2638.4
1159.74 -243.06 2678.6
1168.77 -243.49 2683.4
1153.92 -237.57 2618.1
1163.17 -235.32 2593.4
1201.96 -241.77 2664.5
1192.06 -238.41 2627.4
1189.02 -236.45 2605.8
1187.96 -234.91 2588.8
1189.74 -233.94 2578.1
1201.55 -234.94 2589.1
1194.85 -232.33 2560.4
1179.98 -228.17 2514.6
1199.35 -230.64 2541.8
1253.84 -237.21 2614.2
1234.67 -232.33 2560.4
1256.14 -235.11 2591.0
1251.10 -232.92 2566.9
1212.62 -224.56 2474.7
1231.01 -226.77 2499.0
1263.65 -231.56 2551.9
1265.41 -230.67 2542.1
1292.54 -234.40 2583.2
1299.64 -233.27 2570.7
1256.19 -224.32 2472.1
1237.25 -219.82 2422.5
1260.44 -222.81 2455.4
1303.87 -229.32 2527.2
1313.17 -229.81 2532.5
1306.37 -227.48 2506.9
1267.09 -219.55 2419.5
1310.94 -224.92 2478.7
1340.29 -228.83 2521.8
1305.00 -221.72 2443.5
1311.35 -221.73 2443.5
1350.33 -227.22 2504.1
1365.34 -228.65 2519.8
1345.13 -224.19 2470.6
1351.98 -224.26 2471.5
1363.16 -225.05 2480.1
1366.17 -224.49 2473.9
1343.36 -217.67 2398.9
1337.34 -213.73 2355.4
1370.20 -215.05 2370.0
1385.43 -215.51 2375.0
1413.31 -217.91 2401.5
1463.09 -224.60 2475.2
1116.57 -246.60 2642.2
1133.68 -248.86 2666.3
1130.61 -243.72 2611.3
1127.16 -241.53 2587.9
1158.11 -245.25 2627.7
1162.59 -239.16 2562.5
1188.78 -243.16 2605.3
1190.22 -242.08 2593.7
1196.61 -242.01 2593.0
1207.60 -242.87 2602.2
1200.09 -240.02 2571.6
1192.45 -237.17 2541.1
1216.56 -240.64 2578.3
1237.22 -240.76 2579.5
1220.58 -236.24 2531.2
1238.95 -238.51 2555.5
1228.16 -235.18 2519.8
1216.78 -231.77 2483.2
1260.28 -238.79 2558.5
1292.15 -243.55 2609.4
1293.14 -242.46 2597.8
1259.75 -234.98 2517.6
1231.83 -228.59 2449.2
1264.33 -233.41 2500.9
1276.72 -234.50 2512.5
1252.43 -228.87 2452.2
1268.40 -230.62 2470.9
1283.06 -232.11 2486.9
1263.38 -227.41 2436.5
1252.24 -224.28 2403.0
1304.29 -227.93 2442.2
1312.99 -228.35 2446.6
1357.18 -234.90 2516.8
1331.38 -229.33 2457.1
1294.34 -220.83 2366.1
1322.10 -224.51 2405.4
1311.48 -221.66 2374.9
1333.12 -224.26 2402.8
1383.02 -231.57 2481.2
1357.03 -222.06 2379.2
1393.18 -225.92 2420.6
1431.63 -230.08 2465.2
1439.42 -230.31 2467.6
1406.91 -224.11 2401.2
1438.34 -228.11 2444.0
1468.92 -231.93 2485.0
1442.66 -226.79 2429.9
1179.44 -266.09 2773.9
1155.31 -255.97 2668.4
1125.34 -247.84 2583.7
1156.95 -253.30 2640.6
1168.32 -254.28 2650.8
1145.82 -247.93 2584.5
1165.03 -247.74 2582.6
1198.99 -253.50 2642.7
1210.30 -250.17 2608.0
1206.59 -248.02 2585.6
1202.79 -245.87 2563.2
1195.06 -242.95 2532.7
1194.88 -241.59 2518.5
1218.65 -245.05 2554.6
1216.29 -243.26 2535.9
1207.36 -240.17 2503.7
1234.79 -244.32 2546.9
1224.86 -241.06 2513.0
1214.35 -237.73 2478.3
1247.26 -242.89 2532.0
1268.02 -245.64 2560.7
1269.36 -244.62 2550.1
1235.43 -236.84 2469.0
1217.27 -232.16 2420.2
1262.73 -239.60 2497.7
1294.97 -244.46 2548.4
1288.90 -242.08 2523.6
1268.15 -236.98 2470.4
1244.90 -231.46 2412.9
1261.31 -233.34 2432.5
1285.62 -236.66 2467.1
1298.51 -237.85 2479.5
1290.56 -235.23 2452.2
1276.82 -229.33 2390.7
1282.59 -229.25 2389.9
1334.70 -237.42 2475.1
1318.78 -233.47 2433.8
1333.37 -232.71 2426.0
1337.73 -232.37 2422.4
1333.62 -228.44 2381.5
1382.73 -234.68 2446.5
1364.41 -230.52 2403.1
1373.57 -231.01 2408.2
1430.06 -237.27 2473.5
1392.04 -227.90 2375.8
1422.00 -230.76 2405.6
1454.61 -235.02 2450.1
1182.31 -273.95 2780.7
1187.63 -273.52 2776.3
1177.57 -269.57 2736.2
1137.55 -254.28 2581.0
1142.75 -253.94 2577.6
1161.32 -256.57 2604.3
1166.13 -256.15 2600.0
1185.67 -258.94 2628.3
1213.56 -263.52 2674.8
1233.95 -261.96 2658.9
1220.67 -257.70 2615.7
1234.70 -259.22 2631.2
1243.69 -259.67 2635.8
1225.37 -254.45 2582.8
1232.98 -254.64 2584.7
1232.84 -253.23 2570.4
1225.72 -250.42 2541.8
1235.41 -251.05 2548.2
1208.47 -244.26 2479.4
1212.35 -243.75 2474.2
1264.62 -252.92 2567.3
1282.80 -255.22 2590.5
1277.98 -252.93 2567.4
1253.01 -246.71 2504.2
1246.12 -244.08 2477.6
1258.89 -245.32 2490.1
1256.81 -243.67 2473.3
1274.14 -245.77 2494.7
1276.54 -244.99 2486.8
1293.07 -246.92 2506.3
1316.74 -247.70 2514.3
1335.31 -249.96 2537.2
1306.93 -243.45 2471.1
1298.38 -240.68 2443.0
1316.00 -242.76 2464.1
1274.80 -234.02 2375.4
1345.58 -244.65 2483.3
1371.05 -248.09 2518.2
1313.93 -236.63 2401.9
1348.07 -240.50 2441.2
1380.47 -245.13 2488.2
1331.56 -235.35 2388.8
1344.56 -236.54 2401.0
1370.80 -240.05 2436.6
1364.82 -237.90 2414.8
1399.57 -242.85 2465.0
1381.42 -235.40 2389.4
1413.95 -237.74 2413.2
1452.16 -242.03 2456.7
1203.43 -284.45 2813.2
1153.37 -264.60 2616.9
1151.79 -262.69 2598.0
1165.93 -264.37 2614.6
1164.26 -262.46 2595.8
1189.51 -266.62 2636.9
1196.73 -265.18 2622.7
1166.22 -256.96 2541.4
1210.89 -265.31 2623.9
1243.33 -270.89 2679.2
1252.28 -262.58 2596.9
1236.02 -257.78 2549.5
1231.78 -255.53 2527.2
1258.98 -259.79 2569.4
1249.89 -251.27 2485.1
1223.13 -244.63 2419.4
1236.70 -246.08 2433.7
1270.26 -251.47 2487.1
1279.01 -251.93 2491.6
1301.48 -255.06 2522.6
1322.39 -256.58 2537.6
1274.89 -246.14 2434.4
1267.78 -243.56 2408.9
1275.94 -243.93 2412.5
1306.07 -248.47 2457.4
1355.15 -256.56 2537.4
1348.02 -253.98 2511.8
1306.28 -244.93 2422.4
1325.86 -247.41 2446.9
1376.97 -255.72 2529.1
1341.87 -248.02 2453.0
1309.83 -240.96 2383.1
1397.40 -255.86 2530.5
1398.71 -253.72 2509.3
1393.46 -251.60 2488.3
1406.19 -252.73 2499.5
1401.80 -250.78 2480.3
1389.41 -244.09 2414.0
1394.12 -243.81 2411.3
1402.81 -244.24 2415.6
1395.45 -241.88 2392.2
1406.12 -242.65 2399.8
1439.06 -247.24 2445.2
1192.59 -283.95 2738.1
1180.99 -276.25 2663.9
1155.85 -267.25 2577.0
1200.31 -275.93 2660.8
1200.69 -274.44 2646.4
1209.53 -270.29 2606.3
1246.67 -277.04 2671.4
1222.77 -268.74 2591.4
1224.43 -267.63 2580.8
1231.26 -264.79 2553.3
1245.32 -266.38 2568.6
1269.91 -270.19 2605.4
1259.59 -266.58 2570.6
1277.73 -269.00 2593.9
1271.22 -266.22 2567.2
1235.30 -257.35 2481.6
1248.03 -258.66 2494.2
1242.47 -256.18 2470.3
1253.42 -257.11 2479.3
1308.62 -267.06 2575.3
1275.88 -259.06 2498.1
1249.16 -251.09 2421.2
1299.96 -259.99 2507.1
1305.55 -259.81 2505.3
1284.79 -254.41 2453.3
1299.99 -256.16 2470.1
1332.94 -261.36 2520.3
1319.82 -257.53 2483.3
1324.85 -257.25 2480.6
1356.22 -262.07 2527.1
1353.75 -260.34 2510.4
1357.38 -259.78 2505.1
1392.88 -265.31 2558.3
1393.22 -264.12 2546.8
1397.82 -263.74 2543.2
1415.67 -264.61 2551.6
1400.86 -260.62 2513.2
1415.19 -260.86 2515.5
1385.84 -254.28 2452.0
1398.43 -254.26 2451.8
1433.93 -259.53 2502.7
1445.19 -259.23 2499.7
1430.54 -255.45 2463.3
1413.24 -251.24 2422.7
1408.37 -249.27 2403.7
1413.01 -248.99 2401.0
1174.12 -293.53 2761.4
1182.93 -293.94 2765.3
1188.71 -291.84 2745.5
1196.29 -290.22 2730.3
1206.24 -290.92 2736.9
1177.18 -278.99 2624.6
1201.27 -283.06 2662.9
1181.51 -276.81 2604.1
1194.62 -272.11 2559.9
1220.37 -276.44 2600.6
1210.18 -272.62 2564.7
1235.68 -276.85 2604.5
1237.22 -274.19 2579.5
1207.20 -266.10 2503.4
1234.62 -270.69 2546.6
1249.13 -272.42 2562.8
1229.10 -266.63 2508.4
1232.58 -265.98 2502.2
1210.42 -259.83 2444.4
1229.23 -259.79 2444.0
1303.46 -274.06 2578.3
1311.49 -274.34 2580.9
1228.06 -255.59 2404.5
1283.59 -264.46 2487.9
1327.93 -269.53 2535.7
1341.91 -271.03 2549.7
1362.91 -273.92 2576.9
1334.03 -266.81 2510.0
1339.58 -266.61 2508.2
1371.48 -271.65 2555.5
1384.66 -272.94 2567.7
1398.30 -273.00 2568.3
1353.27 -262.96 2473.8
1361.21 -262.02 2465.0
1390.95 -261.60 2461.0
1374.16 -257.26 2420.2
1375.95 -256.43 2412.4
1404.43 -260.55 2451.2
1442.50 -266.41 2506.3
1454.40 -263.85 2482.2
1432.93 -258.81 2434.8
1403.17 -252.32 2373.8
1416.88 -253.68 2386.5
1169.31 -301.30 2767.0
1193.31 -305.60 2806.6
1206.62 -303.46 2786.9
1158.26 -282.83 2597.4
1192.38 -289.48 2658.5
1196.90 -288.91 2653.2
1224.82 -293.96 2699.6
1233.11 -294.26 2702.4
1184.95 -281.17 2582.2
1220.02 -284.67 2614.3
1228.55 -285.08 2618.1
1198.87 -276.66 2540.8
1183.78 -271.69 2495.1
1210.26 -274.76 2523.3
1246.27 -281.42 2584.4
1234.34 -277.23 2546.0
1207.43 -269.74 2477.2
1220.31 -268.34 2464.3
1229.44 -268.94 2469.8
1247.29 -270.03 2479.9
1272.64 -274.11 2517.3
1229.14 -263.39 2418.9
1279.20 -269.98 2479.4
1322.31 -277.69 2550.2
1294.87 -270.57 2484.8
1287.84 -266.45 2447.0
1345.40 -276.99 2543.8
1352.43 -277.08 2544.6
1371.13 -276.86 2542.6
1350.16 -271.32 2491.8
1297.57 -259.51 2383.3
1330.60 -262.37 2409.5
1384.66 -271.76 2495.7
1406.82 -271.04 2489.1
1385.17 -265.65 2439.6
1384.04 -264.23 2426.6
1405.62 -267.13 2453.3
1200.42 -314.74 2823.3
1198.42 -308.58 2768.0
1172.97 -298.45 2677.1
1161.14 -293.70 2634.5
1195.90 -300.72 2697.5
1189.99 -297.50 2668.6
1177.85 -292.76 2626.1
1190.07 -294.10 2638.1
1228.23 -301.79 2707.1
1181.04 -285.31 2559.2
1225.63 -292.79 2626.3
1226.15 -291.30 2612.9
1205.81 -284.89 2555.5
1197.16 -281.30 2523.3
1226.97 -283.65 2544.4
1221.91 -280.97 2520.4
1226.77 -280.59 2516.9
1236.42 -281.30 2523.3
1206.97 -273.16 2450.2
1252.66 -280.54 2516.5
1277.04 -284.52 2552.2
1279.65 -283.63 2544.2
1273.70 -280.87 2519.4
1251.86 -274.64 2463.6
1234.76 -269.52 2417.6
1244.70 -268.95 2412.5
1258.80 -270.64 2427.7
1339.99 -282.45 2533.6
1387.35 -288.19 2585.1
1358.08 -280.76 2518.4
1333.27 -274.31 2460.6
1322.11 -269.44 2416.9
1338.00 -268.85 2411.6
1375.74 -275.15 2468.1
1392.30 -277.17 2486.3
1384.04 -274.26 2460.1
1364.40 -269.13 2414.1
1360.31 -267.09 2395.8
1380.30 -269.79 2420.0
1425.12 -277.29 2487.3
1464.65 -281.16 2522.0
1394.92 -265.40 2380.7
1212.20 -323.25 2833.7
1164.30 -303.13 2657.3
1207.79 -312.61 2740.4
1203.21 -306.02 2682.6
1202.46 -304.07 2665.6
1213.96 -305.23 2675.7
1227.98 -306.99 2691.2
1215.76 -300.53 2634.5
1180.37 -290.15 2543.5
1213.98 -296.75 2601.4
1250.79 -304.06 2665.5
1263.68 -305.50 2678.1
1245.40 -296.20 2596.6
1221.06 -288.85 2532.2
1231.60 -289.79 2540.4
1253.50 -293.37 2571.8
1268.53 -295.32 2588.8
1240.97 -287.38 2519.3
1214.69 -278.37 2440.2
1263.83 -288.13 2525.8
1293.21 -293.31 2571.2
1280.59 -288.95 2533.0
1254.27 -281.57 2468.3
1274.75 -284.72 2495.9
1298.97 -288.66 2530.5
1279.08 -282.81 2479.2
1255.31 -276.17 2421.0
1278.19 -279.80 2452.8
1328.43 -289.36 2536.6
1297.92 -281.32 2466.1
1313.53 -281.93 2471.5
1345.72 -287.44 2519.7
1318.35 -280.23 2456.5
1286.93 -272.24 2386.5
1336.29 -281.32 2466.2
1382.16 -289.60 2538.7
1407.78 -293.56 2573.5
1406.69 -291.95 2559.3
1416.79 -288.61 2530.0
1422.28 -288.39 2528.1
1418.94 -286.39 2510.6
1406.68 -282.62 2477.5
1420.92 -284.18 2491.2
1436.84 -282.24 2474.2
1412.95 -271.48 2379.9
1207.98 -329.45 2823.9
1203.48 -322.36 2763.1
1166.41 -310.58 2662.1
1219.20 -317.13 2718.3
1199.72 -310.27 2659.5
1191.07 -306.28 2625.2
1217.36 -311.26 2667.9
1227.97 -310.44 2660.9
1199.33 -301.51 2584.4
1219.57 -304.89 2613.4
1245.84 -309.74 2654.9
1248.52 -308.70 2646.0
1231.14 -297.86 2553.1
1222.20 -294.11 2521.0
1239.70 -296.74 2543.4
1249.84 -297.58 2550.7
1239.36 -293.53 2516.0
1213.72 -285.96 2451.0
1224.15 -286.91 2459.2
1277.33 -297.82 2552.8
1284.86 -298.04 2554.6
1246.18 -287.58 2465.0
1261.64 -289.66 2482.8
1325.47 -301.24 2582.1
1281.06 -289.69 2483.0
1326.28 -295.46 2532.5
1318.00 -292.17 2504.3
1304.03 -287.65 2465.6
1365.52 -299.75 2569.3
1361.82 -297.48 2549.9
1299.70 -282.54 2421.8
1353.05 -291.33 2497.1
1385.17 -296.82 2544.2
1395.52 -297.62 2551.1
1399.93 -295.76 2535.1
1350.43 -283.97 2434.0
1374.16 -287.61 2465.3
1432.03 -298.34 2557.2
1459.09 -294.44 2523.7
1464.51 -294.21 2521.8
1413.42 -281.43 2412.3
1425.77 -281.40 2412.0
1209.99 -327.41 2745.4
1216.04 -323.34 2711.2
1215.77 -321.41 2695.0
1205.15 -316.78 2656.2
1232.32 -322.08 2700.7
1229.75 -317.80 2664.8
1182.71 -303.94 2548.5
1183.95 -302.57 2537.0
1185.63 -298.03 2499.0
1228.17 -307.04 2574.6
1239.63 -308.23 2584.6
1226.09 -303.23 2542.6
1226.67 -301.75 2530.2
1254.64 -306.99 2574.1
1259.16 -306.46 2569.7
1240.38 -300.30 2518.1
1222.25 -294.36 2468.3
1243.35 -297.89 2497.8
1276.13 -304.16 2550.4
1258.64 -298.44 2502.4
1249.02 -294.64 2470.6
1290.62 -302.90 2539.8
1279.84 -295.84 2480.7
1280.75 -291.66 2445.6
1319.08 -298.91 2506.3
1352.07 -304.88 2556.4
1371.80 -306.32 2568.6
1361.00 -302.44 2536.0
1356.32 -297.10 2491.2
1410.83 -306.12 2566.9
1394.80 -301.22 2525.8
1362.67 -292.91 2456.1
1356.41 -290.21 2433.4
1377.75 -293.41 2460.3
1418.22 -300.64 2520.9
1448.64 -305.68 2563.1
1460.56 -306.78 2572.4
1452.80 -303.77 2547.1
1423.18 -296.23 2483.9
1382.88 -286.54 2402.7
1412.22 -290.01 2431.8
1455.04 -297.47 2494.4
1436.74 -292.43 2452.1
1197.71 -327.28 2685.9
1228.12 -331.73 2722.4
1215.01 -322.63 2647.7
1207.78 -318.91 2617.2
1184.92 -311.13 2553.3
1197.10 -312.58 2565.2
1204.68 -312.82 2567.2
1209.03 -308.83 2534.5
1252.65 -318.24 2611.7
1243.91 -314.32 2579.5
1249.35 -314.01 2577.0
1248.66 -312.17 2561.9
1223.42 -304.24 2496.8
1226.01 -303.28 2488.9
1229.45 -302.53 2482.8
1248.80 -305.70 2508.7
1275.82 -310.69 2549.7
1272.18 -308.21 2529.4
1276.52 -307.67 2525.0
1267.33 -303.90 2494.0
1275.64 -304.34 2497.6
1313.93 -311.89 2559.6
1291.84 -305.11 2503.9
1269.06 -298.23 2447.5
1300.25 -304.04 2495.2
1307.19 -304.15 2496.1
1291.44 -299.00 2453.8
1298.29 -299.12 2454.8
1314.01 -301.26 2472.3
1310.58 -299.02 2453.9
1322.59 -300.30 2464.5
1379.00 -311.60 2557.2
1339.35 -299.76 2460.0
1346.19 -299.86 2460.9
1378.41 -305.59 2507.9
1357.93 -299.64 2459.0
1356.57 -296.55 2433.7
1387.15 -301.83 2477.0
1433.97 -310.58 2548.9
1460.42 -310.59 2548.9
1421.75 -301.00 2470.2
1414.13 -298.04 2446.0
1441.36 -302.43 2481.9
1469.23 -306.91 2518.7
1485.18 -308.86 2534.8
1439.13 -297.97 2445.3
1466.12 -302.23 2480.3
1184.85 -330.66 2657.1
1207.37 -333.07 2676.4
1199.10 -327.03 2627.9
1210.55 -328.28 2638.0
1249.10 -336.84 2706.7
1227.28 -329.10 2644.6
1243.02 -331.47 2663.6
1233.15 -325.23 2613.4
1191.85 -312.62 2512.1
1241.24 -323.80 2602.0
1231.37 -314.39 2526.4
1211.74 -307.74 2472.9
1221.31 -308.54 2479.3
1225.17 -307.90 2474.2
1244.05 -311.01 2499.2
1267.93 -315.34 2534.0
1260.24 -311.81 2505.6
1280.24 -315.13 2532.3
1287.27 -315.25 2533.3
1266.73 -308.65 2480.2
1272.75 -308.55 2479.4
1290.60 -311.30 2501.5
1308.09 -313.94 2522.7
1339.43 -319.86 2570.3
1344.68 -319.53 2567.6
1296.22 -306.49 2462.9
1271.48 -299.17 2404.1
1316.01 -308.14 2476.1
1339.29 -312.07 2507.7
1322.74 -306.72 2464.7
1350.35 -311.62 2504.1
1370.87 -313.34 2517.9
1409.77 -316.21 2541.0
1389.16 -310.14 2492.2
1426.81 -315.61 2536.1
1450.89 -319.46 2567.1
1487.93 -317.42 2550.7
1454.43 -303.53 2439.1
1196.84 -337.04 2653.1
1208.31 -338.33 2663.2
1198.21 -331.71 2611.1
1234.39 -326.95 2573.6
1242.41 -327.30 2576.4
1225.30 -321.07 2527.3
1229.30 -320.40 2522.1
1247.71 -323.48 2546.3
1242.07 -320.32 2521.5
1231.02 -315.81 2486.0
1222.92 -312.10 2456.8
1219.59 -309.64 2437.4
1241.17 -313.49 2467.7
1287.08 -323.42 2545.9
1280.64 -320.16 2520.2
1247.88 -310.39 2443.3
1260.63 -311.97 2455.8
1285.26 -316.47 2491.2
1307.30 -320.29 2521.2
1343.42 -325.88 2565.2
1282.00 -309.45 2435.9
1275.81 -306.44 2412.2
1344.60 -321.39 2529.9
1385.38 -327.94 2581.5
1375.02 -323.92 2549.8
1376.36 -322.69 2540.1
1370.06 -319.68 2516.4
1422.69 -324.24 2552.3
1422.41 -322.68 2540.0
1455.43 -327.14 2575.1
1439.39 -322.06 2535.1
1443.39 -321.48 2530.6
1452.31 -322.00 2534.7
1180.18 -339.13 2616.2
1223.16 -349.47 2695.9
1221.96 -347.15 2678.0
1178.00 -332.77 2567.1
1175.60 -330.23 2547.5
1219.10 -340.53 2627.0
1246.55 -346.26 2671.2
1259.42 -347.91 2683.8
1267.56 -342.58 2642.8
1249.41 -335.86 2590.9
1211.54 -323.94 2499.0
1224.65 -323.98 2499.3
1236.91 -325.50 2511.0
1231.58 -322.40 2487.1
1231.45 -320.69 2473.9
1266.39 -328.08 2530.9
1268.61 -323.62 2496.5
1240.78 -314.92 2429.4
1262.11 -318.72 2458.7
1271.72 -319.53 2464.9
1275.86 -318.97 2460.6
1298.81 -323.09 2492.4
1279.01 -316.59 2442.2
1280.29 -315.34 2432.6
1340.51 -328.56 2534.6
1351.25 -329.57 2542.4
1334.87 -324.00 2499.4
1355.90 -327.51 2526.5
1366.65 -328.52 2534.3
1360.39 -325.45 2510.6
1347.86 -320.92 2475.7
1373.80 -325.54 2511.3
1394.60 -325.84 2513.6
1396.26 -317.33 2448.0
1427.03 -319.96 2468.3
1185.16 -349.38 2642.4
1199.04 -351.44 2658.0
1213.39 -353.62 2674.4
1214.20 -351.84 2661.0
1172.71 -337.90 2555.5
1192.43 -339.74 2569.5
1189.11 -336.91 2548.1
1217.75 -341.24 2580.8
1269.77 -342.64 2591.4
1276.51 -342.64 2591.4
1266.50 -338.18 2557.6
1250.60 -332.19 2512.4
1271.38 -335.96 2540.9
1297.60 -339.37 2566.7
1293.46 -336.56 2545.4
1316.01 -337.27 2550.8
1290.16 -328.99 2488.2
1285.15 -326.08 2466.2
1263.47 -318.99 2412.6
1315.55 -328.89 2487.4
1322.00 -328.89 2487.4
1299.43 -321.70 2433.0
1309.04 -322.52 2439.2
1325.28 -324.95 2457.6
1324.55 -323.22 2444.5
1359.38 -330.14 2496.8
1376.27 -329.53 2492.2
1367.74 -325.96 2465.2
1402.14 -332.60 2515.5
1399.44 -328.90 2487.5
1399.35 -324.40 2453.4
1230.34 -363.51 2696.4
1217.92 -357.81 2654.1
1229.85 -359.28 2665.0
1237.23 -359.42 2666.0
1208.50 -349.12 2589.6
1198.00 -344.18 2553.0
1247.07 -356.30 2642.9
1267.57 -360.18 2671.7
1215.96 -343.64 2549.0
1195.69 -334.28 2479.5
1263.88 -345.90 2565.8
1290.39 -351.31 2605.9
1274.59 -343.41 2547.3
1261.14 -338.04 2507.4
1265.89 -337.57 2504.0
1289.52 -342.12 2537.7
1313.27 -346.65 2571.3
1316.76 -345.81 2565.1
1313.38 -343.20 2545.7
1293.01 -336.18 2493.7
1305.46 -337.73 2505.1
1299.98 -334.65 2482.3
1320.25 -334.89 2484.1
1363.17 -344.10 2552.4
1385.70 -344.77 2557.3
1369.47 -339.11 2515.4
1407.59 -343.64 2549.0
1396.29 -339.29 2516.7
1387.27 -335.53 2488.8
1357.68 -325.34 2413.3
1450.07 -344.31 2553.9
1413.06 -330.99 2455.1
1422.33 -331.66 2460.1
1239.06 -368.93 2685.0
1197.19 -354.47 2579.7
1215.29 -357.84 2604.2
1253.31 -366.99 2670.8
1277.15 -367.87 2677.3
1237.32 -354.48 2579.7
1210.01 -344.79 2509.2
1251.66 -354.75 2581.7
1254.05 -353.54 2572.9
1237.17 -343.30 2498.4
1269.27 -346.76 2523.6
1254.09 -339.11 2468.0
1285.37 -345.81 2516.7
1264.73 -333.49 2427.0
1307.46 -343.05 2496.6
1296.83 -338.58 2464.1
1280.03 -332.56 2420.2
1327.81 -343.29 2498.3
1363.88 -344.22 2505.1
1403.86 -349.32 2542.2
1382.43 -342.38 2491.7
1366.60 -336.88 2451.7
1377.77 -336.51 2449.0
1419.29 -343.48 2499.7
1451.32 -348.05 2533.0
1459.73 -346.93 2524.8
1232.83 -380.42 2717.3
1242.80 -381.31 2723.7
1251.14 -381.70 2726.5
1211.68 -367.59 2625.6
1192.70 -357.81 2555.8
1213.75 -362.11 2586.5
1243.39 -368.92 2635.1
1239.40 -359.82 2570.2
1248.28 -360.46 2574.7
1214.57 -348.87 2491.9
1207.48 -343.18 2451.3
1226.69 -346.81 2477.2
1273.87 -358.28 2559.1
1280.05 -356.30 2545.0
1226.68 -339.70 2426.4
1249.24 -344.18 2458.4
1280.04 -350.87 2506.2
1293.70 -344.14 2458.1
1327.93 -351.51 2510.8
1306.95 -344.27 2459.1
1290.42 -338.27 2416.2
1314.08 -342.80 2448.6
1324.21 -343.78 2455.6
1317.81 -340.49 2432.0
1310.35 -336.95 2406.8
1319.47 -337.68 2412.0
1312.82 -334.40 2388.6
1343.03 -337.32 2409.4
1355.09 -338.77 2419.8
1374.31 -338.87 2420.5
1190.71 -376.37 2639.5
1215.66 -382.07 2679.4
1219.79 -381.18 2673.2
1224.29 -380.43 2668.0
1244.98 -384.68 2697.8
1262.45 -387.90 2720.4
1216.68 -371.76 2607.2
1180.53 -358.72 2515.7
1181.23 -356.96 2503.4
1200.58 -360.83 2530.5
1199.97 -358.69 2515.5
1228.56 -359.42 2520.6
1277.06 -371.63 2606.2
1290.38 -365.83 2565.6
1259.90 -355.36 2492.1
1299.21 -364.57 2556.8
1311.37 -362.44 2541.8
1308.37 -359.80 2523.3
1288.78 -352.65 2473.1
1290.15 -351.28 2463.5
1331.22 -360.68 2529.4
1348.43 -363.55 2549.6
1311.70 -351.92 2468.0
1281.18 -342.06 2398.9
1291.20 -343.07 2406.0
1314.89 -347.69 2438.3
1318.86 -347.07 2434.0
1308.09 -342.60 2402.6
1312.43 -342.10 2399.2
1347.01 -346.19 2427.9
1396.90 -355.69 2494.5
1378.97 -349.51 2451.1
1228.81 -393.22 2708.4
1238.81 -391.94 2699.6
1242.94 -391.04 2693.4
1259.14 -393.92 2713.2
1213.37 -377.49 2600.1
1190.28 -368.26 2536.5
1204.14 -370.51 2552.0
1214.67 -371.70 2560.2
1201.32 -365.62 2518.3
1227.32 -365.59 2518.1
1243.08 -362.56 2497.3
1211.00 -351.38 2420.2
1308.27 -373.79 2574.6
1301.23 -368.02 2534.9
1311.90 -369.18 2542.8
1303.07 -363.05 2500.6
1294.84 -358.97 2472.5
1278.64 -352.73 2429.5
1300.15 -355.16 2446.3
1319.44 -356.95 2458.6
1289.56 -347.19 2391.4
1326.99 -355.56 2449.0
1354.21 -361.12 2487.3
1394.90 -370.21 2549.9
1404.13 -369.16 2542.7
1402.66 -365.34 2516.4
1409.59 -365.45 2517.1
1382.94 -355.25 2446.9
1371.10 -350.60 2414.9
1219.83 -397.32 2688.6
1228.09 -397.73 2691.4
1207.01 -388.70 2630.3
1171.54 -375.16 2538.7
1200.01 -380.00 2571.4
1271.45 -398.20 2694.6
1268.26 -395.03 2673.1
1258.57 -389.88 2638.3
1218.71 -375.49 2540.9
1211.16 -371.16 2511.6
1229.00 -374.62 2535.0
1217.83 -369.24 2498.6
1217.41 -367.16 2484.5
1232.26 -369.68 2501.6
1203.61 -359.19 2430.6
1238.26 -360.11 2436.8
1263.79 -360.18 2437.3
1302.23 -369.29 2499.0
1265.94 -357.22 2417.3
1320.46 -363.61 2460.5
1301.57 -354.97 2402.1
1370.89 -372.10 2518.0
1402.29 -375.26 2539.4
1360.20 -362.30 2451.6
1372.81 -363.95 2462.8
1378.66 -363.81 2461.9
1363.11 -358.05 2422.9
1403.52 -358.75 2427.6
1228.86 -407.28 2708.5
1207.14 -397.81 2645.5
1256.47 -402.63 2677.6
1268.94 -404.39 2689.3
1216.36 -383.42 2549.8
1201.62 -376.72 2505.3
1217.25 -379.57 2524.2
1227.76 -380.80 2532.4
1210.51 -373.46 2483.6
1211.37 -371.74 2472.2
1227.50 -374.71 2491.9
1230.95 -373.80 2485.8
1222.90 -369.42 2456.7
1235.97 -367.62 2444.8
1255.40 -371.50 2470.5
1253.74 -369.12 2454.8
1231.65 -360.79 2399.3
1257.02 -364.54 2424.3
1322.92 -381.74 2538.6
1312.93 -376.98 2507.0
1267.73 -362.21 2408.8
1299.98 -369.60 2457.9
1342.64 -378.03 2514.0
1331.79 -373.16 2481.6
1364.10 -380.37 2529.6
1375.81 -381.80 2539.1
1326.64 -361.24 2402.4
1379.05 -373.76 2485.6
1370.96 -369.84 2459.5
1372.44 -366.83 2439.5
1225.25 -408.42 2670.0
1169.93 -383.48 2507.0
1208.53 -393.94 2575.4
1228.39 -398.21 2603.3
1213.96 -391.39 2558.7
1224.09 -392.51 2566.0
1247.94 -397.99 2601.9
1242.25 -394.05 2576.1
1231.27 -388.47 2539.7
1206.23 -378.55 2474.8
1198.35 -374.09 2445.6
1230.62 -382.14 2498.3
1251.24 -386.51 2526.8
1261.37 -387.61 2534.0
1246.70 -381.12 2491.6
1243.42 -378.15 2472.2
1285.21 -388.86 2542.2
1300.35 -391.43 2559.0
1289.87 -386.31 2525.5
1300.05 -387.39 2532.6
1307.08 -387.53 2533.5
1297.24 -382.68 2501.8
1297.79 -380.94 2490.4
1320.35 -385.65 2521.2
1305.19 -379.34 2480.0
1273.61 -364.77 2384.7
1337.49 -381.22 2492.2
1363.69 -386.82 2528.8
1370.68 -386.94 2529.6
1391.40 -390.92 2555.6
1325.18 -370.55 2422.5
1381.53 -380.89 2490.1
1395.65 -382.99 2503.8
1388.03 -379.14 2478.6
1365.16 -369.47 2415.4
1398.74 -375.12 2452.3
1406.51 -375.49 2454.8
1224.86 -417.57 2684.4
1243.85 -421.64 2710.6
1250.92 -421.66 2710.7
1223.80 -410.21 2637.1
1232.79 -410.93 2641.7
1242.63 -411.92 2648.1
1236.02 -407.48 2619.5
1249.66 -409.72 2633.9
1245.56 -399.65 2569.2
1211.49 -386.64 2485.6
1195.79 -379.62 2440.4
1218.42 -384.76 2473.5
1247.77 -391.97 2519.8
1264.94 -395.30 2541.2
1252.96 -389.52 2504.1
1253.27 -387.61 2491.8
1236.10 -380.34 2445.0
1245.31 -379.28 2438.2
1294.87 -390.41 2509.8
1260.36 -378.11 2430.7
1241.58 -366.97 2359.1
1364.65 -384.41 2471.2
1398.42 -392.08 2520.5
1405.85 -392.33 2522.1
1394.59 -376.92 2423.0
1239.65 -422.45 2671.2
1238.45 -406.16 2568.2
1204.13 -392.79 2483.7
1209.79 -392.54 2482.1
1237.66 -399.46 2525.8
1251.71 -401.87 2541.1
1269.77 -405.53 2564.2
1273.82 -402.61 2545.8
1263.99 -397.44 2513.1
1235.26 -386.41 2443.4
1224.62 -381.13 2410.0
1267.67 -388.58 2457.1
1254.03 -382.48 2418.5
1240.23 -376.39 2380.0
1292.64 -380.92 2408.6
1318.66 -386.72 2445.3
1298.58 -379.01 2396.6
1314.87 -380.13 2403.6
1387.69 -397.41 2512.9
1396.39 -394.35 2493.6
1421.73 -399.66 2527.1
1379.74 -382.56 2419.0
1391.39 -384.05 2428.4
1397.14 -383.90 2427.5
1392.46 -380.90 2408.5
1208.21 -420.84 2618.1
1175.92 -407.30 2533.9
1239.51 -426.94 2656.1
1189.87 -403.13 2507.9
1179.01 -397.27 2471.5
1221.91 -409.50 2547.6
1240.19 -413.40 2571.8
1219.28 -404.25 2514.9
1238.45 -408.43 2540.9
1253.81 -411.30 2558.8
1253.93 -409.18 2545.6
1253.55 -406.91 2531.5
1251.34 -404.08 2513.9
1246.39 -400.40 2490.9
1240.46 -396.43 2466.3
1246.92 -396.46 2466.4
1269.97 -401.72 2499.2
1292.95 -404.86 2518.7
1259.10 -392.28 2440.5
1274.60 -395.12 2458.1
1278.72 -394.43 2453.8
1275.94 -391.62 2436.4
1297.97 -396.43 2466.2
1286.80 -391.09 2433.0
1295.28 -389.84 2425.3
1377.43 -408.61 2542.1
1382.07 -408.04 2538.5
1368.16 -402.02 2501.0
1360.29 -397.82 2474.9
1350.88 -393.21 2446.3
1357.20 -393.21 2446.2
1377.98 -397.37 2472.1
1368.86 -392.91 2444.4
1403.81 -401.09 2495.3
1214.19 -434.62 2661.0
1154.59 -404.10 2474.1
1177.38 -407.55 2495.2
1210.25 -416.64 2550.9
1176.06 -402.67 2465.3
1194.54 -406.79 2490.6
1241.08 -415.89 2546.3
1187.65 -395.88 2423.8
1206.29 -399.98 2448.9
1225.91 -404.36 2475.7
1213.89 -398.31 2438.6
1199.49 -391.54 2397.2
1218.71 -395.77 2423.1
1252.31 -404.59 2477.1
1235.03 -396.97 2430.5
1234.66 -394.84 2417.4
1273.09 -405.07 2480.0
1292.72 -409.25 2505.6
1297.09 -402.55 2464.6
1317.39 -406.84 2490.9
1318.27 -405.13 2480.4
1339.26 -403.70 2471.6
1363.64 -409.09 2504.7
1372.00 -409.65 2508.1
1363.85 -403.39 2469.8
1327.42 -388.97 2381.4
1340.38 -390.94 2393.5
1211.11 -435.46 2624.4
1227.98 -439.05 2646.1
1178.03 -418.85 2524.3
1146.03 -405.23 2442.2
1201.46 -422.49 2546.3
1215.52 -420.51 2534.3
1239.78 -426.59 2571.0
1212.49 -412.76 2487.6
1211.02 -405.79 2445.6
1228.03 -409.34 2467.0
1228.30 -407.31 2454.8
1263.64 -416.87 2512.4
1274.66 -418.35 2521.3
1232.83 -402.56 2426.1
1237.85 -402.14 2423.6
1280.80 -414.00 2495.1
1246.48 -400.88 2416.0
1261.92 -403.82 2433.7
1297.59 -409.09 2465.5
1302.62 -408.66 2462.9
1309.02 -408.67 2463.0
1302.06 -398.72 2403.0
1318.84 -400.03 2410.9
1358.95 -410.25 2472.5
1314.09 -393.00 2368.5
1383.03 -407.90 2458.3
1394.52 -403.84 2433.9
1217.32 -444.53 2637.9
1187.19 -431.10 2558.2
1179.71 -426.01 2527.9
1182.59 -424.69 2520.1
1183.74 -422.77 2508.7
1175.52 -417.53 2477.7
1170.14 -413.37 2452.9
1158.67 -407.10 2415.8
1176.66 -411.20 2440.1
1196.05 -415.74 2467.0
1190.85 -411.73 2443.2
1180.32 -405.93 2408.8
1196.12 -407.06 2415.5
1234.22 -417.83 2479.5
1256.21 -423.07 2510.6
1254.77 -420.41 2494.8
1230.50 -410.17 2434.0
1206.43 -400.09 2374.2
1223.94 -403.84 2396.4
1251.02 -410.69 2437.0
1237.06 -398.06 2362.1
1277.35 -409.00 2427.1
1285.08 -409.46 2429.8
1294.20 -410.36 2435.1
1299.61 -410.07 2433.4
1329.33 -417.42 2477.0
1334.15 -414.93 2462.2
1353.74 -415.06 2463.0
1384.97 -422.64 2508.0
1346.30 -408.92 2426.6
1349.69 -408.05 2421.4
1351.12 -406.59 2412.7
1342.32 -402.08 2386.0
1402.52 -414.38 2459.0
1213.57 -449.98 2629.7
1199.67 -442.33 2585.1
1208.12 -442.98 2588.8
1180.49 -430.46 2515.6
1152.54 -417.95 2442.6
1146.30 -413.42 2416.1
1175.82 -417.23 2438.3
1166.31 -411.64 2405.7
1195.01 -415.11 2426.0
1186.06 -409.84 2395.2
1190.19 -409.13 2391.0
1185.42 -399.17 2332.8
1218.13 -408.10 2385.0
1261.88 -420.63 2458.2
1251.53 -415.08 2425.8
1220.11 -402.64 2353.1
1225.81 -398.54 2329.1
1285.41 -413.84 2418.5
1322.34 -421.62 2464.0
1305.73 -414.32 2421.3
1300.73 -410.76 2400.5
1343.29 -418.19 2444.0
1366.13 -415.51 2428.3
1386.88 -416.06 2431.5
1381.62 -410.75 2400.5
1216.70 -455.41 2621.8
1226.49 -456.53 2628.2
1201.89 -444.90 2561.3
1190.49 -438.26 2523.0
1197.98 -438.60 2525.0
1178.67 -429.19 2470.8
1166.40 -422.42 2431.9
1196.43 -430.97 2481.1
1185.29 -424.68 2444.8
1176.59 -419.32 2414.0
1230.36 -436.16 2510.9
1250.10 -438.52 2524.5
1229.84 -429.16 2470.7
1181.06 -405.80 2336.2
1231.57 -420.99 2423.6
1270.30 -432.03 2487.2
1261.52 -424.73 2445.2
1257.45 -421.25 2425.1
1248.27 -416.09 2395.4
1218.33 -404.10 2326.4
1280.80 -418.60 2409.9
1316.75 -426.19 2453.6
1333.66 -423.49 2438.0
1337.60 -422.73 2433.6
1352.03 -425.29 2448.3
1372.95 -423.91 2440.4
1355.40 -416.57 2398.2
1364.16 -413.57 2380.9
1210.93 -475.97 2699.8
1226.11 -479.17 2718.0
1205.66 -460.59 2612.6
1170.95 -444.83 2523.2
1163.82 -439.67 2493.9
1167.48 -438.61 2487.9
1182.48 -441.80 2506.0
1200.09 -445.93 2529.5
1190.15 -439.84 2494.9
