ply
format ascii 1.0
element vertex 2117
property float x
property float y
property float z
end_header
-750.69 43.73 2811.2
-731.61 43.04 2766.6
-726.95 43.62 2804.0
-681.54 41.73 2682.5
-675.74 41.80 2687.0
-668.21 41.76 2684.8
-669.30 42.27 2717.5
-677.10 43.22 2778.4
-663.07 43.72 2810.5
-637.08 42.47 2730.3
-634.30 43.25 2780.2
-632.95 43.65 2806.2
-618.40 43.14 2773.6
-622.52 43.94 2824.9
-595.49 43.57 2801.1
-570.04 42.23 2714.5
-573.45 43.01 2764.8
-561.59 43.76 2813.2
-544.13 42.96 2761.6
-551.36 44.11 2835.6
-551.99 44.76 2877.2
-536.24 44.07 2833.4
-520.15 43.35 2786.5
-516.24 43.63 2804.5
-520.10 44.58 2865.8
-514.31 44.72 2875.0
-499.27 44.05 2832.0
-495.91 44.41 2854.9
-493.44 44.86 2883.7
-758.34 35.77 2759.5
-747.48 35.59 2745.9
-742.67 35.71 2754.4
-726.20 35.25 2719.5
-706.15 35.31 2723.7
-708.98 35.81 2762.2
-703.97 35.92 2770.7
-698.20 35.99 2776.3
-680.31 35.43 2733.4
-670.52 35.29 2722.4
-669.78 35.63 2748.3
-672.19 36.14 2787.9
-664.19 36.10 2784.7
-647.48 35.58 2744.4
-647.55 35.98 2775.2
-655.79 36.84 2842.1
-640.01 36.78 2837.5
-611.68 35.56 2743.4
-604.25 35.54 2742.0
-603.21 35.91 2769.9
-587.73 35.41 2731.3
-564.94 35.31 2723.8
-578.02 36.58 2822.2
-563.66 36.13 2787.3
-551.64 37.27 2875.3
-508.16 36.82 2840.7
-492.00 36.18 2790.7
-487.20 36.36 2804.8
-493.80 37.41 2885.8
-820.52 29.84 2877.1
-807.09 29.62 2856.0
-799.41 29.61 2855.0
-785.32 29.36 2830.9
-772.67 29.16 2811.6
-768.78 29.29 2824.1
-771.33 29.67 2860.7
-746.09 28.97 2794.0
-704.02 28.45 2742.9
-713.35 29.12 2807.6
-698.70 28.81 2778.3
-673.08 28.05 2704.4
-669.11 28.17 2716.7
-672.88 28.63 2761.0
-658.15 28.31 2729.6
-637.57 28.34 2732.5
-645.91 29.03 2799.3
-645.24 29.33 2828.2
-632.37 29.41 2836.2
-612.45 28.82 2779.2
-600.04 28.57 2755.3
-600.57 28.94 2791.0
-595.73 29.06 2802.2
-567.61 28.74 2771.3
-531.12 28.71 2768.4
-515.05 29.86 2879.1
-474.34 29.65 2858.8
-822.18 22.42 2883.0
-795.48 22.51 2894.6
-784.29 22.41 2881.1
-773.69 22.32 2869.4
-734.75 21.40 2751.5
-709.00 21.06 2707.6
-714.97 21.45 2757.7
-679.62 21.24 2730.6
-666.01 21.03 2704.1
-681.65 21.75 2797.1
-678.55 21.89 2814.3
-648.22 21.14 2717.7
-636.49 20.98 2697.9
-638.27 21.28 2735.4
-637.38 21.48 2762.3
-642.59 21.91 2816.5
-633.91 22.11 2843.1
-610.95 21.56 2772.4
-616.65 22.02 2831.5
-590.64 21.88 2812.6
-581.42 21.80 2803.3
-560.00 22.40 2880.0
-534.33 21.66 2785.1
-532.57 21.89 2814.0
-537.26 22.39 2878.2
-532.04 22.48 2890.4
-511.71 22.25 2860.5
-492.37 21.72 2792.8
-485.17 21.72 2793.1
-470.59 22.06 2836.1
-791.40 15.07 2907.2
-762.24 14.66 2827.0
-747.15 14.51 2797.9
-735.06 14.70 2835.2
-698.07 14.70 2834.3
-668.64 14.54 2803.3
-657.86 14.46 2788.4
-661.68 14.70 2835.8
-657.63 14.78 2850.1
-642.91 14.78 2850.4
-605.84 14.09 2717.2
-603.96 14.55 2806.7
-597.63 14.58 2811.1
-580.99 14.35 2766.6
-586.71 14.67 2828.8
-530.90 14.55 2805.2
-513.79 14.27 2752.4
-508.55 14.53 2802.2
-505.38 14.65 2825.1
-503.84 14.82 2857.9
-501.27 14.96 2885.7
-491.13 14.88 2870.2
-484.06 14.89 2872.5
-798.73 7.46 2879.3
-774.49 7.45 2872.4
-765.47 7.43 2866.5
-736.80 7.22 2786.2
-717.50 7.17 2767.5
-680.91 7.32 2824.1
-656.59 7.14 2752.8
-651.44 7.16 2761.2
-650.33 7.23 2787.1
-641.67 7.21 2780.9
-637.04 7.24 2792.2
-611.68 7.03 2711.9
-605.42 7.04 2715.3
-608.39 7.16 2760.8
-584.95 7.13 2751.5
-599.08 7.40 2852.8
-582.04 7.28 2806.3
-570.85 7.23 2787.1
-559.35 7.17 2766.0
-550.74 7.44 2870.6
-530.67 7.37 2842.9
-518.84 7.31 2818.6
-523.37 7.48 2883.9
-492.49 7.46 2878.2
-480.10 7.50 2893.4
-470.69 7.47 2881.8
-813.98 -0.00 2854.2
-783.23 -0.00 2823.4
-779.87 -0.00 2837.8
-780.11 -0.00 2865.7
-768.76 -0.00 2851.2
-756.45 -0.00 2832.7
-724.02 -0.00 2737.9
-709.47 -0.00 2736.5
-728.92 -0.00 2839.9
-711.42 -0.00 2800.0
-685.08 -0.00 2724.2
-673.60 -0.00 2706.4
-687.08 -0.00 2789.6
-678.57 -0.00 2814.4
-657.28 -0.00 2755.7
-621.30 -0.00 2786.6
-615.18 -0.00 2824.8
-587.35 -0.00 2729.5
-600.75 -0.00 2825.8
-591.18 -0.00 2850.3
-576.47 -0.00 2814.6
-562.12 -0.00 2779.7
-547.95 -0.00 2744.8
-541.68 -0.00 2749.1
-536.92 -0.00 2761.3
-553.94 -0.00 2887.3
-531.77 -0.00 2848.8
-512.50 -0.00 2784.2
-510.34 -0.00 2812.1
-512.78 -0.00 2866.5
-509.74 -0.00 2891.4
-502.81 -0.00 2894.7
-467.31 -0.00 2861.1
-798.19 -7.46 2877.3
-788.08 -7.43 2867.7
-780.90 -7.44 2868.6
-757.57 -7.28 2809.7
-707.29 -7.14 2755.7
-702.06 -7.16 2763.2
-688.49 -7.10 2737.7
-679.90 -7.16 2760.5
-677.93 -7.37 2842.3
-647.53 -7.12 2744.6
-623.70 -7.09 2733.7
-616.52 -7.09 2733.3
-602.19 -7.17 2765.2
-602.29 -7.26 2798.9
-603.46 -7.36 2838.6
-603.40 -7.45 2873.3
-594.23 -7.43 2865.0
-590.91 -7.48 2885.1
-589.08 -7.55 2913.0
-562.75 -7.40 2856.1
-543.02 -7.24 2792.7
-538.49 -7.28 2806.8
-522.35 -7.16 2760.0
-514.71 -7.15 2757.4
-513.77 -7.24 2791.1
-499.62 -7.14 2753.0
-496.37 -7.30 2815.6
-497.85 -7.43 2866.1
-490.80 -7.44 2868.3
-480.74 -7.40 2852.8
-800.25 -14.82 2858.0
-793.11 -14.82 2859.0
-790.99 -14.92 2878.3
-770.88 -14.97 2886.8
-740.12 -14.51 2798.8
-714.84 -14.16 2729.9
-707.20 -14.14 2727.8
-711.51 -14.37 2772.1
-705.50 -14.40 2776.7
-701.90 -14.47 2791.1
-694.85 -14.48 2791.8
-688.02 -14.48 2793.5
-693.74 -14.76 2846.6
-668.41 -14.53 2802.4
-661.76 -14.54 2805.0
-661.23 -14.69 2833.8
-654.93 -14.72 2838.4
-644.82 -14.66 2826.3
-608.57 -14.49 2794.5
-610.70 -14.72 2838.0
-613.43 -14.96 2885.5
-604.42 -14.92 2878.2
-587.11 -14.68 2830.7
-586.29 -14.84 2862.5
-587.49 -15.06 2905.2
-561.97 -14.79 2852.1
-537.86 -14.34 2766.2
-529.25 -14.30 2758.7
-529.60 -14.51 2798.3
-538.37 -14.95 2884.1
-524.44 -14.98 2889.8
-510.84 -14.81 2855.6
-512.17 -15.06 2905.2
-797.54 -22.15 2848.4
-785.34 -22.02 2831.0
-780.11 -22.08 2838.7
-740.16 -21.98 2826.6
-716.23 -21.49 2762.6
-703.29 -21.31 2740.1
-704.26 -21.56 2771.9
-707.25 -21.87 2812.4
-698.46 -21.83 2806.3
-688.97 -21.76 2797.3
-681.42 -21.75 2796.1
-666.36 -21.50 2763.7
-653.55 -21.31 2740.1
-656.01 -21.63 2780.6
-647.59 -21.59 2775.4
-632.21 -21.31 2739.9
-655.05 -22.33 2871.1
-647.52 -22.33 2870.8
-612.89 -21.63 2781.2
-625.62 -22.61 2907.4
-606.56 -22.19 2853.2
-554.59 -21.61 2778.1
-549.79 -21.70 2790.3
-541.67 -21.67 2785.7
-537.35 -21.78 2800.8
-542.24 -22.28 2865.1
-538.18 -22.42 2883.1
-525.16 -22.19 2853.0
-520.68 -22.31 2869.1
-517.17 -22.49 2891.0
-505.56 -22.30 2867.7
-496.12 -22.21 2856.1
-764.84 -29.14 2809.6
-773.67 -29.76 2869.4
-758.21 -29.45 2839.4
-730.12 -28.63 2760.9
-732.03 -28.99 2795.6
-737.54 -29.50 2844.8
-720.68 -29.12 2807.8
-717.29 -29.28 2823.2
-699.24 -29.44 2839.0
-679.27 -28.91 2787.3
-677.83 -29.15 2811.3
-676.97 -29.43 2838.2
-657.83 -28.92 2788.3
-656.37 -29.83 2876.9
-632.89 -29.78 2871.9
-621.53 -29.60 2854.0
-614.88 -29.63 2857.4
-598.02 -29.17 2813.0
-568.83 -29.17 2812.9
-571.22 -29.67 2861.4
-564.66 -29.72 2865.7
-550.63 -29.37 2831.8
-542.04 -29.30 2825.3
-531.07 -29.10 2806.0
-506.86 -28.56 2753.6
-510.85 -29.19 2814.9
-783.70 -36.62 2825.1
-749.96 -36.06 2781.4
-755.10 -36.66 2827.7
-733.42 -35.95 2773.4
-742.40 -36.75 2835.2
-713.82 -36.42 2809.5
-690.64 -35.60 2746.3
-690.45 -35.96 2774.1
-672.20 -35.38 2729.2
-672.62 -35.78 2760.0
-672.78 -36.56 2820.6
-635.55 -35.71 2754.4
-650.34 -36.95 2850.5
-652.55 -37.50 2893.1
-626.83 -37.31 2878.3
-615.70 -37.09 2861.3
-610.06 -37.20 2869.6
-601.09 -37.10 2862.3
-602.91 -37.68 2906.9
-587.25 -37.64 2904.0
-558.48 -36.26 2797.6
-569.09 -37.44 2888.2
-545.80 -36.88 2844.9
-518.97 -35.55 2742.1
-522.78 -36.82 2840.1
-525.47 -37.53 2895.5
-505.52 -36.63 2825.9
-485.15 -36.20 2792.9
-484.69 -36.72 2832.6
-799.98 -44.86 2883.8
-777.13 -43.99 2827.8
-746.82 -43.50 2796.7
-754.61 -44.39 2853.6
-749.21 -44.51 2861.2
-708.38 -43.37 2788.1
-665.73 -42.49 2731.7
-669.82 -43.21 2778.1
-638.51 -42.10 2706.4
-665.71 -44.38 2853.0
-650.59 -43.86 2819.6
-637.86 -43.49 2795.8
-638.45 -44.03 2830.6
-633.85 -44.22 2842.9
-631.34 -44.57 2864.9
-619.15 -44.22 2843.0
-617.78 -44.66 2870.9
-606.62 -44.93 2888.7
-581.28 -44.71 2874.5
-555.13 -43.26 2780.8
-566.94 -44.76 2877.3
-548.41 -44.47 2858.5
-522.85 -42.97 2762.6
-518.14 -43.18 2775.7
-522.58 -44.16 2839.0
-519.38 -44.52 2861.9
-511.49 -44.48 2859.3
-501.53 -44.25 2844.8
-495.91 -44.41 2854.9
-488.21 -44.38 2853.2
-759.51 -50.63 2790.0
-746.40 -51.22 2822.5
-739.22 -51.75 2851.3
-719.36 -50.86 2802.7
-699.73 -49.98 2754.1
-683.86 -50.39 2776.6
-670.91 -49.96 2753.0
-662.25 -52.09 2870.1
-635.61 -50.56 2786.0
-621.26 -49.99 2754.4
-616.85 -50.21 2766.6
-614.75 -50.63 2789.6
-597.21 -49.77 2742.3
-607.52 -51.86 2857.7
-607.62 -52.51 2893.4
-584.18 -51.12 2816.6
-570.16 -50.52 2783.8
-561.84 -50.42 2778.3
-554.13 -50.38 2775.8
-560.35 -51.61 2843.9
-559.16 -52.19 2875.7
-543.68 -51.43 2833.9
-525.81 -50.42 2778.2
-501.51 -50.15 2763.4
-495.98 -50.32 2772.5
-489.70 -50.41 2777.7
-488.02 -50.99 2809.5
-488.02 -51.76 2852.1
-767.79 -57.95 2793.8
-769.98 -58.66 2828.5
-776.16 -59.70 2878.6
-732.18 -57.99 2796.1
-735.92 -58.87 2838.6
-704.17 -56.90 2743.5
-694.83 -58.51 2821.1
-685.08 -58.31 2811.1
-662.97 -57.03 2749.6
-666.43 -57.95 2794.0
-645.59 -58.03 2797.9
-621.67 -57.17 2756.2
-637.71 -59.32 2860.2
-627.20 -59.03 2846.1
-603.77 -57.50 2772.4
-602.59 -58.08 2800.3
-608.00 -60.05 2895.2
-555.49 -58.47 2819.2
-557.41 -59.46 2866.7
-545.16 -58.94 2841.6
-533.59 -58.48 2819.4
-523.41 -58.16 2804.0
-510.04 -57.47 2770.9
-505.05 -57.72 2783.0
-514.44 -59.64 2875.7
-490.36 -59.44 2865.7
-779.65 -66.83 2864.0
-753.16 -65.81 2820.4
-749.36 -66.77 2861.8
-704.87 -64.08 2746.3
-678.26 -63.59 2725.1
-692.88 -65.64 2813.2
-657.58 -64.33 2756.9
-632.90 -62.59 2682.6
-649.94 -64.99 2785.4
-636.11 -64.33 2756.8
-617.31 -63.13 2705.8
-633.74 -65.56 2809.7
-632.89 -66.23 2838.5
-606.30 -64.20 2751.3
-603.95 -64.71 2773.3
-566.99 -66.27 2840.2
-558.53 -67.02 2872.4
-544.38 -66.21 2837.5
-532.63 -65.67 2814.3
-529.98 -66.25 2839.2
-523.23 -66.32 2842.5
-519.31 -66.77 2861.5
-484.27 -67.05 2873.7
-484.06 -68.07 2917.3
-777.77 -73.37 2830.2
-770.41 -73.37 2830.1
-756.29 -72.72 2804.9
-737.85 -73.78 2846.0
-702.59 -70.97 2737.4
-676.97 -69.08 2664.5
-670.01 -69.79 2692.0
-662.41 -72.00 2777.2
-639.67 -71.87 2772.3
-622.41 -72.37 2791.5
-596.47 -71.01 2738.9
-603.78 -72.74 2805.9
-605.97 -73.90 2850.4
-592.52 -73.15 2821.5
-574.39 -74.60 2877.3
-539.07 -72.85 2809.8
-525.72 -72.02 2777.8
-521.15 -72.38 2791.9
-513.78 -72.36 2791.2
-508.74 -72.68 2803.3
-512.79 -74.32 2866.5
-507.32 -74.61 2877.7
-768.54 -82.08 2878.0
-748.76 -81.55 2859.5
-718.73 -79.06 2772.3
-711.74 -79.08 2773.0
-689.24 -77.36 2712.7
-677.50 -76.83 2694.1
-659.58 -75.58 2650.1
-661.47 -76.59 2685.7
-672.65 -78.71 2760.1
-651.13 -77.02 2700.5
-647.99 -77.48 2716.7
-644.07 -77.85 2730.0
-639.47 -79.93 2802.9
-635.85 -80.40 2819.1
-627.59 -80.27 2814.8
-621.71 -80.46 2821.2
-610.47 -79.94 2803.2
-608.36 -80.63 2827.2
-567.82 -79.06 2772.3
-565.15 -80.74 2831.0
-553.35 -82.25 2884.2
-545.76 -82.24 2883.7
-535.23 -81.77 2867.3
-521.35 -80.77 2832.3
-502.46 -78.96 2768.7
-496.70 -80.35 2817.4
-504.32 -82.80 2903.4
-717.31 -85.22 2739.4
-701.10 -86.73 2787.9
-670.64 -83.83 2694.5
-652.10 -82.37 2647.6
-645.23 -83.26 2676.1
-666.72 -86.96 2795.3
-658.94 -86.89 2793.0
-619.86 -84.53 2716.9
-618.87 -85.36 2743.8
-612.97 -85.53 2749.2
-615.85 -86.94 2794.6
-612.55 -87.51 2812.7
-607.27 -87.80 2822.1
-575.73 -88.57 2847.0
-553.18 -86.21 2771.0
-545.10 -86.07 2766.5
-554.41 -88.71 2851.2
-545.16 -89.62 2880.5
-530.61 -88.43 2842.5
-518.78 -87.68 2818.3
-496.35 -86.32 2774.6
-503.61 -88.87 2856.6
-783.69 -96.11 2851.7
-772.09 -95.59 2836.2
-770.18 -96.27 2856.4
-757.33 -95.59 2836.1
-724.64 -94.20 2795.1
-723.81 -95.05 2820.0
-699.55 -94.73 2810.7
-682.65 -93.41 2771.6
-675.63 -93.44 2772.3
-637.55 -91.08 2702.3
-634.31 -91.62 2718.5
-637.74 -95.29 2827.4
-607.70 -91.86 2725.6
-608.46 -94.17 2794.0
-606.25 -96.11 2851.7
-570.93 -95.15 2823.3
-559.59 -94.48 2803.1
-551.63 -94.36 2799.6
-561.61 -97.35 2888.3
-553.07 -97.16 2882.8
-528.58 -94.13 2792.9
-523.05 -94.44 2802.0
-519.82 -95.18 2824.0
-504.35 -93.66 2779.1
-499.83 -94.17 2794.1
-504.09 -96.37 2859.3
-504.07 -97.81 2901.9
-754.76 -101.60 2799.3
-745.04 -102.26 2817.4
-690.24 -101.72 2802.5
-665.39 -99.10 2730.3
-663.39 -99.87 2751.4
-647.14 -98.48 2713.2
-641.52 -99.79 2749.4
-645.09 -101.48 2795.7
-627.76 -99.87 2751.5
-613.27 -98.69 2718.9
-604.37 -100.73 2775.2
-586.66 -100.16 2759.6
-557.61 -100.08 2757.4
-565.60 -102.84 2833.3
-553.03 -104.63 2882.6
-528.34 -101.33 2791.6
-523.18 -101.73 2802.8
-532.98 -105.10 2895.5
-530.00 -106.00 2920.4
-519.50 -105.41 2904.0
-742.92 -109.25 2809.4
-721.76 -108.26 2783.9
-693.13 -105.02 2700.5
-666.80 -103.11 2651.5
-692.43 -108.19 2782.1
-672.49 -106.18 2730.4
-652.32 -104.09 2676.7
-654.20 -105.52 2713.3
-635.95 -103.69 2666.2
-625.11 -104.19 2679.1
-625.71 -105.46 2711.8
-624.59 -106.46 2737.6
-625.31 -107.81 2772.3
-607.59 -105.98 2725.1
-609.46 -107.55 2765.6
-613.46 -109.55 2816.9
-596.39 -107.78 2771.5
-588.68 -107.69 2769.1
-580.17 -107.44 2762.7
-553.62 -107.85 2773.2
-554.43 -109.43 2813.8
-542.44 -108.49 2789.7
-534.52 -108.35 2786.1
-522.62 -110.41 2839.2
-528.88 -113.33 2914.2
-527.54 -114.68 2949.0
-738.31 -114.69 2764.8
-737.49 -115.68 2788.8
-721.61 -114.31 2755.8
-695.61 -111.30 2683.1
-700.51 -113.21 2729.3
-694.36 -113.36 2732.9
-684.28 -112.87 2721.0
-686.57 -114.43 2758.5
-670.51 -112.93 2722.4
-655.10 -111.51 2688.1
-630.73 -112.13 2703.1
-635.08 -114.17 2752.4
-636.97 -115.81 2791.9
-634.04 -116.61 2811.0
-614.05 -114.24 2754.1
-609.61 -114.75 2766.3
-606.17 -115.46 2783.4
-600.11 -115.68 2788.8
-602.55 -117.57 2834.3
-578.60 -117.18 2825.0
-559.48 -114.77 2766.7
-557.47 -115.84 2792.5
-553.60 -116.55 2809.6
-549.25 -117.17 2824.7
-548.59 -118.61 2859.4
-547.56 -120.01 2893.2
-528.90 -119.19 2873.3
-516.09 -121.43 2927.4
-734.11 -121.16 2749.1
-731.79 -121.97 2767.3
-716.22 -120.55 2735.2
-700.44 -120.28 2729.0
-706.34 -122.53 2780.1
-709.31 -124.31 2820.5
-684.54 -122.50 2779.3
-666.85 -120.60 2736.3
-645.87 -118.06 2678.7
-637.99 -119.19 2704.2
-651.55 -123.07 2792.4
-639.06 -122.07 2769.6
-620.90 -119.95 2721.5
-601.22 -117.48 2665.5
-602.02 -120.40 2731.9
-605.89 -122.62 2782.2
-607.40 -124.41 2822.7
-591.26 -122.58 2781.2
-585.80 -122.94 2789.5
-570.11 -124.26 2819.3
-554.68 -122.46 2778.5
-566.09 -126.63 2873.0
-534.27 -127.92 2902.5
-517.23 -127.43 2891.3
-730.94 -128.99 2764.1
-723.48 -128.94 2762.9
-710.25 -127.85 2739.5
-701.60 -127.56 2733.5
-691.75 -127.06 2722.6
-694.61 -128.90 2762.1
-692.94 -129.93 2784.1
-679.44 -128.74 2758.6
-668.44 -128.00 2742.8
-664.29 -128.57 2755.1
-658.69 -128.88 2761.6
-653.98 -129.36 2772.0
-649.89 -129.98 2785.2
-633.15 -128.05 2744.0
-611.50 -125.08 2680.3
-615.88 -127.42 2730.5
-610.71 -130.87 2804.3
-598.93 -129.89 2783.3
-582.25 -131.01 2807.3
-575.99 -132.92 2848.3
-555.61 -133.35 2857.4
-533.30 -135.20 2897.2
-528.53 -135.91 2912.3
-727.95 -136.94 2780.0
-715.68 -135.98 2760.5
-707.48 -135.78 2756.4
-694.87 -134.72 2734.9
-694.78 -136.09 2762.7
-701.30 -138.80 2817.7
-681.84 -137.82 2797.8
-675.69 -138.04 2802.4
-665.34 -137.41 2789.5
-655.74 -136.91 2779.4
-646.86 -136.56 2772.3
-626.11 -133.66 2713.5
-616.54 -133.12 2702.4
-631.41 -137.89 2799.4
-615.00 -137.47 2790.7
-606.18 -137.11 2783.5
-598.44 -136.99 2781.0
-574.06 -136.34 2767.8
-574.39 -138.15 2804.5
-576.32 -140.39 2849.9
-562.76 -138.86 2819.0
-542.38 -139.26 2827.1
-542.73 -141.26 2867.7
-541.78 -142.97 2902.4
-537.40 -143.81 2919.5
-524.90 -142.47 2892.3
-742.84 -142.85 2755.0
-748.03 -145.25 2801.2
-737.22 -145.98 2815.4
-725.12 -145.02 2796.9
-716.08 -144.66 2789.9
-703.14 -143.50 2767.5
-690.79 -142.43 2746.9
-684.33 -142.57 2749.5
-685.25 -144.26 2782.2
-679.39 -144.55 2787.8
-677.94 -145.79 2811.8
-672.44 -146.18 2819.2
-653.13 -143.55 2768.4
-634.30 -140.96 2718.4
-622.89 -139.98 2699.5
-622.46 -141.47 2728.3
-610.90 -140.44 2708.4
-598.80 -140.89 2717.2
-582.10 -143.73 2771.9
-574.80 -143.70 2771.4
-555.08 -146.07 2817.1
-549.95 -146.65 2828.3
-554.35 -149.83 2889.5
-560.59 -155.72 3003.2
-555.59 -156.50 3018.3
-540.17 -154.33 2976.4
-524.86 -154.37 2977.1
-524.03 -156.43 3016.8
-515.43 -156.19 3012.2
-722.00 -148.65 2730.2
-708.29 -147.27 2704.9
-694.20 -145.78 2677.6
-660.12 -144.40 2652.3
-660.80 -146.07 2683.0
-652.82 -145.84 2678.7
-650.47 -146.88 2697.8
-646.63 -147.60 2711.0
-631.03 -145.62 2674.7
-611.94 -146.03 2682.2
-613.01 -147.97 2717.8
-598.16 -149.54 2746.6
-587.57 -148.66 2730.5
-585.99 -150.07 2756.4
-580.58 -150.52 2764.7
-571.48 -150.01 2755.4
-584.06 -155.26 2851.7
-566.20 -156.45 2873.6
-556.74 -155.89 2863.2
-551.65 -156.55 2875.4
-543.34 -156.30 2870.9
-557.58 -162.63 2987.1
-542.12 -164.99 3030.5
-537.10 -165.87 3046.6
-755.33 -158.26 2774.7
-738.23 -156.16 2737.9
-731.34 -156.21 2738.7
-740.02 -159.61 2798.4
-715.02 -155.75 2730.6
-690.35 -151.88 2662.8
-696.28 -154.73 2712.8
-702.96 -157.81 2766.7
-676.73 -153.48 2691.0
-659.28 -152.68 2676.8
-654.86 -153.26 2687.1
-646.87 -153.02 2682.9
-637.51 -152.45 2672.8
-636.06 -159.02 2787.9
-638.41 -161.44 2830.4
-614.26 -157.14 2755.0
-594.13 -153.77 2696.0
-575.11 -154.30 2705.2
-578.45 -157.11 2754.5
-577.69 -158.86 2785.3
-573.77 -159.78 2801.4
-582.62 -164.33 2881.1
-537.90 -164.36 2881.6
-550.92 -170.71 2992.9
-546.98 -171.91 3013.9
-539.93 -172.15 3018.3
-742.02 -164.10 2752.0
-751.07 -167.72 2812.6
-723.27 -164.70 2762.1
-701.53 -161.35 2705.9
-711.08 -165.20 2770.4
-710.72 -166.80 2797.3
-676.88 -160.50 2691.6
-670.17 -162.25 2721.0
-666.58 -163.10 2735.2
-656.84 -162.44 2724.2
-652.94 -163.23 2737.5
-645.30 -163.10 2735.2
-641.52 -163.95 2749.4
-636.35 -168.23 2821.2
-629.81 -168.44 2824.7
-626.05 -169.40 2840.9
-602.03 -164.84 2764.4
-587.41 -162.78 2729.8
-596.21 -167.23 2804.5
-591.39 -170.03 2851.4
-571.68 -166.44 2791.2
-559.78 -165.06 2768.1
-569.51 -172.35 2890.4
-555.62 -170.39 2857.5
-542.25 -170.85 2865.1
-543.33 -178.52 2993.9
-539.50 -179.83 3015.9
-529.84 -179.21 3005.4
-522.79 -179.47 3009.7
-748.93 -172.83 2777.6
-729.07 -169.88 2730.2
-706.47 -167.87 2698.0
-718.21 -172.37 2770.2
-700.05 -169.71 2727.5
-673.61 -166.67 2678.6
-687.32 -171.83 2761.6
-686.54 -173.44 2787.5
-670.50 -171.19 2751.3
-665.63 -171.78 2760.7
-666.51 -173.87 2794.4
-664.00 -175.12 2814.4
-645.21 -173.99 2796.3
-613.68 -167.37 2689.8
-609.02 -168.00 2700.1
-618.21 -172.52 2772.7
-613.07 -173.10 2782.0
-586.22 -167.49 2691.8
-581.44 -168.13 2702.0
-600.06 -175.63 2822.6
-601.26 -178.15 2863.1
-575.49 -172.65 2774.7
-540.57 -185.34 2978.7
-536.43 -186.59 2998.7
-758.43 -182.31 2812.8
-743.64 -180.49 2784.8
-707.12 -175.03 2700.5
-731.62 -182.91 2822.0
-726.99 -183.58 2832.4
-704.12 -179.62 2771.3
-706.61 -182.12 2809.8
-694.21 -180.78 2789.2
-668.30 -175.87 2713.4
-658.82 -175.22 2703.4
-658.51 -177.02 2731.2
-668.25 -181.59 2801.7
-651.39 -182.98 2823.1
-623.35 -177.09 2732.2
-621.22 -178.51 2754.2
-613.98 -178.48 2753.7
-594.50 -174.85 2697.7
-590.59 -177.89 2744.5
-597.27 -182.09 2809.4
-585.78 -180.80 2789.4
-560.18 -194.51 3001.0
-556.09 -195.81 3021.0
-550.11 -196.47 3031.2
-536.00 -194.20 2996.2
-535.22 -196.77 3035.9
-768.44 -192.11 2850.0
-758.97 -191.58 2842.2
-729.88 -186.05 2760.1
-701.45 -180.57 2678.8
-703.21 -182.83 2712.4
-720.67 -189.27 2807.8
-706.50 -189.37 2809.3
-677.71 -183.55 2722.9
-660.31 -180.72 2681.0
-658.01 -182.00 2700.0
-650.92 -181.98 2699.7
-653.10 -184.57 2738.1
-657.60 -187.89 2787.3
-655.28 -189.30 2808.4
-643.67 -190.17 2821.3
-639.12 -191.00 2833.5
-630.82 -190.71 2829.3
-600.08 -190.27 2822.7
-591.84 -189.97 2818.3
-573.28 -186.32 2764.0
-564.00 -185.62 2753.7
-575.14 -191.71 2844.1
-570.20 -192.53 2856.3
-563.84 -192.89 2861.6
-563.36 -195.30 2897.3
-570.59 -200.48 2974.1
-732.17 -195.73 2796.1
-697.58 -188.35 2690.7
-689.15 -189.87 2712.4
-684.97 -190.66 2723.7
-670.61 -188.61 2694.4
-664.74 -188.93 2698.9
-650.16 -192.90 2755.8
-645.88 -193.76 2768.0
-640.86 -194.42 2777.4
-636.90 -195.41 2791.6
-638.14 -198.04 2829.2
-619.64 -194.54 2779.1
-610.41 -193.89 2769.9
-607.23 -199.94 2856.3
-592.35 -197.45 2820.7
-594.66 -200.70 2867.1
-575.77 -201.89 2884.2
-564.71 -200.62 2866.0
-560.60 -201.82 2883.1
-557.15 -203.28 2904.1
-741.64 -205.60 2832.3
-710.48 -198.93 2740.4
-698.11 -197.44 2719.9
-711.38 -203.25 2799.9
-705.28 -203.59 2804.5
-690.49 -201.39 2774.3
-688.95 -203.06 2797.3
-672.90 -200.44 2761.1
-651.65 -200.51 2762.1
-660.50 -205.49 2830.7
-651.51 -204.97 2823.6
-643.67 -204.80 2821.3
-620.62 -202.06 2783.5
-592.80 -199.98 2754.9
-593.27 -205.08 2825.1
-590.10 -206.53 2845.1
-570.20 -207.34 2856.3
-563.65 -207.66 2860.6
-562.97 -210.18 2895.3
-563.44 -213.19 2936.9
-560.17 -214.86 2959.8
-764.44 -211.13 2808.2
-766.23 -213.66 2841.8
-760.38 -214.09 2847.5
-738.18 -209.87 2791.4
-718.52 -206.31 2744.0
-713.11 -206.80 2750.5
-726.00 -212.67 2828.6
-703.13 -212.40 2825.1
-699.33 -213.48 2839.4
-668.12 -208.34 2771.0
-644.66 -203.21 2702.8
-656.80 -209.31 2783.9
-647.69 -208.70 2775.8
-620.90 -202.32 2690.9
-616.04 -203.01 2700.2
-616.62 -205.54 2733.8
-617.90 -208.36 2771.3
-599.76 -212.11 2821.2
-585.78 -209.73 2789.5
-582.50 -211.16 2808.5
-592.12 -217.36 2891.0
-586.10 -217.91 2898.3
-571.07 -215.08 2860.6
-566.44 -216.14 2874.8
-568.39 -219.78 2923.2
-559.14 -222.12 2954.4
-748.06 -213.73 2748.0
-760.49 -221.50 2847.9
-715.86 -210.55 2707.0
-715.61 -212.56 2732.9
-729.24 -218.77 2812.8
-729.34 -221.01 2841.6
-706.85 -220.89 2840.0
-684.89 -216.28 2780.7
-666.51 -212.72 2734.9
-654.20 -211.03 2713.3
-646.39 -210.78 2710.0
-646.83 -213.24 2741.7
-626.27 -208.76 2684.0
-598.70 -211.31 2716.8
-604.28 -215.82 2774.8
-605.59 -218.89 2814.3
-603.79 -220.90 2840.1
-590.59 -218.74 2812.3
-587.25 -220.22 2831.4
-571.14 -228.46 2937.3
-737.71 -222.03 2762.6
-728.10 -223.48 2780.6
-712.34 -220.82 2747.6
-693.80 -219.47 2730.7
-699.06 -223.41 2779.8
-700.46 -226.19 2814.3
-690.24 -225.24 2802.5
-668.74 -220.54 2744.1
-653.14 -217.71 2708.9
-638.17 -215.04 2675.6
-631.14 -215.00 2675.2
-630.00 -217.00 2700.0
-620.66 -216.19 2689.9
-614.70 -216.54 2694.3
-613.97 -218.77 2722.1
-607.03 -218.81 2722.6
-612.32 -223.32 2778.6
-608.20 -224.45 2792.7
-599.18 -223.79 2784.5
-598.70 -226.34 2816.2
-585.97 -224.26 2790.3
-584.89 -229.51 2855.7
-564.37 -233.27 2902.5
-786.33 -235.16 2834.6
-772.89 -233.33 2812.4
-745.16 -227.10 2737.3
-740.30 -232.25 2799.5
-738.56 -234.00 2820.5
-703.69 -225.18 2714.2
-679.23 -224.07 2700.9
-684.43 -228.14 2749.9
-691.77 -233.02 2808.7
-686.31 -233.64 2816.2
-669.83 -230.48 2778.1
-654.46 -227.64 2743.9
-646.81 -227.45 2741.6
-644.82 -229.27 2763.5
-633.98 -227.95 2747.6
-626.99 -228.00 2748.2
-614.23 -233.99 2820.4
-590.46 -227.65 2744.0
-577.86 -228.29 2751.7
-575.48 -230.19 2774.6
-571.30 -240.55 2899.5
-565.01 -241.07 2905.8
-561.69 -242.89 2927.7
-757.93 -233.75 2732.2
-748.18 -232.92 2722.5
-732.53 -234.70 2743.2
-740.41 -239.54 2799.9
-714.93 -233.59 2730.3
-718.80 -237.21 2772.5
-719.00 -239.67 2801.3
-696.47 -234.52 2741.2
-684.92 -233.01 2723.5
-683.33 -234.89 2745.5
-684.72 -237.85 2780.1
-667.77 -234.43 2740.1
-639.99 -229.56 2683.2
-645.07 -233.93 2734.2
-642.65 -235.64 2754.2
-630.94 -233.94 2734.4
-627.97 -235.49 2752.5
-606.27 -241.05 2817.4
-586.85 -236.17 2760.4
-583.89 -237.88 2780.4
-586.28 -241.84 2826.7
-563.45 -251.27 2936.9
-735.17 -238.05 2700.6
-738.24 -241.35 2738.0
-746.78 -246.51 2796.5
-735.67 -245.22 2781.9
-708.98 -238.67 2707.6
-710.40 -241.54 2740.1
-722.56 -248.15 2815.2
-711.53 -246.86 2800.5
-702.52 -246.24 2793.5
-703.88 -249.29 2828.1
-690.77 -247.22 2804.6
-660.08 -238.75 2708.5
-639.63 -236.38 2681.7
-633.72 -236.78 2686.1
-621.62 -237.47 2694.0
-629.17 -243.09 2757.7
-627.62 -245.28 2782.6
-618.37 -244.47 2773.4
-620.51 -248.21 2815.8
-615.24 -249.03 2825.1
-609.08 -249.50 2830.5
-602.68 -249.89 2834.9
-580.49 -243.66 2764.2
-571.33 -245.89 2789.5
-584.13 -254.62 2888.6
-576.93 -254.75 2890.0
-573.76 -256.68 2911.9
-564.45 -259.34 2942.1
-774.66 -251.05 2766.6
-752.55 -246.16 2712.8
-759.48 -250.77 2763.6
-759.86 -255.72 2818.2
-747.13 -253.88 2797.9
-741.62 -254.48 2804.5
-720.94 -249.83 2753.2
-715.50 -250.42 2759.8
-721.66 -255.13 2811.7
-716.04 -255.73 2818.2
-711.60 -256.76 2829.6
-704.93 -257.01 2832.3
-684.42 -252.16 2778.9
-667.48 -248.53 2738.9
-657.03 -247.27 2725.0
-651.27 -247.77 2730.5
-637.70 -245.27 2703.0
-626.98 -243.83 2687.1
-629.33 -247.49 2727.4
-629.25 -250.27 2758.1
-621.35 -249.97 2754.8
-591.55 -249.45 2749.0
-602.13 -257.01 2832.3
-597.14 -258.03 2843.5
-570.86 -249.75 2752.4
-571.80 -253.33 2791.8
-584.79 -262.41 2891.8
-577.77 -262.62 2894.2
-559.64 -264.69 2917.0
-777.71 -259.24 2777.5
-766.50 -257.89 2763.1
-718.51 -256.10 2744.0
-701.09 -252.39 2704.2
-706.40 -256.87 2752.2
-700.19 -257.21 2755.8
-692.74 -257.10 2754.6
-684.81 -256.80 2751.5
-673.55 -255.24 2734.7
-665.92 -255.03 2732.5
-646.85 -250.39 2682.8
-635.96 -251.59 2695.6
-641.78 -256.71 2750.5
-641.05 -259.30 2778.2
-637.75 -260.90 2795.3
-632.82 -261.86 2805.6
-583.67 -253.16 2712.4
-579.84 -254.56 2727.5
-585.75 -260.33 2789.3
-571.33 -257.10 2754.7
-576.47 -262.69 2814.6
-570.23 -270.11 2894.0
-783.10 -270.79 2822.9
-737.50 -257.43 2683.6
-739.04 -262.93 2741.0
-736.51 -269.81 2812.7
-707.63 -269.92 2813.9
-690.90 -266.29 2775.9
-671.26 -261.44 2725.4
-679.67 -267.53 2788.9
-676.81 -269.27 2807.0
-647.97 -260.60 2716.7
-637.87 -259.35 2703.7
-642.76 -264.25 2754.7
-641.80 -266.82 2781.5
-644.02 -270.78 2822.8
-624.66 -268.75 2801.7
-609.81 -265.45 2767.2
-606.77 -267.27 2786.2
-593.16 -264.42 2756.5
-570.14 -267.03 2783.7
-591.03 -280.36 2922.7
-583.94 -280.59 2925.1
-569.13 -277.08 2888.5
-555.65 -274.12 2857.6
-816.33 -279.47 2836.7
-773.60 -274.74 2788.7
-749.45 -276.50 2806.5
-728.14 -271.27 2753.5
-720.19 -270.96 2750.4
-682.21 -264.53 2685.1
-677.29 -270.92 2749.9
-676.18 -276.29 2804.4
-649.61 -271.26 2753.4
-638.08 -269.41 2734.6
-645.90 -275.78 2799.2
-625.17 -276.24 2803.9
-605.16 -270.54 2746.1
-598.37 -270.69 2747.6
-591.35 -270.74 2748.1
-581.79 -272.94 2770.4
-576.29 -280.76 2849.8
-570.74 -281.67 2859.0
-565.01 -286.27 2905.8
-824.59 -287.13 2839.8
-795.75 -284.72 2815.9
-772.62 -281.61 2785.1
-757.20 -278.59 2755.3
-750.28 -278.68 2756.1
-745.95 -279.73 2766.6
-728.21 -275.73 2727.0
-712.84 -278.01 2749.5
-723.22 -284.91 2817.7
-715.87 -284.89 2817.6
-670.22 -275.14 2721.2
-665.44 -282.09 2789.9
-639.06 -276.93 2738.8
-632.76 -277.28 2742.3
-630.65 -279.49 2764.2
-611.57 -274.15 2711.4
-606.17 -274.89 2718.7
-606.94 -278.48 2754.2
-609.23 -282.86 2797.5
-595.35 -283.16 2800.4
-589.03 -290.79 2875.9
-573.98 -286.99 2838.4
-566.71 -287.03 2838.8
-801.24 -294.03 2835.3
-765.18 -283.40 2732.8
-753.28 -281.60 2715.4
-744.09 -280.79 2707.6
-737.29 -280.87 2708.4
-733.85 -282.25 2721.7
-711.60 -276.35 2664.8
-723.15 -289.26 2789.3
-722.80 -292.04 2816.1
-702.95 -286.92 2766.7
-685.28 -282.59 2725.0
-662.53 -276.05 2661.9
-663.16 -279.22 2692.5
-672.11 -286.01 2757.9
-655.33 -281.86 2717.9
-658.58 -286.34 2761.1
-660.25 -290.22 2798.6
-634.61 -282.05 2719.7
-618.51 -277.98 2680.6
-609.05 -283.28 2731.6
-596.73 -280.81 2707.8
-586.21 -279.15 2691.8
-595.45 -286.96 2767.1
-584.24 -284.99 2748.2
-569.64 -281.31 2712.6
-558.34 -282.71 2726.1
-570.09 -292.35 2819.1
-575.52 -298.97 2883.0
-817.39 -301.92 2840.3
-798.57 -297.65 2800.2
-752.92 -285.83 2689.0
-771.70 -295.70 2781.8
-749.71 -289.98 2728.0
-731.62 -285.68 2687.6
-718.39 -283.21 2664.4
-706.06 -286.62 2696.4
-713.73 -292.63 2753.0
-695.16 -287.90 2708.4
-691.26 -289.20 2720.7
-687.53 -290.61 2733.9
-653.47 -282.02 2653.2
-677.83 -295.65 2781.4
-677.08 -298.50 2808.1
-656.80 -292.70 2753.7
-636.33 -286.70 2697.2
-628.34 -286.24 2692.9
-627.75 -289.19 2720.6
-619.94 -288.83 2717.3
-617.83 -291.16 2739.1
-621.23 -296.17 2786.3
-604.50 -291.58 2743.1
-576.88 -284.97 2680.9
-574.58 -287.29 2702.7
-568.88 -287.95 2709.0
-566.39 -290.28 2730.8
-578.16 -300.06 2822.8
-578.61 -304.14 2861.3
-573.43 -305.33 2872.5
-811.95 -307.23 2821.5
-768.81 -298.98 2745.8
-748.67 -299.47 2750.2
-707.39 -288.45 2649.0
-733.52 -302.04 2773.8
-728.02 -305.77 2808.1
-707.84 -300.30 2757.8
-704.06 -301.74 2771.1
-701.91 -303.92 2791.1
-672.99 -294.44 2704.0
-664.24 -293.66 2696.9
-684.72 -305.94 2809.6
-656.86 -299.87 2753.9
-647.81 -298.99 2745.8
-651.00 -303.80 2790.0
-644.58 -304.18 2793.5
-631.28 -301.29 2767.0
-625.54 -301.99 2773.3
-624.53 -305.00 2801.1
-620.60 -306.65 2816.2
-610.03 -305.02 2801.2
-603.72 -305.49 2805.6
-599.24 -306.93 2818.7
-591.42 -306.66 2816.3
-586.64 -307.98 2828.4
-564.90 -308.13 2829.8
-750.57 -301.63 2705.7
-727.07 -300.62 2696.6
-719.01 -300.17 2692.5
-697.51 -306.05 2745.3
-672.87 -298.28 2675.6
-673.06 -301.47 2704.2
-692.60 -313.49 2812.0
-661.99 -309.41 2775.4
-639.65 -302.25 2711.2
-642.92 -307.17 2755.4
-637.03 -307.78 2760.8
-640.84 -313.14 2808.9
-630.21 -315.10 2826.5
-605.03 -306.07 2745.5
-596.33 -305.26 2738.2
-591.42 -306.40 2748.4
-592.05 -310.46 2784.9
-588.40 -312.36 2801.9
-577.39 -310.35 2783.9
-576.85 -313.98 2816.4
-565.18 -319.77 2868.4
-726.46 -301.55 2643.5
-729.84 -311.78 2733.1
-732.36 -315.92 2769.4
-723.62 -315.24 2763.5
-712.42 -313.46 2747.9
-678.30 -301.47 2642.7
-646.36 -309.13 2709.9
-631.94 -305.55 2678.6
-642.74 -314.23 2754.6
-644.67 -318.71 2793.9
-624.63 -319.58 2801.5
-602.51 -311.89 2734.1
-597.01 -312.72 2741.4
-581.22 -308.12 2701.0
-571.01 -306.40 2685.9
-575.98 -324.91 2848.2
-775.38 -317.20 2718.9
-741.93 -312.03 2674.5
-734.50 -314.78 2698.2
-733.40 -317.34 2720.0
-717.59 -313.51 2687.2
-688.41 -326.09 2795.1
-666.28 -318.96 2734.0
-648.40 -313.74 2689.2
-633.27 -309.75 2655.0
-636.55 -314.78 2698.1
-644.82 -322.41 2763.5
-643.15 -325.19 2787.3
-633.19 -323.79 2775.3
-613.88 -317.52 2721.6
-620.99 -324.94 2785.2
-612.49 -328.12 2812.4
-574.58 -311.52 2670.2
-551.21 -313.98 2691.2
-766.11 -326.30 2736.1
-734.55 -315.79 2647.9
-722.37 -313.48 2628.6
-728.29 -319.06 2675.3
-718.97 -318.01 2666.5
-699.96 -312.60 2621.2
-721.29 -325.29 2727.6
-698.81 -321.45 2695.4
-677.92 -314.99 2641.3
-674.91 -316.79 2656.4
-665.04 -315.38 2644.5
-665.54 -318.90 2674.0
-655.67 -317.48 2662.1
-639.83 -316.47 2653.7
-645.99 -323.00 2708.4
-628.62 -317.76 2664.5
-614.16 -317.43 2661.7
-603.43 -319.05 2675.3
-626.22 -334.95 2808.6
-606.18 -331.96 2783.5
-584.24 -323.79 2715.0
-588.45 -330.10 2768.0
-575.45 -326.80 2740.2
-762.14 -331.67 2721.9
-746.02 -327.69 2689.3
-727.17 -322.42 2646.0
-726.25 -325.08 2667.9
-728.07 -329.03 2700.3
-720.00 -328.54 2696.2
-712.70 -328.40 2695.1
-699.62 -325.56 2671.8
-684.90 -321.90 2641.7
-684.15 -324.80 2665.5
-684.99 -328.51 2696.0
-677.68 -328.36 2694.8
-672.54 -329.26 2702.2
-657.62 -325.35 2670.0
-642.44 -324.67 2664.5
-657.32 -335.81 2755.9
-647.36 -334.35 2743.9
-634.97 -331.60 2721.3
-634.52 -335.08 2749.9
-622.00 -332.20 2726.3
-617.02 -333.33 2735.5
-621.49 -339.65 2787.4
-614.17 -339.60 2787.0
-597.97 -334.58 2745.8
-591.79 -335.11 2750.2
-596.12 -341.68 2804.0
-582.42 -337.95 2773.4
-564.43 -331.60 2721.4
-562.84 -334.85 2748.0
-760.89 -344.56 2768.8
-745.86 -340.96 2739.9
-734.58 -339.04 2724.4
-715.43 -333.41 2679.2
-699.29 -329.08 2644.4
-707.46 -336.22 2701.7
-716.09 -343.72 2762.1
-700.23 -339.51 2728.2
-684.29 -335.16 2693.3
-672.15 -332.61 2672.8
-662.51 -331.25 2661.9
-659.32 -333.13 2676.9
-651.36 -332.61 2672.7
-648.30 -334.60 2688.8
-655.52 -342.01 2748.3
-591.41 -342.02 2748.4
-565.60 -331.08 2660.5
-563.88 -334.15 2685.2
-558.01 -334.81 2690.4
-569.04 -345.75 2778.3
-555.27 -360.18 2894.3
-771.06 -349.83 2753.8
-761.24 -348.60 2744.1
-739.36 -341.78 2690.4
-712.27 -332.39 2616.5
-714.72 -336.74 2650.8
-708.56 -337.08 2653.4
-693.75 -333.27 2623.4
-704.73 -341.90 2691.3
-707.15 -346.51 2727.6
-684.72 -338.90 2667.8
-690.20 -345.10 2716.5
-699.79 -353.50 2782.7
-672.54 -350.58 2759.7
-650.66 -342.82 2698.6
-640.81 -341.30 2686.6
-632.39 -340.52 2680.4
-646.09 -351.76 2768.9
-648.86 -357.24 2812.1
-632.22 -352.03 2771.1
-623.63 -351.24 2764.9
-620.90 -353.77 2784.8
-617.22 -355.81 2800.8
-596.44 -352.12 2771.8
-571.14 -363.45 2861.0
-545.46 -366.13 2882.1
-769.08 -352.79 2721.5
-743.53 -344.23 2655.5
-747.21 -349.16 2693.6
-736.77 -347.53 2681.0
-723.52 -344.53 2657.8
-740.08 -355.81 2744.8
-718.58 -348.83 2690.9
-690.19 -341.68 2635.8
-680.54 -340.27 2625.0
-690.23 -352.16 2716.7
-701.02 -361.35 2787.6
-663.88 -353.13 2724.1
-641.15 -344.71 2659.2
-629.79 -342.28 2640.4
-619.28 -344.05 2654.1
-620.11 -348.38 2687.5
-604.66 -343.55 2650.3
-580.11 -345.31 2663.8
-585.82 -352.91 2722.4
-572.88 -349.32 2694.7
-543.71 -367.37 2834.0
-542.52 -371.59 2866.5
-785.71 -364.28 2755.1
-771.54 -360.99 2730.2
-750.25 -354.29 2679.5
-758.91 -361.73 2735.7
-754.94 -363.23 2747.1
-747.78 -363.21 2747.0
-727.06 -360.00 2722.7
-699.16 -349.58 2643.9
-700.53 -353.73 2675.3
-687.30 -350.52 2651.0
-674.68 -347.56 2628.6
-682.20 -355.02 2685.0
-682.90 -359.05 2715.5
-670.28 -356.09 2693.1
-657.76 -353.11 2670.6
-654.98 -355.36 2687.6
-662.34 -363.22 2747.0
-660.89 -366.36 2770.8
-655.67 -367.47 2779.2
-643.20 -364.48 2756.6
-626.16 -358.81 2713.7
-615.27 -356.58 2696.8
-608.62 -356.78 2698.3
-577.64 -359.27 2717.1
-581.29 -366.00 2768.0
-571.79 -364.51 2756.8
-558.95 -360.84 2729.1
-541.07 -358.37 2710.4
-552.89 -375.97 2843.4
-537.89 -381.01 2881.6
-724.75 -355.54 2637.2
-717.85 -355.51 2637.0
-724.64 -362.32 2687.5
-730.16 -368.62 2734.3
-712.21 -370.35 2747.1
-693.20 -364.11 2700.8
-695.90 -369.25 2739.0
-674.73 -373.25 2768.6
-664.82 -375.77 2787.3
-659.56 -376.89 2795.6
-647.73 -374.24 2776.0
-627.51 -366.64 2719.6
-612.87 -362.15 2686.3
-608.86 -363.91 2699.4
-585.86 -362.67 2690.2
-581.90 -364.56 2704.2
-592.71 -375.87 2788.0
-568.84 -384.15 2849.5
-561.15 -383.95 2848.0
-555.93 -385.44 2859.1
-545.85 -388.83 2884.2
-754.98 -373.96 2721.6
-720.31 -360.15 2621.1
-729.34 -368.14 2679.2
-722.86 -368.38 2680.9
-715.09 -367.96 2677.8
-721.52 -374.90 2728.4
-717.15 -376.33 2738.8
-700.06 -378.61 2755.4
-689.23 -376.59 2740.7
-650.34 -374.65 2726.6
-627.25 -365.32 2658.7
-634.68 -373.75 2720.0
-634.22 -377.68 2748.6
-626.12 -377.09 2744.3
-627.85 -382.48 2783.6
-613.20 -377.90 2750.2
-606.82 -378.37 2753.7
-605.49 -382.03 2780.3
-595.05 -379.97 2765.3
-586.74 -379.24 2759.9
-583.55 -381.83 2778.8
-584.09 -386.96 2816.2
-571.71 -383.55 2791.4
-565.15 -384.01 2794.7
-565.55 -389.27 2833.0
-554.26 -386.52 2813.0
-545.72 -385.64 2806.5
-553.63 -396.52 2885.7
-749.26 -374.63 2675.9
-735.57 -374.72 2676.6
-723.63 -372.15 2658.2
-702.83 -368.48 2632.0
-723.56 -383.06 2736.1
-716.66 -383.17 2736.9
-718.46 -387.97 2771.2
-712.21 -388.48 2774.8
-674.70 -371.77 2655.5
-662.09 -376.35 2688.2
-673.34 -386.81 2762.9
-647.60 -380.11 2715.1
-626.58 -375.95 2685.4
-641.58 -389.27 2780.5
-609.08 -391.55 2796.8
-585.47 -380.91 2720.8
-564.91 -372.02 2657.3
-558.92 -372.62 2661.5
-556.53 -375.66 2683.3
-562.37 -384.41 2745.8
-573.79 -397.24 2837.4
-560.12 -392.81 2805.8
-756.53 -381.73 2677.1
-739.65 -380.20 2666.3
-748.45 -388.34 2723.5
-737.18 -386.14 2708.0
-713.61 -377.39 2646.6
-723.81 -386.50 2710.5
-712.41 -387.94 2720.6
-702.56 -386.41 2709.9
-686.11 -381.17 2673.2
-667.89 -374.83 2628.7
-661.26 -378.85 2656.9
-685.56 -396.90 2783.5
-662.09 -387.39 2716.8
-640.02 -382.62 2683.3
-647.30 -391.23 2743.7
-631.32 -385.81 2705.7
-624.88 -386.16 2708.1
-624.81 -390.51 2738.6
-617.83 -390.58 2739.2
-609.12 -389.55 2731.9
-604.49 -391.14 2743.1
-605.71 -396.59 2781.3
-591.52 -391.97 2748.9
-586.14 -393.14 2757.1
-537.95 -399.83 2804.0
-540.88 -407.51 2857.9
-770.39 -399.46 2751.4
-764.29 -400.00 2755.1
-761.31 -402.20 2770.3
-720.79 -395.73 2725.7
-703.13 -389.85 2685.2
-693.62 -388.43 2675.4
-685.14 -387.55 2669.4
-674.97 -385.70 2656.6
-638.49 -384.47 2648.1
-638.88 -388.88 2678.5
-649.12 -399.46 2751.4
-636.73 -396.19 2728.8
-620.88 -390.66 2690.8
-612.48 -389.76 2684.6
-603.89 -388.71 2677.4
-593.61 -386.54 2662.4
-597.04 -393.34 2709.2
-606.13 -404.09 2783.2
-595.90 -402.05 2769.2
-593.14 -405.07 2790.0
-544.94 -391.24 2694.8
-543.83 -406.06 2796.8
-539.58 -413.92 2851.0
-779.43 -407.59 2758.1
-749.84 -395.75 2678.0
-733.33 -390.65 2643.5
-736.39 -395.98 2679.6
-711.66 -401.63 2717.8
-699.84 -398.91 2699.4
-687.85 -396.03 2679.9
-674.00 -392.02 2652.8
-663.27 -402.19 2721.6
-652.42 -399.87 2705.9
-649.45 -402.38 2722.8
-640.33 -405.54 2744.3
-619.10 -396.50 2683.1
-607.64 -393.58 2663.4
-596.49 -390.80 2644.5
-600.29 -397.87 2692.3
-598.81 -411.23 2782.8
-579.96 -403.14 2728.0
-571.96 -402.49 2723.6
-566.19 -403.41 2729.9
-548.87 -396.02 2679.9
-540.16 -399.86 2705.8
-542.23 -417.67 2826.3
-731.67 -400.35 2662.4
-737.46 -407.36 2709.0
-739.40 -412.36 2742.3
-717.25 -407.85 2712.3
-704.14 -404.36 2689.1
-701.82 -407.06 2707.0
-683.92 -400.68 2664.6
-665.72 -394.00 2620.2
-668.02 -399.43 2656.3
-670.84 -405.30 2695.4
-662.59 -404.53 2690.2
-661.63 -408.24 2714.9
-654.04 -407.90 2712.6
-653.58 -412.04 2740.2
-635.82 -409.75 2725.0
-618.21 -402.88 2679.2
-610.72 -402.52 2676.9
-617.17 -411.45 2736.2
-602.36 -411.02 2733.4
-573.17 -405.41 2696.1
-562.00 -402.42 2676.2
-553.13 -401.02 2666.9
-539.38 -406.28 2701.9
-547.02 -423.03 2813.3
-737.30 -402.79 2633.2
-731.48 -403.34 2636.9
-736.39 -409.88 2679.6
-739.01 -415.25 2714.7
-727.03 -412.45 2696.4
-713.35 -408.62 2671.4
-696.00 -402.59 2631.9
-688.10 -401.96 2627.8
-698.34 -412.02 2693.6
-693.75 -413.45 2702.9
-667.43 -401.82 2626.9
-662.47 -402.94 2634.3
-663.91 -408.03 2667.5
-653.60 -405.92 2653.7
-653.42 -410.13 2681.2
-645.69 -409.63 2678.0
-648.29 -415.75 2718.0
-636.04 -416.96 2725.9
-621.99 -412.33 2695.6
-615.56 -412.70 2698.1
-623.26 -422.67 2763.2
-575.43 -414.03 2706.7
-573.17 -417.50 2729.4
-572.01 -421.85 2757.9
-565.93 -422.66 2763.1
-552.19 -417.68 2730.6
-554.67 -425.00 2778.5
-552.32 -428.77 2803.1
-546.63 -430.02 2811.2
-802.85 -437.92 2815.2
-783.17 -431.10 2771.4
-778.90 -432.72 2781.8
-757.92 -425.00 2732.1
-750.80 -424.98 2732.0
-737.44 -421.40 2709.0
-710.55 -409.93 2635.3
-686.67 -412.00 2648.6
-702.10 -425.52 2735.5
-695.67 -425.92 2738.1
-676.69 -418.57 2690.8
-663.43 -414.64 2665.6
-648.87 -409.81 2634.5
-646.16 -412.44 2651.4
-647.07 -417.47 2683.7
-658.38 -429.38 2760.3
-631.32 -425.61 2736.0
-611.37 -416.84 2679.7
-603.67 -416.32 2676.4
-595.55 -415.50 2671.1
-591.70 -417.67 2685.0
-593.47 -423.90 2725.1
-584.00 -422.17 2714.0
-576.65 -421.94 2712.5
-588.20 -435.70 2800.9
-572.55 -440.43 2831.3
-787.45 -440.68 2786.5
-793.27 -448.05 2833.1
-782.48 -446.09 2820.7
-731.39 -428.99 2712.6
-710.53 -420.80 2660.8
-705.77 -430.52 2722.2
-675.81 -433.94 2743.9
-651.48 -431.96 2731.3
-626.83 -420.19 2656.9
-637.59 -432.14 2732.5
-631.30 -432.69 2736.0
-617.96 -428.36 2708.6
-617.14 -432.71 2736.1
-603.28 -427.91 2705.7
-592.33 -425.08 2687.9
-595.34 -432.33 2733.7
-587.73 -431.95 2731.3
-570.68 -424.53 2684.4
-573.96 -432.24 2733.1
-581.81 -443.63 2805.2
-564.71 -436.04 2757.2
-557.64 -436.11 2757.6
-557.25 -447.26 2828.1
-762.33 -437.64 2722.6
-755.24 -437.62 2722.5
-753.64 -440.81 2742.4
-759.67 -452.88 2817.4
-743.15 -447.33 2783.0
-730.08 -443.78 2760.8
-717.37 -440.37 2739.6
-636.33 -428.83 2667.8
-612.84 -426.92 2656.0
-620.80 -437.38 2721.0
-620.38 -442.11 2750.5
-606.92 -437.54 2722.0
-581.90 -424.44 2640.5
-573.79 -428.61 2666.5
-567.38 -428.99 2668.8
-550.29 -426.47 2653.2
-553.00 -434.00 2700.0
-565.65 -449.62 2797.2
-567.76 -457.16 2844.1
-547.10 -446.32 2776.6
-789.30 -447.98 2742.7
-769.67 -444.85 2723.6
-772.16 -450.43 2757.7
-750.73 -442.02 2706.2
-741.84 -440.90 2699.4
-749.07 -449.44 2751.7
-760.66 -460.79 2821.1
-731.61 -456.35 2794.0
-713.90 -449.76 2753.6
-679.20 -432.22 2646.2
-676.64 -434.98 2663.2
-656.52 -444.74 2722.9
-630.35 -431.66 2642.8
-615.10 -430.57 2636.2
-627.26 -444.02 2718.5
-623.41 -446.30 2732.5
-611.45 -442.77 2710.8
-605.17 -443.33 2714.2
-587.19 -435.21 2664.6
-570.03 -432.68 2649.0
-572.49 -439.84 2692.9
-569.66 -443.07 2712.6
-568.52 -447.71 2741.1
-576.95 -460.10 2816.9
-564.06 -455.59 2789.3
-541.63 -443.16 2713.2
-548.60 -454.76 2784.3
-550.69 -462.58 2832.1
-537.06 -463.49 2837.7
-808.79 -462.16 2785.4
-799.92 -461.22 2779.6
-794.08 -466.25 2810.0
-772.93 -458.03 2760.5
-743.05 -444.44 2678.5
-745.92 -454.66 2740.1
-717.07 -454.38 2738.4
-687.86 -440.23 2653.2
-681.73 -445.21 2683.2
-684.08 -451.35 2720.2
-672.90 -448.60 2703.6
-675.73 -455.23 2743.6
-654.05 -445.31 2683.8
-634.46 -441.36 2660.0
-632.90 -445.12 2682.6
-637.74 -453.51 2733.2
-629.23 -452.48 2727.0
-604.94 -439.95 2651.5
-609.90 -448.66 2704.0
-603.11 -454.10 2736.8
-587.08 -447.30 2695.8
-587.04 -452.66 2728.1
-590.53 -460.90 2777.8
-580.09 -469.95 2832.3
-542.51 -445.14 2682.7
-535.58 -457.03 2754.4
-533.90 -468.08 2821.0
-801.06 -473.35 2808.9
-796.45 -474.95 2818.4
-776.62 -467.41 2773.6
-746.71 -453.61 2691.8
-744.14 -465.09 2759.8
-745.34 -470.36 2791.2
-743.87 -474.03 2812.9
-733.78 -472.24 2802.3
-706.16 -459.00 2723.8
-687.99 -451.71 2680.5
-683.40 -453.28 2689.8
-667.93 -447.58 2656.0
-644.66 -450.57 2673.7
-655.95 -463.45 2750.1
-628.31 -458.88 2723.0
-613.04 -452.81 2687.0
-584.96 -452.65 2686.0
-574.49 -455.39 2702.3
-578.12 -463.92 2753.0
-576.09 -474.00 2812.7
-561.06 -467.55 2774.5
-563.41 -475.61 2822.3
-544.33 -484.67 2876.1
-767.96 -465.00 2717.5
-772.32 -471.97 2758.3
-753.01 -464.47 2714.5
-736.00 -462.63 2703.7
-760.02 -482.32 2818.8
-746.32 -478.22 2794.8
-730.20 -472.48 2761.3
-734.99 -480.29 2806.9
-721.97 -476.50 2784.7
-705.87 -470.58 2750.1
-703.53 -473.81 2769.0
-674.64 -459.03 2682.6
-673.61 -472.96 2764.1
-655.50 -465.19 2718.7
-643.79 -461.85 2699.1
-632.71 -469.20 2742.1
-617.61 -463.21 2707.1
-618.52 -469.22 2742.2
-614.96 -471.95 2758.1
-601.98 -467.42 2731.7
-558.83 -455.34 2661.1
-581.85 -480.03 2805.4
-546.22 -474.35 2772.2
-797.61 -481.44 2771.6
-765.77 -470.70 2709.8
-773.34 -479.76 2761.9
-755.61 -473.14 2723.8
-740.14 -467.83 2693.2
-753.84 -481.02 2769.2
-762.02 -490.92 2826.2
-733.04 -476.83 2745.1
-712.51 -468.02 2694.4
-712.46 -472.62 2720.8
-731.57 -490.15 2821.8
-673.10 -479.76 2762.0
-651.07 -469.05 2700.3
-628.45 -467.85 2693.4
-611.22 -465.36 2679.0
-604.19 -470.71 2709.8
-609.16 -480.16 2764.2
-588.04 -469.03 2700.2
-575.01 -475.62 2738.1
-588.22 -492.63 2836.0
-568.80 -488.59 2812.8
-552.42 -493.50 2841.0
-794.41 -495.60 2811.2
-782.33 -492.58 2794.0
-774.53 -492.23 2792.0
-766.75 -491.88 2790.1
-734.37 -475.59 2697.7
-718.49 -474.34 2690.6
-742.96 -495.31 2809.5
-725.15 -488.22 2769.3
-725.83 -493.56 2799.6
-690.57 -479.17 2718.0
-671.42 -485.71 2755.1
-645.54 -477.14 2706.5
-636.92 -481.23 2729.7
-626.74 -484.30 2747.1
-597.72 -472.62 2680.8
-619.93 -495.94 2813.1
-592.09 -485.08 2751.5
-585.05 -485.16 2752.0
-575.58 -483.20 2740.8
-561.55 -477.32 2707.5
-564.89 -486.24 2758.1
-548.45 -478.13 2712.1
-551.25 -499.80 2835.0
-551.58 -506.85 2875.0
-797.60 -500.31 2796.8
-776.93 -491.82 2749.3
-752.77 -480.94 2688.5
-748.41 -487.17 2723.3
-738.72 -485.44 2713.7
-731.92 -490.32 2740.9
-718.35 -495.66 2770.8
-657.92 -504.40 2819.7
-653.85 -506.92 2833.7
-634.15 -497.23 2779.5
-616.01 -488.56 2731.1
-576.20 -484.85 2710.3
-551.80 -481.96 2694.2
-564.22 -499.12 2790.1
-560.53 -502.30 2807.9
-546.14 -509.24 2846.7
-542.67 -512.94 2867.4
-777.28 -490.17 2701.0
-781.05 -497.03 2738.8
-768.04 -493.23 2717.8
-753.52 -488.39 2691.1
-749.14 -494.71 2726.0
-760.92 -507.28 2795.2
-749.02 -504.15 2778.0
-753.97 -512.41 2823.5
-682.16 -492.28 2712.5
-673.59 -496.33 2734.9
-675.75 -503.22 2772.8
-646.93 -497.64 2742.1
-650.25 -505.75 2786.8
-638.29 -502.03 2766.3
-611.20 -491.77 2709.7
-628.28 -511.39 2817.9
-626.39 -515.85 2842.4
-610.13 -508.44 2801.6
-580.04 -495.16 2728.4
-559.87 -489.88 2699.4
-557.69 -494.15 2722.9
-551.48 -494.92 2727.1
-562.22 -511.11 2816.3
-551.19 -507.67 2797.4
-787.84 -503.93 2737.7
-802.06 -517.69 2812.4
-796.36 -518.73 2818.1
-772.58 -507.90 2759.2
-747.76 -496.18 2695.5
-753.52 -504.71 2741.9
-753.61 -509.58 2768.4
-752.80 -513.93 2792.0
-703.75 -509.86 2769.9
-696.99 -510.17 2771.5
-676.85 -511.24 2777.4
-579.93 -496.08 2695.0
-594.52 -514.77 2796.5
-583.61 -517.95 2813.8
-783.89 -513.09 2748.7
-797.62 -526.87 2822.5
-792.68 -528.45 2831.0
-758.23 -510.21 2733.3
-755.28 -513.02 2748.3
-768.53 -526.99 2823.2
-726.85 -513.07 2748.6
-711.99 -512.64 2746.3
-727.81 -529.32 2835.6
-725.24 -538.32 2883.9
-675.06 -534.11 2861.3
-658.52 -532.74 2854.0
-644.48 -527.30 2824.8
-582.75 -524.47 2809.7
-564.30 -514.30 2755.2
-561.72 -518.51 2777.7
-553.82 -517.86 2774.3
-547.65 -518.83 2779.4
-550.28 -528.27 2830.0
-548.38 -533.56 2858.4
-541.22 -533.81 2859.7
-538.56 -538.56 2885.2
-780.90 -513.56 2713.5
-791.01 -534.66 2825.0
-777.36 -535.35 2828.7
-772.33 -536.95 2837.1
-745.63 -528.46 2792.2
-722.00 -516.73 2730.3
-722.09 -521.91 2757.6
-719.58 -525.29 2775.5
-734.09 -541.30 2860.1
-735.23 -553.32 2923.6
-714.78 -543.53 2871.9
-695.72 -546.11 2885.5
-683.84 -542.61 2867.0
-679.05 -544.73 2878.2
-646.60 -536.38 2834.1
-645.65 -541.75 2862.5
-630.23 -534.96 2826.6
-583.76 -513.42 2712.8
-609.32 -542.45 2866.2
-600.18 -540.90 2858.0
-588.27 -536.80 2836.3
-573.21 -543.43 2871.3
-562.04 -539.85 2852.5
-560.72 -545.77 2883.7
-541.02 -548.54 2898.3
-793.64 -524.37 2733.2
-795.24 -530.16 2763.4
-794.80 -534.69 2787.0
-762.69 -517.79 2698.9
-761.49 -521.76 2719.6
-776.22 -536.83 2798.1
-761.64 -531.71 2771.5
-749.52 -528.23 2753.3
-744.64 -529.84 2761.7
-750.88 -539.47 2811.9
-765.17 -555.12 2893.5
-746.43 -546.89 2850.6
-726.57 -560.06 2919.3
-697.94 -555.35 2894.7
-692.66 -557.14 2904.0
-656.83 -546.12 2846.6
-649.36 -546.06 2846.2
-650.55 -553.34 2884.2
-636.57 -547.75 2855.1
-630.77 -549.14 2862.3
-628.70 -553.85 2886.9
-557.48 -522.19 2721.9
-564.52 -535.57 2791.6
-570.06 -547.85 2855.6
-791.64 -530.12 2726.3
-800.05 -540.57 2780.1
-771.97 -531.17 2731.8
-761.41 -528.76 2719.3
-767.73 -538.13 2767.5
-756.09 -534.97 2751.3
-746.86 -533.47 2743.6
-746.86 -538.60 2770.0
-759.67 -553.16 2844.8
-764.07 -561.81 2889.3
-734.64 -545.52 2805.6
-717.69 -560.70 2883.6
-722.62 -570.49 2933.9
-641.84 -559.74 2878.7
-630.48 -556.31 2861.0
-612.57 -553.52 2846.7
-556.71 -542.25 2788.7
-567.79 -560.32 2881.6
-786.37 -538.42 2732.6
-775.11 -545.45 2768.2
-786.29 -558.48 2834.4
-777.88 -557.72 2830.5
-766.38 -554.72 2815.3
-765.19 -559.18 2837.9
-758.56 -559.72 2840.7
-742.87 -553.51 2809.2
-736.54 -554.23 2812.8
-748.43 -568.81 2886.8
-753.60 -578.52 2936.1
-741.60 -575.12 2918.8
-731.12 -572.83 2907.2
-728.99 -577.11 2929.0
-723.93 -579.14 2939.3
-629.97 -563.27 2858.7
-614.74 -556.19 2822.8
-615.79 -563.86 2861.7
-552.26 -559.62 2840.2
-810.19 -562.02 2815.3
-773.79 -541.65 2713.3
-778.48 -549.93 2754.8
-773.16 -551.24 2761.3
-758.62 -545.93 2734.7
-778.82 -565.75 2834.0
-773.41 -578.18 2896.3
-760.85 -574.37 2877.2
-759.33 -578.90 2899.8
-752.76 -579.63 2903.5
-738.61 -574.47 2877.7
-730.38 -573.87 2874.7
-722.63 -573.64 2873.5
-712.05 -571.12 2860.9
-696.16 -570.26 2856.6
-691.22 -572.30 2866.8
-682.58 -571.29 2861.8
-687.49 -581.72 2914.0
-681.43 -583.00 2920.4
-662.31 -573.01 2870.4
-616.74 -572.16 2866.1
-610.03 -572.83 2869.5
-579.93 -565.24 2831.5
-579.28 -571.86 2864.6
-561.57 -561.57 2813.0
-798.74 -551.34 2726.4
-786.19 -552.46 2731.9
-782.59 -554.92 2744.1
-773.58 -553.57 2737.4
-775.59 -565.38 2795.8
-784.41 -588.31 2909.2
-777.31 -594.41 2939.4
-745.58 -587.43 2904.9
-708.85 -588.19 2908.6
-692.97 -581.20 2874.1
-674.55 -578.18 2859.1
-662.15 -573.87 2837.8
-653.39 -579.14 2863.9
-636.66 -577.43 2855.4
-622.62 -571.35 2825.3
-625.73 -588.04 2907.9
-571.62 -571.62 2826.7
-561.87 -569.17 2814.6
-795.59 -566.23 2764.6
-782.49 -561.97 2743.8
-768.74 -562.32 2745.5
-744.74 -594.28 2901.6
-736.45 -593.67 2898.6
-739.41 -602.20 2940.2
-719.66 -592.22 2891.5
-713.99 -593.74 2898.9
-613.92 -591.46 2887.8
-591.63 -577.02 2817.3
-600.35 -592.84 2894.5
-587.04 -587.04 2866.2
-565.31 -572.56 2795.5
-555.33 -577.25 2818.4
-556.32 -585.99 2861.1
-796.30 -573.91 2767.1
-809.82 -588.96 2839.6
-791.78 -581.12 2801.8
-796.93 -590.31 2846.2
-769.35 -575.21 2773.3
-778.82 -610.84 2945.1
-773.65 -612.79 2954.5
-762.27 -609.82 2940.2
-743.65 -600.93 2897.3
-748.65 -611.14 2946.6
-723.26 -609.06 2936.5
-709.32 -603.68 2910.6
