ply
format ascii 1.0
element vertex 2082
property float x
property float y
property float z
end_header
-797.06 -224.98 2479.3
-806.05 -229.36 2527.7
-801.30 -229.88 2533.4
-792.63 -229.27 2526.7
-788.43 -229.96 2534.2
-786.25 -231.25 2548.5
-788.36 -233.84 2577.0
-772.96 -233.22 2570.2
-745.49 -226.89 2500.4
-726.45 -227.01 2501.8
-721.28 -227.43 2506.4
-701.61 -223.24 2460.2
-718.46 -230.70 2542.4
-723.89 -234.60 2585.3
-699.56 -228.83 2521.8
-707.47 -233.60 2574.4
-692.18 -232.94 2567.1
-675.68 -229.60 2530.3
-673.37 -231.06 2546.4
-657.60 -227.88 2511.3
-646.75 -226.36 2494.6
-660.24 -233.42 2572.4
-667.23 -238.29 2626.1
-650.37 -234.67 2586.2
-633.23 -230.87 2544.2
-628.92 -231.71 2553.5
-642.48 -239.22 2636.3
-654.47 -246.30 2714.4
-646.65 -246.01 2711.1
-638.16 -245.45 2704.9
-639.43 -248.67 2740.4
-634.48 -249.51 2749.7
-614.85 -244.54 2695.0
-616.31 -247.94 2732.4
-634.92 -258.40 2847.7
-628.31 -258.72 2851.1
-598.15 -249.23 2746.6
-889.73 -240.83 2580.3
-841.16 -229.41 2457.9
-834.40 -232.86 2494.9
-854.61 -240.36 2575.3
-844.53 -239.40 2565.0
-831.41 -237.55 2545.1
-816.22 -235.07 2518.6
-814.57 -236.49 2533.8
-811.02 -237.37 2543.3
-794.21 -234.36 2511.0
-778.15 -231.52 2480.5
-767.55 -230.26 2467.1
-762.88 -230.79 2472.7
-763.72 -233.00 2496.4
-771.38 -237.35 2543.0
-762.46 -236.63 2535.3
-742.76 -232.52 2491.3
-722.95 -232.38 2489.8
-728.29 -236.20 2530.7
-718.66 -235.20 2520.0
-722.63 -238.67 2557.2
-714.87 -238.29 2553.1
-696.48 -234.33 2510.7
-710.22 -241.21 2584.4
-699.43 -244.46 2619.2
-685.70 -242.01 2593.0
-674.11 -240.28 2574.4
-667.85 -240.43 2576.0
-668.27 -243.01 2603.6
-661.44 -242.98 2603.3
-649.01 -240.87 2580.8
-636.70 -238.76 2558.2
-630.21 -238.82 2558.7
-641.63 -245.73 2632.8
-637.28 -246.69 2643.1
-617.44 -244.26 2617.1
-631.82 -252.73 2707.8
-643.07 -260.12 2787.0
-639.52 -261.62 2803.1
-629.10 -260.32 2789.1
-634.35 -265.54 2845.1
-619.42 -265.46 2844.3
-587.44 -254.79 2729.9
-588.12 -258.20 2766.4
-829.79 -238.00 2481.1
-848.15 -245.17 2555.8
-836.25 -243.63 2539.8
-837.10 -245.82 2562.6
-809.21 -241.46 2517.1
-783.01 -235.54 2455.4
-782.93 -237.45 2475.3
-782.15 -239.17 2493.3
-767.08 -236.52 2465.6
-760.66 -236.51 2465.5
-750.73 -235.40 2454.0
-747.21 -236.30 2463.3
-744.22 -237.38 2474.6
-730.08 -234.89 2448.7
-736.09 -238.91 2490.5
-751.14 -245.95 2563.9
-734.18 -242.54 2528.4
-707.47 -235.82 2458.4
-709.22 -238.56 2486.9
-724.91 -246.07 2565.2
-730.28 -250.19 2608.2
-724.80 -250.63 2612.8
-690.27 -240.94 2511.8
-699.64 -248.91 2594.8
-666.45 -246.59 2570.6
-643.36 -240.45 2506.6
-663.98 -250.69 2613.3
-653.15 -251.73 2624.2
-631.97 -246.13 2565.9
-650.20 -255.93 2668.0
-651.83 -259.33 2703.5
-617.42 -253.83 2646.1
-623.22 -259.09 2700.9
-624.53 -262.59 2737.4
-618.88 -263.20 2743.8
-623.80 -268.38 2797.8
-621.81 -273.89 2855.3
-602.38 -268.53 2799.4
-874.32 -251.70 2554.8
-824.56 -242.89 2465.4
-813.78 -241.59 2452.2
-814.27 -243.64 2473.0
-827.64 -249.60 2533.6
-830.59 -252.50 2563.0
-807.81 -247.55 2512.8
-789.19 -243.81 2474.8
-796.86 -248.20 2519.4
-793.30 -249.13 2528.8
-775.48 -245.57 2492.6
-771.34 -246.31 2500.1
-764.54 -246.21 2499.1
-740.69 -240.56 2441.8
-755.39 -251.80 2555.8
-738.17 -250.45 2542.2
-714.74 -244.69 2483.6
-720.25 -248.81 2525.5
-731.24 -254.93 2587.6
-731.73 -257.46 2613.3
-725.43 -257.63 2615.0
-689.05 -247.02 2507.3
-666.83 -243.65 2473.1
-690.37 -254.70 2585.3
-692.76 -258.09 2619.7
-686.66 -258.35 2622.3
-657.80 -249.96 2537.2
-644.70 -247.46 2511.8
-677.06 -262.53 2664.8
-646.34 -258.54 2624.2
-646.99 -261.55 2654.8
-636.58 -265.82 2698.2
-631.98 -266.83 2708.5
-634.93 -271.09 2751.7
-633.91 -273.73 2778.5
-626.61 -273.69 2778.1
-629.71 -278.25 2824.3
-615.66 -275.24 2793.8
-591.80 -267.72 2717.5
-590.09 -270.16 2742.2
-589.29 -273.09 2771.9
-874.20 -254.43 2516.4
-878.10 -257.49 2546.6
-863.70 -257.13 2543.1
-835.20 -250.56 2478.1
-819.31 -247.70 2449.8
-811.71 -247.32 2446.0
-815.01 -250.28 2475.3
-813.23 -251.71 2489.5
-800.94 -249.89 2471.5
-807.92 -254.10 2513.1
-818.64 -259.57 2567.2
-795.17 -254.20 2514.0
-763.61 -246.12 2434.2
-765.84 -248.90 2461.6
-780.26 -255.71 2529.0
-776.59 -256.67 2538.5
-756.69 -252.23 2494.6
-738.72 -248.36 2456.3
-752.20 -255.10 2522.9
-752.68 -257.49 2546.6
-732.32 -252.75 2499.7
-735.22 -256.01 2532.0
-737.69 -259.19 2563.4
-725.54 -257.24 2544.1
-719.16 -257.31 2544.8
-718.40 -259.42 2565.7
-710.36 -258.92 2560.7
-702.08 -258.31 2554.7
-692.77 -257.31 2544.9
-673.92 -252.72 2499.4
-666.07 -252.20 2494.3
-668.42 -255.57 2527.7
-661.78 -255.54 2527.3
-654.14 -255.12 2523.1
-661.12 -260.44 2575.8
-642.83 -266.70 2637.7
-634.96 -266.27 2633.5
-653.90 -277.20 2741.5
-644.16 -285.48 2823.4
-622.74 -279.16 2760.9
-628.05 -284.81 2816.8
-616.58 -282.90 2797.9
-592.46 -281.78 2786.8
-871.40 -262.08 2527.2
-832.45 -254.18 2451.0
-832.14 -256.04 2469.0
-827.01 -256.44 2472.8
-827.81 -258.69 2494.5
-826.64 -260.36 2510.6
-820.76 -260.56 2512.5
-785.10 -251.23 2422.6
-782.16 -254.36 2452.8
-760.45 -251.39 2424.1
-791.38 -263.79 2543.7
-763.19 -263.17 2537.7
-763.40 -265.53 2560.5
-750.24 -263.24 2538.4
-725.15 -256.69 2475.2
-723.39 -258.35 2491.3
-733.11 -264.18 2547.5
-728.09 -264.76 2553.0
-717.09 -263.15 2537.5
-712.59 -263.92 2545.0
-709.66 -265.29 2558.2
-705.86 -266.36 2568.5
-705.41 -268.73 2591.3
-695.00 -267.31 2577.6
-670.02 -260.20 2509.1
-655.03 -256.88 2477.0
-661.62 -262.03 2526.7
-667.22 -266.89 2573.6
-658.73 -266.15 2566.5
-659.58 -269.22 2596.0
-656.16 -270.58 2609.2
-646.67 -269.44 2598.2
-650.07 -273.71 2639.4
-641.25 -272.87 2631.3
-625.71 -269.12 2595.1
-633.88 -275.60 2657.6
-649.52 -285.50 2753.0
-652.92 -290.19 2798.2
-650.50 -292.36 2819.2
-629.17 -285.99 2757.7
-613.17 -281.92 2718.5
-622.26 -289.42 2790.9
-623.71 -293.51 2830.3
-607.17 -289.13 2788.0
-845.57 -260.66 2452.2
-842.17 -263.58 2479.7
-838.29 -264.39 2487.2
-828.70 -263.39 2477.9
-833.57 -267.00 2511.9
-836.71 -270.12 2541.2
-819.32 -266.61 2508.1
-781.41 -264.78 2490.9
-799.46 -273.15 2569.7
-754.69 -266.74 2509.4
-742.17 -264.60 2489.3
-744.41 -267.73 2518.7
-735.04 -266.70 2509.0
-726.82 -266.07 2503.1
-730.45 -269.81 2538.2
-731.73 -272.73 2565.8
-727.19 -273.53 2573.3
-710.54 -269.74 2537.6
-695.92 -266.66 2508.6
-701.20 -271.22 2551.5
-709.15 -276.91 2605.0
-697.15 -274.84 2585.6
-669.59 -266.54 2507.5
-654.61 -263.13 2475.4
-661.96 -268.72 2528.0
-682.53 -279.84 2632.6
-660.40 -276.29 2599.2
-630.04 -266.30 2505.3
-625.16 -269.81 2538.3
-630.02 -274.80 2585.2
-628.81 -277.22 2608.0
-632.80 -282.01 2653.0
-645.01 -290.61 2734.0
-642.35 -292.63 2752.9
-633.34 -291.76 2744.8
-632.10 -294.50 2770.6
-634.90 -299.20 2814.8
-627.61 -302.73 2848.0
-616.96 -301.14 2833.0
-598.23 -295.51 2780.1
-867.04 -271.76 2495.7
-845.69 -267.06 2452.6
-857.06 -272.70 2504.4
-862.43 -276.50 2539.3
-846.35 -273.44 2511.1
-831.97 -270.87 2487.6
-832.11 -273.04 2507.5
-842.41 -278.59 2558.5
-832.40 -277.47 2548.2
-796.67 -267.68 2458.3
-789.49 -271.79 2496.0
-802.95 -278.71 2559.6
-786.43 -277.56 2549.0
-771.07 -274.45 2520.4
-780.38 -280.14 2572.7
-774.55 -280.44 2575.5
-755.06 -275.76 2532.5
-752.96 -277.41 2547.6
-740.44 -275.21 2527.4
-729.40 -273.53 2512.0
-725.04 -274.34 2519.4
-718.99 -274.52 2521.1
-726.46 -279.92 2570.7
-722.42 -280.94 2580.1
-707.97 -277.89 2552.1
-713.14 -282.57 2595.0
-709.23 -283.69 2605.3
-685.58 -276.87 2542.7
-681.22 -277.78 2551.0
-688.26 -283.40 2602.7
-674.13 -280.33 2574.5
-673.37 -282.81 2597.3
-679.65 -288.34 2648.0
-650.18 -278.65 2559.0
-632.06 -273.67 2513.3
-636.01 -278.25 2555.4
-637.13 -281.68 2586.8
-639.74 -285.84 2625.1
-633.78 -286.22 2628.6
-633.56 -289.23 2656.2
-641.87 -296.25 2720.7
-635.41 -296.52 2723.2
-627.14 -295.95 2717.9
-627.07 -299.28 2748.5
-621.17 -299.87 2753.9
-612.63 -299.19 2747.7
-622.74 -307.71 2825.9
-875.64 -287.43 2578.2
-846.30 -284.30 2550.2
-835.67 -282.94 2538.0
-829.27 -285.27 2558.9
-802.56 -278.31 2496.4
-800.00 -279.68 2508.7
-798.88 -281.57 2525.7
-791.43 -281.25 2522.9
-796.10 -285.27 2558.9
-785.34 -283.78 2545.5
-763.02 -278.05 2494.1
-764.59 -281.00 2520.6
-762.32 -282.58 2534.8
-746.34 -279.07 2503.2
-748.35 -287.31 2577.2
-730.90 -283.14 2539.8
-713.62 -278.96 2502.3
-709.78 -280.00 2511.7
-708.83 -282.22 2531.5
-698.21 -280.59 2516.9
-701.89 -284.73 2554.1
-696.51 -285.24 2558.6
-683.33 -282.53 2534.3
-688.74 -287.53 2579.2
-691.64 -291.57 2615.4
-672.69 -286.39 2569.0
-657.72 -282.82 2536.9
-650.31 -282.46 2533.7
-647.07 -283.92 2546.8
-653.71 -289.79 2599.4
-648.08 -290.29 2603.9
-639.34 -289.38 2595.8
-644.75 -294.94 2645.6
-642.23 -296.94 2663.6
-627.85 -293.45 2632.3
-621.38 -293.62 2633.8
-621.91 -297.13 2665.3
-621.60 -300.33 2694.0
-634.20 -309.89 2779.8
-618.09 -309.05 2772.2
-614.44 -310.84 2788.2
-869.66 -292.10 2560.6
-862.74 -292.01 2559.8
-852.35 -290.73 2548.6
-824.16 -283.31 2483.5
-804.98 -278.89 2444.8
-806.97 -281.80 2470.3
-815.26 -286.97 2515.7
-812.39 -288.27 2527.0
-792.24 -283.40 2484.4
-773.49 -278.96 2445.5
-768.01 -279.28 2448.2
-774.92 -284.14 2490.8
-774.00 -286.19 2508.8
-759.61 -283.25 2483.0
-743.33 -279.54 2450.5
-726.36 -280.35 2457.6
-756.54 -294.58 2582.4
-729.60 -289.21 2535.3
-703.35 -281.34 2466.3
-685.37 -284.49 2493.9
-682.74 -286.10 2508.0
-672.80 -284.64 2495.3
-684.96 -292.61 2565.0
-678.05 -295.39 2589.4
-665.02 -292.61 2565.1
-649.14 -288.51 2529.1
-637.35 -286.16 2508.5
-648.44 -294.14 2578.5
-647.67 -296.85 2602.2
-627.99 -290.86 2549.7
-622.46 -291.36 2554.2
-638.09 -301.89 2646.5
-642.44 -307.25 2693.4
-627.60 -303.46 2660.2
-620.38 -303.30 2658.8
-619.42 -306.23 2684.5
-631.60 -315.80 2768.4
-622.03 -318.25 2789.8
-608.07 -314.77 2759.3
-611.39 -320.25 2807.4
-609.87 -323.30 2834.2
-863.80 -294.48 2524.1
-855.37 -293.83 2518.5
-840.93 -291.09 2495.1
-823.44 -287.25 2462.1
-813.61 -286.04 2451.7
-810.98 -287.36 2463.1
-810.45 -289.45 2481.0
-816.58 -293.97 2519.7
-813.39 -295.18 2530.1
-792.33 -289.88 2484.7
-773.88 -285.45 2446.7
-768.70 -285.88 2450.4
-775.60 -290.85 2493.0
-775.84 -293.39 2514.7
-764.64 -291.60 2499.4
-750.34 -288.59 2473.6
-733.71 -292.18 2504.4
-737.69 -296.39 2540.5
-717.86 -291.02 2494.5
-706.70 -289.10 2478.0
-705.07 -291.08 2495.0
-687.29 -291.77 2500.9
-684.12 -293.19 2513.1
-667.44 -288.79 2475.4
-674.26 -294.58 2525.0
-660.82 -300.37 2574.6
-632.77 -290.56 2490.5
-628.88 -291.75 2500.7
-635.73 -298.00 2554.3
-623.54 -295.36 2531.7
-623.24 -301.57 2584.9
-639.95 -313.02 2683.0
-639.52 -316.25 2710.7
-623.82 -311.91 2673.5
-614.11 -310.51 2661.5
-609.98 -311.92 2673.6
-603.60 -312.21 2676.1
-622.07 -325.50 2790.0
-598.20 -324.33 2779.9
-601.22 -329.94 2828.0
-601.55 -334.19 2864.5
-868.74 -298.23 2500.6
-874.28 -302.38 2535.5
-881.26 -307.11 2575.1
-862.17 -302.75 2538.5
-838.48 -296.69 2487.8
-828.57 -295.46 2477.5
-825.60 -296.70 2487.9
-827.85 -299.85 2514.3
-831.52 -303.57 2545.5
-824.01 -303.24 2542.7
-808.30 -299.85 2514.3
-786.38 -294.09 2466.0
-767.08 -289.23 2425.2
-756.00 -287.40 2409.9
-757.08 -290.22 2433.5
-766.55 -296.31 2484.6
-765.59 -298.45 2502.5
-764.84 -300.71 2521.4
-751.97 -298.20 2500.4
-735.51 -294.20 2466.9
-745.96 -301.00 2523.9
-748.86 -304.85 2556.2
-734.99 -301.87 2531.2
-720.68 -298.66 2504.3
-714.40 -298.75 2505.0
-721.35 -304.42 2552.6
-707.98 -301.55 2528.5
-677.14 -296.65 2487.5
-671.65 -297.07 2491.0
-667.41 -298.07 2499.3
-689.03 -310.74 2605.6
-659.91 -303.56 2545.4
-644.33 -299.39 2510.4
-629.17 -295.32 2476.3
-627.00 -297.34 2493.2
-634.11 -303.84 2547.8
-627.88 -304.02 2549.3
-623.05 -304.89 2556.6
-626.56 -309.91 2598.6
-636.08 -318.04 2666.8
-636.37 -321.68 2697.3
-622.06 -317.94 2666.0
-603.66 -312.00 2616.2
-596.43 -315.36 2644.3
-627.94 -335.88 2816.4
-608.72 -333.34 2795.1
-589.07 -330.45 2770.9
-598.11 -339.66 2848.1
-893.24 -318.05 2610.1
-875.98 -314.28 2579.2
-850.30 -307.42 2522.9
-839.06 -305.70 2508.8
-827.25 -303.75 2492.8
-820.48 -303.64 2491.9
-813.40 -303.41 2490.0
-796.22 -299.38 2456.9
-792.57 -300.41 2465.4
-784.05 -299.59 2458.7
-745.54 -294.46 2416.5
-751.43 -299.30 2456.3
-757.70 -304.38 2497.9
-762.92 -309.11 2536.8
-763.11 -311.88 2559.5
-751.66 -309.89 2543.2
-732.46 -304.65 2500.2
-730.63 -306.60 2516.2
-727.35 -307.97 2527.5
-709.30 -303.06 2487.1
-703.05 -303.15 2487.9
-707.51 -307.90 2526.8
-695.05 -305.30 2505.5
-679.79 -301.42 2473.6
-682.17 -305.35 2505.9
-683.86 -309.05 2536.3
-686.69 -313.34 2571.5
-677.15 -312.02 2560.7
-648.55 -301.80 2476.8
-638.29 -300.00 2462.0
-641.19 -304.40 2498.1
-628.52 -304.54 2499.3
-649.03 -317.76 2607.7
-655.72 -324.41 2662.3
-643.56 -321.78 2640.7
-638.25 -322.55 2647.1
-650.41 -332.28 2726.9
-632.94 -330.53 2712.6
-607.28 -320.70 2631.9
-602.60 -325.54 2671.6
-615.66 -336.46 2761.3
-608.83 -336.65 2762.8
-848.79 -313.40 2518.4
-864.02 -321.49 2583.4
-835.46 -315.77 2537.4
-795.59 -303.08 2435.5
-787.73 -302.49 2430.7
-792.95 -306.95 2466.6
-782.92 -305.53 2455.1
-765.23 -308.67 2480.4
-779.68 -317.16 2548.6
-767.29 -314.78 2529.5
-754.97 -312.40 2510.4
-759.77 -317.12 2548.3
-752.00 -316.63 2544.4
-739.78 -314.24 2525.2
-744.81 -319.21 2565.0
-739.04 -322.49 2591.4
-719.05 -316.64 2544.5
-710.78 -315.90 2538.5
-708.65 -317.90 2554.5
-704.33 -318.94 2562.9
-696.57 -318.43 2558.8
-688.83 -317.92 2554.7
-685.97 -319.68 2568.8
-669.85 -315.22 2533.0
-663.19 -315.18 2532.7
-676.72 -324.83 2610.2
-678.02 -328.74 2641.6
-664.00 -325.23 2613.4
-654.24 -323.75 2601.5
-665.39 -332.69 2673.4
-668.82 -337.93 2715.5
-653.00 -333.45 2679.5
-640.15 -330.40 2655.0
-644.92 -336.48 2703.9
-631.62 -336.86 2706.9
-626.07 -337.66 2713.3
-632.85 -345.19 2773.9
-611.52 -349.44 2808.0
-856.65 -320.42 2522.3
-838.72 -316.13 2488.5
-871.95 -331.21 2607.2
-837.29 -325.61 2563.1
-824.23 -323.10 2543.3
-808.22 -319.38 2514.0
-777.86 -309.88 2439.3
-760.73 -305.54 2405.1
-759.21 -307.45 2420.1
-765.57 -312.61 2460.8
-782.28 -322.11 2535.6
-786.13 -326.45 2569.7
-764.47 -320.16 2520.2
-741.89 -313.38 2466.9
-736.01 -313.60 2468.6
-753.75 -323.98 2550.3
-720.99 -324.12 2551.3
-700.13 -317.65 2500.5
-685.09 -313.73 2469.6
-698.07 -322.69 2540.1
-708.10 -330.44 2601.2
-680.10 -320.43 2522.3
-657.86 -312.96 2463.5
-654.93 -314.62 2476.6
-660.98 -320.68 2524.3
-661.32 -324.05 2550.8
-649.44 -321.44 2530.3
-658.91 -329.46 2593.4
-673.16 -340.05 2676.8
-643.34 -342.65 2697.2
-618.94 -333.28 2623.5
-611.58 -332.97 2621.1
-617.40 -339.92 2675.7
-624.93 -347.97 2739.1
-628.22 -353.82 2785.2
-609.74 -351.50 2766.9
-609.44 -355.50 2798.4
-608.97 -359.51 2830.0
-593.49 -354.64 2791.7
-589.61 -356.68 2807.7
-863.10 -329.43 2541.3
-879.68 -338.34 2610.0
-827.35 -330.94 2553.0
-786.11 -316.98 2445.3
-776.12 -315.50 2433.8
-779.96 -319.66 2465.9
-776.81 -320.99 2476.2
-781.85 -325.77 2513.1
-782.04 -328.59 2534.8
-770.51 -326.49 2518.6
-742.34 -317.24 2447.3
-742.27 -325.56 2511.4
-705.94 -320.88 2475.4
-698.37 -320.36 2471.3
-701.26 -324.66 2504.5
-680.37 -317.93 2452.6
-686.02 -323.60 2496.3
-703.97 -335.22 2586.0
-685.57 -329.60 2542.6
-641.45 -320.72 2474.2
-634.77 -323.86 2498.4
-657.23 -338.78 2613.4
-670.01 -348.96 2692.0
-664.61 -349.80 2698.4
-657.54 -349.75 2698.1
-643.83 -349.91 2699.3
-614.65 -337.72 2605.3
-603.05 -335.03 2584.5
-601.61 -345.75 2667.2
-612.74 -369.12 2847.5
-597.38 -368.75 2844.7
-587.08 -366.93 2830.6
-866.82 -334.91 2532.9
-847.13 -340.19 2572.8
-805.00 -331.09 2504.0
-803.32 -333.08 2519.1
-804.85 -336.46 2544.6
-799.73 -337.08 2549.3
-784.27 -333.31 2520.9
-764.84 -327.79 2479.1
-756.63 -327.02 2473.3
-730.31 -318.34 2407.6
-719.72 -316.43 2393.2
-742.36 -329.22 2489.9
-759.48 -339.77 2569.7
-718.52 -330.13 2496.8
-702.73 -325.81 2464.1
-722.71 -338.15 2557.4
-725.65 -342.67 2591.6
-703.23 -335.18 2535.0
-692.12 -333.00 2518.5
-693.07 -336.63 2546.0
-688.20 -337.48 2552.4
-669.22 -331.36 2506.1
-656.04 -328.02 2480.8
-660.07 -333.30 2520.8
-668.88 -341.13 2580.0
-666.30 -343.24 2596.0
-662.41 -344.73 2607.2
-659.74 -350.49 2650.7
-628.82 -337.58 2553.1
-621.40 -337.14 2549.8
-625.84 -343.20 2595.7
-640.41 -355.01 2684.9
-642.92 -360.32 2725.1
-620.22 -351.46 2658.1
-603.86 -346.03 2617.0
-601.15 -348.40 2634.9
-611.23 -358.31 2709.9
-606.10 -376.97 2851.0
-593.34 -378.25 2860.7
-836.02 -342.31 2539.1
-830.37 -342.69 2541.9
-813.01 -343.71 2549.5
-774.40 -330.07 2448.3
-771.58 -331.59 2459.6
-759.28 -329.02 2440.5
-746.47 -326.19 2419.5
-744.21 -327.96 2432.7
-739.29 -328.58 2437.2
-750.34 -336.36 2495.0
-757.43 -342.49 2540.5
-759.52 -346.45 2569.8
-753.03 -349.62 2593.3
-732.83 -343.31 2546.5
-734.60 -347.27 2575.9
-716.26 -348.09 2582.0
-691.64 -339.29 2516.7
-694.67 -344.03 2551.9
-691.60 -345.80 2565.0
-688.45 -347.57 2578.1
-690.57 -352.05 2611.4
-682.97 -351.63 2608.2
-680.36 -353.79 2624.3
-666.23 -360.88 2676.8
-623.17 -341.10 2530.2
-616.81 -344.88 2558.2
-640.20 -361.85 2684.1
-646.58 -369.48 2740.6
-626.77 -362.14 2686.2
-611.91 -357.52 2651.9
-610.88 -360.98 2677.6
-620.88 -384.35 2851.0
-603.59 -378.15 2805.0
-831.95 -349.95 2546.8
-820.77 -348.01 2532.7
-779.83 -338.78 2465.5
-749.97 -328.50 2390.7
-762.57 -336.80 2451.1
-774.30 -344.86 2509.7
-751.23 -337.42 2455.6
-742.40 -339.20 2468.6
-755.21 -348.05 2533.0
-744.95 -346.34 2520.5
-739.76 -346.97 2525.1
-737.31 -348.90 2539.2
-729.03 -348.09 2533.3
-736.81 -355.01 2583.6
-714.17 -353.75 2574.5
-687.73 -343.87 2502.5
-688.72 -347.64 2530.0
-688.79 -351.02 2554.6
-688.49 -354.27 2578.2
-665.89 -360.12 2620.9
-648.86 -354.53 2580.1
-646.15 -356.73 2596.1
-622.02 -347.02 2525.5
-634.03 -361.33 2629.6
-633.32 -364.85 2655.2
-614.74 -358.03 2605.6
-610.13 -359.30 2614.8
-611.04 -363.88 2648.2
-828.61 -355.12 2536.6
-795.15 -343.50 2453.6
-815.46 -355.12 2536.6
-798.71 -353.53 2525.2
-790.37 -352.73 2519.5
-725.03 -337.51 2410.8
-724.66 -340.28 2430.5
-725.59 -346.74 2476.7
-750.89 -362.03 2586.0
-732.08 -356.15 2543.9
-730.05 -358.39 2559.9
-729.56 -361.43 2581.7
-700.63 -350.32 2502.3
-686.39 -346.40 2474.3
-687.51 -350.24 2501.7
-687.97 -353.81 2527.2
-687.28 -356.85 2549.0
-692.09 -362.85 2591.8
-676.68 -365.41 2610.1
-659.49 -359.72 2569.4
-637.36 -351.20 2508.6
-616.33 -354.06 2529.0
-637.07 -369.91 2642.2
-632.19 -371.07 2650.5
-605.43 -359.27 2566.2
-605.71 -367.51 2625.1
-835.73 -364.80 2558.3
-820.24 -360.91 2531.0
-798.22 -354.05 2482.9
-781.53 -349.46 2450.8
-786.50 -354.57 2486.6
-749.58 -349.38 2450.2
-746.63 -350.98 2461.4
-741.91 -351.77 2466.9
-741.22 -360.77 2530.1
-720.57 -360.28 2526.7
-688.64 -350.70 2459.4
-711.32 -365.63 2564.2
-710.91 -368.87 2586.9
-709.08 -371.42 2604.8
-699.42 -369.89 2594.0
-695.70 -371.49 2605.2
-663.97 -361.57 2535.7
-646.87 -355.78 2495.1
-644.00 -357.78 2509.1
-656.66 -368.54 2584.5
-671.62 -380.81 2670.6
-658.39 -377.20 2645.3
-649.55 -376.06 2637.3
-620.34 -362.97 2545.5
-616.35 -368.47 2584.1
-610.91 -369.23 2589.4
-594.37 -367.31 2575.9
-607.18 -379.49 2661.4
-604.32 -382.04 2679.2
-590.80 -377.84 2649.8
-841.14 -370.89 2554.6
-822.84 -365.71 2518.9
-814.48 -364.89 2513.2
-799.16 -360.91 2485.9
-772.54 -351.72 2422.6
-768.02 -352.53 2428.2
-766.72 -354.85 2444.1
-753.29 -351.53 2421.3
-772.95 -363.74 2505.4
-776.28 -371.55 2559.2
-757.35 -365.62 2518.3
-736.63 -358.71 2470.7
-729.05 -358.13 2466.7
-736.80 -365.14 2515.0
-745.96 -372.98 2569.0
-704.83 -362.11 2494.1
-699.63 -362.77 2498.7
-691.97 -372.60 2566.4
-672.46 -365.61 2518.2
-655.98 -360.14 2480.6
-642.68 -356.34 2454.4
-642.18 -359.62 2477.0
-655.10 -370.56 2552.3
-644.51 -383.96 2644.7
-608.10 -370.15 2549.5
-611.38 -376.23 2591.4
-599.38 -372.95 2568.8
-591.49 -372.17 2563.4
-592.00 -376.73 2594.8
-592.34 -381.28 2626.2
-758.16 -357.15 2416.8
-744.21 -353.50 2392.1
-763.06 -365.50 2473.3
-773.14 -376.66 2548.8
-746.83 -366.98 2483.3
-719.69 -356.72 2413.9
-715.05 -357.52 2419.3
-725.41 -365.91 2476.1
-715.89 -364.34 2465.4
-721.21 -370.35 2506.1
-738.81 -382.84 2590.6
-711.32 -371.97 2517.1
-682.57 -360.24 2437.7
-684.90 -364.85 2468.9
-697.04 -374.82 2536.4
-696.63 -378.17 2559.0
-690.70 -378.55 2561.6
-685.51 -379.36 2567.1
-661.82 -369.84 2502.7
-638.22 -363.79 2461.7
-649.21 -373.79 2529.4
-661.57 -384.79 2603.9
-653.77 -384.17 2599.7
-630.68 -374.47 2534.0
-622.35 -373.41 2526.8
-626.47 -379.88 2570.6
-618.78 -379.25 2566.4
-620.28 -384.31 2600.6
-622.98 -390.22 2640.6
-609.96 -386.31 2614.1
-601.52 -385.24 2606.9
-591.03 -391.73 2650.8
-829.35 -381.76 2538.8
-784.51 -372.96 2480.3
-783.09 -375.36 2496.3
-759.83 -367.25 2442.3
-760.17 -370.50 2463.9
-762.71 -374.89 2493.1
-754.77 -374.16 2488.3
-736.02 -368.01 2447.4
-718.02 -362.13 2408.3
-722.37 -367.52 2444.1
-746.03 -382.92 2546.5
-746.28 -386.46 2570.1
-711.65 -371.85 2472.9
-681.53 -366.01 2434.0
-679.10 -368.11 2448.0
-686.57 -375.67 2498.3
-694.82 -383.81 2552.4
-697.92 -389.23 2588.5
-699.06 -393.64 2617.8
-680.31 -386.84 2572.6
-663.28 -380.89 2533.0
-663.58 -384.88 2559.5
-658.08 -385.54 2564.0
-654.76 -387.51 2577.0
-651.85 -389.76 2592.0
-634.04 -383.07 2547.5
-623.78 -380.84 2532.7
-625.55 -385.98 2566.8
-621.34 -387.50 2577.0
-625.80 -394.53 2623.7
-632.98 -403.44 2683.0
-623.68 -401.93 2672.9
-618.88 -403.31 2682.1
-609.40 -401.65 2671.1
-598.24 -398.82 2652.3
-837.18 -388.93 2542.6
-815.47 -384.90 2516.3
-798.64 -380.00 2484.3
-815.03 -390.95 2555.9
-804.82 -389.22 2544.5
-770.96 -375.93 2457.6
-746.04 -366.80 2398.0
-745.31 -369.52 2415.8
-757.81 -378.91 2477.1
-759.10 -382.80 2502.5
-752.86 -382.92 2503.3
-747.45 -383.48 2507.0
-725.48 -375.47 2454.6
-722.40 -377.18 2465.8
-738.29 -388.92 2542.6
-716.87 -381.04 2491.0
-703.02 -377.07 2465.1
-708.93 -383.73 2508.7
-690.62 -377.28 2466.5
-674.10 -371.70 2430.0
-673.74 -375.00 2451.6
-674.57 -379.04 2478.0
-669.34 -379.72 2482.5
-663.33 -379.97 2484.0
-668.68 -386.79 2528.6
-676.07 -394.93 2581.9
-676.50 -399.13 2609.3
-670.39 -399.52 2611.9
-653.30 -393.31 2571.3
-637.13 -387.54 2533.5
-644.32 -395.99 2588.8
-642.67 -407.72 2665.5
-630.16 -404.13 2642.0
-621.40 -402.88 2633.9
-613.34 -402.08 2628.6
-609.09 -403.78 2639.7
-608.96 -408.28 2669.1
-607.37 -411.90 2692.8
-841.67 -400.80 2576.5
-806.03 -386.89 2487.2
-792.00 -383.23 2463.6
-815.95 -398.02 2558.7
-813.48 -400.07 2571.9
-779.28 -386.42 2484.1
-753.12 -376.56 2420.7
-763.42 -384.92 2474.5
-786.19 -399.76 2569.9
-730.48 -387.86 2493.4
-715.13 -383.10 2462.8
-713.87 -385.88 2480.6
-719.85 -392.65 2524.2
-726.42 -399.87 2570.6
-707.17 -392.87 2525.6
-684.69 -383.94 2468.2
-679.52 -384.63 2472.6
-669.39 -382.51 2459.0
-662.62 -389.78 2505.7
-671.32 -398.80 2563.7
-672.53 -403.52 2594.0
-663.50 -402.12 2585.1
-642.11 -393.13 2527.2
-628.46 -388.74 2499.0
-639.55 -399.72 2569.6
-651.23 -411.30 2644.1
-641.94 -409.75 2634.1
-629.23 -405.95 2609.7
-616.40 -402.00 2584.3
-621.39 -409.71 2633.9
-628.39 -418.93 2693.1
-599.53 -404.18 2598.3
-598.01 -412.42 2651.3
-835.53 -404.50 2557.8
-798.42 -389.63 2463.7
-781.28 -390.64 2470.1
-763.31 -384.81 2433.2
-756.37 -384.49 2431.2
-786.17 -402.99 2548.2
-780.98 -403.73 2552.9
-754.54 -393.39 2487.5
-770.25 -405.05 2561.2
-729.38 -393.73 2489.7
-727.27 -396.10 2504.6
-739.86 -406.59 2570.9
-738.02 -409.27 2587.9
-726.37 -410.26 2594.2
-711.13 -405.41 2563.5
-710.97 -409.14 2587.1
-704.97 -409.55 2589.7
-693.30 -406.65 2571.3
-696.00 -412.19 2606.4
-675.27 -403.84 2553.5
-651.29 -393.35 2487.2
-664.83 -405.55 2564.4
-668.17 -411.70 2603.3
-658.17 -409.68 2590.5
-654.98 -411.90 2604.5
-651.24 -413.81 2616.6
-648.15 -416.18 2631.6
-643.81 -417.79 2641.8
-637.33 -418.03 2643.3
-602.18 -399.27 2524.6
-623.66 -422.71 2672.8
-598.83 -415.10 2624.7
-595.76 -432.64 2735.6
-829.79 -405.09 2520.2
-807.29 -397.24 2471.3
-802.40 -397.99 2476.0
-796.87 -398.44 2478.7
-785.02 -395.70 2461.7
-785.77 -399.32 2484.3
-782.85 -401.13 2495.5
-791.62 -409.00 2544.5
-784.42 -408.69 2542.5
-742.24 -389.99 2426.2
-748.33 -399.97 2488.3
-756.52 -407.86 2537.4
-720.21 -391.69 2436.8
-703.26 -385.86 2400.5
-724.80 -401.23 2496.1
-724.28 -404.55 2516.8
-708.75 -399.48 2485.2
-705.19 -401.12 2495.4
-692.52 -397.56 2473.3
-686.56 -397.82 2474.9
-695.77 -406.96 2531.8
-710.16 -419.33 2608.7
-687.39 -417.83 2599.4
-660.30 -405.33 2521.7
-671.53 -416.35 2590.2
-672.83 -421.37 2621.4
-660.36 -417.78 2599.1
-654.25 -418.18 2601.6
-648.13 -418.59 2604.1
-609.74 -410.91 2556.4
-621.28 -432.80 2692.6
-620.80 -437.38 2721.0
-618.74 -446.07 2775.1
-610.81 -445.53 2771.7
-837.99 -418.99 2565.3
-828.91 -417.77 2557.8
-828.93 -421.15 2578.5
-822.85 -421.46 2580.4
-816.76 -421.77 2582.3
-808.88 -421.15 2578.5
-799.84 -419.91 2570.9
-774.52 -410.04 2510.4
-745.14 -397.83 2435.7
-739.92 -398.42 2439.3
-750.61 -407.66 2495.9
-746.35 -408.87 2503.3
-723.01 -399.56 2446.3
-718.00 -400.30 2450.8
-732.24 -411.88 2521.7
-725.37 -411.70 2520.6
-703.06 -402.66 2465.3
-691.76 -399.82 2447.9
-676.66 -402.17 2462.2
-684.20 -410.52 2513.4
-698.43 -423.09 2590.3
-700.56 -428.50 2623.5
-694.45 -428.93 2626.1
-688.57 -429.50 2629.6
-665.81 -419.46 2568.1
-638.94 -410.75 2514.8
-649.18 -421.63 2581.4
-634.05 -416.09 2547.5
-636.55 -422.13 2584.5
-640.98 -429.59 2630.1
-617.39 -418.24 2560.6
-620.27 -424.75 2600.5
-628.85 -435.35 2665.4
-621.16 -434.81 2662.1
-625.93 -443.07 2712.7
-610.45 -437.03 2675.7
-593.41 -429.71 2630.9
-606.46 -444.27 2720.0
-611.42 -453.17 2774.5
-608.54 -456.40 2794.3
-840.74 -427.04 2573.7
-831.95 -425.96 2567.1
-831.04 -428.92 2585.0
-809.64 -421.28 2538.9
-789.94 -414.40 2497.5
-766.30 -405.31 2442.7
-750.34 -403.55 2432.1
-753.81 -408.85 2464.0
-747.09 -408.67 2462.9
-757.72 -418.05 2519.5
-758.20 -421.96 2543.0
-737.57 -414.08 2495.5
-733.82 -415.62 2504.8
-750.96 -429.12 2586.2
-735.83 -428.12 2580.2
-730.97 -429.19 2586.7
-723.41 -428.69 2583.6
-698.44 -417.76 2517.7
-685.03 -413.60 2492.7
-674.60 -411.18 2478.1
-670.91 -412.87 2488.3
-685.26 -425.79 2566.2
-691.40 -433.82 2614.6
-682.30 -432.35 2605.7
-655.89 -419.77 2529.9
-659.12 -430.44 2594.2
-657.36 -433.72 2613.9
-629.27 -419.51 2528.3
-632.40 -439.93 2651.4
-603.60 -444.03 2676.1
-596.13 -443.63 2673.7
-604.81 -455.38 2744.5
-604.52 -460.58 2775.8
-822.37 -420.90 2497.6
-814.36 -420.10 2492.9
-829.80 -431.50 2560.5
-831.02 -435.62 2585.0
-812.03 -429.12 2546.4
-786.36 -418.96 2486.2
-756.84 -406.57 2412.6
-734.46 -404.58 2400.8
-743.65 -413.14 2451.6
-769.94 -431.43 2560.1
-752.12 -428.84 2544.8
-734.65 -422.59 2507.7
-734.97 -426.55 2531.2
-717.98 -420.44 2494.9
-705.49 -416.88 2473.8
-703.03 -419.24 2487.8
-710.88 -427.85 2538.9
-700.54 -425.56 2525.3
-692.61 -424.71 2520.3
-688.33 -426.11 2528.6
-676.56 -422.85 2509.2
-681.68 -430.19 2552.8
-686.34 -437.37 2595.4
-677.28 -435.87 2586.5
-667.02 -433.57 2572.8
-666.16 -437.38 2595.4
-668.58 -443.44 2631.4
-648.91 -434.84 2580.4
-630.21 -426.70 2532.1
-623.54 -426.63 2531.7
-616.40 -426.24 2529.3
-629.17 -439.74 2609.4
-640.61 -452.61 2685.8
-633.56 -452.54 2685.4
-629.19 -454.41 2696.5
-853.08 -439.87 2570.7
-811.86 -421.91 2465.7
-806.38 -422.39 2468.5
-816.70 -431.22 2520.1
-814.09 -433.30 2532.3
-807.51 -433.30 2532.3
-794.99 -430.07 2513.4
-774.56 -422.49 2469.1
-742.54 -415.32 2427.2
-737.63 -416.10 2431.7
-749.74 -426.58 2493.0
-760.49 -440.28 2573.1
-721.04 -421.14 2461.2
-681.07 -416.21 2432.4
-687.34 -423.96 2477.7
-695.73 -433.19 2531.6
-679.76 -439.84 2570.5
-674.51 -440.77 2575.9
-668.74 -441.37 2579.4
-658.53 -439.02 2565.7
-652.76 -439.61 2569.2
-622.58 -432.53 2527.8
-642.09 -455.68 2663.0
-625.48 -448.71 2622.4
-621.98 -451.10 2636.3
-619.97 -454.64 2657.0
-612.53 -454.24 2654.6
-599.40 -449.55 2627.3
-600.51 -455.56 2662.4
-605.71 -475.91 2781.3
-837.92 -445.56 2565.1
-832.50 -446.22 2568.9
-810.44 -437.90 2521.0
-785.31 -427.77 2462.7
-787.53 -432.50 2489.9
-781.64 -432.81 2491.7
-753.76 -420.85 2422.8
-743.94 -418.86 2411.3
-750.33 -426.03 2452.7
-740.20 -423.87 2440.2
-741.45 -435.77 2508.7
-751.26 -445.44 2564.3
-718.16 -429.61 2473.3
-699.41 -422.16 2430.4
-697.90 -425.08 2447.2
-691.74 -425.20 2447.8
-691.17 -428.78 2468.4
-696.55 -436.16 2510.9
-699.63 -442.22 2545.8
-714.98 -456.22 2626.5
-681.64 -443.40 2552.6
-664.35 -436.39 2512.3
-667.24 -442.62 2548.2
-674.16 -451.69 2600.3
-676.65 -457.93 2636.3
-647.88 -442.94 2550.0
-623.74 -439.90 2532.5
-651.86 -464.62 2674.8
-630.27 -454.07 2614.0
-603.72 -439.66 2531.1
-595.96 -443.66 2554.1
-611.92 -476.73 2744.5
-841.22 -446.90 2534.9
-847.00 -453.51 2572.4
-827.32 -453.69 2573.5
-789.49 -436.47 2475.8
-779.18 -434.30 2463.5
-782.80 -439.92 2495.4
-764.00 -432.93 2455.7
-753.23 -430.42 2441.4
-756.66 -436.04 2473.3
-761.37 -442.50 2510.0
-755.39 -442.81 2511.8
-738.69 -436.79 2477.6
-755.13 -450.43 2554.9
-721.75 -442.16 2508.0
-699.23 -432.25 2451.9
-693.87 -432.87 2455.4
-694.34 -437.18 2479.8
-698.37 -443.83 2517.5
-700.39 -449.31 2548.6
-679.47 -440.04 2496.0
-669.87 -446.58 2533.1
-667.71 -449.55 2550.0
-669.43 -455.21 2582.1
-684.95 -470.47 2668.6
-666.30 -462.33 2622.5
-644.27 -451.65 2561.9
-658.24 -466.25 2644.7
-659.31 -471.93 2676.9
-639.21 -462.41 2622.9
-634.17 -463.69 2630.2
-622.90 -460.41 2611.6
-604.71 -462.03 2620.7
-598.03 -462.11 2621.2
-615.31 -486.52 2759.7
-834.02 -453.13 2533.0
-828.98 -453.97 2537.7
-816.63 -450.78 2519.9
-801.34 -445.91 2492.7
-768.67 -441.98 2470.7
-787.79 -456.79 2553.5
-769.04 -449.69 2513.8
-753.33 -444.27 2483.5
-759.33 -451.67 2524.9
-752.47 -451.48 2523.8
-760.12 -460.07 2571.8
-749.53 -465.92 2604.5
-718.41 -450.64 2519.1
-705.91 -446.86 2498.0
-708.93 -452.93 2531.9
-716.26 -461.89 2582.0
-703.50 -457.94 2559.9
-662.77 -443.99 2481.9
-693.78 -469.32 2623.5
-687.44 -474.34 2651.6
-684.17 -476.84 2665.6
-680.34 -479.01 2677.7
-670.91 -477.25 2667.8
-664.15 -477.36 2668.5
-645.13 -468.57 2619.3
-635.68 -466.62 2608.4
-640.83 -475.45 2657.8
-638.64 -478.98 2677.5
-618.71 -469.13 2622.5
-596.58 -457.38 2556.8
-611.36 -479.36 2679.7
-625.33 -495.95 2772.4
-828.12 -452.88 2495.5
-837.37 -461.54 2543.2
-814.57 -452.54 2493.6
-828.75 -464.10 2557.3
-799.93 -455.24 2508.5
-779.14 -447.05 2463.3
-765.64 -442.93 2440.7
-766.59 -447.18 2464.0
-762.20 -448.35 2470.5
-733.28 -438.72 2417.4
-764.41 -461.28 2541.8
-757.50 -461.09 2540.7
-764.55 -469.46 2586.8
-742.30 -459.83 2533.8
-704.09 -440.05 2424.8
-724.69 -457.01 2518.2
-739.18 -470.39 2591.9
-722.23 -463.81 2555.7
-721.12 -467.39 2575.4
-718.34 -474.37 2613.9
-689.25 -459.50 2531.9
-673.63 -453.41 2498.4
-663.51 -450.93 2484.7
-667.80 -458.29 2525.3
-693.10 -480.37 2646.9
-693.08 -485.16 2673.3
-686.82 -485.63 2675.9
-681.74 -486.96 2683.2
-655.49 -473.04 2606.5
-632.95 -461.52 2543.1
-617.24 -464.59 2560.0
-613.23 -466.59 2571.0
-608.49 -468.07 2579.2
-601.92 -468.16 2579.7
-845.43 -476.39 2588.0
-802.28 -466.90 2536.5
-780.95 -458.24 2489.4
-761.00 -450.26 2446.1
-752.99 -456.94 2482.4
-769.48 -470.97 2558.6
-744.52 -459.66 2497.1
-748.32 -466.06 2531.9
-723.16 -454.37 2468.4
-715.95 -457.95 2487.8
-742.37 -479.17 2603.1
-735.31 -478.96 2602.0
-724.53 -476.31 2587.6
-723.02 -479.76 2606.4
-711.51 -476.58 2589.0
-683.01 -461.84 2509.0
-666.84 -473.46 2572.1
-683.34 -490.07 2662.4
-673.46 -492.94 2678.0
-640.52 -473.72 2573.5
-629.54 -475.50 2583.2
-649.96 -496.21 2695.7
-640.37 -494.20 2684.8
-630.61 -492.01 2672.9
-623.13 -491.58 2670.6
-605.26 -482.85 2623.1
-600.98 -484.88 2634.1
-806.07 -468.04 2507.4
-782.20 -457.88 2452.9
-770.77 -454.88 2436.8
-769.42 -457.84 2452.7
-765.36 -459.22 2460.1
-772.00 -467.09 2502.3
-787.65 -480.60 2574.7
-777.94 -482.86 2586.7
-722.82 -452.55 2424.4
-733.36 -467.28 2503.3
-719.02 -488.39 2616.4
-692.02 -474.53 2542.1
-676.64 -468.44 2509.5
-667.25 -466.43 2498.7
-663.59 -477.78 2559.6
-638.81 -479.11 2566.7
-625.00 -473.68 2537.6
-648.37 -496.62 2660.5
-861.01 -487.24 2574.5
-853.43 -486.72 2571.7
-845.86 -486.20 2569.0
-836.46 -484.62 2560.6
-803.74 -469.38 2480.1
-786.75 -463.17 2447.3
-784.56 -465.63 2460.3
-776.37 -464.55 2454.6
-777.34 -468.97 2477.9
-764.15 -464.86 2456.2
-761.81 -467.33 2469.2
-788.47 -487.78 2577.3
-750.34 -476.31 2516.7
-724.75 -468.20 2473.8
-742.96 -484.25 2558.7
-738.45 -485.65 2566.1
-741.73 -492.24 2600.9
-739.22 -495.07 2615.8
-701.27 -487.55 2576.1
-677.62 -475.64 2513.1
-674.98 -483.07 2552.4
-692.44 -500.48 2644.4
-684.28 -499.52 2639.4
-648.51 -493.13 2605.6
-644.24 -495.05 2615.7
-630.61 -489.73 2587.6
-620.64 -492.46 2602.1
-621.69 -498.72 2635.1
-873.26 -497.08 2591.0
-846.60 -485.65 2531.4
-836.64 -483.68 2521.1
-822.73 -479.38 2498.7
-806.47 -473.64 2468.8
-797.32 -472.01 2460.3
-802.06 -478.65 2494.9
-803.94 -483.67 2521.1
-800.65 -485.64 2531.3
-801.73 -490.31 2555.7
-787.20 -485.44 2530.3
-765.53 -476.05 2481.3
-772.01 -484.14 2523.5
-782.56 -494.95 2579.9
-770.46 -491.50 2561.9
-751.42 -483.52 2520.3
-735.64 -477.52 2489.0
-721.94 -472.77 2464.3
-713.65 -475.77 2479.9
-725.49 -488.06 2543.9
-720.44 -489.10 2549.4
-730.47 -500.51 2608.8
-705.88 -492.79 2568.6
-686.76 -484.00 2522.8
-678.60 -482.85 2516.8
-684.67 -491.90 2564.0
-685.45 -507.24 2643.9
-664.10 -496.40 2587.4
-650.28 -491.03 2559.4
-671.84 -512.54 2671.5
-649.18 -511.06 2663.8
-627.90 -499.62 2604.2
-626.06 -503.57 2624.8
-631.11 -513.21 2675.1
-855.91 -493.80 2539.5
-858.08 -498.89 2565.7
-848.66 -497.26 2557.4
-837.74 -494.73 2544.3
-820.16 -488.19 2510.7
-809.40 -485.64 2497.6
-811.64 -490.91 2524.7
-811.36 -494.73 2544.3
-794.97 -488.71 2513.4
-783.72 -485.78 2498.3
-789.48 -493.42 2537.6
-786.93 -495.97 2550.7
-784.61 -498.69 2564.7
-785.64 -503.61 2590.0
-776.91 -502.32 2583.3
-760.64 -496.07 2551.2
-730.57 -480.64 2471.9
-712.42 -477.07 2453.5
-736.44 -497.59 2559.1
-742.69 -506.38 2604.2
-729.47 -501.93 2581.4
-721.93 -501.34 2578.3
-713.08 -499.82 2570.5
-696.45 -492.77 2534.2
-694.45 -496.03 2551.0
-686.22 -494.87 2545.1
-691.97 -503.86 2591.3
-712.31 -523.76 2693.6
-689.83 -512.25 2634.4
-665.66 -499.24 2567.5
-650.85 -493.07 2535.8
-658.84 -509.41 2619.8
-664.29 -518.98 2669.0
-643.42 -507.97 2612.4
-646.79 -516.06 2654.0
-648.34 -522.85 2689.0
-870.00 -504.73 2561.6
-867.68 -511.19 2594.4
-844.88 -501.65 2546.0
-845.06 -505.70 2566.5
-839.64 -506.45 2570.3
-818.44 -497.61 2525.5
-811.28 -497.24 2523.6
-794.27 -490.77 2490.8
-761.71 -474.51 2408.2
-758.18 -480.18 2437.0
-761.09 -486.07 2466.9
-763.56 -491.78 2495.9
-773.87 -502.69 2551.2
-774.58 -507.49 2575.6
-765.63 -505.98 2567.9
-739.71 -493.14 2502.8
-725.16 -487.72 2475.3
-747.72 -507.38 2575.1
-730.13 -499.91 2537.1
-706.70 -492.74 2500.8
-727.69 -512.08 2598.9
-720.37 -511.66 2596.8
-704.46 -505.09 2563.4
-708.58 -512.88 2603.0
-707.39 -516.94 2623.6
-670.62 -494.82 2511.3
-658.12 -505.22 2564.1
-676.29 -524.47 2661.8
-662.36 -518.97 2633.9
-629.74 -503.79 2556.8
-649.98 -525.52 2667.1
-846.05 -508.95 2549.5
-825.01 -500.21 2505.7
-837.73 -511.95 2564.5
-834.12 -513.82 2573.9
-818.73 -508.41 2546.7
-791.53 -495.51 2482.1
-775.00 -489.14 2450.2
-780.07 -496.41 2486.7
-763.67 -490.02 2454.7
-745.68 -482.50 2417.0
-748.27 -488.28 2445.9
-757.27 -498.37 2496.5
-760.09 -504.54 2527.4
-754.61 -505.26 2531.0
-743.83 -502.41 2516.7
-744.71 -507.46 2542.0
-760.80 -523.05 2620.1
-735.50 -510.21 2555.8
-703.70 -497.11 2490.2
-717.82 -511.78 2563.7
-702.97 -505.88 2534.1
-693.47 -503.75 2523.4
-704.13 -516.36 2586.6
-712.61 -532.73 2668.6
-687.55 -519.04 2600.0
-679.49 -518.03 2594.9
-657.41 -506.20 2535.7
-662.70 -515.43 2581.9
-678.64 -533.22 2671.0
-661.82 -525.36 2631.7
-644.47 -516.92 2589.4
-653.39 -529.59 2652.9
-659.90 -540.56 2707.8
-652.80 -540.49 2707.5
-638.86 -534.69 2678.4
-860.21 -524.19 2592.1
-786.51 -490.78 2427.0
-784.10 -493.22 2439.0
-792.96 -502.85 2486.6
-810.77 -518.36 2563.3
-795.41 -517.02 2556.7
-778.05 -509.98 2521.9
-781.53 -516.60 2554.6
-752.93 -501.96 2482.2
-738.56 -500.94 2477.2
-756.29 -517.46 2558.9
-721.18 -497.81 2461.7
-738.96 -519.27 2567.8
-760.51 -539.27 2666.7
-725.00 -518.80 2565.5
-694.73 -501.75 2481.2
-712.09 -519.10 2567.0
-734.76 -540.67 2673.7
-727.00 -540.06 2670.6
-686.78 -541.10 2675.8
-662.37 -527.19 2607.0
-654.56 -526.35 2602.8
-645.35 -524.35 2592.9
-656.84 -539.30 2666.9
-667.03 -553.49 2737.0
-646.74 -542.43 2682.3
-872.25 -530.06 2588.0
-854.99 -523.60 2556.4
-851.47 -525.51 2565.8
-816.89 -508.15 2481.0
-777.09 -499.10 2436.9
-781.09 -505.79 2469.5
-770.84 -503.27 2457.2
-772.01 -508.24 2481.5
-773.35 -513.40 2506.6
-767.10 -513.57 2507.5
-766.53 -526.57 2571.0
-744.02 -520.15 2539.6
-713.30 -503.13 2456.5
-743.22 -528.96 2582.6
-753.43 -541.10 2641.9
-707.05 -512.45 2502.0
-737.46 -544.48 2658.4
-711.20 -535.09 2612.6
-712.27 -541.05 2641.7
-718.27 -550.90 2689.8
-702.46 -544.06 2656.3
-694.01 -542.84 2650.4
-703.80 -556.00 2714.7
-689.87 -550.50 2687.8
-667.13 -537.79 2625.7
-659.99 -537.52 2624.4
-657.60 -541.15 2642.1
-650.11 -552.24 2696.3
-632.10 -542.78 2650.1
-619.50 -537.81 2625.8
-855.24 -526.30 2537.5
-838.41 -519.94 2506.9
-833.77 -521.10 2512.5
-838.30 -528.06 2546.0
-825.00 -523.81 2525.5
-792.74 -507.36 2446.2
-778.87 -502.50 2422.7
-770.46 -501.12 2416.1
-756.50 -508.57 2452.0
-765.02 -518.66 2500.7
-752.51 -514.54 2480.8
-769.19 -530.48 2557.7
-770.59 -540.76 2607.3
-743.11 -526.10 2536.5
-725.27 -518.05 2497.7
-743.41 -535.79 2583.3
-741.50 -539.28 2600.1
-680.48 -528.53 2548.3
-680.31 -533.58 2572.6
-671.23 -536.98 2589.0
-689.78 -557.40 2687.5
-669.57 -563.85 2718.5
-633.19 -538.89 2598.2
-628.42 -540.58 2606.4
-633.16 -550.57 2654.5
-623.48 -548.11 2642.7
-628.55 -558.71 2693.8
-871.80 -539.05 2566.9
-868.00 -540.83 2575.4
-839.88 -527.37 2511.3
-830.29 -525.42 2502.0
-828.71 -528.54 2516.9
-834.97 -536.77 2556.0
-821.39 -532.26 2534.6
-792.61 -517.75 2465.5
-769.80 -506.94 2414.0
-772.96 -513.20 2443.8
-788.01 -527.51 2512.0
-785.84 -530.44 2525.9
-796.61 -542.23 2582.0
-776.34 -537.47 2559.4
-765.16 -534.29 2544.2
-754.32 -531.30 2530.0
-755.21 -536.60 2555.2
-744.13 -533.41 2540.0
-718.09 -519.33 2473.0
-728.14 -531.35 2530.2
-746.52 -549.71 2617.7
-716.23 -532.25 2534.5
-694.49 -540.90 2575.7
-697.60 -548.60 2612.4
-712.05 -565.45 2692.6
-711.46 -570.58 2717.0
-691.07 -559.77 2665.6
-686.28 -561.50 2673.8
-679.20 -573.08 2728.9
-641.82 -547.24 2605.9
-648.78 -565.07 2690.8
-640.12 -563.59 2683.7
-872.59 -550.41 2589.0
-842.90 -535.80 2520.3
-830.51 -532.05 2502.7
-823.72 -540.36 2541.8
-798.91 -532.61 2505.3
-775.55 -521.27 2452.0
-806.70 -546.69 2571.5
-784.67 -540.70 2543.3
-740.70 -519.12 2441.9
-754.35 -533.24 2508.3
-751.15 -535.61 2519.4
-758.18 -545.36 2565.3
-768.84 -557.92 2624.4
-765.01 -560.09 2634.6
-759.22 -560.87 2638.2
-762.01 -568.05 2672.0
-736.40 -553.99 2605.9
-716.11 -543.72 2557.6
-714.92 -547.88 2577.1
-717.51 -555.06 2610.9
-728.18 -568.67 2674.9
-723.48 -570.44 2683.2
-702.82 -559.52 2631.9
-693.17 -557.25 2621.2
-703.17 -570.89 2685.4
-692.20 -567.61 2669.9
-683.02 -565.73 2661.1
-693.40 -580.19 2729.1
-670.59 -572.80 2694.3
-641.04 -553.32 2602.7
-636.97 -555.66 2613.7
-633.20 -570.58 2683.9
-629.26 -573.33 2696.8
-863.41 -547.05 2542.2
-865.29 -552.46 2567.4
-868.60 -558.87 2597.2
-826.72 -536.07 2491.2
-822.34 -554.91 2578.8
-758.02 -524.30 2436.5
-757.68 -537.50 2497.8
-766.95 -548.77 2550.2
-758.34 -547.33 2543.5
-768.08 -559.22 2598.8
-757.80 -561.59 2609.8
-728.79 -544.95 2532.5
-753.31 -568.41 2641.5
-750.41 -571.42 2655.5
-722.10 -554.95 2578.9
-714.82 -554.49 2576.8
-709.61 -566.32 2631.8
-723.43 -582.96 2709.1
-684.49 -568.13 2640.2
-681.60 -589.30 2738.6
-662.25 -578.60 2688.8
-639.20 -564.40 2622.9
-651.12 -581.10 2700.5
-875.59 -561.45 2578.1
-867.69 -560.66 2574.5
-838.96 -550.57 2528.1
-825.25 -550.17 2526.3
-834.01 -564.98 2594.3
-795.76 -543.44 2495.4
-769.55 -547.82 2515.5
-785.16 -563.70 2588.4
-772.21 -559.19 2567.7
-767.76 -560.80 2575.1
-781.30 -575.69 2643.5
-751.70 -563.77 2588.8
-721.80 -551.19 2531.0
-748.18 -576.58 2647.5
-748.92 -582.49 2674.7
-742.20 -582.66 2675.5
-721.73 -571.93 2626.2
-709.00 -572.66 2629.5
-695.23 -572.54 2629.0
-673.83 -566.02 2599.1
-686.76 -594.72 2730.9
-678.42 -593.62 2725.8
-673.62 -595.62 2735.0
-664.59 -593.89 2727.0
-642.30 -580.14 2663.9
-645.74 -589.59 2707.3
-616.19 -588.18 2700.8
-850.07 -555.81 2522.2
-817.59 -542.93 2463.7
-818.54 -547.84 2486.0
-819.68 -552.96 2509.2
-825.53 -561.36 2547.4
-804.25 -551.30 2501.7
-783.48 -564.37 2561.0
-796.98 -579.00 2627.4
-763.37 -559.37 2538.3
-738.58 -545.91 2477.2
-778.41 -580.39 2633.7
-747.27 -572.23 2596.7
-746.39 -576.76 2617.2
-747.22 -588.09 2668.7
-724.31 -575.38 2611.0
-717.47 -575.33 2610.8
-702.93 -569.04 2582.2
-713.23 -582.92 2645.2
-702.13 -585.10 2655.1
-682.57 -580.18 2632.8
-678.15 -588.19 2669.1
-644.30 -570.47 2588.7
-663.92 -594.03 2695.6
-652.91 -590.39 2679.1
-629.82 -575.65 2612.2
-626.35 -578.69 2626.0
-631.77 -603.38 2738.0
-871.84 -576.75 2586.8
-823.33 -557.53 2500.6
-839.02 -572.66 2568.4
-835.98 -575.15 2579.6
-806.54 -559.38 2508.8
-787.84 -550.84 2470.6
-782.58 -551.65 2474.2
-773.50 -549.76 2465.7
-765.90 -548.90 2461.8
-767.26 -554.49 2486.9
-791.10 -576.56 2585.9
-790.05 -580.72 2604.6
-742.99 -550.84 2470.5
-737.55 -556.40 2495.5
-780.78 -594.22 2665.1
-761.57 -584.78 2622.8
-763.93 -591.87 2654.6
-726.02 -578.12 2592.9
-721.84 -580.17 2602.1
-735.76 -596.94 2677.3
-725.68 -594.37 2665.8
-713.01 -601.17 2696.3
-680.20 -579.18 2597.7
-688.84 -592.40 2657.0
-675.15 -592.48 2657.3
-652.35 -590.55 2648.7
-648.40 -593.22 2660.6
-652.41 -603.30 2705.8
-633.52 -605.37 2715.1
-616.72 -595.93 2672.8
-620.55 -606.45 2720.0
-856.72 -573.34 2541.9
-839.29 -566.03 2509.5
-820.78 -557.87 2473.3
-827.81 -567.08 2514.2
-844.06 -582.80 2583.9
-843.10 -586.79 2601.6
-814.51 -571.47 2533.6
-796.94 -563.69 2499.1
-800.76 -571.03 2531.7
-802.07 -576.70 2556.8
-802.69 -581.95 2580.1
-775.74 -576.83 2557.4
-745.43 -559.07 2478.6
-744.11 -572.90 2540.0
-745.92 -579.42 2568.9
-770.29 -603.74 2676.7
-741.99 -592.23 2625.6
-748.83 -603.22 2674.4
-720.13 -614.23 2723.2
-679.11 -584.97 2593.5
-682.98 -600.19 2661.0
-677.92 -601.83 2668.2
-645.52 -585.00 2593.6
-654.58 -599.46 2657.7
-654.54 -605.80 2685.8
-661.45 -618.78 2743.3
-647.95 -619.47 2746.4
-623.87 -603.07 2673.7
-618.02 -618.02 2740.0
-841.79 -565.48 2478.6
-826.47 -563.79 2471.2
-830.21 -570.77 2501.8
-802.33 -555.94 2436.8
-813.44 -572.66 2510.1
-813.20 -577.11 2529.5
-788.22 -563.93 2471.8
-784.44 -565.82 2480.1
-785.29 -571.12 2503.3
-786.89 -577.05 2529.3
-795.57 -588.32 2578.7
-789.72 -588.94 2581.4
-771.94 -580.60 2544.9
-753.49 -571.61 2505.4
-743.44 -573.88 2515.4
-761.30 -592.87 2598.6
-769.78 -604.83 2651.0
-764.22 -605.87 2655.6
-749.26 -599.41 2627.3
-739.21 -596.79 2615.8
-724.32 -612.89 2686.4
-708.19 -617.03 2704.5
-698.17 -614.39 2692.9
-676.55 -601.38 2635.9
-669.47 -613.68 2689.8
-668.25 -619.01 2713.2
-657.43 -615.46 2697.7
-635.01 -600.87 2633.7
-631.02 -610.21 2674.6
-853.67 -584.43 2532.9
-841.85 -580.81 2517.2
-851.32 -591.94 2565.4
-829.11 -581.03 2518.1
-805.28 -568.81 2465.2
-825.37 -587.66 2546.9
-825.64 -592.59 2568.2
-802.06 -580.35 2515.2
-794.93 -579.91 2513.2
-793.94 -583.97 2530.9
-782.42 -580.30 2514.9
-780.19 -583.50 2528.8
-799.02 -602.65 2611.8
-771.65 -592.05 2565.8
-742.92 -574.96 2491.8
-740.59 -583.30 2527.9
-750.59 -596.45 2584.9
-746.27 -598.36 2593.2
-753.42 -609.58 2641.8
-756.47 -623.39 2701.7
-732.98 -609.68 2642.3
-700.80 -605.55 2624.4
-718.20 -632.87 2742.8
-705.88 -628.23 2722.7
-684.20 -615.09 2665.7
-651.90 -604.37 2619.3
-649.22 -614.69 2664.0
-652.51 -624.45 2706.3
-640.54 -626.46 2715.0
-615.46 -636.93 2760.4
-853.81 -586.59 2513.9
-851.36 -589.40 2526.0
-830.88 -579.69 2484.4
-831.20 -584.44 2504.7
-832.03 -589.63 2527.0
-830.33 -593.09 2541.8
-843.60 -607.39 2603.1
-836.56 -607.18 2602.2
-813.51 -595.25 2551.1
-805.41 -594.15 2546.4
-802.00 -596.53 2556.6
-789.26 -591.95 2536.9
-810.57 -613.03 2627.3
-766.23 -599.66 2570.0
-734.41 -590.15 2529.2
-747.13 -611.29 2619.8
-758.17 -631.81 2707.8
-746.89 -634.15 2717.8
-706.28 -611.21 2619.5
-712.26 -622.36 2667.3
-707.68 -630.61 2702.6
-696.68 -633.35 2714.3
-651.47 -630.46 2702.0
-649.15 -642.01 2751.5
-875.66 -603.68 2558.8
-864.94 -605.46 2566.3
-820.85 -579.05 2454.4
-814.79 -579.26 2455.3
-809.63 -580.13 2458.9
-797.78 -576.17 2442.2
-800.75 -582.94 2470.9
-820.00 -601.77 2550.7
-821.38 -607.69 2575.8
-808.22 -602.85 2555.3
-796.61 -599.11 2539.4
-793.19 -601.50 2549.6
-752.49 -600.67 2546.0
-752.35 -622.40 2638.1
-733.25 -635.48 2693.6
-682.00 -626.89 2657.2
-645.83 -638.81 2707.7
-647.55 -654.74 2775.2
-825.22 -602.54 2526.2
-815.96 -600.54 2517.8
-822.85 -610.50 2559.5
-824.20 -616.48 2584.6
-811.02 -611.59 2564.1
-799.69 -608.03 2549.2
-796.25 -610.46 2559.4
-810.28 -626.44 2626.4
-794.37 -624.63 2618.8
-770.43 -611.03 2561.8
-756.68 -616.05 2582.8
-760.98 -654.30 2743.2
-745.05 -646.64 2711.1
-723.02 -639.60 2681.5
-692.75 -637.33 2672.0
-677.54 -636.06 2666.7
-664.13 -629.90 2640.9
-652.36 -645.34 2705.6
-630.81 -644.83 2703.5
-860.54 -606.29 2514.6
-855.00 -611.65 2536.8
-842.94 -622.17 2580.4
-831.75 -618.82 2566.5
-829.56 -622.17 2580.4
-821.69 -621.28 2576.7
-816.76 -622.61 2582.3
-815.01 -626.42 2598.0
-788.87 -611.37 2535.7
-782.55 -611.58 2536.5
-778.51 -613.57 2544.8
-781.70 -632.16 2621.9
-741.47 -610.24 2530.9
-742.46 -616.51 2556.9
-732.01 -654.58 2714.9
-714.36 -645.00 2675.1
-716.82 -653.57 2710.7
-709.97 -653.74 2711.4
-691.63 -643.22 2667.7
-695.54 -653.38 2709.9
-698.27 -662.64 2748.3
-679.20 -651.19 2700.8
-668.35 -647.47 2685.3
-669.69 -655.59 2719.0
-657.71 -650.71 2698.8
-665.69 -665.69 2760.9
-643.73 -665.19 2758.8
-641.74 -670.58 2781.2
-856.32 -623.99 2560.4
-830.67 -610.02 2503.1
-833.32 -616.79 2530.9
-841.27 -627.62 2575.3
-826.19 -621.30 2549.4
-818.68 -620.61 2546.6
-818.28 -625.35 2566.0
-820.14 -631.91 2592.9
-814.86 -633.03 2597.6
-786.99 -616.48 2529.6
-780.40 -616.45 2529.5
-774.38 -616.88 2531.3
-768.91 -617.76 2534.9
-780.44 -637.93 2617.6
-759.97 -637.83 2617.3
-751.26 -636.20 2610.5
-740.53 -638.62 2620.5
-766.23 -666.91 2736.5
-758.93 -673.01 2761.6
-747.64 -669.31 2746.4
-733.37 -662.86 2719.9
-723.00 -659.83 2707.5
-733.84 -676.28 2775.0
-708.70 -672.90 2761.2
-690.69 -662.50 2718.5
-680.00 -658.97 2704.0
-676.20 -662.12 2716.9
-680.95 -673.78 2764.7
-672.09 -672.09 2757.8
-653.91 -660.94 2712.1
-651.75 -665.92 2732.5
-650.38 -671.83 2756.7
-639.83 -668.27 2742.1
-642.03 -678.10 2782.5
-874.43 -629.33 2555.2
-882.55 -640.02 2598.6
-841.95 -615.27 2498.1
-824.03 -616.40 2502.7
-843.84 -636.23 2583.2
-843.15 -640.79 2601.7
-821.21 -629.16 2554.5
-806.00 -622.52 2527.5
-814.11 -633.94 2573.9
-815.00 -639.88 2598.0
-797.26 -631.17 2562.6
-799.78 -638.48 2592.3
-803.28 -646.71 2625.7
-747.26 -622.72 2528.3
-760.63 -639.47 2596.3
-752.16 -661.63 2686.3
-754.25 -669.67 2718.9
-741.49 -664.54 2698.1
-733.42 -663.57 2694.2
-731.70 -668.38 2713.7
-735.15 -678.05 2753.0
-732.93 -682.63 2771.6
-724.46 -681.42 2766.7
-697.48 -676.13 2745.2
-687.21 -673.04 2732.6
-663.84 -656.93 2667.2
-651.90 -658.84 2675.0
-645.79 -659.67 2678.4
-868.60 -631.71 2538.1
-854.54 -631.05 2535.5
-815.97 -611.98 2458.8
-821.76 -621.17 2495.8
-824.64 -628.30 2524.4
-800.09 -614.47 2468.8
-799.06 -623.65 2505.7
-820.52 -656.42 2637.4
-804.78 -649.24 2608.5
-788.04 -641.12 2575.9
-768.34 -630.43 2533.0
-769.29 -636.66 2558.0
-780.41 -651.47 2617.5
-766.97 -645.87 2595.0
-745.16 -633.06 2543.5
-753.97 -646.26 2596.6
-754.21 -683.06 2744.4
-756.50 -691.66 2779.0
-741.25 -690.87 2775.8
-714.12 -672.11 2700.4
-710.25 -675.09 2712.4
-713.89 -685.33 2753.6
-711.76 -690.19 2773.1
-701.16 -686.85 2759.6
-674.25 -667.30 2681.1
-890.85 -649.72 2583.6
-878.52 -645.58 2567.1
-869.70 -643.98 2560.7
-849.22 -643.55 2559.0
-816.74 -623.81 2480.5
-824.49 -634.72 2523.9
-809.95 -654.71 2603.4
-808.06 -658.67 2619.2
-788.73 -648.37 2578.2
-768.47 -637.11 2533.4
-755.53 -637.27 2534.1
-766.54 -652.23 2593.6
-770.16 -661.11 2628.9
-757.07 -655.68 2607.3
-756.26 -685.58 2726.2
-730.35 -668.34 2657.6
-748.92 -691.86 2751.1
-747.81 -697.48 2773.5
-717.51 -675.71 2686.9
-704.92 -677.01 2692.1
-715.67 -694.20 2760.5
-690.70 -683.66 2718.5
-652.36 -666.10 2648.7
-663.80 -684.99 2723.8
-660.98 -689.41 2741.4
-642.74 -677.67 2694.7
-839.56 -642.79 2529.9
-835.43 -644.67 2537.3
-847.14 -664.16 2614.0
-812.96 -663.92 2613.1
-818.49 -674.05 2653.0
-808.47 -671.44 2642.7
-780.45 -653.71 2572.9
-760.31 -642.33 2528.1
-762.59 -649.86 2557.8
