ply
format ascii 1.0
element vertex 2081
property float x
property float y
property float z
end_header
-583.11 -973.75 2183.6
-557.34 -939.83 2107.6
-554.04 -943.51 2115.8
-563.13 -968.58 2172.1
-552.54 -959.97 2152.8
-539.79 -947.38 2124.5
-532.77 -944.70 2118.5
-536.19 -960.67 2154.3
-539.21 -976.26 2189.3
-524.03 -958.87 2150.3
-512.69 -948.21 2126.4
-514.46 -961.81 2156.9
-514.59 -972.63 2181.2
-503.56 -962.35 2158.1
-491.19 -949.26 2128.7
-481.82 -941.74 2111.9
-472.53 -934.21 2095.0
-466.72 -933.44 2093.3
-460.13 -931.08 2088.0
-457.26 -936.30 2099.7
-459.54 -952.30 2135.6
-455.35 -955.13 2141.9
-447.36 -949.95 2130.3
-431.42 -927.55 2080.1
-418.86 -911.94 2045.0
-429.17 -946.37 2122.3
-439.09 -980.82 2199.5
-422.05 -955.18 2142.0
-395.69 -907.45 2035.0
-393.85 -915.44 2052.9
-413.55 -974.40 2185.1
-417.96 -998.47 2239.1
-408.84 -990.42 2221.1
-413.86 -1016.92 2280.5
-408.11 -1017.31 2281.3
-381.84 -965.82 2165.9
-374.79 -962.15 2157.7
-386.63 -1007.57 2259.5
-385.77 -1020.81 2289.2
-375.78 -1009.90 2264.7
-921.12 -921.12 2053.7
-900.73 -905.96 2019.9
-914.60 -925.30 2063.0
-908.14 -924.16 2060.5
-877.18 -897.94 2002.0
-877.13 -903.23 2013.8
-889.88 -921.85 2055.3
-873.94 -910.79 2030.7
-854.46 -895.89 1997.4
-856.83 -903.86 2015.2
-837.90 -889.30 1982.8
-829.12 -885.42 1974.1
-844.23 -907.15 2022.6
-824.78 -891.79 1988.3
-804.07 -874.87 1950.6
-815.04 -892.42 1989.7
-807.37 -889.65 1983.5
-791.08 -877.29 1956.0
-803.82 -897.17 2000.3
-810.20 -910.16 2029.3
-806.23 -911.62 2032.5
-800.21 -910.77 2030.6
-778.73 -892.18 1989.2
-764.11 -881.28 1964.9
-771.22 -895.44 1996.4
-781.15 -913.10 2035.8
-783.67 -922.28 2056.3
-778.58 -922.57 2056.9
-768.94 -917.43 2045.5
-766.13 -920.42 2052.1
-761.36 -921.08 2053.6
-743.20 -905.45 2018.8
-739.44 -907.26 2022.8
-752.64 -930.04 2073.6
-737.48 -917.87 2046.5
-711.89 -892.45 1989.8
-702.30 -886.84 1977.3
-697.35 -887.06 1977.8
-698.78 -895.47 1996.5
-711.00 -917.93 2046.6
-719.08 -935.34 2085.4
-708.49 -928.55 2070.3
-694.12 -916.66 2043.8
-689.28 -917.27 2045.1
-682.39 -915.14 2040.4
-676.68 -914.57 2039.1
-672.40 -915.95 2042.2
-667.26 -916.16 2042.6
-671.75 -929.70 2072.8
-679.18 -947.57 2112.7
-671.34 -944.25 2105.3
-643.57 -912.60 2034.7
-624.94 -893.50 1992.1
-642.82 -926.74 2066.2
-656.56 -954.49 2128.1
-640.42 -938.92 2093.4
-643.65 -951.72 2121.9
-642.50 -958.21 2136.4
-614.77 -924.83 2062.0
-605.10 -918.27 2047.3
-603.51 -923.95 2060.0
-586.23 -905.51 2018.9
-582.35 -907.62 2023.6
-604.63 -950.92 2120.1
-609.47 -967.32 2156.7
-592.34 -948.84 2115.5
-591.85 -956.91 2133.5
-587.37 -958.64 2137.3
-577.58 -951.62 2121.7
-580.99 -966.45 2154.8
-570.98 -959.03 2138.2
-542.99 -920.96 2053.3
-537.50 -920.66 2052.7
-553.18 -956.99 2133.7
-549.76 -960.69 2141.9
-537.94 -949.63 2117.3
-532.28 -949.32 2116.6
-532.38 -959.39 2139.0
-532.36 -969.46 2161.5
-521.81 -960.36 2141.2
-514.59 -957.24 2134.2
-508.88 -956.91 2133.5
-501.70 -953.78 2126.5
-495.59 -952.64 2124.0
-486.61 -945.89 2108.9
-481.37 -946.34 2109.9
-475.32 -945.18 2107.3
-468.88 -943.21 2103.0
-461.47 -939.23 2094.1
-454.30 -935.65 2086.1
-452.56 -943.30 2103.1
-448.64 -946.53 2110.3
-440.54 -940.91 2097.8
-431.58 -933.28 2080.8
-425.63 -932.07 2078.1
-419.15 -929.65 2072.7
-411.08 -923.60 2059.2
-405.20 -922.37 2056.5
-390.43 -900.59 2007.9
-387.62 -906.19 2020.4
-406.53 -963.42 2148.0
-418.41 -1005.35 2241.5
-417.56 -1017.44 2268.5
-407.43 -1006.93 2245.0
-384.52 -964.10 2149.5
-385.55 -995.53 2219.6
-390.89 -1024.60 2284.4
-382.67 -1018.50 2270.8
-373.33 -1009.15 2250.0
-923.61 -913.12 2024.2
-915.31 -910.08 2017.4
-901.81 -907.03 2010.7
-868.72 -878.83 1948.1
-884.62 -900.14 1995.4
-881.28 -902.02 1999.5
-849.00 -874.11 1937.7
-846.87 -877.12 1944.3
-846.55 -882.03 1955.3
-820.61 -860.16 1906.8
-799.25 -842.84 1868.4
-795.76 -844.28 1871.6
-812.75 -867.59 1923.2
-837.72 -899.77 1994.6
-844.58 -912.78 2023.4
-819.13 -890.80 1974.7
-790.37 -864.94 1917.3
-791.26 -871.39 1931.6
-810.16 -897.89 1990.4
-819.81 -914.40 2027.0
-805.89 -904.67 2005.4
-785.22 -887.20 1966.7
-792.62 -901.41 1998.2
-797.83 -913.31 2024.6
-779.06 -897.73 1990.0
-767.13 -889.87 1972.6
-766.57 -895.19 1984.4
-770.57 -905.94 2008.2
-769.86 -911.27 2020.1
-761.60 -907.66 2012.1
-755.96 -907.15 2010.9
-758.05 -915.98 2030.5
-753.97 -917.42 2033.7
-735.24 -900.92 1997.1
-706.87 -872.30 1933.7
-695.44 -864.33 1916.0
-712.80 -892.29 1978.0
-719.33 -906.98 2010.6
-701.99 -891.58 1976.4
-690.00 -882.80 1956.9
-696.64 -897.90 1990.4
-713.99 -927.13 2055.2
-724.74 -948.15 2101.8
-716.50 -944.48 2093.7
-698.53 -927.82 2056.8
-690.43 -924.12 2048.5
-685.28 -924.34 2049.0
-681.00 -925.73 2052.1
-683.88 -936.97 2077.0
-686.36 -947.82 2101.1
-677.66 -943.31 2091.1
-672.11 -943.12 2090.7
-671.58 -950.04 2106.0
-650.75 -928.12 2057.4
-628.22 -903.40 2002.6
-641.70 -930.47 2062.6
-660.30 -965.48 2140.2
-650.32 -958.94 2125.7
-638.80 -950.02 2105.9
-622.62 -933.93 2070.3
-601.89 -910.69 2018.8
-598.57 -913.61 2025.2
-597.03 -919.32 2037.9
-580.83 -902.37 2000.3
-574.71 -900.90 1997.1
-594.52 -940.42 2084.7
-599.93 -957.69 2123.0
-582.89 -939.11 2081.8
-577.58 -939.24 2082.1
-569.10 -934.18 2070.8
-553.69 -917.54 2034.0
-551.58 -922.83 2045.7
-560.05 -946.11 2097.3
-550.00 -938.23 2079.8
-526.55 -907.13 2010.9
-523.46 -910.82 2019.1
-534.67 -939.73 2083.1
-538.12 -955.44 2118.0
-527.77 -946.71 2098.6
-523.04 -948.00 2101.5
-523.76 -959.32 2126.6
-514.17 -951.77 2109.8
-505.74 -946.22 2097.5
-498.85 -943.47 2091.4
-492.82 -942.32 2088.9
-487.85 -943.18 2090.8
-483.90 -946.05 2097.2
-483.37 -955.76 2118.7
-474.07 -948.15 2101.8
-463.66 -938.11 2079.6
-462.03 -945.80 2096.6
-460.30 -953.49 2113.6
-450.99 -945.44 2095.8
-440.42 -934.56 2071.7
-431.30 -926.49 2053.8
-421.33 -916.38 2031.4
-416.05 -916.37 2031.4
-409.69 -913.93 2026.0
-404.79 -914.72 2027.7
-401.29 -918.74 2036.6
-387.09 -898.06 1990.8
-384.84 -904.90 2005.9
-394.41 -940.11 2084.0
-394.87 -954.27 2115.4
-399.30 -978.56 2169.2
-395.62 -983.40 2180.0
-391.08 -986.21 2186.2
-402.22 -1029.20 2281.5
-395.14 -1041.74 2309.3
-918.37 -918.37 2024.2
-838.65 -853.28 1880.7
-835.58 -855.13 1884.8
-860.06 -885.35 1951.4
-854.21 -884.54 1949.6
-835.10 -869.90 1917.3
-817.96 -857.14 1889.2
-812.99 -857.06 1889.0
-810.91 -860.06 1895.6
-808.45 -862.67 1901.4
-824.99 -885.72 1952.2
-822.72 -888.74 1958.8
-803.36 -873.22 1924.6
-812.78 -888.97 1959.4
-819.57 -902.04 1988.2
-801.07 -887.26 1955.6
-799.74 -891.43 1964.8
-808.73 -907.23 1999.6
-793.51 -895.90 1974.6
-767.46 -872.12 1922.2
-769.51 -880.16 1939.9
-790.39 -909.99 2005.7
-786.79 -911.84 2009.8
-765.13 -892.66 1967.5
-754.62 -886.30 1953.5
-750.11 -886.96 1954.9
-740.34 -881.36 1942.6
-735.19 -881.22 1942.3
-732.63 -884.21 1948.9
-752.24 -914.18 2014.9
-765.47 -936.76 2064.7
-750.17 -924.50 2037.7
-724.88 -899.68 1983.0
-703.30 -879.13 1937.7
-708.75 -892.31 1966.7
-719.32 -912.18 2010.5
-705.68 -901.41 1986.8
-691.23 -889.45 1960.4
-696.03 -902.26 1988.7
-706.42 -922.57 2033.4
-710.02 -934.23 2059.1
-706.04 -936.04 2063.1
-692.89 -925.62 2040.1
-678.67 -913.59 2013.6
-668.36 -906.69 1998.4
-663.32 -906.89 1998.9
-665.46 -916.98 2021.1
-666.64 -925.89 2040.7
-658.38 -921.73 2031.6
-651.56 -919.54 2026.7
-648.11 -922.11 2032.4
-644.08 -923.88 2036.3
-637.55 -922.07 2032.3
-632.13 -921.85 2031.8
-631.03 -927.99 2045.4
-627.99 -931.34 2052.8
-622.52 -931.11 2052.3
-617.83 -932.08 2054.4
-607.63 -924.66 2038.0
-599.85 -920.82 2029.6
-593.65 -919.37 2026.4
-584.14 -912.72 2011.7
-584.58 -921.64 2031.4
-579.40 -921.77 2031.7
-559.26 -897.89 1979.0
-553.70 -897.20 1977.5
-560.15 -916.13 2019.2
-560.57 -925.46 2039.8
-553.66 -922.77 2033.9
-539.63 -908.03 2001.4
-536.15 -910.93 2007.8
-546.45 -937.53 2066.4
-541.84 -938.84 2069.3
-524.81 -918.42 2024.3
-522.80 -924.14 2036.9
-524.10 -935.89 2062.8
-511.43 -922.68 2033.7
-506.19 -922.75 2033.8
-506.43 -932.89 2056.2
-493.55 -918.84 2025.2
-481.89 -906.79 1998.6
-484.59 -921.77 2031.7
-487.53 -937.57 2066.5
-485.11 -943.27 2079.1
-484.68 -953.02 2100.5
-476.21 -947.00 2087.3
-459.14 -923.57 2035.6
-456.07 -928.04 2045.5
-461.60 -950.34 2094.6
-450.54 -938.62 2068.8
-432.29 -911.47 2008.9
-427.09 -911.46 2008.9
-423.38 -914.70 2016.1
-417.22 -912.66 2011.6
-415.66 -920.77 2029.5
-412.75 -926.04 2041.1
-411.03 -934.15 2058.9
-409.74 -943.48 2079.5
-397.71 -928.00 2045.4
-384.31 -908.84 2003.2
-382.15 -916.12 2019.2
-376.73 -915.67 2018.2
-374.78 -923.76 2036.0
-387.09 -967.73 2133.0
-401.48 -1018.26 2244.3
-387.10 -1042.20 2297.1
-943.77 -922.80 2022.4
-934.86 -924.36 2025.8
-879.53 -894.78 1961.0
-838.70 -858.20 1880.8
-817.30 -841.20 1843.5
-823.61 -852.67 1868.7
-837.94 -872.65 1912.5
-837.71 -877.60 1923.3
-826.43 -870.97 1908.8
-826.15 -875.92 1919.6
-835.61 -891.32 1953.4
-844.92 -906.74 1987.2
-841.87 -909.01 1992.2
-819.87 -890.73 1952.1
-797.35 -871.63 1910.2
-804.31 -884.74 1939.0
-820.27 -907.98 1989.9
-811.90 -904.40 1982.0
-791.07 -886.80 1943.5
-780.07 -880.08 1928.7
-794.54 -902.19 1977.2
-798.89 -913.02 2000.9
-763.08 -877.79 1923.7
-746.17 -863.99 1893.5
-752.89 -877.54 1923.2
-742.12 -870.76 1908.3
-745.68 -880.80 1930.3
-753.08 -895.56 1962.7
-736.75 -882.09 1933.2
-723.80 -872.53 1912.2
-716.78 -870.02 1906.7
-731.00 -893.45 1958.0
-754.25 -928.31 2034.4
-750.14 -929.76 2037.6
-739.39 -922.93 2022.7
-731.85 -920.03 2016.3
-718.72 -910.03 1994.4
-710.33 -905.92 1985.4
-703.82 -904.18 1981.6
-695.50 -900.06 1972.5
-688.74 -897.91 1967.8
-686.21 -901.29 1975.2
-694.72 -919.33 2014.8
-695.01 -926.68 2030.9
-682.83 -917.39 2010.5
-669.56 -906.48 1986.6
-663.39 -905.10 1983.6
-662.44 -910.85 1996.2
-654.54 -907.07 1987.9
-645.81 -902.09 1977.0
-638.55 -899.08 1970.4
-633.29 -898.86 1969.9
-643.35 -920.56 2017.5
-652.07 -940.69 2061.6
-638.07 -928.10 2034.0
-625.02 -916.70 2009.0
-628.03 -928.85 2035.6
-628.50 -937.42 2054.4
-625.94 -941.59 2063.5
-623.34 -945.76 2072.7
-612.05 -936.71 2052.9
-602.68 -930.45 2039.1
-601.86 -937.42 2054.4
-597.65 -939.17 2058.2
-582.28 -923.25 2023.4
-562.29 -899.67 1971.7
-558.25 -901.39 1975.5
-568.50 -926.44 2030.4
-565.26 -929.78 2037.7
-555.68 -922.65 2022.0
-544.50 -912.68 2000.2
-526.98 -891.81 1954.5
-520.31 -889.07 1948.4
-527.00 -909.33 1992.8
-538.10 -937.68 2055.0
-536.27 -943.83 2068.5
-520.49 -925.32 2027.9
-507.85 -912.05 1998.8
-500.92 -908.88 1991.9
-501.09 -918.66 2013.3
-498.96 -924.39 2025.9
-483.56 -905.40 1984.2
-469.23 -888.01 1946.1
-468.65 -896.56 1964.9
-468.82 -906.73 1987.2
-464.31 -907.98 1989.9
-465.74 -921.01 2018.4
-459.10 -918.19 2012.3
-446.05 -902.35 1977.6
-446.30 -913.35 2001.7
-452.91 -937.78 2055.2
-443.89 -930.06 2038.3
-432.27 -916.63 2008.8
-432.76 -928.85 2035.6
-427.48 -928.85 2035.6
-419.98 -923.95 2024.9
-410.14 -913.73 2002.5
-398.79 -899.83 1972.0
-399.38 -912.87 2000.6
-400.00 -926.32 2030.1
-394.72 -926.29 2030.0
-389.79 -927.07 2031.7
-390.10 -940.53 2061.2
-387.76 -947.85 2077.3
-374.43 -928.16 2034.1
-374.02 -940.39 2060.9
-390.82 -996.88 2184.7
-394.45 -1036.16 2270.8
-370.39 -987.72 2164.6
-925.77 -925.77 2017.4
-864.44 -884.43 1927.3
-829.73 -853.85 1860.7
-813.25 -841.78 1834.4
-811.38 -844.79 1841.0
-817.62 -856.33 1866.1
-822.28 -866.33 1887.9
-815.84 -864.70 1884.3
-821.08 -875.49 1907.8
-836.71 -897.57 1956.0
-827.62 -893.22 1946.5
-806.73 -876.02 1909.0
-806.69 -881.38 1920.7
-805.18 -885.19 1929.0
-795.86 -880.42 1918.6
-794.66 -884.62 1927.7
-806.32 -903.28 1968.4
-804.26 -906.72 1975.9
-792.16 -898.80 1958.6
-805.86 -920.24 2005.4
-804.00 -924.08 2013.7
-762.75 -882.40 1922.9
-750.24 -873.64 1903.8
-761.28 -892.37 1944.6
-752.81 -888.31 1935.8
-758.28 -900.77 1962.9
-761.97 -911.28 1985.8
-741.34 -892.64 1945.2
-740.41 -897.62 1956.1
-743.63 -907.74 1978.1
-726.82 -893.39 1946.9
-720.06 -891.26 1942.2
-727.59 -906.92 1976.3
-729.60 -915.88 1995.9
-723.05 -914.15 1992.1
-711.85 -906.46 1975.3
-702.58 -901.14 1963.7
-695.52 -898.59 1958.2
-690.31 -898.41 1957.8
-685.70 -899.03 1959.1
-683.19 -902.42 1966.5
-690.81 -919.35 2003.4
-698.85 -937.09 2042.1
-694.31 -938.11 2044.3
-680.97 -927.17 2020.5
-675.60 -926.98 2020.1
-657.22 -908.82 1980.5
-633.02 -882.24 1922.6
-629.86 -884.81 1928.1
-627.81 -888.97 1937.2
-624.58 -891.54 1942.8
-636.36 -915.74 1995.6
-647.33 -939.16 2046.6
-636.40 -930.92 2028.7
-628.53 -927.09 2020.3
-636.10 -946.13 2061.8
-623.64 -935.46 2038.5
-608.63 -920.74 2006.5
-619.61 -945.44 2060.3
-622.74 -958.48 2088.7
-604.46 -938.51 2045.2
-594.11 -930.60 2027.9
-599.66 -947.67 2065.1
-594.39 -947.82 2065.5
-573.32 -922.52 2010.3
-568.18 -922.65 2010.6
-571.92 -937.31 2042.6
-561.32 -928.54 2023.5
-558.08 -931.89 2030.7
-552.40 -931.19 2029.2
-530.30 -902.53 1966.8
-520.30 -894.10 1948.4
-520.66 -903.51 1968.9
-525.10 -920.22 2005.3
-527.51 -933.69 2034.7
-516.38 -923.22 2011.9
-508.50 -918.41 2001.4
-505.80 -922.95 2011.3
-505.69 -932.37 2031.8
-503.08 -937.32 2042.6
-492.20 -926.79 2019.6
-482.06 -917.47 1999.3
-473.09 -910.18 1983.4
-465.03 -904.51 1971.1
-457.86 -900.45 1962.2
-456.68 -908.23 1979.2
-460.69 -926.62 2019.3
-457.68 -931.14 2029.1
-444.49 -914.81 1993.5
-437.95 -911.96 1987.3
-439.40 -925.87 2017.6
-438.20 -934.47 2036.4
-426.28 -920.14 2005.2
-409.64 -895.14 1950.7
-408.09 -902.91 1967.6
-403.90 -904.93 1972.0
-394.25 -894.65 1949.6
-396.14 -910.62 1984.4
-391.51 -911.81 1987.0
-380.95 -899.04 1959.2
-387.53 -926.93 2019.9
-400.75 -971.69 2117.5
-400.60 -984.81 2146.1
-388.59 -968.74 2111.1
-394.46 -1011.88 2205.1
-401.39 -1044.78 2276.8
-880.38 -885.35 1918.5
-871.54 -881.44 1910.0
-856.26 -870.94 1887.3
-848.66 -868.17 1881.3
-847.87 -872.38 1890.4
-832.78 -861.83 1867.5
-811.44 -844.66 1830.3
-803.64 -841.45 1823.4
-813.23 -856.54 1856.1
-821.58 -870.48 1886.3
-816.98 -870.79 1886.9
-824.38 -883.98 1915.5
-826.59 -891.71 1932.3
-803.86 -872.48 1890.6
-786.33 -858.70 1860.7
-788.18 -866.03 1876.6
-794.92 -878.85 1904.4
-792.71 -881.89 1911.0
-790.12 -884.53 1916.7
-799.70 -900.92 1952.2
-806.69 -914.59 1981.8
-804.23 -917.64 1988.5
-791.45 -908.90 1969.5
-763.43 -882.40 1912.1
-755.65 -879.12 1905.0
-775.19 -907.79 1967.1
-763.30 -899.78 1949.8
-732.50 -869.24 1883.6
-737.42 -880.95 1909.0
-740.58 -890.70 1930.1
-735.78 -890.95 1930.6
-749.51 -913.79 1980.1
-742.01 -910.88 1973.8
-714.63 -883.36 1914.2
-702.83 -874.85 1895.8
-705.39 -884.22 1916.0
-704.38 -889.22 1926.9
-694.87 -883.47 1914.4
-692.56 -886.88 1921.8
-691.76 -892.28 1933.5
-690.91 -897.68 1945.2
-692.13 -905.87 1963.0
-685.39 -903.70 1958.3
-680.77 -904.31 1959.6
-679.43 -909.32 1970.4
-678.34 -914.73 1982.2
-682.49 -927.35 2009.5
-678.31 -928.76 2012.6
-663.36 -915.34 1983.5
-636.72 -885.45 1918.7
-616.12 -863.54 1871.2
-616.21 -870.52 1886.4
-635.14 -904.44 1959.9
-654.00 -938.80 2034.3
-641.62 -928.53 2012.1
-627.42 -915.42 1983.7
-625.41 -920.02 1993.6
-626.33 -929.06 2013.2
-628.77 -940.52 2038.0
-611.02 -921.71 1997.3
-588.42 -895.21 1939.9
-591.12 -907.06 1965.5
-605.71 -937.53 2031.6
-599.50 -936.06 2028.4
-587.14 -924.87 2004.1
-590.18 -937.97 2032.5
-593.34 -951.48 2061.8
-580.56 -939.46 2035.7
-560.45 -915.23 1983.2
-548.72 -904.38 1959.7
-547.37 -910.57 1973.2
-552.96 -928.56 2012.1
-560.53 -950.22 2059.1
-551.69 -944.23 2046.1
-535.60 -925.60 2005.7
-529.75 -924.47 2003.3
-521.60 -919.26 1992.0
-511.90 -911.18 1974.5
-506.36 -910.43 1972.8
-504.20 -915.80 1984.5
-505.33 -927.30 2009.4
-508.31 -942.48 2042.3
-500.21 -937.23 2030.9
-483.96 -916.43 1985.8
-476.26 -911.56 1975.3
-469.05 -907.50 1966.5
-465.01 -909.58 1971.0
-462.19 -914.11 1980.8
-458.71 -917.42 1988.0
-460.67 -931.80 2019.2
-454.44 -929.77 2014.8
-438.91 -908.43 1968.5
-430.08 -900.63 1951.6
-428.89 -908.85 1969.4
-429.15 -920.35 1994.3
-419.24 -910.06 1972.0
-406.82 -894.00 1937.2
-409.00 -910.03 1972.0
-409.55 -922.77 1999.6
-405.25 -924.81 2004.0
-403.79 -933.44 2022.7
-395.54 -926.40 2007.4
-383.02 -909.03 1969.8
-386.99 -930.86 2017.1
-399.69 -974.59 2111.9
-398.38 -984.89 2134.2
-390.69 -979.48 2122.5
-389.56 -990.60 2146.6
-398.79 -1043.89 2262.0
-395.09 -1049.65 2274.5
-851.04 -855.82 1844.2
-833.90 -843.33 1817.2
-836.00 -850.25 1832.1
-833.08 -852.13 1836.2
-828.63 -852.44 1836.9
-829.82 -858.60 1850.1
-819.33 -852.67 1837.4
-802.54 -840.09 1810.2
-793.30 -835.30 1799.9
-800.35 -847.71 1826.7
-818.30 -871.88 1878.8
-823.59 -882.77 1902.2
-816.04 -879.95 1896.1
-803.09 -871.23 1877.3
-786.26 -858.17 1849.2
-773.13 -849.02 1829.5
-778.25 -859.91 1853.0
-787.15 -875.15 1885.8
-789.20 -882.92 1902.5
-790.83 -890.31 1918.5
-782.98 -887.05 1911.4
-773.43 -881.80 1900.1
-773.56 -887.61 1912.7
-764.05 -882.36 1901.3
-751.18 -873.13 1881.4
-757.02 -885.67 1908.5
-768.46 -904.96 1950.0
-749.24 -888.18 1913.9
-716.89 -855.49 1843.4
-718.26 -862.87 1859.3
-727.44 -879.80 1895.8
-729.58 -888.40 1914.4
-744.95 -913.33 1968.1
-740.06 -913.59 1968.6
-708.86 -881.15 1898.7
-692.01 -866.22 1866.6
-693.36 -874.02 1883.4
-692.11 -878.63 1893.3
-683.61 -874.05 1883.4
-681.69 -877.86 1891.6
-684.66 -888.08 1913.7
-687.53 -898.31 1935.7
-682.37 -898.12 1935.3
-669.95 -888.30 1914.1
-673.55 -899.74 1938.8
-680.02 -915.21 1972.1
-664.98 -901.75 1943.1
-655.96 -896.31 1931.4
-654.31 -900.93 1941.4
-642.15 -891.05 1920.1
-636.44 -890.02 1917.8
-635.59 -895.84 1930.4
-632.13 -898.03 1935.1
-648.10 -928.08 1999.9
-663.20 -957.36 2063.0
-646.60 -940.98 2027.7
-628.23 -921.74 1986.2
-622.37 -920.70 1983.9
-617.88 -921.67 1986.0
-615.53 -925.88 1995.1
-600.84 -911.44 1964.0
-580.19 -887.64 1912.7
-579.52 -894.26 1927.0
-589.75 -917.96 1978.0
-588.85 -924.60 1992.3
-582.49 -922.70 1988.3
-573.59 -916.72 1975.4
-566.02 -912.77 1966.9
-563.50 -916.96 1975.9
-553.72 -909.33 1959.4
-540.58 -895.97 1930.7
-537.10 -898.51 1936.1
-538.66 -909.63 1960.1
-542.26 -924.43 1992.0
-543.81 -935.97 2016.9
-537.93 -934.84 2014.4
-522.49 -916.92 1975.8
-504.70 -894.48 1927.4
-503.63 -901.50 1942.6
-507.02 -916.73 1975.4
-510.24 -931.98 2008.2
-516.19 -952.56 2052.6
-506.29 -944.01 2034.2
-486.22 -916.14 1974.1
-468.39 -891.94 1922.0
-464.80 -904.33 1948.7
-473.57 -931.53 2007.3
-469.83 -934.44 2013.6
-466.27 -937.77 2020.7
-452.33 -920.07 1982.6
-417.83 -901.09 1941.7
-416.57 -909.34 1959.5
-413.35 -913.46 1968.4
-407.32 -911.37 1963.8
-399.66 -905.55 1951.3
-399.09 -915.87 1973.5
-402.16 -934.89 2014.5
-394.46 -929.06 2002.0
-381.61 -910.78 1962.6
-377.36 -912.80 1966.9
-379.85 -931.41 2007.0
-382.97 -952.11 2051.6
-380.11 -958.29 2065.0
-387.78 -1005.97 2167.7
-866.62 -866.62 1857.0
-875.32 -880.21 1886.2
-859.20 -868.85 1861.8
-834.35 -848.49 1818.2
-828.42 -847.24 1815.5
-829.34 -853.03 1827.9
-829.44 -858.04 1838.7
-827.23 -860.70 1844.4
-814.13 -852.00 1825.7
-790.67 -832.29 1783.5
-774.82 -820.40 1758.0
-788.96 -840.32 1800.7
-814.30 -872.46 1869.6
-810.83 -873.95 1872.7
-794.99 -862.04 1847.2
-787.21 -858.78 1840.2
-775.51 -851.17 1823.9
-754.58 -833.28 1785.6
-750.89 -834.33 1787.8
-758.16 -847.63 1816.4
-759.31 -854.23 1830.5
-765.65 -866.77 1857.4
-764.55 -871.01 1866.4
-749.57 -859.37 1841.5
-743.64 -858.04 1838.7
-751.06 -872.20 1869.0
-754.61 -882.01 1890.0
-745.87 -877.50 1880.3
-741.55 -878.15 1881.8
-741.90 -884.38 1895.1
-728.89 -874.66 1874.3
-718.94 -868.52 1861.1
-716.94 -871.95 1868.5
-710.00 -869.39 1863.0
-715.41 -882.02 1890.0
-727.79 -903.47 1936.0
-714.64 -893.30 1914.2
-687.57 -865.47 1854.6
-678.81 -860.47 1843.9
-687.72 -877.93 1881.3
-690.19 -887.39 1901.5
-684.49 -886.40 1899.4
-684.05 -892.24 1911.9
-681.70 -895.67 1919.3
-672.63 -890.24 1907.7
-663.60 -884.80 1896.0
-669.94 -899.92 1928.4
-678.81 -918.68 1968.6
-667.04 -909.60 1949.1
-643.90 -884.74 1895.9
-628.59 -870.36 1865.1
-631.42 -881.05 1888.0
-641.04 -901.46 1931.7
-638.73 -905.29 1939.9
-634.39 -906.28 1942.0
-629.48 -906.45 1942.4
-623.72 -905.40 1940.1
-624.07 -913.28 1957.0
-623.24 -919.54 1970.4
-618.25 -919.70 1970.8
-615.41 -923.12 1978.1
-607.70 -919.20 1969.7
-588.00 -896.94 1922.0
-564.55 -868.53 1861.1
-560.32 -869.46 1863.1
-580.86 -909.17 1948.2
-591.67 -934.21 2001.9
-576.30 -918.00 1967.1
-559.06 -898.50 1925.3
-543.54 -881.42 1888.8
-533.70 -873.32 1871.4
-536.59 -886.11 1898.8
-535.90 -893.17 1913.9
-535.38 -900.64 1929.9
-539.37 -915.91 1962.7
-540.08 -925.85 1984.0
-538.79 -932.52 1998.3
-530.84 -927.68 1987.9
-514.31 -907.61 1944.9
-500.31 -891.63 1910.6
-502.02 -903.63 1936.4
-502.47 -913.57 1957.7
-503.03 -923.94 1979.9
-507.71 -942.14 2018.9
-497.23 -932.30 1997.8
-476.39 -902.64 1934.2
-458.24 -877.49 1880.3
-454.66 -879.99 1885.7
-465.41 -910.59 1951.3
-467.27 -924.26 1980.6
-457.80 -915.60 1962.0
-451.50 -913.14 1956.7
-417.53 -863.86 1851.1
-410.54 -859.28 1841.3
-403.60 -854.69 1831.5
-398.65 -854.25 1830.5
-401.35 -870.40 1865.1
-398.75 -886.11 1898.8
-391.97 -881.92 1889.8
-393.84 -908.87 1947.6
-393.05 -918.82 1968.9
-381.25 -902.96 1934.9
-373.09 -895.41 1918.7
-373.91 -909.52 1949.0
-379.99 -936.97 2007.8
-901.63 -901.63 1921.4
-860.83 -865.61 1844.6
-849.02 -858.50 1829.5
-838.04 -852.16 1816.0
-817.15 -835.61 1780.7
-815.50 -838.66 1787.2
-819.13 -847.22 1805.4
-803.02 -835.33 1780.1
-785.14 -821.45 1750.5
-784.24 -825.27 1758.7
-773.23 -818.45 1744.1
-766.74 -816.35 1739.7
-788.65 -844.65 1800.0
-811.03 -873.79 1862.1
-806.12 -873.69 1861.9
-784.14 -854.99 1822.0
-769.56 -844.18 1799.0
-769.09 -848.81 1808.8
-760.00 -843.93 1798.4
-757.35 -846.17 1803.2
-764.92 -859.95 1832.6
-754.08 -853.06 1817.9
-749.25 -852.92 1817.6
-747.89 -856.76 1825.8
-734.04 -846.25 1803.4
-724.42 -840.51 1791.1
-727.16 -849.13 1809.5
-735.59 -864.55 1842.4
-731.70 -865.60 1844.6
-725.44 -863.84 1840.9
-723.87 -867.69 1849.1
-721.93 -871.13 1856.4
-722.60 -877.79 1870.6
-715.97 -875.62 1866.0
-704.48 -867.42 1848.5
-698.57 -866.04 1845.5
-699.12 -872.69 1859.7
-704.72 -885.79 1887.6
-696.50 -881.59 1878.7
-680.42 -867.30 1848.2
-680.82 -873.95 1862.4
-692.69 -895.55 1908.4
-697.22 -907.89 1934.7
-686.21 -900.02 1918.0
-673.74 -890.13 1896.9
-664.11 -883.85 1883.5
-655.45 -878.78 1872.7
-656.43 -886.67 1889.5
-658.52 -896.19 1909.8
-649.27 -890.29 1897.2
-630.09 -870.58 1855.2
-621.31 -865.05 1843.4
-630.26 -884.32 1884.5
-638.73 -903.20 1924.7
-636.15 -906.64 1932.1
-625.59 -898.66 1915.1
-615.67 -891.49 1899.8
-607.50 -886.75 1889.7
-605.75 -891.39 1899.6
-613.31 -909.91 1939.0
-616.58 -922.33 1965.5
-611.86 -922.90 1966.7
-601.76 -915.28 1950.5
-585.85 -898.64 1915.0
-566.67 -876.65 1868.1
-554.55 -865.28 1843.9
-567.03 -892.45 1901.8
-581.30 -922.94 1966.8
-570.13 -913.21 1946.1
-552.44 -892.79 1902.5
-536.73 -875.21 1865.1
-527.70 -868.31 1850.4
-530.63 -881.14 1877.7
-531.96 -891.52 1899.9
-533.42 -902.32 1922.9
-531.38 -907.35 1933.6
-526.41 -907.44 1933.8
-530.46 -923.20 1967.4
-528.46 -928.65 1979.0
-509.87 -904.77 1928.1
-493.84 -885.00 1885.9
-494.23 -894.56 1906.3
-494.30 -903.71 1925.8
-484.18 -894.24 1905.7
-479.26 -894.29 1905.7
-485.55 -915.46 1950.9
-481.60 -917.58 1955.4
-456.73 -879.45 1874.1
-445.70 -867.43 1848.5
-449.14 -883.63 1883.0
-444.05 -883.23 1882.2
-434.63 -874.09 1862.7
-427.76 -869.93 1853.8
-421.73 -867.42 1848.5
-413.53 -860.33 1833.4
-407.38 -857.40 1827.1
-400.48 -852.79 1817.3
-393.62 -848.17 1807.5
-394.46 -860.22 1833.1
-392.72 -866.85 1847.3
-385.85 -862.22 1837.4
-382.92 -866.35 1846.2
-383.21 -877.99 1871.0
-380.68 -883.37 1882.5
-372.93 -876.63 1868.1
-369.64 -880.33 1876.0
-371.34 -896.17 1909.8
-374.24 -915.36 1950.6
-383.17 -950.05 2024.6
-908.10 -903.14 1914.0
-867.87 -877.52 1859.7
-830.11 -844.02 1788.7
-796.12 -814.01 1725.1
-799.20 -821.78 1741.6
-817.85 -845.73 1792.4
-816.91 -849.59 1800.5
-797.05 -833.69 1766.9
-773.95 -814.21 1725.6
-766.36 -810.91 1718.6
-765.87 -815.14 1727.5
-769.78 -824.12 1746.6
-780.98 -841.05 1782.4
-791.64 -857.61 1817.5
-781.35 -851.54 1804.7
-755.53 -828.35 1755.5
-752.65 -830.20 1759.5
-763.40 -847.19 1795.4
-755.41 -843.46 1787.6
-754.56 -847.71 1796.6
-760.37 -859.55 1821.7
-748.15 -851.03 1803.6
-744.40 -852.08 1805.8
-743.41 -856.33 1814.8
-728.56 -844.57 1789.9
-717.60 -837.20 1774.3
-718.66 -843.85 1788.4
-725.77 -857.72 1817.8
-722.27 -859.17 1820.8
-715.73 -856.99 1816.2
-715.22 -862.05 1827.0
-714.99 -867.52 1838.5
-716.68 -875.41 1855.3
-710.75 -874.03 1852.3
-703.85 -871.43 1846.8
-702.48 -875.69 1855.9
-695.59 -873.09 1850.3
-693.21 -876.14 1856.8
-688.88 -876.76 1858.1
-676.65 -867.26 1838.0
-672.36 -867.86 1839.3
-678.97 -882.66 1870.6
-686.67 -899.09 1905.5
-680.66 -897.68 1902.5
-668.24 -887.73 1881.4
-658.65 -881.43 1868.0
-645.20 -869.82 1843.4
-640.25 -869.59 1842.9
-644.23 -881.58 1868.3
-637.15 -878.50 1861.8
-630.69 -876.22 1857.0
-634.74 -888.63 1883.3
-618.69 -872.87 1849.9
-602.79 -857.09 1816.4
-607.60 -870.73 1845.3
-605.46 -874.56 1853.5
-608.63 -886.17 1878.1
-613.92 -901.07 1909.7
-601.87 -890.57 1887.4
-598.72 -893.17 1892.9
-597.18 -898.24 1903.6
-587.19 -890.58 1887.4
-587.22 -898.11 1903.4
-581.84 -897.42 1901.9
-571.97 -889.72 1885.6
-569.25 -893.14 1892.8
-560.77 -887.49 1880.9
-553.90 -884.30 1874.1
-548.34 -883.16 1871.7
-536.43 -871.70 1847.4
-523.64 -858.58 1819.6
-517.22 -855.76 1813.6
-528.16 -881.88 1869.0
-537.11 -905.12 1918.2
-522.94 -889.48 1885.1
-505.07 -867.20 1837.9
-498.67 -864.35 1831.8
-501.05 -876.85 1858.3
-500.03 -883.54 1872.5
-483.57 -862.84 1828.6
-480.93 -866.62 1836.6
-494.91 -900.73 1908.9
-487.05 -895.38 1897.6
-470.50 -873.79 1851.8
-463.94 -870.49 1844.8
-468.84 -888.84 1883.7
-475.06 -910.11 1928.8
-460.82 -892.22 1890.9
-442.29 -865.56 1834.4
-437.33 -865.14 1833.5
-432.36 -864.73 1832.6
-423.07 -855.53 1813.1
-425.10 -869.30 1842.3
-427.59 -884.34 1874.2
-412.33 -862.59 1828.1
-398.89 -844.16 1789.0
-395.40 -846.63 1794.3
-391.31 -847.85 1796.8
-390.84 -857.02 1816.3
-387.81 -860.74 1824.2
-379.14 -851.89 1805.4
-374.07 -851.00 1803.5
-378.47 -871.92 1847.9
-379.77 -886.13 1878.0
-367.42 -868.44 1840.5
-359.64 -861.23 1825.2
-378.66 -931.30 1973.7
-373.18 -930.40 1971.8
-374.54 -946.75 2006.5
-364.90 -948.73 2010.7
-361.10 -952.46 2018.6
-846.63 -855.98 1804.2
-843.05 -857.10 1806.5
-815.48 -833.70 1757.2
-788.13 -810.26 1707.8
-795.07 -822.02 1732.6
-802.29 -834.20 1758.3
-791.18 -827.35 1743.8
-782.40 -822.87 1734.4
-769.52 -814.00 1715.7
-769.44 -818.64 1725.5
-776.36 -830.85 1751.2
-769.49 -828.33 1745.9
-769.99 -833.78 1757.4
-773.37 -842.42 1775.6
-756.63 -829.12 1747.6
-738.20 -813.80 1715.3
-743.71 -824.84 1738.5
-746.24 -832.69 1755.1
-732.64 -822.53 1733.7
-722.68 -816.36 1720.7
-719.13 -817.39 1722.8
-721.88 -825.65 1740.2
-732.93 -843.56 1778.0
-737.90 -854.65 1801.4
-729.64 -850.48 1792.6
-719.02 -843.47 1777.8
-719.73 -849.75 1791.0
-720.03 -855.62 1803.4
-710.16 -849.40 1790.3
-691.95 -833.07 1755.9
-678.90 -822.78 1734.2
-683.19 -833.49 1756.8
-689.68 -847.05 1785.4
-691.11 -854.55 1801.2
-691.50 -860.85 1814.4
-695.38 -871.60 1837.1
-694.65 -876.69 1847.8
-679.16 -863.10 1819.2
-661.90 -847.05 1785.3
-659.31 -849.68 1790.9
-664.22 -862.07 1817.0
-661.84 -865.12 1823.4
-661.28 -870.61 1835.0
-664.05 -880.59 1856.0
-660.61 -882.41 1859.9
-660.48 -888.73 1873.2
-655.46 -888.52 1872.7
-640.56 -874.80 1843.8
-633.83 -872.11 1838.2
-629.18 -872.28 1838.5
-624.83 -872.85 1839.7
-626.00 -881.21 1857.4
-608.28 -862.91 1818.8
-588.74 -841.71 1774.1
-589.93 -850.06 1791.7
-591.04 -858.41 1809.3
-597.40 -874.59 1843.4
-596.62 -880.49 1855.8
-580.27 -863.33 1819.7
-574.26 -861.39 1815.6
-569.36 -861.10 1815.0
-563.92 -859.97 1812.6
-568.15 -873.71 1841.5
-562.38 -872.17 1838.3
-551.61 -862.77 1818.5
-557.71 -879.83 1854.4
-557.91 -887.80 1871.2
-552.61 -887.08 1869.7
-548.08 -887.60 1870.8
-528.82 -864.06 1821.2
-509.56 -840.08 1770.7
-512.74 -853.01 1797.9
-532.61 -894.19 1884.7
-527.28 -893.45 1883.1
-499.84 -854.86 1801.8
-495.68 -855.74 1803.7
-502.97 -876.61 1847.7
-497.27 -875.00 1844.3
-489.00 -868.80 1831.2
-484.28 -868.85 1831.3
-492.67 -892.66 1881.5
-491.47 -899.39 1895.7
-470.32 -869.37 1832.4
-463.57 -865.64 1824.5
-465.72 -878.62 1851.9
-451.28 -860.25 1813.2
-438.76 -845.19 1781.4
-440.38 -857.33 1807.0
-437.18 -860.27 1813.2
-428.90 -853.14 1798.2
-420.27 -845.17 1781.4
-410.28 -834.24 1758.4
-411.22 -845.55 1782.2
-420.12 -873.65 1841.4
-412.34 -867.33 1828.1
-397.12 -845.04 1781.1
-391.12 -842.05 1774.8
-385.72 -840.33 1771.2
-383.78 -846.17 1783.5
-386.49 -862.53 1818.0
-384.18 -867.96 1829.4
-370.20 -846.84 1784.9
-364.46 -844.25 1779.4
-377.43 -885.50 1866.4
-377.71 -897.68 1892.1
-363.32 -874.83 1843.9
-364.22 -888.69 1873.1
-371.80 -919.46 1938.0
-363.04 -910.10 1918.2
-360.21 -915.52 1929.7
-364.52 -939.55 1980.3
-355.48 -929.33 1958.8
-362.82 -962.26 2028.2
-847.86 -861.91 1806.8
-821.37 -839.62 1760.1
-810.53 -833.17 1746.6
-797.06 -823.93 1727.2
-788.27 -819.44 1717.8
-781.80 -817.33 1713.4
-767.00 -806.45 1690.5
-753.82 -797.14 1671.0
-752.72 -800.58 1678.2
-763.92 -817.21 1713.1
-764.92 -823.07 1725.4
-752.93 -814.93 1708.3
-739.54 -805.18 1687.9
-728.80 -798.21 1673.3
-730.13 -804.45 1686.4
-730.32 -809.51 1696.9
-730.09 -814.16 1706.7
-728.03 -816.81 1712.3
-710.97 -802.56 1682.4
-697.94 -792.72 1661.8
-700.87 -800.99 1679.1
-710.72 -817.33 1713.4
-724.26 -838.14 1757.0
-731.70 -852.10 1786.2
-725.55 -850.32 1782.5
-716.33 -844.90 1771.1
-701.36 -832.58 1745.3
-686.17 -819.84 1718.6
-687.95 -827.34 1734.3
-681.95 -825.52 1730.5
-669.30 -815.57 1709.7
-672.97 -825.52 1730.5
-671.61 -829.37 1738.6
-665.30 -827.12 1733.9
-665.18 -832.61 1745.4
-669.54 -843.80 1768.8
-669.28 -849.29 1780.4
-655.56 -837.66 1756.0
-652.42 -839.47 1759.8
-663.13 -859.27 1801.3
-659.86 -861.09 1805.1
-649.72 -853.92 1790.0
-649.85 -860.24 1803.3
-653.61 -871.48 1826.9
-645.04 -866.34 1816.1
-638.95 -864.46 1812.2
-641.31 -874.08 1832.3
-634.29 -870.97 1825.8
-631.17 -873.19 1830.4
-630.38 -878.71 1842.0
-614.58 -863.23 1809.6
-604.18 -855.14 1792.6
-603.97 -861.47 1805.9
-601.68 -864.91 1813.1
-591.09 -856.39 1795.2
-580.59 -847.85 1777.3
-586.17 -862.85 1808.8
-584.92 -867.94 1819.4
-575.03 -860.21 1803.2
-575.10 -867.36 1818.2
-568.83 -865.00 1813.3
-562.31 -862.21 1807.4
-565.21 -873.93 1832.0
-557.87 -869.89 1823.5
-548.72 -862.94 1809.0
-555.35 -880.90 1846.6
-554.79 -887.66 1860.8
-549.25 -886.52 1858.4
-545.26 -887.86 1861.2
-526.55 -865.05 1813.4
-513.60 -851.38 1784.7
-522.48 -873.96 1832.1
-533.09 -899.90 1886.4
-520.17 -886.21 1857.7
-494.50 -850.36 1782.6
-492.32 -854.59 1791.5
-503.93 -883.07 1851.2
-503.42 -890.66 1867.1
-498.61 -890.72 1867.2
-496.35 -895.38 1877.0
-484.84 -883.28 1851.6
-465.26 -856.07 1794.6
-454.30 -844.35 1770.0
-456.20 -856.53 1795.5
-459.30 -871.24 1826.4
-447.34 -857.40 1797.3
-432.05 -836.81 1754.2
-429.65 -841.01 1763.0
-432.51 -855.72 1793.8
-429.96 -859.93 1802.6
-421.12 -851.49 1785.0
-410.92 -840.10 1761.1
-403.89 -835.02 1750.4
-405.19 -847.21 1776.0
-404.96 -856.46 1795.4
-397.92 -851.36 1784.7
-387.03 -837.81 1756.3
-377.44 -826.78 1733.2
-375.59 -832.64 1745.4
-378.77 -849.91 1781.7
-377.47 -857.47 1797.5
-364.69 -838.79 1758.3
-353.38 -823.06 1725.4
-359.64 -848.39 1778.5
-368.65 -880.94 1846.7
-364.01 -881.30 1847.4
-358.50 -879.53 1843.7
-358.30 -890.91 1867.6
-359.32 -905.69 1898.6
-368.16 -940.85 1972.3
-372.36 -965.00 2022.9
-364.35 -957.71 2007.6
-890.64 -905.32 1887.5
-848.30 -867.05 1807.7
-816.01 -838.68 1748.6
-800.57 -827.41 1725.1
-785.24 -816.12 1701.6
-775.35 -810.40 1689.6
-773.51 -813.07 1695.2
-764.45 -808.13 1684.9
-753.54 -801.18 1670.4
-753.95 -806.24 1681.0
-757.28 -814.52 1698.2
-751.63 -813.17 1695.4
-743.78 -809.40 1687.6
-734.11 -803.62 1675.5
-716.46 -788.96 1644.9
-709.85 -786.36 1639.5
-722.44 -805.13 1678.6
-734.49 -823.52 1717.0
-733.47 -827.39 1725.1
-717.46 -814.30 1697.8
-704.05 -804.01 1676.3
-705.88 -811.11 1691.1
-710.79 -821.86 1713.5
-719.09 -836.67 1744.4
-720.65 -843.80 1759.3
-708.37 -834.70 1740.3
-696.50 -825.98 1722.1
-678.59 -809.93 1688.7
-668.62 -803.21 1674.7
-675.55 -816.84 1703.1
-676.65 -823.56 1717.1
-670.70 -821.72 1713.2
-669.06 -825.18 1720.4
-661.47 -821.28 1712.3
-661.10 -826.37 1722.9
-666.53 -838.83 1748.9
-654.07 -828.79 1728.0
-636.57 -812.18 1693.3
-632.95 -813.17 1695.4
-639.78 -827.68 1725.7
-645.20 -840.58 1752.6
-637.66 -836.65 1744.4
-632.33 -835.58 1742.1
-636.90 -847.67 1767.4
-642.27 -861.01 1795.2
-636.22 -859.13 1791.2
-621.40 -845.29 1762.4
-614.84 -842.56 1756.7
-621.15 -857.56 1788.0
-631.48 -878.37 1831.3
-623.60 -873.99 1822.2
-602.30 -850.58 1773.4
-599.26 -852.79 1778.0
-605.43 -868.25 1810.3
-589.37 -851.82 1776.0
-565.50 -823.76 1717.5
-562.54 -825.95 1722.0
-575.25 -851.37 1775.1
-573.24 -855.23 1783.1
-562.33 -845.79 1763.4
-566.61 -859.20 1791.4
-563.94 -862.23 1797.7
-561.79 -866.09 1805.7
-569.23 -884.94 1845.1
-562.13 -881.31 1837.5
-553.21 -874.74 1823.8
-554.57 -884.44 1844.0
-549.59 -884.13 1843.4
-530.97 -861.66 1796.5
-513.08 -840.00 1751.4
-509.85 -842.16 1755.8
-512.11 -853.52 1779.5
-515.26 -866.57 1806.7
-520.00 -882.56 1840.1
-516.49 -884.73 1844.6
-501.31 -866.76 1807.1
-486.32 -848.76 1769.6
-485.33 -855.11 1782.8
-488.29 -868.59 1811.0
-487.13 -874.94 1824.2
-486.60 -882.56 1840.1
-477.95 -875.45 1825.3
-457.53 -846.43 1764.7
-445.07 -831.69 1734.0
-442.36 -835.07 1741.1
-440.94 -840.98 1753.4
-440.34 -848.57 1769.2
-436.19 -849.42 1771.0
-425.37 -837.16 1745.4
-419.77 -835.04 1741.0
-416.93 -838.40 1748.0
-408.44 -830.34 1731.2
-404.55 -831.58 1733.8
-403.71 -839.17 1749.6
-406.81 -855.23 1783.1
-408.55 -868.76 1811.3
-397.14 -854.31 1781.2
-382.56 -832.64 1736.0
-373.61 -822.83 1715.5
-372.56 -830.41 1731.3
-368.80 -832.04 1734.8
-360.18 -822.63 1715.1
-358.27 -828.50 1727.4
-358.48 -839.48 1750.3
-356.24 -844.93 1761.6
-356.60 -856.77 1786.3
-358.59 -872.87 1819.9
-359.71 -887.28 1849.9
-362.72 -906.81 1890.6
-367.38 -931.03 1941.2
-370.62 -952.29 1985.5
-369.05 -961.61 2004.9
-849.58 -868.26 1800.5
-823.82 -846.58 1755.6
-804.46 -831.27 1723.8
-791.40 -822.35 1705.3
-778.03 -813.00 1685.9
-760.93 -799.62 1658.2
-751.55 -794.26 1647.1
-753.19 -800.54 1660.1
-752.51 -804.41 1668.1
-739.43 -794.99 1648.6
-729.79 -789.19 1636.6
-737.26 -801.93 1663.0
-742.02 -811.86 1683.6
-735.31 -809.27 1678.2
-720.22 -797.38 1653.6
-709.59 -790.33 1638.9
-717.47 -803.91 1667.1
-717.66 -809.00 1677.6
-705.64 -800.30 1659.6
-710.78 -811.07 1682.0
-717.94 -824.30 1709.4
-712.65 -823.31 1707.3
-710.16 -825.57 1712.0
-721.93 -844.52 1751.3
-727.28 -856.16 1775.5
-706.01 -836.42 1734.5
-685.61 -817.46 1695.2
-685.47 -822.57 1705.8
-693.06 -837.08 1735.9
-681.34 -828.29 1717.7
-663.67 -812.12 1684.1
-669.43 -824.60 1710.0
-677.71 -840.37 1742.7
-656.93 -820.06 1700.6
-642.21 -807.10 1673.7
-654.56 -828.22 1717.5
-649.61 -827.58 1716.2
-636.32 -816.24 1692.7
-635.88 -821.35 1703.3
-636.03 -827.28 1715.6
-635.80 -832.81 1727.0
-622.38 -821.01 1702.6
-611.87 -812.91 1685.8
-613.16 -820.49 1701.5
-615.92 -830.15 1721.5
-616.13 -836.50 1734.7
-607.51 -830.86 1723.0
-605.85 -834.73 1731.0
-616.70 -856.02 1775.1
-619.33 -866.12 1796.1
-605.06 -852.58 1768.0
-593.55 -842.76 1747.7
-599.87 -858.27 1779.8
-600.54 -865.89 1795.6
-579.94 -842.73 1747.6
-562.70 -824.11 1709.0
-566.25 -835.89 1733.4
-571.07 -849.76 1762.2
-561.57 -842.36 1746.8
-544.42 -823.26 1707.2
-541.69 -825.86 1712.6
-547.37 -841.42 1744.9
-553.97 -858.66 1780.6
-550.22 -860.01 1783.4
-532.38 -839.17 1740.2
-530.82 -843.86 1749.9
-538.62 -863.65 1791.0
-535.85 -866.67 1797.2
-519.66 -847.87 1758.3
-511.57 -842.06 1746.2
-517.71 -859.77 1782.9
-514.89 -862.79 1789.2
-513.28 -867.90 1799.8
-505.19 -862.07 1787.7
-489.59 -843.18 1748.5
-482.17 -838.17 1738.1
-475.52 -834.41 1730.3
-476.29 -843.72 1749.7
-481.22 -860.64 1784.7
-474.97 -857.72 1778.7
-469.68 -856.48 1776.1
-465.32 -856.93 1777.0
-450.49 -837.92 1737.6
-443.29 -832.85 1727.1
-444.84 -844.28 1750.8
-443.39 -850.22 1763.1
-442.76 -857.85 1778.9
-431.00 -843.85 1749.9
-413.17 -817.54 1695.4
-410.67 -821.33 1703.2
-410.44 -829.80 1720.8
-399.10 -815.75 1691.6
-393.05 -812.31 1684.5
-394.97 -825.45 1711.8
-400.18 -845.83 1754.0
-399.59 -854.30 1771.6
-386.91 -836.80 1735.3
-385.70 -844.00 1750.2
-389.99 -863.55 1790.8
-375.24 -840.90 1743.8
-357.15 -810.12 1680.0
-352.76 -810.05 1679.8
-354.98 -825.33 1711.5
-358.31 -843.62 1749.4
-359.30 -856.79 1776.8
-354.13 -855.43 1773.9
-349.67 -855.78 1774.6
-355.90 -882.64 1830.4
-364.58 -916.38 1900.3
-367.69 -936.86 1942.8
-369.43 -954.35 1979.1
-854.33 -877.80 1810.6
-814.56 -841.56 1735.8
-810.73 -842.26 1737.3
-810.37 -846.58 1746.2
-785.80 -825.53 1702.8
-759.13 -802.02 1654.3
-739.51 -785.73 1620.7
-730.61 -780.71 1610.3
-740.95 -796.31 1642.5
-739.16 -798.98 1648.0
-725.05 -788.28 1626.0
-726.98 -795.00 1639.8
-724.04 -796.45 1642.8
-709.35 -784.91 1619.0
-704.26 -783.90 1616.9
-704.25 -788.59 1626.6
-706.36 -795.72 1641.3
-701.58 -795.12 1640.1
-692.87 -790.04 1629.6
-700.20 -803.29 1656.9
-697.50 -805.14 1660.7
-683.53 -793.92 1637.6
-682.95 -798.20 1646.4
-695.90 -818.44 1688.2
-711.07 -841.58 1735.9
-700.57 -834.43 1721.1
-688.76 -825.63 1703.0
-696.76 -840.61 1733.9
-695.48 -844.52 1741.9
-676.02 -826.24 1704.2
-666.75 -820.27 1691.9
-679.79 -841.86 1736.5
-676.11 -842.88 1738.6
-644.18 -808.47 1667.6
-626.94 -792.15 1633.9
-636.45 -809.64 1670.0
-640.96 -820.95 1693.3
-637.98 -822.77 1697.1
-641.99 -833.69 1719.6
-646.84 -845.87 1744.7
-637.42 -839.42 1731.4
-615.56 -816.38 1683.9
-602.61 -804.92 1660.3
-600.88 -808.37 1667.4
-596.96 -808.93 1668.5
-590.60 -806.15 1662.8
-591.53 -813.35 1677.6
-598.68 -829.29 1710.5
-603.00 -841.50 1735.7
-600.38 -844.14 1741.2
-591.25 -837.61 1727.7
-584.82 -834.82 1721.9
-581.89 -837.03 1726.5
-572.89 -830.47 1713.0
-562.24 -821.39 1694.2
-555.07 -817.31 1685.8
-553.87 -822.02 1695.5
-554.30 -829.23 1710.4
-552.43 -833.11 1718.4
-543.63 -826.49 1704.8
-544.74 -834.98 1722.3
-555.01 -857.74 1769.2
-544.55 -848.60 1750.4
-523.76 -823.05 1697.7
-511.71 -810.92 1672.6
-513.73 -821.09 1693.6
-519.30 -837.15 1726.7
-514.87 -837.22 1726.9
-506.06 -830.12 1712.2
-505.23 -836.08 1724.5
-511.41 -853.87 1761.2
-509.38 -858.15 1770.1
-503.59 -856.10 1765.8
-491.40 -843.05 1738.9
-482.04 -834.64 1721.6
-480.01 -838.90 1730.4
-468.11 -825.81 1703.4
-463.94 -826.26 1704.3
-465.43 -836.88 1726.2
-456.29 -828.41 1708.7
-453.95 -832.25 1716.6
-452.72 -838.20 1728.9
-444.83 -831.84 1715.8
-443.99 -838.64 1729.8
-446.41 -851.83 1757.0
-445.83 -859.49 1772.8
-439.27 -855.66 1764.9
-422.36 -831.39 1714.9
-410.41 -816.45 1684.1
-412.39 -829.21 1710.4
-414.66 -842.83 1738.5
-405.98 -834.27 1720.8
-397.40 -825.70 1703.1
-397.03 -834.20 1720.7
-393.15 -835.44 1723.2
-383.89 -825.14 1702.0
-380.04 -826.37 1704.5
-387.46 -852.41 1758.2
-390.19 -868.63 1791.7
-374.49 -843.74 1740.3
-358.12 -816.68 1684.5
-355.20 -820.03 1691.4
-351.33 -821.24 1693.9
-347.45 -822.44 1696.4
-349.82 -838.66 1729.9
-345.82 -839.86 1732.3
-342.87 -843.64 1740.1
-350.90 -874.91 1804.6
-361.16 -912.66 1882.5
-365.82 -937.09 1932.9
-370.72 -962.84 1986.0
-855.15 -883.34 1812.3
-815.41 -846.94 1737.6
-811.96 -848.05 1739.9
-803.89 -844.31 1732.2
-772.47 -815.87 1673.9
-746.26 -792.64 1626.2
-727.48 -777.08 1594.3
-717.89 -771.22 1582.3
-726.40 -784.84 1610.2
-734.40 -798.07 1637.4
-729.63 -797.50 1636.2
-714.86 -785.93 1612.5
-694.67 -768.23 1576.2
-688.94 -766.39 1572.4
-692.70 -775.16 1590.4
-698.19 -785.98 1612.6
-707.18 -800.90 1643.2
-708.13 -806.84 1655.4
-705.10 -808.29 1658.3
-697.44 -804.41 1650.4
-679.57 -788.64 1618.0
-673.08 -785.96 1612.5
-679.90 -798.88 1639.0
-677.55 -801.13 1643.7
-677.95 -806.67 1655.0
-693.41 -830.32 1703.5
-706.59 -851.53 1747.1
-681.18 -826.21 1695.1
-647.56 -790.53 1621.9
-649.21 -797.72 1636.7
-659.80 -816.07 1674.3
-660.25 -822.04 1686.5
-645.14 -808.57 1658.9
-634.74 -800.88 1643.1
-638.11 -810.57 1663.0
-641.06 -819.85 1682.1
-639.40 -823.34 1689.2
-634.19 -822.27 1687.0
-635.99 -830.32 1703.5
-637.08 -837.56 1718.4
-624.27 -826.49 1695.7
-610.31 -813.75 1669.5
-603.92 -810.98 1663.9
-598.47 -809.45 1660.7
-590.29 -804.16 1649.9
-589.45 -808.88 1659.6
-595.51 -823.21 1688.9
-589.43 -820.83 1684.1
-580.08 -813.85 1669.8
-580.87 -821.08 1684.6
-576.88 -821.62 1685.7
-567.63 -814.62 1671.3
-561.34 -811.79 1665.5
-555.95 -810.22 1662.3
-548.27 -805.28 1652.2
-546.89 -809.57 1661.0
-551.38 -822.69 1687.9
-549.03 -825.74 1694.1
-545.53 -827.09 1696.9
-536.50 -820.02 1682.4
-537.39 -828.11 1699.0
-546.07 -848.44 1740.7
-535.15 -838.41 1720.1
-523.00 -826.24 1695.2
-518.65 -826.32 1695.3
-510.08 -819.62 1681.6
-504.46 -817.57 1677.4
-502.21 -821.01 1684.4
-496.59 -818.94 1680.2
-500.42 -832.55 1708.1
-510.41 -856.77 1757.8
-502.89 -851.74 1747.5
-491.19 -839.49 1722.3
-485.76 -837.83 1719.0
-482.31 -839.57 1722.5
-478.34 -840.46 1724.3
-464.78 -824.33 1691.2
-456.13 -816.69 1675.6
-452.50 -817.97 1678.2
-445.35 -812.87 1667.7
-444.73 -819.69 1681.7
-447.93 -833.77 1710.6
-444.40 -835.48 1714.1
-431.19 -818.83 1680.0
-420.60 -806.86 1655.4
-428.86 -831.20 1705.3
-430.77 -843.59 1730.8
-413.52 -818.34 1679.0
-401.02 -802.05 1645.5
-405.85 -820.42 1683.2
-410.27 -838.38 1720.1
-401.02 -828.49 1699.8
-392.08 -819.02 1680.4
-391.36 -826.69 1696.1
-387.14 -827.07 1696.9
-380.53 -822.30 1687.1
-379.08 -828.68 1700.2
-375.61 -830.77 1704.5
-367.71 -822.97 1688.5
-359.12 -813.44 1668.9
-350.07 -802.60 1646.7
-348.54 -808.97 1659.7
-346.04 -813.19 1668.4
-340.41 -810.08 1662.0
-340.71 -821.19 1684.8
-340.54 -831.44 1705.8
-342.01 -846.02 1735.7
-345.90 -867.07 1778.9
-351.79 -893.75 1833.7
-361.09 -929.94 1907.9
-371.84 -970.92 1992.0
-838.80 -871.06 1777.7
-804.99 -840.57 1715.4
-797.73 -837.62 1709.4
-787.03 -831.00 1695.9
-760.69 -807.70 1648.4
-738.37 -788.43 1609.0
-727.98 -781.75 1595.4
-725.19 -783.20 1598.4
-724.26 -786.69 1605.5
-722.54 -789.37 1611.0
-718.20 -789.19 1610.6
-703.87 -777.97 1587.7
-693.69 -771.22 1573.9
-697.48 -780.02 1591.9
-699.00 -786.38 1604.9
-702.64 -795.20 1622.9
-702.58 -799.93 1632.5
-695.31 -796.45 1625.4
-690.92 -796.24 1625.0
-681.56 -790.28 1612.8
-680.73 -794.18 1620.8
-691.08 -811.27 1655.7
-692.20 -817.66 1668.7
-684.23 -813.33 1659.9
-675.96 -808.58 1650.2
-682.83 -822.00 1677.6
-691.27 -837.51 1709.2
-662.92 -808.33 1649.7
-635.17 -779.52 1590.9
-640.90 -791.70 1615.7
-649.19 -807.22 1647.4
-647.71 -810.71 1654.5
-636.31 -801.75 1636.2
-629.90 -799.00 1630.6
-631.01 -805.82 1644.5
-631.40 -811.80 1656.7
-633.03 -819.46 1672.4
-631.37 -822.96 1679.5
-628.41 -824.79 1683.3
-625.43 -826.62 1687.0
-624.95 -831.79 1697.5
-622.85 -834.88 1703.8
-606.15 -818.30 1670.0
-589.92 -802.11 1637.0
-586.68 -803.50 1639.8
-590.12 -814.10 1661.4
-582.88 -810.04 1653.1
-563.99 -789.59 1611.4
-564.95 -796.83 1626.2
-575.60 -817.96 1669.3
-577.23 -826.48 1686.7
-574.10 -828.28 1690.4
-562.27 -817.45 1668.3
-551.11 -807.44 1647.8
-550.04 -812.17 1657.5
-554.60 -825.35 1684.4
-552.55 -828.83 1691.5
-544.60 -823.43 1680.5
-544.74 -830.28 1694.5
-539.85 -829.53 1692.9
-530.87 -822.42 1678.4
-530.10 -828.00 1689.8
-524.96 -826.81 1687.4
-519.03 -824.34 1682.3
-515.24 -825.25 1684.2
-507.76 -820.22 1673.9
-500.06 -814.76 1662.8
-495.78 -814.81 1662.9
-493.30 -817.84 1669.1
-500.19 -836.60 1707.4
-502.61 -848.15 1730.9
-488.64 -832.02 1698.0
-482.03 -828.22 1690.2
-480.62 -833.38 1700.8
-475.01 -831.28 1696.5
-469.42 -829.17 1692.2
-460.74 -821.50 1676.5
-456.40 -821.52 1676.6
-453.71 -824.52 1682.7
-446.55 -819.40 1672.2
-447.07 -828.39 1690.6
-450.47 -842.96 1720.3
-441.48 -834.40 1702.8
-423.36 -808.24 1649.5
-412.63 -795.78 1624.0
-419.86 -818.07 1669.5
-428.38 -843.38 1721.2
-418.73 -833.06 1700.1
-405.12 -814.55 1662.4
-407.78 -828.71 1691.2
-410.50 -843.30 1721.0
-400.63 -832.08 1698.1
-392.52 -824.29 1682.2
-391.99 -832.43 1698.8
-386.16 -829.36 1692.6
-378.17 -821.55 1676.6
-373.01 -819.76 1673.0
-365.54 -812.79 1658.7
-360.82 -811.85 1656.8
-355.54 -809.61 1652.3
-347.29 -800.45 1633.6
-346.53 -808.58 1650.2
-350.27 -827.52 1688.8
-351.28 -840.41 1715.1
-349.48 -846.82 1728.2
-346.73 -851.06 1736.9
-342.02 -850.54 1735.8
-339.37 -855.21 1745.3
-349.07 -891.54 1819.5
-363.08 -940.03 1918.4
-359.57 -943.86 1926.3
-343.94 -915.57 1868.5
-841.97 -878.98 1784.4
-808.94 -849.17 1723.9
-803.60 -848.24 1722.0
-799.03 -848.13 1721.8
-776.86 -829.23 1683.4
-759.42 -815.20 1654.9
-753.10 -813.00 1650.5
-730.96 -793.61 1611.1
-713.11 -778.69 1580.8
-718.17 -788.75 1601.2
-719.80 -795.12 1614.2
-715.45 -794.94 1613.8
-715.51 -799.68 1623.4
-708.20 -796.20 1616.4
-699.11 -790.66 1605.1
-693.69 -789.22 1602.2
-683.95 -782.83 1589.2
-686.09 -790.04 1603.8
-689.95 -799.33 1622.7
-686.27 -799.95 1624.0
-690.69 -810.07 1644.5
-691.16 -815.66 1655.8
-682.16 -810.07 1644.5
-668.36 -798.66 1621.3
-655.00 -787.65 1599.0
-661.29 -800.28 1624.6
-669.50 -815.42 1655.4
-662.65 -812.28 1649.0
-655.49 -808.73 1641.8
-648.70 -805.58 1635.4
-644.93 -806.17 1636.6
-638.51 -803.42 1631.0
-621.89 -787.73 1599.1
-620.16 -790.80 1605.4
-626.20 -803.91 1632.0
-618.21 -799.04 1622.1
-611.87 -796.26 1616.5
-619.29 -811.48 1647.4
-624.98 -824.62 1674.0
-625.49 -831.07 1687.1
-628.45 -840.88 1707.0
-625.07 -842.30 1709.9
-607.44 -824.39 1673.6
-594.29 -812.34 1649.1
-593.47 -817.10 1658.8
-588.35 -815.96 1656.5
-573.59 -801.34 1626.8
-561.37 -790.07 1603.9
-568.29 -805.79 1635.8
-565.60 -808.00 1640.3
-554.09 -797.55 1619.1
-556.66 -807.37 1639.0
-550.74 -804.93 1634.1
-539.38 -794.44 1612.8
-537.54 -797.91 1619.8
-542.46 -811.56 1647.5
-540.78 -815.46 1655.4
-530.12 -805.79 1635.8
-527.32 -807.99 1640.3
-539.07 -832.70 1690.4
-547.29 -852.34 1730.3
-541.78 -850.73 1727.1
-533.06 -844.01 1713.4
-522.27 -833.87 1692.8
-514.22 -827.98 1680.9
-504.65 -819.51 1663.7
-494.38 -809.76 1643.9
-493.24 -814.92 1654.4
-493.08 -821.80 1668.3
-492.85 -828.68 1682.3
-489.27 -830.01 1685.0
-481.43 -824.06 1672.9
-481.07 -830.95 1686.9
-473.77 -825.84 1676.5
-462.62 -813.87 1652.2
-458.83 -814.74 1654.0
-452.39 -810.89 1646.2
-449.32 -813.05 1650.5
-447.62 -817.78 1660.1
-443.79 -818.64 1661.9
-446.40 -831.54 1688.1
-449.58 -845.74 1716.9
-440.37 -836.70 1698.6
-425.42 -816.46 1657.5
-416.89 -808.26 1640.8
-413.94 -810.82 1646.0
-412.93 -817.26 1659.1
-416.17 -832.33 1689.7
-414.76 -838.35 1701.9
-404.42 -826.23 1677.3
-394.61 -814.96 1654.4
-397.96 -830.91 1686.8
-402.79 -850.33 1726.2
-399.31 -852.45 1730.5
-389.99 -842.02 1709.4
-381.17 -832.44 1689.9
-375.78 -830.22 1685.4
-367.70 -821.92 1668.6
-362.00 -818.81 1662.2
-359.93 -823.94 1672.7
-355.19 -822.99 1670.7
-351.00 -823.34 1671.4
-351.02 -833.68 1692.4
-352.56 -847.93 1721.4
-350.92 -854.80 1735.3
-355.20 -876.46 1779.3
-358.38 -895.96 1818.9
-347.45 -880.21 1786.9
-348.04 -893.62 1814.1
-364.56 -948.86 1926.3
-362.68 -957.06 1942.9
-837.70 -883.98 1785.2
-810.23 -859.74 1736.2
-786.81 -839.55 1695.4
-772.74 -829.17 1674.5
-762.18 -822.46 1660.9
-753.57 -817.79 1651.5
-727.67 -794.21 1603.9
-704.99 -773.87 1562.8
-707.84 -781.49 1578.2
-708.40 -786.65 1588.6
-703.36 -785.63 1586.5
-702.38 -789.14 1593.6
-694.78 -785.22 1585.7
-687.94 -782.12 1579.5
-683.30 -781.50 1578.2
-681.18 -783.76 1582.8
-690.13 -798.88 1613.3
-692.53 -806.55 1628.8
-687.42 -805.51 1626.7
-687.96 -811.11 1638.0
-684.93 -812.56 1640.9
-673.18 -803.61 1622.9
-657.01 -789.24 1593.8
-651.30 -787.33 1590.0
-664.80 -808.77 1633.3
-659.35 -807.28 1630.3
-639.01 -787.43 1590.2
-645.46 -800.54 1616.7
-651.46 -813.26 1642.3
-646.67 -812.60 1641.0
-638.25 -807.33 1630.4
-625.27 -796.18 1607.8
-626.78 -803.46 1622.5
-630.18 -813.27 1642.4
-620.55 -806.29 1628.3
-605.84 -792.57 1600.6
-604.03 -795.65 1606.8
-613.29 -813.47 1642.8
-617.03 -824.14 1664.3
-617.21 -830.19 1676.5
-611.42 -828.23 1672.6
-598.22 -816.14 1648.2
-589.43 -809.94 1635.6
-592.92 -820.63 1657.2
-592.35 -825.84 1667.7
-585.11 -821.73 1659.4
-581.19 -822.28 1660.6
-575.19 -819.86 1655.7
-560.35 -804.71 1625.1
-546.82 -791.24 1597.9
-546.82 -797.27 1610.0
-549.64 -807.55 1630.8
-547.20 -810.20 1636.2
-542.45 -809.44 1634.6
-544.78 -819.31 1654.6
-544.20 -824.94 1665.9
-535.76 -818.64 1653.2
-530.14 -816.59 1649.1
-538.28 -835.86 1688.0
-543.23 -850.46 1717.5
-535.04 -844.57 1705.6
-528.79 -841.66 1699.7
-520.97 -836.18 1688.6
-508.70 -823.41 1662.8
-494.72 -807.62 1630.9
-490.26 -807.24 1630.2
-494.58 -821.43 1658.8
-496.19 -831.34 1678.8
-496.95 -839.97 1696.3
-490.31 -836.15 1688.6
