ply
format ascii 1.0
element vertex 2107
property float x
property float y
property float z
end_header
1015.46 -483.08 1901.4
1028.11 -486.74 1915.7
1011.64 -476.64 1876.0
1011.26 -474.18 1866.3
1019.72 -475.87 1873.0
1030.07 -478.42 1883.0
1042.34 -481.83 1896.4
1049.93 -483.07 1901.3
1064.18 -487.33 1918.1
1063.75 -484.87 1908.4
1065.19 -483.28 1902.1
1080.01 -487.74 1919.7
1076.15 -483.77 1904.1
1099.71 -492.11 1936.9
1135.49 -505.81 1990.8
1120.99 -497.09 1956.5
1114.63 -492.04 1936.6
1145.82 -503.55 1981.9
1153.65 -504.72 1986.5
1129.50 -491.96 1936.3
1087.38 -471.52 1855.8
1097.11 -471.57 1856.0
1110.71 -475.32 1870.8
1128.64 -476.75 1876.4
1181.77 -497.06 1956.3
1167.81 -489.08 1925.0
1188.80 -495.75 1951.2
1226.68 -505.10 1988.0
1216.57 -498.85 1963.4
1494.09 -544.31 2142.3
1510.47 -538.28 2118.6
1500.50 -532.79 2097.0
1481.89 -524.28 2063.5
1463.72 -515.99 2030.9
1452.33 -510.14 2007.8
1433.95 -501.88 1975.3
1435.06 -500.48 1969.8
1418.23 -492.86 1939.8
1362.46 -471.81 1857.0
1336.61 -461.22 1815.3
1342.63 -461.68 1817.1
1367.92 -468.73 1844.8
1371.06 -468.17 1842.6
1310.88 -446.06 1755.6
1286.84 -436.37 1717.5
1351.58 -456.74 1797.7
1392.40 -468.92 1845.6
1373.62 -461.01 1814.5
1335.17 -446.58 1757.7
1320.89 -440.30 1732.9
1355.95 -450.45 1772.9
1384.57 -458.41 1804.2
1351.69 -446.01 1755.4
1293.47 -425.37 1674.2
1263.21 -414.03 1629.6
1257.48 -410.78 1616.8
1273.42 -414.60 1631.8
973.58 -544.55 2121.6
947.97 -527.24 2054.2
956.91 -529.24 2062.0
920.58 -506.32 1972.7
902.06 -493.39 1922.3
941.93 -512.37 1996.2
948.30 -513.01 1998.7
919.85 -494.92 1928.3
909.22 -486.55 1895.7
924.68 -492.17 1917.5
948.31 -502.05 1956.0
953.74 -502.23 1956.8
939.87 -492.31 1918.1
926.70 -482.86 1881.3
932.40 -483.28 1882.9
952.43 -491.10 1913.4
965.17 -495.09 1928.9
974.47 -497.28 1937.5
987.32 -501.25 1952.9
1001.11 -505.66 1970.1
1014.53 -509.84 1986.4
1032.91 -516.45 2012.2
1020.99 -507.93 1978.9
968.54 -479.43 1867.9
956.18 -470.95 1834.9
970.37 -475.58 1852.9
969.19 -472.66 1841.5
983.92 -477.49 1860.3
1003.75 -484.74 1888.6
1009.45 -485.13 1890.1
1003.16 -479.77 1869.3
1006.05 -478.84 1865.6
1025.64 -485.83 1892.8
1054.67 -497.20 1937.2
1084.82 -508.99 1983.1
1083.19 -505.83 1970.8
1078.67 -501.35 1953.3
1096.80 -507.40 1976.9
1098.40 -505.77 1970.5
1073.74 -492.13 1917.4
1063.70 -485.28 1890.7
1083.32 -491.97 1916.7
1131.47 -511.49 1992.8
1154.42 -517.14 2014.8
1124.81 -501.60 1954.3
1130.62 -501.94 1955.6
1133.99 -501.18 1952.7
1105.36 -486.36 1894.9
1111.54 -486.92 1897.1
1146.46 -500.00 1948.0
1133.37 -492.12 1917.4
1131.00 -484.71 1888.5
1130.63 -482.47 1879.7
1127.19 -478.94 1866.0
1143.45 -483.77 1884.8
1212.13 -510.64 1989.5
1455.99 -546.00 2127.3
1418.34 -518.14 2018.7
1485.09 -540.53 2106.0
1508.59 -547.07 2131.5
1508.38 -545.00 2123.4
1515.52 -545.59 2125.7
1499.87 -538.00 2096.1
1480.70 -529.20 2061.8
1452.81 -517.37 2015.7
1432.79 -508.41 1980.8
1442.56 -510.05 1987.2
1467.91 -517.16 2014.9
1457.52 -511.68 1993.6
1408.24 -492.64 1919.4
1370.90 -477.88 1861.9
1371.18 -476.30 1855.7
1360.94 -471.09 1835.4
1327.24 -457.83 1783.7
1317.38 -452.85 1764.4
1342.11 -459.75 1791.3
1368.11 -467.04 1819.7
1361.74 -463.27 1805.0
1341.14 -454.70 1771.6
1302.04 -439.94 1714.0
1296.01 -436.41 1700.3
1347.07 -452.07 1761.3
1333.91 -446.14 1738.2
1245.33 -415.11 1617.3
1246.39 -409.94 1597.2
1232.10 -403.90 1573.6
1222.57 -399.45 1556.3
979.16 -553.20 2133.8
989.89 -556.12 2145.0
972.79 -540.44 2084.6
915.24 -505.66 1950.4
916.93 -503.81 1943.3
951.56 -519.98 2005.6
950.82 -516.75 1993.2
935.70 -505.78 1950.9
947.89 -509.62 1965.7
961.84 -514.35 1983.9
957.09 -509.09 1963.6
951.39 -503.38 1941.6
945.16 -497.45 1918.8
953.53 -499.23 1925.6
976.25 -508.47 1961.2
969.04 -502.09 1936.6
957.34 -493.48 1903.4
965.72 -495.24 1910.2
976.77 -498.35 1922.2
1006.04 -510.68 1969.8
1020.09 -510.05 1967.3
988.58 -491.83 1897.1
985.26 -487.75 1881.3
963.26 -474.51 1830.3
996.85 -486.27 1875.6
1023.19 -496.69 1915.8
1022.95 -494.18 1906.1
1031.93 -496.12 1913.6
1046.04 -500.50 1930.5
1068.61 -508.86 1962.8
1078.67 -511.22 1971.8
1058.70 -499.39 1926.2
1055.04 -495.33 1910.5
1074.50 -502.11 1936.7
1109.74 -516.16 1990.9
1115.63 -516.50 1992.2
1112.92 -512.87 1978.2
1140.87 -523.34 2018.6
1126.59 -514.42 1984.2
1100.08 -500.04 1928.7
1116.52 -505.21 1948.7
1119.40 -504.24 1944.9
1120.80 -502.60 1938.6
1117.28 -498.78 1923.9
1099.92 -488.85 1885.6
1118.91 -495.09 1909.6
1163.24 -512.44 1976.6
1163.13 -510.14 1967.7
1114.65 -486.75 1877.4
1112.80 -483.83 1866.2
1158.05 -501.32 1933.7
1166.33 -502.73 1939.1
1209.45 -519.08 2002.2
1263.89 -537.83 2074.5
1212.84 -513.92 1982.2
1442.65 -546.46 2107.8
1400.87 -516.92 1993.9
1475.43 -542.44 2092.3
1489.86 -545.74 2105.0
1486.21 -542.41 2092.2
1491.59 -542.39 2092.1
1475.32 -534.54 2061.8
1472.65 -531.64 2050.6
1457.35 -524.23 2022.0
1486.10 -532.65 2054.5
1483.43 -527.91 2036.2
1397.99 -495.74 1912.1
1398.97 -494.33 1906.7
1411.53 -497.02 1917.1
1403.77 -492.55 1899.8
1381.95 -483.20 1863.8
1382.80 -481.81 1858.4
1404.12 -487.54 1880.5
1346.26 -465.83 1796.8
1288.70 -444.38 1714.0
1304.57 -448.31 1729.2
1306.90 -447.57 1726.3
1282.55 -437.73 1688.4
1299.64 -442.05 1705.1
1350.69 -457.86 1766.0
1333.37 -450.46 1737.5
1283.68 -432.21 1667.1
1281.06 -429.89 1658.1
1214.79 -406.28 1567.1
1266.98 -420.93 1623.6
1225.11 -404.33 1559.5
967.28 -551.95 2107.9
971.03 -550.98 2104.2
977.21 -551.39 2105.7
968.58 -543.48 2075.5
930.47 -519.21 1982.8
903.58 -501.44 1915.0
911.85 -503.26 1921.9
943.20 -517.73 1977.2
961.31 -524.82 2004.3
941.48 -511.23 1952.4
925.67 -499.96 1909.3
949.34 -510.02 1947.7
971.89 -519.37 1983.4
958.87 -509.72 1946.6
961.68 -508.53 1942.1
982.69 -516.94 1974.2
972.90 -509.13 1944.4
956.85 -498.16 1902.4
959.96 -497.21 1898.8
953.78 -491.49 1877.0
967.88 -496.22 1895.0
992.28 -506.16 1933.0
993.61 -504.30 1925.9
983.71 -496.77 1897.1
973.23 -489.03 1867.6
1003.74 -501.87 1916.6
1015.86 -505.43 1930.2
983.84 -487.10 1860.2
998.18 -491.79 1878.1
1028.19 -504.11 1925.2
1032.58 -503.82 1924.1
1040.20 -505.10 1929.0
1052.49 -508.62 1942.4
1040.12 -500.25 1910.4
1015.93 -486.30 1857.1
1026.26 -488.92 1867.2
1051.23 -498.47 1903.6
1054.11 -497.50 1899.9
1071.70 -503.45 1922.6
1105.09 -516.73 1973.4
1130.07 -525.98 2008.7
1134.56 -525.64 2007.4
1098.12 -506.44 1934.1
1076.36 -494.15 1887.1
1099.01 -502.26 1918.1
1102.32 -501.51 1915.2
1102.69 -499.43 1907.3
1125.55 -507.50 1938.1
1131.82 -508.06 1940.3
1142.54 -510.60 1950.0
1181.98 -525.90 2008.4
1164.06 -515.66 1969.3
1149.18 -500.29 1910.6
1267.40 -549.39 2098.1
1456.37 -557.17 2127.8
1468.49 -549.32 2097.8
1489.79 -551.17 2104.9
1489.53 -549.06 2096.8
1496.62 -549.67 2099.2
1472.42 -538.82 2057.7
1464.61 -534.03 2039.4
1415.55 -514.28 1964.0
1420.69 -514.30 1964.1
1495.36 -539.40 2059.9
1460.91 -525.10 2005.3
1358.71 -486.63 1858.4
1346.29 -480.48 1834.9
1424.29 -506.52 1934.4
1481.11 -524.88 2004.5
1436.74 -507.38 1937.7
1415.52 -498.14 1902.4
1411.74 -495.09 1890.7
1327.51 -463.94 1771.8
1291.69 -449.86 1718.0
1335.28 -463.45 1769.9
1340.04 -463.51 1770.1
1320.52 -455.20 1738.4
1309.79 -449.96 1718.4
1329.92 -455.33 1738.9
1312.56 -447.87 1710.4
1258.66 -428.03 1634.6
1291.92 -437.86 1672.2
1264.69 -427.20 1631.5
966.77 -557.12 2106.8
950.55 -544.70 2059.8
966.05 -550.48 2081.7
965.60 -547.17 2069.1
939.48 -529.43 2002.0
925.10 -518.46 1960.6
908.87 -506.58 1915.7
916.32 -507.96 1920.9
939.77 -518.14 1959.4
926.62 -508.15 1921.6
908.21 -495.39 1873.3
927.11 -503.01 1902.1
940.56 -507.60 1919.5
919.68 -493.72 1867.0
937.87 -500.85 1894.0
973.95 -517.41 1956.6
976.75 -516.21 1952.1
973.85 -512.02 1936.2
972.64 -508.76 1923.9
960.78 -500.00 1890.8
944.80 -489.19 1849.9
941.09 -484.81 1833.3
960.97 -492.56 1862.6
968.87 -494.12 1868.5
974.98 -494.77 1871.0
1023.11 -516.62 1953.6
1055.71 -530.45 2005.9
1041.16 -520.58 1968.6
1031.95 -513.46 1941.6
1040.51 -515.21 1948.3
1050.48 -517.63 1957.4
1062.80 -521.18 1970.8
1057.03 -510.98 1932.3
1054.37 -507.29 1918.3
1072.84 -513.75 1942.8
1067.30 -508.71 1923.7
1068.32 -506.83 1916.6
1085.97 -512.82 1939.2
1108.49 -521.04 1970.3
1111.95 -520.27 1967.4
1097.58 -511.20 1933.1
1099.01 -509.54 1926.8
1111.56 -513.03 1940.0
1103.25 -506.90 1916.8
1123.14 -513.72 1942.6
1165.64 -530.78 2007.2
1163.21 -527.32 1994.1
1163.18 -524.97 1985.2
1181.91 -531.08 2008.3
1139.19 -509.64 1927.2
1118.73 -496.13 1876.1
1112.86 -491.39 1858.2
1157.18 -508.76 1923.9
1206.29 -528.07 1996.9
1214.19 -529.26 2001.4
1275.39 -553.57 2093.3
1291.63 -558.25 2111.0
1269.12 -546.20 2065.5
1274.61 -546.26 2065.7
1456.64 -550.29 2080.9
1488.23 -558.09 2110.4
1465.42 -547.52 2070.5
1482.66 -551.94 2087.2
1496.48 -551.05 2083.8
1413.22 -518.52 1960.8
1357.04 -496.12 1876.1
1382.71 -503.70 1904.7
1468.35 -533.00 2015.5
1468.37 -531.11 2008.4
1393.74 -502.34 1899.6
1421.36 -510.49 1930.4
1464.79 -524.24 1982.4
1402.35 -500.14 1891.3
1407.33 -500.17 1891.4
1427.53 -505.58 1911.9
1368.60 -483.04 1826.6
1359.94 -478.32 1808.8
1430.77 -501.51 1896.5
1463.51 -511.23 1933.2
1409.94 -490.83 1856.1
1360.86 -472.13 1785.4
1354.93 -468.49 1771.6
1300.10 -448.01 1694.2
1238.99 -422.67 1598.3
1235.03 -419.91 1587.9
986.51 -574.07 2149.8
955.74 -553.04 2071.0
956.94 -550.64 2062.0
972.48 -556.47 2083.9
960.03 -546.32 2045.8
952.81 -539.23 2019.3
943.81 -531.21 1989.3
935.09 -523.45 1960.2
943.90 -525.52 1968.0
946.40 -524.08 1962.6
942.94 -519.37 1945.0
940.25 -515.14 1929.1
930.65 -507.18 1899.3
920.92 -499.23 1869.5
949.89 -512.25 1918.3
979.50 -525.46 1967.8
974.94 -520.30 1948.4
956.30 -507.73 1901.3
937.90 -495.40 1855.2
933.40 -490.51 1836.9
960.92 -497.36 1862.5
993.45 -511.63 1915.9
1024.40 -524.94 1965.8
1034.78 -527.63 1975.9
1025.25 -520.20 1948.0
1034.72 -522.43 1956.4
1051.07 -528.10 1977.6
1045.95 -522.97 1958.4
1041.67 -518.32 1941.0
1047.94 -518.93 1943.3
1071.84 -528.23 1978.1
1069.79 -519.75 1946.4
1050.65 -508.06 1902.6
1052.59 -506.62 1897.2
1061.15 -508.37 1903.7
1082.58 -516.23 1933.2
1105.55 -524.75 1965.1
1114.27 -526.47 1971.5
1104.73 -519.58 1945.7
1097.99 -514.06 1925.0
1098.42 -511.93 1917.1
1085.21 -503.50 1885.5
1099.66 -507.92 1902.0
1149.90 -528.75 1980.1
1154.78 -528.63 1979.6
1150.79 -524.47 1964.1
1166.50 -529.29 1982.1
1163.44 -525.59 1968.2
1172.75 -527.48 1975.3
1182.59 -529.59 1983.2
1166.41 -520.09 1947.6
1181.24 -524.43 1963.9
1188.57 -525.42 1967.6
1195.40 -526.18 1970.4
1256.52 -550.73 2062.4
1227.92 -531.41 1990.0
1215.80 -523.96 1962.1
1465.85 -563.37 2109.7
1482.58 -557.32 2087.0
1456.75 -545.62 2043.2
1485.36 -554.32 2075.8
1451.94 -539.89 2021.8
1416.61 -524.86 1965.5
1399.42 -516.63 1934.7
1394.17 -512.85 1920.5
1452.75 -532.50 1994.1
1472.94 -537.99 2014.7
1409.33 -512.94 1920.8
1379.60 -500.35 1873.7
1366.55 -493.88 1849.5
1389.52 -500.42 1874.0
1476.78 -529.99 1984.7
1502.89 -535.63 2005.8
1410.50 -500.97 1876.0
1396.60 -494.33 1851.2
1447.54 -510.61 1912.1
1412.31 -496.48 1859.2
1368.59 -479.47 1795.5
1370.42 -478.48 1791.8
1351.97 -470.45 1761.7
1286.28 -446.08 1670.5
962.14 -562.15 2084.9
960.10 -557.82 2068.9
971.13 -561.10 2081.0
965.71 -554.88 2057.9
964.32 -551.04 2043.7
964.54 -548.15 2033.0
965.13 -545.51 2023.2
971.13 -545.93 2024.7
969.96 -542.34 2011.4
942.02 -523.90 1943.0
917.61 -507.62 1882.6
945.55 -520.30 1929.7
974.55 -533.44 1978.4
975.70 -531.27 1970.4
977.69 -529.58 1964.1
973.99 -524.84 1946.5
953.61 -511.21 1896.0
948.37 -505.80 1875.9
958.90 -508.80 1887.0
966.38 -510.17 1892.1
981.42 -515.49 1911.9
997.43 -521.27 1933.3
1011.74 -526.10 1951.2
1015.78 -525.58 1949.2
998.14 -513.90 1905.9
1016.12 -520.57 1930.7
1054.65 -537.67 1994.1
1050.53 -532.95 1976.6
1025.70 -517.83 1920.5
1012.61 -508.75 1886.8
1012.76 -506.38 1878.1
1029.57 -512.32 1900.1
1063.68 -526.77 1953.7
1090.52 -537.51 1993.5
1075.81 -527.75 1957.3
1059.53 -517.33 1918.7
1066.23 -518.17 1921.8
1077.68 -521.30 1933.4
1101.53 -530.37 1967.0
1111.68 -532.79 1976.0
1105.09 -527.20 1955.3
1085.92 -515.69 1912.6
1068.98 -505.34 1874.2
1099.33 -517.33 1918.7
1114.79 -522.24 1936.9
1096.20 -511.23 1896.0
1114.12 -517.27 1918.4
1129.19 -521.94 1935.7
1135.45 -522.51 1937.9
1169.39 -535.76 1987.0
1188.64 -542.19 2010.9
1181.63 -536.63 1990.3
1171.04 -529.51 1963.8
1168.85 -526.23 1951.7
1201.26 -538.49 1997.2
1247.95 -557.02 2065.9
1279.21 -563.72 2090.7
1273.01 -558.62 2071.8
1199.70 -524.24 1944.3
1462.25 -565.33 2096.7
1465.22 -562.30 2085.4
1484.75 -563.55 2090.1
1408.48 -532.66 1975.5
1393.19 -524.97 1947.0
1449.59 -544.25 2018.5
1489.68 -557.29 2066.9
1460.07 -544.26 2018.5
1448.09 -537.86 1994.8
1468.81 -543.62 2016.2
1449.23 -534.47 1982.2
1395.43 -512.81 1901.9
1378.43 -504.78 1872.1
1356.09 -494.85 1835.3
1369.72 -498.08 1847.3
1448.73 -524.97 1947.0
1496.49 -540.40 2004.2
1508.11 -542.71 2012.8
1455.14 -521.84 1935.4
1380.70 -493.45 1830.1
1362.55 -485.29 1799.8
1341.34 -476.11 1765.8
1319.41 -466.73 1731.0
1362.71 -480.41 1781.8
1407.37 -494.48 1833.9
1330.49 -465.89 1727.9
1259.82 -439.67 1630.6
1296.09 -450.81 1672.0
1020.27 -608.68 2236.0
973.82 -574.44 2110.2
983.28 -576.78 2118.8
981.28 -572.41 2102.7
963.53 -558.96 2053.3
965.04 -556.76 2045.2
968.18 -555.51 2040.7
975.48 -556.66 2044.9
987.40 -560.42 2058.7
986.73 -557.03 2046.2
955.49 -536.51 1970.8
936.27 -522.92 1920.9
974.54 -541.41 1988.9
987.76 -545.87 2005.2
971.73 -534.20 1962.4
994.49 -543.86 1997.9
1009.56 -549.24 2017.6
1002.01 -542.32 1992.2
1011.44 -544.62 2000.7
1014.31 -543.38 1996.1
1010.96 -538.83 1979.4
1010.20 -535.71 1967.9
1007.16 -531.41 1952.1
1017.02 -533.94 1961.4
1013.90 -529.65 1945.6
994.01 -516.69 1898.0
1011.06 -522.96 1921.1
1043.19 -536.94 1972.4
1033.56 -529.38 1944.7
1031.59 -525.81 1931.5
1041.06 -528.07 1939.9
1028.40 -519.14 1907.1
1034.14 -519.54 1908.5
1047.78 -523.89 1924.5
1054.49 -524.75 1927.6
1066.36 -528.15 1940.1
1074.98 -529.92 1946.6
1071.82 -525.89 1931.9
1073.34 -524.19 1925.6
1100.50 -534.97 1965.2
1113.98 -539.02 1980.1
1117.94 -538.46 1978.0
1109.87 -532.13 1954.8
1082.91 -516.84 1898.6
1103.61 -524.34 1926.2
1139.48 -538.94 1979.8
1140.47 -536.99 1972.6
1126.77 -528.17 1940.2
1109.99 -517.99 1902.8
1116.68 -518.81 1905.8
1151.03 -532.42 1955.8
1193.51 -549.64 2019.1
1212.86 -556.11 2042.9
1220.83 -557.34 2047.4
1248.33 -567.42 2084.4
1223.26 -553.63 2033.7
1196.98 -539.41 1981.5
1250.82 -561.27 2061.8
1260.88 -563.37 2069.5
1229.27 -546.92 2009.1
1279.94 -564.68 2074.3
1503.37 -571.93 2101.0
1508.76 -571.91 2100.9
1486.46 -557.42 2047.7
1460.69 -545.81 2005.0
1463.59 -544.95 2001.9
1423.71 -528.23 1940.4
1437.48 -531.46 1952.3
1442.58 -531.48 1952.4
1415.67 -519.74 1909.2
1455.10 -532.35 1955.6
1465.45 -534.28 1962.7
1445.95 -525.34 1929.8
1460.39 -528.76 1942.4
1451.91 -523.88 1924.5
1397.95 -502.69 1846.6
1341.36 -480.69 1765.8
1315.30 -469.75 1725.6
1347.29 -479.54 1761.6
1382.97 -490.58 1802.1
1308.46 -462.59 1699.3
1009.23 -607.83 2211.8
985.30 -590.07 2147.1
973.69 -579.84 2109.9
983.15 -582.20 2118.5
981.56 -578.03 2103.3
973.31 -570.01 2074.1
983.57 -572.85 2084.5
962.66 -557.61 2029.0
948.20 -546.25 1987.7
968.40 -554.87 2019.1
975.66 -556.02 2023.2
985.04 -558.37 2031.8
1005.10 -566.70 2062.1
1001.82 -558.91 2033.8
993.62 -551.43 2006.6
1008.45 -551.01 2005.0
1020.11 -554.52 2017.8
1026.53 -555.16 2020.1
1006.44 -541.54 1970.6
987.92 -528.89 1924.5
972.77 -518.16 1885.5
972.21 -515.27 1875.0
1001.69 -528.25 1922.2
1016.03 -533.16 1940.1
1003.74 -524.12 1907.2
1007.21 -523.36 1904.4
1017.97 -526.36 1915.3
1036.09 -533.13 1940.0
1045.11 -535.18 1947.4
1032.94 -526.40 1915.5
1029.90 -522.34 1900.7
1034.23 -522.04 1899.6
1044.61 -524.78 1909.6
1060.66 -530.33 1929.8
1047.17 -521.12 1896.3
1021.27 -505.86 1840.7
1038.17 -509.47 1853.9
1069.07 -522.22 1900.3
1090.09 -530.05 1928.7
1113.15 -538.79 1960.5
1116.09 -537.75 1956.8
1104.51 -529.76 1927.7
1104.93 -527.58 1919.8
1133.08 -538.59 1959.8
1148.68 -543.57 1977.9
1137.87 -536.06 1950.6
1152.52 -540.56 1967.0
1151.94 -537.91 1957.4
1149.34 -534.34 1944.4
1182.45 -547.33 1991.6
1211.25 -558.23 2031.3
1258.21 -577.36 2100.9
1252.76 -572.38 2082.8
1266.35 -576.11 2096.4
1255.60 -563.96 2052.1
1479.41 -568.18 2067.5
1485.88 -568.60 2069.0
1462.34 -551.63 2007.3
1395.53 -524.56 1908.8
1360.13 -509.45 1853.8
1378.96 -514.68 1872.8
1461.10 -543.43 1977.4
1499.39 -555.72 2022.2
1506.93 -556.57 2025.2
1496.37 -550.75 2004.1
1456.45 -534.20 1943.9
1453.30 -531.21 1933.0
1500.11 -546.43 1988.4
1504.06 -546.00 1986.8
1453.64 -525.89 1913.6
1446.21 -521.42 1897.4
1420.91 -510.56 1857.8
1371.68 -491.21 1787.4
1336.51 -477.00 1735.7
997.80 -606.62 2186.7
980.71 -592.86 2137.1
986.56 -593.04 2137.8
1013.22 -605.67 2183.3
1006.04 -598.03 2155.8
991.32 -586.03 2112.5
992.13 -583.29 2102.6
960.47 -561.59 2024.4
941.00 -547.21 1972.6
955.70 -552.76 1992.6
955.74 -549.81 1981.9
957.84 -548.07 1975.7
982.02 -558.92 2014.8
996.11 -563.94 2032.9
992.27 -558.80 2014.4
993.94 -556.82 2007.2
996.88 -555.55 2002.7
978.51 -542.49 1955.6
959.50 -529.21 1907.7
966.13 -530.13 1911.0
981.56 -535.85 1931.6
971.90 -527.89 1902.9
960.79 -519.22 1871.7
955.34 -513.67 1851.7
947.56 -506.95 1827.4
967.95 -515.28 1857.5
974.49 -516.19 1860.8
958.43 -505.18 1821.1
984.43 -516.34 1861.3
1018.34 -531.52 1916.0
1047.90 -544.30 1962.1
1066.15 -551.10 1986.6
1035.63 -532.75 1920.5
1014.55 -519.41 1872.4
1023.47 -521.48 1879.8
1038.94 -526.86 1899.2
1039.98 -524.90 1892.1
1012.80 -508.78 1834.0
1023.57 -511.79 1844.9
1055.68 -525.38 1893.9
1061.38 -525.78 1895.3
1076.62 -530.87 1913.7
1089.54 -534.77 1927.7
1102.02 -538.43 1940.9
1108.30 -539.04 1943.1
1101.04 -533.08 1921.7
1109.22 -534.62 1927.2
1142.72 -548.30 1976.5
1164.70 -556.35 2005.5
1163.26 -553.19 1994.2
1178.00 -557.73 2010.5
1175.53 -554.11 1997.4
1165.09 -546.78 1971.0
1188.31 -555.24 2001.5
1184.74 -551.16 1986.8
1194.10 -553.11 1993.9
1267.17 -574.52 2071.0
1475.67 -574.17 2069.8
1417.44 -549.51 1980.9
1456.76 -562.72 2028.5
1488.26 -572.82 2064.9
1514.74 -580.92 2094.1
1499.61 -571.03 2058.4
1440.98 -546.76 1970.9
1418.99 -536.51 1934.0
1396.87 -526.28 1897.2
1440.73 -540.91 1949.9
1471.40 -550.49 1984.4
1476.55 -550.49 1984.4
1489.29 -553.31 1994.6
1472.20 -545.07 1964.9
1463.81 -540.10 1946.9
1508.86 -554.81 2000.0
1474.59 -536.67 1934.6
1378.77 -500.09 1802.7
1341.95 -485.10 1748.7
1316.87 -474.43 1710.2
1344.81 -482.87 1740.6
1312.81 -468.24 1687.9
1007.30 -618.12 2207.6
979.75 -597.82 2135.1
977.88 -593.32 2119.0
1020.00 -615.42 2197.9
1022.28 -613.37 2190.6
981.70 -585.77 2092.0
956.42 -567.54 2026.9
938.33 -553.77 1977.7
932.13 -547.12 1954.0
937.98 -547.58 1955.6
928.68 -539.23 1925.8
942.93 -544.58 1944.9
976.38 -560.90 2003.2
973.38 -556.22 1986.5
951.01 -540.58 1930.6
958.54 -542.00 1935.7
968.67 -544.88 1946.0
974.07 -545.07 1946.7
980.77 -546.00 1950.0
987.05 -546.67 1952.4
999.05 -550.50 1966.1
977.56 -535.92 1914.0
955.40 -521.13 1861.2
958.83 -520.37 1858.5
959.56 -518.16 1850.6
988.06 -530.90 1896.1
1004.14 -536.87 1917.4
975.55 -519.01 1853.6
989.81 -524.02 1871.5
1019.17 -536.93 1917.6
1043.22 -546.93 1953.3
1050.44 -548.05 1957.3
1009.27 -524.05 1871.6
1014.94 -524.47 1873.1
1052.18 -541.12 1932.6
1053.31 -539.13 1925.5
1041.77 -530.71 1895.4
1021.66 -518.03 1850.1
1040.47 -525.10 1875.4
1083.03 -544.03 1943.0
1098.33 -549.16 1961.3
1118.46 -556.65 1988.0
1134.86 -562.23 2007.9
1116.81 -550.75 1967.0
1095.69 -537.89 1921.0
1114.49 -544.64 1945.1
1148.40 -558.68 1995.3
1150.90 -557.38 1990.7
1143.11 -551.14 1968.4
1128.88 -541.86 1935.2
1128.75 -539.40 1926.4
1156.69 -550.32 1965.4
1183.30 -560.51 2001.8
1214.51 -572.78 2045.7
1217.51 -571.70 2041.8
1200.00 -561.04 2003.7
1252.51 -583.06 2082.4
1275.19 -588.55 2102.0
1249.90 -574.42 2051.5
1472.40 -576.16 2057.7
1497.62 -583.91 2085.4
1508.91 -584.09 2086.1
1510.83 -582.75 2081.2
1486.88 -571.47 2041.0
1453.58 -556.69 1988.2
1480.10 -564.84 2017.3
1503.25 -571.66 2041.6
1500.96 -568.79 2031.4
1491.67 -563.29 2011.7
1474.73 -554.95 1982.0
1464.11 -549.04 1960.9
1446.39 -540.52 1930.4
1433.85 -533.98 1907.1
1442.37 -535.31 1911.8
1453.86 -537.73 1920.5
1471.86 -542.53 1937.6
1420.69 -521.89 1863.9
1321.24 -483.71 1727.5
1304.65 -471.25 1683.0
1218.13 -438.53 1566.2
1006.33 -626.80 2218.0
1009.94 -625.48 2213.4
997.38 -614.21 2173.5
968.81 -593.26 2099.3
992.10 -604.13 2137.8
1017.20 -615.97 2179.7
992.27 -597.55 2114.5
965.39 -578.17 2046.0
946.94 -564.02 1995.9
940.37 -557.07 1971.3
945.84 -557.28 1972.0
940.37 -551.08 1950.1
957.21 -557.94 1974.4
990.70 -574.40 2032.6
987.34 -569.42 2015.0
953.06 -546.75 1934.8
948.97 -541.56 1916.4
956.91 -543.24 1922.4
961.39 -542.96 1921.4
978.93 -550.02 1946.3
996.14 -556.81 1970.4
1014.76 -564.33 1997.0
1000.40 -553.52 1958.7
980.13 -539.57 1909.3
985.44 -539.76 1910.0
998.78 -544.33 1926.2
1041.77 -564.94 1999.1
1060.31 -572.15 2024.6
1033.31 -554.83 1963.4
1031.46 -551.12 1950.2
1045.03 -555.65 1966.3
1016.61 -537.92 1903.5
1036.59 -540.61 1913.1
1061.83 -551.14 1950.3
1051.82 -543.36 1922.8
1039.82 -534.62 1891.9
1018.31 -521.11 1844.0
1034.72 -524.58 1856.3
1057.43 -533.61 1888.3
1082.64 -543.81 1924.4
1102.26 -551.13 1950.3
1090.33 -542.68 1920.4
1083.58 -536.86 1899.8
1119.70 -552.25 1954.2
1147.33 -563.33 1993.4
1141.55 -557.98 1974.5
1129.35 -549.55 1944.7
1113.61 -539.48 1909.0
1135.54 -547.67 1938.0
1190.10 -571.46 2022.2
1187.15 -567.54 2008.3
1181.65 -562.44 1990.3
1207.43 -572.22 2024.9
1212.87 -572.31 2025.2
1231.33 -578.51 2047.2
1246.36 -583.06 2063.3
1271.02 -592.06 2095.1
1440.87 -577.41 2043.2
1501.37 -586.56 2075.6
1519.88 -591.67 2093.7
1506.30 -584.29 2067.6
1479.39 -571.82 2023.5
1516.34 -584.03 2066.7
1495.05 -573.81 2030.5
1449.30 -554.29 1961.5
1468.93 -559.84 1981.1
1480.48 -562.27 1989.7
1461.71 -553.22 1957.6
1438.15 -542.42 1919.4
1414.45 -531.64 1881.3
1412.36 -529.03 1872.1
1446.74 -540.05 1911.1
1493.64 -555.66 1966.3
1447.87 -536.79 1899.5
997.75 -627.16 2199.1
1010.54 -628.02 2202.1
1018.96 -629.69 2208.0
994.80 -611.33 2143.6
978.14 -597.75 2096.0
983.89 -597.94 2096.7
984.27 -594.89 2086.0
960.93 -577.61 2025.4
950.26 -568.09 1992.0
960.39 -571.04 2002.4
959.61 -567.51 1990.0
962.16 -565.98 1984.6
980.39 -573.63 2011.4
991.91 -577.30 2024.3
975.22 -564.60 1979.8
954.90 -549.94 1928.4
946.44 -542.23 1901.3
928.34 -529.10 1855.3
953.18 -537.69 1885.4
986.54 -553.67 1941.4
991.48 -553.62 1941.3
991.99 -551.10 1932.4
1012.01 -559.40 1961.5
1037.95 -570.87 2001.8
1053.75 -576.68 2022.1
1046.69 -569.98 1998.6
1021.01 -553.26 1940.0
1020.02 -550.01 1928.6
1043.10 -559.71 1962.6
1025.20 -547.44 1919.6
990.15 -526.17 1845.0
1009.11 -533.67 1871.3
1058.22 -556.96 1953.0
1077.04 -564.16 1978.2
1067.09 -556.30 1950.7
1053.75 -546.76 1917.2
1028.55 -531.18 1862.6
1020.08 -524.34 1838.6
1026.61 -525.24 1841.8
1033.16 -526.15 1844.9
1053.52 -534.04 1872.6
1068.73 -539.27 1890.9
1066.28 -535.57 1878.0
1070.50 -535.25 1876.9
1084.86 -539.97 1893.4
1092.97 -541.56 1899.0
1120.06 -552.50 1937.3
1142.42 -561.01 1967.2
1127.22 -551.09 1932.4
1151.64 -560.53 1965.5
1202.30 -582.61 2042.9
1191.97 -575.07 2016.5
1190.96 -572.08 2006.0
1220.24 -583.59 2046.4
1226.23 -583.92 2047.5
1237.72 -586.85 2057.8
1268.83 -599.02 2100.5
1473.51 -598.10 2097.3
1481.17 -599.00 2100.4
1444.38 -581.98 2040.7
1452.50 -583.12 2044.7
1483.55 -584.91 2051.0
1508.88 -592.77 2078.6
1461.43 -572.09 2006.0
1402.22 -546.97 1917.9
1467.80 -570.52 2000.5
1464.33 -567.17 1988.8
1416.20 -546.61 1916.7
1432.85 -551.10 1932.4
1478.65 -566.73 1987.2
1490.22 -569.18 1995.8
1494.21 -568.73 1994.2
1502.88 -570.06 1998.9
1444.62 -546.07 1914.8
1419.02 -534.56 1874.4
1441.66 -541.24 1897.8
1370.37 -512.72 1797.9
1010.37 -640.86 2226.9
987.90 -623.05 2165.1
1004.71 -630.07 2189.4
1022.02 -637.33 2214.7
1005.64 -623.61 2167.0
959.98 -591.99 2057.1
941.81 -577.57 2007.0
964.30 -588.12 2043.6
960.39 -582.53 2024.2
922.22 -556.34 1933.2
907.10 -544.26 1891.3
923.33 -551.02 1914.7
942.62 -559.52 1944.3
953.96 -563.24 1957.2
958.97 -563.21 1957.1
971.25 -567.41 1971.7
979.28 -569.11 1977.6
961.02 -555.59 1930.6
933.88 -537.10 1866.4
936.48 -533.07 1852.4
966.25 -547.21 1901.5
967.58 -545.18 1894.5
988.78 -554.32 1926.2
1032.77 -576.07 2001.8
1039.61 -576.98 2005.0
1034.36 -571.22 1984.9
1039.82 -571.39 1985.5
1026.77 -561.44 1950.9
1004.97 -546.82 1900.1
1007.06 -545.28 1894.8
1031.04 -555.56 1930.5
1039.58 -557.45 1937.1
1012.71 -540.44 1878.0
1017.47 -540.38 1877.8
1063.94 -562.37 1954.2
1080.94 -568.65 1976.0
1066.73 -558.53 1940.8
1040.66 -542.32 1884.5
1028.00 -533.21 1852.9
1028.90 -531.20 1845.9
1056.31 -542.83 1886.3
1095.76 -560.51 1947.7
1096.80 -558.46 1940.6
1080.56 -547.68 1903.1
1056.48 -533.04 1852.3
1074.01 -537.00 1866.0
1122.39 -558.68 1941.4
1164.24 -576.92 2004.8
1171.13 -577.76 2007.7
1139.27 -559.55 1944.4
1121.92 -548.60 1906.3
1153.81 -561.73 1951.9
1202.73 -582.98 2025.8
1227.57 -592.43 2058.7
1227.09 -589.64 2048.9
1248.09 -597.15 2075.0
1462.42 -588.15 2043.8
1469.59 -586.78 2039.0
1493.88 -592.22 2057.9
1374.73 -543.04 1887.0
1433.13 -562.11 1953.3
1470.01 -574.55 1996.5
1455.51 -566.88 1969.9
1464.70 -568.47 1975.4
1502.99 -581.30 2019.9
1502.37 -579.04 2012.1
1493.53 -573.64 1993.3
1439.56 -547.23 1901.6
1377.34 -521.79 1813.2
1374.49 -518.94 1803.3
1392.33 -523.89 1820.5
1014.22 -645.41 2222.7
1014.21 -641.76 2210.1
1014.95 -638.62 2199.3
1015.64 -635.48 2188.5
986.42 -613.77 2113.8
940.03 -581.68 2003.2
936.09 -576.06 1983.9
972.28 -595.05 2049.3
971.67 -591.45 2036.9
930.85 -563.54 1940.8
922.81 -555.67 1913.7
947.57 -567.53 1954.5
963.60 -574.06 1977.0
947.78 -561.65 1934.3
940.77 -554.56 1909.8
969.28 -568.38 1957.4
973.42 -567.83 1955.5
947.22 -549.68 1893.0
929.89 -536.84 1848.8
934.21 -536.57 1847.9
948.17 -541.81 1865.9
959.55 -545.53 1878.7
990.00 -560.00 1928.6
1028.65 -578.94 1993.8
1031.01 -577.37 1988.4
1040.95 -580.03 1997.6
1058.68 -584.10 2011.6
1046.53 -574.56 1978.7
1029.69 -562.56 1937.4
1034.12 -562.24 1936.3
1049.09 -567.62 1954.8
1029.17 -554.17 1908.5
1016.91 -544.95 1876.7
1046.22 -557.98 1921.6
1061.29 -563.34 1940.1
1044.68 -551.91 1900.7
1034.94 -544.20 1874.1
1036.38 -542.40 1868.0
1043.45 -543.56 1872.0
1076.58 -558.23 1922.5
1107.06 -571.39 1967.8
1100.03 -565.15 1946.3
1091.00 -557.95 1921.5
1074.18 -546.85 1883.3
1060.86 -535.21 1843.2
1121.80 -563.41 1940.3
1172.39 -586.20 2018.8
1190.55 -592.63 2040.9
1173.98 -581.79 2003.6
1160.20 -572.44 1971.4
1195.67 -587.34 2022.7
1232.32 -602.70 2075.6
1243.82 -605.69 2085.9
1466.83 -595.24 2049.9
1428.56 -571.42 1967.9
1392.43 -554.99 1911.3
1437.13 -570.77 1965.7
1475.09 -583.78 2010.5
1466.45 -578.32 1991.7
1432.27 -562.86 1938.4
1427.48 -559.01 1925.2
1459.28 -569.47 1961.2
1450.98 -564.27 1943.3
1447.88 -561.12 1932.4
1505.03 -581.25 2001.8
1458.91 -559.58 1927.1
1403.24 -536.39 1847.3
1414.03 -538.68 1855.1
1451.49 -551.08 1897.8
1456.46 -551.09 1897.9
1010.42 -648.74 2214.4
994.68 -635.02 2167.6
975.08 -619.01 2112.9
957.69 -604.57 2063.6
972.36 -610.43 2083.6
964.95 -602.43 2056.3
937.20 -581.89 1986.2
950.58 -586.97 2003.6
982.35 -603.29 2059.3
971.71 -593.53 2026.0
940.34 -571.28 1950.0
940.28 -568.19 1939.5
961.78 -578.09 1973.2
954.48 -570.67 1947.9
938.52 -558.17 1905.3
958.43 -567.03 1935.5
974.59 -573.59 1957.9
961.83 -563.15 1922.2
945.01 -550.45 1878.9
947.65 -549.15 1874.5
954.64 -550.38 1878.7
959.01 -550.09 1877.7
972.21 -554.85 1893.9
991.69 -563.12 1922.2
1012.61 -572.13 1952.9
1042.61 -586.14 2000.7
1059.98 -587.15 2004.2
1049.57 -578.54 1974.8
1037.66 -569.20 1942.9
1037.06 -566.13 1932.4
1047.91 -569.30 1943.2
1065.26 -575.95 1966.0
1076.21 -579.10 1976.7
1073.26 -574.78 1961.9
1053.44 -561.51 1916.6
1039.06 -551.24 1881.6
1053.68 -556.38 1899.2
1072.60 -563.74 1924.3
1059.91 -554.49 1892.7
1045.65 -544.51 1858.6
1065.11 -552.10 1884.5
1083.24 -558.93 1907.9
1103.85 -566.98 1935.3
1113.97 -569.58 1944.2
1097.04 -558.40 1906.1
1125.08 -570.11 1946.0
1168.85 -589.64 2012.7
1178.69 -591.96 2020.6
1179.73 -589.86 2013.4
1188.11 -591.44 2018.8
1214.77 -602.06 2055.1
1240.58 -612.16 2089.6
1237.71 -608.09 2075.7
1234.28 -603.78 2061.0
1491.34 -601.86 2054.4
1516.69 -609.92 2081.9
1491.02 -597.47 2039.4
1468.65 -586.42 2001.7
1419.60 -564.84 1928.0
1345.08 -531.45 1814.0
1372.60 -540.43 1844.7
1399.64 -549.17 1874.5
1435.54 -561.30 1915.9
1434.71 -559.04 1908.2
1390.46 -539.94 1843.0
1359.50 -526.11 1795.8
1349.58 -520.49 1776.6
1340.18 -515.10 1758.3
1353.80 -518.57 1770.1
1326.25 -501.23 1710.9
1013.02 -652.46 2207.6
963.99 -617.38 2088.9
941.67 -599.73 2029.1
951.37 -602.53 2038.6
973.00 -612.83 2073.5
970.87 -608.13 2057.6
944.23 -588.21 1990.2
938.93 -581.73 1968.3
951.92 -586.59 1984.7
943.15 -578.06 1955.8
941.00 -573.66 1940.9
959.10 -581.58 1967.8
984.12 -593.60 2008.4
999.92 -599.95 2029.9
996.49 -594.76 2012.4
990.40 -588.05 1989.6
973.40 -574.96 1945.4
953.60 -560.36 1896.0
955.84 -558.80 1890.7
958.05 -557.23 1885.4
967.27 -559.74 1893.9
987.12 -568.34 1923.0
987.58 -565.75 1914.2
988.89 -563.67 1907.1
1027.72 -582.88 1972.2
1060.98 -598.77 2025.9
1053.45 -591.59 2001.6
1037.68 -579.88 1962.0
1028.09 -571.72 1934.4
1017.94 -563.32 1906.0
1014.52 -558.72 1890.4
1024.36 -561.43 1899.6
1047.15 -571.17 1932.5
1063.12 -577.12 1952.7
1058.27 -571.76 1934.5
1037.48 -557.89 1887.6
1042.71 -558.07 1888.2
1076.12 -573.26 1939.6
1082.39 -573.92 1941.8
1057.44 -558.09 1888.3
1054.11 -553.77 1873.7
1082.64 -566.15 1915.6
1097.95 -571.54 1933.8
1113.81 -577.16 1952.8
1141.30 -588.72 1991.9
1143.81 -587.36 1987.3
1140.48 -583.02 1972.6
1152.17 -586.37 1984.0
1150.72 -583.03 1972.7
1137.46 -573.76 1941.3
1171.26 -588.21 1990.2
1227.44 -613.72 2076.5
1506.61 -604.77 2046.2
1406.23 -558.57 1889.9
1436.25 -568.52 1923.6
1426.71 -562.78 1904.2
1291.24 -493.96 1671.3
1270.76 -484.51 1639.3
1190.99 -452.58 1531.3
1023.69 -665.11 2230.8
990.11 -639.68 2145.5
978.50 -628.65 2108.5
973.26 -621.81 2085.6
981.45 -623.58 2091.5
985.96 -623.00 2089.5
962.72 -604.99 2029.1
951.27 -594.55 1994.1
958.47 -595.80 1998.3
964.42 -596.28 1999.9
977.53 -601.15 2016.3
975.90 -596.96 2002.2
978.45 -595.36 1996.8
995.50 -602.54 2020.9
992.91 -597.83 2005.1
972.61 -582.55 1953.9
943.44 -562.15 1885.5
939.16 -556.72 1867.2
954.85 -563.12 1888.7
957.94 -562.05 1885.2
969.35 -565.87 1897.9
994.51 -577.62 1937.3
999.87 -577.82 1938.0
998.12 -573.92 1924.9
1032.05 -590.48 1980.5
1053.31 -596.70 2001.4
1041.16 -586.93 1968.6
1036.14 -581.25 1949.5
1019.64 -569.22 1909.2
1010.75 -561.53 1883.4
1017.82 -562.74 1887.4
1039.19 -571.80 1917.9
1049.58 -574.77 1927.8
1037.71 -565.58 1897.0
1025.25 -556.15 1865.4
1039.79 -561.39 1882.9
1071.77 -575.95 1931.8
1078.49 -576.87 1934.8
1073.88 -571.74 1917.6
1089.60 -577.44 1936.7
1112.05 -586.63 1967.6
1119.82 -588.03 1972.3
1109.85 -580.15 1945.8
1109.87 -577.54 1937.1
1101.65 -570.68 1914.1
1084.61 -559.33 1876.0
1109.72 -569.72 1910.9
1122.77 -573.86 1924.8
1131.95 -575.99 1931.9
1193.23 -604.50 2027.5
1515.12 -626.76 2102.2
1512.40 -618.95 2076.0
1519.03 -617.27 2070.4
1516.28 -613.98 2059.3
1458.00 -588.32 1973.2
1328.88 -516.29 1731.6
1306.85 -506.02 1697.2
1256.14 -484.75 1625.9
1211.15 -465.83 1562.4
1237.47 -448.92 1505.7
1007.39 -660.21 2195.3
981.84 -639.85 2127.6
974.67 -631.63 2100.3
973.91 -627.63 2086.9
968.99 -621.01 2064.9
960.26 -612.03 2035.1
944.78 -598.87 1991.3
937.42 -590.98 1965.1
952.48 -597.23 1985.9
965.53 -602.16 2002.2
982.85 -609.68 2027.3
986.32 -608.58 2023.6
957.07 -587.41 1953.2
942.87 -575.64 1914.1
954.20 -579.52 1927.0
946.23 -571.68 1900.9
926.47 -556.84 1851.6
932.54 -557.60 1854.1
959.09 -570.54 1897.1
974.01 -576.46 1916.8
963.09 -567.10 1885.7
965.70 -565.76 1881.2
985.13 -574.24 1909.4
999.33 -579.61 1927.3
1008.24 -581.87 1934.8
1012.70 -581.55 1933.7
1030.20 -588.69 1957.5
1045.54 -594.52 1976.9
1051.88 -595.21 1979.1
1048.21 -590.25 1962.7
1037.61 -581.46 1933.4
1044.78 -582.67 1937.4
1057.95 -587.19 1952.5
1058.70 -584.80 1944.5
1053.84 -579.36 1926.4
1048.44 -573.67 1907.5
1030.33 -561.12 1865.8
1030.35 -558.51 1857.1
1066.59 -575.46 1913.5
1091.72 -586.29 1949.5
1101.80 -588.98 1958.4
1118.58 -595.21 1979.1
1112.04 -589.02 1958.6
1088.15 -573.75 1907.8
1119.85 -587.79 1954.5
1142.08 -596.76 1984.3
1089.35 -566.66 1884.2
1075.58 -557.00 1852.1
1132.40 -583.82 1941.3
1191.53 -611.58 2033.6
1212.22 -619.46 2059.8
1474.94 -611.05 2031.8
1488.78 -614.59 2043.6
1484.39 -608.44 2023.1
1460.23 -596.43 1983.2
1348.97 -547.14 1819.3
1372.99 -554.94 1845.2
1404.08 -565.53 1880.5
1411.02 -560.54 1863.9
1318.25 -518.36 1723.6
1284.50 -498.34 1657.0
1020.86 -674.81 2224.6
1011.15 -664.63 2191.1
1016.30 -664.28 2189.9
1005.95 -653.87 2155.6
992.17 -641.34 2114.3
983.55 -632.28 2084.5
967.37 -618.48 2038.9
953.47 -606.28 1998.7
962.76 -608.88 2007.3
954.48 -600.40 1979.3
951.13 -595.09 1961.8
957.42 -595.84 1964.3
931.88 -576.88 1901.8
929.09 -572.13 1886.1
951.50 -582.86 1921.5
946.96 -577.06 1902.4
929.82 -563.67 1858.3
953.68 -575.16 1896.1
1002.09 -601.25 1982.2
1007.12 -601.19 1981.9
984.92 -584.95 1928.4
989.39 -584.64 1927.4
1015.55 -597.08 1968.4
1009.42 -590.51 1946.7
996.95 -580.32 1913.1
996.89 -577.41 1903.5
1007.57 -580.72 1914.5
1026.43 -588.69 1940.7
1036.32 -591.46 1949.9
1021.22 -580.01 1912.1
999.10 -564.71 1861.7
1003.38 -564.40 1860.7
1014.08 -567.69 1871.5
1049.78 -584.88 1928.2
1080.61 -599.20 1975.4
1071.59 -591.40 1949.7
1049.84 -576.67 1901.1
1028.84 -562.50 1854.4
1042.94 -567.55 1871.0
1070.32 -579.76 1911.3
1082.23 -583.50 1923.6
1109.87 -595.67 1963.7
1116.19 -596.32 1965.9
1094.73 -582.20 1919.3
1128.37 -597.37 1969.4
1171.85 -617.59 2036.0
1142.49 -599.42 1976.1
1105.60 -577.48 1903.8
1131.30 -588.27 1939.4
1187.45 -614.74 2026.6
1208.62 -622.95 2053.7
1479.21 -620.31 2045.0
1474.23 -616.02 2030.8
1509.97 -626.48 2065.3
1425.55 -587.29 1936.1
1380.40 -566.69 1868.2
1350.06 -552.30 1820.8
1393.80 -568.20 1873.2
1415.62 -575.10 1895.9
1398.47 -566.16 1866.5
1307.14 -511.49 1686.2
1208.38 -466.60 1538.3
1219.86 -461.89 1522.7
1223.60 -458.85 1512.7
1253.65 -468.62 1544.9
1188.54 -442.87 1460.0
1248.12 -460.66 1518.7
1005.34 -659.06 2154.3
1000.17 -652.04 2131.4
1001.47 -649.30 2122.4
1010.17 -651.36 2129.2
1020.13 -654.22 2138.5
998.45 -636.85 2081.7
964.38 -611.81 1999.9
951.83 -600.62 1963.3
949.67 -596.07 1948.4
944.06 -589.41 1926.6
960.08 -596.26 1949.0
969.34 -598.86 1957.5
951.56 -584.82 1911.6
942.22 -576.07 1883.0
976.96 -594.23 1942.4
1026.74 -621.31 2030.9
1033.19 -622.02 2033.2
1020.77 -611.43 1998.6
1035.53 -617.13 2017.3
1041.27 -614.35 2008.2
994.15 -583.63 1907.7
961.39 -561.60 1835.7
975.07 -566.79 1852.7
996.50 -576.41 1884.1
1017.60 -585.74 1914.7
1016.08 -582.03 1902.5
998.99 -569.47 1861.5
1005.55 -570.46 1864.7
1009.83 -570.14 1863.7
1042.72 -585.91 1915.2
1083.70 -606.05 1981.0
1082.61 -602.59 1969.7
1089.88 -603.78 1973.6
1098.56 -605.75 1980.0
1073.39 -589.12 1925.7
1062.17 -580.26 1896.7
1065.04 -579.15 1893.1
1083.10 -586.27 1916.4
1109.84 -598.00 1954.7
1109.44 -595.07 1945.1
1119.09 -597.52 1953.2
1137.93 -604.84 1977.1
1157.82 -612.66 2002.6
1176.84 -619.94 2026.4
1161.36 -609.07 1990.9
1164.81 -608.17 1988.0
1177.06 -611.86 2000.0
1209.53 -625.99 2046.2
1470.35 -624.11 2040.1
1489.86 -630.12 2059.7
1417.09 -584.67 1911.2
1424.44 -585.66 1914.4
1405.06 -575.69 1881.8
1374.51 -561.22 1834.5
1331.11 -537.92 1758.3
1349.38 -543.44 1776.4
1348.85 -541.38 1769.6
1254.03 -498.24 1628.6
1215.42 -479.67 1567.9
1194.77 -469.94 1536.1
1232.24 -481.47 1573.8
1221.64 -475.75 1555.1
1258.08 -481.99 1575.5
1246.24 -472.85 1545.6
1275.06 -482.23 1576.3
1297.23 -489.05 1598.6
1234.08 -463.76 1515.9
1240.83 -464.82 1519.4
1009.39 -671.05 2175.1
992.11 -655.89 2125.9
1003.24 -659.59 2137.9
1025.53 -670.54 2173.4
992.02 -638.11 2068.3
987.24 -631.62 2047.3
1005.90 -640.12 2074.8
994.70 -629.63 2040.8
979.54 -616.75 1999.1
963.77 -603.62 1956.5
941.39 -586.52 1901.1
932.96 -578.24 1874.2
932.60 -575.02 1863.8
952.99 -584.57 1894.8
987.42 -602.58 1953.1
993.27 -603.06 1954.7
981.58 -592.93 1921.9
1003.21 -602.94 1954.3
1024.53 -612.66 1985.8
1034.89 -615.76 1995.9
1012.29 -599.32 1942.6
971.57 -572.36 1855.2
979.45 -574.16 1861.0
1018.93 -594.38 1926.5
1057.32 -613.76 1989.4
1058.23 -611.31 1981.4
1046.78 -601.77 1950.5
1051.70 -601.69 1950.3
1052.01 -598.99 1941.5
1049.05 -594.46 1926.8
1055.29 -595.16 1929.1
1062.93 -596.65 1933.9
1078.06 -602.29 1952.2
1093.72 -608.19 1971.3
1075.14 -595.08 1928.8
1076.20 -592.90 1921.8
1090.95 -598.26 1939.2
1084.39 -591.94 1918.7
1085.38 -589.77 1911.6
1079.63 -583.98 1892.9
1083.89 -583.63 1891.7
1108.38 -594.13 1925.8
1138.80 -607.70 1969.7
1180.77 -621.73 2015.2
1162.68 -609.51 1975.6
1155.75 -603.22 1955.2
1210.90 -629.25 2039.6
1480.60 -631.51 2046.9
1491.59 -633.93 2054.7
1468.90 -622.06 2016.3
1396.82 -573.18 1857.8
1326.90 -542.61 1758.8
1323.44 -539.35 1748.2
1308.77 -529.74 1717.0
1323.47 -533.88 1730.4
1293.15 -518.13 1679.4
1226.48 -489.77 1587.5
1242.23 -494.40 1602.5
1237.16 -490.74 1590.6
1226.06 -484.72 1571.1
1232.86 -485.80 1574.6
1181.45 -464.00 1504.0
1237.22 -481.14 1559.5
1325.74 -513.89 1665.7
1310.88 -506.48 1641.6
1292.90 -497.91 1613.9
1308.93 -502.46 1628.6
1253.60 -479.67 1554.8
1247.57 -475.83 1542.3
1237.20 -470.37 1524.6
1204.05 -456.31 1479.0
1234.12 -466.22 1511.2
1028.25 -693.20 2228.2
1003.51 -672.74 2162.4
1007.78 -671.85 2159.5
994.45 -659.31 2119.2
994.91 -655.99 2108.5
1006.47 -659.98 2121.4
973.72 -635.03 2041.2
961.02 -623.37 2003.7
988.31 -637.62 2049.5
1017.48 -652.93 2098.7
1018.15 -649.89 2088.9
976.83 -620.21 1993.5
934.25 -590.05 1896.6
915.61 -575.25 1849.0
934.63 -581.12 1867.9
982.73 -607.87 1953.9
992.49 -610.76 1963.2
972.17 -595.20 1913.2
944.61 -575.40 1849.5
946.28 -573.50 1843.4
991.23 -597.73 1921.3
1028.95 -617.37 1984.4
1025.50 -612.24 1967.9
1004.99 -597.02 1919.0
1008.51 -596.17 1916.2
1043.13 -613.60 1972.3
1056.25 -618.29 1987.4
1035.81 -603.38 1939.4
1033.41 -599.08 1925.6
1047.88 -604.55 1943.2
1050.94 -603.41 1939.5
1049.83 -599.90 1928.3
1050.05 -597.19 1919.5
1051.63 -595.26 1913.3
1055.52 -594.66 1911.4
1058.45 -593.52 1907.8
1061.37 -592.39 1904.1
1083.60 -602.00 1935.0
1106.42 -611.85 1966.7
1109.90 -610.95 1963.8
1108.59 -607.45 1952.5
1101.50 -600.82 1931.2
1078.48 -585.60 1882.3
1074.04 -580.56 1866.1
1085.00 -583.86 1876.7
1108.12 -593.64 1908.1
1182.45 -630.64 2027.1
1468.90 -634.06 2038.0
1350.22 -556.79 1789.7
1270.08 -521.95 1677.7
1322.25 -537.86 1728.8
1319.26 -534.83 1719.1
1287.64 -518.51 1666.6
1246.39 -496.90 1597.2
1216.12 -483.23 1553.2
1218.10 -482.41 1550.6
1239.31 -489.20 1572.4
1288.90 -507.11 1630.0
1328.76 -519.38 1669.4
1233.27 -480.50 1544.4
1278.33 -496.44 1595.7
1271.94 -490.78 1577.5
1232.94 -474.21 1524.2
1264.81 -484.91 1558.6
1275.30 -487.38 1566.6
1273.53 -485.15 1559.4
1314.85 -499.31 1604.9
1014.73 -697.62 2223.8
1019.16 -696.72 2220.9
1025.06 -689.07 2196.6
995.48 -665.48 2121.4
959.82 -638.12 2034.2
939.45 -621.17 1980.1
934.60 -614.60 1959.2
947.95 -620.01 1976.4
965.14 -627.86 2001.4
985.37 -637.59 2032.5
997.30 -641.88 2046.1
966.92 -619.03 1973.3
931.13 -592.98 1890.3
918.48 -581.86 1854.8
925.41 -583.20 1859.1
967.68 -606.68 1933.9
1003.77 -626.06 1995.7
999.28 -620.07 1976.6
1003.43 -619.47 1974.7
1000.12 -614.29 1958.2
993.66 -607.24 1935.7
1030.39 -626.52 1997.2
1035.44 -626.44 1996.9
999.08 -601.43 1917.2
997.24 -597.36 1904.2
1021.83 -609.07 1941.6
1022.24 -606.33 1932.8
999.54 -589.97 1880.7
1007.50 -591.79 1886.4
1035.54 -605.31 1929.6
1023.48 -595.39 1897.9
1000.27 -579.10 1846.0
1038.15 -598.17 1906.8
1077.21 -617.73 1969.2
1078.43 -615.52 1962.1
1081.94 -614.63 1959.3
1062.99 -601.04 1915.9
1044.79 -588.00 1874.4
1073.08 -601.12 1916.2
1104.37 -615.80 1963.0
1086.48 -603.05 1922.3
1066.52 -589.26 1878.4
1106.13 -608.37 1939.3
1133.51 -620.61 1978.3
1105.68 -602.65 1921.1
1091.15 -592.06 1887.3
1087.14 -587.25 1872.0
1127.32 -606.25 1932.5
1366.07 -584.08 1861.9
1325.04 -564.54 1799.6
1352.94 -574.41 1831.0
1323.76 -560.05 1785.3
1308.31 -551.59 1758.3
1306.12 -548.75 1749.3
1352.74 -566.37 1805.4
1328.02 -550.31 1754.2
1294.62 -534.64 1704.3
1289.28 -530.62 1691.5
1245.57 -510.90 1628.6
1278.45 -522.61 1665.9
1305.53 -531.88 1695.5
1262.10 -512.46 1633.6
1249.97 -505.84 1612.5
1269.95 -512.21 1632.8
1251.77 -503.20 1604.1
1259.83 -504.77 1609.1
1294.89 -517.10 1648.4
1271.78 -506.20 1613.6
1272.64 -504.88 1609.4
1302.45 -515.02 1641.7
1258.58 -496.05 1581.3
1226.03 -481.65 1535.4
1315.39 -515.09 1642.0
1331.11 -517.89 1650.9
1242.75 -481.96 1536.4
1225.65 -473.81 1510.4
1287.60 -496.18 1581.7
1339.33 -514.47 1640.0
1324.72 -507.25 1617.0
1335.34 -509.70 1624.8
1303.32 -495.92 1580.8
1238.33 -469.71 1497.3
1001.66 -678.90 2146.4
1011.61 -681.86 2155.7
1012.97 -679.03 2146.8
969.79 -646.52 2044.0
944.37 -626.16 1979.7
956.10 -630.51 1993.4
972.07 -637.59 2015.8
971.34 -633.71 2003.5
962.55 -624.63 1974.8
965.49 -623.22 1970.4
961.17 -617.17 1951.2
946.95 -604.86 1912.3
952.71 -605.37 1913.9
966.23 -610.78 1931.0
974.19 -612.64 1936.9
971.32 -607.70 1921.3
976.23 -607.66 1921.2
1003.46 -621.43 1964.7
1028.24 -633.56 2003.1
1034.82 -631.24 1995.7
1017.61 -617.66 1952.8
1032.84 -623.79 1972.2
1042.75 -626.68 1981.3
1028.39 -615.02 1944.4
1003.47 -597.19 1888.1
1008.27 -597.13 1887.9
1034.02 -609.42 1926.7
1018.31 -597.28 1888.3
1006.57 -587.57 1857.6
1055.05 -612.94 1937.9
1086.75 -628.36 1986.6
1081.51 -622.38 1967.7
1076.19 -616.41 1948.8
1048.34 -597.65 1889.5
1022.60 -580.27 1834.6
1040.43 -587.65 1857.9
1094.75 -615.48 1945.9
1102.46 -616.97 1950.6
1064.48 -593.00 1874.8
1085.43 -601.92 1903.0
1129.50 -623.53 1971.3
1121.89 -616.53 1949.2
1133.49 -620.12 1960.6
1159.18 -631.34 1996.0
1159.73 -628.83 1988.1
1184.63 -639.49 2021.8
1359.29 -588.06 1859.2
1349.34 -581.69 1839.1
1358.60 -581.58 1838.7
1279.81 -545.93 1726.0
1279.32 -543.82 1719.3
1290.40 -546.63 1728.2
1258.49 -531.26 1679.6
1336.52 -562.26 1777.6
1329.13 -555.32 1755.7
1261.14 -525.12 1660.2
1224.57 -508.15 1606.6
1204.31 -498.05 1574.6
1260.71 -519.62 1642.8
1334.44 -546.31 1727.2
1273.74 -519.72 1643.1
1247.90 -507.48 1604.4
1259.53 -510.51 1614.0
1294.52 -522.95 1653.4
1281.39 -514.24 1625.8
1263.61 -505.44 1598.0
1275.90 -508.69 1608.3
1239.25 -492.47 1557.0
1209.10 -478.93 1514.2
1280.78 -505.68 1598.8
1341.17 -527.82 1668.7
1293.92 -507.58 1604.8
1228.74 -480.47 1519.0
1203.05 -468.92 1482.5
1257.57 -488.61 1544.8
1328.26 -514.44 1626.4
1337.04 -516.20 1632.0
1337.19 -514.63 1627.1
1290.98 -495.28 1565.9
1290.39 -493.50 1560.3
1009.83 -697.81 2188.2
972.93 -668.55 2096.5
962.44 -657.67 2062.4
990.16 -672.87 2110.0
995.12 -672.53 2109.0
954.77 -641.73 2012.4
928.89 -620.94 1947.2
938.06 -623.68 1955.8
975.64 -645.18 2023.2
996.74 -655.61 2055.9
986.81 -645.62 2024.6
987.74 -642.81 2015.8
987.35 -639.18 2004.4
976.67 -628.95 1972.3
955.99 -612.43 1920.5
941.54 -600.05 1881.7
955.89 -606.05 1900.5
959.89 -605.47 1898.7
952.55 -597.77 1874.5
967.42 -604.02 1894.1
983.68 -611.08 1916.3
994.30 -614.57 1927.2
1004.52 -617.78 1937.3
1012.56 -619.62 1943.1
1021.95 -622.28 1951.4
1023.75 -620.30 1945.2
1030.03 -621.05 1947.5
1025.01 -615.01 1928.6
1011.75 -604.10 1894.4
1019.75 -605.94 1900.1
1030.04 -609.11 1910.1
1044.05 -614.44 1926.8
1053.05 -616.79 1934.2
1044.05 -608.62 1908.6
1046.08 -606.93 1903.3
1047.62 -604.97 1897.1
1039.32 -597.37 1873.3
1030.91 -589.78 1849.5
1045.95 -595.61 1867.8
1095.06 -620.70 1946.5
1100.87 -621.13 1947.8
1059.11 -594.84 1865.4
1048.04 -585.95 1837.5
1056.98 -588.28 1844.8
1084.70 -600.98 1884.6
1139.59 -628.57 1971.1
1188.05 -652.37 2045.7
1303.16 -568.40 1782.4
1253.56 -544.83 1708.5
1325.44 -574.05 1800.1
1340.65 -578.60 1814.4
1289.56 -554.60 1739.2
1320.90 -566.10 1775.2
1366.85 -583.76 1830.6
1365.35 -581.10 1822.3
1324.22 -561.65 1761.3
1298.63 -548.91 1721.3
1289.87 -543.33 1703.8
1280.46 -537.53 1685.6
1292.13 -540.59 1695.2
1325.04 -552.47 1732.5
1296.10 -538.58 1688.9
1276.47 -528.64 1657.8
1303.56 -538.05 1687.3
1260.65 -518.59 1626.3
1255.04 -514.57 1613.6
1291.15 -527.61 1654.5
1287.33 -524.31 1644.2
1263.10 -512.74 1607.9
1245.35 -503.87 1580.1
1241.95 -500.85 1570.6
1288.56 -517.95 1624.2
1283.98 -514.43 1613.2
1230.93 -491.57 1541.5
1295.34 -515.62 1616.9
1245.31 -489.37 1534.6
1248.41 -489.02 1533.5
1262.55 -493.00 1546.0
1224.43 -476.60 1494.6
1239.73 -479.52 1503.7
1005.64 -704.51 2191.5
991.90 -690.99 2149.4
996.97 -690.64 2148.3
1024.36 -705.67 2195.1
1006.67 -689.65 2145.2
968.68 -659.98 2052.9
962.82 -652.40 2029.4
969.66 -653.47 2032.7
955.75 -640.61 1992.7
970.86 -647.24 2013.3
991.51 -657.47 2045.1
981.57 -647.42 2013.9
969.37 -635.99 1978.3
956.17 -624.03 1941.1
963.70 -625.65 1946.1
961.83 -621.18 1932.2
950.43 -610.64 1899.4
967.39 -618.33 1923.4
971.88 -618.01 1922.4
964.59 -610.25 1898.3
977.32 -615.17 1913.5
990.55 -620.34 1929.6
984.00 -613.15 1907.3
976.91 -605.69 1884.0
995.50 -614.14 1910.3
1015.53 -623.40 1939.1
1023.14 -624.97 1944.0
1036.15 -629.82 1959.1
1030.27 -623.19 1938.5
1015.23 -611.11 1900.9
1038.25 -621.94 1934.6
1061.86 -633.03 1969.1
1042.51 -618.52 1924.0
1018.37 -601.32 1870.5
1039.28 -610.76 1899.8
1072.82 -627.50 1951.9
1064.22 -619.55 1927.2
1044.31 -605.12 1882.3
1030.31 -594.22 1848.4
1039.69 -596.86 1856.6
1070.34 -611.62 1902.5
1056.64 -601.02 1869.5
1045.65 -592.06 1841.7
1065.56 -600.59 1868.2
1067.38 -598.89 1862.9
1089.36 -608.47 1892.7
1096.98 -609.98 1897.4
1090.59 -603.72 1877.9
1148.69 -633.06 1969.2
1310.50 -576.25 1792.5
1259.80 -552.00 1717.0
1339.70 -584.94 1819.5
1334.23 -580.51 1805.7
1258.34 -545.58 1697.1
1299.43 -561.42 1746.4
1352.84 -582.47 1811.8
1352.49 -572.38 1780.5
1338.48 -564.53 1756.0
1339.69 -563.12 1751.7
1279.53 -536.02 1667.3
1207.26 -504.04 1567.9
1217.28 -504.83 1570.3
1293.70 -534.73 1663.3
1329.88 -547.86 1704.2
1284.65 -522.28 1624.6
1281.91 -519.47 1615.9
1299.07 -524.71 1632.1
1269.07 -510.93 1589.3
1281.38 -514.21 1599.5
1246.62 -489.18 1521.6
1218.25 -476.54 1482.3
1306.45 -509.43 1584.6
1335.59 -519.16 1614.9
1009.76 -709.10 2188.1
1003.60 -700.84 2162.6
989.78 -679.79 2097.6
973.73 -665.12 2052.4
994.26 -675.45 2084.2
992.51 -670.61 2069.3
975.26 -655.42 2022.4
966.18 -645.84 1992.9
948.99 -630.97 1947.0
930.32 -615.29 1898.6
930.96 -612.48 1889.9
950.32 -621.93 1919.1
960.37 -625.24 1929.3
961.02 -622.42 1920.6
968.52 -624.05 1925.6
963.04 -617.34 1904.9
974.01 -621.18 1916.8
1002.94 -636.39 1963.7
988.63 -624.13 1925.9
954.76 -599.73 1850.6
986.05 -616.28 1901.7
1045.08 -649.93 2005.5
1040.33 -643.77 1986.5
1020.73 -628.53 1939.5
1025.64 -628.46 1939.2
1012.05 -617.10 1904.2
1016.43 -616.76 1903.2
1058.54 -639.21 1972.4
1080.39 -649.27 2003.5
1059.30 -633.55 1955.0
1039.84 -618.95 1909.9
1065.43 -631.18 1947.6
1085.62 -640.11 1975.2
1065.92 -625.54 1930.2
1056.30 -617.00 1903.9
1052.66 -612.01 1888.5
1034.37 -598.60 1847.1
1036.21 -596.90 1841.8
1069.28 -613.12 1891.9
1107.77 -632.29 1951.1
1137.43 -646.27 1994.2
1148.60 -649.66 2004.7
1153.08 -649.26 2003.4
1140.68 -639.40 1973.0
1089.48 -607.97 1876.0
1092.71 -607.06 1873.2
1163.12 -643.32 1985.1
1334.23 -595.64 1838.0
1330.62 -591.91 1826.5
1306.52 -573.04 1768.2
1216.73 -529.94 1635.2
1266.46 -549.68 1696.1
1332.06 -576.15 1777.8
1375.83 -593.03 1829.9
1343.40 -577.06 1780.6
1352.87 -579.14 1787.1
1348.89 -575.46 1775.7
1296.72 -551.33 1701.2
1264.31 -535.72 1653.1
1294.23 -546.55 1686.5
1244.84 -522.16 1611.2
1255.86 -525.02 1620.1
1304.97 -543.74 1677.8
1321.48 -548.79 1693.4
1356.32 -557.70 1720.9
1258.00 -512.21 1580.5
1207.97 -490.25 1512.8
1197.73 -484.52 1495.1
1246.94 -502.80 1551.5
1318.89 -516.81 1594.7
996.91 -701.74 2148.2
1001.16 -700.81 2145.3
1013.13 -705.28 2159.0
984.24 -681.40 2085.9
939.40 -646.80 1980.0
932.51 -638.57 1954.8
972.38 -662.27 2027.4
992.98 -672.66 2059.2
985.25 -663.86 2032.2
970.25 -650.27 1990.6
939.87 -626.58 1918.1
928.68 -615.86 1885.3
928.85 -612.75 1875.8
917.01 -601.78 1842.2
920.04 -600.65 1838.7
932.12 -605.40 1853.3
939.49 -607.06 1858.3
962.10 -618.49 1893.3
995.34 -636.61 1948.8
984.51 -626.51 1917.9
962.98 -609.73 1866.5
1008.43 -635.31 1944.8
1049.77 -658.07 2014.5
1025.44 -639.63 1958.0
1011.16 -627.61 1921.3
1020.52 -630.32 1929.6
