ply
format ascii 1.0
element vertex 2047
property float x
property float y
property float z
end_header
1529.67 -922.66 2341.3
1584.10 -951.71 2415.1
1590.23 -951.63 2414.9
1578.53 -940.93 2387.7
1548.34 -919.33 2332.9
1536.90 -908.99 2306.6
1555.48 -916.41 2325.5
1556.64 -913.55 2318.2
1632.68 -954.49 2422.1
1262.57 -666.35 1690.9
1362.16 -716.43 1818.0
1420.35 -744.46 1889.1
1415.59 -739.42 1876.3
1418.85 -738.58 1874.2
1359.18 -705.10 1789.3
1409.12 -728.53 1848.7
1287.55 -656.74 1666.5
1233.07 -626.85 1590.7
1177.16 -596.43 1513.5
1171.76 -580.15 1472.2
1176.67 -578.82 1468.8
1181.51 -579.32 1470.1
1392.10 -990.66 2497.5
1417.98 -1004.40 2532.1
1399.91 -982.50 2476.9
1380.66 -964.57 2431.7
1365.91 -949.93 2394.8
1359.47 -941.17 2372.7
1348.69 -929.50 2343.3
1353.40 -928.57 2340.9
1403.71 -958.78 2417.1
1438.11 -977.91 2465.3
1451.65 -982.75 2477.5
1495.95 -1008.28 2541.9
1506.31 -1010.81 2548.3
1427.30 -953.61 2404.1
1506.39 -997.74 2515.3
1508.97 -990.87 2498.0
1493.25 -976.36 2461.4
1531.10 -996.85 2513.1
1533.56 -994.21 2506.4
1553.34 -1002.79 2528.0
1577.17 -1009.65 2545.3
1540.56 -982.11 2475.9
1535.32 -974.70 2457.2
1514.38 -957.44 2413.7
1511.97 -951.98 2399.9
1518.62 -952.25 2400.6
1509.00 -942.36 2375.7
1501.83 -934.07 2354.8
1542.66 -955.57 2409.0
1551.88 -957.41 2413.6
1488.56 -914.66 2305.9
1473.86 -902.00 2274.0
1505.61 -917.76 2313.7
1526.08 -926.55 2335.8
1548.20 -936.26 2360.3
1561.53 -940.61 2371.3
1552.91 -931.74 2348.9
1543.14 -922.27 2325.0
1559.09 -928.17 2339.9
1595.14 -945.96 2384.8
1617.07 -955.26 2408.2
1597.66 -940.16 2370.2
1598.34 -936.96 2362.1
1667.86 -973.98 2455.4
1400.49 -746.60 1882.2
1374.49 -727.67 1834.5
1405.68 -734.02 1850.5
1412.34 -734.99 1852.9
1271.05 -652.59 1645.2
1191.43 -609.66 1537.0
1189.36 -606.57 1529.2
1128.24 -565.97 1426.8
1143.10 -571.55 1440.9
1192.28 -586.55 1478.7
1164.65 -569.30 1435.2
1401.43 -1013.24 2537.8
1364.95 -982.25 2460.2
1353.43 -969.43 2428.1
1387.92 -989.53 2478.4
1409.17 -1000.06 2504.8
1386.85 -979.70 2453.8
1363.84 -959.05 2402.1
1347.17 -943.02 2361.9
1368.86 -953.87 2389.1
1387.35 -962.40 2410.5
1363.82 -941.83 2358.9
1384.23 -951.66 2383.6
1417.11 -969.93 2429.3
1426.75 -972.21 2435.0
1455.12 -987.17 2472.5
1448.49 -978.37 2450.5
1437.43 -966.66 2421.1
1478.58 -990.00 2479.6
1467.93 -978.62 2451.1
1461.95 -966.27 2420.2
1562.93 -1028.59 2576.3
1585.72 -1039.15 2602.7
1574.03 -1027.12 2572.6
1520.08 -987.73 2473.9
1496.57 -968.37 2425.4
1508.28 -971.86 2434.2
1509.51 -968.60 2426.0
1594.02 -1018.59 2551.2
1562.47 -990.21 2480.1
1493.30 -942.49 2360.6
1489.21 -936.07 2344.5
1491.16 -933.49 2338.1
1510.98 -942.07 2359.5
1501.65 -932.47 2335.5
1472.68 -910.81 2281.3
1492.49 -919.38 2302.7
1509.80 -926.33 2320.1
1514.72 -925.66 2318.4
1550.32 -943.67 2363.6
1579.82 -957.85 2399.1
1588.53 -959.35 2402.8
1596.72 -960.53 2405.8
1587.02 -950.98 2381.9
1599.40 -954.68 2391.1
1641.43 -975.99 2444.5
1639.09 -970.85 2431.6
1610.09 -950.02 2379.4
1656.66 -973.76 2438.9
1689.81 -985.72 2468.9
1400.09 -748.66 1875.1
1382.24 -736.56 1844.8
1380.30 -732.99 1835.9
1409.32 -745.82 1868.0
1382.08 -728.90 1825.6
1384.35 -725.13 1816.2
1270.89 -656.77 1645.0
1181.97 -608.77 1524.8
1177.54 -604.47 1514.0
1135.87 -573.52 1436.5
1388.32 -996.25 2479.1
1348.49 -963.21 2396.9
1331.07 -946.40 2355.1
1337.81 -942.55 2345.5
1397.95 -980.46 2439.9
1420.77 -991.98 2468.5
1401.16 -973.90 2423.5
1395.60 -965.71 2403.1
1399.95 -964.41 2399.9
1407.62 -965.40 2402.4
1432.55 -978.17 2434.2
1442.69 -980.78 2440.6
1449.96 -981.41 2442.2
1463.52 -986.29 2454.4
1553.86 -1033.68 2572.3
1575.43 -1034.71 2574.9
1503.20 -983.11 2446.4
1464.76 -953.94 2373.9
1461.41 -947.78 2358.5
1458.00 -941.62 2343.2
1535.78 -987.74 2458.0
1493.32 -948.63 2360.6
1498.83 -944.39 2350.1
1568.21 -984.10 2448.9
1568.28 -980.18 2439.2
1549.30 -964.43 2400.0
1555.94 -964.68 2400.6
1561.02 -963.97 2398.8
1548.98 -952.74 2370.9
1566.46 -959.69 2388.2
1587.66 -968.85 2411.0
1584.88 -963.36 2397.3
1644.24 -987.82 2458.2
1647.78 -986.12 2453.9
1688.41 -1006.55 2504.8
1367.93 -736.21 1832.0
1282.08 -687.62 1711.1
1359.45 -726.60 1808.1
1400.22 -743.27 1849.6
1401.12 -736.18 1832.0
1131.20 -584.45 1454.4
1156.13 -593.38 1476.6
1229.01 -626.63 1559.4
1198.51 -609.08 1515.7
1165.15 -580.70 1445.1
1379.48 -1005.60 2486.4
1401.55 -1016.94 2514.4
1394.71 -1007.29 2490.6
1351.70 -971.73 2402.6
1329.67 -951.51 2352.6
1334.45 -950.57 2350.3
1378.94 -977.80 2417.6
1411.98 -996.69 2464.3
1405.66 -987.76 2442.3
1378.93 -964.63 2385.1
1365.71 -951.12 2351.7
1426.09 -988.75 2444.7
1505.31 -1034.49 2557.8
1486.87 -1017.33 2515.4
1500.07 -1021.88 2526.6
1522.51 -1032.66 2553.3
1498.45 -1011.94 2502.0
1521.42 -1023.02 2529.4
1557.19 -1042.58 2577.8
1526.00 -1017.33 2515.4
1538.32 -1021.18 2524.9
1539.33 -1017.52 2515.9
1505.65 -991.06 2450.4
1497.03 -981.25 2426.2
1515.71 -989.33 2446.2
1531.47 -995.45 2461.3
1509.68 -977.22 2416.2
1527.44 -984.63 2434.5
1558.09 -996.15 2463.0
1499.40 -954.72 2360.6
1536.51 -974.37 2409.2
1574.31 -994.30 2458.4
1546.25 -972.64 2404.9
1537.49 -963.25 2381.7
1552.33 -968.66 2395.0
1558.44 -968.59 2394.9
1549.00 -958.90 2370.9
1544.13 -952.11 2354.1
1540.24 -945.98 2339.0
1543.61 -944.33 2334.9
1597.79 -973.65 2407.4
1628.58 -988.56 2444.2
1597.85 -966.14 2388.8
1584.35 -954.28 2359.5
1609.42 -965.65 2387.6
1662.22 -993.51 2456.5
1265.33 -683.02 1688.8
1408.37 -757.61 1873.2
1262.63 -667.69 1650.9
1300.83 -685.57 1695.1
1298.52 -682.05 1686.4
1263.56 -661.46 1635.5
1233.09 -643.35 1590.7
1192.53 -620.11 1533.3
1160.56 -601.48 1487.2
1161.49 -582.61 1440.5
1348.34 -993.85 2441.7
1332.79 -977.79 2402.2
1365.69 -997.27 2450.1
1384.97 -1006.67 2473.2
1370.15 -991.30 2435.4
1338.00 -963.61 2367.4
1332.57 -955.31 2347.0
1353.68 -966.04 2373.3
1363.64 -968.74 2380.0
1391.50 -984.08 2417.7
1400.62 -986.09 2422.6
1391.76 -975.47 2396.5
1480.33 -1023.84 2515.4
1481.03 -1019.83 2505.5
1517.82 -1040.60 2556.5
1541.76 -1052.42 2585.6
1518.75 -1032.23 2536.0
1541.69 -1029.98 2530.4
1576.73 -1048.93 2577.0
1579.80 -1046.54 2571.1
1566.97 -1033.67 2539.5
1578.40 -1036.85 2547.3
1553.40 -1016.18 2496.5
1489.13 -970.09 2383.3
1475.16 -957.02 2351.2
1506.92 -973.61 2391.9
1562.09 -1005.12 2469.4
1537.52 -981.26 2410.7
1501.33 -954.29 2344.5
1516.06 -959.76 2357.9
1548.79 -976.54 2399.2
1543.07 -969.05 2380.7
1526.43 -954.78 2345.7
1521.05 -947.64 2328.1
1522.87 -945.02 2321.7
1538.19 -950.77 2335.8
1561.92 -961.65 2362.6
1601.98 -982.46 2413.7
1617.54 -988.15 2427.7
1633.68 -994.14 2442.4
1635.39 -987.52 2426.1
1613.88 -970.80 2385.0
1684.35 -1009.32 2479.7
1638.54 -932.07 2289.9
1403.90 -757.43 1860.8
1283.13 -689.90 1694.9
1202.06 -644.11 1582.4
1385.22 -734.73 1805.1
1401.09 -740.65 1819.6
1315.76 -693.20 1703.0
1239.94 -651.07 1599.5
1198.25 -627.08 1540.6
1167.48 -608.95 1496.1
1179.42 -613.14 1506.4
1164.91 -603.60 1482.9
1148.86 -583.72 1434.1
1177.52 -596.36 1465.1
1156.03 -583.59 1433.8
1350.10 -1001.49 2444.9
1336.85 -987.02 2409.6
1362.42 -1001.22 2444.2
1373.40 -1004.62 2452.5
1346.08 -980.09 2392.6
1333.12 -957.42 2337.3
1331.76 -952.12 2324.3
1348.68 -959.87 2343.3
1409.54 -998.69 2438.0
1438.34 -1010.03 2465.7
1398.00 -977.36 2386.0
1440.56 -1002.68 2447.8
1513.59 -1048.89 2560.6
1486.91 -1025.90 2504.5
1446.96 -994.00 2426.6
1484.74 -1015.54 2479.2
1488.68 -1013.84 2475.0
1526.35 -1030.61 2516.0
1567.64 -1053.99 2573.0
1563.33 -1046.64 2555.1
1555.99 -1037.32 2532.3
1530.20 -1015.84 2479.9
1564.39 -1034.20 2524.7
1561.32 -1027.87 2509.3
1494.12 -979.55 2391.3
1476.16 -963.78 2352.8
1487.77 -967.36 2361.5
1525.68 -987.94 2411.8
1549.07 -998.99 2438.8
1516.15 -973.79 2377.2
1504.40 -962.33 2349.3
1548.79 -986.73 2408.8
1582.16 -999.92 2441.0
1558.43 -981.01 2394.9
1545.91 -969.26 2366.2
1547.28 -966.29 2358.9
1561.63 -971.41 2371.4
1590.11 -985.25 2405.2
1653.90 -1005.06 2453.6
1610.71 -975.06 2380.4
1656.11 -998.72 2438.1
1628.13 -938.85 2292.0
1612.45 -926.43 2261.6
1399.40 -757.21 1848.5
1280.69 -690.61 1685.9
1298.02 -697.58 1702.9
1303.28 -698.03 1704.0
1278.42 -682.40 1665.9
1389.81 -739.36 1804.9
1284.08 -678.54 1656.5
1226.74 -646.08 1577.2
1164.45 -611.24 1492.2
1154.08 -603.79 1474.0
1151.87 -600.65 1466.3
1159.19 -600.50 1466.0
1156.93 -597.37 1458.3
1351.40 -1008.79 2447.2
1336.80 -993.23 2409.5
1361.90 -1007.17 2443.3
1348.96 -992.99 2408.9
1309.69 -955.24 2317.3
1364.60 -990.74 2403.4
1379.28 -996.84 2418.2
1363.58 -981.04 2379.9
1326.11 -949.78 2304.1
1331.23 -949.17 2302.6
1370.40 -972.74 2359.7
1347.14 -951.98 2309.4
1357.01 -954.71 2316.0
1451.02 -1016.35 2465.5
1512.34 -1050.05 2547.3
1495.19 -1033.63 2507.5
1555.88 -1070.93 2597.9
1563.12 -1057.60 2565.6
1504.65 -1013.73 2459.2
1476.62 -986.48 2393.1
1576.73 -1048.96 2544.6
1589.17 -1052.83 2554.0
1532.12 -1010.81 2452.1
1503.26 -987.68 2396.0
1506.39 -985.66 2391.1
1492.83 -972.79 2359.9
1466.50 -951.73 2308.8
1496.84 -967.47 2347.0
1551.79 -998.92 2423.3
1566.65 -1004.43 2436.6
1573.36 -1004.68 2437.2
1577.50 -1003.29 2433.9
1559.97 -988.19 2397.2
1557.29 -982.57 2383.6
1571.14 -987.40 2395.3
1591.27 -996.11 2416.4
1656.67 -1017.03 2467.2
1587.23 -970.65 2354.7
1544.95 -941.18 2283.2
1593.87 -967.27 2346.5
1347.57 -738.84 1792.3
1283.77 -701.44 1701.6
1357.26 -739.06 1792.9
1236.75 -668.85 1622.6
1114.27 -600.57 1456.9
1190.04 -637.09 1545.5
1178.96 -622.77 1510.8
1145.18 -602.92 1462.6
1125.92 -590.83 1433.3
1156.84 -601.10 1458.2
1380.60 -1027.42 2476.8
1342.02 -994.09 2396.5
1320.63 -973.74 2347.4
1357.81 -996.56 2402.4
1380.81 -1008.81 2432.0
1361.51 -990.19 2387.1
1351.85 -978.71 2359.4
1343.43 -959.59 2313.3
1356.52 -960.37 2315.2
1428.02 -1006.53 2426.5
1477.44 -1036.80 2499.4
1478.57 -1033.07 2490.4
1487.87 -1035.04 2495.2
1537.85 -1065.17 2567.8
1557.99 -1074.48 2590.3
1545.57 -1061.34 2558.6
1538.40 -1051.90 2535.8
1536.07 -1037.01 2499.9
1568.20 -1054.25 2541.5
1584.09 -1060.48 2556.5
1518.82 -1012.54 2441.0
1522.07 -1010.50 2436.0
1547.86 -1023.38 2467.1
1520.45 -1001.12 2413.4
1475.17 -967.32 2331.9
1454.87 -950.12 2290.5
1491.77 -970.26 2339.0
1535.97 -994.96 2398.6
1537.51 -991.94 2391.3
1532.86 -984.97 2374.5
1525.07 -976.05 2353.0
1515.13 -965.82 2328.3
1522.66 -966.77 2330.6
1543.66 -976.23 2353.4
1572.54 -990.58 2388.0
1576.53 -989.20 2384.7
1557.51 -973.44 2346.7
1586.03 -987.41 2380.4
1579.54 -950.10 2290.4
1607.13 -941.91 2270.7
1407.21 -776.39 1871.7
1347.58 -740.94 1786.2
1159.43 -630.98 1521.1
1160.33 -629.33 1517.1
1264.73 -683.64 1648.1
1165.56 -627.91 1513.7
1109.49 -595.70 1436.1
1203.35 -643.94 1552.3
1176.25 -627.34 1512.3
1139.66 -605.80 1460.4
1137.68 -598.78 1443.5
1138.35 -597.17 1439.6
1340.59 -999.23 2393.9
1311.84 -973.30 2331.8
1348.97 -996.25 2386.8
1369.14 -1006.54 2411.4
1348.88 -987.14 2364.9
1338.72 -975.27 2336.5
1351.89 -980.43 2348.8
1392.41 -1005.28 2408.4
1406.71 -1011.07 2422.3
1378.40 -986.32 2363.0
1405.02 -1000.92 2398.0
1482.37 -1051.37 2518.8
1518.53 -1072.30 2568.9
1503.00 -1056.69 2531.6
1497.43 -1048.20 2511.2
1531.93 -1067.71 2557.9
1543.79 -1071.34 2566.7
1521.12 -1051.07 2518.1
1502.64 -1033.87 2476.9
1562.90 -1070.76 2565.3
1571.07 -1062.78 2546.1
1536.83 -1035.27 2480.2
1509.30 -1012.49 2425.7
1544.99 -1032.13 2472.7
1557.31 -1036.06 2482.1
1517.89 -1005.68 2409.4
1514.99 -999.65 2394.9
1531.75 -1006.58 2411.5
1518.14 -993.58 2380.4
1514.58 -987.23 2365.2
1501.25 -974.60 2334.9
1482.69 -958.69 2296.8
1491.70 -960.65 2301.5
1500.21 -962.28 2305.4
1514.92 -967.86 2318.8
1545.21 -983.32 2355.8
1559.54 -988.53 2368.3
1545.79 -975.97 2338.2
1519.38 -955.55 2289.3
1540.98 -965.36 2312.8
1608.59 -992.27 2377.2
1566.81 -962.81 2306.6
1624.14 -957.82 2294.7
1401.77 -778.22 1864.4
1378.79 -757.63 1815.1
1306.57 -715.50 1714.2
1389.94 -756.02 1811.2
1164.27 -631.13 1512.0
1170.62 -630.34 1510.1
1202.95 -645.58 1546.6
1204.42 -644.22 1543.4
1150.24 -613.21 1469.1
1357.57 -1027.69 2446.9
1370.81 -1032.89 2459.3
1348.32 -1011.24 2407.7
1311.48 -974.59 2320.4
1378.81 -1019.94 2428.4
1401.90 -1032.31 2457.9
1389.14 -1018.28 2424.5
1403.42 -1024.12 2438.4
1417.03 -1024.82 2440.0
1398.73 -1007.08 2397.8
1439.67 -1031.97 2457.1
1503.25 -1072.80 2554.3
1522.72 -1081.93 2576.0
1515.37 -1072.01 2552.4
1515.64 -1067.54 2541.8
1516.34 -1063.41 2531.9
1487.90 -1038.97 2473.7
1488.91 -1035.20 2464.8
1499.15 -1037.87 2471.1
1522.14 -1049.30 2498.3
1562.43 -1072.52 2553.6
1516.18 -1036.38 2467.6
1478.49 -1006.37 2396.1
1527.33 -1035.26 2464.9
1577.92 -1065.09 2535.9
1545.42 -1038.83 2473.4
1492.64 -999.21 2379.1
1491.23 -994.15 2367.0
1523.02 -1011.18 2407.6
1557.48 -1029.85 2452.0
1566.77 -1031.78 2456.6
1530.82 -1004.02 2390.5
1483.91 -969.33 2307.9
1458.67 -949.01 2259.6
1457.34 -944.36 2248.5
1495.59 -965.28 2298.3
1542.79 -991.79 2361.4
1548.31 -991.41 2360.5
1533.58 -978.11 2328.8
1536.94 -976.41 2324.8
1525.15 -965.13 2297.9
1557.22 -981.59 2337.1
1259.51 -706.03 1681.0
1295.90 -716.51 1706.0
1282.77 -706.83 1682.9
1291.48 -706.82 1682.9
1164.13 -634.98 1511.9
1218.95 -662.65 1577.7
1283.29 -695.30 1655.5
1292.54 -697.97 1661.8
1231.49 -660.60 1572.9
1112.79 -593.00 1411.9
1137.13 -598.10 1424.1
1359.30 -1035.35 2450.0
1347.88 -1021.88 2418.1
1351.92 -1020.20 2414.1
1323.73 -994.32 2352.9
1332.23 -996.11 2357.1
1393.10 -1036.88 2453.6
1375.77 -1019.32 2412.1
1323.25 -975.97 2309.5
1333.08 -978.79 2316.2
1351.86 -988.13 2338.3
1395.73 -1015.64 2403.4
1475.68 -1064.32 2518.5
1484.06 -1056.34 2499.7
1486.16 -1053.23 2492.3
1488.70 -1050.47 2485.8
1472.79 -1034.76 2448.6
1490.28 -1042.56 2467.1
1534.18 -1068.68 2528.9
1558.96 -1072.19 2537.2
1518.96 -1040.30 2461.7
1563.93 -1066.61 2524.0
1588.25 -1078.69 2552.6
1525.39 -1031.69 2441.3
1502.61 -1012.09 2395.0
1530.85 -1026.87 2429.9
1543.11 -1030.85 2439.3
1561.46 -1038.85 2458.3
1532.26 -1015.28 2402.5
1458.14 -962.25 2277.0
1443.14 -948.52 2244.5
1449.49 -948.86 2245.3
1463.01 -953.88 2257.2
1520.27 -987.27 2336.2
1546.89 -1000.57 2367.7
1525.54 -982.86 2325.8
1488.98 -955.52 2261.1
1466.73 -937.56 2218.6
1520.60 -964.43 2282.2
1558.46 -984.61 2329.9
1517.60 -955.09 2260.1
1536.07 -963.00 2278.8
1572.07 -981.79 2323.2
1573.21 -978.76 2316.1
1560.87 -956.47 2263.3
1576.88 -962.66 2278.0
1581.61 -961.95 2276.3
1576.60 -955.34 2260.7
1585.62 -957.24 2265.2
1600.08 -962.41 2277.4
1381.98 -779.46 1844.5
1383.87 -775.16 1834.3
1367.63 -763.44 1806.6
1313.44 -730.69 1729.1
1217.04 -674.75 1596.7
1201.38 -663.81 1570.8
1277.40 -703.43 1664.6
1311.52 -719.79 1703.3
1234.00 -663.83 1570.9
1133.27 -607.64 1437.9
1135.26 -600.81 1421.7
1337.38 -1024.91 2410.5
1306.73 -996.76 2344.3
1306.21 -987.18 2321.8
1358.01 -1021.62 2402.8
1375.41 -1029.99 2422.4
1308.30 -975.28 2293.8
1352.29 -990.07 2328.6
1418.47 -1033.91 2431.7
1486.48 -1078.68 2537.0
1510.81 -1081.98 2544.7
1535.05 -1075.84 2530.3
1566.45 -1093.18 2571.1
1582.31 -1099.57 2586.1
1566.72 -1084.14 2549.8
1561.35 -1075.89 2530.4
1582.65 -1086.00 2554.2
1580.18 -1079.79 2539.6
1526.81 -1038.99 2443.6
1520.07 -1030.13 2422.8
1556.34 -1041.79 2450.2
1480.58 -987.05 2321.5
1433.17 -943.93 2220.1
1464.05 -960.42 2258.8
1494.06 -976.20 2295.9
1487.61 -968.13 2277.0
1521.39 -986.20 2319.5
1542.90 -996.20 2343.0
1491.20 -959.05 2255.6
1460.02 -935.32 2199.8
1544.05 -970.21 2281.9
1607.18 -972.61 2287.5
1591.75 -959.73 2257.2
1385.86 -781.03 1836.9
1385.39 -775.44 1823.8
1248.40 -694.03 1632.3
1244.88 -689.73 1622.2
1130.31 -617.90 1453.3
1138.05 -620.07 1458.3
1232.90 -669.52 1574.7
1198.09 -648.47 1525.2
1331.42 -1031.38 2411.0
1340.47 -1033.54 2416.1
1371.43 -1052.50 2460.4
1346.72 -1028.75 2404.9
1353.48 -1029.15 2405.8
1363.47 -1031.98 2412.4
1338.77 -1008.66 2357.9
1353.78 -1015.34 2373.5
1391.69 -1039.05 2428.9
1354.52 -1006.74 2353.4
1406.20 -1026.65 2400.0
1488.59 -1082.01 2529.4
1465.95 -1060.89 2480.0
1457.02 -1049.82 2454.1
1497.97 -1074.63 2512.1
1537.21 -1098.01 2566.8
1565.84 -1108.86 2592.1
1567.56 -1105.33 2583.9
1559.70 -1085.87 2538.4
1535.08 -1064.23 2487.8
1537.97 -1061.78 2482.1
1519.00 -1035.68 2421.1
1493.13 -1013.85 2370.0
1511.80 -1022.32 2389.8
1478.10 -995.45 2327.0
1472.98 -987.97 2309.5
1475.40 -985.59 2304.0
1457.94 -970.00 2267.5
1461.78 -968.65 2264.4
1445.13 -953.78 2229.6
1487.62 -974.04 2277.0
1511.48 -978.01 2286.3
1515.55 -965.50 2257.0
1554.63 -982.81 2297.5
1577.00 -978.22 2286.7
1623.72 -981.37 2294.1
1211.15 -686.73 1605.3
1184.25 -669.18 1564.3
1285.46 -723.89 1692.2
1166.58 -643.77 1504.9
1091.80 -600.49 1403.7
1189.23 -651.90 1523.9
1273.04 -695.54 1625.9
1226.04 -667.65 1560.7
1119.56 -607.66 1420.5
1361.73 -1046.52 2431.7
1354.32 -1036.02 2407.3
1350.02 -1028.00 2388.6
1367.38 -1036.46 2408.3
1377.36 -1029.92 2393.1
1320.76 -983.17 2284.5
1320.67 -978.71 2274.1
1344.51 -987.56 2294.7
1427.11 -1043.61 2424.9
1438.74 -1033.90 2402.4
1494.37 -1064.66 2473.8
1551.35 -1100.53 2557.2
1557.52 -1095.54 2545.6
1524.19 -1067.57 2480.6
1521.66 -1061.33 2466.1
1488.90 -1034.13 2402.9
1512.95 -1046.46 2431.5
1519.93 -1042.59 2422.6
1434.98 -980.27 2277.7
1450.21 -978.60 2273.9
1456.11 -978.60 2273.9
1439.64 -963.63 2239.1
1455.16 -970.10 2254.1
1445.15 -959.58 2229.7
1487.11 -979.60 2276.2
1536.12 -1003.92 2332.7
1499.02 -975.83 2267.4
1479.89 -959.61 2229.7
1483.58 -954.55 2218.0
1534.05 -975.68 2267.1
1611.51 -969.24 2252.1
1283.98 -729.93 1696.1
1301.81 -737.55 1713.7
1134.33 -631.87 1468.2
1128.73 -626.66 1456.1
1237.62 -684.81 1591.2
1220.91 -666.68 1549.1
1158.30 -630.42 1464.8
1310.64 -1008.65 2329.7
1313.57 -1006.26 2324.1
1338.18 -1020.44 2356.9
1369.41 -1039.50 2400.9
1359.86 -1027.59 2373.4
1377.75 -1036.42 2393.8
1410.25 -1056.10 2439.2
1401.54 -1044.89 2413.4
1367.23 -1014.79 2343.8
1360.58 -1005.38 2322.1
1386.15 -1019.77 2355.3
1419.48 -1039.71 2401.4
1471.65 -1073.21 2478.8
1491.00 -1082.59 2500.4
1486.35 -1074.54 2481.8
1492.73 -1074.51 2481.8
1513.17 -1084.55 2504.9
1515.21 -1081.37 2497.6
1506.48 -1070.56 2472.6
1455.06 -1029.64 2378.1
1472.78 -1033.42 2386.9
1510.08 -1055.16 2437.1
1495.01 -1040.28 2402.7
1509.16 -1045.76 2415.4
1528.33 -1054.67 2435.9
1496.03 -1028.14 2374.6
1457.46 -997.52 2303.9
1479.04 -1008.16 2328.5
1477.98 -1003.35 2317.4
1437.36 -971.82 2244.6
1418.81 -955.41 2206.7
1436.81 -963.64 2225.7
1425.74 -952.39 2199.7
1446.99 -958.92 2214.8
1507.94 -995.36 2298.9
1505.07 -989.55 2285.5
1510.96 -989.53 2285.5
1508.00 -983.73 2272.1
1463.25 -950.83 2196.1
1604.12 -992.18 2291.6
1286.12 -733.04 1693.1
1237.48 -702.92 1623.5
1312.28 -737.88 1704.3
1128.99 -632.69 1461.3
1120.49 -625.83 1445.5
1250.20 -695.95 1607.4
1260.96 -697.29 1610.5
1274.82 -702.62 1622.8
1221.32 -670.92 1549.6
1172.27 -641.87 1482.5
1356.99 -1060.34 2434.5
1351.02 -1050.79 2412.5
1366.97 -1058.30 2429.8
1370.09 -1055.85 2424.2
1367.65 -1049.16 2408.8
1375.34 -1050.26 2411.3
1343.50 -1021.31 2344.8
1346.39 -1018.89 2339.3
1415.76 -1066.58 2448.8
1428.47 -1066.59 2448.8
1462.74 -1087.35 2496.5
1464.43 -1083.81 2488.3
1470.85 -1083.79 2488.3
1467.02 -1062.32 2439.0
1514.98 -1092.35 2507.9
1547.17 -1110.79 2550.3
1485.79 -1044.40 2397.9
1474.62 -1032.24 2369.9
1491.68 -1039.84 2387.4
1509.29 -1047.77 2405.6
1510.47 -1044.28 2397.6
1512.12 -1041.13 2390.3
1428.48 -975.55 2239.8
1432.75 -966.67 2219.4
1439.56 -967.38 2221.0
1359.78 -910.13 2089.6
1477.00 -980.77 2251.8
1511.77 -999.91 2295.7
1470.52 -968.81 2224.3
1515.09 -978.98 2247.7
1555.24 -989.70 2272.3
1609.93 -987.11 2266.3
1615.14 -986.71 2265.4
1234.40 -715.10 1641.8
1228.17 -709.05 1627.9
1248.13 -718.10 1648.7
1181.29 -677.32 1555.1
1106.10 -632.05 1451.1
1120.68 -638.21 1465.3
1314.40 -741.00 1701.3
1200.89 -674.75 1549.2
1243.45 -694.02 1593.4
1267.75 -705.24 1619.2
1277.53 -708.33 1626.3
1216.46 -672.26 1543.4
1108.15 -610.39 1401.4
1017.01 -558.36 1281.9
1047.33 -571.27 1311.6
993.90 -536.90 1232.7
1356.19 -1051.36 2399.6
1314.03 -1014.02 2314.3
1328.01 -1020.15 2328.3
1310.44 -1002.10 2287.1
1318.81 -1003.96 2291.4
1389.91 -1053.34 2404.1
1461.82 -1097.99 2506.0
1470.18 -1099.38 2509.1
1451.97 -1080.98 2467.2
1430.25 -1060.14 2419.6
1424.06 -1041.85 2377.8
1450.46 -1052.05 2401.1
1456.39 -1034.16 2360.3
1456.83 -1021.60 2331.6
1417.43 -985.79 2249.9
1445.27 -996.94 2275.3
1339.61 -909.22 2075.1
1407.41 -951.41 2171.4
1369.58 -922.15 2104.6
1340.73 -899.14 2052.1
1432.19 -956.68 2183.5
1479.73 -984.55 2247.1
1352.67 -892.97 2038.1
1332.04 -875.93 1999.2
1460.14 -956.45 2182.9
1593.04 -982.57 2242.5
1276.54 -746.49 1703.7
1188.23 -692.45 1580.4
1217.72 -707.20 1614.1
1277.05 -736.59 1681.2
1218.73 -700.56 1598.9
1220.26 -696.70 1590.1
1179.79 -671.33 1532.2
1296.81 -735.44 1678.5
1313.02 -742.14 1693.8
1268.83 -712.40 1625.9
1270.45 -710.95 1622.6
1274.98 -711.13 1623.0
1096.32 -605.48 1381.9
1049.04 -575.61 1313.7
1296.71 -1015.85 2304.9
1372.50 -1046.30 2374.0
1413.17 -1067.73 2422.6
1430.51 -1071.30 2430.7
1455.05 -1080.16 2450.8
1474.04 -1080.11 2450.7
1487.61 -1085.38 2462.6
1518.77 -1084.83 2461.4
1495.49 -1054.91 2393.5
1482.74 -1041.59 2363.3
1392.94 -974.49 2211.0
1400.01 -971.44 2204.1
1327.48 -906.31 2056.3
1376.82 -936.24 2124.2
1381.40 -935.61 2122.8
1396.75 -942.25 2137.9
1401.34 -941.61 2136.4
1347.08 -901.59 2045.6
1352.00 -901.34 2045.0
1323.70 -879.02 1994.4
1413.71 -931.51 2113.5
1580.27 -984.05 2232.7
1606.14 -996.51 2261.0
1274.88 -744.78 1689.8
1193.00 -694.55 1575.9
1290.50 -748.75 1698.9
1175.01 -672.56 1526.0
1255.58 -716.27 1625.1
1168.04 -646.79 1467.5
1069.11 -582.53 1321.7
1058.80 -575.07 1304.8
1344.05 -1054.28 2378.1
1376.55 -1074.84 2424.5
1355.60 -1053.67 2376.7
1296.41 -1003.10 2262.6
1339.23 -1026.95 2316.4
1407.22 -1074.26 2423.2
1350.89 -1022.14 2305.6
1438.92 -1083.94 2445.0
1478.49 -1099.22 2479.5
1482.00 -1097.06 2474.6
1461.88 -1054.78 2379.2
1503.41 -1080.18 2436.5
1519.04 -1086.85 2451.5
1450.18 -1033.25 2330.6
1446.30 -1026.21 2314.8
1313.62 -913.12 2059.7
1324.87 -906.21 2044.1
1330.32 -906.31 2044.3
1319.36 -895.28 2019.4
1343.30 -900.80 2031.9
1385.54 -925.49 2087.6
1408.73 -937.33 2114.3
1370.67 -904.96 2041.3
1370.54 -894.51 2017.7
1246.23 -732.32 1651.9
1166.28 -678.35 1530.1
1253.75 -726.75 1639.3
1250.29 -722.29 1629.2
1241.02 -714.53 1611.7
1209.78 -694.20 1565.9
1180.10 -674.91 1522.3
1269.07 -723.37 1631.7
1193.13 -671.13 1513.8
1189.26 -666.77 1504.0
1132.52 -632.88 1427.5
1060.22 -590.55 1332.1
1329.79 -1073.82 2408.1
1357.71 -1071.22 2402.2
1365.84 -1072.71 2405.6
1310.23 -1024.36 2297.1
1419.85 -1075.84 2412.6
1464.41 -1067.28 2393.4
1495.93 -1081.09 2424.4
1461.11 -1042.79 2338.5
1380.22 -972.94 2181.8
1422.59 -998.72 2239.6
1406.80 -983.61 2205.8
1323.72 -921.78 2067.1
1308.43 -896.61 2010.7
1328.67 -906.87 2033.7
1332.01 -898.46 2014.8
1402.18 -942.09 2112.7
1388.51 -929.27 2083.9
1358.04 -905.36 2030.3
1352.98 -898.50 2014.9
1357.29 -897.90 2013.6
1358.44 -895.22 2007.6
1363.79 -895.31 2007.8
1595.98 -991.01 2222.4
1225.53 -726.87 1630.0
1200.60 -709.63 1591.4
1184.05 -697.46 1564.1
1074.68 -628.73 1409.9
1223.17 -713.17 1599.3
1241.44 -721.38 1617.7
1218.94 -705.92 1583.0
1166.91 -673.52 1510.4
1144.68 -658.48 1476.6
1220.77 -699.91 1569.6
1247.10 -710.27 1592.8
1044.57 -591.01 1325.3
1073.76 -605.53 1357.9
1052.60 -591.66 1326.8
1035.45 -580.12 1300.9
1041.78 -581.77 1304.6
1045.75 -582.10 1305.4
1344.75 -1067.17 2379.3
1311.44 -1035.98 2309.8
1413.11 -1076.95 2401.1
1454.49 -1103.63 2460.6
1488.09 -1109.65 2474.0
1475.15 -1095.29 2442.0
1493.56 -1104.22 2461.9
1449.85 -1067.34 2379.7
1447.74 -1061.26 2366.2
1510.60 -1102.67 2458.5
1388.72 -984.62 2195.3
1417.85 -997.11 2223.1
1426.69 -999.26 2227.9
1326.25 -925.16 2062.7
1336.22 -924.66 2061.6
1373.35 -946.58 2110.4
1447.03 -993.40 2214.8
1371.15 -937.58 2090.4
1297.60 -860.10 1917.6
1291.10 -767.56 1711.3
1229.88 -726.18 1619.1
1164.77 -685.39 1528.1
1194.90 -700.74 1562.3
1225.73 -716.39 1597.2
1215.28 -707.89 1578.3
1158.09 -672.32 1499.0
1131.23 -654.53 1459.3
1274.31 -732.41 1633.0
1281.18 -733.92 1636.3
1073.68 -611.01 1362.3
1056.69 -599.37 1336.3
1065.42 -602.34 1343.0
1061.24 -598.03 1333.3
1053.48 -591.73 1319.3
1045.68 -585.45 1305.3
1331.53 -1034.31 2292.8
1328.18 -1027.13 2276.9
1427.18 -1093.96 2425.0
1496.73 -1117.73 2477.7
1464.80 -1084.58 2404.2
1435.46 -1058.35 2346.1
1478.21 -1085.27 2405.8
1500.60 -1097.08 2431.9
1485.71 -1081.65 2397.7
1460.32 -1058.73 2346.9
1426.81 -1030.14 2283.6
1395.53 -1003.40 2224.3
1434.73 -1027.34 2277.3
1434.17 -1022.72 2267.1
1398.48 -993.21 2201.7
1411.25 -990.15 2194.9
1345.49 -940.22 2084.2
1331.19 -926.51 2053.8
1349.92 -935.80 2074.4
1391.76 -960.98 2130.2
1340.70 -918.43 2035.9
1289.87 -859.91 1906.2
1291.34 -857.61 1901.1
1322.26 -871.49 1931.9
1296.10 -772.33 1712.1
1275.19 -757.28 1678.7
1267.28 -750.03 1662.6
1252.46 -738.74 1637.6
1249.58 -734.55 1628.3
1204.72 -705.80 1564.6
1115.31 -651.22 1443.6
1090.11 -634.38 1406.3
1096.79 -631.92 1400.8
1193.19 -682.94 1513.9
1051.85 -598.11 1325.9
1022.39 -579.47 1284.5
997.50 -563.52 1249.2
994.89 -560.23 1241.9
1032.45 -579.50 1284.6
1357.66 -1084.89 2391.2
1418.54 -1093.59 2410.4
1442.35 -1107.06 2440.1
1429.17 -1092.16 2407.2
1423.97 -1083.46 2388.0
1435.45 -1087.46 2396.9
1464.68 -1090.72 2404.0
1429.04 -1059.67 2335.6
1460.51 -1078.44 2377.0
1501.15 -1094.59 2412.6
1475.22 -1071.21 2361.0
1400.95 -1013.09 2232.9
1401.33 -1009.19 2224.3
1457.08 -1045.04 2303.3
1469.57 -1049.69 2313.6
1400.12 -987.99 2177.6
1324.25 -930.70 2051.3
1308.88 -916.21 2019.4
1312.24 -914.91 2016.5
1366.89 -930.76 2051.5
1280.77 -868.74 1914.8
1329.32 -894.73 1972.1
1403.85 -941.28 2074.7
1379.33 -921.31 2030.6
1387.88 -923.50 2035.5
1368.94 -907.44 2000.1
1398.66 -923.64 2035.8
1293.36 -777.79 1714.3
1190.80 -713.67 1573.0
1175.36 -702.01 1547.3
1173.51 -698.52 1539.6
1166.48 -691.98 1525.2
1237.81 -729.35 1607.5
1131.85 -664.68 1465.0
1065.75 -623.77 1374.8
1086.05 -633.53 1396.3
1029.37 -598.47 1319.1
995.06 -576.61 1270.9
1162.10 -668.97 1474.5
1118.52 -639.68 1409.9
1116.81 -636.62 1403.2
996.36 -562.46 1239.7
992.50 -554.91 1223.1
1318.02 -1083.98 2375.6
1277.67 -1026.81 2250.3
1417.10 -1093.90 2397.3
1409.08 -1082.96 2373.4
1418.61 -1085.54 2379.0
1448.24 -1103.42 2418.2
1465.55 -1111.80 2436.6
1472.81 -1112.51 2438.1
1447.70 -1088.87 2386.3
1432.08 -1072.53 2350.5
1455.21 -1085.24 2378.4
1478.94 -1098.29 2407.0
1509.14 -1116.01 2445.8
1458.17 -1069.32 2343.5
1481.54 -1081.95 2371.2
1460.90 -1062.47 2328.5
1386.38 -1004.13 2200.6
1371.21 -989.07 2167.6
1366.92 -981.95 2152.0
1389.16 -993.87 2178.1
1398.92 -996.80 2184.5
1314.78 -933.07 2044.9
1294.21 -911.13 1996.8
1310.28 -918.76 2013.5
1267.64 -885.34 1940.3
1378.87 -944.28 2069.5
1374.02 -926.54 2030.6
1201.96 -726.96 1593.2
1141.80 -688.21 1508.3
1153.55 -692.92 1518.6
1106.31 -660.04 1446.5
1104.83 -656.92 1439.7
1090.85 -644.26 1411.9
1080.28 -629.57 1379.7
1091.37 -633.93 1389.3
1059.37 -613.32 1344.1
1110.73 -640.94 1404.7
1137.93 -648.14 1420.4
999.27 -567.33 1243.3
1303.09 -1093.12 2382.1
1328.00 -1083.21 2360.5
1292.83 -1017.02 2216.3
1434.68 -1104.08 2406.0
1419.84 -1083.24 2360.6
1436.09 -1090.94 2377.3
1477.52 -1117.61 2435.5
1463.27 -1083.68 2361.5
1451.18 -1070.24 2332.2
1502.66 -1103.61 2405.0
1481.61 -1083.66 2361.5
1401.25 -1020.67 2224.2
1390.64 -1008.78 2198.3
1387.91 -1002.70 2185.1
1325.46 -949.82 2069.8
1289.60 -920.40 2005.7
1294.99 -920.54 2006.0
1387.68 -982.48 2141.0
1390.28 -976.51 2128.0
1295.52 -906.35 1975.1
1361.95 -949.07 2068.2
1381.86 -959.17 2090.2
1371.89 -948.53 2067.0
1341.62 -924.00 2013.6
1282.06 -879.55 1916.7
1321.70 -892.90 1945.8
1345.36 -905.43 1973.1
1211.90 -737.14 1606.4
1166.55 -707.12 1540.9
1178.35 -711.83 1551.2
1074.19 -644.51 1404.5
1064.63 -636.62 1387.3
1114.63 -664.28 1447.6
1123.47 -667.29 1454.2
1115.05 -660.08 1438.4
1015.94 -599.40 1306.2
1051.75 -616.42 1343.3
1038.89 -604.88 1318.1
1076.16 -624.53 1361.0
1140.14 -653.09 1423.2
1052.89 -601.17 1310.1
1019.46 -574.67 1252.3
992.35 -557.61 1215.1
1259.13 -1005.05 2177.9
1306.93 -1038.54 2250.5
1276.39 -1009.76 2188.1
1426.94 -1099.55 2382.6
1426.91 -1094.78 2372.3
1447.99 -1106.19 2397.0
1493.82 -1126.70 2441.5
1491.25 -1115.30 2416.8
1458.75 -1086.43 2354.2
1480.10 -1097.74 2378.7
1505.49 -1111.94 2409.5
1461.21 -1074.77 2329.0
1439.44 -1054.41 2284.8
1470.79 -1072.96 2325.0
1433.35 -1041.37 2256.6
1365.57 -988.10 2141.1
1391.34 -1002.66 2172.7
1426.80 -1024.07 2219.1
1375.46 -983.26 2130.7
1378.04 -981.17 2126.1
1339.61 -942.49 2042.3
1352.24 -947.63 2053.5
1387.55 -968.56 2098.8
1387.93 -965.04 2091.2
1366.02 -946.11 2050.2
1319.55 -910.39 1972.8
1346.19 -925.18 2004.8
1379.73 -944.58 2046.8
1341.18 -914.67 1982.0
1311.31 -890.89 1930.5
1287.03 -871.07 1887.5
1235.22 -760.79 1648.6
1242.65 -762.73 1652.8
1199.79 -733.89 1590.3
1157.84 -705.81 1529.4
1084.50 -652.17 1413.2
1146.56 -687.16 1489.0
1097.19 -651.00 1410.7
1051.06 -621.56 1346.9
1252.54 -728.60 1578.8
1145.88 -660.09 1430.4
1064.60 -611.28 1324.6
1008.35 -577.13 1250.6
1320.71 -1099.57 2369.4
1294.74 -1034.63 2229.5
1277.95 -1012.18 2181.1
1466.11 -1126.33 2427.0
1462.12 -1108.98 2389.7
1474.64 -1113.76 2400.0
1442.75 -1085.10 2338.2
1394.44 -1044.38 2250.4
1380.19 -1029.39 2218.2
1377.15 -1022.86 2204.1
1372.07 -1014.88 2186.9
1376.35 -1013.85 2184.7
1471.69 -1079.64 2326.4
1409.13 -1025.34 2209.4
1394.83 -1010.83 2178.2
1330.91 -952.93 2053.4
1294.70 -923.31 1989.6
1391.31 -988.27 2129.6
1351.77 -952.62 2052.7
1297.05 -910.48 1961.9
1292.02 -903.40 1946.7
1292.10 -899.94 1939.2
1307.71 -907.28 1955.0
1408.68 -973.57 2097.9
1350.28 -919.01 1980.3
1374.03 -931.64 2007.5
1401.58 -946.73 2040.0
1410.69 -949.30 2045.6
1244.36 -773.40 1666.5
1254.77 -774.50 1668.9
1200.11 -738.21 1590.7
1185.93 -726.99 1566.5
1238.06 -751.23 1618.8
1113.49 -673.36 1451.0
1081.09 -651.57 1404.0
1122.56 -674.29 1453.0
1123.74 -668.27 1440.0
1067.19 -628.38 1354.1
1083.50 -635.89 1370.2
1174.97 -682.86 1471.4
1071.07 -620.46 1337.0
1026.80 -592.89 1277.6
995.31 -572.86 1234.4
1286.23 -1097.26 2351.3
1290.22 -1095.47 2347.4
1295.91 -1090.02 2335.7
1316.47 -1053.18 2256.8
1277.43 -1017.42 2180.2
1450.59 -1120.63 2401.3
1451.80 -1107.31 2372.8
1450.66 -1101.77 2360.9
1361.34 -1016.77 2178.8
1400.11 -1037.12 2222.4
1465.12 -1080.83 2316.1
1392.29 -1014.63 2174.2
1384.92 -1005.19 2154.0
1419.06 -1021.73 2189.4
1319.66 -946.37 2027.9
1346.99 -962.13 2061.7
1378.02 -980.41 2100.9
1292.87 -916.21 1963.3
1303.13 -909.16 1948.2
1332.29 -925.91 1984.1
1410.06 -976.19 2091.8
1393.82 -957.59 2052.0
1391.36 -952.26 2040.6
1435.99 -975.39 2090.1
1291.98 -810.30 1736.4
1267.05 -791.90 1696.9
1226.25 -763.75 1636.6
1167.77 -724.82 1553.2
1160.92 -718.10 1538.8
1189.09 -733.00 1570.7
1234.38 -758.32 1625.0
1136.15 -690.90 1480.5
1119.85 -678.70 1454.4
1205.38 -725.65 1555.0
1151.62 -690.97 1480.7
1178.43 -704.71 1510.1
1257.42 -749.45 1606.0
1261.92 -749.66 1606.4
1061.82 -626.65 1342.8
1041.36 -612.56 1312.6
1158.83 -679.45 1456.0
1136.11 -663.96 1422.8
1062.15 -618.73 1325.8
1040.26 -604.02 1294.3
990.83 -571.63 1224.9
1287.41 -1099.16 2342.3
1308.82 -1112.19 2370.1
1317.48 -1098.91 2341.8
1331.67 -1100.60 2345.4
1292.84 -1035.41 2206.5
1427.41 -1108.84 2363.0
1471.11 -1137.91 2424.9
1474.44 -1130.82 2409.8
1484.07 -1133.41 2415.3
1480.56 -1125.97 2399.5
1454.96 -1101.87 2348.1
1445.98 -1085.98 2314.3
1475.21 -1103.36 2351.3
1452.09 -1072.77 2286.1
1401.29 -1026.85 2188.2
1296.05 -938.34 1999.6
1266.91 -913.59 1946.9
1380.39 -968.42 2063.7
1315.27 -915.63 1951.2
1401.56 -960.92 2047.7
1428.63 -975.78 2079.4
1442.57 -981.60 2091.8
1504.34 -1019.80 2173.2
1510.51 -1020.16 2174.0
1539.55 -1013.31 2159.4
1546.22 -1014.01 2160.9
1293.57 -818.66 1744.6
1202.26 -758.22 1615.8
1192.26 -749.30 1596.8
1158.61 -725.63 1546.3
1140.53 -711.85 1517.0
1168.60 -726.86 1548.9
1176.42 -729.22 1554.0
1196.15 -738.92 1574.7
1209.71 -744.75 1587.1
1149.88 -705.52 1503.5
1102.30 -674.04 1436.4
1121.39 -683.41 1456.4
1096.11 -646.24 1377.2
1101.39 -647.24 1379.3
1047.96 -613.85 1308.1
1026.05 -599.08 1276.7
1032.93 -601.16 1281.1
1019.73 -591.58 1260.7
954.36 -551.88 1176.1
1260.69 -1042.94 2210.3
1400.71 -1108.39 2349.0
1431.62 -1127.94 2390.5
1439.27 -1129.08 2392.9
1450.76 -1133.21 2401.6
1443.11 -1108.21 2348.6
1405.85 -1075.06 2278.4
1476.34 -1124.24 2382.6
1439.06 -1082.27 2293.7
1355.64 -998.89 2117.0
1276.89 -904.25 1916.4
1314.84 -920.39 1950.6
1306.48 -907.56 1923.4
1429.89 -978.35 2073.4
1489.75 -1011.69 2144.1
1477.72 -999.80 2118.9
1504.65 -1014.24 2149.5
1538.84 -1022.15 2166.2
1170.18 -739.49 1567.2
1181.94 -744.34 1577.5
1205.54 -756.58 1603.4
1230.36 -769.50 1630.8
1241.72 -773.95 1640.2
1242.91 -772.04 1636.2
1190.36 -729.44 1545.9
1182.17 -721.99 1530.1
1186.55 -722.25 1530.7
1171.95 -710.98 1506.8
1141.69 -690.32 1463.0
1182.94 -712.90 1510.8
1255.62 -754.20 1598.4
1047.97 -619.26 1312.4
1056.66 -622.37 1319.0
1080.06 -634.10 1343.9
1042.27 -609.95 1292.7
1001.95 -584.47 1238.7
982.14 -571.09 1210.3
964.02 -558.76 1184.2
1301.81 -1118.46 2357.4
1312.08 -1122.01 2364.9
1313.83 -1102.90 2324.6
1286.14 -1041.43 2195.1
1304.77 -1038.14 2188.1
1409.03 -1111.43 2342.6
1413.23 -1109.96 2339.5
1424.63 -1114.13 2348.3
1408.08 -1096.51 2311.1
1386.55 -1075.16 2266.2
1390.71 -1064.85 2244.4
1445.36 -1092.98 2303.7
1386.17 -1027.00 2164.6
1287.33 -938.57 1978.3
1348.57 -979.32 2064.1
1338.26 -967.99 2040.3
1378.06 -981.27 2068.2
1399.06 -992.36 2091.6
1327.82 -938.19 1977.4
1311.30 -919.42 1937.9
1420.08 -991.89 2090.6
1324.36 -921.51 1942.3
1455.87 -990.43 2087.5
1469.36 -995.90 2099.1
1539.70 -1039.72 2191.4
1501.98 -1006.82 2122.1
1302.15 -830.29 1750.0
1242.63 -789.59 1664.2
1246.15 -789.09 1663.2
1255.85 -792.48 1670.3
1277.96 -803.66 1693.9
1296.19 -812.34 1712.2
1293.15 -804.92 1696.5
1262.63 -780.61 1645.3
1218.68 -750.90 1582.7
1224.30 -751.83 1584.7
1177.49 -718.27 1513.9
1088.49 -661.77 1394.8
1141.72 -691.84 1458.2
1249.99 -752.46 1586.0
1205.05 -723.03 1523.9
1172.31 -698.81 1472.9
1135.63 -674.74 1422.2
1143.32 -677.11 1427.2
1155.15 -681.91 1437.3
1088.70 -640.62 1350.2
1014.27 -594.91 1253.9
976.77 -571.09 1203.7
1276.70 -1123.98 2356.2
1309.36 -1110.24 2327.4
1260.91 -1049.81 2200.7
1363.30 -1085.92 2276.4
1360.44 -1074.34 2252.1
1407.20 -1106.51 2319.6
1398.97 -1068.09 2239.0
1343.49 -1017.29 2132.5
1392.78 -1050.30 2201.7
1363.76 -1024.21 2147.0
1350.59 -1006.11 2109.1
1281.30 -939.28 1969.0
1335.38 -975.04 2043.9
1382.10 -1005.16 2107.1
1331.98 -964.90 2022.7
1430.13 -1023.91 2146.4
1389.32 -983.21 2061.1
1430.05 -996.70 2089.4
1443.45 -1002.24 2101.0
1501.17 -1026.82 2152.5
1479.37 -997.09 2090.2
1287.55 -828.35 1736.5
1302.36 -834.96 1750.3
1320.57 -843.70 1768.6
1316.44 -838.15 1757.0
1233.25 -777.11 1629.0
1240.69 -776.48 1627.7
1213.44 -756.86 1586.6
1194.01 -742.22 1555.9
1152.79 -714.19 1497.1
1158.84 -715.52 1499.9
1111.77 -681.88 1429.4
1094.09 -668.81 1402.0
1225.21 -746.49 1564.8
1044.27 -615.85 1291.0
1015.13 -596.76 1251.0
989.41 -579.78 1215.4
1249.47 -1036.55 2161.2
1263.84 -1039.16 2166.6
1264.03 -1034.71 2157.3
1349.15 -1075.83 2243.0
1329.25 -1055.41 2200.5
1403.70 -1109.77 2313.8
1429.61 -1115.94 2326.7
1412.62 -1084.38 2260.9
1357.49 -1037.75 2163.6
1400.26 -1066.04 2222.6
1412.53 -1070.98 2232.9
1341.85 -1013.23 2112.5
1327.58 -990.34 2064.8
1399.50 -1039.79 2167.9
1407.97 -1033.63 2155.1
1399.90 -1023.64 2134.2
1391.74 -1013.67 2113.4
1304.13 -946.13 1972.6
1359.55 -978.66 2040.5
1427.25 -1015.54 2117.3
1449.71 -1004.48 2094.3
1470.07 -1014.79 2115.8
1505.38 -1027.65 2142.6
1471.32 -997.05 2078.8
1519.37 -1025.85 2138.8
1477.87 -994.20 2072.9
1547.27 -1037.12 2162.3
1309.99 -847.37 1766.7
1311.48 -845.38 1762.6
1309.60 -841.24 1753.9
1286.42 -823.48 1716.9
1204.77 -763.30 1591.4
1200.80 -758.19 1580.8
1190.56 -749.16 1562.0
1171.17 -734.46 1531.3
1178.41 -736.50 1535.6
1163.98 -725.04 1511.7
1108.32 -688.05 1434.5
1066.71 -660.00 1376.1
1107.57 -683.00 1424.0
1195.78 -734.95 1532.3
1220.93 -747.92 1559.4
1217.93 -729.18 1520.3
964.28 -569.94 1188.3
994.68 -586.04 1221.9
1190.74 -993.17 2059.6
1256.12 -1043.02 2163.0
1258.19 -1040.10 2156.9
1343.81 -1077.36 2234.2
1309.09 -1045.02 2167.1
1365.21 -1085.16 2250.3
1393.47 -1098.25 2277.5
1372.33 -1077.02 2233.4
1369.47 -1070.26 2219.4
1366.65 -1037.54 2151.6
1361.74 -1017.21 2109.4
1370.87 -1019.92 2115.1
1385.57 -1026.76 2129.2
1365.33 -1007.74 2089.8
1274.89 -933.58 1936.0
1283.20 -935.98 1941.0
1315.65 -955.90 1982.3
1320.46 -955.66 1981.8
1358.80 -979.60 2031.4
1437.70 -1032.48 2141.1
1443.84 -1032.90 2142.0
1414.58 -1008.09 2090.5
1472.80 -1045.58 2168.2
1532.08 -1043.83 2164.6
1483.24 -1006.87 2088.0
1465.46 -991.19 2055.5
1542.37 -1039.42 2155.5
1508.85 -1005.90 2086.0
1489.38 -982.36 2037.1
1325.43 -856.01 1775.1
1310.14 -843.20 1748.6
1340.16 -859.55 1782.5
1312.41 -838.86 1739.6
1253.52 -798.47 1655.8
1278.47 -811.59 1683.0
1285.40 -813.21 1686.4
1221.99 -770.47 1597.8
1190.68 -748.20 1551.6
1165.47 -729.89 1513.6
1099.57 -686.31 1423.2
1045.95 -650.66 1349.3
1070.10 -663.46 1375.8
1159.90 -716.75 1486.3
1233.01 -754.41 1564.4
943.37 -562.40 1166.3
1211.48 -1015.90 2095.4
1250.02 -1043.54 2152.5
1238.59 -1029.41 2123.3
1387.82 -1113.83 2297.4
1380.33 -1093.74 2256.0
1362.55 -1075.10 2217.5
1354.71 -1042.51 2150.3
1372.79 -1043.54 2152.5
1391.46 -1053.45 2172.9
1345.60 -1014.63 2092.8
1290.05 -942.34 1943.7
1358.82 -984.88 2031.5
1457.74 -1044.43 2154.3
1483.71 -1058.98 2184.3
1474.75 -1048.59 2162.9
1477.77 -1046.75 2159.1
1450.27 -1023.40 2110.9
1449.37 -1011.31 2086.0
1506.40 -1039.47 2144.1
1550.27 -1054.18 2174.4
1518.52 -1028.86 2122.2
1506.12 -1016.77 2097.2
1481.18 -982.20 2025.9
1465.01 -968.04 1996.7
1473.03 -969.91 2000.6
1314.82 -859.69 1773.2
1309.09 -852.96 1759.4
1299.97 -844.08 1741.0
1282.95 -830.14 1712.3
1324.66 -854.18 1761.9
1307.01 -839.90 1732.4
1257.72 -805.46 1661.4
1296.21 -827.27 1706.4
1295.82 -824.21 1700.1
1224.55 -776.24 1601.1
1164.29 -735.55 1517.2
1112.27 -700.32 1444.5
1140.49 -715.67 1476.2
1183.68 -740.30 1527.0
1139.90 -710.53 1465.6
1159.11 -720.11 1485.3
1217.71 -749.05 1545.0
1162.95 -706.08 1456.4
1130.93 -684.42 1411.7
1155.61 -697.09 1437.9
998.32 -600.28 1238.2
957.46 -573.86 1183.7
1183.62 -1006.88 2065.8
1205.89 -1016.63 2085.8
1194.87 -1002.84 2057.5
1248.44 -1038.52 2130.7
1344.22 -1103.55 2264.1
1345.52 -1071.85 2199.1
1326.20 -1052.00 2158.4
1355.21 -1070.51 2196.3
1342.53 -1056.05 2166.7
1344.86 -1053.47 2161.4
1429.43 -1115.08 2287.8
1402.49 -1089.54 2235.4
1349.47 -1039.76 2133.2
1405.62 -1065.55 2186.2
1392.80 -1051.59 2157.5
1396.47 -1050.15 2154.6
1377.41 -1031.69 2116.7
1394.15 -1040.08 2133.9
1404.36 -1043.55 2141.0
1381.98 -1022.88 2098.6
1388.56 -1023.72 2100.3
1386.43 -1018.16 2088.9
1310.26 -958.48 1966.5
1345.44 -980.40 2011.5
1437.63 -1043.53 2141.0
1403.86 -1015.10 2082.7
1390.65 -1001.70 2055.2
1429.97 -1026.09 2105.2
1428.20 -1020.92 2094.6
1440.00 -1025.45 2103.9
1500.17 -1064.27 2183.5
1432.54 -1001.18 2054.1
1437.95 -1001.24 2054.2
1458.94 -1008.39 2068.9
1541.59 -1053.89 2162.2
1484.97 -1011.50 2075.3
1524.02 -1034.36 2122.2
1474.74 -976.24 2002.9
1253.36 -818.16 1678.6
1253.56 -815.46 1673.1
1324.85 -858.87 1762.1
1330.53 -850.82 1745.6
1237.86 -788.88 1618.5
1179.38 -749.07 1536.8
1197.45 -757.98 1555.1
1145.42 -717.80 1472.7
1106.06 -690.83 1417.3
1084.34 -675.02 1384.9
1208.45 -749.80 1538.3
1260.52 -774.44 1588.9
1262.08 -772.87 1585.7
1166.83 -712.22 1461.2
1057.71 -643.53 1320.3
1009.02 -611.92 1255.5
979.46 -592.09 1214.8
1056.21 -636.43 1305.8
1245.66 -1060.49 2164.3
1211.37 -1026.68 2095.3
1197.15 -1010.10 2061.4
1230.67 -1029.19 2100.4
1320.91 -1099.79 2244.5
1377.69 -1103.32 2251.7
1376.85 -1097.99 2240.8
1402.26 -1108.90 2263.1
1330.15 -1047.50 2137.7
1336.33 -1047.99 2138.8
1344.96 -1050.40 2143.7
1352.38 -1047.54 2137.8
1430.81 -1099.28 2243.4
1349.44 -1032.57 2107.3
1345.54 -1025.43 2092.7
1390.23 -1055.23 2153.5
1402.95 -1060.63 2164.6
1401.59 -1055.38 2153.8
1413.34 -1060.00 2163.3
1418.01 -1059.30 2161.8
1354.97 -1008.23 2057.6
1359.27 -1003.52 2048.0
1399.37 -1021.16 2084.0
1375.37 -999.78 2040.4
1368.33 -990.86 2022.2
1451.30 -1046.93 2136.6
1449.92 -1038.01 2118.4
1447.08 -1032.07 2106.3
1499.99 -1065.78 2175.1
1475.83 -1040.79 2124.1
1442.10 -1013.22 2067.8
1460.85 -1022.59 2086.9
1456.72 -1015.94 2073.3
1497.77 -1033.14 2108.4
1500.04 -1030.93 2103.9
1482.28 -1015.04 2071.5
1300.13 -850.26 1735.2
1342.95 -875.23 1786.2
1362.39 -884.85 1805.8
1328.37 -848.18 1731.0
1183.00 -745.29 1521.0
1160.39 -728.62 1487.0
1094.53 -684.99 1397.9
1171.89 -730.98 1491.8
1219.93 -746.17 1522.8
1241.26 -756.77 1544.4
1052.83 -633.71 1293.3
1262.42 -1075.61 2183.6
1214.33 -1020.90 2072.5
1341.92 -1108.54 2250.4
1406.64 -1137.28 2308.8
1330.89 -1071.48 2175.2
1357.42 -1088.23 2209.2
1327.23 -1042.04 2115.4
1367.62 -1064.95 2161.9
1439.18 -1116.10 2265.8
1415.80 -1093.51 2219.9
1374.30 -1057.16 2146.1
1374.81 -1040.69 2112.7
1362.70 -1027.44 2085.8
1351.00 -1014.59 2059.7
1372.57 -1018.70 2068.0
1355.48 -1002.11 2034.4
1359.88 -1001.46 2033.0
1394.19 -1022.77 2076.3
1393.25 -1014.24 2059.0
1495.20 -1068.00 2168.1
1494.84 -1059.77 2151.4
1449.52 -1023.83 2078.4
1462.96 -1029.49 2089.9
1473.78 -1033.27 2097.6
1487.09 -1027.44 2085.8
1443.70 -976.17 1981.7
1469.24 -989.91 2009.6
1499.10 -1002.92 2036.0
1324.21 -879.72 1785.9
1311.25 -859.09 1744.0
1244.85 -812.79 1650.0
1221.37 -794.73 1613.4
1252.39 -812.13 1648.7
1245.71 -805.05 1634.3
1235.87 -780.11 1583.7
1084.01 -681.99 1384.5
1072.00 -672.21 1364.6
1155.20 -714.94 1451.4
1159.43 -715.23 1452.0
1076.13 -661.70 1343.3
1060.88 -650.21 1320.0
1155.88 -701.65 1424.4
993.74 -601.31 1220.7
1229.16 -1062.30 2145.3
1253.12 -1073.30 2167.5
1192.45 -1016.77 2053.3
1215.62 -1031.93 2083.9
1249.61 -1056.09 2132.7
1317.85 -1108.85 2239.3
1303.29 -1077.61 2176.2
1326.94 -1078.49 2177.9
1323.48 -1062.12 2144.9
1354.43 -1082.41 2185.9
1401.12 -1115.06 2251.8
1421.69 -1126.74 2275.4
1394.81 -1100.86 2223.1
1393.28 -1095.13 2211.6
1416.23 -1073.41 2167.7
1379.36 -1041.33 2102.9
1365.62 -1026.90 2073.8
1432.80 -1073.20 2167.3
1451.27 -1082.78 2186.6
1367.27 -1016.14 2052.0
1363.99 -1009.78 2039.2
1384.89 -1021.29 2062.4
1371.75 -1007.71 2035.0
1472.45 -1069.34 2159.5
1495.34 -1081.86 2184.8
1458.56 -1051.26 2123.0
1481.47 -1063.76 2148.2
1504.30 -1072.10 2165.0
1448.98 -1028.83 2077.7
1435.84 -1015.73 2051.2
1448.26 -1016.98 2053.7
1487.41 -1040.64 2101.5
1496.66 -1043.29 2106.9
1534.46 -1065.75 2152.2
1478.96 -998.17 2015.7
1511.79 -1016.73 2053.2
1486.78 -996.41 2012.2
1466.27 -975.81 1970.6
1346.64 -886.92 1791.1
1271.97 -834.87 1686.0
1251.39 -818.55 1653.0
1306.09 -851.41 1719.4
1226.22 -796.63 1608.7
1196.83 -774.90 1564.9
1321.99 -853.04 1722.7
1343.02 -857.91 1732.5
1225.70 -775.20 1565.5
963.02 -601.10 1213.9
976.14 -607.30 1226.4
1077.17 -667.99 1349.0
1105.14 -683.11 1379.5
987.69 -608.54 1228.9
1066.51 -654.99 1322.7
1264.19 -773.91 1562.9
1262.73 -770.55 1556.1
1130.99 -687.96 1389.3
1056.56 -640.64 1293.7
1225.11 -1069.19 2147.9
1170.26 -1012.11 2033.3
1223.60 -1053.50 2116.4
1257.44 -1077.81 2165.2
1244.73 -1062.17 2133.8
1252.32 -1063.92 2137.3
1320.05 -1116.52 2243.0
1272.47 -1057.64 2124.7
1283.38 -1062.11 2133.7
1337.14 -1101.85 2213.5
1313.89 -1078.06 2165.8
1298.59 -1060.97 2131.4
1320.61 -1074.40 2158.4
1304.19 -1056.56 2122.5
1306.96 -1054.35 2118.1
1338.81 -1075.53 2160.7
1383.47 -1106.78 2223.4
1430.51 -1130.28 2270.7
1437.40 -1121.88 2253.8
1440.56 -1110.79 2231.5
1447.40 -1111.60 2233.1
1456.54 -1109.74 2229.4
1359.75 -1019.81 2048.7
1367.26 -1021.45 2052.0
1450.80 -1079.67 2169.0
1469.36 -1089.26 2188.2
1462.67 -1080.13 2169.9
1427.93 -1050.43 2110.2
1403.09 -1024.31 2057.8
1454.51 -1057.83 2125.1
1481.94 -1069.67 2148.9
1478.36 -1059.12 2127.7
1449.50 -1034.58 2078.4
1459.74 -1038.04 2085.3
1457.23 -1032.43 2074.1
1523.56 -1044.73 2098.8
1450.36 -990.99 1990.8
1544.33 -1051.46 2112.3
1294.58 -860.07 1727.8
1279.24 -846.94 1701.4
1253.16 -826.83 1661.0
1281.92 -842.91 1693.3
1305.03 -849.37 1706.3
1359.00 -881.51 1770.9
1286.21 -825.93 1659.2
1205.11 -771.27 1549.4
1332.09 -849.70 1707.0
1247.57 -787.94 1582.9
1102.97 -694.33 1394.9
1100.75 -690.66 1387.5
1085.72 -679.02 1364.1
1156.11 -720.69 1447.8
1157.32 -707.66 1421.6
1106.60 -674.50 1355.0
1211.38 -1062.71 2123.9
1180.18 -1030.65 2059.8
1201.57 -1035.28 2069.0
1212.73 -1040.25 2079.0
1183.54 -1010.72 2019.9
1202.55 -1022.43 2043.3
1259.03 -1065.76 2129.9
1291.48 -1088.45 2175.3
1296.81 -1088.19 2174.8
1269.56 -1060.72 2119.9
1235.46 -1027.77 2054.0
1306.64 -1077.70 2153.8
1368.84 -1124.20 2246.7
1328.19 -1081.61 2161.6
1323.80 -1073.50 2145.4
1344.05 -1085.36 2169.1
1342.51 -1079.60 2157.6
1356.53 -1086.35 2171.1
1395.07 -1112.59 2223.5
1408.28 -1118.51 2235.4
1404.30 -1110.78 2219.9
1399.27 -1102.28 2202.9
1378.31 -1081.36 2161.1
1379.55 -1077.95 2154.3
1363.08 -1048.10 2094.7
1382.26 -1058.64 2115.7
1444.05 -1076.07 2150.5
1431.62 -1062.70 2123.8
1397.86 -1033.67 2065.8
1400.21 -1031.46 2061.4
1484.29 -1089.23 2176.8
1495.18 -1093.07 2184.5
1449.56 -1055.72 2109.9
1445.65 -1048.91 2096.3
1446.43 -1045.55 2089.5
1478.31 -1064.60 2127.6
1533.35 -1084.02 2166.4
1537.40 -1071.19 2140.8
1548.91 -1075.32 2149.1
1548.05 -1067.05 2132.5
1551.38 -1065.54 2129.5
1494.02 -1011.74 2022.0
1357.98 -900.65 1800.0
1251.86 -827.43 1653.6
1203.66 -792.85 1584.5
1352.35 -887.76 1774.2
1343.33 -875.89 1750.5
1248.86 -811.55 1621.9
1276.15 -826.50 1651.8
1222.07 -788.83 1576.5
1112.91 -715.97 1430.9
1217.27 -780.51 1559.9
1236.05 -789.92 1578.7
1208.45 -764.69 1528.2
1186.20 -748.16 1495.2
1147.03 -721.10 1441.1
1136.72 -712.29 1423.5
1224.19 -764.62 1528.1
1120.63 -688.80 1376.6
1071.06 -656.24 1311.5
990.53 -604.98 1209.1
1192.42 -1046.74 2081.1
1172.95 -1015.86 2019.8
1201.11 -1035.62 2059.0
1186.28 -1018.31 2024.6
1205.76 -1030.47 2048.8
1264.55 -1075.97 2139.3
1257.63 -1065.42 2118.3
1230.41 -1037.82 2063.4
1353.15 -1102.99 2193.0
1447.31 -1127.62 2242.0
1429.87 -1105.16 2197.3
1435.13 -1104.82 2196.6
1422.18 -1090.53 2168.2
1407.09 -1074.71 2136.8
1440.70 -1096.06 2179.2
1436.79 -1080.38 2148.0
1449.12 -1085.44 2158.1
1485.71 -1091.77 2170.7
1441.15 -1055.03 2097.6
1424.11 -1038.64 2065.0
1440.61 -1046.73 2081.1
1485.11 -1075.04 2137.4
1509.23 -1072.50 2132.4
1531.71 -1057.48 2102.5
1519.67 -1045.45 2078.6
1517.41 -1040.20 2068.2
1512.36 -1033.09 2054.0
1474.76 -1003.87 1995.9
1481.67 -1005.05 1998.3
1223.02 -809.78 1610.0
1241.63 -819.31 1629.0
1383.29 -909.69 1808.7
1365.00 -894.63 1778.7
1313.16 -857.75 1705.4
1390.56 -905.27 1799.9
1259.35 -814.38 1619.2
1239.87 -799.12 1588.8
1173.28 -753.70 1498.5
1032.85 -661.30 1314.8
970.08 -619.06 1230.8
1087.02 -691.42 1374.7
1132.77 -718.16 1427.9
1041.35 -658.05 1308.3
987.85 -622.21 1237.1
1022.56 -642.00 1276.4
1020.66 -638.74 1269.9
1156.27 -716.67 1424.9
1097.45 -675.89 1343.8
1221.81 -1097.94 2171.7
1219.99 -1091.28 2158.6
1238.65 -1088.00 2152.1
1184.37 -1035.66 2048.6
1241.01 -1080.35 2136.9
1282.16 -1106.29 2188.3
1236.48 -1052.89 2082.6
1252.43 -1061.84 2100.3
1282.12 -1082.31 2140.8
1262.78 -1061.39 2099.5
1310.19 -1096.51 2168.9
1343.58 -1119.65 2214.7
1330.34 -1103.90 2183.5
1355.93 -1110.95 2197.5
1372.42 -1115.09 2205.7
1407.92 -1120.59 2216.5
1370.21 -1086.15 2148.4
1414.11 -1116.40 2208.3
1442.80 -1134.46 2244.0
1409.46 -1086.34 2148.8
1377.12 -1057.24 2091.2
1393.34 -1065.50 2107.6
1439.67 -1075.61 2127.6
1477.40 -1099.59 2175.0
1458.15 -1068.95 2114.4
1467.38 -1071.68 2119.8
1463.44 -1064.82 2106.2
1459.98 -1058.35 2093.4
1479.25 -1068.35 2113.2
1496.47 -1076.80 2129.9
1505.22 -1079.11 2134.5
1544.43 -1095.14 2166.2
1502.14 -1061.29 2099.3
1470.39 -1035.11 2047.5
1475.77 -1035.16 2047.6
1489.82 -1041.27 2059.7
1467.08 -1003.79 1985.5
1443.62 -984.29 1946.9
1498.02 -1017.82 2013.3
1469.83 -988.34 1954.9
1359.95 -911.30 1802.6
1415.78 -945.47 1870.2
1320.05 -875.54 1731.8
1303.39 -861.56 1704.2
1371.94 -903.81 1787.8
1307.40 -852.65 1686.6
1225.39 -796.50 1575.5
1258.95 -812.90 1607.9
1215.82 -782.46 1547.7
1063.18 -681.97 1349.0
1074.74 -687.13 1359.2
1074.20 -684.54 1354.0
1055.59 -666.15 1317.7
1093.98 -688.15 1361.2
1046.66 -656.27 1298.1
1040.35 -646.08 1278.0
1037.21 -642.08 1270.1
1025.78 -633.00 1252.1
1038.54 -638.85 1263.7
