ply
format ascii 1.0
element vertex 2340
property float x
property float y
property float z
end_header
-97.50 939.09 1979.4
-90.19 916.92 1932.6
-86.46 930.71 1961.7
-68.79 968.29 2040.9
-62.68 955.93 2014.9
-55.82 928.57 1957.2
-50.25 919.62 1938.3
-44.18 898.25 1893.3
-37.43 856.29 1804.8
-34.17 893.18 1882.6
-31.30 954.50 2011.8
-25.99 951.10 2004.7
-20.63 943.84 1989.4
-16.08 980.72 2067.1
-10.90 997.02 2101.5
-121.05 957.90 2030.1
-103.67 898.46 1904.1
-101.16 969.00 2053.6
-91.97 929.88 1970.7
-87.54 937.21 1986.2
-72.96 948.54 2010.3
-64.10 897.43 1901.9
-58.61 888.96 1884.0
-52.67 871.52 1847.0
-48.03 874.13 1852.6
-43.46 878.87 1862.6
-38.15 867.82 1839.2
-33.20 863.16 1829.3
-28.99 879.41 1863.7
-25.16 915.70 1940.7
-20.98 954.56 2023.0
-15.71 952.87 2019.4
-10.24 931.55 1974.2
-5.11 929.85 1970.6
0.00 981.06 2079.2
-103.18 889.33 1895.2
-106.95 967.93 2062.7
-98.32 936.63 1996.0
-89.19 896.83 1911.2
-84.68 901.58 1921.3
-79.78 902.51 1923.3
-72.44 874.15 1862.8
-67.62 874.22 1863.0
-64.01 891.27 1899.3
-58.53 882.83 1881.3
-52.75 868.03 1849.8
-47.40 857.88 1828.2
-38.58 872.83 1860.0
-34.97 904.30 1927.1
-29.65 894.57 1906.3
-25.05 906.91 1932.6
-20.93 947.29 2018.7
-15.72 948.16 2020.5
-10.30 932.45 1987.1
-5.18 937.56 1998.0
-101.62 914.54 1959.7
-95.07 900.69 1930.1
-87.97 879.66 1885.0
-71.95 863.42 1850.2
-73.77 948.44 2032.4
-68.11 943.02 2020.8
-60.56 908.42 1946.6
-51.98 850.56 1822.6
-41.59 935.68 2005.0
-37.31 959.40 2055.9
-31.26 937.87 2009.7
-25.43 915.48 1961.8
-20.42 918.89 1969.0
-15.73 943.86 2022.6
-10.58 952.33 2040.7
-5.37 966.29 2070.6
-101.15 952.93 2053.4
-90.00 894.99 1928.5
-72.66 928.96 2001.8
-67.93 935.34 2015.5
-61.55 918.15 1978.5
-53.81 875.71 1887.0
-44.94 893.90 1926.2
-42.72 955.82 2059.6
-36.74 939.44 2024.3
-31.17 929.79 2003.5
-25.71 920.56 1983.7
-20.95 937.42 2020.0
-10.82 968.18 2086.3
-5.37 961.45 2071.8
5.41 969.03 2088.1
10.81 967.76 2085.4
-102.68 961.94 2084.5
-94.24 931.89 2019.3
-86.85 909.37 1970.6
-81.41 905.69 1962.6
-64.11 877.85 1902.2
-62.54 927.75 2010.4
-56.30 911.05 1974.2
-50.15 892.67 1934.4
-45.50 899.84 1949.9
-40.33 897.37 1944.5
-35.62 905.79 1962.8
-31.06 921.32 1996.4
-25.63 912.55 1977.4
-20.91 930.59 2016.5
-16.21 962.04 2084.7
-10.60 943.61 2044.7
-5.25 935.24 2026.6
0.00 952.00 2062.9
-107.85 954.45 2079.9
-101.75 947.89 2065.6
-76.93 907.82 1978.3
-63.96 870.85 1897.7
-62.86 927.20 2020.5
-57.08 918.50 2001.6
-50.25 889.37 1938.1
-45.01 885.24 1929.1
-40.03 885.70 1930.1
-35.49 897.42 1955.6
-31.24 921.64 2008.4
-26.09 923.75 2013.0
-20.60 911.68 1986.7
-15.41 909.19 1981.3
-10.58 936.32 2040.4
-103.95 962.95 2110.4
-84.29 927.14 2031.9
-77.43 908.55 1991.1
-73.56 924.80 2026.8
-67.09 908.28 1990.5
-62.87 922.03 2020.7
-58.33 933.30 2045.4
-52.39 922.15 2020.9
-47.16 922.19 2021.0
-42.20 928.46 2034.8
-36.27 911.90 1998.5
-30.88 905.71 1984.9
-26.17 921.09 2018.6
-21.03 925.27 2027.8
-15.63 916.98 2009.6
-10.67 938.58 2057.0
-5.51 969.31 2124.3
-103.47 953.05 2100.6
-95.87 932.09 2054.4
-89.35 919.80 2027.3
-84.41 923.18 2034.8
-83.07 969.10 2136.0
-63.58 927.19 2043.6
-56.21 894.21 1970.9
-51.55 902.11 1988.3
-47.18 917.44 2022.1
-42.38 926.98 2043.1
-36.60 915.04 2016.8
-30.82 898.96 1981.4
-25.82 903.53 1991.5
-21.21 927.93 2045.2
-16.09 938.69 2069.0
-10.36 906.48 1998.0
-5.05 884.18 1948.8
0.00 911.03 2008.0
5.35 936.24 2063.5
10.93 956.47 2108.1
-105.94 921.72 2043.2
-100.97 924.69 2049.8
-96.01 928.08 2057.3
-91.25 933.92 2070.3
-88.30 960.30 2128.8
-83.18 964.91 2139.0
-74.93 931.28 2064.4
-69.46 929.71 2060.9
-62.93 912.51 2022.8
-55.07 871.05 1930.9
-49.92 868.64 1925.6
-46.74 903.63 2003.1
-42.85 932.04 2066.1
-36.70 912.34 2022.4
-30.74 891.41 1976.0
-25.99 904.59 2005.3
-21.45 932.99 2068.2
-15.87 920.26 2040.0
-9.94 865.17 1917.9
-4.97 865.18 1917.9
0.00 916.58 2031.8
5.38 935.90 2074.7
10.95 952.34 2111.1
-108.41 937.75 2090.8
-102.33 931.72 2077.3
-96.91 931.41 2076.6
-91.82 934.36 2083.2
-80.75 873.10 1946.6
-65.78 875.36 1951.7
-62.28 897.92 2002.0
-56.99 896.34 1998.5
-52.57 909.49 2027.8
-43.31 936.58 2088.2
-34.74 858.47 1914.0
-29.72 856.86 1910.4
-25.79 892.49 1989.9
-20.97 906.84 2021.8
-15.24 879.03 1959.8
-10.07 870.85 1941.6
-5.31 918.33 2047.5
0.00 937.57 2090.4
5.36 927.34 2067.6
10.61 917.92 2046.6
15.85 914.22 2038.3
-100.07 956.21 2144.3
-84.35 906.74 2033.4
-69.84 858.05 1924.2
-66.73 882.95 1980.0
-62.00 888.71 1992.9
-56.11 877.37 1967.5
-51.25 881.49 1976.8
-48.21 921.44 2066.3
-40.93 879.95 1973.3
-29.43 843.77 1892.2
-24.96 858.46 1925.1
-19.81 851.97 1910.6
-14.99 859.31 1927.0
-10.33 888.65 1992.8
-5.38 926.12 2076.9
0.00 934.68 2096.0
5.40 928.57 2082.3
10.75 924.08 2072.3
-94.45 950.04 2142.9
-77.14 942.19 2125.2
-66.15 870.15 1962.7
-63.51 905.05 2041.5
-59.42 923.75 2083.6
-50.90 870.32 1963.1
-45.10 856.99 1933.1
-41.16 879.73 1984.3
-36.41 889.49 2006.4
-30.59 871.69 1966.2
-24.84 849.43 1916.0
-20.04 856.74 1932.5
-15.45 880.67 1986.5
-10.71 915.95 2066.0
0.00 937.44 2114.5
5.29 904.60 2040.5
-104.06 931.10 2112.6
-95.23 899.36 2040.6
-91.31 913.15 2071.9
-77.71 943.62 2141.0
-65.66 858.63 1948.2
-62.66 887.72 2014.2
-61.44 949.46 2154.2
-54.95 934.20 2119.6
-47.37 894.73 2030.1
-42.33 899.61 2041.1
-37.51 910.94 2066.8
-31.48 892.02 2023.9
-26.40 897.70 2036.8
-22.10 939.26 2131.1
-16.45 932.42 2115.6
-10.95 930.82 2111.9
0.00 931.64 2113.8
5.27 896.14 2033.3
11.06 940.10 2133.0
-101.82 905.65 2067.0
-92.29 917.47 2094.0
-87.06 919.56 2098.7
-76.32 859.88 1962.5
-71.24 859.95 1962.7
-66.46 864.03 1972.0
-61.64 868.10 1981.3
-58.39 897.04 2047.3
-54.29 917.55 2094.2
-48.55 911.58 2080.5
-42.76 903.20 2061.4
-37.38 902.44 2059.7
-31.39 884.01 2017.6
-26.31 889.26 2029.6
-22.06 932.22 2127.6
-16.42 925.01 2111.2
-10.54 890.91 2033.4
-5.26 889.32 2029.7
0.00 882.09 2013.2
5.13 867.24 1979.3
10.27 868.04 1981.2
15.59 878.46 2004.9
21.84 922.59 2105.6
-98.87 922.79 2118.6
-94.92 938.04 2153.7
-88.05 924.56 2122.7
-77.96 873.16 2004.7
-73.27 879.22 2018.6
-69.99 904.43 2076.5
-66.20 926.85 2128.0
-58.57 894.57 2053.9
-50.69 851.51 1955.0
-47.27 882.30 2025.7
-43.44 912.29 2094.5
-37.28 894.76 2054.3
-30.77 861.65 1978.3
-25.35 851.69 1955.4
-20.85 875.67 2010.5
-16.03 897.65 2060.9
-10.66 895.27 2055.5
-5.27 885.69 2033.5
0.00 868.13 1993.1
5.42 910.85 2091.2
-78.96 941.92 2175.5
-72.12 926.51 2139.9
-61.79 938.15 2166.8
-53.28 889.75 2055.0
-49.58 919.99 2124.9
-43.58 909.70 2101.1
-35.64 850.15 1963.6
-30.40 846.21 1954.5
-25.91 865.30 1998.6
-20.74 865.72 1999.5
-15.54 864.95 1997.7
-10.29 859.00 1984.0
-5.06 845.10 1951.9
0.00 830.00 1917.0
5.23 872.91 2016.1
-76.37 905.56 2104.1
-66.22 845.57 1964.7
-60.73 840.10 1952.0
-59.23 893.90 2077.0
-55.52 921.61 2141.4
-48.71 898.34 2087.4
-40.40 838.31 1947.9
-30.02 830.47 1929.7
-25.28 839.19 1949.9
-20.01 830.52 1929.8
-15.27 844.77 1962.9
-10.29 853.87 1984.0
-5.08 843.60 1960.2
0.00 834.90 1940.0
5.07 841.62 1955.6
10.54 874.82 2032.7
15.85 876.79 2037.3
21.57 894.95 2079.5
-76.88 906.06 2118.1
-67.09 851.49 1990.5
-51.16 844.18 1973.4
-45.38 832.04 1945.0
-39.71 819.10 1914.8
-35.39 834.08 1949.8
-30.26 832.14 1945.3
-24.76 817.23 1910.4
-19.94 822.36 1922.4
-15.50 852.66 1993.2
-10.75 886.49 2072.3
-5.45 899.48 2102.7
0.00 899.48 2102.7
5.53 912.07 2132.1
21.60 891.18 2083.3
26.12 862.06 2015.2
-72.23 911.26 2143.2
-64.59 882.77 2076.2
-56.62 844.10 1985.3
-50.83 833.59 1960.5
-46.78 852.41 2004.8
-42.58 872.80 2052.7
-35.75 837.62 1970.0
-20.27 831.05 1954.6
-15.37 840.07 1975.8
-10.38 851.43 2002.5
-5.43 889.78 2092.7
5.51 904.26 2126.7
11.11 911.29 2143.3
22.04 903.44 2124.8
26.56 871.33 2049.3
32.48 887.73 2087.9
38.07 892.01 2097.9
44.56 913.48 2148.4
-89.69 913.71 2162.2
-82.16 892.78 2112.6
-78.96 919.31 2175.4
-56.25 916.84 2169.6
-44.20 900.59 2131.1
-24.86 810.38 1917.7
-20.67 842.32 1993.2
-15.70 853.24 2019.1
-10.40 847.80 2006.2
-5.35 872.72 2065.2
0.00 868.83 2056.0
5.09 829.12 1962.0
10.46 852.47 2017.2
16.49 896.06 2120.4
21.98 895.65 2119.4
27.56 898.35 2125.8
-84.03 907.48 2160.7
-78.63 909.87 2166.4
-72.55 904.14 2152.7
-66.00 891.04 2121.5
-61.66 908.13 2162.2
-42.83 867.24 2064.9
-35.27 816.17 1943.3
-30.95 835.56 1989.4
-25.99 842.17 2005.2
-20.88 845.68 2013.5
-15.76 851.12 2026.5
-10.39 841.45 2003.4
-5.14 833.32 1984.1
0.00 804.67 1915.9
4.96 802.73 1911.3
10.59 857.71 2042.2
22.50 911.12 2169.3
27.80 900.64 2144.4
-71.38 883.99 2117.8
-64.11 860.18 2060.8
-59.12 865.24 2072.9
-54.53 878.00 2103.5
-48.39 865.72 2074.1
-40.74 819.94 1964.4
-30.87 828.48 1984.8
-26.57 855.46 2049.5
-21.07 848.17 2032.0
-15.63 838.94 2009.9
-10.34 832.40 1994.2
-5.16 830.48 1989.6
0.00 820.86 1966.6
5.21 839.34 2010.8
10.49 844.34 2022.8
15.52 833.16 1996.0
21.62 870.12 2084.6
27.75 893.59 2140.8
33.99 912.05 2185.0
-68.57 914.22 2203.9
-60.62 881.72 2125.6
-53.63 858.03 2068.5
-49.43 878.76 2118.4
-43.14 862.71 2079.8
-35.70 816.01 1967.2
-31.33 835.58 2014.3
-26.22 839.05 2022.7
-20.22 808.81 1949.8
-15.19 810.36 1953.5
-10.19 815.35 1965.6
-5.13 820.72 1978.5
0.00 819.19 1974.8
5.10 815.36 1965.6
9.96 796.58 1920.3
25.49 815.68 1966.4
32.54 867.76 2091.9
-60.30 871.68 2114.6
-52.81 839.73 2037.1
-48.18 851.20 2064.9
-44.77 889.73 2158.4
-32.53 861.98 2091.1
-25.48 810.18 1965.4
0.00 814.05 1974.8
5.37 853.69 2070.9
10.58 840.72 2039.5
15.26 808.70 1961.8
25.69 817.04 1982.0
31.58 836.83 2030.1
37.65 855.09 2074.4
-66.62 877.16 2141.3
-59.54 855.24 2087.8
-54.06 854.16 2085.2
-47.86 840.18 2051.1
-43.08 850.83 2077.1
-38.74 874.37 2134.5
-32.61 858.86 2096.7
-26.20 827.81 2020.9
-20.56 812.29 1983.0
-15.42 812.30 1983.0
-10.26 810.80 1979.3
-4.99 788.44 1924.8
0.00 807.78 1972.0
5.45 861.60 2103.4
11.00 868.80 2120.9
38.20 862.24 2104.9
43.68 862.58 2105.8
51.03 895.89 2187.1
-71.58 864.42 2123.7
-65.50 856.95 2105.3
-62.55 892.81 2193.4
-56.34 884.57 2173.2
-49.57 864.64 2124.2
-42.43 832.65 2045.6
-36.35 815.34 2003.1
-31.65 828.19 2034.7
-26.28 825.20 2027.3
-20.64 810.14 1990.3
-15.51 811.67 1994.1
-10.40 816.58 2006.2
-5.11 801.88 1970.0
0.00 780.02 1916.3
5.02 787.93 1935.8
10.40 816.20 2005.2
16.30 853.13 2096.0
22.44 880.64 2163.5
34.09 891.90 2191.2
39.06 876.03 2152.2
44.31 869.58 2136.4
51.16 892.53 2192.8
55.84 876.66 2153.7
60.78 867.56 2131.4
-68.41 889.36 2199.0
-55.84 871.11 2153.8
-48.14 834.42 2063.1
-40.60 791.73 1957.6
-35.49 791.01 1955.8
-31.55 820.28 2028.2
-26.34 821.81 2031.9
-20.81 811.71 2007.0
-15.49 805.72 1992.2
-10.31 803.86 1987.6
-5.22 814.37 2013.5
0.00 816.62 2019.1
5.16 804.24 1988.5
10.41 811.74 2007.0
15.41 801.23 1981.1
20.02 780.59 1930.0
26.36 822.56 2033.8
33.24 864.15 2136.6
56.15 875.98 2165.9
60.26 854.56 2112.9
-76.54 847.43 2108.8
-70.67 842.65 2096.9
-55.39 858.47 2136.3
-47.69 821.24 2043.6
-40.79 790.34 1966.7
-36.28 803.42 1999.3
-32.28 834.03 2075.5
-26.97 835.92 2080.2
-21.30 825.50 2054.2
-15.84 818.43 2036.7
-10.38 804.65 2002.3
-5.17 802.04 1995.9
0.00 820.69 2042.3
5.30 821.81 2045.0
10.52 815.46 2029.3
15.34 792.70 1972.6
19.78 766.59 1907.6
25.95 804.60 2002.2
32.95 851.18 2118.1
56.20 871.15 2167.8
-73.40 869.47 2177.7
-55.92 861.11 2156.8
-49.68 850.04 2129.0
-44.01 847.12 2121.7
-36.86 810.82 2030.8
-30.85 791.94 1983.5
-25.79 794.19 1989.2
-20.41 785.68 1967.9
-15.47 794.23 1989.3
-10.32 794.98 1991.1
-5.07 780.16 1954.0
0.00 785.72 1967.9
5.16 794.62 1990.2
10.32 794.61 1990.2
15.20 780.14 1954.0
19.87 764.92 1915.8
25.99 800.49 2004.9
32.98 846.44 2120.0
38.32 843.07 2111.6
43.27 833.03 2086.4
48.75 834.10 2089.1
54.98 846.66 2120.6
-60.82 845.91 2132.5
-55.22 844.86 2129.9
-44.53 851.58 2146.8
-36.52 798.16 2012.2
-30.84 786.39 1982.5
-26.03 796.37 2007.7
-20.71 791.97 1996.6
-15.79 805.26 2030.1
-10.43 797.53 2010.6
-5.08 776.52 1957.6
0.00 773.57 1950.2
5.05 772.46 1947.4
10.17 778.35 1962.2
15.12 770.97 1943.6
20.00 765.05 1928.7
26.40 807.80 2036.5
32.66 832.85 2099.6
37.14 811.80 2046.6
42.19 806.97 2034.4
47.64 809.88 2041.7
53.68 821.27 2070.4
60.50 841.49 2121.4
-67.64 856.83 2174.3
-59.86 827.20 2099.1
-55.15 838.25 2127.1
-44.82 851.53 2160.8
-38.04 825.91 2095.8
-33.14 839.50 2130.3
-27.51 836.23 2122.0
-21.58 820.12 2081.1
-16.26 823.80 2090.5
-10.60 805.85 2044.9
-5.20 789.73 2004.0
0.00 793.03 2012.4
5.22 793.39 2013.3
10.52 799.62 2029.1
15.81 801.07 2032.8
21.15 803.62 2039.3
26.58 808.00 2050.4
31.34 794.04 2015.0
36.35 789.25 2002.8
42.02 798.38 2026.0
46.99 793.57 2013.8
52.42 796.83 2022.0
58.59 809.61 2054.5
64.52 817.25 2073.8
-61.38 842.52 2152.1
-55.12 832.37 2126.2
-49.96 838.25 2141.2
-44.45 839.02 2143.2
-38.42 828.85 2117.2
-32.27 812.12 2074.5
-25.84 780.43 1993.5
-10.00 754.96 1928.5
-5.20 785.95 2007.6
0.00 771.01 1969.5
4.98 751.68 1920.1
10.30 777.56 1986.2
15.92 801.24 2046.7
21.44 809.25 2067.1
27.16 820.16 2095.0
31.34 788.79 2014.9
35.53 766.52 1958.0
41.73 787.63 2011.9
47.33 794.15 2028.6
54.09 816.70 2086.2
66.02 830.81 2122.2
-60.39 823.55 2117.7
-53.65 804.76 2069.4
-47.01 783.42 2014.5
-40.34 756.28 1944.7
-36.06 772.62 1986.7
-31.34 783.53 2014.8
-25.72 771.59 1984.1
-20.06 752.40 1934.8
-5.03 754.61 1940.4
0.00 779.98 2005.7
4.99 748.81 1925.5
10.12 759.32 1952.5
16.02 800.99 2059.7
31.75 793.67 2040.9
35.01 750.16 1929.0
39.83 746.86 1920.5
46.18 769.65 1979.1
54.06 810.92 2085.2
-61.06 827.06 2141.0
-53.04 790.36 2046.0
-45.35 750.78 1943.5
-36.65 780.03 2019.3
-32.20 799.52 2069.7
-26.76 797.38 2064.2
-21.41 797.41 2064.2
-15.13 751.66 1945.8
0.00 793.48 2054.1
5.35 797.80 2065.3
10.25 763.92 1977.6
15.23 756.34 1957.9
21.35 795.24 2058.6
27.23 811.44 2100.6
32.14 798.08 2066.0
36.54 777.87 2013.7
40.95 762.71 1974.4
46.85 775.64 2007.9
52.88 787.84 2039.5
59.89 811.21 2100.0
66.92 830.97 2151.1
71.18 815.78 2111.8
75.73 805.99 2086.5
-62.12 835.83 2178.3
-55.49 821.20 2140.2
-48.68 800.47 2086.2
-43.83 810.90 2113.3
-37.54 793.74 2068.6
-30.81 760.10 1981.0
-25.24 747.23 1947.4
-19.92 737.22 1921.3
-15.12 745.83 1943.8
-10.10 747.27 1947.5
-4.94 731.16 1905.5
0.00 745.85 1943.8
5.18 767.34 1999.8
10.10 747.63 1948.5
19.86 734.71 1914.8
26.39 781.26 2036.1
32.44 800.22 2085.5
37.32 789.08 2056.5
42.36 783.68 2042.4
47.68 784.00 2043.2
52.95 783.59 2042.2
59.38 798.94 2082.2
65.59 808.92 2108.2
70.32 800.62 2086.6
75.42 797.34 2078.0
-60.90 813.81 2135.4
-55.63 817.78 2145.8
-49.98 816.40 2142.2
-43.79 804.69 2111.4
-36.51 766.63 2011.6
-30.84 755.62 1982.7
-26.00 764.54 2006.1
-20.41 749.96 1967.8
-15.39 754.25 1979.1
-10.42 766.02 2010.0
-5.21 765.67 2009.0
0.00 750.71 1969.8
5.05 741.81 1946.4
10.28 755.33 1981.9
15.41 755.32 1981.9
20.37 748.54 1964.1
26.24 771.31 2023.8
31.58 773.78 2030.3
35.62 748.11 1963.0
41.99 771.58 2024.5
49.11 802.16 2104.8
51.85 762.24 2000.0
62.74 768.55 2016.6
69.16 782.02 2051.9
77.12 809.72 2124.6
-65.12 792.29 2093.1
-59.91 795.17 2100.7
-48.65 789.25 2085.1
-40.44 737.97 1949.6
-35.84 747.55 1974.9
-32.22 784.04 2071.3
-27.87 813.80 2150.0
-16.25 790.83 2089.3
-10.70 780.93 2063.1
-5.18 756.16 1997.7
4.99 728.19 1923.8
10.43 761.46 2011.7
15.76 767.11 2026.6
20.99 766.03 2023.8
26.35 769.55 2033.1
30.96 753.25 1990.0
35.37 737.64 1948.8
42.05 767.34 2027.2
49.26 799.16 2111.3
52.21 762.31 2013.9
55.62 738.20 1950.2
63.14 768.22 2029.6
69.41 779.49 2059.3
76.88 801.72 2118.0
-50.94 820.75 2183.3
-42.10 763.09 2029.9
-37.30 772.62 2055.3
-31.84 769.49 2046.9
-26.03 754.73 2007.7
-21.37 774.81 2061.1
-15.97 772.01 2053.6
-10.63 770.62 2049.9
-5.21 755.84 2010.6
0.00 729.81 1941.4
5.18 751.62 1999.4
10.71 776.25 2064.9
15.97 772.01 2053.6
21.05 763.20 2030.2
26.24 761.07 2024.5
31.65 764.91 2034.7
37.23 771.22 2051.5
41.58 753.59 2004.6
45.48 732.80 1949.3
52.01 754.22 2006.3
60.09 792.16 2107.2
65.20 787.88 2095.8
68.80 767.43 2041.4
76.50 792.34 2107.7
-63.86 766.34 2052.7
-61.67 807.29 2162.4
-56.11 808.04 2164.4
-50.83 813.33 2178.6
-44.60 802.88 2150.6
-38.59 793.83 2126.3
-32.20 772.87 2070.2
-26.08 751.22 2012.2
-21.30 766.62 2053.5
-15.54 746.01 1998.2
-10.06 724.33 1940.2
-5.20 748.12 2003.9
0.00 761.76 2040.4
5.28 760.01 2035.8
10.53 757.91 2030.1
15.85 760.70 2037.6
21.14 761.03 2038.5
26.63 766.95 2054.3
32.33 776.02 2078.6
37.23 765.85 2051.4
40.72 732.95 1963.2
58.14 761.14 2038.8
65.52 786.26 2106.1
70.79 784.11 2100.3
-66.86 796.75 2149.1
-60.92 791.94 2136.1
-54.68 781.91 2109.1
-48.82 775.70 2092.3
-43.51 777.83 2098.0
-38.18 779.95 2103.7
-32.13 765.72 2065.4
-26.32 752.89 2030.8
-21.25 759.86 2049.6
-15.35 731.72 1973.7
-9.94 710.87 1917.4
-5.14 735.56 1984.0
0.00 748.43 2018.7
5.22 746.34 2013.1
10.52 752.24 2029.0
16.05 765.09 2063.7
21.35 763.34 2059.0
26.81 766.79 2068.3
31.87 759.47 2048.5
35.80 731.29 1972.5
40.25 719.44 1940.5
62.95 750.19 2023.5
70.15 771.68 2081.4
76.77 784.12 2115.0
82.35 785.10 2117.6
-56.06 796.10 2162.4
-46.91 740.19 2010.6
-36.42 738.87 2007.0
-32.39 766.54 2082.1
-26.21 744.45 2022.2
-20.85 740.33 2011.0
-15.63 739.65 2009.1
-10.52 747.26 2029.8
-5.28 749.69 2036.4
0.00 740.71 2012.0
5.32 755.22 2051.4
10.95 777.67 2112.4
16.28 770.40 2092.6
21.14 750.35 2038.2
25.96 737.20 2002.5
30.17 714.03 1939.5
35.33 716.77 1947.0
41.70 740.22 2010.7
49.26 777.14 2111.0
58.72 758.06 2059.1
61.90 732.45 1989.6
68.13 744.14 2021.3
73.50 745.46 2024.9
78.48 742.98 2018.1
86.08 763.97 2075.2
-48.11 753.78 2062.0
-35.31 711.29 1945.8
-32.31 759.38 2077.3
-26.84 757.00 2070.8
-21.69 764.57 2091.5
-16.45 773.17 2115.1
-10.95 772.15 2112.3
-5.43 764.95 2092.6
0.00 759.80 2078.5
10.62 748.80 2048.4
19.91 701.74 1919.7
25.53 719.92 1969.4
30.36 713.37 1951.5
36.39 732.91 2004.9
42.34 746.27 2041.5
49.21 770.94 2109.0
58.58 750.95 2054.3
61.89 727.22 1989.3
68.31 740.89 2026.7
73.86 743.92 2035.0
79.06 743.17 2033.0
87.40 770.20 2106.9
-49.45 769.18 2119.2
-41.27 722.15 1989.6
-35.63 712.63 1963.4
-31.14 726.64 2002.0
-25.20 705.52 1943.8
-19.83 693.94 1911.9
-15.65 730.11 2011.5
-10.82 757.08 2085.8
-5.38 752.65 2073.6
0.00 749.92 2066.1
5.42 758.11 2088.7
10.23 716.14 1973.0
20.08 702.81 1936.3
26.15 732.13 2017.1
31.54 735.86 2027.4
37.17 743.33 2048.0
42.32 740.57 2040.3
46.55 724.16 1995.1
50.68 709.45 1954.6
64.72 697.03 1920.4
72.22 722.21 1989.8
78.61 733.74 2021.5
-48.22 744.66 2066.4
-42.16 732.50 2032.6
-38.02 754.91 2094.8
-33.17 768.49 2132.5
-26.90 747.84 2075.2
-20.66 718.03 1992.5
-15.88 735.67 2041.4
-10.59 735.68 2041.5
-5.09 707.21 1962.5
0.00 715.35 1985.0
5.28 734.33 2037.7
10.46 727.21 2017.9
15.49 717.70 1991.6
21.09 732.94 2033.9
26.95 749.20 2079.0
32.16 745.10 2067.6
37.50 744.74 2066.6
42.88 745.04 2067.4
47.40 732.12 2031.6
52.67 732.08 2031.5
56.75 717.13 1990.0
59.80 692.68 1922.1
66.55 711.60 1974.6
75.66 751.19 2084.5
-49.38 757.09 2116.1
-44.67 770.60 2153.9
-38.42 757.50 2117.2
-32.03 736.65 2059.0
-26.95 743.75 2078.8
-21.47 740.73 2070.4
-15.80 726.94 2031.8
-10.11 697.64 1949.9
-4.95 683.16 1909.5
0.00 705.74 1972.6
5.28 728.30 2035.6
10.52 725.60 2028.1
15.64 719.53 2011.1
21.35 736.69 2059.1
36.94 728.20 2035.3
40.40 696.84 1947.7
45.51 697.82 1950.4
51.52 710.91 1987.0
56.58 709.86 1984.1
60.90 700.38 1957.6
66.67 707.74 1978.1
74.73 736.63 2058.9
85.04 733.47 2050.1
89.60 727.34 2032.9
-66.40 758.10 2134.4
-57.76 719.34 2025.3
-51.90 711.02 2001.8
-47.13 717.42 2019.9
-42.74 731.85 2060.5
-36.75 719.16 2024.8
-30.49 696.10 1959.8
-25.66 703.15 1979.7
-20.32 695.81 1959.0
-14.85 678.08 1909.1
-10.08 690.81 1944.9
-5.26 719.94 2026.9
0.00 726.97 2046.7
5.36 733.99 2066.5
10.83 742.02 2089.1
16.40 749.04 2108.9
21.20 725.93 2043.8
25.77 706.16 1988.2
31.61 721.87 2032.4
36.11 706.78 1989.9
38.79 664.25 1870.2
65.23 687.46 1935.5
70.93 694.10 1954.2
76.03 694.37 1955.0
83.00 710.69 2000.9
-63.47 719.28 2040.0
-51.99 707.08 2005.4
-46.35 700.47 1986.6
-41.25 701.17 1988.6
-36.91 717.16 2034.0
-31.89 722.84 2050.1
-26.62 724.19 2053.9
-20.93 711.58 2018.1
-15.72 712.59 2021.0
-10.95 744.85 2112.5
21.39 727.20 2062.4
25.51 693.93 1968.1
30.64 694.58 1969.9
36.26 704.52 1998.1
40.42 687.20 1949.0
43.67 659.91 1871.6
65.76 687.98 1951.2
72.90 708.20 2008.6
73.38 665.27 1886.8
88.38 707.01 2005.2
-65.48 736.69 2104.8
-58.55 718.58 2053.1
-54.70 738.44 2109.8
-49.67 745.09 2128.8
-42.45 716.39 2046.8
-36.31 700.24 2000.7
-32.62 733.96 2097.0
-21.83 736.65 2104.7
-16.07 723.12 2066.1
-10.73 724.45 2069.9
-5.26 709.59 2027.4
0.00 721.49 2061.4
16.03 721.14 2060.4
20.92 705.93 2016.9
26.07 703.92 2011.2
30.74 691.68 1976.2
35.73 689.01 1968.6
41.42 698.89 1996.8
46.48 697.20 1992.0
50.10 676.36 1932.4
53.57 657.49 1878.5
57.71 649.19 1854.8
64.64 671.26 1917.9
71.59 690.36 1972.5
-61.56 749.92 2158.6
-55.06 737.83 2123.8
-50.22 747.71 2152.3
-43.17 723.14 2081.5
-36.37 696.27 2004.2
-32.21 719.27 2070.4
-21.74 728.17 2096.0
-16.02 715.39 2059.2
-10.70 716.71 2063.0
-5.13 687.84 1979.9
0.00 684.89 1971.4
5.40 723.28 2081.9
10.79 722.95 2081.0
15.38 686.84 1977.0
20.25 678.29 1952.4
25.11 673.02 1937.3
29.49 658.56 1895.6
34.86 667.40 1921.1
41.21 690.33 1987.1
47.38 705.39 2030.4
52.37 701.74 2019.9
56.01 682.34 1964.1
60.28 673.11 1937.5
64.50 664.86 1913.8
68.19 652.67 1878.7
73.02 652.29 1877.6
82.30 689.28 1984.1
-56.09 745.94 2163.3
-49.75 735.23 2132.3
-42.19 701.37 2034.1
-35.18 668.49 1938.7
-30.23 670.14 1943.5
-25.64 681.90 1977.6
-21.02 698.87 2026.8
-16.36 725.29 2103.4
-10.84 720.73 2090.2
-5.15 684.56 1985.3
0.00 659.46 1912.5
5.10 678.04 1966.4
10.69 710.63 2060.9
15.93 706.38 2048.6
20.20 671.49 1947.4
24.10 641.15 1859.4
29.19 647.00 1876.4
35.54 675.33 1958.5
41.13 683.77 1983.0
46.42 686.02 1989.5
52.75 701.62 2034.8
58.03 701.58 2034.7
62.59 693.71 2011.8
67.10 686.49 1990.9
71.40 678.29 1967.1
77.12 683.77 1983.0
83.66 695.43 2016.8
-54.27 716.32 2093.2
-48.53 711.83 2080.0
-41.50 684.68 2000.7
-30.11 662.40 1935.6
-25.69 678.28 1982.0
-21.21 699.99 2045.4
-15.53 683.17 1996.3
-5.00 659.88 1928.2
0.00 692.26 2022.8
4.99 658.90 1925.4
9.72 641.74 1875.2
15.10 664.39 1941.4
19.92 657.26 1920.6
24.18 638.46 1865.6
29.80 655.60 1915.7
35.90 676.94 1978.1
41.14 678.85 1983.7
45.75 671.05 1960.8
51.15 675.22 1973.0
57.45 689.41 2014.5
63.17 694.87 2030.5
66.64 676.69 1977.4
69.91 659.16 1926.1
76.00 668.81 1954.3
83.02 684.93 2001.4
90.70 704.27 2057.9
-52.32 685.42 2018.1
-42.53 696.43 2050.5
-39.19 733.43 2159.5
-32.92 718.67 2116.0
-27.19 712.26 2097.2
-20.92 685.27 2017.7
-5.28 692.06 2037.7
5.32 697.52 2053.8
19.41 635.75 1871.9
25.12 658.24 1938.1
30.15 658.22 1938.1
35.41 662.70 1951.2
40.94 670.38 1973.9
45.88 667.78 1966.2
51.49 674.49 1986.0
58.09 691.81 2036.9
62.37 680.83 2004.6
64.18 646.71 1904.2
67.43 630.91 1857.6
73.60 642.74 1892.5
81.36 666.14 1961.4
89.90 692.74 2039.7
-68.73 687.28 2039.2
-63.65 689.57 2046.0
-60.65 716.76 2126.6
-53.39 694.13 2059.5
-40.30 654.93 1943.2
-38.67 718.19 2130.9
-33.56 727.16 2157.5
-26.85 698.12 2071.4
-19.99 649.60 1927.4
-14.97 648.65 1924.6
-10.96 712.22 2113.2
0.00 690.19 2047.8
5.33 693.06 2056.3
9.99 649.30 1926.5
19.90 646.72 1918.8
24.93 648.30 1923.5
28.98 627.84 1862.8
34.20 635.16 1884.5
39.60 643.44 1909.1
44.85 647.87 1922.3
50.96 662.52 1965.7
58.08 686.43 2036.7
63.09 683.51 2028.0
64.29 642.91 1907.5
74.61 646.63 1918.6
84.57 687.10 2038.7
-69.87 693.31 2073.0
-63.70 684.80 2047.6
-59.86 701.97 2098.9
-55.06 710.26 2123.7
-47.59 682.08 2039.4
-35.09 646.63 1933.4
-31.63 679.95 2033.1
-26.17 675.22 2018.9
-20.12 648.91 1940.3
-15.59 670.49 2004.8
0.00 677.81 2026.7
5.00 645.45 1929.9
10.13 653.37 1953.6
15.53 667.95 1997.2
21.78 702.51 2100.5
30.30 651.41 1947.7
33.90 624.74 1868.0
39.21 632.33 1890.7
44.29 634.83 1898.2
49.11 633.53 1894.3
54.75 642.05 1919.7
61.93 665.78 1990.7
65.59 650.83 1946.0
69.32 638.73 1909.8
78.39 674.17 2015.8
-73.47 723.41 2179.9
-67.21 716.86 2160.2
-62.31 725.09 2185.0
-56.41 721.99 2175.6
-50.15 713.21 2149.2
-43.24 691.84 2084.8
-36.70 671.08 2022.2
-31.89 680.24 2049.8
-27.20 696.33 2098.3
-21.60 691.31 2083.2
-15.77 672.74 2027.2
-10.86 695.11 2094.6
0.00 683.15 2058.6
5.04 645.67 1945.7
10.13 648.50 1954.2
15.45 659.20 1986.4
21.53 689.10 2076.5
31.04 662.29 1995.7
34.60 632.66 1906.5
39.82 637.04 1919.7
45.21 642.99 1937.6
50.53 646.74 1948.9
53.52 622.77 1876.6
65.48 644.71 1942.8
74.09 677.40 2041.3
95.44 678.71 2045.2
100.45 676.74 2039.3
-89.49 710.31 2157.3
-79.38 720.13 2187.1
-68.66 670.80 2037.3
-64.30 680.54 2066.9
-61.01 704.35 2139.2
-55.46 704.40 2139.3
-49.43 697.56 2118.6
-43.43 689.46 2094.0
-37.64 682.93 2074.1
-31.73 671.70 2040.0
-26.30 667.97 2028.7
-21.60 685.81 2082.9
-16.26 688.33 2090.5
-10.51 667.07 2026.0
-5.11 648.94 1970.9
0.00 654.88 1989.0
5.21 662.07 2010.8
10.07 639.55 1942.4
14.78 625.78 1900.6
19.77 627.64 1906.2
24.37 618.87 1879.6
39.63 629.12 1910.7
46.73 659.41 2002.7
52.44 665.94 2022.5
56.02 646.83 1964.5
58.75 621.77 1888.4
64.83 633.29 1923.4
70.91 643.24 1953.6
76.34 646.31 1962.9
84.57 671.25 2038.7
89.76 670.56 2036.6
93.21 657.68 1997.4
100.16 669.48 2033.3
-86.55 727.05 2225.7
-73.65 662.87 2029.2
-63.94 671.36 2055.2
-60.13 688.79 2108.5
-54.15 682.31 2088.7
-49.32 690.42 2113.5
-44.27 697.29 2134.6
-37.71 678.69 2077.6
-31.26 656.36 2009.3
-24.74 623.47 1908.6
-15.04 631.89 1934.4
-9.92 625.07 1913.5
-5.07 639.05 1956.3
0.00 676.62 2071.3
5.35 673.51 2061.8
10.19 642.14 1965.7
14.94 627.54 1921.0
19.91 627.22 1920.1
24.48 616.95 1888.6
38.93 613.16 1877.0
45.19 632.68 1936.8
49.89 628.61 1924.3
56.04 641.92 1965.1
61.90 649.94 1989.6
67.40 653.31 1999.9
72.65 653.87 2001.7
76.65 643.89 1971.1
83.06 654.07 2002.2
-76.81 685.84 2116.3
-70.28 675.73 2085.1
-66.71 694.89 2144.2
-61.48 698.63 2155.8
-55.40 692.52 2136.9
-50.53 701.80 2165.6
-44.66 697.83 2153.3
-37.44 668.58 2063.0
-31.65 659.36 2034.6
-25.62 640.58 1976.6
-14.69 612.25 1889.2
-9.79 611.95 1888.3
-5.07 633.53 1954.9
0.00 664.36 2050.0
5.23 654.19 2018.6
10.47 654.18 2018.6
16.03 668.04 2061.4
21.50 671.73 2072.8
26.61 665.24 2052.7
31.01 646.10 1993.7
35.56 634.98 1959.4
40.30 629.71 1943.1
44.67 620.43 1914.5
49.48 618.55 1908.7
55.87 634.84 1958.9
61.62 641.89 1980.7
67.01 644.30 1988.1
73.88 659.65 2035.5
79.56 662.98 2045.8
84.14 657.38 2028.5
94.04 691.50 2133.8
-79.26 701.98 2183.6
-74.63 711.82 2214.2
-55.54 688.72 2142.3
-49.55 682.64 2123.4
-42.86 664.32 2066.4
-36.12 639.87 1990.4
-30.65 633.46 1970.5
-26.00 644.81 2005.7
-20.80 644.83 2005.8
-15.46 639.02 1987.8
-10.23 634.44 1973.5
-5.00 620.37 1929.7
0.00 616.39 1917.4
4.98 617.31 1920.2
10.14 628.63 1955.4
15.90 657.39 2044.9
21.79 675.43 2101.0
32.15 664.37 2066.6
36.24 642.01 1997.0
40.49 627.60 1952.2
44.97 619.61 1927.4
49.89 618.65 1924.4
56.02 631.46 1964.2
61.31 633.56 1970.8
65.55 625.25 1944.9
71.11 629.79 1959.0
77.36 639.52 1989.3
82.39 638.54 1986.3
87.70 639.70 1989.9
95.60 658.59 2048.6
104.18 679.92 2115.0
111.08 688.70 2142.3
-88.81 682.75 2141.0
-75.48 663.14 2079.5
-55.26 679.73 2131.6
-47.67 651.52 2043.1
-42.12 647.61 2030.8
-36.22 636.40 1995.7
-30.50 625.18 1960.5
-25.69 631.89 1981.5
-20.58 632.82 1984.4
-15.33 628.58 1971.1
-10.45 642.56 2015.0
-5.25 645.61 2024.5
0.00 632.24 1982.6
5.08 625.25 1960.7
9.97 613.40 1923.5
15.09 618.85 1940.7
21.12 649.53 2036.8
26.97 663.48 2080.6
31.62 648.27 2032.9
35.44 622.73 1952.8
40.58 623.91 1956.5
46.36 633.60 1986.9
49.51 608.96 1909.6
53.48 597.99 1875.2
60.08 615.87 1931.3
66.11 625.54 1961.6
71.71 630.04 1975.7
77.79 637.88 2000.3
83.28 640.25 2007.7
89.36 646.56 2027.5
95.85 654.99 2054.0
102.52 663.71 2081.3
110.13 677.29 2123.9
-90.89 693.07 2191.2
-77.96 679.33 2147.8
-73.33 688.13 2175.6
-66.12 672.21 2125.2
-63.25 701.50 2217.8
-49.89 676.26 2138.0
-44.54 679.31 2147.7
-37.47 653.10 2064.9
-30.83 626.90 1982.0
-26.89 656.17 2074.5
-22.34 681.52 2154.7
-16.19 658.31 2081.3
-10.73 654.70 2069.9
-5.42 661.64 2091.8
0.00 652.30 2062.3
5.25 639.93 2023.2
10.22 623.34 1970.7
15.52 631.17 1995.5
21.79 664.63 2101.3
27.19 663.40 2097.4
31.25 635.34 2008.7
35.17 613.00 1938.1
40.45 616.89 1950.4
47.06 637.97 2017.0
51.25 625.27 1976.8
54.99 609.85 1928.1
61.46 624.88 1975.6
66.58 624.83 1975.5
70.83 617.25 1951.5
77.14 627.44 1983.7
83.23 634.61 2006.4
91.74 658.35 2081.4
100.63 682.08 2156.5
-96.76 688.73 2195.5
-71.10 661.76 2109.5
-63.47 639.97 2040.0
-59.87 658.56 2099.3
-56.28 681.05 2171.0
-50.99 685.57 2185.4
-38.57 666.79 2125.5
-31.76 640.48 2041.7
-27.60 668.03 2129.5
-10.63 642.93 2049.5
-5.16 624.38 1990.4
0.00 639.05 2037.1
5.36 648.93 2068.6
10.32 624.08 1989.4
15.47 623.77 1988.4
20.51 620.46 1977.9
24.34 589.02 1877.6
29.52 595.28 1897.6
35.08 606.33 1932.8
39.55 598.23 1907.0
45.05 605.68 1930.7
51.73 625.99 1995.5
58.56 644.20 2053.5
63.05 635.78 2026.7
65.67 611.20 1948.3
70.75 611.45 1949.1
78.05 629.64 2007.1
83.80 633.77 2020.3
91.93 654.34 2085.8
-89.88 674.11 2166.8
-80.32 688.48 2213.0
-71.09 656.18 2109.1
-64.70 647.02 2079.7
-59.59 650.04 2089.4
-54.59 655.13 2105.8
-48.47 646.26 2077.3
-42.65 639.76 2056.4
-38.24 655.53 2107.1
-33.48 669.51 2152.0
-25.64 615.47 1978.3
-9.97 597.99 1922.1
-4.88 585.81 1883.0
0.00 607.50 1952.7
5.25 630.37 2026.2
10.29 617.30 1984.2
14.59 583.72 1876.2
29.88 597.63 1921.0
36.06 618.10 1986.8
41.24 618.67 1988.6
45.71 609.43 1958.9
51.13 613.55 1972.1
58.88 642.32 2064.6
64.44 644.35 2071.1
67.71 625.00 2008.9
73.64 631.18 2028.8
80.52 644.19 2070.6
85.57 641.75 2062.8
91.49 645.85 2075.9
-80.10 635.46 2059.7
-78.51 667.34 2163.0
-74.71 683.89 2216.7
-66.29 657.42 2130.9
-59.77 646.57 2095.7
-55.92 665.47 2157.0
-50.56 668.46 2166.7
-43.63 649.04 2103.7
-38.53 654.96 2122.9
-32.91 652.63 2115.4
-15.29 606.70 1966.5
-10.78 641.49 2079.3
-5.47 650.34 2108.0
0.00 615.56 1995.2
4.92 584.90 1895.8
10.06 598.45 1939.8
14.88 590.19 1913.0
19.77 588.11 1906.2
26.52 631.13 2045.7
32.18 638.19 2068.6
36.31 617.23 2000.6
41.59 618.68 2005.3
46.25 611.57 1982.3
51.34 610.95 1980.3
58.51 633.01 2051.8
65.97 654.18 2120.4
75.46 641.41 2079.0
80.03 634.87 2057.8
85.19 633.63 2053.8
91.60 641.23 2078.4
-93.10 646.24 2112.4
-79.64 626.49 2047.8
-78.29 659.87 2157.0
-69.35 681.91 2229.0
-59.51 638.38 2086.7
-53.24 628.19 2053.4
-31.70 623.34 2037.5
-25.31 597.33 1952.5
-20.68 609.92 1993.7
-16.17 635.97 2078.8
-10.98 647.97 2118.1
-5.51 650.61 2126.7
0.00 608.49 1989.0
4.91 579.23 1893.4
10.05 592.98 1938.3
15.27 600.57 1963.1
20.87 615.77 2012.8
27.14 640.62 2094.0
31.98 628.90 2055.7
35.97 606.35 1982.0
40.99 604.57 1976.2
46.55 610.38 1995.2
52.64 621.17 2030.5
59.05 633.41 2070.5
65.45 643.60 2103.8
80.42 632.62 2067.9
82.92 611.52 1998.9
90.20 626.07 2046.5
99.68 653.47 2136.1
-96.20 662.10 2182.8
-90.00 658.11 2169.6
-79.67 665.78 2194.9
-70.79 637.11 2100.4
-66.81 651.37 2147.4
-59.36 631.40 2081.5
-52.11 609.68 2009.9
-50.38 654.98 2159.3
-38.74 647.50 2134.6
-31.32 610.67 2013.2
-25.58 598.50 1973.1
-20.12 588.64 1940.6
-15.23 593.88 1957.9
-10.36 606.08 1998.1
-5.19 607.54 2002.9
0.00 591.00 1948.3
5.01 586.35 1933.0
10.28 601.15 1981.8
15.67 611.01 2014.3
20.92 611.87 2017.1
26.54 621.14 2047.7
32.46 633.02 2086.9
37.94 634.15 2090.6
42.70 624.54 2058.9
47.97 623.64 2056.0
50.94 596.04 1965.0
61.15 596.25 1965.6
69.05 621.44 2048.7
75.85 633.86 2089.7
79.44 619.59 2042.6
84.48 617.79 2036.7
94.26 648.76 2138.8
100.96 656.23 2163.4
-96.31 657.20 2185.3
-90.50 656.12 2181.7
-70.32 627.51 2086.5
-63.16 610.57 2030.2
-59.40 626.45 2083.0
-55.05 638.58 2123.4
-49.30 635.45 2113.0
-43.05 624.26 2075.7
-37.39 619.68 2060.5
-32.07 619.99 2061.6
-26.91 624.33 2076.0
-21.75 630.69 2097.1
-16.07 621.20 2065.6
-10.68 619.48 2059.8
-5.29 613.72 2040.7
0.00 590.40 1963.1
5.14 596.44 1983.2
10.72 621.49 2066.5
15.92 615.72 2047.4
20.73 601.31 1999.4
26.27 609.36 2026.2
32.16 621.72 2067.3
37.92 628.32 2089.2
43.03 623.97 2074.8
47.47 611.84 2034.5
49.29 571.79 1901.3
60.10 580.92 1931.6
67.45 601.89 2001.4
73.33 607.60 2020.3
77.48 599.20 1992.4
83.20 603.17 2005.6
-75.18 665.09 2230.7
-67.86 650.29 2181.1
-56.26 646.95 2169.9
-47.82 611.00 2049.3
-42.25 607.32 2037.0
-37.16 610.49 2047.6
-32.54 623.66 2091.8
-27.81 639.68 2145.5
-10.96 630.00 2113.1
-5.33 612.87 2055.6
0.00 602.30 2020.1
5.39 620.01 2079.5
10.95 629.72 2112.1
15.86 607.99 2039.2
20.49 589.12 1975.9
25.81 593.68 1991.2
31.63 606.23 2033.3
37.28 612.49 2054.3
42.94 617.32 2070.5
48.11 614.71 2061.8
51.89 596.68 2001.3
56.80 593.79 1991.6
63.33 606.88 2035.5
68.86 609.12 2043.0
73.42 603.07 2022.7
75.97 582.46 1953.6
87.52 592.05 1985.8
-81.12 660.57 2235.0
-74.82 656.09 2219.9
-49.10 621.98 2104.5
-43.09 614.08 2077.7
-37.80 615.53 2082.6
-32.86 624.34 2112.4
-27.31 622.66 2106.7
-21.64 616.72 2086.7
-15.95 606.25 2051.2
-10.27 585.57 1981.3
-5.17 588.98 1992.8
0.00 596.91 2019.6
5.10 581.89 1968.8
9.88 563.18 1905.5
15.23 578.76 1958.2
20.91 596.03 2016.7
25.74 586.95 1985.9
30.97 588.35 1990.6
37.22 606.18 2051.0
43.69 622.58 2106.5
54.98 626.77 2120.6
58.18 602.92 2040.0
62.42 592.97 2006.3
68.00 596.32 2017.6
72.53 590.60 1998.3
78.97 600.18 2030.7
86.49 616.27 2085.1
92.57 620.74 2100.2
-95.59 635.38 2168.8
-93.75 662.14 2260.1
-86.08 648.43 2213.4
-76.10 614.21 2096.6
-70.31 611.17 2086.2
-64.67 608.97 2078.7
-59.50 611.26 2086.5
-55.66 629.01 2147.1
-50.12 629.33 2148.2
-43.74 617.84 2108.9
-38.08 614.77 2098.5
-32.20 606.36 2069.8
-26.10 589.80 2013.2
-20.79 587.29 2004.6
-15.41 580.55 1981.7
0.00 573.26 1956.8
5.11 577.47 1971.1
20.67 583.91 1993.1
26.35 595.42 2032.4
30.17 568.13 1939.3
34.71 560.24 1912.3
41.51 586.35 2001.5
48.18 604.88 2064.7
52.16 589.38 2011.8
54.28 557.59 1903.3
72.27 583.31 1991.1
83.58 629.61 2149.1
90.45 638.82 2180.6
95.67 635.95 2170.7
-104.09 647.68 2230.5
-92.57 609.86 2100.3
-88.57 619.96 2135.0
-81.58 609.15 2097.8
-68.52 590.30 2032.9
-64.89 605.68 2085.9
-59.05 601.26 2070.7
-54.46 609.94 2100.6
-49.37 614.44 2116.0
-43.45 608.34 2095.0
-37.73 603.62 2078.8
-31.85 594.45 2047.2
-26.02 582.76 2006.9
-20.95 586.68 2020.4
-16.20 604.81 2082.9
-10.69 598.69 2061.8
-5.17 579.17 1994.6
0.00 592.56 2040.7
5.38 602.32 2074.3
10.28 575.54 1982.1
14.68 547.93 1887.0
19.79 554.05 1908.1
26.48 593.07 2042.5
31.68 591.38 2036.6
35.29 564.59 1944.4
40.84 571.81 1969.3
47.85 595.48 2050.8
52.57 588.75 2027.6
54.86 558.61 1923.8
59.28 553.28 1905.4
65.28 562.43 1936.9
73.99 591.92 2038.5
83.26 621.69 2141.0
87.57 612.99 2111.1
93.03 612.93 2110.8
101.09 629.02 2166.3
104.62 616.69 2123.8
-83.62 618.77 2150.2
-75.23 596.44 2072.6
-73.06 623.86 2167.8
-55.89 620.39 2155.8
-48.85 602.46 2093.5
-44.08 611.62 2125.3
-39.32 623.53 2166.7
-33.59 621.35 2159.1
-27.84 618.05 2147.7
-21.62 600.09 2085.3
-16.08 595.13 2068.0
-10.75 596.80 2073.8
-5.25 582.97 2025.8
0.00 588.51 2045.0
5.32 590.99 2053.6
10.44 579.65 2014.2
15.36 568.30 1974.8
19.67 545.89 1896.9
24.99 554.72 1927.6
31.64 585.40 2034.2
37.07 587.86 2042.8
42.41 588.39 2044.6
49.14 606.05 2106.0
54.02 599.66 2083.8
56.44 569.49 1978.9
64.16 593.50 2062.3
77.25 612.47 2128.3
79.14 585.61 2034.9
86.83 602.41 2093.3
96.19 628.04 2182.4
106.77 623.76 2167.5
112.13 622.30 2162.4
-94.23 647.81 2271.6
-83.86 614.99 2156.5
-77.23 606.82 2127.8
-73.21 619.48 2172.2
-67.91 622.54 2182.9
-60.94 609.43 2137.0
-53.31 586.44 2056.3
-47.51 580.72 2036.3
-43.53 598.57 2098.9
-38.88 610.94 2142.2
-33.36 611.51 2144.3
-27.58 606.87 2128.0
-21.43 589.34 2066.5
-15.36 563.02 1974.2
-9.85 541.91 1900.2
-5.06 557.00 1953.1
0.00 589.64 2067.6
5.45 598.96 2100.3
10.83 595.67 2088.7
16.33 598.67 2099.2
21.57 593.17 2080.0
26.15 575.33 2017.4
31.59 579.15 2030.8
36.75 577.48 2024.9
41.70 573.34 2010.4
47.38 579.07 2030.5
50.90 559.85 1963.1
54.69 546.92 1917.8
64.12 587.73 2060.9
78.94 620.25 2174.9
78.78 577.72 2025.8
84.66 582.05 2040.9
94.14 609.11 2135.8
101.46 620.01 2174.0
-110.85 635.90 2250.2
-101.08 612.07 2165.9
-87.63 596.98 2112.5
-83.06 603.56 2135.8
-75.82 590.30 2088.9
-71.06 595.79 2108.3
-55.82 608.42 2153.0
-49.36 597.85 2115.6
-44.72 609.30 2156.1
-39.45 614.22 2173.5
-32.81 596.03 2109.2
-26.33 574.03 2031.3
-21.11 575.13 2035.2
-15.59 566.44 2004.4
-10.17 554.21 1961.2
-5.32 580.32 2053.6
11.04 601.80 2129.6
16.13 586.02 2073.7
21.65 590.09 2088.1
26.72 582.46 2061.1
31.66 575.09 2035.1
36.08 561.75 1987.8
40.57 552.75 1956.0
45.68 553.26 1957.8
50.11 546.16 1932.7
55.03 545.31 1929.7
60.69 551.25 1950.7
66.62 558.55 1976.5
75.47 587.58 2079.3
82.76 601.39 2128.1
87.43 595.62 2107.7
95.43 611.86 2165.2
100.81 610.44 2160.1
104.78 601.13 2127.2
-80.68 580.91 2074.7
-74.12 571.81 2042.2
-70.59 586.41 2094.3
-69.56 626.07 2236.0
-53.98 583.03 2082.2
-46.93 563.11 2011.1
-41.79 564.22 2015.1
-37.41 577.19 2061.4
-31.59 568.59 2030.7
-26.52 572.92 2046.1
-22.22 599.90 2142.5
-16.43 591.55 2112.7
-10.74 579.70 2070.3
-5.48 592.11 2114.7
10.68 576.73 2059.8
15.17 545.99 1949.9
19.81 534.92 1910.4
24.79 535.44 1912.3
29.72 534.89 1910.3
35.77 551.85 1970.9
42.35 571.77 2042.0
47.91 574.98 2053.5
52.76 569.82 2035.1
56.14 551.19 1968.5
59.92 539.29 1926.0
64.62 536.82 1917.2
71.61 552.40 1972.9
79.97 575.80 2056.4
86.61 584.63 2088.0
93.97 596.96 2132.0
98.72 592.32 2115.4
102.49 582.55 2080.6
-99.97 629.22 2268.2
-89.91 601.24 2167.4
-81.67 582.60 2100.2
-75.19 574.64 2071.5
-71.77 590.72 2129.4
-66.40 592.10 2134.4
-57.61 560.34 2019.9
-36.47 557.53 2009.8
-30.93 551.67 1988.7
-26.08 558.10 2011.9
-21.73 581.38 2095.7
-15.96 569.36 2052.4
-10.57 565.36 2038.0
-5.45 582.74 2100.7
0.00 585.95 2112.2
5.31 568.57 2049.6
10.55 564.56 2035.1
15.84 564.82 2036.1
20.13 538.61 1941.6
29.68 529.22 1907.7
36.07 551.38 1987.6
57.85 562.75 2028.6
62.87 560.57 2020.7
69.01 568.01 2047.6
74.00 565.55 2038.7
79.76 568.98 2051.0
85.91 574.53 2071.1
92.76 583.82 2104.6
99.59 592.03 2134.2
106.06 597.31 2153.2
111.73 597.77 2154.8
-110.31 615.41 2239.4
-99.74 621.90 2263.0
-93.16 617.20 2245.9
-84.20 595.02 2165.2
-77.37 585.80 2131.6
-74.03 603.59 2196.4
-68.43 604.44 2199.4
-59.68 575.08 2092.6
-51.46 545.44 1984.8
-41.95 555.84 2022.6
-37.72 571.23 2078.6
-30.97 547.14 1991.0
-25.85 547.96 1993.9
-21.34 565.46 2057.6
-16.27 574.75 2091.4
-11.17 592.25 2155.1
0.00 574.76 2091.5
5.32 563.63 2051.0
10.69 566.54 2061.5
16.00 565.47 2057.7
20.37 539.76 1964.1
24.98 529.67 1927.4
30.61 540.78 1967.8
35.64 539.70 1963.9
41.63 551.60 2007.2
47.96 564.82 2055.3
51.61 547.03 1990.6
55.69 536.67 1952.8
62.52 552.26 2009.6
69.19 564.13 2052.8
74.71 565.67 2058.4
81.05 572.77 2084.2
88.05 583.31 2122.5
92.99 579.81 2109.8
97.82 576.04 2096.1
106.94 596.62 2171.0
-110.38 610.00 2240.8
-100.09 583.84 2144.7
-94.32 582.59 2140.1
-89.38 586.58 2154.8
-81.59 571.15 2098.1
-73.82 553.62 2033.7
-69.56 561.80 2063.8
-67.21 588.10 2160.4
-61.18 583.94 2145.1
-53.44 561.14 2061.3
-47.47 553.82 2034.4
-43.20 566.98 2082.8
-37.84 567.53 2084.8
-31.52 551.53 2026.0
-26.65 559.69 2056.0
-21.62 567.59 2085.0
-16.27 569.44 2091.8
-10.90 572.34 2102.5
-5.31 557.37 2047.5
0.00 541.61 1989.6
5.06 531.63 1952.9
10.49 550.54 2022.4
16.10 563.66 2070.6
20.38 535.02 1965.4
24.88 522.40 1919.0
30.44 532.62 1956.6
35.49 532.34 1955.5
40.56 532.31 1955.4
45.78 534.12 1962.1
51.07 536.19 1969.7
57.13 545.35 2003.3
62.68 548.46 2014.7
67.80 547.63 2011.7
72.91 546.79 2008.6
78.59 550.16 2021.0
87.70 575.56 2114.3
95.47 589.67 2166.1
102.56 598.27 2197.7
-118.40 615.70 2283.5
-110.93 607.19 2251.9
-104.16 601.80 2231.9
-99.49 608.63 2257.3
-86.75 601.46 2230.7
-77.72 577.32 2141.2
-69.83 558.64 2071.9
-64.52 559.20 2074.0
-60.42 571.21 2118.5
-54.45 566.31 2100.3
-46.06 532.24 1974.0
-38.58 573.16 2125.7
-27.38 569.56 2112.4
-20.46 531.83 1972.5
-15.57 539.65 2001.5
-10.54 547.99 2032.4
-5.12 532.12 1973.5
0.00 516.24 1914.6
10.49 545.39 2022.7
16.15 559.70 2075.8
20.53 533.65 1979.2
25.21 524.27 1944.4
30.98 537.01 1991.6
35.51 527.61 1956.8
39.86 518.22 1922.0
46.83 541.09 2006.8
54.15 563.18 2088.7
59.51 562.63 2086.7
64.19 556.34 2063.3
66.15 529.24 1962.8
75.31 522.12 1936.4
86.72 563.69 2090.6
96.04 587.56 2179.1
-134.53 602.46 2256.1
-129.36 605.63 2268.0
-123.44 605.46 2267.3
-117.93 607.34 2274.4
-114.66 621.58 2327.7
-94.32 571.46 2140.0
-94.51 608.38 2278.3
-89.36 613.60 2297.8
-79.87 587.61 2200.5
-71.50 566.52 2121.5
-64.57 554.18 2075.3
-59.08 553.19 2071.6
-54.69 563.29 2109.4
-47.62 545.01 2040.9
-41.99 540.65 2024.6
-27.19 560.07 2097.3
-20.72 533.51 1997.9
-16.08 552.10 2067.5
-11.10 571.46 2140.0
-5.48 564.50 2113.9
0.00 550.57 2061.8
5.39 554.95 2078.2
10.52 541.79 2028.9
15.02 515.72 1931.3
20.41 525.51 1967.9
26.65 548.97 2055.8
32.71 561.60 2103.1
37.53 552.29 2068.2
40.53 521.82 1954.1
45.68 522.83 1957.9
53.31 549.10 2056.3
59.05 552.94 2070.6
64.29 551.86 2066.6
66.88 529.90 1984.4
82.73 532.59 1994.5
89.09 539.76 2021.3
100.59 545.30 2042.1
-129.88 602.18 2277.1
-124.78 606.09 2291.9
-120.01 612.04 2314.4
-112.69 604.96 2287.7
-97.94 554.98 2098.7
-89.44 570.17 2156.1
-80.51 547.48 2070.3
-64.76 550.43 2081.5
-57.74 535.40 2024.6
-52.14 531.85 2011.2
-47.65 540.06 2042.3
-44.08 562.08 2125.5
-26.68 544.25 2058.1
-21.17 539.92 2041.7
-16.29 553.74 2094.0
-11.12 567.04 2144.3
10.64 542.50 2051.5
15.43 524.59 1983.8
21.12 538.64 2036.9
27.26 556.01 2102.6
33.01 561.10 2121.8
38.37 559.03 2114.0
42.30 539.33 2039.5
44.50 504.28 1906.9
56.03 519.55 1964.7
63.61 540.72 2044.8
68.78 539.66 2040.7
72.31 526.84 1992.2
75.55 513.76 1942.8
80.62 513.97 1943.6
90.08 540.48 2043.8
95.05 538.63 2036.8
117.11 568.81 2151.0
-131.84 605.25 2311.4
-116.08 586.19 2238.6
-103.00 547.54 2091.0
-99.13 556.21 2124.1
-100.45 596.77 2279.0
-92.42 583.41 2228.0
-68.04 528.63 2018.8
-64.95 546.65 2087.6
-57.00 523.40 1998.8
-30.79 518.22 1979.0
-27.74 560.28 2139.7
-20.71 522.81 1996.6
-10.41 525.61 2007.3
-5.42 547.66 2091.5
0.00 549.43 2098.3
5.31 536.01 2047.0
10.51 530.68 2026.6
15.87 534.22 2040.2
20.97 529.39 2021.7
26.07 526.59 2011.0
31.85 536.20 2047.7
37.37 539.22 2059.2
41.99 530.07 2024.3
45.11 506.24 1933.3
54.63 501.62 1915.7
62.12 522.85 1996.7
67.33 523.06 1997.6
70.92 511.63 1953.9
74.55 501.96 1917.0
84.48 533.30 2036.6
106.62 566.77 2164.5
-132.20 600.89 2317.7
-119.06 595.29 2296.1
-111.36 586.08 2260.6
-86.70 541.89 2090.2
-82.83 552.23 2130.0
-74.64 574.15 2214.6
-63.97 533.05 2056.1
-57.07 518.79 2001.1
-51.46 514.56 1984.7
-46.65 518.36 1999.4
-22.27 556.86 2147.9
-15.49 516.21 1991.1
-10.37 518.48 1999.9
-5.30 529.53 2042.5
0.00 522.25 2014.4
5.22 522.00 2013.4
10.60 529.77 2043.4
16.10 536.54 2069.5
21.38 534.52 2061.7
25.91 518.20 1998.8
30.79 513.16 1979.3
35.99 514.14 1983.1
40.31 503.83 1943.3
46.13 512.58 1977.1
52.41 524.09 2021.5
56.82 516.53 1992.3
61.80 514.99 1986.4
69.10 531.51 2050.1
75.25 537.48 2073.1
78.09 520.63 2008.1
87.10 544.40 2099.8
107.59 566.28 2184.2
-120.54 596.65 2324.6
-111.19 579.34 2257.2
-108.64 597.54 2328.1
-95.67 557.12 2170.6
-82.85 546.80 2130.4
-67.26 554.89 2161.9
-60.03 540.27 2104.9
-52.67 521.42 2031.5
-46.36 510.01 1987.1
-41.80 517.25 2015.3
-36.43 515.29 2007.6
-32.57 537.43 2093.9
-16.54 545.68 2126.0
-10.77 533.01 2076.7
-5.36 530.53 2067.0
0.00 530.78 2068.0
5.45 539.48 2101.9
10.96 542.46 2113.5
16.50 544.44 2121.2
21.71 537.22 2093.0
26.09 516.57 2012.6
31.10 513.07 1999.0
36.43 515.29 2007.6
39.75 491.90 1916.5
44.35 487.89 1900.9
52.44 519.18 2022.8
59.01 531.07 2069.1
61.99 511.40 1992.5
66.95 509.87 1986.5
89.37 552.96 2154.4
119.23 562.07 2189.9
-144.41 589.68 2320.9
-118.55 580.91 2286.4
-107.01 551.96 2172.4
-101.84 554.48 2182.4
-95.04 547.90 2156.5
-87.21 534.18 2102.4
-80.72 527.34 2075.5
-77.91 545.35 2146.4
-69.77 569.81 2242.7
-62.44 556.31 2189.6
-54.91 538.13 2118.0
-48.41 527.09 2074.5
-43.79 536.47 2111.5
-37.69 527.63 2076.7
-33.27 543.41 2138.8
-22.27 545.66 2147.7
-15.85 517.85 2038.2
-10.43 510.96 2011.1
-5.35 524.27 2063.4
0.00 541.50 2131.3
5.43 531.90 2093.5
10.54 516.38 2032.4
15.91 519.57 2045.0
21.03 515.13 2027.5
26.09 511.42 2012.9
32.12 524.70 2065.1
38.18 534.53 2103.8
42.37 518.99 2042.7
45.72 497.79 1959.2
52.07 510.32 2008.5
59.04 526.04 2070.4
62.30 508.77 2002.4
65.39 492.98 1940.3
74.64 522.47 2056.4
89.30 546.97 2152.8
106.30 548.27 2157.9
-116.47 564.86 2246.1
-111.90 571.26 2271.6
-107.78 580.83 2309.6
-101.85 581.14 2310.9
-92.81 562.68 2237.5
-84.99 549.58 2185.4
-76.90 532.81 2118.7
-70.20 523.83 2083.0
-65.96 533.14 2120.0
-60.88 536.84 2134.7
-55.70 540.28 2148.4
-51.17 551.53 2193.1
-45.13 547.17 2175.8
-37.62 521.35 2073.1
-30.89 499.43 1985.9
-20.58 498.97 1984.1
-15.54 502.39 1997.7
-10.33 500.94 1992.0
-5.37 520.94 2071.5
0.00 530.94 2111.3
5.29 512.65 2038.5
10.55 511.91 2035.6
16.36 528.98 2103.4
21.98 533.11 2119.9
27.71 537.49 2137.3
44.02 533.76 2122.5
49.02 528.37 2101.0
52.73 511.51 2034.0
56.34 496.85 1975.7
63.06 509.74 2026.9
70.34 524.81 2086.9
74.79 518.18 2060.5
79.86 516.43 2053.6
86.26 522.96 2079.5
-130.75 570.56 2292.4
-114.07 547.56 2200.0
-109.91 555.35 2231.3
-105.95 565.06 2270.3
-100.89 569.71 2289.0
-92.79 556.74 2236.9
-87.90 562.58 2260.4
-82.12 563.12 2262.5
-71.88 530.82 2132.8
-64.70 517.58 2079.6
-60.31 526.31 2114.7
-55.68 534.56 2147.8
-49.51 528.07 2121.7
-42.28 507.33 2038.4
-36.03 494.07 1985.1
-20.96 503.06 2021.2
-16.29 521.19 2094.1
-11.09 532.55 2139.7
5.57 534.48 2147.5
11.06 531.10 2133.9
22.20 532.77 2140.6
27.23 522.85 2100.7
31.94 511.00 2053.1
37.19 510.01 2049.2
42.60 511.20 2053.9
48.40 516.24 2074.2
53.22 510.90 2052.7
55.44 483.82 1943.9
60.26 482.10 1937.0
67.44 497.99 2000.9
72.27 495.53 1991.0
78.89 504.90 2028.6
86.84 521.02 2093.4
-131.33 567.11 2302.6
-111.18 528.09 2144.1
-104.87 524.33 2128.9
-99.22 523.68 2126.2
-92.57 517.29 2100.3
-88.02 522.60 2121.8
-86.26 546.31 2218.1
-75.20 549.51 2231.1
-67.76 536.41 2177.9
-63.17 545.53 2214.9
-57.58 547.00 2220.9
-50.35 531.49 2157.9
-43.25 513.59 2085.2
-37.16 504.29 2047.5
-31.78 503.11 2042.7
-27.02 513.41 2084.5
-21.78 517.25 2100.1
-16.27 515.35 2092.4
5.54 526.13 2136.2
10.75 510.82 2074.0
15.96 505.31 2051.6
21.42 508.65 2065.2
26.80 509.11 2067.1
31.52 499.05 2026.2
36.81 499.51 2028.1
41.30 490.40 1991.1
45.96 485.11 1969.6
52.09 494.88 2009.3
55.80 481.94 1956.8
59.63 472.10 1916.8
65.45 478.28 1941.9
68.43 464.38 1885.4
73.20 463.62 1882.4
79.81 473.85 1923.9
84.14 470.22 1909.1
94.61 499.31 2027.3
-97.20 507.60 2082.8
-93.48 516.88 2120.9
-91.57 537.99 2207.5
-82.50 516.98 2121.4
-71.15 514.47 2111.1
-68.82 539.12 2212.2
-63.15 539.64 2214.3
-56.68 532.81 2186.3
-50.77 530.24 2175.7
-44.63 524.35 2151.6
-37.94 509.46 2090.5
-32.07 502.38 2061.4
-26.08 490.32 2012.0
-15.54 486.79 1997.5
-11.19 525.87 2157.8
0.00 491.54 2017.0
5.09 478.05 1961.6
10.29 483.72 1984.9
15.48 484.90 1989.7
21.00 493.41 2024.6
26.90 505.71 2075.1
32.34 506.64 2078.9
38.13 512.06 2101.2
43.19 507.54 2082.6
46.73 488.10 2002.9
51.49 484.05 1986.2
56.00 478.57 1963.8
60.82 476.41 1954.9
67.71 489.62 2009.1
71.82 482.25 1978.8
74.61 467.53 1918.4
78.97 463.94 1903.7
84.49 467.20 1917.1
97.02 506.65 2079.0
108.23 535.44 2197.1
114.06 536.09 2199.7
-110.45 513.61 2130.2
-95.80 524.09 2173.7
-90.50 526.02 2181.7
-71.98 514.92 2135.6
-68.53 531.13 2202.8
-61.97 523.90 2172.9
-57.92 538.70 2234.2
-38.63 513.24 2128.7
-32.28 500.37 2075.3
-25.93 482.34 2000.5
-20.24 470.64 1952.0
-15.78 489.17 2028.8
-10.84 504.18 2091.1
-5.20 484.02 2007.5
0.00 472.54 1959.8
5.20 484.02 2007.5
10.45 486.13 2016.2
15.62 484.24 2008.4
20.27 471.34 1954.9
24.70 459.38 1905.2
31.66 490.77 2035.4
46.97 485.31 2012.8
49.74 462.55 1918.4
65.95 471.82 1956.8
73.07 485.36 2013.0
79.64 493.75 2047.8
84.37 490.42 2034.0
90.45 494.82 2052.3
111.63 494.35 2050.3
-103.00 498.71 2090.9
-97.36 497.61 2086.3
-94.70 512.50 2148.7
-87.65 503.98 2113.0
-80.55 494.06 2071.4
-77.66 510.34 2139.6
-75.23 532.41 2232.2
-69.30 531.29 2227.5
-62.78 525.07 2201.4
-45.71 525.63 2203.7
-37.74 495.96 2079.3
-31.21 478.58 2006.5
-25.52 469.55 1968.6
-20.26 466.08 1954.1
-15.15 464.47 1947.3
-10.07 463.32 1942.5
-5.11 470.05 1970.7
0.00 484.44 2031.0
5.34 491.40 2060.2
10.62 488.38 2047.5
15.57 477.46 2001.8
19.72 453.56 1901.6
31.44 482.06 2021.1
42.52 488.98 2050.1
45.79 468.08 1962.4
49.06 451.35 1892.3
65.14 460.99 1932.7
71.84 472.08 1979.2
78.47 481.31 2017.9
83.46 479.87 2011.9
84.42 456.87 1915.5
90.01 460.07 1928.8
109.63 480.28 2013.6
-108.90 521.56 2210.7
-101.27 511.99 2170.1
-96.77 518.01 2195.6
-92.50 526.09 2229.9
-87.67 531.88 2254.4
