ply
format ascii 1.0
element vertex 2112
property float x
property float y
property float z
end_header
-686.31 -916.48 1614.2
-682.97 -917.61 1616.1
-674.47 -911.79 1605.9
-687.52 -935.19 1647.1
-697.65 -954.91 1681.8
-681.98 -939.33 1654.4
-641.34 -900.34 1585.7
-649.55 -917.76 1616.4
-639.91 -910.01 1602.7
-628.60 -930.16 1638.2
-642.39 -957.03 1685.6
-632.51 -948.77 1671.0
-613.68 -926.87 1632.5
-604.61 -919.51 1619.5
-600.80 -920.11 1620.6
-613.46 -946.11 1666.3
-619.84 -962.73 1695.6
-596.58 -933.22 1643.6
-572.96 -902.72 1589.9
-560.89 -890.10 1567.7
-572.23 -914.73 1611.1
-592.74 -954.49 1681.1
-582.64 -945.17 1664.7
-568.56 -929.22 1636.6
-571.85 -941.62 1658.4
-569.05 -944.10 1662.8
-553.75 -925.74 1630.5
-555.46 -942.98 1660.8
-567.29 -970.59 1709.5
-542.00 -934.62 1646.1
-539.25 -944.76 1664.0
-545.75 -963.86 1697.6
-520.02 -925.88 1630.7
-516.35 -926.90 1632.5
-523.73 -947.91 1669.5
-527.01 -961.80 1694.0
-484.57 -891.76 1570.6
-485.11 -940.18 1655.9
-483.04 -944.51 1663.5
-461.50 -910.53 1603.7
-465.53 -926.82 1632.4
-473.71 -951.76 1676.3
-466.53 -946.02 1666.2
-462.22 -946.03 1666.2
-462.78 -956.12 1684.0
-457.26 -953.72 1679.7
-423.18 -917.59 1616.1
-430.41 -942.60 1660.2
-431.76 -955.10 1682.2
-425.87 -951.70 1676.2
-412.33 -930.92 1639.6
-409.33 -933.77 1644.6
-423.68 -976.69 1720.2
-421.28 -981.49 1728.6
-392.98 -925.40 1629.9
-375.04 -912.60 1607.3
-370.92 -923.08 1625.8
-373.21 -939.47 1654.6
-355.53 -916.01 1613.3
-358.56 -934.83 1646.5
-345.95 -923.94 1627.3
-344.92 -932.57 1642.5
-323.18 -907.40 1598.2
-322.91 -930.48 1638.8
-312.11 -911.35 1605.1
-307.32 -934.77 1646.4
-308.22 -950.70 1674.4
-291.51 -912.01 1606.3
-297.38 -972.02 1712.0
-283.76 -956.05 1683.8
-269.49 -922.14 1624.1
-266.62 -926.84 1632.4
-271.61 -959.40 1689.7
-268.95 -965.56 1700.6
-253.76 -926.22 1631.3
-245.25 -910.35 1603.3
-248.30 -937.54 1651.2
-244.34 -938.79 1653.4
-232.98 -911.13 1604.7
-233.32 -929.02 1636.2
-229.38 -930.26 1638.4
-212.47 -912.35 1606.9
-209.58 -917.98 1616.8
-213.02 -952.07 1676.8
-194.71 -947.57 1668.9
-177.79 -927.05 1632.8
-174.33 -931.18 1640.0
-164.28 -899.41 1584.1
-155.95 -923.06 1625.7
-151.60 -922.24 1624.3
-149.54 -935.70 1648.0
-147.89 -952.60 1677.8
-143.20 -950.30 1673.7
-136.72 -935.68 1648.0
-128.35 -936.96 1650.2
-122.59 -925.77 1630.5
-116.87 -914.08 1609.9
-95.13 -905.79 1595.3
-92.54 -921.18 1622.4
-88.63 -924.24 1627.8
-85.54 -936.67 1649.7
-84.05 -968.82 1706.3
-74.72 -962.59 1695.4
-68.82 -941.94 1659.0
-64.12 -936.10 1648.7
-53.52 -901.68 1588.1
-49.68 -906.68 1596.9
-46.04 -916.60 1614.4
-42.22 -924.55 1628.4
-39.21 -954.21 1680.6
-34.70 -949.81 1672.9
-29.37 -918.74 1618.1
-20.86 -913.86 1609.5
-16.51 -904.01 1592.2
-12.49 -911.92 1606.1
-8.61 -942.55 1660.1
-4.27 -935.15 1647.0
0.00 -930.71 1639.2
4.21 -922.80 1625.3
8.21 -899.10 1583.5
12.55 -916.37 1614.0
17.16 -939.56 1654.8
21.28 -932.13 1641.7
25.16 -918.28 1617.3
29.62 -926.64 1632.1
42.89 -939.36 1654.4
51.74 -944.19 1663.0
53.26 -897.24 1580.3
65.20 -951.89 1676.5
67.41 -922.70 1625.1
73.07 -888.99 1565.7
79.82 -919.99 1620.3
84.77 -928.28 1634.9
90.75 -946.43 1666.9
96.25 -958.17 1687.6
97.82 -931.43 1640.5
99.04 -903.71 1591.7
102.25 -895.71 1577.6
107.73 -907.42 1598.2
113.86 -923.57 1626.6
118.51 -926.89 1632.5
123.57 -933.16 1643.5
127.95 -934.00 1645.0
126.33 -892.49 1571.9
135.55 -899.58 1584.4
142.92 -920.60 1621.4
147.65 -923.89 1627.2
153.46 -933.56 1644.2
158.03 -935.36 1647.4
164.49 -947.97 1669.6
171.24 -961.56 1693.5
172.27 -943.17 1661.2
172.49 -921.35 1622.7
174.21 -908.38 1599.9
175.52 -893.93 1574.4
180.25 -897.17 1580.1
187.64 -913.18 1608.3
195.38 -930.16 1638.3
197.05 -918.16 1617.1
206.90 -906.21 1596.1
210.30 -903.03 1590.5
211.69 -891.52 1570.2
219.85 -908.44 1600.0
222.01 -900.36 1585.8
234.11 -915.54 1612.5
238.73 -917.24 1615.5
240.11 -891.26 1569.7
242.50 -885.12 1558.9
250.83 -900.51 1586.0
257.49 -909.52 1601.9
256.08 -890.17 1567.8
257.06 -879.63 1549.2
271.58 -915.01 1611.6
286.85 -951.83 1676.4
293.68 -945.82 1665.8
303.51 -949.57 1672.4
293.04 -903.89 1592.0
289.21 -879.69 1549.4
295.72 -887.17 1562.5
302.79 -896.10 1578.3
306.77 -895.77 1577.7
316.15 -911.01 1604.5
325.32 -925.26 1629.6
332.35 -898.57 1582.6
331.59 -885.58 1559.7
338.81 -893.96 1574.5
354.10 -923.19 1626.0
368.71 -949.96 1673.1
367.75 -936.47 1649.4
364.50 -886.96 1562.2
366.18 -881.25 1552.1
378.00 -890.12 1567.7
378.16 -881.02 1551.7
380.96 -878.20 1546.7
398.33 -908.68 1600.4
403.78 -911.63 1605.6
407.97 -911.68 1605.7
415.64 -919.44 1619.4
407.32 -892.02 1571.1
400.53 -868.48 1529.6
404.44 -859.93 1514.6
413.42 -870.56 1533.3
437.20 -886.54 1561.4
476.68 -899.95 1585.0
466.50 -873.19 1537.9
476.46 -848.33 1494.1
494.37 -845.83 1489.7
503.79 -855.28 1506.4
502.89 -847.18 1492.1
514.38 -859.92 1514.5
532.22 -876.36 1543.5
544.85 -890.46 1568.3
541.49 -847.05 1491.9
556.82 -864.85 1523.2
555.53 -856.77 1509.0
560.30 -858.08 1511.3
566.93 -862.21 1518.6
558.72 -838.09 1476.1
583.88 -869.86 1532.0
569.41 -842.58 1484.0
568.73 -835.92 1472.3
600.67 -876.98 1544.6
616.51 -894.14 1574.8
600.55 -854.03 1504.2
609.97 -861.83 1517.9
628.07 -881.71 1552.9
646.33 -901.57 1587.9
650.66 -901.86 1588.4
642.16 -884.48 1557.8
638.61 -874.09 1539.5
668.41 -909.20 1601.3
661.59 -888.88 1565.5
640.88 -855.81 1507.3
655.12 -869.53 1531.5
667.72 -880.91 1551.5
685.69 -899.20 1583.7
692.12 -902.23 1589.0
682.19 -884.02 1557.0
690.72 -889.81 1567.2
706.49 -904.80 1593.6
688.39 -876.49 1543.7
669.80 -838.20 1476.3
730.26 -888.48 1564.8
770.23 -926.82 1632.4
748.68 -895.96 1578.0
729.57 -854.42 1504.8
766.83 -893.28 1573.3
796.52 -859.30 1513.5
785.98 -843.77 1486.1
807.61 -862.77 1519.5
824.33 -876.35 1543.5
798.02 -844.28 1487.0
800.75 -843.10 1484.9
813.28 -852.20 1500.9
799.35 -833.60 1468.2
793.86 -823.96 1451.2
807.27 -833.93 1468.8
815.56 -838.54 1476.9
801.29 -820.01 1444.2
796.47 -811.29 1428.9
816.98 -828.33 1458.9
828.38 -836.02 1472.4
804.55 -808.24 1423.5
962.56 -798.49 1406.3
989.87 -818.04 1440.8
1017.19 -822.01 1447.8
1092.70 -854.65 1505.3
1075.69 -838.35 1476.5
1044.08 -810.83 1428.1
1019.28 -788.77 1389.2
992.72 -765.51 1348.3
1037.22 -794.23 1398.8
1061.51 -810.00 1426.6
1116.30 -840.10 1479.6
1083.79 -812.84 1431.6
1077.00 -805.00 1417.8
1087.29 -809.92 1426.5
1100.93 -817.30 1439.5
1112.95 -823.44 1450.3
1116.11 -822.99 1449.5
1080.78 -794.26 1398.9
1074.76 -781.97 1377.2
1114.35 -808.09 1423.2
1101.70 -775.79 1366.4
1139.17 -799.61 1408.3
1123.15 -785.85 1384.1
1126.12 -785.42 1383.3
1186.41 -824.84 1452.7
1174.40 -813.91 1433.5
1125.12 -777.29 1369.0
1121.05 -772.05 1359.8
1110.53 -762.40 1342.8
-1557.80 -1074.35 1883.6
-1467.82 -1015.48 1780.4
-1485.10 -1030.67 1807.0
-1531.28 -1066.08 1869.1
-1489.29 -1040.14 1823.6
-1517.36 -1073.37 1881.9
-1452.26 -1030.64 1807.0
-1411.41 -1004.88 1761.8
-1519.05 -1099.31 1927.4
-1519.02 -1102.92 1933.7
-1380.51 -1012.38 1774.9
-1500.79 -1104.26 1936.0
-1409.28 -1040.41 1824.1
-1415.91 -1066.78 1870.3
-1419.64 -1073.27 1881.7
-1377.40 -1044.92 1832.0
-1286.24 -979.15 1716.7
-1212.38 -932.60 1635.1
-1198.18 -934.75 1638.8
-1175.04 -923.24 1618.7
-1141.71 -900.27 1578.4
-1149.76 -916.47 1606.8
-1123.56 -908.76 1593.3
-1106.49 -898.26 1574.9
-1109.22 -903.81 1584.6
-1126.43 -921.24 1615.2
-1113.54 -914.10 1602.6
-1095.03 -902.27 1581.9
-1095.61 -906.15 1588.7
-1103.85 -916.40 1606.7
-1103.33 -919.44 1612.0
-1071.70 -896.48 1571.7
-1049.98 -888.44 1557.7
-1064.10 -903.87 1584.7
-1046.96 -892.76 1565.2
-1007.44 -872.59 1529.9
-1013.86 -881.61 1545.7
-1053.77 -919.96 1612.9
-1058.47 -927.75 1626.6
-1006.21 -885.47 1552.4
-977.23 -863.42 1513.8
-1066.18 -957.39 1678.5
-1013.41 -917.49 1608.6
-978.06 -896.56 1571.9
-970.16 -893.04 1565.7
-946.60 -882.43 1547.1
-987.74 -936.65 1642.2
-999.16 -951.58 1668.4
-937.22 -908.32 1592.5
-973.86 -948.00 1662.1
-929.75 -909.09 1593.9
-906.10 -893.91 1567.2
-897.03 -901.13 1579.9
-879.19 -887.26 1555.6
-891.30 -903.63 1584.3
-896.29 -912.89 1600.5
-869.84 -890.07 1560.5
-871.48 -900.12 1578.1
-871.17 -904.04 1585.0
-890.99 -929.00 1628.8
-908.07 -951.31 1667.9
-866.08 -924.94 1621.7
-855.91 -918.54 1610.4
-847.46 -913.92 1602.3
-852.75 -924.16 1620.3
-855.07 -931.26 1632.7
-862.69 -944.24 1655.5
-853.79 -939.17 1646.6
-807.82 -902.13 1581.7
-836.29 -938.69 1645.8
-832.71 -939.47 1647.1
-819.12 -928.90 1628.6
-792.05 -902.86 1582.9
-776.29 -889.50 1559.5
-800.54 -922.09 1616.7
-806.05 -933.32 1636.3
-777.34 -919.43 1612.0
-788.39 -937.55 1643.8
-797.01 -952.94 1670.7
-795.21 -955.99 1676.1
-785.43 -949.42 1664.6
-757.57 -920.80 1614.4
-738.04 -907.08 1590.3
-741.93 -916.99 1607.7
-755.36 -938.87 1646.1
-759.41 -949.27 1664.3
-754.58 -948.62 1663.2
-720.23 -921.22 1615.1
-715.87 -921.00 1614.7
-707.47 -949.04 1663.9
-714.35 -964.15 1690.4
-716.65 -973.23 1706.3
-687.86 -939.93 1647.9
-648.00 -913.84 1602.2
-661.43 -938.81 1646.0
-655.33 -936.19 1641.4
-671.27 -978.00 1714.7
-662.01 -977.46 1713.7
-647.26 -962.14 1686.9
-637.66 -954.33 1673.2
-606.89 -914.49 1603.3
-603.75 -916.04 1606.0
-609.24 -930.79 1631.9
-617.98 -950.73 1666.9
-606.50 -953.07 1671.0
-583.43 -923.42 1619.0
-571.59 -911.24 1597.6
-576.62 -932.76 1635.4
-583.21 -950.42 1666.3
-587.34 -964.29 1690.6
-572.70 -947.33 1660.9
-552.22 -920.37 1613.6
-560.54 -941.37 1650.4
-572.05 -968.09 1697.3
-564.93 -963.45 1689.2
-555.90 -955.46 1675.1
-554.91 -961.27 1685.3
-555.51 -969.94 1700.5
-544.38 -958.11 1679.8
-538.60 -971.25 1702.8
-523.98 -952.69 1670.3
-504.81 -925.49 1622.6
-505.29 -934.15 1637.8
-496.19 -925.09 1621.9
-481.30 -905.01 1586.7
-463.46 -910.36 1596.1
-454.23 -900.27 1578.4
-471.53 -943.06 1653.4
-471.78 -952.22 1669.5
-455.64 -928.16 1627.3
-457.51 -940.68 1649.2
-464.38 -963.81 1689.8
-462.53 -969.12 1699.1
-447.41 -946.45 1659.4
-450.79 -962.85 1688.1
-428.05 -932.40 1634.7
-419.17 -941.00 1649.8
-410.40 -930.79 1631.9
-412.27 -944.79 1656.4
-420.30 -973.32 1706.5
-410.27 -960.20 1683.5
-398.71 -943.18 1653.6
-391.76 -936.81 1642.5
-359.83 -889.47 1559.5
-379.27 -948.17 1662.4
-381.27 -964.14 1690.4
-363.74 -930.50 1631.4
-351.37 -954.34 1673.2
-342.03 -940.57 1649.1
-335.96 -935.57 1640.3
-341.00 -961.80 1686.3
-324.63 -927.51 1626.1
-308.89 -894.16 1567.7
-311.94 -915.01 1604.2
-311.83 -927.08 1625.4
-307.89 -927.90 1626.8
-313.87 -959.04 1681.4
-317.04 -982.38 1722.3
-302.56 -950.91 1667.2
-290.82 -927.25 1625.7
-290.18 -938.83 1646.0
-288.70 -947.96 1662.0
-279.63 -932.10 1634.2
-272.30 -921.62 1615.8
-267.19 -918.48 1610.3
-262.80 -947.80 1661.7
-254.42 -932.87 1635.6
-250.78 -935.11 1639.5
-241.99 -950.66 1666.7
-236.01 -944.04 1655.1
-225.99 -920.69 1614.2
-211.89 -914.03 1602.5
-214.39 -943.31 1653.9
-210.70 -946.01 1658.6
-205.16 -940.33 1648.6
-199.67 -934.64 1638.7
-195.47 -934.86 1639.0
-179.86 -920.20 1613.3
-158.19 -940.56 1649.0
-153.94 -940.74 1649.3
-148.83 -935.47 1640.1
-144.37 -934.15 1637.8
-141.55 -943.70 1654.5
-136.57 -938.91 1646.1
-121.54 -891.26 1562.6
-119.13 -903.75 1584.5
-116.55 -915.75 1605.5
-94.97 -908.42 1592.7
-92.73 -927.33 1625.8
-88.57 -927.92 1626.9
-85.31 -938.41 1645.3
-73.95 -957.00 1677.8
-62.53 -917.04 1607.8
-58.11 -913.15 1601.0
-52.73 -892.41 1564.6
-46.09 -921.74 1616.0
-42.98 -945.57 1657.8
-38.06 -930.26 1631.0
-4.13 -908.65 1593.1
0.00 -928.96 1628.7
4.22 -928.46 1627.8
8.32 -915.08 1604.4
12.71 -932.41 1634.7
17.38 -956.17 1676.4
21.45 -943.76 1654.7
25.20 -923.92 1619.9
29.52 -927.85 1626.8
33.67 -925.84 1623.2
37.20 -909.45 1594.5
42.26 -929.72 1630.0
48.14 -962.85 1688.1
50.76 -930.60 1631.6
52.82 -893.90 1567.2
58.77 -923.55 1619.2
74.04 -904.93 1586.6
78.53 -909.30 1594.2
80.99 -890.90 1562.0
85.88 -899.71 1577.4
90.16 -901.60 1580.7
93.47 -894.07 1567.5
96.55 -885.06 1551.7
100.28 -882.48 1547.2
106.15 -898.19 1574.8
112.71 -918.35 1610.1
118.00 -927.12 1625.5
120.43 -913.64 1601.8
121.87 -893.73 1566.9
127.80 -906.94 1590.1
136.28 -936.94 1642.7
138.00 -919.98 1613.0
141.99 -892.50 1564.8
146.83 -897.28 1573.2
150.63 -895.63 1570.3
156.55 -906.33 1589.0
168.16 -948.60 1663.1
174.68 -960.74 1684.4
169.72 -910.72 1596.7
185.11 -905.00 1586.7
194.13 -928.45 1627.8
199.04 -931.68 1633.5
198.61 -910.28 1595.9
204.12 -916.46 1606.8
215.96 -950.21 1665.9
218.74 -943.57 1654.3
219.25 -927.58 1626.3
223.64 -928.32 1627.6
222.00 -904.46 1585.7
225.60 -886.27 1553.8
229.94 -887.49 1556.0
232.10 -880.36 1543.5
236.42 -881.58 1545.6
243.44 -892.61 1565.0
247.83 -893.81 1567.1
250.57 -889.12 1558.9
257.76 -900.13 1578.1
267.91 -920.93 1614.6
274.90 -930.44 1631.3
281.69 -938.96 1646.2
286.76 -941.59 1650.8
284.73 -921.19 1615.1
287.20 -889.91 1560.2
320.70 -928.34 1627.6
316.26 -892.02 1563.9
334.86 -909.49 1594.6
338.49 -908.16 1592.2
344.24 -890.98 1562.1
349.48 -894.02 1567.4
369.25 -855.11 1499.2
383.53 -878.93 1541.0
390.76 -886.26 1553.8
396.33 -889.71 1559.9
412.80 -917.34 1608.3
414.14 -911.10 1597.4
402.55 -876.84 1537.3
395.14 -852.27 1494.2
399.50 -853.29 1496.0
407.74 -862.52 1512.2
410.76 -860.64 1508.9
427.93 -888.15 1557.1
432.45 -889.14 1558.9
441.03 -890.15 1560.7
488.32 -926.12 1623.7
482.32 -906.93 1590.1
484.06 -894.91 1569.0
479.51 -879.09 1541.3
474.90 -849.41 1489.2
490.85 -870.87 1526.9
490.73 -863.68 1514.3
525.31 -895.89 1570.7
535.81 -906.75 1589.8
541.02 -908.58 1593.0
539.68 -899.47 1577.0
536.84 -888.00 1556.9
534.47 -877.49 1538.5
527.36 -859.40 1506.7
565.34 -882.09 1546.5
586.34 -908.41 1592.7
570.03 -858.95 1506.0
601.84 -900.71 1579.2
594.14 -883.18 1548.4
612.74 -875.34 1534.7
625.69 -876.76 1537.2
642.30 -894.35 1568.0
623.66 -862.92 1512.9
610.18 -839.00 1471.0
628.55 -858.89 1505.8
640.57 -869.90 1525.2
649.91 -877.18 1537.9
669.70 -898.38 1575.1
692.10 -922.80 1617.9
717.64 -907.37 1590.8
714.25 -897.91 1574.3
703.78 -879.72 1542.4
717.97 -892.39 1564.6
715.60 -879.51 1542.0
754.73 -922.44 1617.3
763.05 -922.37 1617.1
747.96 -899.19 1576.5
748.75 -885.62 1552.7
733.54 -862.99 1513.0
773.29 -867.98 1521.8
811.18 -883.46 1548.9
820.74 -889.47 1559.5
809.05 -872.50 1529.7
786.75 -844.32 1480.3
762.22 -810.09 1420.3
797.90 -843.93 1479.6
813.82 -856.65 1501.9
802.04 -840.23 1473.1
802.58 -836.81 1467.1
822.91 -853.97 1497.2
831.69 -859.03 1506.1
816.20 -839.08 1471.1
807.08 -825.85 1447.9
825.87 -841.16 1474.8
821.05 -832.40 1459.4
781.80 -788.97 1383.3
774.95 -778.49 1364.9
773.35 -773.35 1355.9
947.23 -795.38 1394.5
978.95 -818.89 1435.7
1015.43 -846.19 1483.6
1015.19 -842.80 1477.6
973.82 -805.42 1412.1
1023.50 -833.96 1462.1
1011.15 -820.86 1439.2
1020.73 -796.32 1396.1
1035.13 -804.70 1410.8
1048.50 -812.22 1424.0
1070.89 -818.04 1434.2
1065.01 -805.16 1411.6
1077.71 -801.00 1404.3
1098.02 -813.34 1426.0
1070.58 -782.48 1371.9
1124.18 -818.94 1435.8
1111.51 -807.03 1414.9
1160.07 -810.21 1420.5
1140.49 -794.01 1392.1
1120.22 -777.44 1363.0
1144.10 -791.51 1387.7
1129.55 -779.00 1365.8
-1527.50 -1058.24 1847.0
-1466.16 -1018.93 1778.4
-1502.00 -1047.14 1827.6
-1568.96 -1097.28 1915.1
-1547.73 -1085.87 1895.2
-1514.46 -1065.91 1860.3
-1519.87 -1073.14 1873.0
-1402.35 -1002.98 1750.5
-1411.82 -1013.03 1768.0
-1419.51 -1021.86 1783.5
-1403.90 -1013.93 1769.6
-1489.04 -1078.95 1883.1
-1491.93 -1084.59 1893.0
-1438.26 -1070.22 1867.9
-1310.87 -988.74 1725.7
-1397.08 -1064.67 1858.2
-1268.88 -970.32 1693.5
-1266.07 -978.33 1707.5
-1280.21 -992.72 1732.6
-1229.37 -963.44 1681.5
-1220.91 -960.22 1675.9
-1221.53 -964.14 1682.7
-1177.47 -932.69 1627.8
-1130.36 -915.05 1597.1
-1141.44 -927.42 1618.6
-1106.63 -902.45 1575.1
-1075.10 -879.99 1535.9
-1081.14 -891.53 1556.0
-1097.74 -908.61 1585.8
-1082.39 -899.28 1569.5
-1075.29 -896.75 1565.1
-1075.36 -900.20 1571.1
-1041.39 -878.42 1533.1
-1071.85 -907.58 1584.0
-1060.72 -901.61 1573.6
-1045.09 -891.75 1556.4
-1029.98 -892.65 1558.0
-1040.83 -905.60 1580.6
-1063.95 -929.38 1622.1
-1077.54 -944.98 1649.3
-1055.61 -929.44 1622.2
-1053.40 -931.20 1625.2
-1073.65 -952.92 1663.1
-1041.62 -928.22 1620.0
-1037.28 -935.67 1633.0
-1041.32 -947.04 1652.9
-1005.98 -918.68 1603.4
-996.09 -913.43 1594.2
-973.44 -911.57 1591.0
-999.66 -940.11 1640.8
-1018.23 -961.66 1678.4
-992.42 -945.37 1650.0
-932.80 -892.42 1557.6
-919.05 -883.09 1541.3
-912.69 -880.80 1537.3
-958.49 -937.28 1635.9
-920.34 -903.98 1577.7
-925.02 -916.73 1600.0
-955.21 -950.91 1659.6
-925.94 -925.94 1616.1
-892.42 -896.47 1564.6
-885.00 -897.18 1565.9
-932.17 -949.36 1656.9
-935.69 -957.35 1670.9
-904.32 -929.55 1622.4
-883.12 -912.01 1591.7
-878.04 -911.02 1590.0
-874.25 -911.36 1590.6
-888.90 -931.02 1624.9
-891.01 -937.68 1636.5
-855.19 -917.47 1601.3
-846.75 -912.84 1593.2
-847.51 -918.13 1602.4
-859.86 -936.10 1633.8
-855.52 -935.99 1633.6
-856.54 -941.76 1643.7
-867.35 -958.43 1672.8
-840.45 -933.37 1629.0
-792.18 -884.20 1543.2
-792.88 -889.48 1552.4
-833.89 -940.26 1641.0
-845.99 -958.79 1673.4
-824.35 -939.08 1639.0
-789.72 -904.29 1578.3
-803.34 -929.52 1622.3
-768.91 -908.71 1586.0
-786.64 -934.66 1631.3
-801.86 -957.90 1671.8
-798.54 -959.12 1674.0
-785.70 -948.85 1656.0
-788.46 -957.42 1671.0
-715.42 -893.27 1559.0
-730.34 -917.07 1600.6
-737.00 -930.73 1624.4
-734.08 -932.37 1627.3
-726.43 -927.98 1619.6
-723.50 -929.61 1622.5
-705.39 -950.55 1659.0
-704.01 -954.51 1665.9
-697.11 -951.00 1659.8
-658.58 -904.01 1577.8
-661.26 -936.79 1635.0
-648.92 -925.24 1614.8
-632.75 -908.03 1584.8
-668.34 -978.17 1707.2
-648.82 -968.85 1690.9
-630.11 -947.31 1653.4
-599.41 -907.33 1583.6
-595.70 -907.93 1584.6
-631.69 -983.13 1715.9
-618.50 -976.34 1704.0
-612.09 -973.17 1698.5
-586.13 -938.66 1638.3
-559.03 -921.99 1609.2
-550.05 -913.99 1595.2
-536.28 -897.87 1567.1
-550.92 -929.42 1622.1
-574.55 -976.74 1704.7
-579.12 -992.13 1731.6
-557.82 -963.11 1680.9
-544.73 -947.91 1654.4
-537.76 -943.21 1646.2
-518.91 -917.44 1601.2
-524.01 -941.51 1643.2
-540.43 -978.97 1708.6
-522.38 -954.10 1665.2
-476.86 -916.39 1599.4
-479.17 -937.14 1635.6
-473.96 -935.23 1632.3
-469.74 -935.24 1632.3
-474.64 -953.59 1664.3
-462.00 -936.71 1634.9
-463.43 -966.20 1686.3
-467.10 -983.14 1715.9
-449.67 -955.56 1667.7
-451.21 -968.14 1689.7
-431.37 -943.88 1647.4
-408.21 -902.14 1574.5
-421.28 -940.42 1641.3
-410.98 -926.79 1617.5
-404.24 -950.40 1658.7
-411.59 -978.08 1707.1
-407.15 -978.03 1707.0
-388.06 -942.43 1644.8
-364.16 -904.25 1578.2
-377.70 -948.54 1655.5
-372.80 -946.99 1652.8
-365.44 -939.09 1639.0
-361.71 -940.46 1641.4
-343.43 -948.72 1655.8
-354.14 -990.69 1729.1
-342.88 -984.11 1717.6
-321.87 -935.96 1633.5
-319.75 -942.19 1644.4
-320.69 -957.74 1671.6
-317.93 -962.50 1679.9
-306.97 -942.23 1644.5
-293.51 -913.60 1594.5
-287.49 -948.28 1655.0
-278.88 -933.84 1629.8
-252.45 -914.62 1596.3
-245.18 -903.07 1576.1
-242.22 -907.28 1583.5
-247.75 -944.03 1647.6
-240.50 -932.46 1627.4
-226.66 -910.78 1589.6
-222.85 -912.01 1591.8
-209.60 -908.29 1585.2
-212.59 -939.64 1640.0
-209.59 -945.31 1649.9
-197.30 -968.95 1691.1
-184.09 -946.12 1651.3
-154.03 -920.01 1605.7
-150.70 -925.14 1614.7
-146.38 -924.31 1613.2
-141.16 -917.53 1601.4
-137.40 -920.16 1606.0
-132.40 -914.36 1595.9
-119.52 -910.82 1589.7
-115.60 -912.44 1592.5
-103.43 -914.29 1595.7
-99.03 -911.92 1591.6
-94.87 -911.53 1590.9
-91.79 -922.06 1609.3
-86.92 -914.72 1596.5
-83.42 -921.76 1608.8
-82.29 -957.12 1670.5
-77.96 -957.21 1670.6
-58.20 -918.76 1603.5
-42.71 -943.83 1647.3
-8.46 -934.62 1631.2
-4.28 -946.56 1652.0
0.00 -951.53 1660.7
4.24 -937.11 1635.6
8.35 -922.69 1610.4
12.73 -938.09 1637.3
17.29 -955.47 1667.6
21.21 -937.55 1636.3
24.68 -909.19 1586.8
28.62 -903.69 1577.2
33.81 -933.98 1630.1
38.74 -951.34 1660.4
41.90 -925.94 1616.1
49.71 -915.40 1597.7
53.64 -911.87 1591.5
58.74 -927.21 1618.3
75.58 -927.90 1619.5
78.57 -913.91 1595.1
96.78 -929.90 1623.0
100.06 -921.35 1608.1
103.88 -918.26 1602.7
106.73 -907.23 1583.4
110.03 -900.65 1571.9
115.54 -911.94 1591.6
118.28 -901.39 1573.2
123.42 -909.19 1586.8
133.57 -952.20 1661.9
139.65 -964.45 1683.3
139.25 -932.56 1627.6
139.02 -903.65 1577.2
142.54 -900.03 1570.8
146.75 -900.86 1572.3
149.80 -894.74 1561.6
153.99 -895.57 1563.0
164.39 -931.55 1625.8
169.29 -935.32 1632.4
191.76 -941.75 1643.6
198.14 -951.92 1661.4
200.08 -940.82 1642.0
197.85 -910.94 1589.9
201.49 -908.74 1586.0
210.02 -928.28 1620.1
209.38 -907.30 1583.5
206.34 -876.95 1530.5
220.07 -900.66 1571.9
233.79 -939.40 1639.5
232.47 -917.43 1601.2
230.45 -893.51 1559.4
233.78 -890.79 1554.7
238.80 -894.47 1561.1
262.20 -905.41 1580.2
263.90 -897.25 1566.0
269.34 -901.87 1574.1
272.43 -898.63 1568.4
278.22 -904.22 1578.2
290.35 -929.95 1623.1
299.12 -944.37 1648.2
299.82 -933.24 1628.8
297.86 -914.26 1595.7
298.49 -903.63 1577.1
315.40 -905.24 1579.9
316.44 -896.57 1564.8
319.67 -894.27 1560.8
323.59 -893.92 1560.2
329.12 -897.97 1567.2
336.68 -907.39 1583.7
353.85 -909.32 1587.0
356.66 -906.01 1581.3
352.84 -886.11 1546.5
372.41 -866.35 1512.0
375.95 -865.46 1510.5
411.87 -901.22 1572.9
407.25 -882.37 1540.0
413.29 -886.78 1547.7
417.10 -886.33 1546.9
417.68 -879.12 1534.3
425.39 -886.89 1547.9
421.23 -870.01 1518.4
447.74 -899.54 1570.0
458.35 -912.57 1592.7
450.26 -888.47 1550.7
466.01 -903.41 1576.7
482.11 -926.50 1617.0
479.98 -914.45 1596.0
486.14 -902.84 1575.7
485.26 -893.69 1559.8
495.21 -889.76 1552.9
489.54 -872.49 1522.8
503.87 -863.22 1506.6
526.56 -895.15 1562.3
543.01 -916.06 1598.8
538.56 -901.68 1573.7
531.13 -882.55 1540.3
520.94 -859.16 1499.5
576.01 -896.47 1564.6
580.27 -866.49 1512.3
629.40 -909.13 1586.7
635.04 -911.32 1590.5
598.55 -853.42 1489.5
602.42 -848.00 1480.0
627.94 -878.31 1532.9
609.58 -841.98 1469.5
636.10 -873.16 1523.9
651.58 -888.88 1551.4
665.79 -902.70 1575.5
651.74 -878.26 1532.8
637.83 -854.31 1491.0
667.12 -888.15 1550.1
698.87 -892.77 1558.2
701.10 -885.39 1545.3
688.37 -864.38 1508.6
697.30 -870.64 1519.5
707.76 -878.73 1533.7
721.27 -890.50 1554.2
716.10 -879.21 1534.5
693.49 -846.75 1477.8
697.91 -847.46 1479.1
738.77 -877.79 1532.0
746.80 -882.59 1540.4
762.66 -896.53 1564.7
777.83 -909.53 1587.4
766.92 -864.75 1509.3
748.32 -839.48 1465.2
812.09 -884.09 1543.0
791.62 -857.59 1496.8
806.07 -856.45 1494.8
774.82 -815.41 1423.1
802.28 -840.30 1466.6
820.87 -855.72 1493.5
828.78 -859.91 1500.8
808.52 -834.96 1457.3
794.60 -816.77 1425.5
779.31 -782.86 1366.3
974.88 -822.32 1435.2
1003.60 -843.33 1471.9
984.17 -808.56 1411.2
999.82 -818.37 1428.3
974.42 -794.63 1386.9
1019.38 -798.88 1394.3
1084.25 -846.71 1477.8
1076.75 -837.89 1462.4
1013.59 -785.98 1371.8
1062.44 -815.27 1422.9
1034.51 -791.10 1380.7
1051.23 -801.11 1398.2
1082.79 -822.33 1435.2
1066.18 -806.94 1408.4
1090.38 -816.86 1425.7
1092.39 -815.60 1423.5
1094.95 -814.76 1422.0
1070.21 -793.68 1385.2
1034.17 -764.39 1334.1
1080.06 -790.37 1379.4
1120.69 -796.37 1389.9
-1496.47 -1044.70 1815.1
-1459.12 -1021.84 1775.4
-1447.95 -1017.23 1767.4
-1466.38 -1040.05 1807.0
-1452.05 -1043.22 1812.6
-1502.94 -1083.29 1882.2
-1517.81 -1097.57 1907.0
-1507.65 -1093.79 1900.4
-1510.52 -1099.46 1910.3
-1458.25 -1071.96 1862.5
-1405.08 -1036.30 1800.5
-1413.23 -1052.81 1829.2
-1398.85 -1045.60 1816.7
-1327.84 -1002.66 1742.1
-1279.05 -969.11 1683.8
-1289.17 -980.12 1702.9
-1360.50 -1037.91 1803.3
-1323.38 -1013.07 1760.2
-1237.93 -950.94 1652.2
-1172.41 -913.25 1586.7
-1192.33 -945.35 1642.5
-1250.36 -994.91 1728.6
-1177.32 -943.56 1639.4
-1145.65 -931.63 1618.7
-1139.99 -930.43 1616.6
-1098.89 -913.69 1587.5
-1105.10 -922.30 1602.4
-1086.68 -910.35 1581.7
-1077.53 -906.10 1574.3
-1060.77 -895.40 1555.7
-1071.98 -908.32 1578.2
-1095.75 -932.02 1619.3
-1073.45 -916.56 1592.5
-1067.35 -914.87 1589.5
-1057.25 -909.72 1580.6
-1040.62 -902.42 1567.9
-1068.39 -930.13 1616.0
-1073.16 -937.96 1629.7
-1059.59 -929.76 1615.4
-1049.80 -928.51 1613.2
-1082.38 -961.15 1670.0
-1046.08 -936.41 1627.0
-994.67 -904.99 1572.4
-979.08 -894.46 1554.1
-957.34 -878.22 1525.9
-970.47 -893.96 1553.2
-977.32 -904.02 1570.7
-963.22 -906.08 1574.3
-981.98 -927.66 1611.8
-991.74 -940.88 1634.7
-947.65 -910.72 1582.3
-931.56 -903.08 1569.1
-926.97 -902.57 1568.2
-929.56 -913.11 1586.5
-907.34 -895.24 1555.4
-915.97 -915.97 1591.4
-919.78 -923.94 1605.3
-916.88 -925.21 1607.5
-891.89 -904.10 1570.8
-907.52 -924.17 1605.7
-920.37 -941.58 1636.0
-908.32 -942.28 1637.2
-884.15 -921.50 1601.1
-875.66 -921.31 1600.7
-879.09 -929.33 1614.7
-859.06 -939.46 1632.3
-858.86 -943.89 1640.0
-838.86 -926.51 1609.8
-828.43 -919.55 1597.7
-836.40 -933.07 1621.2
-819.89 -919.27 1597.2
-778.23 -895.16 1555.3
-804.54 -930.25 1616.3
-825.06 -958.97 1666.2
-802.56 -937.73 1629.3
-772.05 -916.55 1592.5
-792.83 -946.28 1644.1
-790.73 -948.88 1648.6
-771.42 -930.73 1617.1
-771.64 -936.08 1626.4
-789.98 -963.60 1674.2
-782.49 -959.74 1667.5
-765.28 -943.84 1639.9
-761.62 -944.58 1641.2
-727.67 -912.67 1585.7
-730.37 -921.26 1600.6
-722.02 -915.93 1591.4
-729.03 -952.02 1654.1
-704.33 -925.22 1607.5
-709.10 -948.31 1647.6
-712.30 -958.36 1665.1
-710.92 -962.34 1672.0
-680.61 -926.97 1610.6
-661.77 -929.83 1615.5
-665.03 -940.37 1633.8
-656.63 -934.44 1623.5
-663.08 -949.70 1650.1
-666.45 -960.73 1669.2
-633.00 -918.47 1595.8
-606.20 -909.30 1579.9
-610.97 -922.69 1603.1
-603.17 -917.15 1593.5
-595.10 -911.12 1583.0
-603.39 -943.33 1639.0
-632.75 -996.25 1730.9
-618.32 -987.53 1715.8
-575.17 -925.27 1607.6
-576.66 -934.44 1623.5
-583.04 -951.72 1653.6
-551.20 -920.05 1598.5
-570.71 -959.83 1667.7
-554.02 -938.88 1631.3
-546.76 -933.70 1622.3
-574.90 -989.36 1719.0
-534.56 -934.42 1623.5
-517.30 -918.72 1596.2
-545.66 -976.92 1697.3
-510.68 -921.71 1601.4
-503.20 -938.75 1631.0
-489.77 -921.43 1600.9
-477.21 -913.28 1586.8
-489.87 -945.65 1643.0
-489.09 -952.45 1654.8
-495.40 -973.27 1691.0
-490.55 -972.34 1689.4
-469.73 -939.45 1632.3
-457.58 -923.48 1604.5
-459.61 -936.08 1626.4
-459.63 -944.80 1641.5
-460.29 -954.99 1659.2
-468.50 -981.19 1704.8
-462.47 -977.80 1698.9
-436.68 -932.15 1619.6
-424.81 -915.60 1590.8
-422.67 -919.94 1598.3
-429.14 -943.25 1638.9
-444.17 -986.05 1713.2
-441.24 -989.44 1719.1
-416.34 -943.14 1638.7
-404.84 -956.12 1661.2
-400.31 -955.57 1660.3
-379.78 -936.80 1627.6
-373.35 -952.70 1655.3
-370.17 -955.55 1660.2
-371.27 -969.66 1684.7
-347.19 -939.94 1633.1
-321.62 -915.37 1590.4
-329.89 -951.11 1652.5
-333.64 -974.58 1693.3
-335.69 -993.63 1726.4
-307.60 -948.42 1647.8
-293.82 -918.71 1596.2
-281.85 -920.14 1598.7
-285.09 -944.62 1641.2
-276.23 -929.14 1614.3
-275.89 -942.27 1637.2
-277.57 -962.82 1672.9
-267.57 -942.87 1638.2
-261.61 -936.74 1627.5
-257.88 -938.51 1630.6
-246.65 -912.59 1585.6
-244.45 -919.78 1598.1
-250.58 -959.13 1666.4
-246.33 -959.40 1666.9
-239.08 -947.79 1646.7
-232.06 -936.67 1627.4
-225.37 -926.52 1609.8
-225.75 -945.59 1642.9
-226.77 -968.13 1682.1
-216.66 -943.11 1638.6
-208.45 -925.50 1608.0
-207.61 -940.60 1634.3
-200.31 -926.45 1609.7
-192.16 -927.38 1611.3
-192.75 -950.92 1652.2
-188.71 -952.12 1654.3
-182.15 -940.41 1633.9
-165.34 -917.65 1594.4
-161.07 -916.83 1593.0
-157.22 -918.50 1595.9
-150.79 -904.75 1572.0
-135.03 -908.38 1578.3
-132.89 -921.96 1601.9
-126.40 -905.18 1572.7
-124.16 -918.76 1596.3
-117.31 -897.99 1560.2
-109.30 -933.22 1621.4
-107.57 -955.26 1659.7
-102.42 -947.40 1646.1
-96.93 -935.56 1625.5
-92.53 -933.67 1622.2
-86.96 -919.32 1597.3
-82.79 -918.92 1596.6
-81.04 -946.92 1645.2
-76.10 -938.54 1630.7
-55.74 -951.87 1653.8
-51.46 -951.93 1653.9
-46.01 -928.54 1613.3
-42.19 -936.57 1627.2
-38.52 -950.08 1650.7
-20.85 -925.78 1608.5
-17.33 -961.71 1670.9
-12.80 -947.26 1645.8
-8.37 -928.82 1613.8
-4.24 -941.79 1636.3
0.00 -948.28 1647.6
20.41 -906.32 1574.7
24.25 -897.32 1559.0
28.12 -891.80 1549.5
33.29 -923.69 1604.9
39.16 -966.04 1678.5
43.60 -967.99 1681.8
54.22 -925.94 1608.8
61.44 -974.24 1692.7
64.54 -955.22 1659.7
69.43 -906.72 1575.4
73.79 -910.12 1581.3
81.00 -946.42 1644.4
86.11 -955.80 1660.7
86.44 -913.84 1587.8
99.35 -958.97 1666.2
103.07 -953.38 1656.5
105.95 -940.81 1634.6
107.78 -920.27 1598.9
128.19 -948.62 1648.2
134.04 -959.92 1667.8
135.69 -941.36 1635.6
155.02 -930.11 1616.0
161.90 -945.84 1643.3
169.62 -965.53 1677.6
171.61 -952.42 1654.8
168.98 -914.98 1589.7
172.50 -911.81 1584.2
179.94 -928.99 1614.1
190.77 -962.54 1672.4
193.56 -954.89 1659.1
198.29 -936.59 1627.3
203.32 -940.33 1633.8
199.40 -903.41 1569.6
200.18 -888.82 1544.3
226.33 -930.48 1616.7
237.09 -956.96 1662.7
263.46 -899.83 1563.4
270.36 -909.40 1580.0
282.68 -909.48 1580.2
285.12 -904.24 1571.1
293.35 -917.23 1593.6
299.45 -923.31 1604.2
304.47 -925.93 1608.8
300.17 -900.50 1564.6
306.54 -895.41 1555.7
321.37 -926.53 1609.8
325.24 -925.69 1608.3
319.32 -897.34 1559.1
348.16 -898.73 1561.5
357.43 -912.06 1584.7
359.44 -906.78 1575.5
359.84 -897.59 1559.5
366.90 -905.02 1572.4
378.43 -923.19 1604.0
384.03 -926.69 1610.1
368.67 -861.53 1496.9
417.63 -946.07 1643.7
426.26 -955.84 1660.7
422.68 -938.35 1630.3
422.42 -876.42 1522.7
438.64 -901.66 1566.6
438.51 -877.02 1523.8
432.95 -858.17 1491.0
437.08 -858.68 1491.9
461.30 -898.33 1560.8
473.10 -913.29 1586.8
466.36 -892.52 1550.7
467.33 -886.72 1540.6
477.21 -897.80 1559.9
486.41 -907.42 1576.6
483.45 -894.39 1554.0
476.45 -874.15 1518.8
485.66 -883.75 1535.5
500.55 -903.44 1569.7
494.94 -886.10 1539.5
480.52 -853.40 1482.7
513.43 -897.49 1559.3
527.94 -915.65 1590.9
520.61 -895.94 1556.6
528.54 -902.58 1568.2
540.47 -915.91 1591.4
532.04 -894.79 1554.6
555.85 -862.93 1499.3
569.84 -878.50 1526.3
592.00 -906.37 1574.8
611.96 -905.70 1573.6
598.59 -880.05 1529.0
610.55 -891.72 1549.3
643.40 -933.56 1622.0
639.64 -922.07 1602.1
612.42 -877.15 1524.0
626.11 -885.33 1538.2
651.73 -915.73 1591.0
645.85 -896.12 1557.0
660.31 -910.49 1581.9
663.59 -909.36 1580.0
656.88 -894.65 1554.4
676.21 -883.06 1534.3
675.74 -877.27 1524.2
693.23 -894.76 1554.6
697.46 -895.01 1555.0
673.29 -859.02 1492.5
692.37 -878.33 1526.0
730.37 -921.26 1600.6
716.95 -899.23 1562.4
705.22 -879.54 1528.2
736.80 -874.70 1519.7
763.49 -901.57 1566.4
794.68 -933.44 1621.8
778.61 -909.75 1580.6
767.01 -868.76 1509.4
774.33 -872.60 1516.1
805.94 -881.37 1531.3
817.97 -890.15 1546.6
792.41 -858.13 1491.0
818.70 -882.29 1532.9
763.87 -807.52 1403.0
793.83 -835.22 1451.2
814.96 -853.41 1482.8
850.04 -885.96 1539.3
810.41 -836.79 1453.9
771.11 -792.52 1377.0
1037.34 -828.38 1439.3
1025.68 -816.13 1418.0
974.53 -772.66 1342.5
987.69 -780.31 1355.8
1063.53 -837.25 1454.7
1082.32 -849.03 1475.1
1031.24 -806.11 1400.6
1011.17 -787.65 1368.5
1038.01 -805.73 1399.9
1030.75 -789.06 1370.9
1060.06 -808.70 1405.1
1106.26 -835.34 1451.4
1129.20 -846.90 1471.5
1115.19 -833.58 1448.3
1072.16 -798.72 1387.7
1063.49 -789.61 1371.9
1070.41 -792.10 1376.2
1128.93 -821.72 1427.7
1108.22 -804.00 1396.9
1116.85 -799.81 1389.6
1137.60 -812.05 1410.9
1094.68 -761.81 1323.6
-1435.76 -1026.20 1775.0
-1450.41 -1040.00 1798.9
-1466.11 -1054.66 1824.2
-1524.47 -1100.18 1902.9
-1508.62 -1092.28 1889.3
-1457.08 -1058.40 1830.7
-1482.73 -1080.55 1869.0
-1524.05 -1114.31 1927.4
-1502.61 -1102.24 1906.5
-1505.98 -1108.36 1917.1
-1470.05 -1089.11 1883.8
-1367.84 -1016.76 1758.6
-1434.91 -1070.18 1851.0
-1439.38 -1077.12 1863.0
-1327.54 -1000.14 1729.9
-1390.67 -1051.25 1818.3
-1362.60 -1033.54 1787.7
-1292.89 -984.01 1702.0
-1275.22 -977.23 1690.3
-1314.70 -1010.96 1748.6
-1301.17 -1004.02 1736.6
-1235.56 -956.70 1654.8
-1187.61 -935.82 1618.7
-1209.46 -963.25 1666.1
-1223.89 -985.30 1704.2
-1176.46 -950.55 1644.1
-1153.42 -935.32 1617.8
-1135.19 -923.89 1598.0
-1150.98 -940.18 1626.2
-1122.90 -920.61 1592.4
-1088.12 -905.41 1566.1
-1102.10 -920.48 1592.1
-1113.92 -933.85 1615.2
-1102.14 -927.46 1604.2
-1095.50 -925.36 1600.6
-1082.76 -918.08 1588.0
-1045.74 -890.08 1539.5
-1051.38 -901.76 1559.7
-1094.10 -942.02 1629.4
-1092.44 -944.24 1633.2
-1066.78 -925.65 1601.1
-1058.68 -922.21 1595.1
-1060.53 -927.44 1604.2
-1044.02 -916.60 1585.4
-1046.45 -929.72 1608.1
-1060.90 -946.32 1636.8
-1055.23 -945.05 1634.6
-1048.11 -942.45 1630.1
-1025.97 -926.28 1602.1
-986.85 -905.63 1566.4
-976.08 -899.44 1555.7
-999.13 -924.50 1599.1
-1010.62 -939.03 1624.2
-981.82 -916.09 1584.5
-957.89 -916.77 1585.7
-989.29 -950.91 1644.8
-960.44 -935.28 1617.7
-965.32 -944.15 1633.1
-966.96 -949.92 1643.0
-953.62 -940.96 1627.5
-910.59 -902.49 1561.0
-910.74 -923.16 1596.7
-930.78 -947.78 1639.3
-922.52 -943.68 1632.2
-912.97 -938.22 1622.8
-882.99 -933.21 1614.1
-901.31 -957.11 1655.5
-906.71 -967.45 1673.4
-873.88 -941.43 1628.3
-820.88 -888.63 1537.0
-829.10 -929.09 1607.0
-834.55 -939.93 1625.8
-821.32 -929.72 1608.1
-785.05 -907.07 1568.9
-796.66 -925.28 1600.4
-801.43 -935.70 1618.4
-806.90 -947.05 1638.1
-758.49 -899.69 1556.2
-782.54 -933.18 1614.1
-786.68 -943.17 1631.4
-771.82 -935.42 1618.0
-796.35 -970.42 1678.5
-795.27 -974.42 1685.4
-768.94 -947.37 1638.6
-743.94 -921.65 1594.1
-732.18 -912.15 1577.7
-723.41 -916.60 1585.4
-692.63 -903.26 1562.3
-717.97 -941.81 1629.0
-718.89 -948.60 1640.8
-691.18 -917.46 1586.9
-694.94 -927.98 1605.1
-705.95 -948.36 1640.3
-708.81 -957.97 1657.0
-687.76 -935.19 1617.6
-642.73 -907.14 1569.1
-661.71 -939.88 1625.7
-651.41 -943.27 1631.5
-594.87 -896.32 1550.3
-618.19 -937.80 1622.1
-614.70 -938.90 1624.0
-623.69 -965.86 1670.6
-633.21 -987.46 1708.0
-612.80 -962.35 1664.5
-599.82 -948.66 1640.9
-600.45 -956.43 1654.3
-570.04 -914.52 1581.8
-574.89 -935.77 1618.6
-595.58 -976.57 1689.1
-570.69 -942.69 1630.5
-544.91 -913.65 1580.3
-567.56 -958.84 1658.5
-554.86 -944.54 1633.7
-532.75 -913.88 1580.7
-544.55 -941.35 1628.2
-552.80 -963.08 1665.8
-538.91 -961.41 1662.9
-521.59 -945.64 1635.6
-496.39 -914.84 1582.4
-508.18 -944.36 1633.4
-517.13 -969.07 1676.2
-506.92 -958.00 1657.0
-487.66 -929.48 1607.7
-482.10 -951.39 1645.6
-478.08 -951.90 1646.5
-457.87 -919.86 1591.1
-450.63 -913.54 1580.1
-456.98 -934.92 1617.1
-449.25 -927.62 1604.5
-451.10 -949.02 1641.5
-446.16 -947.55 1638.9
-430.99 -924.14 1598.4
-433.76 -957.72 1656.5
-446.10 -994.81 1720.7
-441.85 -995.28 1721.5
-429.22 -976.69 1689.3
-410.57 -943.89 1632.6
-405.23 -961.35 1662.8
-398.45 -955.42 1652.5
-373.04 -924.31 1598.7
-374.73 -938.94 1624.0
-362.98 -930.41 1609.3
-357.64 -927.36 1604.0
-356.06 -934.14 1615.7
-357.39 -948.78 1641.1
-358.59 -963.44 1666.4
-359.84 -978.59 1692.6
-345.58 -951.41 1645.6
-319.14 -924.27 1598.7
-317.97 -933.00 1613.8
-330.48 -995.90 1722.6
-315.24 -976.36 1688.8
-308.29 -968.30 1674.8
-300.17 -956.27 1654.0
-294.15 -950.66 1644.3
-283.95 -931.19 1610.6
-268.31 -906.56 1568.0
-271.40 -931.12 1610.5
-279.11 -972.53 1682.2
-274.56 -971.85 1681.0
-264.77 -952.32 1647.2
-257.46 -941.20 1628.0
-251.05 -933.05 1613.9
-253.76 -959.13 1659.0
-255.60 -982.73 1699.8
-246.31 -963.65 1666.8
-235.11 -970.91 1679.3
-223.73 -941.34 1628.2
-211.89 -945.05 1634.6
-204.54 -930.86 1610.1
-201.80 -937.55 1621.6
-198.38 -941.26 1628.1
-192.56 -933.51 1614.7
-187.72 -930.23 1609.0
-183.88 -931.94 1611.9
-171.08 -930.54 1609.5
-168.56 -939.70 1625.4
-165.86 -948.36 1640.3
-157.90 -926.60 1602.7
-145.05 -898.50 1554.1
-143.24 -912.64 1578.6
-142.29 -933.26 1614.2
-138.98 -968.51 1675.2
-128.34 -923.23 1596.9
-123.08 -914.88 1582.4
-109.41 -938.38 1623.1
-105.60 -941.99 1629.3
-101.23 -940.61 1626.9
-96.35 -934.22 1615.9
-92.87 -941.33 1628.2
-88.18 -936.43 1619.7
-82.20 -916.53 1585.3
-78.95 -926.62 1602.7
-75.77 -938.71 1623.6
-69.24 -908.28 1571.0
-57.85 -921.50 1593.9
-55.76 -956.58 1654.6
-51.80 -962.65 1665.1
-46.57 -944.19 1633.1
-41.98 -936.23 1619.4
-37.71 -934.28 1616.0
-17.53 -977.47 1690.7
-12.35 -917.93 1587.7
16.06 -895.39 1548.7
21.24 -947.42 1638.7
24.99 -928.88 1606.6
28.69 -913.83 1580.6
32.91 -917.30 1586.6
37.54 -930.27 1609.1
42.99 -958.75 1658.3
46.67 -946.19 1636.6
49.35 -917.12 1586.3
55.04 -944.08 1632.9
60.74 -967.52 1673.5
62.25 -925.43 1600.7
64.56 -899.85 1556.4
69.01 -905.28 1565.8
72.58 -899.20 1555.3
78.91 -926.12 1601.9
86.10 -960.03 1660.5
88.56 -940.43 1626.6
100.10 -930.12 1608.8
106.11 -946.49 1637.1
108.42 -929.88 1608.4
121.85 -936.99 1620.7
127.38 -946.84 1637.7
142.30 -906.65 1568.2
149.64 -926.94 1603.3
155.67 -938.24 1622.8
159.68 -937.07 1620.8
164.64 -941.38 1628.3
172.31 -960.63 1661.6
175.85 -956.45 1654.3
179.54 -953.26 1648.8
186.75 -968.51 1675.2
191.94 -972.78 1682.6
188.82 -935.71 1618.5
186.84 -886.50 1533.4
196.13 -911.18 1576.0
197.21 -897.52 1552.4
204.09 -910.23 1574.4
209.82 -917.46 1586.9
209.36 -897.84 1553.0
220.30 -926.93 1603.3
225.72 -932.15 1612.3
246.37 -915.69 1583.8
244.98 -895.58 1549.1
267.22 -916.75 1585.7
279.38 -890.01 1539.4
291.61 -915.90 1584.2
297.19 -907.85 1570.3
302.95 -912.95 1579.1
306.27 -910.64 1575.1
308.39 -904.88 1565.1
312.33 -904.54 1564.5
320.41 -916.03 1584.4
338.07 -886.94 1534.1
361.62 -937.68 1621.9
371.46 -941.31 1628.1
374.23 -927.25 1603.8
392.23 -961.17 1662.5
394.14 -955.35 1652.4
417.19 -949.31 1642.0
413.22 -930.79 1609.9
418.95 -934.25 1615.9
424.92 -938.19 1622.8
423.45 -916.79 1585.7
442.28 -921.77 1594.4
457.26 -944.16 1633.1
429.10 -862.07 1491.1
437.86 -871.81 1507.9
457.02 -901.91 1560.0
461.06 -901.91 1560.0
450.36 -873.31 1510.5
457.31 -879.13 1520.6
472.17 -899.95 1556.6
471.08 -890.26 1539.8
468.10 -877.19 1517.2
474.63 -882.01 1525.6
476.74 -878.62 1519.7
475.12 -868.46 1502.1
480.07 -870.38 1505.5
498.44 -896.39 1550.5
508.92 -907.92 1570.4
526.02 -916.42 1585.1
522.11 -895.62 1549.1
532.58 -906.60 1568.1
518.99 -876.78 1516.5
508.58 -852.74 1474.9
521.31 -867.55 1500.6
534.15 -882.34 1526.1
545.79 -888.41 1536.6
566.89 -916.06 1584.5
571.82 -917.39 1586.8
571.67 -910.59 1575.0
562.71 -889.96 1539.3
559.72 -866.79 1499.3
604.09 -929.05 1606.9
607.36 -909.01 1572.3
598.58 -889.89 1539.2
594.14 -877.44 1517.7
607.67 -891.52 1542.0
643.08 -937.30 1621.2
643.24 -931.45 1611.1
619.70 -891.56 1542.1
619.50 -879.93 1522.0
662.11 -934.50 1616.4
644.53 -898.32 1553.8
631.46 -858.63 1485.1
641.44 -866.92 1499.5
674.48 -884.76 1530.3
695.14 -906.53 1568.0
694.00 -899.78 1556.3
679.77 -876.23 1515.6
716.09 -867.87 1501.1
752.78 -907.40 1569.5
740.45 -887.74 1535.5
722.16 -861.19 1489.6
714.72 -838.85 1450.9
722.62 -843.69 1459.3
748.54 -860.44 1488.3
752.19 -860.19 1487.8
778.77 -886.05 1532.6
803.94 -910.04 1574.1
789.88 -889.61 1538.7
789.56 -875.98 1515.1
769.69 -849.71 1469.7
781.14 -858.10 1484.2
789.32 -862.84 1492.4
760.33 -827.09 1430.6
782.69 -847.28 1465.5
783.71 -844.29 1460.3
792.59 -841.66 1455.8
824.35 -871.23 1506.9
795.74 -837.03 1447.8
831.40 -862.34 1491.5
798.76 -824.65 1426.4
794.31 -816.27 1411.9
795.94 -814.20 1408.3
936.29 -806.15 1394.4
985.42 -838.73 1450.7
1001.43 -849.12 1468.7
985.39 -832.35 1439.7
1008.35 -823.67 1424.7
998.96 -804.22 1391.0
1033.85 -829.31 1434.4
999.91 -799.21 1382.4
1027.38 -812.43 1405.2
1022.47 -805.69 1393.6
1012.13 -786.43 1360.3
998.87 -773.43 1337.8
1010.57 -779.78 1348.8
1035.94 -796.60 1377.8
1069.25 -813.80 1407.6
1092.73 -828.84 1433.6
1083.17 -818.80 1416.2
1092.36 -822.96 1423.4
1099.90 -825.85 1428.4
1063.55 -795.88 1376.6
1057.65 -788.82 1364.4
1098.07 -816.23 1411.8
1092.74 -809.57 1400.3
1092.43 -806.66 1395.2
1138.76 -838.10 1449.6
1153.17 -845.91 1463.1
1123.55 -821.48 1420.9
1110.77 -809.48 1400.1
1104.16 -802.04 1387.3
1108.01 -797.05 1378.6
1117.28 -801.14 1385.7
1116.83 -798.24 1380.7
1139.92 -812.15 1404.7
1125.65 -799.42 1382.7
1079.55 -764.25 1321.9
1085.79 -761.42 1317.0
1159.65 -810.67 1402.2
-1455.31 -1044.84 1799.1
-1452.74 -1046.35 1801.7
-1451.31 -1048.69 1805.8
-1512.49 -1096.44 1888.0
-1506.34 -1095.52 1886.4
-1461.64 -1066.47 1836.4
-1499.70 -1097.82 1890.4
-1461.93 -1073.68 1848.8
-1369.96 -1012.78 1743.9
-1398.26 -1037.12 1785.9
-1483.46 -1103.97 1901.0
-1481.03 -1113.26 1917.0
-1347.90 -1016.60 1750.5
-1344.75 -1017.65 1752.3
-1396.20 -1060.17 1825.5
-1355.48 -1032.75 1778.3
-1269.51 -980.58 1688.5
-1253.92 -971.89 1673.5
-1237.31 -972.48 1674.6
-1244.97 -981.94 1690.8
-1234.88 -977.43 1683.1
-1216.99 -973.60 1676.5
-1184.29 -954.25 1643.2
-1138.49 -920.65 1585.3
-1135.52 -921.58 1586.9
-1159.30 -944.30 1626.0
-1188.17 -971.35 1672.6
-1167.79 -958.19 1649.9
-1107.40 -911.98 1570.4
-1117.57 -930.62 1602.5
-1132.54 -946.60 1630.0
-1104.27 -926.43 1595.3
-1072.54 -903.19 1555.2
-1052.19 -889.40 1531.5
-1040.08 -882.50 1519.6
-1065.60 -907.59 1562.8
-1066.14 -911.51 1569.6
-1032.30 -885.96 1525.6
-1051.51 -905.92 1559.9
-1071.59 -926.78 1595.9
-1043.95 -906.38 1560.7
-1026.94 -895.07 1541.3
-1034.82 -909.02 1565.3
-1021.36 -900.73 1551.0
-1008.95 -893.30 1538.2
-1028.06 -913.83 1573.6
-1053.90 -940.53 1619.5
-1061.95 -951.51 1638.4
-1036.29 -932.25 1605.3
-1009.30 -911.63 1569.8
-1018.30 -923.48 1590.2
-996.31 -907.21 1562.2
-981.21 -904.49 1557.5
-1011.95 -936.68 1612.9
-1008.24 -937.12 1613.7
-992.68 -926.50 1595.4
-969.16 -908.33 1564.1
-958.40 -917.45 1579.8
-935.74 -899.60 1549.1
-933.55 -905.26 1558.8
-973.44 -948.05 1632.5
-978.77 -957.40 1648.6
-961.28 -944.41 1626.2
-951.58 -939.00 1616.9
-927.45 -919.25 1582.9
-901.21 -897.21 1544.9
-889.00 -892.98 1537.7
-892.04 -900.08 1549.9
-876.29 -892.23 1536.4
-904.38 -925.03 1592.8
-905.00 -929.91 1601.2
-898.58 -927.57 1597.2
-856.00 -887.71 1528.6
-869.89 -910.54 1567.9
-851.50 -895.48 1542.0
-855.54 -903.97 1556.6
-869.35 -922.91 1589.2
-866.83 -924.62 1592.1
-865.15 -927.24 1596.6
-862.17 -928.49 1598.8
-866.34 -937.49 1614.3
-855.34 -930.08 1601.5
-824.35 -900.76 1551.0
-827.91 -931.92 1604.7
-841.07 -951.52 1638.5
-829.44 -943.12 1624.0
-807.41 -922.75 1588.9
-781.12 -897.28 1545.1
-779.54 -904.75 1557.9
-774.15 -903.18 1555.2
-775.08 -908.99 1565.2
-804.37 -958.40 1650.3
-803.05 -961.95 1656.4
-782.08 -941.86 1621.8
-756.65 -916.16 1577.6
-748.96 -911.78 1570.0
-776.99 -951.06 1637.7
-778.64 -958.32 1650.2
-768.95 -951.63 1638.6
-759.68 -945.38 1627.9
-730.35 -913.96 1573.8
-709.49 -929.40 1600.4
-715.88 -954.50 1643.6
-690.05 -925.58 1593.8
-671.43 -906.02 1560.1
-674.46 -915.63 1576.7
-680.39 -946.62 1630.0
-681.03 -953.45 1641.8
-647.04 -911.55 1569.6
-646.76 -916.93 1578.9
-651.09 -928.94 1599.6
-648.99 -956.41 1646.9
-650.57 -971.52 1672.9
-609.38 -922.31 1588.2
-626.01 -953.92 1642.6
-615.01 -943.58 1624.8
-624.19 -964.26 1660.4
-616.42 -972.38 1674.4
-595.90 -946.67 1630.1
-588.76 -942.01 1622.1
-561.38 -917.88 1580.5
-585.34 -964.09 1660.1
-567.49 -941.62 1621.4
-538.03 -913.02 1572.2
-545.83 -933.34 1607.1
-542.83 -935.35 1610.6
-540.65 -938.80 1616.6
-511.09 -915.88 1577.1
-519.21 -953.31 1641.5
-529.91 -980.99 1689.2
-522.51 -983.55 1693.6
-441.38 -932.72 1606.1
-441.56 -941.99 1622.0
-426.23 -936.04 1611.8
-429.32 -952.17 1639.6
-435.78 -976.15 1680.9
-435.53 -985.44 1696.9
-427.25 -976.58 1681.6
-419.05 -967.71 1666.3
-410.09 -956.87 1647.7
-393.73 -948.34 1633.0
-403.41 -982.21 1691.3
-382.61 -941.80 1621.7
-374.81 -932.86 1606.3
-378.63 -952.97 1640.9
-377.06 -959.78 1652.7
-372.74 -959.69 1652.5
-370.12 -964.04 1660.0
-359.23 -946.68 1630.1
-350.89 -935.72 1611.2
-350.70 -946.47 1629.8
-349.51 -954.75 1644.0
-351.10 -970.94 1671.9
-346.02 -968.85 1668.3
-332.76 -943.51 1624.7
-329.19 -945.35 1627.8
-325.43 -946.70 1630.2
-309.62 -950.07 1636.0
-319.35 -993.54 1710.8
-306.70 -967.61 1666.2
-298.57 -969.26 1669.0
-300.07 -988.45 1702.1
-288.77 -965.44 1662.4
-282.36 -958.30 1650.1
-272.26 -938.24 1615.6
-269.36 -957.73 1649.1
-266.41 -962.50 1657.4
-261.51 -960.30 1653.6
-257.17 -960.09 1653.2
-246.40 -935.48 1610.8
-240.72 -945.98 1628.9
-227.52 -943.77 1625.1
-216.87 -916.59 1578.3
-224.30 -966.21 1663.8
-220.84 -969.95 1670.2
-198.69 -927.23 1596.6
-200.05 -953.42 1641.7
-198.40 -966.13 1663.6
-188.31 -937.36 1614.1
-179.36 -913.08 1572.3
-177.52 -924.78 1592.4
-177.56 -946.97 1630.6
-171.99 -939.67 1618.0
-166.49 -932.35 1605.5
-165.15 -948.55 1633.3
-146.91 -940.24 1619.0
-134.39 -940.71 1619.8
-128.47 -928.33 1598.5
-127.77 -954.03 1642.8
-121.39 -937.63 1614.5
-117.60 -940.77 1620.0
-111.78 -927.37 1596.9
-103.25 -925.10 1593.0
-101.98 -951.79 1638.9
-95.63 -931.34 1603.7
-90.89 -925.43 1593.5
-89.92 -959.14 1651.6
-87.57 -980.81 1688.9
-80.22 -945.78 1628.6
-70.95 -934.91 1609.9
-68.69 -961.59 1655.8
-62.92 -939.58 1617.9
-58.70 -939.15 1617.2
-56.87 -979.87 1687.3
-47.68 -970.95 1671.9
-43.01 -963.47 1659.0
-38.35 -954.48 1643.6
-33.14 -927.91 1597.8
-25.91 -967.14 1665.4
-17.11 -958.15 1649.9
-12.47 -931.05 1603.2
-8.44 -945.63 1628.3
-4.17 -933.58 1607.6
0.00 -927.56 1597.2
4.20 -940.61 1619.7
8.19 -917.51 1579.9
16.11 -901.91 1553.0
21.31 -954.62 1643.8
25.10 -937.02 1613.5
28.89 -924.43 1591.8
33.19 -929.42 1600.4
36.72 -913.81 1573.5
40.79 -913.77 1573.5
46.13 -939.33 1617.5
50.86 -949.31 1634.7
54.01 -930.68 1602.6
56.81 -909.03 1565.3
73.99 -920.78 1585.5
77.97 -919.19 1582.8
82.42 -923.12 1589.5
87.52 -933.56 1607.5
91.83 -934.96 1609.9
94.50 -920.31 1584.7
100.26 -935.75 1611.3
105.32 -943.65 1624.9
106.96 -921.47 1586.7
110.81 -919.35 1583.1
117.97 -943.78 1625.1
124.37 -960.68 1654.2
126.36 -943.51 1624.7
137.72 -907.35 1562.4
141.59 -906.19 1560.4
142.64 -887.51 1528.2
158.99 -890.34 1533.1
186.00 -925.87 1594.3
185.68 -904.18 1556.9
185.69 -884.99 1523.9
204.20 -914.80 1575.2
218.11 -957.98 1649.6
226.38 -975.19 1679.2
226.08 -955.49 1645.3
219.58 -910.86 1568.5
247.96 -910.55 1567.9
261.45 -944.59 1626.5
264.33 -939.82 1618.3
261.62 -915.67 1576.7
270.96 -933.77 1607.9
271.38 -921.05 1586.0
291.63 -933.21 1606.9
296.01 -933.88 1608.1
290.35 -903.31 1555.4
299.84 -907.62 1562.9
325.90 -901.27 1551.9
333.96 -912.27 1570.9
333.50 -900.06 1549.8
336.46 -897.22 1545.0
347.25 -915.11 1575.8
365.96 -953.19 1641.3
370.48 -943.03 1623.8
374.81 -932.86 1606.3
392.20 -965.42 1662.4
393.11 -957.13 1648.1
388.63 -936.05 1611.8
382.53 -911.55 1569.6
419.83 -931.10 1603.3
429.80 -943.87 1625.3
423.22 -920.41 1584.9
418.49 -876.09 1508.6
453.84 -899.64 1549.1
461.82 -907.43 1562.5
461.37 -898.67 1547.5
478.22 -923.46 1590.1
478.78 -916.64 1578.4
476.12 -867.07 1493.0
493.91 -892.22 1536.3
501.92 -899.44 1548.8
534.84 -914.54 1574.8
517.32 -877.87 1511.6
515.49 -868.19 1495.0
536.59 -896.99 1544.6
546.35 -906.53 1561.0
540.14 -889.63 1531.9
539.36 -881.88 1518.5
563.20 -907.61 1562.8
579.17 -926.68 1595.7
581.43 -923.69 1590.5
565.45 -891.98 1535.9
605.35 -922.45 1588.4
605.60 -916.59 1578.3
611.03 -866.28 1491.7
642.00 -904.45 1557.4
646.36 -882.83 1520.2
625.19 -848.75 1461.5
660.79 -875.84 1508.1
684.86 -902.40 1553.9
693.39 -908.30 1564.0
678.57 -883.72 1521.7
669.70 -867.13 1493.1
699.81 -875.74 1508.0
739.85 -920.70 1585.4
721.59 -888.11 1529.3
699.77 -851.89 1466.9
761.30 -911.93 1570.3
734.81 -866.30 1491.7
779.02 -913.61 1573.2
787.20 -918.40 1581.4
743.80 -863.27 1486.5
731.05 -839.77 1446.0
773.21 -883.67 1521.6
785.00 -892.59 1537.0
755.06 -854.21 1470.9
778.78 -842.74 1451.1
775.11 -834.73 1437.4
787.50 -844.02 1453.3
829.77 -885.09 1524.1
838.13 -889.77 1532.1
784.71 -829.13 1427.7
800.25 -833.75 1435.7
792.37 -821.71 1414.9
777.40 -802.48 1381.8
770.19 -791.39 1362.7
790.23 -808.27 1391.8
787.15 -797.83 1373.8
773.07 -780.04 1343.2
912.40 -789.11 1358.8
952.17 -801.83 1380.7
969.70 -813.53 1400.9
993.49 -830.38 1429.9
974.52 -811.49 1397.3
1001.86 -816.06 1405.2
1025.02 -831.90 1432.5
1030.34 -833.20 1434.7
1025.61 -826.39 1423.0
1003.44 -794.24 1367.6
1039.26 -819.70 1411.5
1028.10 -802.42 1381.7
1051.24 -817.63 1407.9
1034.78 -802.04 1381.1
1050.59 -795.04 1369.0
1063.58 -802.16 1381.3
1098.87 -815.06 1403.5
1133.96 -838.30 1443.5
1137.64 -838.26 1443.4
1119.31 -822.05 1415.5
1115.58 -816.63 1406.2
1102.75 -804.61 1385.5
1068.81 -777.32 1338.5
1070.59 -776.09 1336.4
1105.46 -798.78 1375.5
1123.30 -809.07 1393.2
1133.75 -813.98 1401.6
1135.04 -812.30 1398.7
1099.47 -784.34 1350.6
1064.89 -757.26 1303.9
1086.72 -765.49 1318.1
-1471.24 -1037.71 1778.9
-1533.42 -1088.39 1865.8
-1502.18 -1072.98 1839.4
-1511.65 -1093.64 1874.8
-1453.52 -1061.83 1820.3
-1452.59 -1064.60 1825.0
-1484.98 -1091.90 1871.8
-1435.72 -1066.13 1827.7
-1425.19 -1061.81 1820.3
-1470.58 -1099.27 1884.5
-1412.75 -1070.27 1834.7
-1348.67 -1025.17 1757.4
-1365.42 -1044.96 1791.4
-1325.42 -1017.81 1744.8
-1215.34 -959.48 1644.8
-1205.33 -954.93 1637.0
-1178.21 -936.74 1605.8
-1118.06 -908.17 1556.9
-1105.09 -907.46 1555.7
-1086.51 -895.47 1535.1
-1130.06 -945.22 1620.4
-1131.61 -950.04 1628.6
-1085.39 -914.65 1568.0
-1071.13 -906.03 1553.2
