ply
format ascii 1.0
element vertex 2269
property float x
property float y
property float z
end_header
12.94 420.58 2495.8
18.94 410.44 2435.6
26.08 423.73 2514.4
33.51 435.68 2585.3
38.51 417.22 2475.8
-275.59 410.18 2472.1
-254.13 406.61 2450.5
-245.90 414.14 2496.0
-243.54 421.25 2538.8
-232.62 425.36 2563.6
-180.22 411.93 2482.6
-174.85 414.45 2497.8
-152.62 424.69 2559.5
-141.23 410.86 2476.2
-133.44 406.67 2450.9
-127.77 408.85 2464.0
-123.24 415.11 2501.8
-119.20 423.83 2554.3
-106.19 424.74 2559.8
-96.84 413.17 2490.1
-87.21 398.65 2402.6
-81.42 400.81 2415.6
-77.67 414.26 2496.7
-70.67 411.19 2478.1
-61.98 396.65 2390.5
-57.32 407.64 2456.8
-52.41 419.28 2526.9
-45.47 415.70 2505.3
-39.99 426.52 2570.5
-19.40 413.95 2494.8
-12.49 399.56 2408.0
-6.26 400.87 2416.0
0.00 412.98 2489.0
6.49 415.11 2501.8
12.60 403.32 2430.7
25.70 411.16 2478.0
39.85 425.05 2561.7
44.48 406.70 2451.1
51.65 413.23 2490.4
-319.09 410.26 2511.8
-287.52 411.68 2520.5
-247.31 389.51 2384.8
-244.57 395.07 2418.8
-230.91 393.18 2407.2
-234.08 409.64 2508.0
-228.88 411.98 2522.3
-217.88 403.73 2471.8
-209.75 400.44 2451.7
-211.76 416.91 2552.5
-194.48 408.40 2500.4
-172.16 401.71 2459.5
-157.16 412.53 2525.7
-138.59 415.77 2545.5
-130.58 411.32 2518.3
-124.26 412.02 2522.6
-118.84 415.93 2546.5
-111.90 414.69 2538.9
-104.23 410.39 2512.6
-94.92 398.67 2440.8
-88.49 398.22 2438.1
-85.50 414.37 2537.0
-78.35 411.34 2518.4
-68.51 392.36 2402.2
-50.71 399.36 2445.1
-45.45 409.05 2504.4
-19.22 403.63 2471.2
-12.47 392.67 2404.1
-6.30 396.71 2428.8
0.00 403.96 2473.2
6.36 400.41 2451.5
13.02 410.08 2510.7
25.65 403.94 2473.1
38.51 404.40 2475.9
45.81 412.28 2524.1
-299.81 395.49 2460.4
-294.69 397.19 2471.0
-274.71 405.53 2522.9
-258.85 391.44 2435.2
-256.98 398.33 2478.1
-249.43 396.53 2466.9
-201.16 389.74 2424.7
-202.11 404.22 2514.7
-196.39 405.88 2525.1
-169.07 403.17 2508.2
-165.47 410.36 2552.9
-140.51 395.97 2463.4
-132.47 410.66 2554.8
-125.86 410.72 2555.1
-120.04 413.46 2572.2
-111.69 407.32 2534.0
-102.88 398.65 2480.1
-97.49 402.97 2506.9
-71.01 400.25 2490.0
-49.22 381.44 2373.0
-43.57 385.91 2400.8
-38.22 394.97 2457.2
-26.36 408.64 2542.2
-19.11 394.84 2456.4
-12.59 390.41 2428.8
-6.23 386.12 2402.2
0.00 385.33 2397.2
6.32 392.00 2438.7
13.35 413.73 2573.9
25.03 388.01 2413.9
38.90 401.95 2500.6
45.58 403.68 2511.4
-306.38 397.64 2514.4
-283.61 393.18 2486.2
-251.42 393.25 2486.6
-239.61 384.64 2432.1
-230.06 379.29 2398.3
-226.93 384.51 2431.3
-212.34 404.78 2559.5
-204.56 402.53 2545.3
-197.54 401.67 2539.9
-178.44 403.14 2549.2
-163.42 383.42 2424.4
-159.98 390.34 2468.2
-124.14 378.62 2394.1
-122.08 391.93 2478.2
-117.23 397.28 2512.1
-109.86 394.20 2492.6
-103.08 393.00 2485.0
-99.49 404.59 2558.3
-72.53 402.23 2543.4
-63.82 389.30 2461.6
-57.26 388.07 2453.8
-49.91 380.60 2406.6
-37.61 382.35 2417.7
-25.84 394.09 2491.9
-12.34 376.45 2380.4
-6.24 380.83 2408.1
0.00 387.39 2449.6
6.62 403.79 2553.3
19.93 405.19 2562.1
25.57 389.87 2465.2
32.22 393.14 2485.9
44.13 384.52 2431.4
-291.23 388.31 2496.2
-272.20 379.82 2441.7
-271.08 387.26 2489.5
-224.06 384.11 2469.3
-222.05 391.85 2519.1
-203.93 394.71 2537.4
-193.18 386.36 2483.7
-159.02 381.64 2453.4
-120.37 380.13 2443.7
-120.36 401.21 2579.2
-111.47 393.42 2529.2
-103.53 388.25 2495.9
-97.99 391.97 2519.8
-92.65 397.08 2552.6
-71.91 392.26 2521.7
-64.20 385.22 2476.4
-24.80 371.95 2391.1
-12.42 372.58 2395.2
-6.24 374.43 2407.0
0.00 378.58 2433.7
6.48 388.72 2498.9
13.10 392.87 2525.6
33.52 402.22 2585.7
39.74 397.44 2555.0
45.18 387.28 2489.7
50.57 379.27 2438.2
-313.29 385.09 2517.5
-291.91 382.73 2502.1
-285.85 383.29 2505.8
-266.16 373.89 2444.3
-242.47 366.81 2398.0
-240.48 373.37 2440.9
-206.89 369.89 2418.1
-143.16 367.24 2400.9
-136.73 366.69 2397.3
-119.03 390.15 2550.6
-111.43 386.72 2528.2
-68.03 364.86 2385.3
-61.69 363.98 2379.5
-43.19 364.04 2379.9
-39.71 390.51 2553.0
-32.25 380.55 2487.9
-25.03 369.22 2413.8
-19.24 378.30 2473.2
-13.35 393.73 2574.0
-6.74 397.67 2599.8
0.00 376.50 2461.4
12.67 373.77 2443.5
20.04 394.18 2576.9
33.21 391.89 2562.0
-272.47 376.26 2502.2
-251.26 364.33 2422.9
-238.64 374.08 2487.7
-213.36 363.97 2420.5
-208.14 365.83 2432.9
-202.45 366.94 2440.3
-202.58 379.03 2520.6
-187.65 362.79 2412.7
-181.06 362.12 2408.2
-180.72 374.35 2489.5
-167.46 359.73 2392.3
-156.84 363.86 2419.8
-158.76 383.66 2551.4
-136.34 376.55 2504.2
-124.64 361.46 2403.8
-115.85 373.28 2482.4
-111.21 379.42 2523.2
-49.89 361.71 2405.4
-44.16 365.89 2433.2
-38.25 369.77 2459.1
-32.60 378.11 2514.5
-26.56 385.11 2561.1
-20.06 387.79 2578.9
0.00 387.36 2576.0
6.24 361.93 2406.9
12.56 364.31 2422.7
-259.32 369.53 2500.6
-255.69 373.70 2528.8
-239.96 369.66 2501.5
-224.61 355.63 2406.5
-225.13 366.63 2481.0
-211.93 366.07 2477.1
-196.97 350.85 2374.1
-184.73 350.99 2375.1
-188.47 370.45 2506.8
-185.52 377.66 2555.6
-169.39 357.60 2419.9
-158.05 360.35 2438.5
-156.91 372.66 2521.8
-150.75 373.60 2528.1
-139.67 379.11 2565.4
-128.07 365.00 2469.9
-122.17 366.50 2480.1
-119.99 379.98 2571.3
-91.50 372.54 2521.0
-82.81 363.08 2456.9
-78.97 375.09 2538.2
-65.20 371.64 2514.9
-58.15 368.30 2492.3
-51.33 365.69 2474.6
-44.00 358.25 2424.3
-38.56 366.31 2478.8
-33.18 378.31 2560.0
-26.53 378.03 2558.1
-19.65 373.36 2526.5
-13.21 376.43 2547.3
-6.66 379.36 2567.1
0.00 378.49 2561.2
6.48 369.42 2499.8
12.69 361.67 2447.4
20.10 381.84 2583.9
26.67 380.07 2571.9
40.47 384.43 2601.4
-302.41 360.32 2481.8
-288.57 359.11 2473.5
-262.80 358.94 2472.3
-253.90 355.46 2448.3
-253.59 364.13 2508.0
-239.67 362.74 2498.5
-222.67 346.37 2385.7
-221.54 354.47 2441.5
-221.69 365.14 2515.0
-206.87 351.04 2417.9
-193.54 349.62 2408.1
-182.29 364.58 2511.1
-176.99 367.08 2528.4
-160.04 373.43 2572.1
-146.98 357.86 2464.8
-138.86 353.46 2434.6
-132.51 353.37 2433.9
-120.22 354.32 2440.5
-103.98 363.92 2506.6
-97.53 364.10 2507.8
-89.85 359.40 2475.4
-83.11 357.99 2465.8
-52.04 364.29 2509.2
-44.44 355.55 2448.9
-38.62 360.45 2482.7
-32.81 367.50 2531.3
-25.83 361.62 2490.8
-18.93 353.44 2434.4
-12.57 351.86 2423.6
-6.58 368.53 2538.4
-296.53 354.54 2486.4
-281.60 360.18 2526.0
-251.49 354.67 2487.3
-232.23 354.79 2488.1
-213.61 356.01 2496.7
-196.87 338.36 2372.9
-198.05 351.38 2464.2
-197.30 361.72 2536.8
-184.53 349.97 2454.3
-175.55 344.82 2418.2
-173.32 353.05 2476.0
-168.99 357.48 2507.0
-161.49 355.29 2491.6
-159.55 365.63 2564.2
-151.39 362.02 2538.9
-144.94 362.36 2541.2
-125.39 344.83 2418.3
-119.14 344.88 2418.6
-119.57 365.37 2562.3
-111.59 361.04 2532.0
-87.33 343.09 2406.1
-84.04 355.54 2493.4
-77.70 356.13 2497.5
-71.12 355.59 2493.8
-65.56 360.56 2528.6
-58.31 356.35 2499.0
-50.89 349.87 2453.7
-43.97 345.52 2423.1
-37.32 342.14 2399.4
-31.12 342.30 2400.5
-25.43 349.65 2452.1
-19.30 353.75 2480.8
-12.67 348.39 2443.3
-6.52 358.56 2514.6
0.00 366.18 2568.0
6.57 361.10 2532.4
12.69 348.95 2447.2
38.22 350.33 2456.9
44.62 350.60 2458.7
-275.66 346.18 2472.7
-234.16 341.75 2441.1
-234.33 351.50 2510.7
-213.18 348.84 2491.7
-199.23 336.20 2401.4
-193.84 337.65 2411.8
-187.16 336.89 2406.3
-182.14 339.16 2422.6
-180.20 347.53 2482.3
-169.23 338.46 2417.6
-153.03 330.55 2361.1
-154.81 348.32 2488.0
-151.21 355.01 2535.8
-131.64 355.44 2538.9
-120.25 341.78 2441.3
-116.57 349.71 2497.9
-112.46 357.23 2551.7
-103.52 349.38 2495.5
-94.33 339.57 2425.5
-89.99 347.09 2479.2
-63.68 343.87 2456.2
-56.55 339.32 2423.7
-43.81 337.97 2414.1
-38.39 345.47 2467.6
-30.99 334.67 2390.5
-19.49 350.91 2506.5
-13.40 361.87 2584.8
-6.21 335.11 2393.6
31.40 339.10 2422.2
38.23 344.08 2457.7
58.15 348.88 2492.0
-285.89 336.72 2450.5
-281.42 338.98 2467.0
-259.62 335.61 2442.4
-249.98 331.23 2410.5
-224.50 321.58 2340.4
-228.80 336.84 2451.4
-230.28 348.72 2537.8
-216.10 336.86 2451.5
-190.09 325.00 2365.2
-182.62 322.62 2347.9
-176.86 323.23 2352.3
-178.25 337.41 2455.5
-169.98 333.67 2428.3
-161.51 329.24 2396.1
-163.08 345.73 2516.1
-152.15 336.01 2445.3
-134.83 324.83 2364.0
-131.52 331.94 2415.8
-125.18 331.72 2414.1
-120.35 335.70 2443.1
-113.89 335.33 2440.4
-107.14 334.01 2430.8
-102.98 341.12 2482.6
-97.86 345.78 2516.5
-91.38 345.95 2517.7
-65.01 344.56 2507.6
-57.91 341.05 2482.0
-50.41 333.99 2430.6
-44.96 340.40 2477.3
-39.32 347.36 2527.9
-31.72 336.21 2446.8
-19.18 338.81 2465.8
-6.32 335.15 2439.1
44.69 338.36 2462.5
-297.42 336.22 2493.9
-281.85 333.10 2470.8
-245.77 327.70 2430.7
-233.02 318.87 2365.3
-229.78 322.94 2395.4
-229.06 330.87 2454.2
-218.18 333.68 2475.1
-191.59 321.37 2383.8
-168.63 313.17 2322.9
-169.97 327.35 2428.1
-171.04 342.07 2537.3
-162.95 338.93 2514.0
-133.58 315.74 2342.0
-133.13 329.66 2445.3
-129.48 336.64 2497.1
-125.26 342.83 2542.9
-119.33 344.74 2557.1
-109.92 336.23 2494.0
-103.10 335.07 2485.4
-96.05 332.97 2469.8
-87.93 326.59 2422.5
-85.06 340.24 2523.7
-65.01 338.05 2507.5
-59.37 343.01 2544.3
-45.86 340.64 2526.7
-38.64 334.91 2484.2
-32.90 342.14 2537.8
-19.79 343.09 2544.9
-12.96 337.08 2500.3
-6.55 340.43 2525.1
0.00 333.61 2474.6
6.49 337.62 2504.3
19.96 346.03 2566.7
26.45 343.88 2550.8
32.64 339.47 2518.0
51.60 335.41 2488.0
-287.34 333.05 2518.9
-277.59 329.24 2490.0
-265.98 330.85 2502.2
-254.53 332.85 2517.4
-241.75 324.46 2453.9
-239.14 329.62 2493.0
-220.66 312.60 2364.2
-211.72 317.58 2401.9
-206.38 318.96 2412.3
-206.07 328.43 2483.9
-192.12 326.60 2470.1
-179.95 316.47 2393.5
-171.84 313.00 2367.2
-168.16 317.63 2402.3
-167.03 327.63 2477.9
-157.10 320.49 2423.9
-149.18 317.01 2397.5
-147.71 327.52 2477.1
-140.12 324.83 2456.7
-132.37 321.47 2431.3
-128.60 327.93 2480.1
-124.43 333.99 2526.0
-112.67 338.00 2556.3
-104.78 333.98 2525.9
-96.93 329.56 2492.4
-87.89 320.16 2421.3
-84.42 331.19 2504.8
-72.29 335.17 2534.9
-64.08 326.81 2471.7
-58.30 330.37 2498.6
-13.19 336.35 2543.8
-6.52 332.42 2514.1
0.00 324.30 2452.7
6.41 327.05 2473.5
25.61 326.51 2469.4
44.09 321.23 2429.5
50.96 324.88 2457.1
-282.71 321.26 2478.3
-272.96 317.39 2448.5
-269.91 321.32 2478.7
-259.67 316.67 2442.9
-256.48 320.59 2473.2
-254.32 326.05 2515.2
-247.86 326.13 2515.9
-227.09 315.41 2433.2
-210.48 309.53 2387.8
-210.00 318.18 2454.6
-194.11 323.51 2495.6
-177.63 306.27 2362.6
-169.11 313.18 2415.9
-158.50 317.00 2445.5
-147.51 307.30 2370.6
-141.68 307.99 2375.9
-126.79 316.98 2445.3
-118.76 312.53 2410.9
-111.32 309.23 2385.5
-104.89 308.49 2379.8
-94.19 313.95 2421.9
-88.78 317.07 2445.9
-83.58 321.46 2479.9
-78.58 327.40 2525.7
-70.11 318.69 2458.4
-62.17 310.87 2398.1
-56.56 314.23 2424.1
-51.95 324.66 2504.5
-45.58 325.57 2511.6
-38.30 319.16 2462.1
-31.80 318.02 2453.3
-25.45 318.15 2454.3
-19.31 321.76 2482.2
-12.89 322.28 2486.2
-6.50 325.24 2509.0
0.00 323.31 2494.1
18.97 316.23 2439.5
39.04 325.33 2509.7
70.45 320.23 2470.3
-290.07 315.85 2486.3
-266.56 310.98 2448.0
-266.36 318.34 2505.9
-233.80 309.63 2437.3
-232.33 316.23 2489.3
-191.09 312.12 2456.9
-178.58 301.75 2375.3
-169.66 296.90 2337.1
-174.02 315.81 2486.0
-158.23 310.14 2441.3
-145.95 297.98 2345.6
-139.18 296.52 2334.1
-136.32 303.61 2389.9
-130.99 320.94 2526.3
-82.20 309.85 2439.0
-78.82 321.84 2533.4
-71.58 318.84 2509.8
-65.25 319.74 2516.9
-51.28 314.11 2472.6
-19.03 310.89 2447.3
-12.79 313.29 2466.1
-6.48 317.58 2499.9
0.00 323.13 2543.6
6.45 316.19 2489.0
25.69 314.67 2477.0
57.64 313.84 2470.5
-256.95 308.34 2477.7
-235.87 305.99 2458.8
-228.44 304.59 2447.6
-225.55 309.33 2485.7
-222.56 314.20 2524.8
-188.91 312.68 2512.6
-181.42 311.01 2499.2
-177.19 315.01 2531.3
-170.93 315.56 2535.7
-155.01 297.62 2391.6
-144.96 302.52 2431.0
-107.58 303.75 2440.8
-100.77 302.30 2429.2
-96.02 307.27 2469.1
-91.32 313.10 2515.9
-82.67 305.22 2452.7
-76.16 304.63 2447.9
-50.37 302.24 2428.7
-31.27 300.18 2412.2
-6.39 306.51 2463.0
6.47 310.58 2495.7
19.20 307.24 2468.9
25.30 303.65 2440.0
31.82 305.49 2454.9
38.15 305.24 2452.8
45.43 311.52 2503.3
64.40 309.12 2484.0
-299.31 305.82 2509.8
-290.48 303.39 2489.8
-282.08 301.31 2472.8
-269.26 294.31 2415.3
-240.58 289.93 2379.4
-248.49 307.34 2522.2
-225.65 294.60 2417.7
-187.29 293.42 2408.0
-181.91 305.35 2505.9
-176.56 307.34 2522.2
-160.84 302.37 2481.5
-147.77 289.38 2374.9
-150.14 306.82 2517.9
-145.28 310.36 2547.1
-129.25 289.27 2374.0
-122.78 303.72 2492.6
-117.12 305.81 2509.7
-108.31 299.45 2457.5
-102.28 300.44 2465.7
-98.37 308.21 2529.4
-85.23 308.15 2528.9
-77.97 305.39 2506.3
-50.39 296.04 2429.5
-43.70 293.39 2407.8
-37.27 291.96 2396.0
-32.55 306.00 2511.2
-26.24 308.30 2530.2
-18.91 296.22 2430.9
-12.70 298.40 2448.9
-6.26 294.29 2415.1
26.20 307.82 2526.2
31.43 295.47 2424.9
58.24 304.13 2495.9
64.99 305.44 2506.6
-282.95 295.82 2480.4
-273.85 292.96 2456.5
-266.38 291.74 2446.3
-257.48 288.88 2422.3
-248.09 285.30 2392.3
-236.00 285.69 2395.5
-239.33 297.55 2494.9
-225.44 288.07 2415.5
-176.44 279.88 2346.8
-166.76 284.11 2382.3
-165.89 293.50 2461.0
-140.06 292.86 2455.6
-130.64 286.16 2399.5
-129.16 297.08 2491.0
-118.45 302.71 2538.3
-111.05 300.50 2519.7
-106.14 305.15 2558.7
-97.08 297.72 2496.4
-87.95 288.99 2423.2
-81.24 287.48 2410.6
-75.50 289.40 2426.6
-45.33 297.90 2497.9
-37.65 288.67 2420.6
-6.30 290.01 2431.8
0.00 288.23 2416.9
32.72 301.00 2523.9
-291.92 291.92 2502.2
-275.49 295.17 2530.0
-258.82 291.17 2495.8
-237.14 280.83 2407.1
-239.78 291.63 2499.6
-229.76 287.20 2461.7
-218.76 281.26 2410.8
-215.00 284.56 2439.1
-208.89 284.85 2441.6
-201.70 283.64 2431.2
-192.26 279.08 2392.1
-185.94 278.90 2390.6
-183.57 284.85 2441.6
-173.03 278.09 2383.6
-166.81 278.02 2383.0
-165.07 285.70 2448.9
-166.01 298.82 2561.3
-146.39 286.42 2455.0
-135.75 277.67 2380.0
-132.40 283.72 2431.9
-126.43 284.46 2438.2
-120.32 284.96 2442.5
-113.72 284.30 2436.8
-107.59 284.79 2441.1
-106.29 298.95 2562.4
-91.62 294.49 2524.2
-85.18 294.87 2527.4
-57.53 287.65 2465.6
-51.18 287.90 2467.7
-37.79 283.41 2429.2
-32.06 288.52 2473.0
0.00 280.08 2400.7
6.31 283.91 2433.5
13.02 292.94 2510.9
19.65 294.68 2525.8
26.18 294.55 2524.7
39.04 292.80 2509.7
-269.54 282.38 2475.4
-261.36 287.49 2520.2
-248.39 280.24 2456.6
-224.03 281.64 2468.9
-211.40 273.57 2398.2
-211.75 282.33 2475.0
-179.99 282.84 2479.4
-171.86 280.06 2455.1
-168.60 285.32 2501.1
-149.57 286.13 2508.3
-141.22 282.44 2475.9
-137.20 287.46 2519.9
-130.94 288.07 2525.3
-119.72 277.24 2430.3
-103.77 285.37 2501.6
-63.47 279.29 2448.3
-37.46 274.70 2408.1
-19.50 285.95 2506.7
-13.12 288.56 2529.6
-6.49 285.61 2503.8
0.00 287.31 2518.7
6.41 281.87 2471.0
12.83 282.32 2474.9
19.38 284.25 2491.8
25.72 282.88 2479.8
32.31 284.34 2492.6
-277.07 277.07 2485.3
-265.64 271.97 2439.6
-260.86 273.58 2454.1
-221.76 272.45 2443.9
-206.98 269.70 2419.2
-181.22 268.70 2410.3
-163.73 281.61 2526.1
-152.16 284.47 2551.7
-143.24 279.97 2511.4
-138.64 283.88 2546.5
-130.82 281.27 2523.0
-118.33 267.80 2402.2
-104.81 265.10 2378.0
-102.81 276.31 2478.5
-98.17 281.43 2524.5
-90.45 277.80 2491.9
-82.35 272.40 2443.5
-76.03 272.43 2443.7
-69.24 270.67 2428.0
-62.85 270.25 2424.2
-58.14 277.80 2491.9
-43.91 269.74 2419.6
-37.67 269.98 2421.7
13.09 281.42 2524.3
-274.54 274.54 2521.3
-248.85 275.04 2525.9
-215.36 266.03 2443.1
-210.51 267.92 2460.5
-209.03 274.35 2519.5
-192.96 270.14 2480.9
-145.38 277.54 2548.8
-137.82 275.63 2531.3
-127.15 267.02 2452.2
-119.00 263.05 2415.8
-113.08 263.84 2423.1
-106.68 263.55 2420.4
-101.81 267.26 2454.4
-98.70 276.37 2538.1
-92.24 276.72 2541.3
-82.95 267.98 2461.1
-75.77 265.19 2435.4
-68.01 259.69 2384.9
-37.94 265.61 2439.3
-6.52 273.65 2513.1
0.00 278.74 2559.9
12.68 266.29 2445.5
32.32 271.47 2493.1
38.92 272.43 2501.9
-283.72 270.52 2545.0
-272.03 265.55 2498.2
-272.67 272.67 2565.2
-248.80 261.56 2460.7
-237.41 256.16 2409.8
-197.82 253.46 2384.4
-173.16 253.55 2385.3
-165.66 261.23 2457.6
-130.59 267.70 2518.4
-123.24 265.94 2501.9
-114.27 260.27 2448.6
-104.87 252.91 2379.3
-98.38 252.09 2371.6
-93.63 255.92 2407.6
-88.37 258.80 2434.7
-80.32 253.33 2383.2
-74.40 254.19 2391.4
-67.47 251.47 2365.7
-44.39 259.98 2445.8
-38.25 261.37 2458.9
-31.63 259.37 2440.1
-25.19 258.21 2429.2
-18.68 255.26 2401.4
-12.66 259.60 2442.2
-6.39 262.03 2465.1
19.68 269.00 2530.7
25.30 259.38 2440.1
31.85 261.17 2457.0
39.69 271.20 2551.3
-290.65 264.23 2547.9
-285.78 265.84 2563.5
-274.15 261.09 2517.7
-261.18 254.81 2457.1
-241.86 254.59 2455.0
-238.41 257.74 2485.3
-230.54 256.16 2470.1
-217.45 248.51 2396.4
-202.64 253.30 2442.6
-184.12 245.49 2367.2
-175.80 251.14 2421.7
-164.70 253.39 2443.4
-155.69 249.11 2402.1
-141.98 246.92 2381.0
-144.44 262.61 2532.3
-117.22 260.48 2511.8
-73.99 246.62 2378.1
-69.81 253.85 2447.9
-62.13 248.51 2396.3
-51.71 258.54 2493.1
-26.01 260.13 2508.4
0.00 264.37 2549.3
32.66 261.26 2519.3
38.91 259.39 2501.3
-257.88 245.30 2426.0
-242.83 242.83 2401.6
-245.54 252.00 2492.3
-228.84 247.91 2451.9
-206.18 243.67 2410.0
-186.56 250.90 2481.4
-178.00 247.93 2452.1
-174.18 251.59 2488.3
-164.48 256.60 2537.8
-139.04 246.47 2437.6
-137.98 256.25 2534.3
-131.48 256.39 2535.7
-120.57 247.48 2447.6
-118.04 255.75 2529.4
-112.41 257.89 2550.5
-102.43 249.67 2469.3
-93.87 244.07 2413.9
-74.90 243.43 2407.6
-70.59 250.29 2475.4
-44.52 248.03 2453.1
-38.04 247.24 2445.2
-31.85 248.46 2457.3
-12.69 247.37 2446.5
-6.31 246.06 2433.6
19.70 256.12 2533.0
26.45 257.92 2550.9
31.96 249.26 2465.2
-300.90 254.09 2579.1
-294.52 254.36 2581.8
-268.76 255.32 2591.6
-250.50 244.07 2477.4
-239.16 239.16 2427.6
-232.97 245.91 2496.1
-221.70 240.70 2443.2
-215.85 241.24 2448.7
-210.39 242.27 2459.2
-208.92 248.09 2518.2
-183.55 240.52 2441.3
-176.39 239.39 2429.9
-170.96 240.60 2442.2
-169.34 247.49 2512.2
-144.66 239.00 2426.0
-138.73 239.63 2432.3
-131.42 237.80 2413.8
-110.47 246.93 2506.4
-88.76 240.93 2445.6
-79.11 231.25 2347.3
-74.67 236.47 2400.2
-70.95 245.11 2487.9
-51.08 242.61 2462.6
-43.10 233.99 2375.1
-19.17 242.85 2465.0
-13.09 248.73 2524.7
6.42 244.13 2478.0
13.29 252.46 2562.6
19.24 243.73 2473.9
39.02 247.14 2508.6
-279.42 246.16 2566.1
-270.26 249.99 2606.1
-251.76 238.85 2489.9
-233.46 233.46 2433.7
-227.11 233.42 2433.3
-217.97 230.43 2402.1
-223.59 243.32 2536.6
-193.98 239.24 2494.1
-179.64 229.20 2389.3
-136.91 241.23 2514.7
-126.13 233.35 2432.6
-118.57 230.90 2407.0
-110.12 226.35 2359.6
-101.62 234.99 2449.7
-97.32 240.07 2502.6
-89.76 237.23 2473.0
-82.92 236.01 2460.3
-77.66 239.46 2496.3
-56.38 231.78 2416.3
-51.11 236.38 2464.2
-37.79 233.06 2429.6
-12.89 238.43 2485.6
19.24 237.28 2473.6
-265.26 227.37 2436.1
-267.54 234.91 2516.9
-258.62 232.76 2493.8
-247.01 228.01 2443.0
-237.32 224.83 2408.9
-233.04 226.74 2429.3
-225.68 225.68 2418.0
-219.29 225.55 2416.6
-182.37 226.39 2425.6
-177.05 227.64 2439.0
-141.24 231.11 2476.2
-137.00 234.86 2516.4
-123.45 233.90 2506.1
-113.58 227.15 2433.8
-104.69 221.70 2375.4
-100.24 225.53 2416.4
-98.08 235.40 2522.1
-92.96 239.04 2561.2
-81.50 225.69 2418.1
-69.03 225.91 2420.5
-62.99 226.77 2429.6
-55.97 223.90 2398.9
-52.52 236.36 2532.5
-46.70 240.18 2573.4
-37.38 224.30 2403.3
-18.87 226.46 2426.4
-13.33 239.94 2570.8
6.57 236.41 2533.0
13.13 236.32 2532.0
19.42 233.06 2497.1
37.83 227.00 2432.1
-298.35 237.32 2615.4
-288.89 235.14 2591.4
-276.24 235.81 2598.7
-265.56 232.37 2560.8
-253.68 227.66 2509.0
-241.58 222.51 2452.1
-235.47 222.74 2454.7
-232.21 225.76 2488.0
-228.79 228.79 2521.3
-218.19 224.61 2475.3
-206.98 219.53 2419.3
-206.43 225.79 2488.3
-197.31 222.77 2455.0
-167.12 224.97 2479.2
-145.48 221.38 2439.7
-138.66 220.60 2431.1
-123.82 228.09 2513.6
-116.30 226.13 2492.1
-109.45 225.35 2483.4
-99.89 218.51 2408.0
-93.38 217.90 2401.3
-89.12 222.80 2455.3
-68.17 216.89 2390.2
-61.66 215.82 2378.4
-49.87 218.20 2404.6
-19.55 228.09 2513.6
-13.30 232.79 2565.4
-6.59 230.62 2541.5
0.00 232.07 2557.5
6.59 230.71 2542.5
13.04 228.18 2514.6
19.09 222.75 2454.8
32.66 228.62 2519.4
-239.90 220.45 2500.9
-230.51 217.70 2469.7
-218.58 212.33 2408.8
-193.77 212.52 2410.9
-173.35 218.29 2476.4
-167.69 219.29 2487.7
-162.56 221.08 2508.0
-153.48 217.43 2466.7
-141.60 209.32 2374.6
-141.13 218.11 2474.4
-112.72 225.45 2557.6
-102.60 218.02 2473.3
-79.56 208.07 2360.5
-77.87 220.64 2503.1
-57.12 215.77 2447.8
-43.62 211.85 2403.3
-37.60 213.08 2417.3
-31.41 213.62 2423.4
-25.90 220.12 2497.2
-13.33 226.63 2571.0
6.58 223.73 2538.1
12.61 214.42 2432.5
39.99 226.60 2570.7
-301.13 220.83 2581.1
-297.46 223.10 2607.6
-229.36 210.24 2457.4
-208.35 208.35 2435.2
-202.74 209.07 2443.7
-198.28 211.07 2467.1
-167.05 204.18 2386.5
-114.49 209.90 2453.4
-111.13 215.72 2521.4
-101.42 209.18 2445.0
-80.18 203.53 2379.0
-75.41 207.38 2424.0
-70.64 211.92 2476.9
-59.85 219.44 2564.9
-52.21 215.37 2517.3
-39.22 215.73 2521.5
-31.69 209.17 2444.9
-25.38 209.35 2446.9
-19.22 211.40 2470.9
6.63 218.74 2556.7
12.71 209.70 2451.0
18.83 207.14 2421.1
25.45 209.95 2453.9
33.22 219.23 2562.4
38.80 213.43 2494.6
-290.52 216.20 2606.0
-273.79 213.69 2575.7
-224.96 199.96 2410.3
-218.67 199.93 2409.9
-221.49 208.46 2512.7
-168.64 207.55 2501.7
-137.73 200.34 2414.8
-111.77 198.71 2395.2
-112.29 211.37 2547.8
-106.52 213.05 2568.0
-97.05 207.04 2495.5
-90.48 206.81 2492.8
-81.78 201.29 2426.3
-55.72 198.13 2388.1
-50.86 203.43 2452.1
-46.84 214.10 2580.7
-39.85 212.54 2561.9
-32.51 208.09 2508.2
-26.22 209.75 2528.2
-19.26 205.45 2476.4
-12.99 207.85 2505.4
6.59 210.91 2542.3
12.93 206.94 2494.4
19.77 210.91 2542.2
-283.40 204.31 2542.1
-272.24 200.94 2500.2
-254.21 202.06 2514.1
-242.81 203.44 2531.3
-228.53 196.79 2448.5
-227.37 201.38 2505.7
-217.07 197.92 2462.5
-206.57 194.05 2414.4
-206.61 200.16 2490.4
-192.31 198.72 2472.6
-182.72 195.33 2430.3
-180.93 200.32 2492.4
-131.74 194.47 2419.6
-114.21 196.70 2447.5
-110.38 201.29 2504.5
-106.38 206.11 2564.5
-98.66 203.89 2536.9
-93.68 207.43 2581.0
-85.79 204.57 2545.4
-76.28 197.06 2451.9
-69.84 196.84 2449.1
-65.08 201.73 2510.1
-60.13 207.11 2577.0
-53.60 207.69 2584.1
-32.80 203.39 2530.6
-26.07 202.03 2513.8
-18.85 194.75 2423.1
-12.53 194.27 2417.2
-6.49 201.32 2504.9
0.00 193.71 2410.2
19.92 205.88 2561.7
39.61 204.66 2546.5
-293.01 199.78 2568.6
-273.62 190.90 2454.4
-267.89 196.02 2520.2
-257.01 192.75 2478.3
-244.03 187.71 2413.4
-244.57 193.08 2482.5
-240.86 195.29 2510.9
-235.24 196.04 2520.5
-225.70 193.46 2487.3
-204.60 191.81 2466.1
-198.24 191.85 2466.6
-179.47 185.66 2387.1
-183.57 196.68 2528.7
-174.47 193.85 2492.4
-167.97 193.81 2491.8
-152.70 199.17 2560.7
-145.74 198.73 2555.1
-137.07 195.82 2517.7
-131.18 196.78 2530.0
-122.68 193.70 2490.5
-113.54 189.23 2433.0
-88.64 189.94 2442.0
-85.97 198.40 2550.9
-80.67 201.67 2592.9
-72.73 198.35 2550.3
-66.82 200.46 2577.4
-39.65 198.26 2549.0
-31.74 190.43 2448.4
-12.64 189.59 2437.6
-6.49 194.79 2504.4
0.00 186.65 2399.8
18.95 189.51 2436.6
25.22 189.12 2431.5
33.00 198.03 2546.1
52.49 196.84 2530.8
-292.17 192.56 2561.2
-251.40 182.26 2424.2
-242.96 185.42 2466.1
-239.77 187.93 2499.5
-225.37 181.55 2414.7
-201.75 182.84 2431.8
-193.25 180.78 2404.5
-182.50 182.50 2427.3
-176.59 189.67 2522.7
-152.34 176.72 2350.4
-151.10 182.58 2428.5
-149.40 188.38 2505.5
-142.13 187.36 2491.9
-133.52 184.39 2452.5
-131.78 191.08 2541.4
-127.27 194.25 2583.6
-118.68 191.20 2543.1
-77.09 186.29 2477.8
-71.32 188.03 2500.9
-67.35 195.32 2597.8
-53.93 195.49 2600.1
-45.58 188.83 2511.5
-39.40 190.41 2532.5
-32.61 189.14 2515.7
-25.51 184.95 2459.9
-19.02 183.90 2446.0
-12.47 180.76 2404.2
0.00 184.36 2452.1
6.41 185.86 2472.0
12.67 183.68 2443.1
18.82 181.88 2419.1
31.55 183.00 2433.9
39.64 191.61 2548.5
45.76 189.58 2521.5
-286.55 186.59 2570.4
-267.44 178.29 2456.1
-263.04 179.64 2474.6
-257.52 180.26 2483.2
-244.22 175.34 2415.4
-241.83 178.19 2454.7
-243.91 184.58 2542.7
-233.48 181.60 2501.6
-217.13 173.71 2392.9
-203.97 173.06 2384.0
-201.71 176.49 2431.3
-195.36 176.46 2430.8
-174.53 181.00 2493.4
-159.98 179.18 2468.3
-152.99 178.49 2458.8
-145.69 177.36 2443.2
-129.01 180.62 2488.1
-94.76 176.89 2436.8
-71.34 181.58 2501.4
-45.17 180.69 2489.0
-37.53 175.12 2412.4
-31.83 178.24 2455.3
-25.49 178.46 2458.4
-19.14 178.68 2461.4
-12.60 176.37 2429.6
6.45 180.50 2486.4
13.14 183.90 2533.3
19.86 185.34 2553.2
26.38 184.69 2544.2
32.45 181.71 2503.2
39.15 182.72 2517.1
46.18 184.74 2544.9
-265.72 174.99 2499.8
-254.99 172.12 2458.8
-236.11 167.76 2396.6
-238.52 174.06 2486.5
-236.95 177.71 2538.8
-229.25 176.85 2526.5
-218.99 173.90 2484.3
-213.95 175.05 2500.8
-204.22 172.31 2461.5
-191.16 166.50 2378.5
-166.99 173.41 2477.3
-158.59 171.28 2446.9
-153.95 173.19 2474.2
-148.45 174.26 2489.5
-140.14 171.99 2457.0
-138.24 177.73 2539.0
-131.98 178.18 2545.4
-124.32 176.66 2523.8
-99.16 178.49 2549.8
-87.17 168.11 2401.5
-81.49 169.24 2417.7
-77.02 173.30 2475.7
-71.35 175.13 2501.9
-65.54 176.96 2528.0
-58.71 176.13 2516.2
-52.46 177.05 2529.3
-44.89 173.15 2473.5
-37.50 168.76 2410.8
-31.85 171.97 2456.8
-26.20 176.87 2526.7
-13.21 178.27 2546.7
-6.36 171.71 2453.0
0.00 174.78 2496.9
-239.86 164.12 2434.7
-236.94 166.50 2470.1
-230.41 166.41 2468.7
-223.43 165.98 2462.3
-213.77 163.47 2425.1
-214.76 169.20 2510.2
-210.85 171.32 2541.5
-199.99 167.73 2488.3
-192.88 167.16 2479.9
-182.07 163.24 2421.7
-169.54 157.43 2335.6
-151.25 163.85 2430.8
-148.65 168.04 2492.9
-143.29 169.34 2512.2
-133.04 172.95 2565.7
-123.95 169.61 2516.2
-119.81 173.06 2567.4
-113.83 174.09 2582.6
-105.24 171.02 2537.1
-100.03 173.39 2572.2
-92.76 172.26 2555.5
-85.50 171.00 2536.8
-79.71 172.69 2561.9
-71.33 168.61 2501.3
-63.43 164.92 2446.6
-56.81 164.12 2434.8
-50.61 164.47 2439.9
-45.51 169.05 2507.9
-6.51 169.28 2511.3
0.00 170.96 2536.2
13.27 172.57 2560.2
32.95 171.35 2542.0
39.43 170.87 2534.9
44.99 167.10 2479.0
-250.67 160.69 2479.2
-239.18 161.61 2493.3
-231.01 160.42 2475.1
-222.21 158.72 2448.8
-214.16 157.47 2429.5
-216.07 163.69 2525.5
-186.97 161.18 2486.8
-179.04 159.86 2466.3
-173.79 160.92 2482.7
-165.17 158.82 2450.3
-158.52 158.52 2445.7
-155.18 161.65 2494.0
-150.10 163.16 2517.3
-137.18 155.88 2405.1
-126.08 157.61 2431.6
-122.45 161.12 2485.8
-113.97 158.29 2442.2
-93.53 155.89 2405.1
-90.74 162.04 2500.1
-87.63 168.52 2600.1
-80.31 167.31 2581.3
-70.72 160.73 2479.8
-63.21 158.02 2438.1
-56.87 157.97 2437.2
-52.17 163.02 2515.2
-32.96 164.79 2542.5
0.00 165.38 2551.6
6.51 162.67 2509.7
12.73 159.11 2454.8
19.20 160.01 2468.7
39.07 162.78 2511.4
-267.44 156.55 2516.0
-258.52 155.11 2492.8
-230.35 149.42 2401.4
-219.27 150.35 2416.4
-217.47 158.16 2541.8
-209.68 157.26 2527.4
-197.02 152.53 2451.4
-183.19 146.55 2355.3
-181.99 150.61 2420.5
-175.14 155.68 2502.1
-162.51 150.01 2410.9
-159.19 152.82 2456.1
-139.98 152.71 2454.3
-120.11 144.13 2316.4
-118.74 149.98 2410.4
-112.73 150.31 2415.7
-106.39 150.20 2414.0
-102.59 153.88 2473.1
-96.07 153.71 2470.4
-90.94 155.90 2505.5
-87.18 160.94 2586.5
-79.24 158.47 2546.8
-71.13 155.19 2494.2
-64.90 155.76 2503.3
-58.86 156.95 2522.4
-38.84 155.36 2496.9
-25.88 155.31 2496.0
-6.57 157.61 2533.1
0.00 156.87 2521.1
6.41 153.83 2472.2
12.49 149.85 2408.3
18.97 151.77 2439.2
39.83 159.33 2560.7
45.04 154.42 2481.8
51.95 155.84 2504.6
-252.79 145.35 2437.6
-239.35 148.78 2495.1
-224.96 143.72 2410.3
-230.85 151.70 2544.0
-203.45 150.94 2531.4
-156.23 138.20 2317.6
-160.83 147.96 2481.4
-156.84 150.31 2520.7
-148.19 148.19 2485.2
-137.90 144.17 2417.8
-116.29 148.59 2491.9
-106.12 152.55 2558.3
-95.77 146.85 2462.8
-89.47 146.99 2465.0
-84.73 149.92 2514.1
-79.53 152.43 2556.2
-73.62 153.93 2581.4
-46.21 151.82 2546.1
-37.90 145.28 2436.4
-25.65 147.49 2473.5
-13.05 150.12 2517.5
-6.36 146.19 2451.6
0.00 147.92 2480.6
6.43 147.92 2480.6
18.93 145.11 2433.6
25.54 146.84 2462.5
39.72 152.24 2553.2
-261.72 140.43 2462.2
-222.15 143.74 2520.1
-220.00 146.67 2571.4
-183.01 138.84 2434.2
-168.42 132.33 2320.1
-161.81 131.85 2311.6
-164.51 139.20 2440.5
-142.39 136.20 2387.9
-124.02 136.43 2391.9
-118.23 136.90 2400.2
-114.07 139.42 2444.4
-108.05 139.83 2451.6
-87.82 138.00 2419.5
-83.50 141.31 2477.6
-78.82 144.51 2533.7
-73.37 146.74 2572.8
-38.96 142.86 2504.6
-31.63 139.16 2439.8
-26.06 143.32 2512.8
-13.09 143.95 2523.9
-6.38 140.31 2460.0
0.00 142.25 2493.9
6.56 144.35 2530.9
12.96 142.53 2498.9
19.02 139.45 2445.0
39.58 145.13 2544.6
-248.01 133.55 2452.9
-249.16 137.69 2529.0
-231.98 135.32 2485.5
-218.37 131.02 2406.6
-209.99 133.63 2454.4
-146.15 133.44 2451.0
-132.54 126.52 2323.8
-131.96 131.96 2423.8
-132.47 139.09 2554.8
-125.13 138.30 2540.2
-116.14 135.49 2488.6
-105.91 130.84 2403.1
-87.76 131.64 2417.8
-84.22 136.05 2498.9
-79.27 138.72 2548.0
-73.38 140.09 2573.1
-39.39 137.85 2531.9
-32.01 134.43 2469.1
-25.48 133.78 2457.2
-19.06 133.41 2450.3
-12.66 132.92 2441.4
-6.32 132.65 2436.4
0.00 134.50 2470.3
6.50 136.51 2507.3
12.65 132.86 2440.4
-242.63 127.70 2462.8
-192.59 128.40 2476.2
-189.36 130.59 2518.5
-177.94 127.10 2451.3
-173.99 128.88 2485.6
-143.54 130.49 2516.5
-123.33 129.82 2503.6
-112.19 124.66 2404.2
-108.00 127.05 2450.3
-102.07 127.59 2460.6
-87.59 125.13 2413.2
-82.82 127.42 2457.3
-76.70 127.84 2465.5
-71.94 130.80 2522.6
-32.28 129.13 2490.4
-19.22 128.11 2470.6
-13.06 130.64 2519.6
-6.41 128.21 2472.7
0.00 127.59 2460.7
6.28 125.68 2423.7
25.66 128.31 2474.5
31.70 126.80 2445.5
-252.00 122.77 2492.3
-242.86 121.43 2465.1
-196.52 120.45 2445.2
-188.28 119.24 2420.8
-177.40 116.23 2359.5
-171.17 116.15 2357.9
-171.57 120.74 2451.0
-163.23 119.29 2421.6
-151.42 115.08 2336.3
-152.52 120.75 2451.3
-140.20 121.08 2458.0
-131.18 118.69 2409.5
-125.47 119.20 2419.8
-105.94 118.41 2403.8
-104.03 123.53 2507.8
-98.20 124.38 2525.0
-89.09 120.90 2454.4
-80.98 118.36 2402.7
-75.13 118.96 2414.9
-70.55 121.87 2474.0
-63.24 120.15 2439.2
-53.08 126.07 2559.3
-33.21 126.19 2561.7
-25.59 121.57 2467.9
-19.54 123.78 2512.9
-13.21 125.46 2546.9
-6.44 122.41 2485.0
0.00 123.79 2513.0
6.52 123.93 2515.9
-266.55 114.23 2447.9
-265.34 116.49 2496.2
-251.43 116.04 2486.6
-239.56 113.47 2431.6
-217.70 115.25 2469.7
-204.90 115.26 2469.8
-184.31 114.40 2451.4
-179.07 115.12 2466.8
-173.20 115.47 2474.3
-143.11 107.34 2300.1
-143.48 112.29 2406.1
-133.11 108.90 2333.7
-125.77 107.80 2310.1
-120.80 114.44 2452.4
-111.94 118.52 2539.8
-103.46 116.39 2494.1
-85.16 117.92 2526.8
-77.35 116.02 2486.1
-70.91 116.03 2486.3
-25.63 115.32 2471.2
-19.50 117.00 2507.2
-13.18 118.64 2542.2
-6.38 114.77 2459.3
0.00 115.09 2466.3
6.61 118.92 2548.2
12.79 115.14 2467.3
-253.61 107.78 2445.5
-238.31 106.61 2419.0
-171.96 108.27 2456.6
-165.09 107.94 2449.1
-156.63 106.51 2416.6
-146.17 103.54 2349.2
-137.90 101.93 2312.7
-131.24 101.42 2301.0
-127.03 102.84 2333.3
-124.88 106.15 2408.4
-124.99 111.84 2537.5
-105.67 112.27 2547.3
-100.16 113.52 2575.6
-73.28 113.25 2569.5
-65.12 110.70 2511.7
-57.72 109.04 2473.9
-50.82 107.99 2450.1
-25.50 108.36 2458.5
-19.75 111.92 2539.5
0.00 113.16 2567.5
6.67 113.42 2573.5
13.47 114.48 2597.4
19.98 113.25 2569.4
25.80 109.63 2487.5
31.52 107.16 2431.4
-239.51 100.85 2431.1
-164.90 101.48 2446.3
-156.84 100.38 2419.8
-146.87 97.91 2360.4
-142.56 99.17 2390.7
-139.22 101.25 2440.9
-132.37 100.85 2431.3
-127.48 101.99 2458.6
-122.84 103.45 2493.8
-98.66 105.23 2536.9
-91.76 104.87 2528.2
-66.03 105.65 2547.0
-59.57 105.91 2553.1
-45.07 103.02 2483.5
-32.16 102.90 2480.7
-26.81 107.26 2585.6
-19.40 103.45 2493.8
-6.62 105.89 2552.8
6.55 104.77 2525.8
12.72 101.75 2452.9
19.85 105.85 2551.7
26.96 107.84 2599.6
54.16 108.32 2611.2
-213.04 96.83 2490.0
-197.89 95.75 2462.2
-180.93 90.46 2326.2
-183.10 94.71 2435.3
-171.93 95.52 2456.1
-163.17 94.14 2420.7
-159.06 95.43 2454.0
-147.26 92.04 2366.6
-141.74 92.44 2377.0
-140.66 95.91 2466.1
-135.92 97.08 2496.4
-131.58 98.69 2537.7
-117.48 97.90 2517.4
-109.51 96.63 2484.7
-99.99 99.99 2571.1
-88.33 94.64 2433.6
-83.71 96.59 2483.7
-66.32 99.49 2558.2
-58.60 97.67 2511.4
-46.18 98.96 2544.7
-38.19 95.47 2454.8
-32.74 98.23 2525.9
-27.00 101.26 2603.9
-19.37 96.87 2491.0
-6.38 95.71 2461.1
0.00 98.00 2520.1
19.20 95.98 2468.1
26.53 99.48 2557.9
-258.90 88.41 2435.7
-248.62 89.25 2458.9
-230.69 89.71 2471.6
-212.55 90.17 2484.3
-205.90 90.08 2481.8
-199.91 90.28 2487.3
-188.85 88.13 2428.1
-177.12 85.51 2355.8
-168.22 84.11 2317.4
-164.13 85.10 2344.7
-165.94 89.35 2461.8
-151.00 88.08 2426.7
-143.60 87.41 2408.1
-141.19 89.85 2475.3
-131.85 87.90 2421.8
-123.83 86.68 2388.2
-117.61 86.66 2387.5
-100.85 88.25 2431.3
-98.09 91.55 2522.4
-91.09 91.09 2509.7
-82.30 88.64 2442.0
-78.19 91.22 2513.1
-52.53 91.93 2532.8
-33.47 93.72 2582.1
-25.63 89.70 2471.2
-19.76 92.20 2540.3
-13.56 94.89 2614.2
6.74 94.31 2598.3
13.46 94.23 2596.3
26.86 94.01 2590.2
32.76 91.73 2527.1
-269.28 83.35 2473.0
-258.29 81.90 2429.9
-246.33 82.11 2436.2
-246.74 84.41 2504.5
-233.40 84.28 2500.7
-223.36 82.96 2461.5
-192.12 83.25 2470.1
-179.91 80.65 2392.9
-168.17 78.08 2316.6
-162.54 78.26 2322.0
-159.24 79.62 2362.3
-151.39 78.72 2335.8
-151.63 82.13 2436.9
-126.76 78.47 2328.2
-120.27 78.18 2319.6
-100.37 81.55 2419.5
-97.99 84.92 2519.7
-92.99 86.34 2561.9
-85.75 85.75 2544.1
-26.17 85.05 2523.4
-20.14 87.27 2589.5
-13.58 88.25 2618.5
-6.76 87.82 2605.5
0.00 87.31 2590.5
6.56 85.26 2529.6
13.27 86.23 2558.5
20.28 87.88 2607.4
47.50 88.21 2617.1
-268.03 78.45 2521.6
-253.32 76.00 2442.7
-248.46 76.45 2457.3
-246.46 77.83 2501.7
-231.92 75.22 2417.7
-212.58 77.30 2484.7
-203.95 76.48 2458.4
-181.52 72.61 2333.8
-175.65 72.68 2336.3
-169.12 72.48 2329.7
-162.00 72.00 2314.2
-157.23 72.57 2332.6
-149.85 71.93 2312.0
-150.15 75.08 2413.2
-132.15 75.51 2427.2
-127.48 76.49 2458.5
-117.56 78.37 2519.0
-107.21 75.68 2432.5
-102.98 77.24 2482.7
-96.09 76.87 2470.9
-82.99 76.61 2462.4
-64.97 77.96 2505.9
-32.84 78.82 2533.6
-25.39 76.18 2448.7
-19.76 79.04 2540.7
-13.56 81.38 2615.7
-6.60 79.17 2544.8
0.00 77.18 2480.8
6.36 76.34 2453.8
12.98 77.89 2503.8
-258.19 71.00 2489.6
-168.27 66.10 2318.0
-167.52 68.25 2393.2
-156.51 66.21 2321.8
-143.57 68.67 2407.7
-135.04 70.74 2480.3
-110.21 71.31 2500.6
-104.53 71.86 2519.8
-96.29 70.62 2476.1
-71.69 71.69 2514.0
-65.41 71.96 2523.1
-58.81 71.87 2520.3
-39.51 72.43 2539.7
6.58 72.38 2538.0
13.00 71.52 2507.9
19.59 71.84 2518.9
26.97 74.17 2600.8
-284.05 64.56 2490.0
-236.54 63.93 2465.9
-227.20 64.92 2503.9
-220.76 64.93 2504.5
-185.42 61.81 2384.0
-176.58 60.89 2348.6
-170.16 60.77 2344.0
-162.23 60.08 2317.6
-150.73 62.81 2422.5
-141.20 61.39 2368.0
-130.05 61.93 2388.7
-115.57 64.20 2476.5
-110.09 64.76 2497.7
-70.70 64.27 2479.2
-59.39 65.99 2545.5
-52.38 65.48 2525.6
-39.32 65.54 2527.8
-32.24 64.48 2487.0
-25.97 64.92 2504.0
12.88 64.40 2484.1
19.21 64.04 2470.1
26.31 65.77 2537.0
32.70 65.41 2522.9
-218.00 59.45 2548.0
-201.59 58.53 2508.2
-194.58 58.37 2501.8
-176.96 54.92 2353.7
-169.81 54.58 2339.2
-155.32 55.91 2396.3
-154.59 57.97 2484.5
-137.52 53.81 2306.3
-133.10 57.04 2444.7
-121.15 57.38 2459.3
-117.25 58.63 2512.6
-92.29 59.33 2542.6
-38.75 58.12 2491.0
-13.00 58.48 2506.3
12.88 57.94 2483.3
19.89 59.67 2557.2
38.07 57.10 2447.0
-265.15 51.74 2494.4
-255.76 51.15 2466.2
-233.76 51.95 2504.6
-201.52 52.00 2507.4
-186.14 49.64 2393.3
-177.80 49.05 2364.8
-179.08 51.17 2467.0
-170.00 50.37 2428.5
-158.75 48.85 2355.2
-155.58 49.79 2400.4
-147.71 49.24 2373.9
-138.90 48.31 2329.4
-137.55 50.02 2411.6
-131.97 50.27 2423.9
-120.94 48.37 2332.4
-107.50 50.59 2439.1
-99.74 49.87 2404.4
-25.89 51.78 2496.3
-19.56 52.15 2514.4
-12.92 51.67 2491.4
-6.34 50.70 2444.5
12.65 50.62 2440.4
19.46 51.90 2502.4
26.55 53.10 2560.3
39.19 52.25 2519.2
44.25 50.57 2438.1
-265.79 45.38 2500.5
-260.31 45.55 2510.1
-219.48 45.19 2489.9
-211.12 44.78 2467.6
-208.73 45.66 2515.9
-204.17 46.10 2540.4
-193.59 45.17 2489.1
-160.58 43.23 2382.2
-152.49 42.70 2352.7
-147.41 42.99 2369.0
-141.76 43.15 2377.4
-139.15 44.27 2439.6
-131.97 43.99 2424.0
-94.02 43.88 2417.8
-6.37 44.62 2458.6
0.00 45.73 2519.6
6.63 46.43 2558.6
12.77 44.71 2463.6
25.47 44.58 2456.5
32.80 45.92 2530.4
39.33 45.88 2528.3
46.55 46.55 2565.2
-265.28 38.82 2495.6
-244.59 38.62 2482.7
-201.83 36.70 2359.1
-192.33 37.22 2393.0
-159.93 38.38 2467.5
-150.70 37.68 2422.0
-143.49 37.43 2406.4
-139.44 38.03 2444.7
-126.23 37.87 2434.4
-95.58 38.23 2457.8
-89.69 38.44 2471.1
-81.94 37.82 2431.3
-36.66 36.66 2356.4
-6.34 38.06 2446.7
0.00 39.23 2521.7
26.53 39.80 2558.6
33.41 40.09 2577.5
39.27 39.27 2524.4
46.16 39.56 2543.3
53.24 39.93 2567.1
-220.64 32.45 2503.1
-187.13 30.18 2328.3
-194.54 32.42 2501.2
-172.53 31.95 2464.8
-158.13 31.63 2439.7
-150.52 31.36 2419.1
-145.29 31.58 2436.5
-138.53 31.49 2428.8
-132.80 31.62 2439.2
-122.61 30.65 2364.6
-114.57 31.83 2455.1
-90.06 32.16 2481.2
-81.64 31.40 2422.4
-75.46 31.44 2425.6
-70.09 31.86 2457.8
-43.69 31.21 2407.4
-37.06 30.88 2382.5
-30.44 30.44 2348.6
-12.45 31.13 2401.8
-6.48 32.38 2497.8
38.17 31.80 2453.5
51.82 32.38 2498.3
87.27 33.57 2589.3
-200.82 24.34 2347.3
-188.17 25.95 2502.8
-174.84 24.98 2408.5
-162.48 24.07 2321.2
-139.81 24.32 2344.7
-135.92 24.71 2383.0
-131.66 25.08 2418.3
-122.72 24.54 2366.7
-114.97 24.20 2334.0
-84.00 25.85 2492.5
-76.43 25.48 2456.7
-66.82 24.30 2342.9
-42.91 24.52 2364.5
-31.09 24.88 2398.7
-25.12 25.12 2422.7
-18.25 24.34 2346.8
-12.67 25.34 2443.8
-6.45 25.79 2486.9
0.00 25.79 2486.9
19.38 25.84 2491.8
26.37 26.37 2542.7
38.74 25.83 2490.6
57.89 25.73 2481.2
87.31 26.86 2590.4
-220.83 19.48 2505.2
-216.77 19.71 2533.7
-181.68 18.17 2335.9
-176.66 18.93 2433.5
-163.26 18.14 2332.2
-156.63 18.07 2323.7
-152.38 18.29 2351.0
-146.80 18.35 2359.4
-143.63 18.73 2408.6
-137.23 18.71 2406.0
-130.47 18.64 2396.4
-112.29 18.72 2406.3
-86.14 18.46 2373.4
-81.31 18.76 2412.6
-73.23 18.31 2353.8
-53.65 17.88 2299.3
-44.31 18.99 2441.5
-36.22 18.11 2328.6
-30.82 18.49 2377.7
-25.73 19.30 2480.8
-19.37 19.37 2489.8
-12.79 19.19 2466.9
-6.20 18.59 2389.9
0.00 18.51 2379.9
6.46 19.37 2489.9
13.18 19.77 2541.9
19.47 19.47 2503.8
25.30 18.98 2439.8
38.20 19.10 2455.6
44.60 19.11 2457.5
50.51 18.94 2435.4
57.01 19.00 2443.3
72.52 19.78 2542.9
81.13 20.28 2607.7
93.29 19.99 2570.2
-237.86 12.86 2479.6
-208.54 12.27 2365.8
-202.11 12.25 2362.3
-173.84 12.42 2394.7
-163.05 12.08 2329.3
-159.26 12.25 2362.6
-155.68 12.45 2401.9
-149.66 12.47 2405.3
-145.65 12.67 2442.6
-138.77 12.62 2433.0
-131.50 12.52 2415.4
-120.54 12.69 2447.0
-82.09 12.63 2435.6
-60.18 12.04 2321.2
-53.88 11.97 2309.3
-47.96 11.99 2312.5
-43.15 12.33 2377.6
-36.82 12.27 2366.7
-19.33 12.89 2485.9
-6.18 12.36 2383.0
0.00 12.92 2491.0
6.56 13.11 2529.0
12.94 12.94 2494.9
19.25 12.83 2474.9
25.43 12.71 2451.8
58.92 13.09 2525.3
-228.91 6.54 2522.6
-201.60 6.11 2356.4
-192.72 6.02 2323.0
-191.55 6.18 2383.3
-185.95 6.20 2390.8
-176.41 6.08 2346.4
-172.61 6.16 2377.7
-169.82 6.29 2426.1
-158.65 6.10 2353.7
-149.54 5.98 2307.2
-143.39 5.97 2304.5
-140.24 6.10 2351.8
-116.65 6.14 2368.1
-95.44 6.36 2454.1
-78.86 6.07 2339.7
-71.46 5.95 2296.9
-69.21 6.29 2427.0
-63.89 6.39 2464.2
-56.47 6.27 2420.3
-48.21 6.03 2324.5
-41.61 5.94 2292.6
-13.03 6.52 2513.0
6.34 6.34 2445.0
32.29 6.46 2490.8
39.04 6.51 2509.7
46.61 6.66 2568.6
52.15 6.52 2514.5
59.86 6.65 2565.3
86.23 6.63 2558.5
-198.26 -0.00 2389.8
-192.39 -0.00 2473.5
-178.51 -0.00 2374.3
-172.46 -0.00 2375.7
-168.15 -0.00 2402.1
-155.09 -0.00 2300.8
-149.28 -0.00 2303.2
-147.06 -0.00 2363.4
-138.57 -0.00 2323.9
-134.33 -0.00 2355.2
-117.49 -0.00 2385.1
-110.48 -0.00 2367.4
-105.32 -0.00 2389.7
-102.95 -0.00 2481.9
-92.80 -0.00 2386.2
-75.22 -0.00 2417.8
-63.78 -0.00 2460.2
-43.89 -0.00 2418.6
-24.67 -0.00 2378.9
-19.82 -0.00 2548.9
-13.19 -0.00 2543.0
-6.51 -0.00 2511.0
6.27 -0.00 2418.0
79.29 -0.00 2548.8
-199.75 -6.24 2407.7
-198.52 -6.40 2470.0
-175.21 -6.04 2330.4
-167.10 -5.97 2301.9
-161.23 -5.97 2303.4
-145.01 -6.04 2330.5
-138.81 -6.04 2327.9
-114.88 -6.05 2332.2
-111.83 -6.21 2396.4
-86.26 -6.16 2376.4
-81.58 -6.28 2420.6
-70.21 -6.38 2462.0
-61.66 -6.17 2378.2
-56.03 -6.23 2401.3
-36.86 -6.14 2369.7
-29.95 -5.99 2310.8
-24.70 -6.18 2381.9
-18.75 -6.25 2410.9
6.49 -6.49 2503.0
13.01 -6.51 2510.0
-211.35 -12.43 2397.7
-213.53 -12.94 2495.8
-202.84 -13.09 2523.8
-185.17 -12.34 2380.8
-167.45 -12.40 2392.1
-152.96 -12.24 2360.0
-145.69 -12.14 2341.4
-139.94 -12.17 2346.8
-109.83 -12.20 2353.4
-106.16 -12.49 2408.6
-89.59 -12.80 2468.3
-63.08 -12.62 2433.1
-53.72 -11.94 2302.3
-30.85 -12.34 2379.8
-24.50 -12.25 2362.8
-18.72 -12.48 2406.9
6.45 -12.90 2487.0
25.52 -12.76 2460.8
-204.95 -19.21 2470.4
-190.42 -18.43 2369.3
-186.72 -18.67 2400.7
-181.06 -18.73 2408.1
-167.45 -18.61 2392.1
-151.40 -18.93 2433.2
-142.50 -18.59 2389.7
-133.87 -18.26 2347.1
-126.12 -18.02 2316.5
-108.10 -18.02 2316.4
-104.04 -18.36 2360.6
-97.64 -18.31 2353.9
-90.73 -18.15 2333.2
-83.21 -17.83 2292.4
-79.59 -18.37 2361.6
-62.77 -18.83 2421.1
-53.81 -17.94 2306.3
-48.63 -18.23 2344.4
-31.41 -18.84 2422.7
-25.24 -18.93 2433.8
-19.47 -19.47 2503.8
-12.96 -19.44 2498.9
-6.51 -19.53 2510.9
0.00 -19.43 2497.9
92.38 -19.80 2545.2
-233.15 -25.91 2498.0
-212.42 -25.75 2482.8
-198.09 -24.76 2387.7
-186.25 -24.03 2317.4
-184.70 -24.63 2374.7
-174.90 -24.12 2326.3
-161.09 -23.86 2301.2
-156.45 -25.03 2413.8
-137.61 -23.93 2307.8
-132.45 -24.08 2322.1
-130.52 -24.86 2397.3
-125.41 -25.08 2418.6
-113.05 -23.80 2295.1
-106.42 -23.65 2280.4
-103.95 -24.46 2358.6
-98.76 -24.69 2380.8
-93.30 -24.88 2399.1
-87.41 -24.97 2408.3
-80.94 -24.90 2401.5
-75.62 -25.21 2430.7
-69.47 -25.26 2435.9
-61.60 -24.64 2376.1
-53.28 -23.68 2283.3
-48.75 -24.37 2350.4
-39.07 -26.05 2511.6
-31.53 -25.23 2432.7
-26.21 -26.21 2527.7
6.47 -25.89 2496.9
-204.78 -32.00 2468.3
-191.13 -30.83 2378.1
-183.92 -30.65 2364.7
-173.09 -32.05 2472.7
-145.62 -30.34 2340.3
-138.44 -30.10 2321.7
-135.40 -30.77 2373.9
-135.63 -32.29 2491.1
-118.66 -31.23 2408.9
-112.33 -31.20 2407.2
-101.82 -31.82 2454.7
-93.92 -31.31 2415.0
-85.52 -30.54 2356.3
-76.96 -29.60 2283.5
-73.63 -30.68 2366.7
-69.09 -31.41 2422.8
-61.99 -30.99 2391.0
-54.39 -30.22 2331.2
-47.79 -29.87 2304.3
-43.60 -31.14 2402.4
-25.53 -31.91 2461.7
0.00 -32.79 2529.8
6.18 -30.88 2381.8
24.75 -30.94 2386.7
-207.50 -38.91 2501.1
-194.89 -37.72 2424.9
-190.04 -38.01 2443.3
-186.66 -38.62 2482.7
-141.59 -36.94 2374.5
-132.27 -36.07 2319.0
-130.01 -39.00 2507.3
-101.20 -37.95 2439.6
-92.44 -36.97 2376.9
-83.71 -35.87 2306.2
-74.62 -37.31 2398.5
-67.61 -36.88 2370.7
-53.27 -35.51 2283.1
-48.19 -36.14 2323.2
-43.71 -37.46 2408.3
-25.72 -38.59 2480.6
-12.34 -37.03 2380.7
30.64 -36.77 2363.5
-242.13 -44.60 2457.7
-231.73 -45.06 2482.8
-188.53 -45.51 2507.5
-172.87 -44.82 2469.6
-163.34 -43.97 2423.1
-157.08 -43.98 2423.5
-149.46 -43.59 2402.0
-128.66 -42.89 2363.1
-116.43 -45.28 2494.9
-106.10 -43.69 2407.3
-96.76 -42.33 2332.6
-89.36 -41.70 2297.9
-84.14 -42.07 2318.1
-80.12 -43.14 2377.3
-61.13 -42.79 2357.8
-47.89 -41.91 2309.1
-43.78 -43.78 2412.2
-38.02 -44.36 2444.3
-31.87 -44.62 2458.4
-25.55 -44.71 2463.5
49.32 -43.16 2378.1
-203.95 -49.44 2383.8
-170.98 -48.85 2355.3
-165.32 -48.98 2361.7
-159.16 -48.97 2361.1
-155.58 -49.79 2400.4
-150.38 -50.13 2416.8
-117.22 -49.35 2379.6
-104.07 -48.97 2361.2
-88.15 -47.02 2266.8
-86.27 -49.30 2376.9
-78.80 -48.50 2338.2
-74.86 -49.91 2406.3
-63.79 -51.04 2460.6
-56.00 -49.77 2399.8
-45.19 -51.65 2490.1
-36.95 -49.26 2375.2
-31.65 -50.63 2441.3
-25.95 -51.90 2502.3
-18.51 -49.35 2379.4
41.27 -47.17 2274.1
52.38 -46.56 2244.9
60.53 -48.42 2334.7
-192.18 -57.65 2470.9
-185.96 -57.71 2473.3
-176.76 -56.82 2434.9
-173.97 -57.99 2485.2
-168.76 -58.42 2503.6
-123.64 -52.99 2271.0
-94.06 -52.91 2267.4
-87.95 -52.77 2261.7
-86.56 -55.64 2384.8
-79.68 -55.16 2364.0
-56.55 -56.55 2423.7
-43.48 -55.91 2396.0
5.87 -52.86 2265.4
43.50 -55.93 2397.0
47.22 -53.13 2276.9
54.69 -54.69 2343.7
-231.50 -64.31 2480.4
-226.12 -64.61 2491.9
-214.53 -63.10 2433.7
-203.41 -61.64 2377.5
-182.71 -60.90 2349.1
-180.03 -62.08 2394.4
-173.42 -61.93 2388.9
-171.86 -63.65 2455.2
-168.55 -64.83 2500.5
-154.02 -64.18 2475.4
-143.17 -62.25 2400.9
-142.54 -64.79 2499.1
-132.33 -63.02 2430.6
-112.38 -59.15 2281.5
-105.64 -62.14 2396.9
-83.18 -59.41 2291.7
-80.28 -61.75 2381.8
-72.09 -60.07 2317.1
-61.58 -61.58 2375.4
-51.35 -64.18 2475.6
-19.05 -63.50 2449.1
28.53 -57.06 2201.1
41.16 -58.80 2267.9
49.50 -61.88 2386.7
67.23 -61.11 2357.3
71.19 -59.32 2288.1
-257.57 -70.83 2483.7
-248.58 -70.11 2458.5
-214.95 -69.54 2438.6
-186.65 -68.44 2399.8
-186.01 -70.56 2474.0
-169.21 -66.47 2330.9
-150.97 -69.20 2426.3
-116.36 -67.37 2362.2
-84.66 -66.52 2332.5
-82.53 -69.83 2448.6
-31.23 -68.70 2408.8
5.91 -65.02 2280.1
11.46 -63.03 2210.1
17.87 -65.51 2297.0
23.58 -64.85 2274.0
28.83 -63.42 2223.9
34.70 -63.62 2230.8
61.14 -67.25 2358.2
-260.11 -76.13 2447.0
-256.10 -76.83 2469.6
-247.96 -76.29 2452.3
-231.93 -77.31 2485.0
-205.63 -72.58 2332.8
-172.96 -74.12 2382.6
-144.34 -75.31 2420.5
-135.29 -73.80 2372.0
-124.71 -71.26 2290.5
-124.32 -74.59 2397.6
-118.96 -75.13 2414.9
-108.98 -72.65 2335.3
-104.79 -73.97 2377.5
-60.82 -72.99 2346.1
-56.66 -75.54 2428.2
-31.79 -76.30 2452.6
12.33 -73.98 2377.8
18.52 -74.10 2381.8
23.62 -70.86 2277.8
29.55 -70.92 2279.7
36.41 -72.82 2340.6
43.09 -73.87 2374.5
48.50 -72.75 2338.4
53.95 -71.94 2312.3
56.99 -68.39 2198.2
-274.17 -82.89 2459.4
-266.47 -82.48 2447.2
-255.15 -82.93 2460.4
-233.61 -79.92 2371.2
-235.24 -82.65 2452.4
-228.85 -82.64 2452.0
-206.76 -79.05 2345.6
-212.99 -83.91 2489.5
-191.89 -83.15 2467.2
-134.94 -79.74 2365.8
-119.54 -81.79 2426.7
-112.79 -81.46 2417.0
-84.76 -78.70 2335.1
-76.52 -76.52 2270.4
-75.46 -81.75 2425.4
-68.12 -80.51 2388.7
-58.98 -76.67 2274.9
-54.65 -78.94 2342.0
-49.57 -80.56 2390.1
-43.92 -81.57 2420.2
-38.05 -82.45 2446.3
-31.45 -81.78 2426.4
5.95 -77.41 2296.7
18.50 -80.17 2378.6
23.24 -75.52 2240.6
28.77 -74.81 2219.6
35.88 -77.73 2306.4
43.20 -80.22 2380.3
47.31 -76.89 2281.2
51.36 -74.19 2201.2
56.91 -73.98 2195.0
62.85 -74.28 2203.9
68.84 -74.58 2212.7
75.38 -75.38 2236.5
83.81 -77.83 2309.2
-275.26 -89.62 2469.1
-269.04 -89.68 2470.8
-237.13 -89.73 2472.0
-223.43 -89.37 2462.3
-211.22 -86.97 2396.1
-204.37 -86.70 2388.7
-195.41 -85.49 2355.4
-188.78 -85.26 2348.9
-191.33 -89.29 2460.0
-139.97 -85.20 2347.3
-135.10 -85.97 2368.6
-125.70 -87.99 2424.1
-116.77 -86.04 2370.6
-111.76 -86.92 2394.8
-106.40 -87.62 2414.1
-98.82 -86.47 2382.4
-89.43 -83.47 2299.7
-71.57 -83.50 2300.4
-68.37 -87.02 2397.4
-62.21 -87.10 2399.6
-56.46 -87.83 2419.7
-50.09 -87.65 2414.9
-43.10 -86.21 2375.0
-36.22 -84.50 2328.2
-30.53 -85.49 2355.3
-12.17 -85.20 2347.4
11.62 -81.32 2240.5
17.95 -83.79 2308.4
24.32 -85.13 2345.3
30.76 -86.14 2373.2
48.53 -84.93 2340.0
52.52 -81.70 2250.9
57.99 -81.19 2236.8
62.84 -79.98 2203.7
-246.08 -94.65 2433.8
-220.25 -94.39 2427.2
-208.65 -92.05 2367.0
-201.54 -91.61 2355.6
-195.06 -91.43 2351.2
-190.92 -92.38 2375.6
-183.25 -91.63 2356.1
-177.93 -92.03 2366.5
-140.37 -87.73 2255.9
-130.10 -92.93 2389.7
-121.60 -91.20 2345.1
-112.48 -88.80 2283.5
-106.81 -89.01 2288.8
-101.02 -89.14 2292.0
-94.80 -88.87 2285.3
-82.82 -88.74 2281.8
-74.54 -93.18 2396.0
-64.29 -87.67 2254.4
-41.68 -89.32 2296.9
-29.53 -88.59 2278.1
-23.42 -87.82 2258.2
23.02 -86.34 2220.2
29.21 -87.62 2253.1
49.32 -92.47 2377.7
53.70 -89.51 2301.6
58.04 -87.05 2238.6
72.55 -90.69 2332.1
141.38 -92.21 2371.0
148.13 -92.58 2380.6
-255.60 -102.24 2464.7
-246.05 -100.95 2433.5
-241.86 -101.84 2455.0
-231.57 -102.92 2481.1
-213.63 -97.66 2354.3
-205.91 -96.90 2335.9
-146.95 -94.05 2267.3
-142.15 -94.77 2284.6
-129.78 -94.38 2275.3
-131.77 -100.40 2420.3
-122.15 -97.72 2355.8
-112.18 -94.47 2277.3
-105.26 -93.57 2255.6
-100.04 -94.16 2269.8
-94.29 -94.29 2273.1
-89.65 -95.63 2305.3
-87.92 -100.48 2422.3
-64.51 -93.84 2262.1
-49.83 -99.66 2402.4
-42.48 -97.09 2340.6
0.00 -91.35 2202.1
6.14 -98.31 2370.0
11.88 -95.08 2292.0
17.41 -92.88 2239.0
22.92 -91.67 2210.0
28.92 -92.54 2230.9
37.39 -99.71 2403.6
48.61 -97.21 2343.5
52.21 -92.81 2237.5
64.60 -93.96 2265.1
84.95 -97.09 2340.4
-250.85 -109.35 2481.0
-234.30 -104.82 2378.2
-225.99 -103.83 2355.9
-217.80 -102.85 2333.6
-178.33 -101.06 2292.9
-153.72 -104.53 2371.7
-138.13 -106.73 2421.7
-130.51 -105.65 2397.1
-121.00 -102.85 2333.6
-110.89 -99.21 2251.1
-106.27 -100.37 2277.3
-102.89 -102.89 2334.5
-97.05 -103.12 2339.7
-91.58 -103.79 2354.9
-86.57 -105.12 2385.1
-82.04 -107.29 2434.3
-66.33 -102.51 2325.8
