ply
format ascii 1.0
element vertex 2112
property float x
property float y
property float z
end_header
-757.37 -979.35 1678.9
-734.44 -955.19 1637.5
-704.15 -926.51 1588.3
-722.61 -956.40 1639.5
-693.57 -934.45 1601.9
-684.70 -928.06 1591.0
-673.10 -917.86 1573.5
-672.19 -933.59 1600.4
-694.97 -971.23 1665.0
-669.90 -942.04 1614.9
-631.30 -893.34 1531.4
-639.78 -911.07 1561.8
-652.10 -934.53 1602.1
-659.61 -951.36 1630.9
-678.46 -984.86 1688.3
-669.99 -978.88 1678.1
-654.43 -962.39 1649.8
-636.42 -942.06 1615.0
-618.57 -921.70 1580.1
-597.55 -914.61 1567.9
-637.45 -989.15 1695.7
-619.66 -968.22 1659.8
-597.72 -960.63 1646.8
-582.54 -942.96 1616.5
-562.77 -917.56 1573.0
-554.06 -909.95 1559.9
-537.47 -916.15 1570.5
-547.24 -939.91 1611.3
-542.27 -938.55 1608.9
-550.91 -960.89 1647.2
-555.51 -976.48 1674.0
-540.28 -957.19 1640.9
-511.55 -943.44 1617.3
-521.25 -969.26 1661.6
-525.79 -985.87 1690.1
-505.74 -956.23 1639.3
-489.53 -949.52 1627.8
-474.88 -954.01 1635.4
-459.55 -931.53 1596.9
-456.06 -950.12 1628.8
-456.96 -960.89 1647.2
-436.29 -926.08 1587.6
-430.45 -949.53 1627.8
-423.79 -944.09 1618.4
-419.80 -944.54 1619.2
-420.12 -954.83 1636.8
-413.08 -948.39 1625.8
-417.76 -969.02 1661.2
-422.47 -990.16 1697.4
-406.81 -963.50 1651.7
-381.70 -913.65 1566.3
-376.38 -910.61 1561.0
-383.60 -938.15 1608.3
-374.81 -926.72 1588.7
-365.32 -923.57 1583.3
-380.51 -972.91 1667.8
-384.38 -994.09 1704.2
-367.83 -962.34 1649.7
-357.91 -947.40 1624.1
-352.55 -944.32 1618.8
-347.39 -941.73 1614.4
-323.32 -932.65 1598.8
-330.85 -966.77 1657.3
-328.02 -971.10 1664.7
-299.46 -976.50 1674.0
-284.68 -941.96 1614.8
-280.46 -970.81 1664.2
-257.02 -963.81 1652.2
-249.62 -968.37 1660.1
-239.44 -945.15 1620.3
-238.04 -956.41 1639.6
-230.92 -944.67 1619.4
-221.46 -940.17 1611.7
-222.78 -963.94 1652.5
-216.85 -956.68 1640.0
-209.53 -942.90 1616.4
-208.12 -955.65 1638.3
-198.68 -931.33 1596.6
-193.21 -966.07 1656.1
-190.04 -971.80 1665.9
-180.01 -941.91 1614.7
-172.02 -921.54 1579.8
-171.16 -939.30 1610.2
-172.82 -972.11 1666.5
-168.01 -969.29 1661.6
-159.41 -943.87 1618.1
-153.34 -932.49 1598.6
-148.90 -930.65 1595.4
-145.50 -935.34 1603.4
-126.09 -945.65 1621.1
-120.80 -937.24 1606.7
-101.23 -911.08 1561.9
-95.80 -898.11 1539.6
-88.13 -901.34 1545.2
-85.50 -916.03 1570.3
-83.45 -938.78 1609.3
-73.61 -974.28 1670.2
-68.86 -968.32 1660.0
-58.51 -940.27 1611.9
-56.19 -972.56 1667.3
-52.68 -987.73 1693.3
-47.95 -980.74 1681.3
-42.20 -949.56 1627.8
-37.86 -946.58 1622.7
-34.21 -962.24 1649.6
-30.00 -964.29 1653.1
-25.49 -955.76 1638.4
-20.60 -927.06 1589.3
-16.22 -912.47 1564.2
-12.70 -952.80 1633.4
-8.67 -975.48 1672.3
-4.15 -934.17 1601.4
0.00 -916.04 1570.4
4.15 -934.68 1602.3
8.34 -938.20 1608.3
12.11 -908.46 1557.4
15.85 -891.82 1528.8
20.55 -924.55 1584.9
36.86 -921.39 1579.5
40.12 -902.71 1547.5
52.99 -917.16 1572.3
55.81 -896.95 1537.6
68.02 -900.27 1543.3
72.50 -906.23 1553.5
75.24 -891.05 1527.5
81.17 -913.11 1565.3
87.19 -934.15 1601.4
90.35 -923.99 1584.0
95.32 -932.44 1598.5
100.52 -942.39 1615.5
102.96 -926.68 1588.6
106.49 -921.53 1579.8
111.84 -931.97 1597.7
115.40 -927.32 1589.7
129.44 -939.47 1610.5
134.09 -942.84 1616.3
137.52 -937.67 1607.4
139.77 -924.95 1585.6
141.51 -909.72 1559.5
143.68 -898.01 1539.4
166.31 -935.47 1603.7
169.79 -931.77 1597.3
183.27 -937.20 1606.6
186.09 -930.47 1595.1
187.63 -917.73 1573.3
205.94 -945.63 1621.1
212.87 -957.92 1642.1
202.55 -893.60 1531.9
247.82 -961.37 1648.1
247.83 -945.11 1620.2
247.82 -914.10 1567.0
258.00 -936.28 1605.1
255.23 -911.55 1562.6
274.74 -936.60 1605.6
274.50 -921.84 1580.3
289.39 -904.36 1550.3
294.60 -908.02 1556.6
306.93 -920.78 1578.5
323.49 -957.69 1641.8
337.34 -914.48 1567.7
340.16 -911.14 1562.0
352.83 -912.48 1564.3
369.11 -943.74 1617.8
368.84 -932.46 1598.5
374.12 -914.96 1568.5
382.91 -926.39 1588.1
388.29 -929.43 1593.3
386.84 -916.19 1570.6
397.67 -932.03 1597.8
397.38 -921.75 1580.1
418.50 -932.29 1598.2
428.89 -946.09 1621.9
426.14 -930.90 1595.8
411.92 -891.18 1527.7
447.48 -883.18 1514.0
468.87 -917.34 1572.6
485.76 -942.21 1615.2
475.99 -915.37 1569.2
470.34 -896.84 1537.4
466.60 -882.22 1512.4
490.20 -904.07 1549.8
502.70 -919.58 1576.4
480.28 -871.47 1494.0
519.77 -928.17 1591.1
525.78 -931.50 1596.9
516.22 -900.38 1543.5
532.49 -921.61 1579.9
532.66 -907.94 1556.5
533.74 -896.21 1536.4
557.65 -929.41 1593.3
552.40 -913.89 1566.7
532.06 -873.82 1498.0
571.23 -898.79 1540.8
590.15 -909.47 1559.1
587.23 -898.82 1540.8
590.20 -897.26 1538.2
617.21 -932.03 1597.8
628.58 -942.87 1616.3
608.96 -907.38 1555.5
594.20 -879.58 1507.8
626.89 -898.41 1540.1
647.45 -922.00 1580.6
647.06 -915.65 1569.7
631.57 -850.92 1458.7
655.31 -877.65 1504.5
663.91 -878.70 1506.3
665.17 -875.22 1500.4
667.12 -872.68 1496.0
690.00 -897.40 1538.4
706.90 -914.09 1567.0
725.02 -932.16 1598.0
715.88 -899.84 1542.6
678.19 -847.74 1453.3
736.42 -905.43 1552.2
722.34 -883.29 1514.2
767.87 -928.87 1592.4
774.73 -912.64 1564.5
740.73 -850.33 1457.7
739.05 -844.09 1447.0
746.02 -799.31 1370.2
789.09 -841.44 1442.5
813.15 -863.02 1479.5
823.17 -869.54 1490.6
818.97 -861.06 1476.1
812.10 -849.87 1456.9
815.59 -849.58 1456.4
818.65 -848.83 1455.1
795.38 -820.92 1407.3
787.77 -802.03 1374.9
951.04 -813.62 1394.8
964.91 -822.37 1409.8
1018.92 -830.64 1424.0
1044.26 -848.22 1454.1
1032.73 -829.87 1422.6
1064.14 -852.07 1460.7
1040.68 -830.33 1423.4
1012.27 -804.81 1379.7
1011.60 -801.44 1373.9
1026.50 -810.40 1389.3
1023.12 -804.91 1379.8
1029.44 -807.05 1383.5
1006.50 -786.33 1348.0
1048.57 -791.71 1357.2
1062.13 -799.26 1370.2
1049.13 -784.24 1344.4
1118.19 -833.09 1428.2
1116.50 -826.36 1416.6
1049.29 -764.05 1309.8
1062.99 -771.52 1322.6
1078.51 -775.28 1329.1
1054.35 -755.51 1295.2
1083.09 -771.19 1322.0
1072.64 -761.34 1305.2
-1498.02 -1061.29 1811.3
-1525.62 -1084.25 1850.5
-1492.93 -1064.36 1816.5
-1457.05 -1048.70 1789.8
-1508.04 -1092.37 1864.3
-1428.26 -1051.42 1794.5
-1460.34 -1085.65 1852.9
-1346.84 -1007.90 1720.2
-1410.79 -1059.26 1807.8
-1417.03 -1067.50 1821.9
-1335.94 -1009.77 1723.4
-1349.58 -1040.98 1776.6
-1154.50 -909.11 1551.6
-1179.13 -931.76 1590.2
-1182.65 -937.82 1600.6
-1127.68 -897.38 1531.6
-1126.98 -900.00 1536.0
-1111.31 -900.20 1536.4
-1108.97 -908.07 1549.8
-1074.62 -883.14 1507.3
-1064.99 -878.42 1499.2
-1083.01 -896.56 1530.2
-1091.55 -906.95 1547.9
-1052.34 -894.10 1526.0
-1099.39 -937.59 1600.2
-1062.75 -909.78 1552.7
-1043.03 -896.29 1529.7
-1066.37 -919.85 1569.9
-1067.88 -924.68 1578.1
-1073.87 -933.44 1593.1
-1069.78 -933.47 1593.2
-1046.69 -916.86 1564.8
-1036.61 -915.13 1561.9
-1076.66 -954.22 1628.6
-1089.48 -973.21 1661.0
-1027.29 -921.30 1572.4
-986.70 -899.17 1534.6
-1023.80 -936.75 1598.8
-1043.76 -958.90 1636.6
-1019.35 -940.30 1604.8
-1005.13 -930.98 1588.9
-988.92 -927.37 1582.7
-996.22 -942.03 1607.8
-994.38 -944.24 1611.5
-957.86 -913.41 1558.9
-954.24 -913.80 1559.6
-958.98 -922.26 1574.0
-953.46 -920.86 1571.6
-982.61 -953.09 1626.6
-967.45 -954.78 1629.5
-939.57 -931.32 1589.5
-911.39 -907.37 1548.6
-904.58 -904.58 1543.9
-916.68 -920.75 1571.4
-930.44 -938.75 1602.2
-908.37 -920.59 1571.2
-888.37 -929.50 1586.4
-862.49 -906.62 1547.3
-868.73 -917.45 1565.8
-892.52 -947.00 1616.2
-877.96 -935.94 1597.4
-860.16 -930.12 1587.4
-818.60 -898.07 1532.7
-825.32 -909.86 1552.9
-826.14 -915.23 1562.0
-850.49 -946.85 1616.0
-863.48 -966.07 1648.8
-834.50 -938.29 1601.4
-803.68 -921.99 1573.6
-801.46 -924.14 1577.2
-784.84 -909.61 1552.4
-786.23 -915.91 1563.2
-803.42 -940.80 1605.7
-799.52 -941.10 1606.2
-797.18 -943.25 1609.9
-817.89 -972.86 1660.4
-816.18 -986.39 1683.5
-782.49 -950.77 1622.7
-770.11 -940.78 1605.6
-766.55 -941.52 1606.9
-765.26 -945.07 1613.0
-770.72 -957.05 1633.4
-757.70 -946.08 1614.7
-754.85 -947.75 1617.5
-772.42 -975.24 1664.4
-770.55 -978.34 1669.7
-757.24 -966.87 1650.2
-759.03 -974.66 1663.5
-753.10 -972.58 1659.9
-724.70 -941.28 1606.5
-711.70 -929.73 1586.8
-697.70 -916.75 1564.6
-677.73 -895.72 1528.7
-681.38 -905.83 1546.0
-723.61 -973.43 1661.3
-718.08 -971.77 1658.5
-706.99 -962.53 1642.8
-697.71 -955.65 1631.0
-679.86 -936.88 1599.0
-669.69 -928.53 1584.7
-692.98 -966.75 1649.9
-689.53 -967.92 1651.9
-637.55 -900.54 1537.0
-657.80 -940.90 1605.8
-657.74 -946.80 1615.9
-671.88 -979.65 1672.0
-663.77 -974.11 1662.5
-648.26 -957.56 1634.3
-630.30 -937.16 1599.4
-623.70 -933.48 1593.2
-635.26 -957.12 1633.5
-604.12 -928.79 1585.2
-616.55 -954.39 1628.9
-629.40 -980.99 1674.3
-596.03 -935.44 1596.5
-578.22 -920.27 1570.6
-563.09 -902.54 1540.4
-559.97 -910.45 1553.9
-571.92 -936.63 1598.5
-572.82 -944.95 1612.8
-569.58 -946.51 1615.4
-559.38 -936.45 1598.2
-544.10 -917.66 1566.2
-530.36 -914.97 1561.6
-526.91 -916.01 1563.4
-534.53 -936.47 1598.3
-538.96 -951.61 1624.1
-538.62 -958.49 1635.9
-536.05 -961.49 1641.0
-523.49 -946.47 1615.3
-515.32 -939.22 1603.0
-511.20 -939.27 1603.1
-510.75 -946.15 1614.8
-489.52 -953.71 1627.7
-489.54 -962.06 1642.0
-479.37 -950.33 1621.9
-486.69 -973.39 1661.3
-487.99 -984.69 1680.6
-469.19 -955.28 1630.4
-448.18 -929.26 1586.0
-469.66 -982.80 1677.4
-464.15 -980.35 1673.2
-424.85 -923.23 1575.7
-424.34 -931.08 1589.1
-408.43 -923.05 1575.4
-417.73 -953.60 1627.5
-419.91 -968.37 1652.7
-411.58 -958.94 1636.6
-403.96 -950.98 1623.0
-408.24 -971.19 1657.5
-401.04 -964.21 1645.6
-385.45 -967.90 1651.9
-377.03 -957.41 1634.0
-381.26 -979.14 1671.1
-379.14 -996.35 1700.5
-367.04 -975.90 1665.6
-360.66 -970.34 1656.1
-344.82 -938.92 1602.5
-336.54 -975.11 1664.2
-335.92 -985.94 1682.7
-325.48 -967.87 1651.9
-312.38 -941.30 1606.5
-310.61 -948.63 1619.0
-310.23 -960.44 1639.2
-276.57 -932.92 1592.2
-268.15 -918.22 1567.1
-275.25 -957.03 1633.4
-252.90 -921.87 1573.4
-259.72 -962.22 1642.2
-251.28 -979.11 1671.1
-236.90 -939.27 1603.1
-231.56 -934.52 1594.9
-230.05 -945.31 1613.4
-227.49 -952.09 1624.9
-222.04 -946.82 1615.9
-219.18 -952.59 1625.8
-217.51 -963.88 1645.1
-214.19 -968.14 1652.3
-207.34 -956.31 1632.1
-193.44 -910.80 1554.5
-186.29 -915.25 1562.1
-189.39 -951.17 1623.4
-179.90 -945.54 1613.8
-180.25 -969.90 1655.3
-157.87 -938.94 1602.5
-154.08 -941.13 1606.2
-151.79 -952.89 1626.3
-147.13 -950.03 1621.4
-142.95 -950.20 1621.7
-137.30 -940.27 1604.8
-128.95 -940.07 1604.4
-126.88 -955.85 1631.3
-121.96 -950.44 1622.1
-111.19 -966.47 1649.5
-107.87 -975.18 1664.3
-100.68 -948.04 1618.0
-84.65 -910.99 1554.8
-82.68 -934.31 1594.6
-73.15 -972.46 1659.7
-66.96 -945.76 1614.1
-60.06 -904.91 1544.4
-57.50 -928.22 1584.2
-54.56 -948.50 1618.8
-50.47 -950.58 1622.3
-46.12 -947.60 1617.3
-40.86 -923.39 1575.9
-29.25 -944.23 1611.5
-25.22 -949.82 1621.1
-20.76 -938.22 1601.3
-16.62 -939.25 1603.0
-12.74 -959.49 1637.6
0.00 -917.55 1566.0
4.14 -936.76 1598.8
8.32 -939.79 1603.9
12.33 -929.16 1585.8
16.49 -931.67 1590.1
21.20 -958.44 1635.8
25.48 -959.93 1638.3
36.91 -926.97 1582.1
41.71 -942.59 1608.7
46.17 -948.61 1619.0
51.47 -969.27 1654.3
54.18 -941.93 1607.6
56.31 -909.02 1551.4
60.80 -916.03 1563.4
66.60 -940.71 1605.5
69.73 -926.99 1582.1
74.56 -886.93 1513.7
81.74 -923.71 1576.5
87.32 -939.77 1603.9
90.00 -924.52 1577.9
93.15 -915.33 1562.2
96.50 -908.66 1550.8
99.05 -895.43 1528.2
128.32 -935.53 1596.7
136.78 -936.74 1598.7
139.31 -926.00 1580.4
142.76 -921.81 1573.3
146.49 -919.63 1569.5
173.43 -956.01 1631.6
178.10 -958.33 1635.6
178.76 -939.51 1603.5
180.52 -927.23 1582.5
184.58 -927.02 1582.2
187.42 -920.78 1571.5
197.61 -930.41 1587.9
202.88 -935.71 1597.0
238.54 -929.48 1586.3
241.01 -923.20 1575.6
239.03 -885.59 1511.4
245.21 -893.83 1525.5
255.65 -917.09 1565.2
262.88 -928.31 1584.3
274.50 -925.92 1580.3
289.93 -963.60 1644.6
286.26 -911.19 1555.1
301.48 -946.31 1615.1
306.20 -947.97 1617.9
302.12 -922.69 1574.8
314.75 -935.97 1597.4
329.86 -898.16 1532.9
330.19 -888.36 1516.2
332.48 -873.73 1491.2
348.24 -904.63 1543.9
357.12 -917.14 1565.3
364.93 -926.67 1581.5
360.97 -906.44 1547.0
396.61 -933.68 1593.5
404.16 -941.65 1607.1
391.00 -901.70 1538.9
401.08 -915.59 1562.6
424.58 -959.56 1637.7
425.54 -952.20 1625.1
422.20 -935.47 1596.6
406.60 -892.16 1522.6
444.36 -947.40 1616.9
435.98 -920.86 1571.6
443.40 -902.78 1540.8
453.24 -914.57 1560.9
453.36 -906.73 1547.5
453.43 -898.90 1534.1
458.40 -900.86 1537.5
457.62 -891.57 1521.6
486.18 -931.16 1589.2
475.37 -902.80 1540.8
489.97 -900.28 1536.5
481.38 -877.35 1497.4
522.45 -922.45 1574.3
526.22 -921.90 1573.4
541.71 -941.74 1607.3
521.34 -892.60 1523.4
511.57 -869.28 1483.6
538.07 -907.49 1548.8
552.45 -924.84 1578.4
536.98 -892.34 1523.0
523.89 -864.23 1475.0
550.37 -875.94 1495.0
579.79 -916.30 1563.9
600.41 -929.40 1586.2
605.37 -930.71 1588.4
615.69 -940.17 1604.6
616.90 -935.70 1597.0
602.17 -907.28 1548.4
598.10 -895.17 1527.8
599.40 -891.21 1521.0
615.21 -897.02 1530.9
632.59 -916.44 1564.1
623.94 -898.15 1532.9
617.81 -883.70 1508.2
639.04 -908.32 1550.2
643.62 -909.11 1551.6
641.95 -890.06 1519.1
666.77 -918.85 1568.2
665.85 -912.01 1556.5
663.38 -887.12 1514.0
690.27 -917.65 1566.1
687.38 -908.46 1550.5
682.98 -897.41 1531.6
689.68 -900.97 1537.7
691.33 -897.94 1532.5
717.38 -926.45 1581.2
728.89 -930.67 1588.4
713.58 -906.01 1546.3
677.64 -855.56 1460.2
714.11 -881.91 1505.2
711.74 -874.21 1492.0
753.21 -905.45 1545.3
775.69 -927.55 1583.0
752.96 -895.63 1528.6
740.80 -867.46 1480.5
775.08 -902.93 1541.0
762.05 -883.19 1507.3
771.75 -889.88 1518.8
753.68 -864.62 1475.7
763.42 -854.12 1457.7
772.34 -859.85 1467.5
775.72 -855.18 1459.5
810.65 -889.35 1517.9
784.06 -856.02 1461.0
767.87 -826.37 1410.4
793.05 -849.43 1449.7
802.98 -856.00 1460.9
814.24 -863.93 1474.5
810.44 -855.89 1460.7
800.97 -822.81 1404.3
814.53 -832.96 1421.6
928.58 -807.15 1377.6
967.04 -837.36 1429.1
990.02 -853.99 1457.5
971.03 -834.42 1424.1
986.93 -826.10 1409.9
958.91 -790.93 1349.9
1026.50 -840.54 1434.5
1030.24 -840.56 1434.6
957.93 -778.75 1329.1
1034.56 -814.67 1390.4
1026.28 -805.34 1374.5
1050.71 -816.02 1392.7
1035.20 -801.21 1367.4
1009.72 -778.83 1329.2
1067.97 -807.23 1377.7
1057.06 -796.32 1359.1
1054.46 -791.72 1351.2
1094.93 -819.39 1398.4
1083.39 -808.08 1379.1
1011.05 -751.64 1282.8
1125.57 -805.00 1373.9
1142.98 -814.87 1390.7
-1515.51 -1085.24 1844.0
-1500.49 -1081.30 1837.3
-1414.82 -1029.38 1749.1
-1443.72 -1053.78 1790.6
-1426.92 -1044.88 1775.4
-1408.76 -1045.06 1775.7
-1434.17 -1078.00 1831.7
-1346.00 -1021.88 1736.4
-1254.31 -971.77 1651.2
-1114.16 -896.86 1523.9
-1150.15 -929.12 1578.8
-1124.93 -912.00 1549.7
-1083.08 -887.58 1508.2
-1092.84 -898.82 1527.3
-1081.07 -892.37 1516.3
-1070.38 -886.77 1506.8
-1089.41 -905.84 1539.2
-1119.21 -934.05 1587.1
-1134.85 -950.59 1615.2
-1082.71 -910.28 1546.7
-1059.92 -921.85 1566.4
-1073.97 -937.66 1593.2
-1080.89 -947.35 1609.7
-1059.28 -932.00 1583.6
-1034.65 -921.04 1565.0
-1054.29 -942.22 1601.0
-1018.66 -913.98 1553.0
-987.04 -896.23 1522.9
-1043.82 -951.60 1616.9
-1022.69 -936.09 1590.6
-1002.13 -920.99 1564.9
-1026.47 -947.19 1609.5
-995.63 -926.27 1573.9
-1003.23 -944.95 1605.6
-976.13 -931.02 1582.0
-998.67 -956.53 1625.3
-958.06 -921.52 1565.8
-924.66 -893.18 1517.7
-940.57 -912.43 1550.4
-994.21 -968.60 1645.8
-982.89 -965.87 1641.2
-964.44 -951.86 1617.4
-934.70 -926.53 1574.4
-915.94 -919.99 1563.2
-927.08 -935.32 1589.3
-877.99 -901.82 1532.4
-892.44 -920.83 1564.7
-886.53 -918.91 1561.4
-901.46 -947.37 1609.8
-896.78 -946.83 1608.8
-891.66 -945.82 1607.1
-902.44 -961.76 1634.2
-895.99 -959.38 1630.2
-823.95 -899.21 1527.9
-841.68 -923.00 1568.3
-861.32 -949.12 1612.7
-869.11 -962.38 1635.3
-845.69 -941.04 1599.0
-846.38 -946.45 1608.2
-875.42 -983.76 1671.6
-862.39 -973.95 1654.9
-831.48 -943.73 1603.6
-816.23 -931.08 1582.1
-809.57 -928.14 1577.1
-810.57 -934.01 1587.1
-807.92 -935.71 1589.9
-788.88 -918.34 1560.4
-780.31 -913.04 1551.4
-789.59 -928.69 1578.0
-792.44 -936.90 1592.0
-797.20 -947.45 1609.9
-772.56 -923.01 1568.4
-748.49 -898.98 1527.5
-756.36 -913.26 1551.8
-781.02 -963.54 1637.2
-798.98 -996.53 1693.3
-746.47 -936.18 1590.7
-733.59 -925.14 1572.0
-740.85 -939.51 1596.4
-749.47 -955.79 1624.1
-746.20 -956.99 1626.1
-705.63 -931.26 1582.4
-695.27 -922.95 1568.3
-690.80 -938.99 1595.5
-686.12 -938.25 1594.3
-680.06 -935.60 1589.8
-689.85 -954.85 1622.5
-712.14 -991.76 1685.2
-708.62 -992.95 1687.2
-675.64 -952.61 1618.7
-638.59 -906.01 1539.5
-624.71 -920.84 1564.7
-613.64 -910.43 1547.0
-620.66 -926.90 1575.0
-637.77 -958.77 1629.1
-648.28 -981.06 1667.0
-634.59 -966.80 1642.8
-597.79 -916.88 1557.9
-610.87 -956.33 1625.0
-603.69 -951.65 1617.0
-600.49 -953.23 1619.7
-621.18 -993.01 1687.3
-616.90 -993.16 1687.6
-568.43 -921.67 1566.1
-580.04 -968.15 1645.1
-590.86 -993.52 1688.2
-575.08 -974.21 1655.4
-558.74 -968.20 1645.1
-547.00 -955.14 1623.0
-545.61 -960.10 1631.4
-541.97 -961.16 1633.2
-533.69 -953.92 1620.9
-533.59 -961.31 1633.4
-524.01 -951.61 1617.0
-517.18 -946.78 1608.8
-514.37 -949.28 1613.0
-516.53 -961.08 1633.0
-503.45 -944.48 1604.8
-492.69 -955.90 1624.3
-481.22 -941.70 1600.1
-475.40 -955.02 1622.7
-468.05 -948.63 1611.9
-464.74 -967.85 1644.6
-467.51 -982.65 1669.7
-443.19 -940.23 1597.6
-438.77 -948.58 1611.8
-437.30 -954.48 1621.8
-433.08 -954.46 1621.8
-423.53 -942.56 1601.6
-389.68 -921.42 1565.7
-397.42 -949.63 1613.6
-403.28 -973.88 1654.8
-385.13 -940.05 1597.3
-379.17 -945.85 1607.2
-395.67 -997.97 1695.7
-388.91 -991.94 1685.5
-378.92 -977.43 1660.8
-374.00 -975.85 1658.1
-364.01 -960.81 1632.6
-353.77 -944.77 1605.3
-350.12 -946.15 1607.7
-337.88 -924.09 1570.2
-333.22 -922.46 1567.4
-332.14 -930.81 1581.6
-324.71 -933.03 1585.4
-329.48 -958.87 1629.3
-325.55 -959.73 1630.7
-320.94 -958.58 1628.8
-313.36 -948.43 1611.6
-304.40 -933.76 1586.6
-297.17 -924.08 1570.2
-295.90 -932.92 1585.2
-292.84 -936.25 1590.9
-292.70 -962.96 1636.2
-295.92 -987.85 1678.5
-278.34 -943.03 1602.4
-260.19 -922.85 1568.1
-268.33 -966.83 1642.8
-259.76 -951.05 1616.0
-256.71 -971.22 1650.3
-256.04 -985.08 1673.8
-244.44 -956.70 1625.6
-235.49 -937.85 1593.6
-228.08 -924.52 1570.9
-224.43 -926.28 1573.9
-224.24 -942.64 1601.7
-221.21 -947.43 1609.8
-220.55 -962.79 1635.9
-221.12 -984.20 1672.3
-214.95 -975.87 1658.2
-205.26 -950.90 1615.8
-196.96 -931.46 1582.7
-190.81 -921.59 1565.9
-191.09 -942.99 1602.3
-189.38 -955.32 1623.3
-179.67 -971.08 1650.0
-170.69 -945.02 1605.8
-155.50 -928.89 1578.4
-157.86 -968.49 1645.6
-144.39 -936.48 1591.2
-139.30 -930.06 1580.3
-132.88 -914.03 1553.1
-131.01 -929.36 1579.1
-132.88 -973.02 1653.3
-129.41 -979.24 1663.9
-123.37 -965.72 1640.9
-118.82 -963.32 1636.9
-116.82 -982.19 1668.9
-113.96 -994.97 1690.6
-107.36 -974.84 1656.4
-88.82 -960.09 1631.4
-84.42 -958.16 1628.1
-72.12 -962.99 1636.3
-68.67 -974.22 1655.4
-64.35 -973.79 1654.6
-59.22 -960.17 1631.5
-54.00 -943.00 1602.3
-49.45 -935.45 1589.5
-44.67 -921.81 1566.3
-40.05 -909.19 1544.9
-36.25 -914.30 1553.6
-32.74 -929.04 1578.6
-29.32 -950.89 1615.7
-25.01 -946.35 1608.0
-20.35 -924.06 1570.2
-16.44 -933.21 1585.7
-12.67 -958.59 1628.8
-8.40 -953.53 1620.2
0.00 -909.92 1546.1
4.11 -933.25 1585.8
8.26 -937.30 1592.6
12.25 -927.14 1575.4
16.16 -916.98 1558.1
20.47 -929.14 1578.8
24.92 -942.80 1602.0
41.66 -945.69 1606.9
46.93 -968.46 1645.6
55.80 -974.43 1655.7
56.87 -922.15 1566.9
60.33 -912.96 1551.3
65.95 -935.70 1589.9
68.97 -920.92 1564.8
94.54 -933.03 1585.4
98.31 -929.89 1580.0
101.17 -918.63 1560.9
105.26 -919.02 1561.6
111.89 -940.67 1598.4
118.26 -958.77 1629.1
131.77 -906.44 1540.2
138.09 -921.97 1566.6
145.64 -944.57 1605.0
148.81 -938.34 1594.4
159.39 -927.71 1576.3
165.31 -938.13 1594.1
173.88 -962.69 1635.8
179.95 -972.60 1652.6
182.00 -960.78 1632.5
175.62 -906.06 1539.6
192.07 -927.64 1576.2
199.09 -941.55 1599.9
203.52 -942.83 1602.0
212.74 -894.30 1519.6
221.38 -913.70 1552.5
229.69 -931.06 1582.0
235.49 -937.85 1593.6
237.25 -928.53 1577.7
241.92 -885.74 1505.0
261.08 -940.71 1598.4
270.38 -959.00 1629.5
268.05 -936.11 1590.6
281.95 -941.22 1599.3
287.52 -945.91 1607.3
280.47 -909.51 1545.4
286.26 -915.21 1555.1
296.54 -934.92 1588.6
295.88 -920.08 1563.4
316.82 -887.89 1508.7
319.89 -885.54 1504.7
347.05 -926.83 1574.8
356.27 -940.39 1597.9
370.19 -965.89 1641.2
352.29 -908.75 1544.1
352.50 -889.08 1510.7
367.22 -916.03 1556.5
392.23 -937.22 1592.5
387.37 -915.97 1556.4
374.11 -866.56 1472.4
407.13 -933.51 1586.2
425.22 -965.24 1640.1
422.22 -948.95 1612.4
419.97 -934.64 1588.1
426.66 -922.41 1567.3
429.75 -903.27 1534.8
456.06 -916.17 1556.7
456.65 -909.29 1545.0
462.40 -912.73 1550.9
454.88 -890.14 1512.5
459.31 -891.13 1514.2
482.86 -928.90 1578.4
481.80 -919.07 1561.7
455.02 -860.75 1462.6
487.01 -891.55 1514.9
501.25 -875.26 1487.2
505.62 -862.98 1466.4
542.96 -899.65 1528.7
540.10 -888.43 1509.6
545.75 -891.26 1514.4
562.16 -911.51 1548.8
564.61 -908.99 1544.5
566.74 -905.99 1539.4
574.32 -911.68 1549.1
548.00 -852.03 1447.8
573.30 -879.32 1494.1
595.43 -907.12 1541.4
591.07 -894.49 1519.9
596.53 -896.77 1523.8
593.00 -885.60 1504.8
604.11 -873.46 1484.2
594.88 -854.67 1452.2
611.95 -873.67 1484.5
638.23 -888.82 1510.3
656.82 -909.13 1544.8
650.31 -894.67 1520.2
658.13 -883.99 1502.1
687.81 -918.43 1560.6
683.84 -907.79 1542.5
664.01 -876.34 1489.1
663.12 -865.10 1470.0
697.38 -904.60 1537.1
699.73 -902.49 1533.5
684.06 -872.37 1482.3
672.52 -852.86 1449.2
712.19 -878.63 1493.0
712.83 -874.66 1486.2
740.14 -866.04 1471.6
773.70 -900.67 1530.4
773.02 -895.29 1521.3
741.28 -854.16 1451.4
721.16 -822.63 1397.8
767.43 -871.03 1480.0
802.58 -906.39 1540.1
802.89 -889.06 1510.7
798.02 -875.12 1487.0
769.58 -839.88 1427.1
768.81 -835.02 1418.9
773.95 -836.60 1421.5
775.26 -834.05 1417.2
779.55 -834.70 1418.3
781.26 -832.61 1414.8
815.23 -841.17 1429.3
818.66 -840.88 1428.8
792.75 -810.60 1377.4
954.17 -836.28 1421.0
955.42 -834.15 1417.4
958.16 -833.34 1416.0
977.57 -846.98 1439.2
983.83 -842.75 1432.0
976.36 -833.21 1415.8
957.04 -813.66 1382.6
994.16 -817.66 1389.4
975.19 -799.16 1357.9
1025.64 -811.22 1378.4
1091.85 -851.72 1447.2
1086.83 -844.90 1435.6
1067.53 -827.06 1405.3
1028.35 -794.00 1349.1
1059.41 -815.20 1385.2
1114.86 -854.98 1452.8
1098.68 -839.73 1426.9
1067.99 -813.54 1382.3
1063.80 -807.64 1372.3
1066.26 -806.80 1370.9
1078.20 -813.12 1381.6
1084.01 -814.81 1384.5
1033.22 -774.06 1315.3
994.54 -742.63 1261.9
1101.51 -798.86 1357.4
1117.08 -807.57 1372.2
1122.34 -808.80 1374.3
-1507.70 -1080.99 1828.7
-1431.68 -1042.89 1764.3
-1414.68 -1037.13 1754.5
-1407.62 -1035.28 1751.4
-1346.61 -1026.85 1737.2
-1343.68 -1031.51 1745.0
-1341.63 -1033.42 1748.3
-1234.70 -960.79 1625.4
-1272.15 -993.32 1680.4
-1128.17 -912.14 1543.1
-1169.40 -948.84 1605.2
-1146.27 -933.39 1579.1
-1116.90 -912.73 1544.1
-1110.84 -911.05 1541.3
-1070.24 -887.33 1501.1
-1093.49 -909.92 1539.3
-1102.55 -920.81 1557.8
-1121.40 -940.00 1590.2
-1137.53 -957.04 1619.0
-1090.58 -920.94 1558.0
-1045.23 -902.70 1527.1
-1077.07 -944.51 1597.9
-1063.46 -936.17 1583.7
-1022.95 -904.00 1529.3
-1010.52 -896.49 1516.6
-1001.10 -891.61 1508.4
-1020.90 -912.81 1544.2
-1048.94 -941.57 1592.9
-1036.47 -934.05 1580.2
-1011.79 -915.43 1548.7
-992.89 -909.15 1538.0
-998.63 -925.56 1565.8
-995.98 -926.88 1568.0
-1001.94 -936.24 1583.9
-997.34 -935.77 1583.1
-967.76 -915.56 1548.9
-974.09 -925.38 1565.5
-955.57 -915.42 1548.6
-988.90 -951.35 1609.4
-959.54 -927.01 1568.3
-926.42 -906.54 1533.6
-935.24 -919.12 1554.9
-920.14 -908.19 1536.4
-938.80 -951.32 1609.4
-948.88 -965.83 1633.9
-906.38 -935.09 1581.9
-920.27 -953.73 1613.5
-895.82 -932.63 1577.8
-906.71 -957.09 1619.1
-879.94 -933.15 1578.6
-887.44 -949.94 1607.0
-902.43 -970.54 1641.9
-877.64 -948.35 1604.4
-839.01 -910.93 1541.0
-846.34 -932.20 1577.0
-892.68 -988.01 1671.4
-862.47 -959.23 1622.8
-843.77 -952.38 1611.2
-846.03 -959.67 1623.5
-828.25 -944.21 1597.3
-803.28 -920.34 1557.0
-786.97 -906.21 1533.1
-775.19 -897.17 1517.8
-765.78 -895.38 1514.7
-788.31 -926.46 1567.3
-806.24 -952.45 1611.3
-817.29 -970.53 1641.9
-807.80 -964.29 1631.3
-772.60 -927.12 1568.4
-755.57 -936.25 1583.9
-788.73 -982.68 1662.4
-736.48 -922.63 1560.8
-731.13 -920.98 1558.1
-763.07 -966.55 1635.1
-742.35 -945.56 1599.6
-724.00 -927.37 1568.9
-724.16 -932.81 1578.1
-733.96 -972.92 1645.9
-723.46 -964.61 1631.9
-674.43 -915.29 1548.4
-663.57 -905.95 1532.6
-653.48 -897.54 1518.4
-680.57 -946.15 1600.6
-697.41 -975.52 1650.3
-689.55 -970.48 1641.8
-668.88 -947.23 1602.5
-639.97 -911.96 1542.8
-655.47 -945.87 1600.2
-666.00 -967.18 1636.2
-655.64 -958.25 1621.1
-637.40 -943.69 1596.5
-621.09 -925.55 1565.8
-630.42 -951.88 1610.3
-631.74 -960.25 1624.5
-631.42 -966.20 1634.6
-607.22 -935.44 1582.5
-610.03 -952.64 1611.6
-583.98 -937.66 1586.3
-609.06 -984.86 1666.1
-588.42 -958.29 1621.2
-580.60 -973.36 1646.7
-572.36 -966.65 1635.3
-550.33 -965.19 1632.8
-541.72 -957.45 1619.8
-531.52 -946.77 1601.7
-535.58 -961.52 1626.6
-547.92 -991.47 1677.3
-533.41 -972.93 1645.9
-521.97 -959.76 1623.7
-520.97 -965.71 1633.7
-525.18 -981.48 1660.4
-523.25 -985.96 1668.0
-501.62 -953.09 1612.4
-486.43 -931.98 1576.7
-489.99 -946.76 1601.7
-455.86 -944.88 1598.5
-463.77 -970.09 1641.1
-446.16 -941.89 1593.4
-432.61 -957.63 1620.0
-435.95 -974.47 1648.5
-412.75 -931.75 1576.3
-400.96 -942.45 1594.4
-403.29 -957.81 1620.4
-397.40 -953.77 1613.5
-389.09 -943.74 1596.6
-385.32 -944.66 1598.1
-379.74 -941.09 1592.1
-382.94 -959.46 1623.1
-387.96 -982.82 1662.7
-377.18 -966.27 1634.7
-363.47 -941.72 1593.1
-343.28 -931.77 1576.3
-342.45 -963.93 1630.7
-332.55 -947.77 1603.4
-327.48 -945.13 1598.9
-324.49 -948.49 1604.6
-320.11 -947.85 1603.5
-315.06 -945.19 1599.0
-303.60 -948.22 1604.1
-312.71 -990.26 1675.2
-305.35 -980.55 1658.8
-295.75 -963.29 1629.6
-290.86 -961.10 1625.9
-284.94 -955.38 1616.2
-281.43 -957.71 1620.2
-274.12 -946.94 1602.0
-260.86 -915.02 1548.0
-261.03 -929.91 1573.2
-265.94 -962.45 1628.2
-253.71 -933.01 1578.4
-243.82 -926.50 1567.4
-251.18 -970.66 1642.1
-247.89 -974.47 1648.5
-240.03 -960.11 1624.2
-234.02 -952.80 1611.9
-226.01 -936.90 1585.0
-221.36 -934.62 1581.1
-217.43 -935.38 1582.4
-216.15 -947.75 1603.3
-216.80 -969.22 1639.7
-210.49 -959.86 1623.8
-205.90 -958.07 1620.8
-202.39 -961.33 1626.3
-189.45 -919.04 1554.8
-183.22 -908.12 1536.3
-188.07 -952.88 1612.0
-185.10 -959.16 1622.6
-172.50 -959.26 1622.8
-168.15 -958.44 1621.4
-160.68 -939.36 1589.1
-160.48 -962.87 1628.9
-158.42 -976.23 1651.5
-148.40 -939.89 1590.0
-133.63 -982.80 1662.6
-130.27 -990.06 1674.9
-122.78 -965.32 1633.1
-116.88 -951.74 1610.1
-114.95 -970.67 1642.1
-112.33 -985.02 1666.4
-105.79 -964.82 1632.2
-97.08 -922.26 1560.2
-89.28 -969.33 1639.8
-83.16 -948.08 1603.9
-72.38 -970.71 1642.2
-67.77 -965.71 1633.7
-62.13 -944.42 1597.7
-50.23 -954.28 1614.4
-45.82 -949.75 1606.7
-41.46 -945.22 1599.1
-37.07 -939.16 1588.8
-33.04 -941.75 1593.2
-29.55 -962.64 1628.5
-25.23 -958.60 1621.7
-20.62 -940.31 1590.8
-16.76 -955.60 1616.6
-12.86 -976.99 1652.8
-8.48 -966.82 1635.6
-4.05 -923.58 1562.4
0.00 -913.40 1545.2
4.05 -923.07 1561.6
44.37 -919.74 1555.9
48.91 -929.35 1572.2
53.86 -944.55 1597.9
56.96 -927.70 1569.4
87.92 -954.59 1614.9
93.67 -970.75 1642.2
97.40 -965.56 1633.5
100.72 -956.81 1618.7
104.12 -949.58 1606.4
108.33 -949.97 1607.1
112.36 -948.83 1605.2
116.07 -945.14 1598.9
120.59 -948.05 1603.9
122.05 -927.61 1569.3
126.80 -903.47 1528.4
146.56 -928.22 1570.3
150.93 -930.08 1573.4
157.60 -945.63 1599.7
160.68 -939.36 1589.1
174.34 -924.42 1563.9
196.42 -933.00 1578.4
203.51 -946.94 1602.0
205.50 -937.10 1585.3
203.57 -910.07 1539.6
206.16 -886.86 1500.3
216.09 -912.40 1543.5
223.94 -928.31 1570.5
231.29 -941.69 1593.1
236.75 -946.99 1602.0
238.39 -937.13 1585.4
241.00 -931.31 1575.5
240.23 -912.88 1544.4
261.49 -946.33 1600.9
272.91 -972.23 1644.7
269.47 -945.23 1599.1
285.53 -943.50 1596.1
288.03 -938.15 1587.1
287.03 -921.75 1559.3
290.50 -919.92 1556.3
293.15 -915.58 1548.9
319.43 -945.84 1600.1
323.28 -944.99 1598.7
348.34 -923.51 1562.3
363.30 -952.10 1610.7
351.33 -890.03 1505.7
368.41 -923.05 1561.6
368.88 -914.17 1546.5
374.55 -918.25 1553.4
388.88 -943.24 1595.7
402.87 -956.82 1618.7
374.08 -879.29 1487.5
388.56 -877.14 1483.9
435.81 -937.39 1585.8
446.90 -952.27 1611.0
433.27 -914.68 1547.4
450.47 -893.10 1510.9
446.44 -862.62 1459.3
464.35 -889.68 1505.1
458.42 -871.00 1473.5
469.88 -871.00 1473.5
470.50 -865.11 1463.5
486.38 -887.16 1500.8
479.43 -867.54 1467.6
502.98 -888.99 1503.9
540.85 -948.57 1604.7
528.41 -919.68 1555.8
503.11 -862.47 1459.1
502.57 -855.12 1446.6
545.16 -913.95 1546.2
557.02 -927.01 1568.2
549.25 -907.46 1535.2
563.26 -923.90 1563.0
570.03 -921.76 1559.4
551.96 -886.24 1499.3
568.86 -907.00 1534.4
563.29 -891.88 1508.8
560.98 -882.10 1492.3
566.03 -883.94 1495.4
569.10 -859.30 1453.7
602.84 -875.46 1481.0
611.58 -882.53 1493.0
612.01 -877.59 1484.6
600.96 -856.37 1448.7
620.82 -852.69 1442.5
625.15 -853.50 1443.9
662.14 -898.62 1520.2
678.30 -915.10 1548.1
685.71 -919.65 1555.8
678.53 -904.71 1530.5
664.27 -870.43 1472.5
669.40 -872.14 1475.4
690.03 -883.86 1495.3
701.91 -894.05 1512.5
693.74 -832.49 1408.3
735.49 -842.68 1425.6
760.34 -858.20 1451.9
737.24 -819.95 1387.1
757.49 -830.33 1404.7
774.52 -829.07 1402.6
776.62 -827.43 1399.8
739.78 -784.51 1327.2
784.88 -820.89 1388.7
778.54 -803.20 1358.8
916.83 -807.09 1365.4
916.58 -800.69 1354.6
941.91 -819.68 1386.7
961.29 -833.37 1409.8
998.53 -862.37 1458.9
1006.93 -866.34 1465.6
976.05 -836.61 1415.3
966.47 -825.30 1396.2
985.89 -829.46 1403.2
1031.11 -864.31 1462.2
1029.71 -859.98 1454.8
953.68 -793.57 1342.5
1071.37 -839.42 1420.1
1090.34 -851.36 1440.3
1098.97 -855.17 1446.7
1084.59 -841.11 1422.9
1029.30 -790.17 1336.8
1035.59 -792.33 1340.4
1096.58 -827.88 1400.6
1090.67 -820.70 1388.4
1095.39 -821.54 1389.8
1064.65 -795.87 1346.4
1079.49 -786.34 1330.3
1082.37 -785.93 1329.6
1080.66 -782.19 1323.3
-1499.86 -1076.70 1813.5
-1468.97 -1057.84 1781.8
-1466.83 -1062.99 1790.4
-1505.68 -1094.60 1843.7
-1458.04 -1073.60 1808.3
-1457.71 -1076.82 1813.7
-1407.43 -1043.05 1756.9
-1410.38 -1062.43 1789.5
-1394.88 -1054.22 1775.7
-1339.87 -1050.79 1769.9
-1334.47 -1050.15 1768.8
-1101.84 -891.59 1501.7
-1136.84 -923.18 1554.9
-1134.47 -924.54 1557.2
-1142.16 -934.12 1573.4
-1139.75 -935.49 1575.7
-1130.48 -931.22 1568.5
-1092.86 -903.48 1521.8
-1093.11 -913.59 1538.8
-1076.68 -903.15 1521.2
-1072.25 -902.74 1520.5
-1064.19 -899.26 1514.7
-1071.42 -915.50 1542.0
-1092.00 -936.58 1577.5
-1047.66 -901.93 1519.2
-1057.46 -913.80 1539.2
-1128.04 -978.49 1648.1
-1112.72 -968.87 1631.9
-1061.14 -931.04 1568.2
-1062.11 -935.48 1575.7
-1018.05 -900.13 1516.1
-999.64 -887.28 1494.5
-1011.64 -901.42 1518.3
-980.92 -877.46 1477.9
-1038.68 -936.45 1577.3
-1060.14 -959.58 1616.3
-1039.33 -944.47 1590.8
-980.03 -894.13 1506.0
-982.06 -910.49 1533.6
-996.79 -927.91 1562.9
-979.29 -915.34 1541.7
-997.24 -935.93 1576.4
-1005.51 -947.58 1596.0
-968.33 -920.11 1549.8
-991.63 -946.18 1593.7
-966.78 -926.33 1560.3
-957.53 -921.32 1551.8
-961.39 -928.94 1564.7
-965.20 -936.57 1577.5
-935.54 -911.66 1535.5
-909.92 -894.30 1506.3
-922.46 -910.53 1533.6
-917.09 -921.11 1551.5
-933.31 -941.53 1585.9
-909.33 -921.40 1552.0
-905.22 -921.32 1551.8
-931.04 -951.82 1603.2
-911.69 -936.22 1576.9
-884.45 -912.34 1536.7
-900.69 -933.30 1572.0
-914.14 -951.54 1602.7
-887.54 -928.06 1563.2
-872.46 -916.48 1543.7
-897.09 -946.69 1594.6
-901.97 -956.26 1610.7
-857.09 -912.90 1537.6
-841.92 -913.75 1539.1
-822.54 -896.96 1510.8
-831.72 -920.12 1549.8
-862.21 -958.47 1614.4
-820.51 -916.57 1543.8
-826.96 -937.49 1579.1
-816.19 -929.89 1566.3
-820.14 -939.06 1581.7
-815.90 -938.90 1581.4
-790.57 -928.41 1563.8
-807.00 -952.59 1604.5
-820.09 -973.06 1639.0
-820.61 -989.05 1665.9
-787.04 -953.61 1606.2
-785.05 -956.26 1610.7
-773.80 -947.59 1596.1
-748.43 -921.46 1552.1
-730.13 -903.78 1522.3
-719.54 -895.52 1508.4
-721.06 -912.28 1536.6
-755.99 -961.79 1620.0
-739.77 -946.41 1594.1
-710.77 -924.81 1557.7
-718.55 -956.68 1611.4
-726.30 -972.65 1638.3
-705.58 -950.46 1600.9
-681.50 -923.45 1555.4
-679.72 -926.52 1560.6
-679.30 -931.50 1569.0
-669.13 -923.08 1554.8
-675.94 -938.12 1580.1
-669.05 -939.95 1583.2
-679.69 -960.79 1618.3
-676.65 -962.44 1621.1
-669.22 -957.83 1613.3
-681.21 -981.12 1652.5
-669.76 -970.73 1635.0
-645.50 -941.53 1585.9
-641.84 -942.18 1587.0
-641.10 -947.18 1595.4
-637.08 -947.35 1595.7
-628.86 -941.23 1585.4
-624.21 -940.42 1584.0
-625.62 -948.79 1598.1
-630.14 -962.02 1620.4
-631.72 -970.90 1635.3
-625.39 -967.67 1629.9
-624.69 -973.16 1639.1
-624.56 -979.63 1650.0
-604.70 -955.01 1608.6
-569.04 -930.79 1567.8
-575.10 -947.47 1595.9
-572.45 -963.91 1623.5
-565.73 -981.45 1653.1
-541.59 -946.76 1594.7
-514.86 -928.37 1563.7
-550.05 -999.69 1683.8
-509.43 -940.81 1584.6
-511.76 -968.53 1631.3
-498.25 -950.83 1601.5
-492.06 -946.91 1594.9
-496.34 -963.23 1622.4
-494.17 -967.22 1629.1
-490.71 -968.73 1631.7
-487.98 -971.73 1636.7
-465.28 -934.64 1574.3
-452.04 -941.06 1585.1
-444.62 -934.11 1573.4
-435.09 -948.91 1598.3
-433.26 -972.71 1638.4
-428.78 -972.18 1637.5
-430.81 -996.53 1678.5
-414.49 -968.56 1631.4
-409.76 -977.44 1646.3
-413.34 -996.37 1678.2
-404.25 -984.82 1658.8
-399.93 -984.76 1658.7
-376.71 -937.69 1579.4
-379.47 -965.53 1626.3
-378.91 -974.96 1642.2
-354.41 -922.27 1553.4
-344.24 -927.43 1562.1
-351.19 -957.41 1612.6
-353.88 -976.37 1644.5
-323.65 -938.17 1580.2
-315.73 -926.96 1561.3
-314.71 -948.29 1597.2
-320.42 -978.34 1647.9
-321.30 -994.31 1674.8
-297.19 -958.55 1614.5
-287.09 -939.20 1581.9
-282.48 -937.50 1579.1
-274.39 -952.06 1603.6
-267.60 -942.76 1587.9
-257.99 -937.79 1579.6
-252.47 -932.51 1570.7
-246.45 -925.21 1558.4
-241.20 -952.34 1604.1
-244.17 -980.97 1652.3
-237.60 -971.61 1636.5
-228.80 -952.62 1604.5
-223.38 -947.30 1595.6
-219.07 -946.54 1594.3
-216.72 -954.39 1607.5
-216.33 -971.37 1636.1
-205.67 -961.19 1619.0
-207.05 -987.81 1663.8
-198.10 -965.19 1625.7
-181.38 -944.00 1590.0
-179.39 -955.38 1609.2
-176.10 -960.15 1617.2
-176.95 -988.31 1664.7
-174.97 -1001.73 1687.3
-169.68 -996.33 1678.2
-160.55 -967.52 1629.6
-150.11 -929.04 1564.8
-151.46 -990.95 1669.1
-131.92 -944.09 1590.2
-133.61 -987.01 1662.5
-129.79 -990.73 1668.7
-122.13 -964.38 1624.3
-115.56 -945.16 1592.0
-112.83 -957.00 1611.9
-111.39 -981.08 1652.5
-106.12 -972.03 1637.2
-98.79 -942.58 1587.6
-93.76 -933.52 1572.4
-87.45 -953.61 1606.2
-82.54 -945.03 1591.8
-78.50 -946.15 1593.6
-77.46 -985.51 1659.9
-74.64 -1005.49 1693.6
-68.12 -974.96 1642.2
-50.03 -954.82 1608.2
-46.65 -971.21 1635.8
-41.97 -961.05 1618.7
-37.37 -950.89 1601.6
-33.38 -955.52 1609.4
-29.90 -978.02 1647.3
-25.48 -972.43 1637.9
-20.85 -955.10 1608.7
-16.58 -949.00 1598.4
-8.46 -968.94 1632.0
-4.15 -951.08 1601.9
0.00 -934.74 1574.4
20.58 -942.34 1587.2
24.94 -952.01 1603.5
29.22 -956.07 1610.3
33.27 -952.46 1604.3
48.94 -933.90 1573.0
55.21 -972.62 1638.2
59.30 -970.01 1633.8
62.36 -952.08 1603.6
68.85 -927.44 1562.1
73.29 -932.46 1570.6
76.81 -925.74 1559.3
80.58 -922.59 1554.0
86.05 -938.31 1580.4
91.75 -955.04 1608.6
95.50 -950.85 1601.6
105.66 -930.63 1567.5
112.33 -918.66 1547.3
116.06 -916.49 1543.7
121.38 -926.55 1560.6
125.75 -928.95 1564.7
129.51 -926.77 1561.0
131.99 -915.93 1542.7
137.48 -925.96 1559.6
146.55 -958.89 1615.1
154.08 -980.09 1650.8
164.05 -963.27 1622.5
170.41 -929.15 1565.0
178.54 -950.80 1601.5
178.26 -927.74 1562.6
195.99 -935.02 1574.9
200.35 -936.32 1577.1
201.17 -921.38 1551.9
218.00 -924.49 1557.2
226.61 -943.50 1589.2
235.19 -897.65 1511.9
237.96 -893.34 1504.7
260.64 -947.40 1595.7
274.72 -982.99 1655.7
273.19 -962.47 1621.1
271.04 -940.44 1584.0
274.47 -938.12 1580.1
272.93 -919.14 1548.1
284.01 -929.11 1564.9
294.06 -948.46 1597.5
292.24 -929.48 1565.6
288.97 -906.48 1526.8
299.66 -927.31 1561.9
314.15 -959.21 1615.6
309.87 -933.69 1572.7
311.80 -927.31 1561.9
323.78 -950.60 1601.1
316.19 -916.55 1543.8
329.44 -920.01 1549.6
339.86 -904.99 1524.3
351.10 -924.16 1556.6
347.58 -894.34 1506.4
385.06 -918.54 1547.1
382.34 -902.65 1520.4
403.50 -897.10 1511.0
408.35 -899.15 1514.5
426.25 -903.81 1522.3
422.42 -887.48 1494.8
445.81 -903.45 1521.7
431.78 -867.35 1460.9
441.55 -879.25 1481.0
467.18 -922.27 1553.4
471.45 -922.76 1554.2
458.18 -889.18 1497.7
460.27 -885.73 1491.9
472.41 -901.51 1518.5
470.27 -854.70 1439.6
535.28 -942.91 1588.2
527.02 -921.28 1551.7
517.58 -877.98 1478.8
541.12 -911.14 1534.7
547.39 -914.97 1541.1
577.24 -937.51 1579.1
561.80 -893.41 1504.8
574.55 -895.05 1507.6
588.70 -875.40 1474.5
598.65 -884.45 1489.7
612.60 -899.27 1514.7
628.33 -916.48 1543.7
604.31 -875.87 1475.3
648.90 -911.65 1535.5
654.11 -891.62 1501.8
665.99 -902.43 1520.0
678.65 -898.33 1513.1
657.83 -865.76 1458.2
680.50 -875.48 1474.6
693.81 -887.61 1495.0
697.52 -887.40 1494.7
716.25 -872.45 1469.5
728.02 -882.10 1485.8
767.15 -896.31 1509.7
757.02 -866.78 1460.0
753.63 -858.61 1446.2
745.66 -845.33 1423.8
742.95 -838.11 1411.7
734.40 -824.40 1388.6
742.90 -817.91 1377.6
757.24 -829.70 1397.5
811.55 -872.51 1469.6
822.41 -880.05 1482.3
788.80 -840.16 1415.1
797.27 -837.50 1410.6
800.67 -837.23 1410.2
780.92 -809.19 1363.0
947.08 -818.42 1378.5
922.18 -793.91 1337.2
958.58 -819.09 1379.6
1002.87 -853.75 1438.0
976.73 -828.41 1395.3
976.84 -822.42 1385.2
955.03 -801.11 1349.3
927.35 -775.04 1305.4
1001.12 -796.03 1340.8
1021.82 -801.36 1349.8
1042.86 -815.07 1372.9
1050.84 -818.51 1378.6
1028.49 -793.01 1335.7
980.60 -751.03 1265.0
1063.33 -806.30 1358.1
1065.19 -805.05 1356.0
1078.82 -812.67 1368.8
1064.35 -781.21 1315.8
1066.65 -780.39 1314.4
1051.16 -766.61 1291.2
1030.41 -749.09 1261.7
1054.48 -764.17 1287.1
1098.84 -793.80 1337.0
1131.80 -815.04 1372.8
1117.36 -802.12 1351.0
-1428.92 -1050.00 1760.9
-1460.65 -1076.76 1805.7
-1421.09 -1057.77 1773.9
-1474.52 -1101.10 1846.6
-1420.47 -1064.19 1784.7
-1448.84 -1089.00 1826.3
-1422.32 -1079.65 1810.6
-1371.34 -1061.98 1781.0
-1291.75 -1014.00 1700.5
-1245.04 -980.68 1644.6
-1295.33 -1023.80 1716.9
-1191.38 -964.85 1618.1
-1101.47 -895.19 1501.2
-1115.83 -916.57 1537.1
-1120.87 -924.01 1549.6
-1118.49 -925.37 1551.9
-1108.23 -920.19 1543.2
-1111.61 -926.34 1553.5
-1141.06 -954.34 1600.4
-1135.43 -953.10 1598.4
-1072.67 -903.72 1515.6
-1136.56 -979.06 1641.9
-1123.22 -971.20 1628.7
-1049.11 -917.48 1538.6
-1038.58 -911.73 1529.0
-1034.11 -911.29 1528.2
-1022.68 -908.17 1523.0
-1043.12 -929.91 1559.5
-1031.63 -923.25 1548.3
-1011.12 -919.20 1541.5
-1034.51 -944.20 1583.4
-1043.58 -956.27 1603.7
-1046.25 -962.55 1614.2
-996.50 -920.46 1543.6
-964.43 -894.43 1500.0
-975.42 -908.28 1523.2
-973.82 -910.48 1526.9
-966.46 -907.29 1521.5
-996.36 -939.19 1575.0
-1026.52 -971.60 1629.4
-998.10 -948.61 1590.8
-954.34 -922.26 1546.6
-954.47 -926.28 1553.4
-955.04 -930.76 1560.9
-964.38 -943.86 1582.9
-961.62 -945.18 1585.1
-932.13 -920.13 1543.1
-877.97 -901.49 1511.8
-881.94 -909.63 1525.5
-897.68 -942.77 1581.0
-906.59 -956.49 1604.1
-909.31 -963.78 1616.3
-892.47 -950.32 1593.7
-874.43 -935.44 1568.7
-823.89 -924.36 1550.2
-830.48 -936.33 1570.2
-815.29 -937.58 1572.3
-821.20 -949.13 1591.7
-797.17 -926.01 1552.9
-788.57 -920.67 1544.0
-816.01 -957.57 1605.9
-790.88 -942.49 1580.6
-827.12 -990.82 1661.6
-832.86 -1002.92 1681.9
-785.53 -950.90 1594.7
-744.00 -905.40 1518.4
-750.37 -922.91 1547.7
-755.74 -934.52 1567.2
-750.75 -933.36 1565.3
-752.58 -940.73 1577.6
-733.60 -922.02 1546.2
-723.72 -919.65 1542.3
-730.69 -933.67 1565.8
-750.15 -963.88 1616.4
-761.64 -984.14 1650.4
-746.20 -969.64 1626.1
-735.61 -961.31 1612.1
-696.73 -931.68 1562.4
-690.71 -929.02 1558.0
-661.80 -900.67 1510.4
-689.20 -943.55 1582.3
-697.10 -960.08 1610.1
-694.47 -962.21 1613.7
-676.99 -943.68 1582.6
-665.43 -944.75 1584.4
-683.05 -975.79 1636.4
-696.74 -1001.56 1679.6
-679.04 -988.47 1657.7
-634.95 -930.18 1559.9
-612.09 -920.13 1543.1
-617.16 -933.86 1566.1
-618.61 -942.25 1580.2
-622.21 -954.06 1600.0
-624.46 -963.93 1616.5
-619.74 -963.11 1615.2
-616.89 -965.21 1618.7
-613.72 -966.82 1621.4
-605.61 -960.62 1611.0
-584.12 -932.96 1564.6
-600.00 -985.72 1653.1
-588.09 -994.56 1667.9
-572.61 -975.55 1636.0
-562.99 -966.33 1620.6
-546.39 -966.70 1621.2
-525.12 -936.26 1570.1
-507.65 -912.18 1529.7
-505.61 -915.67 1535.6
-525.69 -959.60 1609.3
-536.84 -987.78 1656.5
-497.45 -922.69 1547.4
-489.10 -929.70 1559.1
-490.26 -947.56 1589.1
-515.12 -1004.06 1683.8
-506.75 -996.18 1670.6
-498.19 -987.79 1656.5
-497.39 -994.77 1668.3
-475.12 -958.57 1607.5
-453.14 -922.32 1546.8
-448.64 -921.31 1545.1
-435.56 -945.08 1584.9
-435.76 -954.52 1600.7
-421.73 -960.37 1610.6
-439.92 -1011.82 1696.8
-438.74 -1019.30 1709.4
-410.85 -964.23 1617.0
-400.89 -970.57 1627.7
-392.76 -981.89 1646.7
-374.95 -947.69 1589.3
-386.71 -988.27 1657.3
-383.55 -991.20 1662.3
-346.45 -926.55 1553.8
-343.86 -930.45 1560.4
-342.90 -938.89 1574.5
-349.67 -968.98 1625.0
-339.67 -952.73 1597.8
-328.14 -955.35 1602.1
-323.60 -954.20 1600.2
-303.85 -919.56 1542.1
-318.74 -977.48 1639.3
-304.58 -972.96 1631.7
-271.45 -960.52 1610.8
-268.91 -966.40 1620.7
-263.96 -963.66 1616.1
-256.02 -949.75 1592.7
-251.43 -948.00 1589.8
-244.07 -935.59 1569.0
-236.29 -921.13 1544.8
-239.14 -948.32 1590.3
-241.51 -974.49 1634.2
-234.74 -964.09 1616.8
-228.42 -955.20 1601.9
-210.38 -930.51 1560.5
-207.06 -933.80 1566.0
-186.98 -934.91 1567.9
-177.86 -951.33 1595.4
-176.36 -965.81 1619.7
-175.56 -984.87 1651.7
-172.38 -991.19 1662.2
-165.08 -973.53 1632.6
-152.84 -1004.36 1684.3
-146.00 -987.68 1656.4
-134.11 -934.72 1567.5
-131.56 -945.60 1585.8
-133.12 -987.64 1656.3
-129.38 -991.88 1663.4
-120.12 -952.67 1597.6
-112.14 -921.11 1544.7
-100.94 -928.64 1557.3
-101.50 -972.73 1631.3
-95.44 -954.43 1600.6
-91.40 -955.56 1602.5
-84.97 -930.59 1560.6
-76.21 -922.59 1547.2
-78.06 -997.39 1672.6
-71.95 -973.42 1632.4
-48.00 -920.01 1542.9
-45.37 -948.74 1591.1
-41.36 -951.35 1595.4
-36.79 -940.13 1576.6
-32.95 -947.34 1588.7
-29.33 -963.76 1616.2
-24.82 -951.50 1595.7
-20.73 -953.57 1599.2
-16.84 -968.45 1624.1
-4.07 -935.70 1569.2
0.00 -966.95 1621.6
4.22 -970.53 1627.6
8.31 -955.67 1602.7
20.64 -949.48 1592.3
24.67 -945.87 1586.2
27.88 -916.13 1536.4
50.08 -959.95 1609.9
60.14 -987.98 1656.9
64.03 -981.77 1646.4
67.54 -970.94 1628.3
70.55 -954.49 1600.7
74.01 -945.70 1586.0
78.07 -945.10 1585.0
82.40 -947.57 1589.1
87.02 -953.10 1598.4
92.09 -962.72 1614.5
94.32 -943.18 1581.7
100.44 -924.03 1549.6
106.06 -938.23 1573.4
116.12 -920.98 1544.5
123.84 -949.47 1592.3
126.99 -942.17 1580.0
129.07 -927.72 1555.8
134.63 -938.30 1573.5
143.36 -969.81 1626.4
160.12 -969.12 1625.2
162.39 -957.71 1606.1
167.24 -961.60 1612.6
168.20 -943.56 1582.4
173.11 -947.96 1589.7
180.91 -967.64 1622.8
180.00 -940.93 1578.0
177.97 -909.64 1525.5
182.09 -910.46 1526.9
190.69 -933.17 1564.9
198.74 -952.31 1597.0
201.64 -946.48 1587.3
220.50 -939.18 1575.0
227.93 -953.17 1598.5
244.43 -921.61 1545.6
259.30 -961.92 1613.2
258.26 -942.86 1581.2
263.00 -930.62 1560.7
275.69 -960.73 1611.2
275.35 -945.22 1585.2
270.08 -913.51 1532.0
287.65 -931.82 1562.7
291.91 -932.50 1563.8
297.86 -925.78 1552.6
317.10 -972.43 1630.8
317.54 -960.97 1611.6
313.15 -935.37 1568.6
317.95 -937.55 1572.3
326.74 -916.46 1536.9
339.13 -939.76 1576.0
347.13 -950.46 1593.9
355.39 -961.65 1612.7
358.51 -947.79 1589.5
382.98 -908.11 1522.9
391.23 -918.20 1539.8
401.72 -897.05 1504.4
414.90 -917.57 1538.8
414.81 -908.64 1523.8
429.53 -914.75 1534.0
427.16 -901.34 1511.6
432.52 -904.36 1516.6
437.19 -905.88 1519.2
447.91 -919.82 1542.6
469.49 -955.60 1602.6
452.24 -904.47 1516.8
445.17 -882.66 1480.2
465.91 -915.89 1536.0
469.13 -914.40 1533.5
464.90 -898.55 1506.9
470.10 -901.02 1511.0
479.21 -910.90 1527.6
542.29 -917.11 1538.0
537.19 -901.85 1512.4
564.66 -921.08 1544.7
548.71 -888.75 1490.5
556.76 -883.13 1481.0
566.20 -874.00 1465.7
596.23 -914.23 1533.2
586.62 -870.46 1459.8
607.72 -895.99 1502.6
631.32 -924.86 1551.0
614.99 -895.23 1501.3
624.71 -881.49 1478.3
664.90 -889.11 1491.1
696.67 -926.21 1553.3
674.16 -891.13 1494.4
667.72 -877.58 1471.7
677.96 -885.97 1485.8
660.76 -858.62 1439.9
665.10 -859.39 1441.2
702.41 -892.57 1496.9
728.28 -920.36 1543.5
712.85 -895.93 1502.5
732.11 -915.14 1534.7
748.08 -930.05 1559.7
722.07 -892.88 1497.4
718.62 -856.38 1436.2
736.07 -833.97 1398.6
748.18 -843.53 1414.6
746.41 -825.36 1384.1
761.17 -837.66 1404.8
793.66 -857.00 1437.2
790.67 -849.79 1425.1
770.36 -824.11 1382.0
814.40 -855.30 1434.4
818.72 -855.93 1435.4
839.82 -874.02 1465.7
831.79 -861.77 1445.2
772.09 -796.33 1335.5
938.64 -827.15 1387.2
949.33 -823.95 1381.8
990.21 -856.19 1435.9
955.65 -823.22 1380.6
961.88 -825.49 1384.4
985.08 -842.26 1412.5
979.92 -796.40 1335.6
995.22 -805.99 1351.7
1018.08 -821.61 1377.9
1025.46 -824.67 1383.0
1010.77 -810.03 1358.4
994.91 -794.55 1332.5
994.65 -791.59 1327.5
1009.25 -792.24 1328.6
1031.38 -806.86 1353.1
1038.77 -809.89 1358.2
1056.64 -821.03 1376.9
1061.33 -821.90 1378.3
1005.63 -763.35 1280.2
1016.88 -769.35 1290.2
1046.70 -789.31 1323.7
1064.46 -794.89 1333.0
1057.74 -787.31 1320.3
1068.06 -789.88 1324.7
1105.75 -815.14 1367.0
1081.27 -794.54 1332.5
1038.32 -760.55 1275.5
1048.58 -765.63 1284.0
1108.35 -806.71 1352.9
1091.09 -791.64 1327.6
1061.59 -767.82 1287.6
1087.56 -784.13 1315.0
-1495.35 -1089.67 1819.5
-1521.17 -1115.52 1862.7
-1425.73 -1048.87 1751.4
-1471.49 -1089.47 1819.2
-1485.37 -1103.28 1842.2
-1407.52 -1052.23 1757.0
-1420.81 -1065.61 1779.3
-1412.39 -1080.34 1803.9
-1336.29 -1025.52 1712.4
-1382.46 -1082.54 1807.6
-1287.98 -1015.44 1695.5
-1209.04 -973.13 1624.9
-1236.10 -998.39 1667.1
-1243.72 -1008.07 1683.2
-1203.76 -979.11 1634.9
-1104.34 -911.08 1521.3
-1122.06 -929.01 1551.2
-1126.51 -936.06 1563.0
-1122.53 -936.11 1563.1
-1105.98 -925.66 1545.6
-1117.68 -938.85 1567.7
-1135.01 -956.89 1597.8
-1092.54 -924.46 1543.6
-1062.69 -902.51 1507.0
-1076.35 -917.48 1532.0
-1084.76 -928.07 1549.7
-1105.42 -949.26 1585.0
-1118.26 -963.87 1609.4
-1130.50 -978.07 1633.1
-1133.47 -984.33 1643.6
-1070.39 -933.06 1558.0
-1029.21 -910.91 1521.0
-1025.76 -911.35 1521.7
-1021.30 -910.89 1521.0
-1037.75 -929.15 1551.4
-1001.91 -914.79 1527.5
-1038.50 -951.96 1589.5
-1058.76 -974.40 1627.0
-1040.96 -961.85 1606.1
-951.93 -890.27 1486.5
-984.97 -924.91 1544.4
-1012.51 -954.65 1594.0
-942.06 -891.87 1489.2
-938.98 -911.37 1521.8
-918.18 -894.93 1494.3
-937.77 -937.77 1565.8
-960.51 -964.69 1610.8
-923.61 -931.68 1555.7
-878.80 -890.36 1486.7
-917.89 -942.37 1573.5
-898.16 -938.80 1567.6
-914.66 -960.39 1603.6
-920.50 -970.93 1621.2
-918.40 -973.17 1625.0
-908.03 -966.62 1614.0
-893.81 -955.88 1596.1
-879.23 -944.66 1577.3
-861.28 -929.70 1552.4
-863.08 -967.83 1616.0
-859.62 -968.64 1617.4
-845.40 -957.29 1598.4
-813.97 -926.25 1546.6
-809.82 -926.08 1546.3
-822.81 -945.61 1578.9
-821.02 -948.27 1583.4
-810.70 -941.07 1571.4
-800.44 -933.85 1559.3
-803.07 -941.67 1572.4
-820.83 -967.40 1615.3
-766.05 -916.88 1531.0
-766.23 -921.87 1539.3
-740.12 -924.15 1543.1
-752.98 -945.32 1578.5
-743.82 -938.92 1567.8
-722.91 -927.74 1549.1
-751.63 -969.98 1619.6
-752.42 -976.45 1630.4
-727.88 -949.95 1586.2
-725.77 -952.58 1590.6
-694.90 -927.87 1549.3
-692.11 -929.52 1552.1
-674.02 -910.52 1520.3
-679.41 -934.19 1559.9
-684.91 -947.39 1581.9
-698.97 -972.66 1624.1
-698.36 -977.70 1632.5
-649.84 -926.63 1547.2
-660.11 -947.11 1581.5
-648.09 -935.68 1562.4
-625.15 -908.24 1516.5
-666.41 -974.31 1626.9
-685.40 -1008.46 1683.9
-663.48 -982.46 1640.5
-662.61 -987.51 1648.9
-639.67 -959.50 1602.1
-623.06 -940.70 1570.7
-631.90 -960.32 1603.5
-636.12 -973.14 1624.9
-630.44 -970.87 1621.1
-624.13 -967.62 1615.7
-616.60 -962.40 1607.0
-628.53 -994.45 1660.5
-608.83 -976.66 1630.8
-573.16 -925.88 1546.0
-585.39 -979.90 1636.2
-580.06 -978.05 1633.1
-577.05 -980.13 1636.6
-576.61 -986.64 1647.5
-556.98 -960.16 1603.2
-556.10 -988.14 1650.0
-549.11 -983.29 1641.9
-533.67 -963.11 1608.2
-533.89 -971.09 1621.5
-524.60 -961.76 1605.9
-508.68 -940.04 1569.6
-500.91 -933.15 1558.1
-492.40 -924.76 1544.1
-486.84 -921.81 1539.2
-484.88 -941.23 1571.6
-505.18 -988.96 1651.3
-493.11 -973.58 1625.7
-479.95 -981.15 1638.3
-464.60 -958.23 1600.0
-453.02 -942.76 1574.2
-413.38 -945.45 1578.7
-431.19 -996.06 1663.2
-429.02 -1001.04 1671.5
-411.46 -969.88 1619.5
-387.00 -951.02 1588.0
