ply
format ascii 1.0
element vertex 2205
property float x
property float y
property float z
end_header
-607.94 368.86 2634.7
-608.71 373.53 2668.1
-609.54 378.34 2702.4
-605.45 380.17 2715.5
-587.43 373.19 2665.6
-570.92 367.02 2621.6
-569.63 370.60 2647.2
-562.85 370.66 2647.6
-552.81 368.54 2632.5
-546.07 368.59 2632.8
-538.12 367.83 2627.4
-524.16 377.40 2695.7
-508.09 381.06 2721.9
-491.39 373.74 2669.5
-495.48 382.23 2730.2
-480.77 376.25 2687.5
-465.58 369.73 2640.9
-425.72 370.79 2648.5
-418.63 383.15 2736.8
-403.43 382.20 2730.0
-387.68 373.83 2670.2
-650.31 355.32 2585.9
-640.88 353.82 2575.0
-633.63 353.50 2572.6
-624.28 351.99 2561.6
-620.32 353.52 2572.8
-613.32 353.32 2571.4
-610.41 355.51 2587.3
-618.91 364.47 2652.5
-626.42 373.03 2714.8
-605.17 364.48 2652.5
-583.58 355.51 2587.3
-589.48 363.28 2643.8
-580.80 362.15 2635.6
-559.93 353.29 2571.1
-554.60 354.14 2577.3
-544.70 352.06 2562.2
-535.79 354.96 2583.3
-538.10 361.01 2627.3
-534.50 363.19 2643.1
-521.31 363.54 2645.7
-494.25 368.95 2685.1
-488.40 369.78 2691.2
-468.59 370.67 2697.6
-455.15 376.92 2743.1
-434.64 365.65 2661.1
-417.13 381.17 2774.0
-403.33 381.72 2778.0
-680.27 360.96 2677.4
-649.55 348.21 2582.9
-655.46 355.04 2633.5
-655.18 358.63 2660.1
-652.42 360.91 2677.1
-633.08 353.98 2625.7
-611.22 345.47 2562.6
-613.34 350.48 2599.7
-627.90 362.79 2691.0
-624.17 364.68 2705.1
-592.58 350.16 2597.3
-576.29 348.46 2584.7
-588.89 360.26 2672.3
-570.43 357.38 2650.9
-548.80 348.02 2581.5
-533.42 342.44 2540.1
-533.35 346.67 2571.5
-540.07 355.49 2636.9
-539.99 359.99 2670.3
-519.57 355.49 2636.9
-466.08 351.25 2605.4
-474.34 368.15 2730.8
-459.61 362.11 2686.0
-460.74 368.59 2734.1
-444.53 366.92 2721.6
-428.37 359.28 2665.0
-418.53 356.78 2646.5
-411.22 356.39 2643.6
-402.43 354.68 2630.9
-403.71 361.95 2684.8
-410.23 374.25 2776.0
-392.63 371.21 2753.5
-701.18 350.59 2651.5
-694.75 350.81 2653.2
-679.86 350.23 2648.8
-661.19 344.09 2602.4
-663.55 348.88 2638.6
-667.88 354.81 2683.5
-667.01 358.08 2708.2
-631.42 346.26 2618.8
-625.91 346.97 2624.2
-613.45 351.53 2658.6
-609.32 353.13 2670.7
-598.28 354.79 2683.3
-591.21 354.73 2682.8
-566.86 348.31 2634.3
-551.04 342.72 2592.0
-541.14 340.72 2576.8
-517.39 342.69 2591.7
-507.66 349.88 2646.1
-491.26 343.21 2595.7
-460.43 355.78 2690.8
-456.44 358.13 2708.6
-430.24 353.91 2676.6
-417.90 349.39 2642.4
-419.28 356.39 2695.4
-420.25 363.27 2747.4
-412.25 362.50 2741.6
-408.34 365.36 2763.2
-397.90 362.38 2740.7
-371.32 364.18 2754.3
-705.21 345.69 2666.8
-669.07 331.23 2555.2
-653.19 329.89 2544.9
-655.54 334.46 2580.1
-663.28 341.89 2637.5
-650.85 342.55 2642.6
-623.00 331.38 2556.4
-622.55 334.70 2582.0
-641.07 348.41 2687.7
-623.90 350.51 2703.9
-597.17 347.19 2678.4
-589.27 346.63 2674.0
-585.39 348.45 2688.0
-553.47 333.42 2572.1
-501.43 325.61 2511.8
-509.16 334.98 2584.1
-506.36 346.82 2675.5
-496.02 344.46 2657.2
-488.63 344.11 2654.6
-482.86 344.90 2660.6
-462.72 335.30 2586.6
-459.31 337.73 2605.4
-467.19 348.65 2689.6
-457.73 346.77 2675.1
-453.79 349.07 2692.8
-432.12 348.48 2688.3
-413.23 338.71 2612.9
-406.92 339.10 2615.9
-407.19 345.08 2662.0
-398.97 343.94 2653.2
-402.67 353.22 2724.9
-399.89 357.04 2754.3
-386.31 351.19 2709.2
-695.50 330.87 2604.5
-678.27 325.84 2564.9
-668.69 330.97 2605.3
-666.49 333.25 2623.2
-671.23 339.07 2669.1
-648.88 331.20 2607.1
-628.33 331.05 2606.0
-623.54 332.10 2614.2
-608.91 327.88 2581.0
-606.17 330.03 2597.9
-610.93 336.35 2647.7
-602.42 335.44 2640.5
-576.25 324.55 2554.8
-562.97 324.54 2554.7
-579.24 337.89 2659.8
-567.22 334.86 2635.9
-547.26 327.02 2574.2
-551.27 333.48 2625.1
-540.71 331.19 2607.0
-530.04 328.76 2587.9
-524.77 329.66 2595.0
-508.59 323.65 2547.6
-491.91 325.72 2564.0
-504.13 338.39 2663.7
-483.25 328.88 2588.8
-465.26 321.09 2527.6
-479.64 335.75 2642.9
-479.64 340.61 2681.2
-459.29 330.96 2605.2
-451.37 330.11 2598.5
-464.57 344.91 2715.0
-443.37 344.84 2714.5
-431.47 341.00 2684.2
-415.84 334.04 2629.4
-401.56 327.94 2581.5
-391.72 330.93 2605.0
-401.93 345.52 2719.8
-382.77 353.88 2785.6
-700.58 326.48 2623.5
-700.56 329.68 2649.2
-677.53 321.99 2587.5
-676.22 324.59 2608.3
-686.16 332.69 2673.4
-679.41 332.77 2674.0
-673.12 333.09 2676.6
-639.97 319.98 2571.3
-622.47 321.27 2581.7
-610.14 318.33 2558.0
-572.48 319.53 2567.6
-563.42 325.84 2618.3
-551.96 331.18 2661.3
-531.80 323.12 2596.5
-516.67 317.95 2555.0
-512.24 319.32 2566.0
-500.85 316.32 2541.9
-490.75 318.33 2558.0
-511.30 336.19 2701.6
-498.88 332.59 2672.6
-459.23 314.90 2530.5
-470.53 327.32 2630.3
-461.84 326.01 2619.7
-459.84 329.43 2647.2
-448.41 336.31 2702.5
-431.19 328.52 2639.9
-427.19 330.73 2657.6
-413.34 325.25 2613.6
-401.07 320.86 2578.3
-399.04 324.65 2608.8
-405.27 335.40 2695.1
-400.90 337.60 2712.8
-390.01 334.30 2686.3
-391.17 341.39 2743.3
-388.46 345.30 2774.7
-376.40 340.89 2739.3
-376.32 347.38 2791.4
-697.19 318.14 2610.9
-701.53 323.25 2652.8
-681.75 317.25 2603.6
-667.45 313.70 2574.4
-665.38 315.89 2592.4
-647.57 310.57 2548.7
-646.16 316.35 2596.2
-645.27 319.24 2619.9
-619.81 309.90 2543.3
-608.92 307.73 2525.5
-605.02 309.09 2536.6
-585.55 316.33 2596.0
-592.97 324.06 2659.5
-565.88 312.90 2567.8
-556.98 311.64 2557.6
-576.34 326.36 2678.3
-565.15 323.93 2658.4
-538.34 312.37 2563.5
-534.18 313.83 2575.5
-527.38 313.75 2574.9
-510.40 315.64 2590.4
-513.79 321.97 2642.3
-511.48 324.86 2666.0
-494.48 327.33 2686.3
-469.65 315.34 2587.9
-460.00 313.34 2571.5
-455.78 315.02 2585.3
-457.43 320.88 2633.4
-460.67 328.05 2692.2
-447.28 323.42 2654.2
-428.88 314.96 2584.8
-421.72 314.61 2581.9
-422.12 320.00 2626.1
-413.62 318.69 2615.4
-394.51 314.27 2579.1
-396.39 321.21 2636.1
-388.25 320.13 2627.2
-393.70 330.43 2711.7
-716.90 317.09 2658.9
-688.68 307.57 2579.0
-698.43 314.98 2641.1
-686.73 312.77 2622.6
-680.11 312.85 2623.3
-656.44 305.01 2557.5
-637.62 308.74 2588.8
-625.40 306.05 2566.2
-620.74 307.03 2574.5
-622.95 311.47 2611.7
-616.07 311.42 2611.3
-606.72 310.10 2600.2
-590.26 305.08 2558.1
-584.40 305.48 2561.5
-572.83 302.88 2539.6
-559.26 306.26 2568.0
-569.61 315.69 2647.1
-549.41 308.21 2584.3
-526.07 302.49 2536.4
-526.73 306.71 2571.8
-514.22 303.26 2542.9
-504.96 301.67 2529.5
-514.40 311.34 2610.7
-523.04 320.80 2689.9
-512.53 322.96 2708.1
-488.43 312.05 2616.6
-482.40 312.54 2620.7
-477.07 313.50 2628.7
-461.02 307.34 2577.1
-450.57 304.80 2555.7
-448.73 308.08 2583.3
-448.58 312.65 2621.6
-437.35 309.51 2595.3
-423.28 309.06 2591.5
-435.02 322.75 2706.3
-417.00 314.46 2636.8
-391.70 316.11 2650.6
-386.91 329.59 2763.7
-723.63 307.20 2633.2
-698.76 311.33 2668.5
-691.77 311.30 2668.3
-667.00 303.18 2598.7
-636.87 295.46 2532.5
-634.05 297.21 2547.5
-627.82 297.39 2549.0
-631.46 302.29 2591.1
-642.11 310.70 2663.1
-626.97 310.04 2657.5
-617.95 308.98 2648.4
-600.71 303.73 2603.4
-598.93 306.27 2625.2
-590.70 305.54 2618.9
-566.29 296.31 2539.8
-562.36 297.72 2551.9
-556.67 298.22 2556.1
-547.41 296.79 2543.9
-543.78 298.42 2557.9
-538.25 299.03 2563.1
-543.78 305.88 2621.8
-551.21 313.98 2691.2
-535.44 308.91 2647.8
-522.42 305.31 2617.0
-493.28 304.08 2606.4
-467.26 296.15 2538.4
-474.72 305.18 2615.8
-471.82 307.71 2637.5
-459.84 304.31 2608.4
-455.83 306.15 2624.2
-449.22 306.28 2625.3
-431.70 298.87 2561.7
-423.29 297.62 2551.1
-436.86 312.04 2674.7
-417.12 307.71 2637.5
-396.33 307.50 2635.7
-383.26 313.57 2687.8
-722.22 305.55 2678.6
-700.21 305.04 2674.1
-692.96 304.90 2672.8
-676.82 300.81 2637.0
-657.18 295.06 2586.6
-656.93 297.99 2612.2
-655.59 300.48 2634.1
-641.30 297.02 2603.8
-638.69 298.96 2620.8
-640.89 303.22 2658.1
-629.06 300.86 2637.4
-614.14 296.95 2603.1
-602.99 294.80 2584.3
-585.01 289.22 2535.4
-581.63 290.82 2549.4
-575.23 301.31 2641.3
-558.64 296.15 2596.1
-548.28 294.20 2579.0
-537.99 292.24 2561.9
-539.09 296.50 2599.2
-541.11 305.24 2675.8
-528.21 301.84 2646.0
-499.57 297.04 2603.9
-490.83 295.84 2593.4
-490.72 299.88 2628.8
-482.68 299.13 2622.2
-444.32 296.21 2596.7
-431.50 292.09 2560.5
-427.31 293.78 2575.3
-423.69 295.91 2594.0
-412.56 292.78 2566.6
-413.83 298.50 2616.7
-418.66 307.02 2691.4
-406.28 302.99 2656.1
-401.91 304.90 2672.8
-394.62 310.06 2718.1
-386.31 309.05 2709.2
-742.86 298.53 2677.9
-736.14 298.62 2678.7
-723.41 296.25 2657.4
-729.15 301.47 2704.2
-728.75 304.24 2729.0
-720.36 303.68 2724.0
-707.70 301.30 2702.7
-701.63 301.70 2706.3
-687.14 298.45 2677.2
-658.34 288.86 2591.1
-648.38 287.42 2578.2
-645.68 289.21 2594.3
-631.02 285.62 2562.0
-630.63 288.48 2587.7
-635.70 293.93 2636.6
-615.86 287.85 2582.0
-593.99 280.68 2517.7
-595.25 284.40 2551.1
-589.42 284.77 2554.5
-586.66 289.96 2600.9
-588.98 297.96 2672.7
-575.81 294.76 2644.0
-569.26 294.92 2645.4
-555.87 291.49 2614.7
-541.61 287.52 2579.1
-540.25 290.38 2604.8
-550.12 299.43 2685.9
-542.84 299.26 2684.4
-532.84 297.56 2669.1
-521.78 299.15 2683.4
-498.58 289.72 2598.8
-497.62 293.12 2629.3
-494.68 295.44 2650.1
-484.44 293.39 2631.7
-469.31 288.29 2586.0
-457.91 285.37 2559.8
-452.82 295.02 2646.4
-443.01 293.07 2628.9
-435.89 292.86 2627.0
-429.42 293.09 2629.1
-422.46 292.99 2628.2
-428.39 301.98 2708.8
-414.66 302.21 2710.9
-395.23 293.01 2628.3
-386.09 291.26 2612.6
-391.45 300.58 2696.2
-363.24 306.26 2747.2
-726.73 290.69 2669.6
-710.70 287.01 2635.8
-716.12 292.01 2681.7
-713.18 293.66 2696.9
-691.51 287.56 2640.9
-676.86 284.28 2610.7
-691.52 293.37 2694.2
-649.03 281.03 2580.8
-623.57 275.69 2531.8
-640.22 286.05 2627.0
-640.30 289.17 2655.6
-615.33 280.91 2579.8
-590.69 278.75 2560.0
-597.88 285.35 2620.6
-582.88 281.39 2584.2
-570.65 278.69 2559.4
-569.67 281.48 2585.1
-569.83 284.91 2616.6
-567.53 287.18 2637.4
-557.88 285.74 2624.2
-541.76 280.91 2579.8
-538.58 282.75 2596.7
-511.83 290.50 2667.9
-493.51 283.93 2607.6
-471.25 278.77 2560.1
-464.11 278.47 2557.4
-448.89 281.40 2584.3
-447.25 284.61 2613.8
-450.74 291.24 2674.7
-431.09 292.03 2681.9
-423.22 291.40 2676.1
-410.79 287.56 2640.8
-411.02 292.59 2687.0
-409.38 296.45 2722.5
-393.46 289.92 2662.5
-391.99 293.99 2699.9
-379.79 290.02 2663.5
-738.59 291.17 2739.3
-737.86 293.71 2763.1
-709.33 287.95 2708.9
-690.77 283.21 2664.4
-650.90 275.12 2588.3
-635.63 274.32 2580.8
-628.14 273.97 2577.5
-609.26 271.52 2554.3
-603.90 272.09 2559.7
-595.12 271.11 2550.5
-616.79 284.14 2673.1
-602.94 284.15 2673.2
-584.87 278.83 2623.2
-577.95 278.78 2622.6
-567.65 277.07 2606.6
-555.12 274.22 2579.7
-561.34 280.67 2640.4
-561.12 284.02 2672.0
-532.66 272.99 2568.2
-520.88 270.33 2543.2
-534.26 280.83 2641.9
-519.53 280.27 2636.7
-492.48 272.86 2567.0
-498.63 280.05 2634.6
-482.54 274.78 2585.0
-484.88 280.00 2634.1
-463.24 275.26 2589.5
-435.98 275.00 2587.1
-437.59 280.33 2637.3
-420.67 273.77 2575.6
-414.32 273.99 2577.6
-413.55 277.96 2614.9
-402.39 284.45 2676.0
-391.23 286.44 2694.7
-760.46 284.28 2741.3
-744.73 286.44 2762.1
-731.88 284.23 2740.8
-716.08 280.82 2707.9
-714.55 282.99 2728.8
-676.00 275.92 2660.6
-653.01 269.28 2596.6
-650.03 270.85 2611.7
-654.83 275.72 2658.7
-643.37 273.78 2640.0
-610.55 262.60 2532.2
-606.87 263.86 2544.4
-616.85 271.14 2614.6
-623.98 277.32 2674.2
-613.15 275.57 2657.3
-586.01 266.37 2568.6
-582.96 268.03 2584.5
-579.82 269.68 2600.5
-580.67 273.26 2635.0
-579.02 275.72 2658.7
-550.66 265.38 2559.0
-540.79 263.80 2543.8
-555.13 274.14 2643.5
-540.27 270.14 2604.9
-527.00 266.84 2573.1
-539.92 276.88 2669.9
-524.88 272.67 2629.3
-493.58 270.46 2608.0
-486.13 270.07 2604.3
-455.46 267.92 2583.5
-439.93 266.63 2571.0
-434.94 267.65 2581.0
-419.02 266.04 2565.4
-425.80 274.71 2649.0
-422.83 277.26 2673.6
-400.77 267.18 2576.4
-397.02 273.81 2640.3
-397.05 283.61 2734.8
-379.29 275.85 2660.0
-744.15 271.23 2682.5
-755.88 278.11 2750.5
-741.66 275.47 2724.5
-712.27 267.10 2641.7
-684.98 264.50 2615.9
-687.11 267.97 2650.3
-676.95 266.68 2637.5
-668.08 265.87 2629.5
-664.58 267.20 2642.6
-659.08 267.75 2648.1
-662.61 272.02 2690.3
-647.09 271.36 2683.8
-621.11 263.30 2604.0
-611.06 261.88 2590.0
-602.65 261.15 2582.8
-570.22 258.59 2557.5
-584.67 268.26 2653.1
-571.96 265.55 2626.4
-534.55 260.59 2577.3
-538.52 265.85 2629.3
-541.43 270.72 2677.4
-515.86 261.28 2584.1
-494.40 257.09 2542.7
-501.73 264.43 2615.2
-505.18 269.89 2669.2
-486.44 263.49 2605.9
-485.13 266.48 2635.5
-469.06 269.02 2660.6
-459.80 267.65 2647.1
-456.66 269.85 2668.8
-447.78 268.67 2657.2
-434.24 264.61 2617.1
-430.03 266.21 2632.9
-432.07 271.78 2688.0
-424.02 271.10 2681.2
-405.76 263.75 2608.5
-394.94 261.06 2582.0
-394.61 265.34 2624.3
-393.19 269.02 2660.7
-398.16 277.29 2742.4
-381.73 275.69 2726.6
-364.28 278.57 2755.1
-736.08 261.41 2653.4
-725.36 262.51 2664.6
-713.73 260.79 2647.1
-701.41 261.31 2652.4
-682.37 256.73 2605.9
-679.59 260.85 2647.8
-663.77 260.03 2639.4
-640.39 256.16 2600.1
-647.46 261.74 2656.7
-635.58 259.70 2636.1
-616.41 254.60 2584.3
-612.81 255.90 2597.5
-610.94 257.95 2618.3
-613.22 261.83 2657.6
-598.80 261.54 2654.8
-588.34 259.96 2638.7
-585.46 261.73 2656.7
-555.16 251.14 2549.2
-542.72 251.50 2552.9
-548.45 257.30 2611.7
-547.41 260.02 2639.3
-538.85 259.19 2630.9
-528.94 257.69 2615.6
-501.29 257.42 2612.9
-464.68 259.67 2635.8
-458.22 259.88 2637.9
-457.11 263.18 2671.4
-450.54 263.39 2673.5
-438.91 260.60 2645.2
-425.17 256.45 2603.1
-417.17 255.68 2595.3
-420.24 261.79 2657.3
-412.44 261.21 2651.4
-397.75 256.18 2600.3
-393.38 257.73 2616.1
-390.23 260.16 2640.7
-392.39 266.27 2702.7
-384.72 270.73 2748.0
-375.29 269.08 2731.2
-372.33 272.08 2761.8
-767.66 265.45 2767.3
-732.75 255.77 2666.3
-726.84 256.12 2670.0
-724.79 257.86 2688.1
-718.79 258.21 2691.7
-717.36 260.22 2712.7
-696.15 255.02 2658.6
-688.19 254.63 2654.4
-668.78 255.10 2659.4
-642.44 250.22 2608.4
-648.79 255.37 2662.2
-635.96 253.02 2637.6
-617.02 248.15 2586.9
-614.09 249.69 2602.9
-615.61 253.08 2638.3
-621.65 258.44 2694.2
-600.61 258.40 2693.8
-591.81 257.61 2685.5
-563.55 248.23 2587.7
-555.06 250.46 2610.9
-562.08 256.75 2676.6
-553.21 255.86 2667.2
-536.58 251.31 2619.8
-521.37 247.32 2578.2
-457.53 248.95 2595.2
-453.90 250.66 2613.1
-453.70 254.34 2651.5
-447.84 254.92 2657.5
-438.85 253.71 2644.9
-427.52 251.08 2617.5
-418.85 249.96 2605.7
-421.90 255.91 2667.7
-418.51 258.08 2690.4
-407.33 255.45 2662.9
-403.39 257.34 2682.7
-400.66 260.08 2711.2
-378.19 249.87 2604.9
-376.06 262.53 2736.8
-368.43 262.15 2732.8
-744.53 255.27 2735.0
-716.91 248.16 2658.9
-712.53 249.04 2668.3
-714.21 252.08 2700.8
-705.39 251.43 2693.8
-709.84 255.54 2738.0
-674.68 247.84 2655.4
-655.82 243.40 2607.8
-649.45 243.54 2609.4
-649.26 246.04 2636.1
-650.12 248.98 2667.7
-648.95 251.21 2691.5
-642.12 251.26 2692.1
-604.17 239.01 2560.9
-579.80 239.92 2570.5
-591.87 247.76 2654.6
-563.55 244.43 2618.9
-554.78 243.56 2609.6
-561.40 249.51 2673.3
-552.12 248.45 2662.0
-544.90 248.31 2660.4
-538.86 248.71 2664.7
-519.16 242.72 2600.6
-510.16 241.66 2589.2
-513.58 246.52 2641.3
-503.41 244.90 2623.9
-459.71 243.38 2607.6
-462.18 248.34 2660.8
-446.94 251.40 2693.6
-435.65 248.94 2667.2
-427.64 248.31 2660.4
-422.31 249.23 2670.3
-410.35 246.21 2637.9
-400.05 244.10 2615.3
-397.71 246.86 2644.9
-375.34 254.95 2731.6
-736.06 245.35 2703.9
-742.23 249.79 2752.8
-701.76 243.18 2680.0
-690.50 241.67 2663.4
-672.13 237.62 2618.7
-655.21 234.00 2578.8
-649.89 234.50 2584.2
-651.52 237.53 2617.7
-659.65 243.03 2678.3
-648.61 241.50 2661.5
-636.49 239.54 2639.8
-642.49 244.43 2693.7
-618.72 237.97 2622.5
-574.45 231.10 2546.8
-585.50 238.28 2626.0
-565.78 238.58 2629.3
-564.43 240.92 2655.0
-549.42 243.41 2682.5
-542.14 243.27 2680.9
-521.42 237.01 2611.9
-520.29 239.61 2640.6
-518.91 245.43 2704.8
-487.14 233.56 2573.9
-465.01 239.34 2637.7
-469.79 245.41 2704.6
-450.79 246.53 2716.8
-438.64 243.69 2685.5
-432.95 244.41 2693.5
-429.88 246.65 2718.2
-411.05 239.78 2642.5
-393.97 233.71 2575.6
-398.84 240.68 2652.4
-380.31 251.15 2767.7
-371.00 249.71 2751.9
-361.50 248.09 2734.1
-748.81 240.19 2724.8
-742.23 240.34 2726.6
-708.15 240.77 2731.4
-683.67 234.80 2663.7
-661.73 229.58 2604.5
-664.37 232.87 2641.8
-673.32 238.47 2705.3
-660.75 236.48 2682.7
-630.12 227.91 2585.6
-624.01 228.13 2588.1
-636.62 235.27 2669.1
-623.20 232.84 2641.5
-583.29 225.36 2556.6
-596.93 233.28 2646.5
-595.60 235.47 2671.3
-586.42 234.57 2661.1
-561.39 227.23 2577.8
-551.86 226.06 2564.6
-570.15 236.40 2681.9
-531.95 228.94 2597.2
-525.99 235.31 2669.5
-506.08 232.52 2637.8
-496.14 231.08 2621.5
-495.42 233.95 2654.0
-486.06 232.76 2640.6
-482.28 234.25 2657.5
-471.22 232.19 2634.1
-458.98 232.92 2642.3
-462.91 238.47 2705.3
-454.11 237.53 2694.7
-442.09 234.86 2664.4
-430.86 232.53 2637.9
-426.25 233.75 2651.8
-431.22 240.35 2726.7
-420.03 238.02 2700.2
-397.97 229.34 2601.8
-398.93 233.86 2653.0
-730.09 231.66 2707.7
-697.69 232.56 2718.3
-682.23 229.73 2685.2
-672.74 231.25 2703.0
-635.38 220.71 2579.8
-628.83 220.76 2580.3
-645.87 229.18 2678.7
-624.02 226.29 2645.0
-595.10 218.20 2550.4
-591.51 219.32 2563.5
-604.70 226.76 2650.5
-607.37 230.38 2692.8
-590.09 226.43 2646.6
-564.67 219.23 2562.4
-564.69 221.84 2593.0
-580.91 230.96 2699.6
-568.61 228.83 2674.7
-551.32 224.61 2625.3
-554.71 228.82 2674.5
-540.26 225.68 2637.8
-514.04 220.30 2575.0
-527.46 229.03 2676.9
-521.53 229.47 2682.1
-513.88 229.16 2678.5
-496.80 234.20 2737.4
-479.57 229.36 2680.8
-465.39 225.85 2639.8
-468.63 230.82 2697.9
-468.06 234.03 2735.4
-454.54 230.76 2697.3
-428.81 221.11 2584.4
-414.17 220.45 2576.6
-423.80 233.09 2724.4
-401.98 224.84 2627.9
-388.65 225.01 2629.9
-393.99 232.18 2713.7
-386.26 231.75 2708.8
-356.23 235.11 2748.1
-702.59 220.42 2656.8
-702.96 222.72 2684.6
-703.69 225.18 2714.2
-690.15 223.08 2688.9
-680.90 222.33 2679.9
-675.52 225.17 2714.1
-637.18 214.63 2587.1
-630.38 214.60 2586.7
-639.69 220.11 2653.1
-634.11 220.56 2658.5
-620.94 218.35 2631.9
-602.01 214.05 2580.1
-593.20 213.28 2570.8
-601.72 218.81 2637.4
-608.81 223.93 2699.1
-596.50 221.95 2675.3
-580.88 218.68 2635.9
-568.11 221.70 2672.3
-543.04 214.53 2585.9
-538.23 215.29 2595.0
-542.97 219.94 2651.0
-535.18 219.56 2646.5
-522.34 217.08 2616.6
-521.79 219.70 2648.2
-521.45 222.48 2681.7
-520.19 224.95 2711.4
-511.18 224.08 2700.9
-495.63 220.28 2655.2
-505.57 227.86 2746.6
-480.71 226.22 2726.7
-433.80 216.90 2614.4
-425.43 216.09 2604.7
-407.34 220.93 2663.0
-394.81 217.82 2625.6
-376.49 219.05 2640.3
-706.80 214.81 2672.8
-705.12 216.42 2692.8
-706.33 218.96 2724.4
-693.51 217.16 2702.0
-674.41 213.33 2654.4
-675.23 215.79 2685.0
-656.14 214.11 2664.0
-630.27 207.85 2586.2
-619.96 206.65 2571.3
-611.57 206.07 2564.0
-593.98 204.59 2545.6
-600.27 209.08 2601.5
-606.72 213.73 2659.3
-599.87 216.23 2690.5
-585.50 213.53 2656.9
-580.83 214.35 2667.1
-567.93 212.12 2639.3
-556.62 210.43 2618.2
-545.40 208.73 2597.2
-529.43 205.15 2552.6
-523.28 205.34 2554.9
-537.47 213.61 2657.8
-530.76 216.49 2693.7
-514.89 212.82 2648.0
-516.72 216.47 2693.4
-510.91 216.96 2699.5
-488.05 210.13 2614.6
-489.79 213.85 2660.9
-473.54 215.88 2686.0
-461.49 213.53 2656.8
-464.05 217.96 2712.0
-451.58 215.37 2679.7
-441.39 213.80 2660.2
-414.67 210.74 2622.1
-412.79 213.27 2653.6
-400.52 214.07 2663.6
-386.84 218.04 2712.9
-369.00 224.30 2790.8
-362.15 224.53 2793.7
-347.51 224.44 2792.5
-734.71 209.92 2698.9
-705.41 207.47 2667.5
-701.97 208.51 2680.8
-701.96 210.59 2707.6
-679.73 210.23 2702.9
-662.30 206.97 2661.0
-663.42 209.50 2693.6
-658.49 210.15 2702.0
-635.50 205.00 2635.7
-615.62 200.75 2581.0
-609.97 201.09 2585.4
-617.21 205.74 2645.2
-606.43 204.42 2628.2
-594.63 202.72 2606.4
-589.08 203.13 2611.7
-556.12 198.61 2553.6
-554.20 200.31 2575.4
-553.41 202.47 2603.1
-548.38 203.10 2611.3
-537.23 201.46 2590.2
-528.38 200.65 2579.8
-542.31 208.58 2681.8
-521.61 205.90 2647.3
-503.77 201.51 2590.8
-502.55 203.74 2619.5
-516.39 212.21 2728.5
-512.30 213.46 2744.4
-487.73 206.08 2649.6
-484.81 207.78 2671.4
-483.33 213.23 2741.6
-456.12 204.23 2625.9
-444.63 202.11 2598.5
-448.85 207.16 2663.5
-455.02 213.29 2742.3
-438.94 209.02 2687.4
-404.64 205.75 2645.3
-374.35 207.97 2673.9
-372.43 210.81 2710.4
-372.86 215.11 2765.7
-708.14 199.38 2651.8
-695.09 197.62 2628.5
-677.06 196.35 2611.5
-681.12 199.52 2653.7
-671.71 198.77 2643.8
-647.51 193.59 2574.8
-644.11 194.58 2588.0
-658.54 201.03 2673.8
-631.93 199.20 2649.4
-611.00 194.71 2589.8
-618.00 199.13 2648.6
-606.55 197.64 2628.7
-588.53 193.95 2579.6
-576.90 192.30 2557.7
-561.11 193.71 2576.5
-559.55 195.50 2600.3
-556.83 196.93 2619.2
-549.51 196.74 2616.7
-521.27 193.80 2577.7
-518.94 195.44 2599.5
-513.80 196.06 2607.6
-512.81 198.29 2637.3
-498.32 195.29 2597.4
-499.24 198.33 2637.9
-505.44 203.58 2707.7
-491.07 200.58 2667.8
-482.06 199.71 2656.2
-487.15 204.74 2723.2
-483.94 206.39 2745.0
-465.08 201.31 2677.5
-461.54 202.80 2697.3
-439.51 202.31 2690.8
-426.85 199.66 2655.5
-427.30 203.14 2701.9
-412.80 199.52 2653.7
-396.88 195.07 2594.6
-389.87 201.90 2685.3
-385.76 207.17 2755.4
-372.13 207.53 2760.3
-372.94 212.06 2820.6
-366.39 212.51 2826.4
-729.63 198.35 2732.3
-701.84 192.66 2654.0
-666.86 188.61 2598.2
-650.22 185.78 2559.2
-645.92 186.45 2568.5
-660.85 192.75 2655.2
-663.91 195.68 2695.6
-628.57 191.31 2635.3
-608.59 187.26 2579.6
-617.66 192.16 2647.1
-607.33 191.07 2632.1
-591.30 188.14 2591.8
-586.67 188.81 2601.0
-579.59 188.70 2599.5
-579.39 190.86 2629.2
-580.31 193.44 2664.7
-563.85 190.21 2620.3
-546.56 186.63 2570.9
-550.84 190.41 2623.0
-543.10 190.09 2618.5
-527.58 186.99 2575.9
-536.59 192.62 2653.4
-525.09 190.94 2630.3
-511.97 188.62 2598.3
-523.56 195.46 2692.6
-521.15 197.19 2716.4
-505.64 193.94 2671.7
-496.02 192.90 2657.2
-488.99 192.84 2656.5
-486.60 194.64 2681.3
-481.62 195.44 2692.3
-467.92 192.67 2654.2
-457.32 191.12 2632.8
-461.62 195.84 2697.8
-461.95 198.99 2741.2
-443.77 194.15 2674.5
-428.97 190.66 2626.4
-428.19 193.38 2663.9
-429.09 196.96 2713.2
-414.10 193.25 2662.1
-412.18 195.61 2694.6
-407.26 200.06 2755.9
-404.13 202.07 2783.6
-386.11 200.20 2757.9
-368.07 198.19 2730.2
-359.28 197.25 2717.3
-346.12 201.90 2781.3
-730.91 189.76 2710.8
-707.10 185.36 2648.0
-705.02 186.62 2666.0
-703.36 188.03 2686.1
-684.56 184.83 2640.4
-667.97 182.17 2602.5
-660.89 182.08 2601.2
-665.01 185.11 2644.4
-660.97 185.90 2655.7
-644.69 183.23 2617.6
-633.09 181.85 2597.8
-616.91 179.10 2558.6
-608.55 178.59 2551.4
-614.42 182.30 2604.3
-622.07 186.62 2666.0
-610.35 185.16 2645.2
-598.51 183.63 2623.3
-597.96 185.57 2651.1
-590.98 185.54 2650.6
-591.08 187.76 2682.2
-587.84 188.95 2699.3
-566.88 184.41 2634.4
-553.50 182.25 2603.6
-562.01 187.34 2676.2
-533.38 187.03 2671.9
-510.71 181.44 2591.9
-513.75 184.95 2642.2
-512.03 192.01 2743.0
-490.16 186.40 2662.9
-486.51 187.65 2680.8
-479.77 187.74 2682.0
-465.24 184.73 2638.9
-454.50 183.16 2616.5
-417.66 181.89 2598.4
-414.05 183.27 2618.1
-407.58 183.41 2620.2
-413.61 189.28 2704.0
-400.62 189.77 2711.0
-390.30 188.18 2688.3
-386.29 189.63 2709.0
-377.88 188.94 2699.1
-372.91 189.97 2713.9
-359.86 194.32 2776.0
-718.55 181.38 2690.8
-705.90 179.94 2669.4
-707.71 184.01 2729.8
-661.63 173.76 2577.8
-644.44 172.74 2562.6
-649.75 175.97 2610.6
-629.05 172.16 2554.0
-618.88 173.02 2566.8
-631.80 178.55 2648.8
-618.65 176.76 2622.2
-605.85 175.02 2596.5
-624.14 182.33 2704.9
-593.04 179.29 2659.8
-588.39 179.98 2670.0
-579.45 179.35 2660.7
-570.13 178.59 2649.5
-568.33 180.20 2673.3
-569.07 182.67 2709.9
-541.12 180.37 2675.9
-524.88 177.23 2629.3
-513.50 175.67 2606.1
-514.03 178.20 2643.6
-531.30 186.67 2769.3
-505.42 185.08 2745.7
-496.75 184.51 2737.2
-490.57 184.85 2742.3
-476.06 182.02 2700.3
-429.13 177.10 2627.3
-431.67 181.02 2685.5
-433.76 184.88 2742.8
-416.40 183.50 2722.2
-398.22 178.51 2648.3
-395.44 180.38 2675.9
-400.69 186.04 2759.9
-389.17 183.97 2729.3
-351.29 190.28 2822.9
-728.19 176.74 2726.9
-704.74 172.73 2665.0
-706.37 174.84 2697.6
-696.81 174.20 2687.7
-646.48 168.35 2597.5
-634.17 166.89 2574.8
-622.90 165.67 2556.0
-633.25 170.23 2626.4
-623.19 173.11 2670.8
-602.33 173.08 2670.4
-580.32 168.70 2602.8
-580.33 170.68 2633.4
-580.61 172.80 2666.0
-580.09 174.73 2695.8
-566.35 172.67 2664.0
-555.63 171.49 2645.9
-559.80 174.94 2699.0
-554.28 175.41 2706.3
-538.84 172.70 2664.6
-524.38 170.25 2626.8
-524.00 172.37 2659.4
-536.02 178.67 2756.7
-530.82 179.33 2766.8
-510.38 179.71 2772.7
-498.79 178.14 2748.4
-490.13 177.58 2739.8
-484.11 177.98 2746.0
-466.95 174.23 2688.2
-426.30 169.17 2610.0
-425.88 171.73 2649.5
-424.64 174.03 2685.1
-400.19 178.65 2756.4
-374.26 176.54 2723.7
-366.93 179.87 2775.1
-360.19 183.77 2835.3
-346.54 180.49 2784.7
-341.36 181.58 2801.4
-735.67 169.77 2728.5
-710.27 165.50 2659.8
-708.17 166.63 2677.9
-709.51 168.60 2709.6
-699.67 167.92 2698.7
-683.18 165.62 2661.7
-677.68 165.96 2667.3
-645.62 159.74 2567.2
-625.83 159.79 2568.0
-630.77 162.78 2616.1
-645.20 168.31 2705.0
-647.95 170.89 2746.4
-633.49 168.93 2715.0
-582.49 168.43 2706.9
-554.81 162.38 2609.7
-541.97 160.58 2580.8
-543.87 163.16 2622.2
-549.96 167.08 2685.2
-546.84 168.26 2704.1
-533.26 166.21 2671.2
-534.31 168.73 2711.7
-513.77 168.91 2714.7
-497.45 165.82 2664.9
-491.85 166.26 2672.0
-489.60 167.86 2697.8
-480.89 167.27 2688.2
-474.65 167.52 2692.4
-471.81 169.01 2716.2
-460.25 167.36 2689.8
-448.16 165.48 2659.4
-438.51 164.44 2642.8
-431.04 164.20 2639.0
-426.27 165.01 2651.9
-417.53 164.28 2640.1
-421.74 168.70 2711.2
-425.29 173.00 2780.3
-395.66 169.57 2725.2
-375.85 167.05 2684.7
-386.28 174.92 2811.2
-372.85 172.09 2765.7
-367.64 173.01 2780.5
-369.15 177.19 2847.7
-359.49 176.08 2829.8
-350.05 175.03 2812.9
-731.50 163.34 2739.3
-723.58 163.16 2736.2
-709.04 163.08 2734.9
-692.71 160.93 2698.9
-675.17 160.09 2684.8
-633.64 153.41 2572.7
-644.84 157.78 2646.0
-656.61 162.39 2723.3
-647.38 161.85 2714.2
-626.50 158.35 2655.5
-611.58 156.29 2621.1
-622.19 160.79 2696.5
-617.89 163.35 2739.4
-600.27 160.54 2692.2
-590.17 159.69 2678.1
-584.39 160.01 2683.4
-569.77 157.89 2647.8
-554.48 155.52 2608.2
-553.34 157.12 2634.9
-549.02 157.84 2647.1
-548.84 159.79 2679.7
-556.81 164.19 2753.5
-555.03 165.79 2780.3
-537.86 162.77 2729.8
-530.28 162.62 2727.2
-513.12 159.48 2674.6
-497.71 161.23 2703.9
-491.64 161.54 2709.0
-478.68 159.56 2675.8
-470.39 159.10 2668.2
-465.90 159.94 2682.1
-462.01 161.00 2700.0
-457.52 161.89 2715.0
-448.55 161.20 2703.3
-442.04 161.38 2706.4
-439.48 163.03 2734.1
-432.41 163.04 2734.2
-424.26 162.63 2727.4
-415.24 161.87 2714.7
-399.16 158.29 2654.5
-391.84 158.11 2651.5
-404.33 166.06 2784.9
-384.44 166.83 2797.8
-381.18 168.60 2827.4
-728.77 155.66 2729.1
-719.09 155.10 2719.3
-704.15 153.38 2689.1
-686.09 150.94 2646.3
-665.01 147.78 2590.9
-664.35 149.14 2614.8
-677.95 153.76 2695.8
-674.02 154.46 2708.1
-648.06 150.08 2631.2
-640.44 149.89 2627.9
-644.06 152.36 2671.2
-627.55 150.07 2631.0
-622.24 150.43 2637.4
-623.47 152.40 2672.0
-602.52 148.94 2611.3
-566.96 153.99 2699.8
-544.23 149.66 2624.0
-552.93 153.98 2699.7
-537.36 155.55 2727.2
-522.93 153.39 2689.3
-505.37 156.59 2745.5
-500.44 157.28 2757.5
-489.30 156.01 2735.2
-482.77 156.19 2738.4
-475.02 155.98 2734.7
-468.81 156.27 2739.8
-465.05 157.40 2759.7
-456.13 156.80 2749.0
-445.65 155.62 2728.5
-439.39 155.91 2733.5
-426.32 158.97 2787.1
-400.85 152.05 2665.7
-389.32 152.95 2681.6
-403.37 161.35 2828.8
-397.56 161.97 2839.7
-385.04 159.83 2802.2
-384.57 162.70 2852.6
-363.23 159.82 2802.0
-349.42 160.15 2807.8
-718.42 147.91 2716.7
-712.75 149.68 2749.2
-684.46 145.19 2666.7
-696.66 149.28 2741.9
-669.40 147.97 2717.9
-636.27 142.15 2610.8
-619.30 141.36 2596.4
-632.87 146.05 2682.5
-629.22 146.82 2696.7
-601.71 141.98 2607.7
-592.62 141.42 2597.5
-595.00 143.62 2637.9
-583.27 142.43 2616.0
-606.46 149.83 2752.0
-555.46 145.81 2678.1
-551.40 146.58 2692.2
-563.11 151.61 2784.6
-546.00 148.91 2735.1
-542.84 150.00 2755.0
-534.53 151.69 2786.1
-522.91 150.43 2762.9
-509.94 148.73 2731.8
-500.56 148.05 2719.4
-502.65 150.80 2769.7
-486.65 150.29 2760.4
-473.72 148.48 2727.2
-468.71 149.13 2739.2
-466.12 150.59 2766.0
-456.36 149.74 2750.4
-444.10 148.03 2719.0
-440.88 149.33 2742.8
-398.38 146.77 2695.8
-391.89 155.28 2852.0
-373.02 150.64 2766.9
-351.72 150.74 2768.7
-344.90 150.90 2771.5
-724.12 139.25 2685.6
-712.39 139.68 2693.9
-672.12 141.50 2728.9
-653.85 139.12 2683.0
-630.42 135.57 2614.7
-629.80 136.91 2640.5
-637.77 140.17 2703.3
-626.81 139.29 2686.3
-609.64 137.00 2642.1
-610.24 138.69 2674.8
-609.80 140.18 2703.5
-595.30 138.44 2669.9
-552.68 139.92 2698.4
-542.20 139.02 2681.2
-537.08 139.50 2690.4
-545.23 143.48 2767.1
-528.74 144.86 2793.7
-513.31 142.59 2749.9
-489.78 137.97 2660.8
-480.99 139.42 2688.8
-477.00 140.30 2705.7
-463.19 138.27 2666.5
-456.81 138.43 2669.7
-451.41 138.89 2678.7
-439.75 137.42 2650.3
-436.92 138.70 2675.0
-443.31 143.00 2757.9
-438.99 143.93 2775.8
-400.77 140.62 2711.9
-377.60 139.85 2697.1
-358.96 143.59 2769.1
-362.34 147.90 2852.3
-729.67 133.30 2706.2
-713.43 135.55 2751.8
-688.96 133.57 2711.7
-653.61 128.03 2599.0
-637.38 128.83 2615.4
-634.48 129.63 2631.5
-635.67 131.28 2665.1
-645.64 134.80 2736.6
-646.41 136.46 2770.3
-619.06 136.77 2776.5
-586.84 131.18 2663.0
-574.28 131.46 2668.7
-568.90 131.82 2676.0
-546.13 131.35 2666.5
-543.85 132.48 2689.4
-546.92 134.95 2739.7
-533.71 133.43 2708.7
-521.42 132.09 2681.6
-515.84 132.45 2688.8
-511.34 133.09 2701.8
-511.91 135.09 2742.4
-501.96 134.33 2726.9
-485.21 135.57 2752.3
-458.72 132.06 2680.8
-437.02 129.74 2633.8
-447.76 135.04 2741.4
-443.85 136.02 2761.3
-429.37 133.74 2715.0
-417.13 132.09 2681.5
-407.32 131.17 2662.8
-408.29 133.75 2715.2
-389.91 132.29 2685.6
-376.67 132.53 2690.5
-368.55 137.30 2787.4
-369.15 140.28 2847.7
-358.24 138.91 2819.9
-347.96 137.73 2796.1
-733.65 126.98 2721.0
-698.93 124.56 2669.2
-704.99 126.90 2719.2
-695.39 126.44 2709.3
-660.01 121.23 2597.7
-654.90 121.53 2604.2
-664.47 124.59 2669.7
-660.57 125.16 2682.0
-665.36 127.41 2730.2
-647.20 125.26 2684.2
-632.04 123.66 2649.9
-638.84 126.36 2707.8
-635.59 127.12 2723.9
-632.48 127.92 2741.1
-629.50 128.76 2759.2
-624.01 129.11 2766.6
-613.92 128.50 2753.5
-596.58 126.33 2707.2
-582.87 124.90 2676.4
-580.44 125.88 2697.4
-547.28 126.30 2706.3
-559.11 130.70 2800.7
-553.28 131.04 2808.0
-529.24 130.50 2796.4
-507.02 126.75 2716.2
-511.96 129.79 2781.3
-503.56 129.49 2774.7
-486.74 126.97 2720.9
-488.74 129.37 2772.3
-476.63 129.99 2785.5
-439.28 125.51 2689.5
-439.78 127.68 2735.9
-425.52 125.56 2690.7
-413.34 124.00 2657.2
-405.10 123.59 2648.3
-408.64 126.82 2717.5
-404.46 130.00 2785.8
-397.66 130.14 2788.8
-370.30 130.69 2800.6
-366.76 132.03 2829.3
-360.42 132.40 2837.1
-728.98 121.50 2756.7
-713.69 120.13 2725.5
-692.32 120.10 2724.9
-694.69 121.75 2762.4
-640.69 118.39 2686.1
-632.72 118.20 2681.8
-637.02 120.33 2730.1
-628.68 121.45 2755.6
-612.43 119.67 2715.2
-601.60 118.92 2698.2
-583.75 116.75 2648.9
-565.71 117.28 2661.0
-573.27 120.32 2729.9
-557.56 118.48 2688.2
-548.87 118.11 2679.8
-557.24 121.45 2755.6
-524.49 123.84 2809.8
-505.93 122.87 2787.8
-481.87 118.72 2693.7
-488.80 122.20 2772.6
-475.51 122.48 2779.0
-431.42 118.29 2684.0
-435.87 121.47 2756.1
-419.38 118.82 2696.0
-407.26 117.35 2662.5
-394.02 119.61 2713.9
-378.95 123.89 2810.9
-366.68 122.23 2773.2
-368.21 125.19 2840.5
-710.73 112.59 2714.2
-708.15 113.30 2731.4
-690.38 113.88 2745.2
-653.75 108.96 2626.7
-641.84 108.10 2605.9
-638.77 108.73 2621.1
-657.64 113.14 2727.6
-638.98 112.35 2708.4
-623.69 110.88 2673.0
-631.27 113.49 2735.8
-621.19 112.94 2722.8
-603.26 110.94 2674.6
-591.44 110.04 2652.6
-590.47 111.15 2679.5
-585.97 111.61 2690.7
-576.15 111.07 2677.5
-561.68 112.34 2708.1
-549.13 111.22 2681.1
-537.29 116.17 2800.6
-534.74 117.20 2825.5
-492.25 112.51 2712.4
-470.64 110.74 2669.6
-412.36 109.96 2650.9
-393.92 112.55 2713.2
-375.10 117.68 2836.9
-368.25 117.84 2840.8
-352.52 117.51 2832.7
-708.52 105.23 2705.8
-698.43 104.77 2694.0
-688.49 106.47 2737.7
-652.85 102.01 2623.1
-630.54 101.70 2615.1
-641.98 104.67 2691.5
-617.17 104.02 2674.7
-623.03 106.20 2730.8
-621.57 107.17 2755.7
-603.68 105.29 2707.5
-597.41 105.43 2711.0
-548.24 108.21 2782.4
-512.87 105.38 2709.9
-519.47 108.22 2782.9
-505.62 106.82 2746.8
-469.95 105.21 2705.5
-474.43 107.82 2772.6
-446.52 103.04 2649.7
-408.41 102.10 2625.5
-400.00 103.45 2660.1
-403.19 106.10 2728.3
-394.99 109.72 2821.4
-381.83 108.06 2778.8
-379.43 109.45 2814.4
-368.46 108.37 2786.7
-359.30 107.79 2771.7
-351.47 107.59 2766.7
-342.06 106.90 2748.7
-342.66 109.36 2812.1
-330.62 107.81 2772.3
-725.11 99.52 2742.0
-669.88 95.70 2636.5
-682.71 98.53 2714.7
-691.77 100.88 2779.4
-670.64 98.83 2722.9
-645.28 96.11 2647.8
-634.34 95.49 2630.9
-629.52 95.80 2639.3
-621.43 95.60 2634.0
-627.90 97.67 2691.0
-629.59 99.04 2728.6
-623.98 99.27 2735.0
-626.03 100.74 2775.5
-611.78 99.59 2743.9
-597.47 98.41 2711.2
-599.27 99.88 2751.7
-582.78 98.30 2708.3
-575.50 99.47 2740.5
-548.68 101.07 2784.7
-522.40 100.19 2760.2
-517.68 100.66 2773.3
-508.74 100.31 2763.8
-491.28 98.26 2707.0
-483.77 98.16 2704.3
-485.65 99.99 2754.7
-470.68 98.35 2709.7
-452.80 99.05 2728.9
-451.55 100.34 2764.6
-433.78 97.95 2698.6
-427.73 98.17 2704.6
-423.34 98.78 2721.5
-381.04 98.79 2721.7
-362.77 97.67 2690.9
-366.00 100.47 2768.1
-356.54 101.87 2806.6
-710.09 90.50 2685.2
-676.43 90.66 2689.8
-688.45 93.23 2766.1
-670.22 91.71 2721.2
-660.48 91.34 2710.2
-664.15 92.84 2754.5
-647.42 91.48 2714.4
-628.83 89.83 2665.4
-633.40 91.49 2714.6
-632.34 92.36 2740.5
-623.14 92.06 2731.3
-621.02 92.80 2753.3
-617.49 93.34 2769.5
-614.30 93.95 2787.6
-577.36 95.01 2818.9
-544.63 94.40 2801.0
-531.98 93.46 2772.9
-528.02 94.03 2789.9
-528.18 95.37 2829.5
-503.45 93.50 2774.1
-494.73 93.21 2765.6
-493.50 94.35 2799.3
-474.65 92.10 2732.6
-451.08 88.85 2636.2
-445.27 89.05 2642.3
-441.55 89.69 2661.1
-425.58 90.70 2691.0
-429.07 92.96 2758.3
-387.42 91.57 2717.0
-363.21 90.80 2694.1
-367.61 93.70 2780.2
-355.82 94.40 2800.9
-344.35 93.26 2767.1
-341.63 94.49 2803.7
-721.03 84.00 2700.1
-718.33 84.51 2716.4
-700.12 84.01 2700.5
-714.18 86.57 2782.5
-703.71 86.17 2769.7
-685.50 84.80 2725.8
-672.09 84.01 2700.4
-664.77 83.97 2699.1
-665.74 84.99 2731.8
-673.34 86.88 2792.7
-661.39 86.27 2772.9
-640.58 84.47 2715.2
-643.90 85.85 2759.6
-641.38 86.48 2779.7
-629.42 85.83 2758.8
-562.06 86.47 2779.4
-555.33 86.54 2781.8
-542.59 85.67 2753.7
-540.29 86.45 2778.6
-542.76 88.02 2829.1
-537.91 88.42 2842.2
-501.63 87.24 2804.1
-491.28 86.70 2786.7
-478.63 85.72 2755.4
-459.89 83.62 2687.7
-444.14 82.00 2635.6
-428.58 81.63 2624.0
-432.26 83.66 2689.2
-432.18 85.02 2732.7
-430.33 86.07 2766.4
-421.21 85.67 2753.7
-409.03 84.63 2720.1
-405.49 85.37 2743.9
-394.79 84.60 2719.2
-382.80 83.52 2684.6
-360.30 84.78 2725.0
-347.54 85.11 2735.7
-348.82 87.21 2803.0
-728.50 79.34 2782.1
-690.64 75.97 2663.9
-674.71 75.73 2655.6
-680.19 77.13 2704.7
-660.79 75.72 2655.0
-646.17 74.82 2623.6
-673.84 78.85 2765.0
-641.90 78.45 2751.0
-612.21 75.67 2653.2
-609.45 76.18 2671.3
-631.46 79.84 2799.6
-605.36 78.34 2747.0
-564.75 76.69 2689.3
-567.25 80.00 2805.1
-559.87 79.98 2804.5
-552.49 79.97 2804.0
-516.46 80.02 2805.7
-514.78 80.89 2836.5
-492.54 79.67 2793.8
-473.53 77.74 2726.1
-467.34 77.89 2731.2
-463.94 78.51 2753.1
-460.76 79.19 2776.9
-444.99 78.95 2768.4
-422.37 76.17 2670.7
-422.83 77.52 2718.2
-416.40 77.63 2722.2
-401.62 76.17 2670.9
-394.99 76.23 2672.9
-374.48 77.72 2725.3
-371.01 78.48 2752.0
-363.47 78.40 2749.0
-356.59 78.45 2750.9
-351.34 78.87 2765.7
-347.74 79.69 2794.3
-716.38 70.23 2709.0
-729.81 72.26 2787.1
-704.23 70.42 2716.3
-679.48 68.63 2647.3
-698.88 71.31 2750.7
-689.56 71.83 2770.6
-662.71 69.76 2690.7
-677.20 72.04 2778.8
-661.79 72.72 2805.1
-637.40 70.82 2731.7
-615.62 69.17 2668.0
-620.83 70.55 2721.2
-612.93 72.11 2781.4
-589.03 70.12 2704.7
-582.04 71.86 2771.6
-579.22 72.40 2792.6
-550.40 72.42 2793.4
-544.76 72.63 2801.6
-503.65 70.94 2736.1
-495.36 70.77 2729.5
-495.01 71.74 2767.2
-481.98 70.88 2733.9
-477.67 71.29 2749.9
-447.40 72.16 2783.3
-422.56 69.27 2671.9
-420.87 70.14 2705.6
-412.95 69.99 2699.7
-392.39 68.84 2655.3
-382.13 70.76 2729.5
-385.39 72.71 2804.7
-383.46 73.74 2844.3
-373.46 73.23 2824.5
-364.07 72.81 2808.6
-353.00 72.04 2778.7
-342.95 71.45 2755.8
-340.62 72.47 2795.4
-335.49 72.93 2813.1
-705.43 62.24 2667.6
-678.77 64.30 2755.9
-648.59 62.10 2661.4
-637.39 61.68 2643.5
-648.07 63.40 2717.1
-652.42 64.52 2765.3
-652.21 65.22 2795.2
-601.50 65.22 2795.3
-586.25 64.34 2757.6
-581.87 64.65 2770.8
-574.99 64.69 2772.3
-573.51 65.34 2800.1
-560.92 65.56 2809.8
-548.31 64.93 2782.8
-546.70 65.60 2811.6
-529.12 64.35 2758.0
-520.55 64.18 2750.4
-516.59 64.57 2767.5
-497.89 63.11 2704.8
-491.10 63.14 2706.1
-492.58 64.25 2753.6
-475.76 62.97 2698.7
-466.41 62.65 2685.1
-471.95 64.36 2758.2
-464.84 64.36 2758.4
-447.24 62.89 2695.4
-435.60 62.23 2666.9
-423.15 61.43 2632.5
-416.13 62.42 2675.1
-416.61 63.55 2723.6
-399.89 62.05 2659.4
-397.09 62.70 2687.1
-399.03 64.13 2748.4
-399.11 65.31 2798.9
-395.73 65.96 2826.7
-366.92 66.05 2830.6
-354.54 65.12 2790.8
-342.85 64.28 2755.0
-339.56 65.02 2786.6
-334.45 65.44 2804.4
-713.69 56.53 2725.5
-699.04 55.92 2696.3
-679.02 56.58 2728.2
-662.55 55.79 2690.0
-633.63 55.70 2685.7
-646.11 57.43 2769.0
-649.86 58.41 2816.4
-642.03 58.37 2814.1
-619.91 57.00 2748.4
-608.34 56.59 2728.4
-619.67 58.32 2811.9
-611.86 58.27 2809.6
-600.27 57.86 2789.6
-599.59 58.50 2820.4
-582.93 57.57 2775.9
-554.30 57.59 2776.6
-530.06 58.09 2800.7
-510.57 56.73 2735.2
-501.36 56.49 2723.7
-503.09 57.50 2772.1
-505.99 58.67 2828.5
-490.02 57.65 2779.5
-460.27 54.96 2649.8
-453.40 55.80 2690.5
-449.88 56.24 2711.4
-434.34 55.15 2659.2
-419.84 55.98 2699.0
-424.79 57.60 2777.1
-411.96 56.82 2739.6
-407.49 57.19 2757.5
-407.96 58.28 2809.9
-390.74 58.98 2843.7
-376.56 57.93 2793.1
-371.54 58.28 2809.9
-367.72 58.83 2836.7
-355.82 58.09 2800.9
-344.84 57.47 2771.0
-338.61 57.64 2778.9
-331.15 57.59 2776.7
-688.03 48.16 2653.8
-693.26 49.02 2701.0
-695.95 50.75 2796.2
-687.45 50.65 2791.1
-667.13 49.68 2737.4
-648.00 48.77 2687.6
-634.91 48.31 2661.9
-637.79 49.06 2703.3
-619.33 48.17 2654.3
-610.04 48.53 2673.9
-615.76 49.54 2730.0
-613.16 51.10 2815.6
-569.81 49.24 2713.4
-570.17 49.89 2749.1
-575.77 51.02 2811.2
-561.24 50.37 2775.4
-525.82 51.12 2816.9
-516.40 50.91 2805.4
-518.11 51.81 2854.9
-500.98 51.57 2841.7
-468.00 48.90 2694.2
-452.61 48.00 2645.1
-457.57 49.28 2715.3
-463.49 50.69 2793.4
-456.28 50.70 2793.5
-437.16 49.36 2719.6
-424.66 48.73 2685.2
-426.47 49.75 2741.6
-420.88 49.94 2751.5
-411.68 49.69 2737.8
-410.44 50.40 2777.4
-407.41 50.93 2806.1
-403.81 51.39 2831.9
-397.58 51.54 2839.8
-382.32 50.50 2782.4
-374.04 50.35 2774.4
-375.09 51.48 2836.8
-361.56 50.62 2789.2
-716.01 42.12 2707.6
-708.18 42.07 2704.5
-694.08 41.64 2677.2
-677.38 41.05 2639.1
-682.53 41.79 2686.3
-679.39 42.02 2701.6
-669.90 41.87 2691.6
-682.93 43.13 2772.8
-681.83 43.52 2797.8
-665.13 42.91 2758.6
-654.89 42.71 2745.7
-650.44 42.89 2757.0
-624.36 41.62 2675.8
-614.51 41.90 2693.5
-631.19 43.53 2798.4
-618.19 43.13 2772.6
-604.88 42.70 2744.8
-615.96 44.00 2828.4
-596.11 43.62 2804.0
-568.60 42.12 2707.6
-578.93 43.42 2791.3
-559.09 43.01 2764.7
-541.62 42.20 2713.1
-545.29 43.05 2767.5
-546.53 44.31 2848.7
-531.96 43.72 2810.8
-531.53 44.29 2847.5
-514.98 43.52 2797.7
-508.67 43.60 2802.9
-498.05 43.95 2825.1
-467.33 41.85 2690.4
-453.94 41.90 2693.7
-457.13 42.86 2755.0
-452.91 43.13 2772.9
-436.22 42.22 2713.8
-422.49 41.56 2671.5
-423.57 42.36 2722.9
-427.86 43.51 2797.1
-416.15 43.81 2816.1
-402.25 43.10 2770.6
-393.24 42.90 2757.8
-381.79 42.42 2727.1
-380.30 43.05 2767.7
-363.64 43.64 2805.2
-338.17 44.11 2835.6
-749.96 36.06 2781.4
-745.29 36.18 2791.0
-704.28 34.52 2663.2
-681.13 34.40 2653.8
-676.89 34.54 2664.1
-665.52 34.30 2646.4
-662.92 34.53 2663.5
-681.28 35.86 2766.1
-671.20 35.70 2754.2
-646.88 34.78 2682.9
-631.19 35.07 2705.1
-642.97 36.12 2786.6
-642.11 36.48 2814.5
-620.17 36.06 2781.5
-601.45 35.38 2729.3
-598.32 35.61 2747.4
-594.25 35.80 2761.6
-571.60 34.85 2688.7
-559.25 34.95 2696.4
-555.75 35.17 2713.4
-524.36 35.92 2770.6
-529.53 36.77 2836.8
-518.07 36.48 2814.5
-504.23 36.02 2778.4
-502.18 36.39 2807.2
-492.86 36.24 2795.7
-467.86 34.92 2693.4
-451.79 34.75 2681.0
-450.92 35.23 2717.6
-443.26 35.18 2713.8
-429.89 34.67 2674.4
-419.54 34.39 2652.8
-421.28 35.11 2708.2
-426.21 36.12 2786.4
-420.63 36.26 2797.3
-402.87 35.34 2726.2
-399.83 35.70 2753.9
-401.58 36.51 2816.3
-396.22 36.69 2830.2
-352.21 35.94 2772.5
-333.32 36.23 2795.0
-774.37 28.95 2791.4
-759.32 28.93 2789.4
-696.06 27.57 2658.2
-697.39 27.90 2689.9
-680.66 27.50 2651.9
-664.39 27.68 2669.4
-678.91 28.59 2756.5
-667.91 28.42 2740.6
-650.18 27.96 2696.6
-639.62 27.81 2681.6
-628.03 27.91 2691.6
-643.44 28.92 2788.6
-624.19 28.70 2767.3
-598.12 28.48 2746.5
-603.31 29.08 2803.7
-588.25 28.69 2767.0
-552.76 27.99 2698.8
-522.89 28.65 2762.8
-529.36 29.41 2835.9
-523.70 29.50 2845.1
-514.78 29.42 2836.5
-499.02 28.93 2789.6
-477.77 28.10 2710.1
-469.07 28.00 2700.4
-468.85 28.42 2740.0
-462.94 28.49 2747.1
-456.50 28.53 2751.2
-446.01 28.32 2730.7
-430.22 27.76 2676.5
-423.77 27.79 2679.6
-428.05 28.54 2751.8
-424.56 28.78 2775.6
-411.72 28.39 2738.1
-395.13 27.73 2673.8
-392.65 28.05 2704.5
-398.63 28.99 2795.6
-396.79 29.39 2834.2
-364.17 29.13 2809.3
-340.36 28.97 2793.2
-695.84 21.09 2711.0
-684.31 20.95 2693.3
-688.72 21.30 2738.6
-667.79 20.87 2683.1
-659.32 20.82 2676.9
-666.74 21.28 2735.8
-668.24 21.56 2771.5
-663.76 21.64 2782.9
-651.19 21.47 2760.1
-637.13 21.24 2730.6
-632.21 21.31 2739.9
-603.66 21.06 2707.4
-610.31 21.54 2769.5
-581.60 21.54 2769.5
-563.34 21.13 2716.1
-568.02 21.57 2773.3
-565.08 21.73 2794.4
-558.70 21.77 2798.7
-558.49 22.05 2834.4
-544.73 21.79 2801.4
-527.74 21.39 2750.8
-531.27 21.83 2807.1
-525.89 21.91 2817.3
-509.41 21.52 2767.4
-504.79 21.63 2781.5
-493.05 21.44 2756.2
-489.07 21.58 2774.1
-471.92 21.78 2800.4
-463.55 21.73 2793.7
-451.18 21.48 2762.3
-433.25 20.96 2695.3
-425.18 20.91 2688.5
-433.59 21.68 2787.4
-419.76 21.71 2791.5
-400.84 21.10 2712.5
-380.88 21.56 2771.9
-354.62 21.71 2791.5
-350.95 21.93 2820.2
-752.87 14.48 2792.2
-717.49 14.35 2767.5
-710.02 14.34 2766.3
-686.11 14.44 2785.7
-659.17 14.02 2704.8
-651.84 14.02 2703.5
-639.18 13.90 2679.8
-636.04 13.98 2696.0
-632.14 14.05 2709.2
-629.08 14.14 2726.3
-628.48 14.62 2818.7
-605.37 14.24 2747.1
-589.85 14.04 2708.5
-595.76 14.36 2768.6
-584.11 14.25 2747.6
-578.52 14.28 2754.9
-574.85 14.55 2806.7
-550.03 14.10 2719.9
-536.39 13.93 2686.9
-530.27 13.95 2691.2
-530.42 14.14 2727.9
-526.80 14.24 2745.9
-529.04 14.49 2795.3
-522.59 14.52 2799.6
-515.03 14.51 2798.0
-505.73 14.66 2827.1
-500.54 14.72 2839.2
-476.96 14.45 2787.5
-467.11 14.37 2771.9
-464.54 14.52 2799.7
-453.12 14.38 2774.2
-436.59 14.08 2716.1
-427.84 14.03 2705.3
-435.75 14.53 2801.3
-405.82 14.24 2746.1
-395.00 14.63 2821.4
-387.69 14.63 2821.5
-362.52 14.50 2796.6
-744.03 7.15 2759.4
-698.38 6.91 2667.1
-691.38 6.98 2693.7
-704.27 7.19 2771.9
-655.15 6.97 2688.3
-630.83 6.86 2644.8
-635.82 6.99 2695.0
-622.15 6.91 2666.4
-605.85 7.04 2717.3
-585.72 7.23 2789.2
-582.04 7.28 2806.3
-552.19 6.99 2696.0
-531.95 7.09 2735.8
-536.23 7.25 2795.0
-523.36 7.37 2843.2
-497.11 7.20 2778.9
-484.74 7.13 2749.6
-476.63 7.11 2743.9
-458.98 7.17 2766.2
-446.75 7.21 2779.3
-437.22 7.17 2764.6
-438.68 7.31 2820.1
-413.42 7.25 2797.6
-398.13 7.11 2742.2
-403.73 7.34 2831.4
-377.89 7.13 2750.1
-750.80 -0.00 2784.6
-742.00 -0.00 2778.6
-740.64 -0.00 2800.7
-717.63 -0.00 2740.6
-699.18 -0.00 2696.8
-684.17 -0.00 2665.6
-673.25 -0.00 2649.8
-666.06 -0.00 2648.5
-662.49 -0.00 2661.8
-675.84 -0.00 2744.0
-673.86 -0.00 2765.1
-653.96 -0.00 2712.3
-648.93 -0.00 2720.7
-649.83 -0.00 2754.4
-631.70 -0.00 2707.3
-627.48 -0.00 2750.3
-619.56 -0.00 2778.8
-591.39 -0.00 2683.6
-599.43 -0.00 2752.5
-579.99 -0.00 2695.3
-578.12 -0.00 2753.0
-565.19 -0.00 2725.0
-557.00 -0.00 2719.5
-554.79 -0.00 2743.5
-546.19 -0.00 2736.0
-553.48 -0.00 2809.0
-516.12 -0.00 2803.9
-494.80 -0.00 2726.5
-485.31 -0.00 2712.9
-484.22 -0.00 2746.6
-489.29 -0.00 2816.8
-481.19 -0.00 2812.1
-454.90 -0.00 2785.1
-446.59 -0.00 2778.3
-428.01 -0.00 2706.4
-420.39 -0.00 2702.5
-397.13 -0.00 2735.3
-385.52 -0.00 2703.7
-359.95 -0.00 2722.3
-361.69 -0.00 2847.1
-348.99 -0.00 2804.4
-347.27 -0.00 2849.9
-723.20 -7.16 2761.9
-716.75 -7.17 2764.6
-713.01 -7.20 2777.9
-691.22 -7.05 2720.6
-673.37 -6.94 2677.6
-659.11 -6.87 2648.2
-662.68 -6.98 2690.6
-671.96 -7.15 2757.3
-663.10 -7.13 2750.2
-665.87 -7.24 2791.7
-646.84 -7.27 2803.3
-625.48 -7.11 2741.5
-611.46 -7.03 2710.9
-602.59 -7.01 2702.6
-599.13 -7.05 2718.8
-612.41 -7.29 2812.1
-597.87 -7.20 2778.4
-577.46 -7.04 2716.3
-579.35 -7.15 2758.8
-574.73 -7.18 2771.0
-574.86 -7.28 2806.7
-538.44 -7.18 2769.1
-527.75 -7.13 2750.8
-515.85 -7.07 2725.6
-519.85 -7.22 2784.9
-515.04 -7.25 2798.0
-502.66 -7.18 2769.7
-501.69 -7.27 2804.5
-490.47 -7.21 2782.1
-486.21 -7.26 2799.1
-461.47 -7.10 2738.4
-453.91 -7.09 2735.6
-433.94 -7.11 2743.9
-422.23 -7.04 2714.3
-396.76 -6.96 2684.8
-400.43 -7.15 2758.1
-389.47 -7.08 2731.4
-374.76 -6.94 2676.9
-365.01 -7.02 2707.5
-365.85 -7.17 2766.9
-363.81 -7.28 2806.5
-348.46 -7.11 2742.9
-338.44 -7.36 2837.9
-724.46 -14.35 2766.7
-714.23 -14.28 2754.9
-718.47 -14.51 2799.2
-703.53 -14.36 2769.0
-686.53 -14.16 2730.0
-673.35 -14.03 2705.4
-663.39 -13.97 2693.5
-659.88 -14.04 2707.7
-666.37 -14.33 2763.8
-653.73 -14.53 2801.7
-634.47 -14.26 2749.7
-609.01 -13.84 2669.4
-588.82 -14.19 2736.3
-591.60 -14.43 2782.8
-590.44 -14.58 2811.6
-571.44 -14.47 2790.0
-553.08 -14.55 2807.0
-521.07 -13.90 2679.8
-506.81 -14.08 2715.1
-511.59 -14.41 2779.3
-509.26 -14.55 2806.1
-480.56 -14.35 2766.5
-462.63 -14.02 2703.7
-470.77 -14.49 2793.6
-441.59 -14.48 2792.3
-429.91 -14.33 2763.7
-421.85 -14.30 2757.9
-417.54 -14.40 2776.7
-412.54 -14.48 2791.6
-405.31 -14.48 2791.7
-401.89 -14.61 2818.5
-393.89 -14.59 2813.5
-381.02 -14.38 2772.9
-374.36 -14.40 2776.8
-375.41 -14.72 2839.3
-357.27 -14.58 2812.4
-341.58 -14.54 2803.2
-731.29 -21.72 2792.8
-714.47 -21.43 2755.8
-712.24 -21.58 2775.0
-691.20 -21.16 2720.5
-669.45 -20.70 2662.0
-666.58 -20.83 2678.2
-666.25 -21.04 2705.1
-666.97 -21.29 2736.8
-643.50 -21.45 2757.8
-618.95 -20.86 2682.4
-609.45 -20.78 2671.3
-594.60 -20.99 2698.2
-593.67 -21.20 2726.0
-583.13 -21.08 2709.9
-582.44 -21.31 2739.7
-577.49 -21.39 2749.9
-558.06 -20.93 2690.7
-542.49 -20.86 2682.6
-552.83 -21.54 2769.3
-539.73 -21.31 2739.3
-523.92 -20.96 2694.5
-520.20 -21.09 2711.5
-522.71 -21.48 2761.9
-518.00 -21.58 2775.0
-510.14 -21.56 2771.4
-509.79 -21.85 2809.0
-480.72 -21.52 2767.5
-465.32 -21.15 2719.4
-448.76 -21.37 2747.5
-439.28 -21.26 2732.8
-435.96 -21.44 2756.7
-428.83 -21.44 2756.8
-424.72 -21.60 2776.6
-409.80 -21.20 2725.3
-396.40 -21.24 2730.3
-401.74 -21.91 2817.4
-391.25 -21.74 2794.7
-375.98 -21.28 2736.2
-369.68 -21.33 2742.1
-370.69 -21.81 2803.5
-356.01 -21.80 2802.4
-336.49 -21.48 2761.5
-333.11 -21.72 2793.1
-316.53 -22.08 2839.3
-728.33 -28.56 2754.2
-721.65 -28.58 2755.9
-716.70 -28.96 2792.3
-682.32 -27.85 2685.5
-670.66 -27.66 2666.8
-677.91 -28.25 2723.8
-665.28 -28.01 2701.1
-653.70 -27.82 2682.4
-656.97 -28.26 2724.8
-659.57 -28.68 2765.3
-657.37 -28.90 2786.4
-639.62 -28.43 2741.2
-634.00 -28.49 2747.7
-604.93 -28.81 2777.7
-597.21 -28.78 2775.3
-599.27 -29.23 2818.9
-586.93 -28.98 2794.9
-560.69 -28.03 2703.3
-549.21 -28.16 2715.9
-556.34 -28.90 2786.9
-540.69 -28.46 2744.1
-537.27 -28.65 2763.1
-521.66 -28.98 2794.6
-500.89 -28.22 2721.1
-487.46 -27.85 2686.0
-484.23 -28.07 2706.9
-450.98 -27.75 2676.1
-436.25 -28.15 2714.0
-433.61 -28.43 2741.8
-426.51 -28.43 2741.9
-423.80 -28.73 2770.6
-410.68 -28.32 2731.2
-401.42 -28.17 2716.4
-408.89 -29.21 2816.3
-386.11 -28.60 2758.0
-371.47 -28.04 2703.5
-365.93 -28.15 2714.3
-364.65 -28.60 2757.9
-361.47 -28.92 2788.5
-359.40 -29.34 2829.1
-352.06 -29.34 2829.0
-338.78 -28.83 2780.3
-752.74 -35.84 2765.2
-741.94 -36.02 2778.4
-723.40 -35.81 2762.6
-711.71 -35.94 2772.9
-690.43 -35.23 2717.4
-691.61 -35.65 2750.1
