ply
format ascii 1.0
element vertex 2177
property float x
property float y
property float z
end_header
1335.08 496.44 1859.1
1325.18 490.98 1838.6
1320.37 487.45 1825.4
1370.05 503.98 1887.3
1398.65 512.67 1919.9
1367.93 499.64 1871.0
1386.78 504.73 1890.1
1431.77 519.27 1944.6
1437.43 519.49 1945.4
1426.79 513.85 1924.2
1416.08 508.21 1903.1
1402.94 501.75 1878.9
1382.68 492.79 1845.4
1375.83 488.66 1829.9
1377.75 487.66 1826.2
1392.05 491.03 1838.8
1422.96 500.22 1873.2
1432.04 501.70 1878.8
1407.26 491.35 1840.0
1411.53 491.18 1839.4
1485.63 515.22 1929.4
1508.59 521.42 1952.6
1457.88 502.21 1880.7
1435.77 492.95 1846.0
1453.27 497.30 1862.3
1469.62 501.23 1877.0
1466.05 498.36 1866.3
1468.51 497.56 1863.2
1489.78 503.11 1884.0
1502.59 505.77 1894.0
1490.44 500.05 1872.6
1471.49 492.09 1842.8
1478.16 492.72 1845.1
1459.06 484.79 1815.4
1452.78 481.14 1801.8
1514.18 499.87 1871.9
1560.37 513.48 1922.9
1546.76 507.38 1900.0
1517.59 496.23 1858.3
1547.86 504.52 1889.3
1603.10 520.88 1950.6
1614.30 522.87 1958.0
1438.60 594.08 2246.5
1345.66 553.46 2092.9
1391.96 565.66 2139.0
1378.30 557.88 2109.6
1320.08 532.21 2012.6
1293.72 519.53 1964.6
1311.35 524.54 1983.5
1381.41 550.41 2081.4
1405.27 557.73 2109.1
1335.27 527.90 1996.3
1280.66 504.35 1907.2
1324.53 519.62 1965.0
1365.33 533.58 2017.7
1379.41 537.02 2030.8
1370.43 531.50 2009.9
1354.19 523.21 1978.5
1395.37 537.09 2031.0
1409.56 540.51 2043.9
1403.77 536.27 2027.9
1411.29 537.13 2031.2
1371.31 519.98 1966.3
1341.18 506.67 1916.0
1364.81 513.69 1942.5
1402.05 525.77 1988.2
1437.75 537.18 2031.4
1435.10 534.24 2020.2
1383.61 513.19 1940.6
1355.72 501.03 1894.6
1336.23 492.04 1860.7
1315.21 480.83 1818.3
1380.41 502.86 1901.6
1380.83 501.22 1895.4
1324.08 478.92 1811.0
1323.15 476.90 1803.4
1348.29 484.25 1831.2
1377.01 492.83 1863.6
1393.03 496.81 1878.7
1393.32 495.19 1872.6
1387.15 491.28 1857.8
1363.91 481.38 1820.3
1360.53 478.53 1809.6
1390.11 487.26 1842.6
1429.84 499.47 1888.7
1434.80 499.49 1888.8
1417.21 491.69 1859.3
1410.82 487.81 1844.7
1435.95 494.82 1871.2
1449.82 497.92 1882.9
1413.46 483.80 1829.5
1391.32 474.63 1794.8
1399.70 475.90 1799.6
1417.13 480.22 1816.0
1431.59 483.52 1828.4
1461.21 491.89 1860.1
1498.81 502.89 1901.7
1509.21 504.72 1908.6
1514.15 504.72 1908.6
1483.11 492.76 1863.4
1450.09 480.22 1816.0
1453.65 479.84 1814.5
1430.81 470.78 1780.3
1441.06 472.63 1787.3
1517.24 496.02 1875.7
1557.91 507.69 1919.8
1539.96 500.24 1891.7
1533.06 496.42 1877.2
1591.31 513.65 1942.4
1624.26 522.63 1976.3
1607.45 515.60 1949.7
1645.51 526.15 1989.6
1420.83 580.99 2218.8
1443.46 587.86 2245.0
1407.93 571.09 2181.0
1288.74 520.65 1988.3
1313.22 526.33 2010.0
1318.01 526.16 2009.4
1317.95 524.07 2001.4
1360.97 539.05 2058.6
1396.09 550.80 2103.5
1383.15 543.57 2075.9
1385.86 542.52 2071.9
1399.99 545.94 2084.9
1412.52 548.71 2095.5
1419.61 549.35 2097.9
1366.30 526.70 2011.5
1295.60 497.55 1900.1
1296.82 496.13 1894.7
1354.48 516.23 1971.5
1391.87 528.49 2018.3
1407.72 532.51 2033.6
1391.27 524.32 2002.4
1325.49 497.68 1900.6
1328.31 496.89 1897.6
1380.02 514.33 1964.2
1399.84 519.79 1985.1
1418.04 524.62 2003.5
1434.59 528.81 2019.5
1401.81 514.85 1966.2
1386.47 507.37 1937.6
1378.45 502.61 1919.5
1356.64 492.88 1882.3
1384.00 501.02 1913.4
1406.86 507.47 1938.0
1365.28 490.73 1874.1
1343.64 477.85 1824.9
1382.25 489.85 1870.7
1407.02 496.88 1897.6
1417.27 498.76 1904.7
1387.73 486.67 1858.6
1346.87 470.71 1797.6
1364.63 475.27 1815.0
1414.86 491.07 1875.4
1441.66 498.66 1904.3
1430.07 492.96 1882.6
1434.42 492.78 1881.9
1451.85 497.07 1898.3
1438.33 490.78 1874.3
1411.59 480.04 1833.2
1413.44 479.05 1829.5
1428.48 482.53 1842.8
1405.08 473.04 1806.5
1389.39 466.21 1780.4
1433.38 479.37 1830.7
1494.47 498.16 1902.4
1503.05 499.37 1907.1
1483.09 491.12 1875.6
1514.76 499.97 1909.4
1513.60 497.96 1901.7
1465.95 480.72 1835.8
1460.96 477.53 1823.7
1496.28 484.37 1849.8
1552.35 500.92 1913.0
1548.61 498.12 1902.3
1557.22 499.30 1906.8
1593.80 509.41 1945.4
1598.76 509.38 1945.3
1562.56 496.29 1895.3
1582.43 501.02 1913.4
1349.41 553.04 2133.1
1331.43 543.44 2096.1
1367.50 551.41 2126.9
1446.11 578.44 2231.1
1379.37 549.55 2119.7
1401.47 556.14 2145.1
1381.85 546.19 2106.7
1361.01 535.83 2066.8
1351.34 529.94 2044.0
1341.58 524.05 2021.4
1364.25 530.84 2047.5
1398.43 542.03 2090.7
1345.56 519.52 2003.9
1296.20 498.54 1922.9
1385.17 530.72 2047.1
1405.91 536.61 2069.8
1323.72 503.31 1941.4
1307.89 495.41 1910.9
1339.01 505.29 1949.0
1347.50 506.58 1954.0
1361.58 509.95 1967.0
1345.00 501.87 1935.8
1325.51 492.75 1900.6
1369.84 507.35 1956.9
1384.56 510.91 1970.6
1370.00 503.68 1942.8
1372.87 502.88 1939.7
1373.45 501.26 1933.4
1370.03 498.19 1921.6
1381.94 500.70 1931.3
1445.95 518.26 1999.0
1378.13 492.19 1898.4
1394.10 496.12 1913.6
1397.41 495.53 1911.3
1379.86 487.58 1880.7
1394.12 490.89 1893.4
1402.03 491.94 1897.5
1394.78 487.68 1881.1
1433.64 499.53 1926.7
1433.41 497.71 1919.7
1382.66 478.43 1845.4
1394.62 480.90 1854.9
1407.78 483.77 1866.0
1394.38 477.53 1841.9
1470.94 502.03 1936.4
1511.94 512.52 1976.9
1426.40 481.89 1858.7
1416.35 476.88 1839.4
1433.78 481.13 1855.8
1456.07 486.98 1878.3
1438.73 479.58 1849.8
1450.82 482.00 1859.1
1529.39 506.42 1953.3
1525.34 503.41 1941.7
1463.62 481.45 1857.0
1460.58 478.88 1847.1
1511.10 493.82 1904.7
1545.94 503.56 1942.3
1529.52 496.60 1915.5
1499.53 485.29 1871.8
1435.63 463.11 1786.3
1491.93 478.18 1844.4
1569.63 501.48 1934.3
1589.44 506.19 1952.5
1574.57 499.86 1928.0
1584.48 501.42 1934.0
1638.60 516.91 1993.8
1342.87 547.10 2131.5
1340.63 535.17 2085.1
1421.93 565.34 2202.6
1459.49 568.86 2216.3
1418.27 550.62 2145.3
1386.52 536.19 2089.1
1392.51 536.41 2089.9
1391.44 533.92 2080.2
1311.81 501.42 1953.6
1272.72 484.61 1888.1
1366.59 518.36 2019.6
1426.86 539.16 2100.6
1382.71 520.49 2027.9
1299.61 487.36 1898.8
1329.76 494.91 1928.2
1395.58 517.46 2016.1
1403.65 518.51 2020.2
1411.17 519.35 2023.4
1381.09 506.40 1973.0
1326.64 484.64 1888.2
1324.90 482.23 1878.8
1338.40 485.35 1891.0
1361.00 491.75 1915.9
1379.14 496.49 1934.4
1377.40 494.07 1924.9
1429.30 510.83 1990.3
1422.46 504.74 1966.5
1366.06 483.00 1881.8
1397.57 492.38 1918.4
1392.21 488.76 1904.2
1363.63 477.03 1858.6
1398.19 487.40 1898.9
1425.30 495.11 1929.0
1394.77 482.81 1881.1
1409.68 486.26 1894.5
1454.51 499.99 1948.0
1448.42 496.17 1933.1
1449.35 494.78 1927.7
1453.79 494.59 1927.0
1419.19 481.16 1874.7
1474.50 498.21 1941.1
1499.46 503.21 1960.6
1420.41 475.07 1850.9
1419.31 473.10 1843.3
1424.17 473.13 1843.4
1435.04 475.15 1851.2
1457.96 481.13 1874.5
1512.91 497.60 1938.7
1538.05 502.53 1957.9
1478.76 481.57 1876.3
1478.18 479.80 1869.4
1500.73 485.53 1891.7
1502.59 484.55 1887.8
1505.04 483.76 1884.8
1490.93 477.68 1861.1
1489.02 475.52 1852.7
1532.63 487.88 1900.8
1483.26 470.65 1833.7
1577.05 497.22 1937.2
1654.09 518.21 2019.0
1639.23 511.94 1994.6
1368.28 547.31 2154.1
1389.15 553.40 2178.1
1327.84 526.84 2073.6
1337.00 528.33 2079.4
1408.24 554.25 2181.4
1438.90 564.05 2220.0
1404.61 548.41 2158.5
1421.98 552.99 2176.5
1443.17 559.01 2200.2
1423.55 549.24 2161.7
1444.25 555.05 2184.6
1451.51 555.65 2187.0
1428.38 544.68 2143.8
1397.48 530.83 2089.3
1336.38 505.66 1990.2
1320.31 497.66 1958.7
1302.48 489.05 1924.8
1308.88 487.72 1919.6
1321.73 490.64 1931.1
1290.29 477.16 1878.0
1353.67 498.72 1962.9
1334.90 489.96 1928.4
1330.57 484.74 1907.9
1354.17 491.51 1934.5
1320.45 477.51 1879.4
1336.19 481.42 1894.8
1327.08 476.39 1875.0
1327.55 474.82 1868.8
1335.94 476.08 1873.8
1324.41 470.26 1850.9
1312.79 464.45 1828.0
1359.34 477.47 1879.3
1435.10 502.29 1976.9
1439.68 502.09 1976.2
1406.67 488.84 1924.0
1368.25 473.81 1864.9
1395.28 481.47 1895.0
1444.52 496.71 1955.0
1435.61 491.92 1936.1
1408.50 480.95 1893.0
1408.79 479.38 1886.8
1426.69 483.79 1904.1
1451.11 490.38 1930.1
1450.83 488.60 1923.0
1413.85 474.51 1867.6
1396.24 467.00 1838.1
1409.43 469.81 1849.1
1449.44 481.51 1895.2
1475.29 488.44 1922.4
1464.73 483.31 1902.3
1460.70 480.37 1890.7
1471.05 482.15 1897.7
1497.06 489.04 1924.8
1472.49 479.41 1886.9
1447.18 469.62 1848.3
1464.15 473.55 1863.8
1450.21 467.50 1840.0
1458.69 468.69 1844.7
1491.56 477.69 1880.1
1495.23 477.31 1878.6
1495.83 475.95 1873.3
1484.76 470.89 1853.4
1487.14 470.13 1850.4
1518.44 478.48 1883.2
1455.45 457.16 1799.3
1540.49 480.79 1892.3
1649.74 511.63 2013.7
1601.23 495.02 1948.3
1632.40 503.07 1980.0
1416.60 558.58 2221.1
1412.31 554.63 2205.5
1402.68 548.63 2181.6
1439.00 558.33 2220.2
1351.86 522.43 2077.4
1310.74 504.53 2006.2
1279.56 490.58 1950.8
1285.31 490.85 1951.8
1323.44 503.43 2001.8
1380.69 523.15 2080.3
1410.55 532.39 2117.0
1385.57 520.93 2071.5
1324.41 496.01 1972.4
1288.60 480.75 1911.7
1328.19 489.87 1947.9
1393.09 511.85 2035.4
1406.73 514.91 2047.5
1415.40 516.14 2052.4
1349.40 490.23 1949.4
1308.17 473.48 1882.8
1399.48 504.64 2006.7
1420.45 510.31 2029.2
1377.88 493.19 1961.1
1377.39 491.20 1953.2
1353.67 480.97 1912.6
1385.40 490.45 1950.3
1426.93 503.32 2001.4
1352.90 475.47 1890.7
1358.75 472.40 1878.5
1423.03 492.98 1960.3
1420.07 490.20 1949.3
1389.31 477.88 1900.3
1357.80 465.39 1850.6
1379.57 471.19 1873.7
1422.98 484.31 1925.8
1443.78 489.67 1947.2
1444.18 488.10 1940.9
1422.26 479.03 1904.8
1417.27 475.69 1891.6
1383.35 462.71 1839.9
1386.72 459.08 1825.5
1390.37 458.73 1824.1
1417.85 466.21 1853.8
1455.57 477.00 1896.7
1459.33 476.62 1895.2
1477.47 480.92 1912.4
1510.68 490.09 1948.8
1542.21 498.65 1982.8
1522.55 490.66 1951.1
1435.65 461.12 1833.6
1387.15 444.07 1765.8
1411.91 450.51 1791.4
1459.86 464.28 1846.2
1510.43 478.80 1903.9
1535.53 485.17 1929.2
1523.96 479.95 1908.5
1500.05 470.89 1872.5
1516.60 474.55 1887.0
1561.52 487.03 1936.7
1554.76 483.37 1922.1
1549.80 480.29 1909.8
1523.73 470.71 1871.7
1487.60 458.09 1821.5
1546.48 474.71 1887.7
1611.18 493.01 1960.4
1612.41 491.84 1955.8
1643.03 499.60 1986.6
1430.89 560.68 2252.7
1421.43 554.71 2228.7
1399.21 543.82 2185.0
1384.24 535.83 2152.9
1399.97 535.45 2151.3
1347.73 513.42 2062.8
1316.63 499.59 2007.3
1326.25 501.26 2014.0
1345.61 506.58 2035.4
1385.62 519.61 2087.7
1437.76 537.06 2157.8
1438.44 535.23 2150.5
1414.51 524.30 2106.6
1406.29 519.25 2086.3
1418.31 521.68 2096.0
1419.68 516.25 2074.2
1412.87 511.83 2056.5
1401.54 505.82 2032.3
1399.59 503.22 2021.9
1423.88 510.05 2049.3
1385.09 492.47 1978.7
1363.80 483.12 1941.1
1380.79 487.34 1958.0
1333.28 468.85 1883.8
1340.57 469.69 1887.1
1410.45 492.38 1978.3
1364.86 474.73 1907.4
1331.03 461.29 1853.4
1379.53 476.39 1914.1
1392.63 479.18 1925.3
1395.39 478.42 1922.2
1392.94 475.88 1912.0
1364.42 464.48 1866.2
1363.57 462.55 1858.5
1415.01 478.31 1921.8
1406.65 473.82 1903.7
1376.61 462.08 1856.6
1420.76 475.24 1909.4
1439.85 479.95 1928.4
1407.25 467.46 1878.2
1347.36 446.02 1792.1
1368.21 449.82 1807.3
1408.03 461.33 1853.6
1411.73 460.97 1852.1
1374.90 447.43 1797.7
1436.56 464.34 1865.7
1540.73 494.68 1987.6
1529.56 489.46 1966.6
1529.18 487.71 1959.6
1451.33 461.35 1853.6
1432.55 453.88 1823.6
1490.21 470.59 1890.8
1478.08 465.23 1869.2
1471.36 461.60 1854.7
1481.71 463.34 1861.6
1455.94 453.80 1823.3
1528.24 474.79 1907.7
1623.74 501.22 2013.8
1540.53 474.01 1904.5
1558.43 477.98 1920.5
1555.29 475.50 1910.5
1486.29 452.96 1819.9
1507.85 458.08 1840.5
1648.57 499.25 2005.9
1427.32 551.20 2238.0
1386.62 533.32 2165.3
1388.55 531.90 2159.6
1424.86 532.92 2163.7
1381.84 514.80 2090.2
1403.01 520.65 2113.9
1434.58 530.29 2153.1
1461.93 538.31 2185.6
1453.44 531.06 2156.2
1440.87 522.45 2121.2
1375.69 496.92 2017.6
1323.42 476.23 1933.6
1295.81 464.54 1886.1
1317.55 470.55 1910.5
1346.62 479.14 1945.4
1356.24 480.76 1951.9
1359.71 480.20 1949.7
1352.49 475.88 1932.1
1374.51 481.84 1956.3
1396.61 487.79 1980.5
1354.79 471.45 1914.1
1375.51 470.05 1908.5
1406.41 478.89 1944.3
1415.54 480.27 1950.0
1418.34 479.51 1946.9
1384.65 466.46 1893.9
1373.40 461.04 1871.9
1411.51 472.16 1917.0
1388.56 462.85 1879.3
1355.54 450.27 1828.2
1393.21 461.17 1872.4
1405.79 463.71 1882.8
1367.80 449.62 1825.5
1373.25 449.86 1826.5
1410.61 460.51 1869.7
1440.41 468.63 1902.7
1461.41 473.84 1923.8
1443.22 466.35 1893.4
1387.96 446.97 1814.8
1384.41 444.32 1804.0
1502.38 480.56 1951.1
1506.45 478.64 1943.3
1519.90 481.30 1954.2
1546.07 487.96 1981.2
1511.80 475.57 1930.9
1537.41 482.03 1957.1
1521.77 475.55 1930.8
1437.84 447.85 1818.3
1423.10 441.81 1793.8
1423.57 440.52 1788.6
1499.35 460.96 1871.6
1568.81 480.76 1952.0
1486.88 454.19 1844.1
1496.63 455.71 1850.2
1621.52 492.15 1998.2
1625.40 490.20 1990.3
1585.61 476.69 1935.4
1651.67 494.98 2009.7
1420.50 540.60 2218.3
1438.21 540.77 2218.9
1383.97 512.18 2101.6
1364.05 502.83 2063.3
1406.31 516.38 2118.9
1384.10 506.25 2077.3
1364.46 497.13 2039.9
1393.30 505.68 2075.0
1410.77 510.05 2092.9
1399.73 504.12 2068.6
1355.54 486.34 1995.6
1336.50 477.68 1960.1
1330.06 473.58 1943.3
1292.46 458.46 1881.2
1298.05 458.71 1882.2
1358.90 478.41 1963.1
1403.24 492.18 2019.6
1411.88 493.37 2024.5
1407.60 490.05 2010.9
1391.42 482.63 1980.4
1376.83 475.82 1952.4
1408.60 485.01 1990.2
1385.97 475.48 1951.1
1339.85 457.99 1879.3
1360.83 463.47 1901.8
1379.03 467.97 1920.3
1408.18 476.15 1953.8
1435.15 483.53 1984.1
1441.47 483.92 1985.7
1429.30 478.13 1961.9
1379.99 460.00 1887.5
1360.60 451.93 1854.4
1389.38 459.86 1887.0
1385.61 457.01 1875.3
1370.11 450.32 1847.8
1413.09 462.83 1899.1
1429.83 466.68 1914.9
1413.65 459.80 1886.7
1439.85 466.71 1915.1
1450.18 468.44 1922.2
1455.19 468.45 1922.2
1510.08 484.46 1987.9
1523.53 487.11 1998.8
1476.17 470.37 1930.1
1484.17 471.32 1934.0
1511.95 478.53 1963.6
1482.79 467.73 1919.2
1443.85 453.92 1862.6
1471.65 461.12 1892.1
1513.43 472.63 1939.4
1500.27 466.97 1916.1
1540.42 477.89 1960.9
1538.76 475.80 1952.4
1460.31 450.06 1846.8
1450.50 445.58 1828.4
1485.89 454.96 1866.9
1515.27 462.45 1897.6
1516.49 461.33 1893.0
1493.08 452.74 1857.7
1465.85 443.05 1818.0
1531.17 461.31 1892.9
1633.26 490.50 2012.7
1647.64 493.24 2023.9
1650.24 492.45 2020.7
1651.58 491.29 2015.9
1655.40 490.87 2014.2
1669.21 493.41 2024.6
1369.52 509.46 2113.0
1358.46 503.33 2087.6
1404.14 518.19 2149.2
1397.89 513.85 2131.2
1382.94 506.35 2100.1
1417.61 517.01 2144.3
1455.15 528.63 2192.5
1431.98 518.19 2149.2
1358.49 489.69 2031.0
1338.13 480.49 1992.8
1322.01 472.87 1961.2
1281.60 456.66 1894.0
1331.31 472.56 1959.9
1396.72 493.90 2048.4
1381.57 486.69 2018.5
1328.54 466.24 1933.7
1337.01 467.45 1938.7
1401.33 488.10 2024.4
1422.84 493.75 2047.8
1409.65 487.35 2021.3
1387.91 478.06 1982.7
1353.07 464.34 1925.8
1376.26 470.56 1951.6
1440.65 487.20 2020.6
1408.77 474.70 1968.8
1372.71 460.87 1911.5
1405.30 470.12 1949.8
1436.87 478.96 1986.5
1438.00 477.62 1980.9
1417.73 469.21 1946.0
1409.50 464.83 1927.9
1434.30 471.34 1954.9
1467.92 480.69 1993.7
1471.33 480.12 1991.3
1413.33 459.58 1906.1
1414.23 458.27 1900.7
1477.38 477.07 1978.6
1468.14 470.82 1952.7
1409.34 450.41 1868.0
1417.22 451.38 1872.1
1472.05 467.24 1937.8
1497.32 473.64 1964.4
1464.21 461.60 1914.5
1466.80 460.85 1911.4
1490.35 466.68 1935.5
1481.55 462.36 1917.6
1460.65 454.32 1884.3
1448.68 449.09 1862.6
1449.33 447.80 1857.2
1427.55 439.61 1823.3
1463.31 449.14 1862.8
1525.35 466.64 1935.4
1504.74 458.82 1902.9
1482.18 450.47 1868.3
1509.08 457.15 1896.0
1544.65 466.40 1934.4
1544.70 464.91 1928.2
1520.72 456.22 1892.1
1497.85 447.91 1857.7
1537.30 458.23 1900.5
1604.75 476.81 1977.6
1603.56 474.94 1969.8
1594.26 470.69 1952.2
1636.60 481.66 1997.7
1367.92 517.89 2171.3
1381.85 518.90 2175.5
1382.24 516.93 2167.3
1438.63 535.85 2246.6
1411.01 523.44 2194.5
1434.23 529.92 2221.7
1418.62 522.05 2188.7
1360.10 498.52 2090.1
1368.79 499.72 2095.1
1365.12 496.41 2081.2
1353.85 490.37 2055.9
1375.47 496.25 2080.5
1406.94 505.62 2119.8
1448.89 518.67 2174.5
1428.31 509.32 2135.3
1350.16 479.59 2010.7
1283.63 454.21 1904.3
1332.40 467.87 1961.6
1358.05 475.06 1991.7
1298.45 452.49 1897.1
1310.19 454.86 1907.0
1384.90 478.99 2008.2
1399.10 482.09 2021.2
1370.78 470.57 1972.9
1378.78 471.55 1977.0
1373.84 468.12 1962.6
1342.89 455.89 1911.3
1368.32 462.82 1940.4
1404.63 473.35 1984.6
1379.69 463.25 1942.2
1392.78 465.95 1953.5
1391.05 463.68 1944.0
1341.18 445.45 1867.6
1358.78 449.67 1885.3
1407.51 464.13 1945.9
1425.30 468.31 1963.4
1403.83 459.62 1927.0
1394.40 454.91 1907.2
1431.37 465.32 1950.9
1477.22 478.54 2006.3
1467.11 471.94 1978.6
1412.43 452.77 1898.2
1423.30 454.66 1906.2
1437.13 457.49 1918.1
1380.16 437.84 1835.7
1372.01 433.76 1818.6
1427.84 449.87 1886.1
1426.25 447.83 1877.6
1397.83 437.42 1833.9
1413.43 440.80 1848.1
1461.37 454.21 1904.3
1505.30 466.29 1954.9
1519.35 469.06 1966.6
1480.46 455.53 1909.8
1451.03 444.98 1865.6
1482.52 453.13 1899.8
1496.55 455.90 1911.4
1467.50 445.58 1868.1
1458.99 441.54 1851.2
1466.88 442.47 1855.1
1475.40 443.58 1859.7
1453.32 435.52 1825.9
1440.93 430.41 1804.5
1475.20 439.22 1841.4
1478.78 438.86 1840.0
1478.65 437.41 1833.9
1544.66 455.48 1909.6
1612.76 474.04 1987.4
1609.10 471.46 1976.6
1624.69 474.51 1989.4
1399.26 519.73 2202.9
1401.28 518.36 2197.1
1411.07 517.77 2194.6
1417.28 517.96 2195.4
1444.83 525.92 2229.2
1425.95 516.98 2191.3
1427.31 515.42 2184.7
1413.58 508.44 2155.1
1358.72 486.79 2063.3
1340.32 478.31 2027.4
1379.30 490.30 2078.2
1426.63 505.15 2141.1
1451.81 512.07 2170.5
1416.91 497.83 2110.1
1334.07 466.92 1979.1
1297.50 452.38 1917.5
1373.75 477.14 2022.4
1403.94 485.77 2059.0
1384.91 477.37 2023.4
1427.26 488.27 2069.6
1356.08 462.18 1959.0
1340.52 455.18 1929.3
1360.79 460.34 1951.2
1403.66 473.09 2005.2
1414.55 475.00 2013.3
1378.49 461.18 1954.8
1354.13 451.38 1913.2
1338.72 444.61 1884.5
1353.42 447.86 1898.3
1415.03 466.55 1977.5
1430.51 469.95 1991.9
1409.27 461.31 1955.3
1417.85 462.45 1960.2
1413.74 459.46 1947.5
1370.83 443.93 1881.7
1371.75 442.66 1876.3
1419.14 456.33 1934.2
1445.75 463.25 1963.5
1450.28 463.07 1962.8
1441.92 458.79 1944.7
1414.73 448.57 1901.3
1386.80 438.19 1857.3
1364.02 429.50 1820.5
1353.52 424.72 1800.2
1386.73 433.65 1838.1
1437.28 447.92 1898.6
1427.38 443.32 1879.1
1424.57 440.94 1869.0
1471.88 454.04 1924.5
1496.62 460.11 1950.2
1511.26 463.05 1962.7
1522.92 465.05 1971.2
1482.22 451.11 1912.1
1453.38 440.86 1868.6
1486.70 449.47 1905.1
1494.07 450.20 1908.2
1455.89 437.25 1853.3
1489.96 446.01 1890.5
1543.05 460.38 1951.4
1482.66 440.92 1868.9
1491.02 437.69 1855.2
1564.99 457.92 1941.0
1469.75 428.68 1817.0
1482.99 429.78 1821.7
1609.09 464.85 1970.3
1668.95 480.61 2037.1
1376.45 514.03 2203.0
1392.89 509.60 2184.0
1388.30 503.82 2159.2
1373.69 496.51 2127.9
1373.90 494.60 2119.7
1397.63 501.14 2147.7
1439.17 513.99 2202.8
1422.77 506.12 2169.1
1366.30 484.12 2074.8
1369.02 483.18 2070.8
1421.66 499.80 2142.0
1408.16 493.13 2113.4
1379.26 481.14 2062.0
1387.93 482.29 2067.0
1348.32 466.73 2000.3
1313.42 452.90 1941.0
1386.99 476.45 2041.9
1389.36 470.08 2014.6
1335.38 450.13 1929.1
1336.57 448.85 1923.6
1352.90 452.64 1939.9
1391.83 463.94 1988.3
1413.41 469.40 2011.7
1388.65 459.48 1969.2
1381.90 455.57 1952.4
1387.60 455.78 1953.3
1379.04 451.32 1934.2
1408.72 459.36 1968.7
1427.05 463.66 1987.1
1408.67 456.04 1954.5
1403.42 452.72 1940.2
1387.15 445.87 1910.9
1359.20 435.33 1865.7
1369.95 437.22 1873.8
1431.31 455.19 1950.8
1470.20 465.91 1996.7
1477.11 466.46 1999.1
1471.15 462.95 1984.1
1449.89 454.67 1948.6
1422.61 444.57 1905.3
1405.80 437.79 1876.2
1398.92 434.15 1860.6
1397.91 432.34 1852.9
1409.93 434.57 1862.4
1462.41 449.20 1925.2
1524.64 466.73 2000.3
1513.04 461.61 1978.3
1473.23 447.94 1919.8
1507.62 456.85 1957.9
1536.71 464.11 1989.0
1515.90 456.29 1955.5
1509.46 452.84 1940.7
1489.06 445.23 1908.1
1438.22 428.61 1836.9
1421.18 422.13 1809.1
1476.49 437.12 1873.4
1524.08 449.73 1927.4
1458.13 428.86 1838.0
1418.84 415.95 1782.6
1462.23 427.28 1831.2
1451.04 422.63 1811.3
1465.05 425.34 1822.9
1535.91 444.47 1904.9
1581.03 451.72 1936.0
1640.85 467.33 2002.8
1400.94 517.36 2242.2
1395.27 511.02 2214.7
1324.11 481.01 2084.6
1371.83 496.31 2150.9
1346.73 485.26 2103.0
1344.80 482.61 2091.6
1367.86 488.91 2118.9
1383.00 492.35 2133.8
1415.33 501.85 2175.0
1409.68 497.86 2157.7
1356.03 477.02 2067.4
1311.77 459.63 1992.0
1324.08 462.13 2002.8
1337.52 465.00 2015.2
1290.01 446.74 1936.1
1307.73 451.12 1955.1
1357.28 466.40 2021.3
1351.61 462.67 2005.1
1349.73 460.25 1994.7
1375.95 467.40 2025.7
1407.27 476.22 2063.9
1403.76 473.24 2051.0
1352.92 454.38 1969.2
1329.67 444.89 1928.1
1335.90 445.30 1929.9
1352.79 449.25 1947.0
1387.16 458.95 1989.0
1388.42 457.67 1983.5
1372.72 450.82 1953.8
1350.11 441.76 1914.5
1346.10 438.84 1901.9
1409.19 457.73 1983.7
1445.29 466.05 2019.8
1425.30 457.95 1984.7
1404.04 449.49 1948.0
1393.59 444.55 1926.6
1389.41 441.63 1914.0
1372.45 434.69 1883.9
1349.58 425.93 1845.9
1378.34 433.47 1878.6
1424.70 446.47 1935.0
1433.85 447.76 1940.5
1461.75 454.88 1971.4
1473.32 456.88 1980.1
1437.26 444.15 1924.9
1411.63 434.72 1884.0
1444.36 443.27 1921.1
1483.72 453.78 1966.6
1440.13 438.94 1902.3
1430.82 434.62 1883.6
1490.62 451.24 1955.6
1467.59 442.76 1918.9
1430.66 430.16 1864.3
1466.16 439.35 1904.1
1499.98 447.98 1941.5
1483.90 441.70 1914.3
1484.64 440.44 1908.8
1475.07 436.15 1890.2
1458.15 429.72 1862.4
1475.18 433.30 1877.9
1450.83 424.75 1840.8
1417.21 413.55 1792.3
1450.09 421.76 1827.8
1511.27 438.12 1898.8
1523.55 440.25 1908.0
1477.40 425.53 1844.2
1482.21 425.54 1844.2
1540.77 440.93 1910.9
1554.97 443.57 1922.4
1563.00 444.43 1926.1
1564.21 443.36 1921.5
1585.94 448.09 1942.0
1623.95 457.38 1982.2
1404.73 506.62 2220.6
1365.20 490.36 2149.3
1331.20 476.20 2087.2
1359.45 484.34 2122.9
1404.84 498.49 2184.9
1406.77 497.17 2179.2
1403.86 494.16 2166.0
1421.76 494.53 2167.6
1375.50 476.55 2088.8
1358.74 468.90 2055.2
1344.57 462.20 2025.9
1310.68 448.79 1967.1
1341.57 457.59 2005.7
1408.75 478.65 2098.0
1418.04 479.95 2103.7
1378.34 464.73 2037.0
1369.32 459.92 2015.9
1345.82 450.31 1973.8
1291.63 430.54 1887.1
1317.27 437.43 1917.3
1370.36 453.35 1987.1
1378.37 454.30 1991.2
1399.86 459.66 2014.7
1372.51 449.00 1968.0
1317.37 429.36 1882.0
1351.77 438.95 1924.0
1377.82 445.77 1953.8
1346.61 434.07 1902.6
1381.83 443.80 1945.2
1405.21 449.67 1970.9
1373.18 437.82 1919.0
1399.46 444.59 1948.7
1426.99 451.71 1979.9
1423.50 448.99 1968.0
1424.60 447.73 1962.5
1405.40 440.12 1929.1
1380.27 430.72 1887.9
1353.26 420.80 1844.4
1345.92 417.05 1828.0
1408.69 431.93 1893.2
1451.33 443.46 1943.7
1433.38 436.46 1913.1
1476.81 448.14 1964.2
1504.41 454.94 1994.1
1447.78 436.32 1912.4
1400.40 420.60 1843.5
1419.58 424.91 1862.4
1450.78 432.78 1896.9
1464.12 435.28 1907.9
1418.06 420.17 1841.6
1433.21 420.41 1842.7
1488.31 435.12 1907.2
1535.13 447.32 1960.7
1538.33 446.78 1958.3
1497.05 433.36 1899.4
1477.55 426.31 1868.6
1536.87 441.97 1937.2
1566.36 448.99 1968.0
1541.29 440.37 1930.2
1493.31 425.28 1864.0
1496.30 424.76 1861.8
1594.46 451.17 1977.5
1616.91 454.59 1992.5
1557.91 436.61 1913.7
1587.73 443.56 1944.2
1632.00 454.48 1992.0
1682.05 466.94 2046.7
1651.45 455.57 1996.8
1412.13 503.50 2232.3
1394.19 495.08 2194.9
1341.64 470.66 2086.7
1345.52 470.12 2084.3
1418.32 493.57 2188.3
1419.63 488.17 2164.3
1451.17 497.06 2203.7
1459.78 496.10 2199.4
1391.31 470.99 2088.1
1384.18 466.76 2069.4
1417.52 476.16 2111.0
1436.73 480.75 2131.4
1405.32 468.44 2076.8
1385.87 460.19 2040.3
1349.66 446.47 1979.4
1311.10 430.44 1908.3
1373.68 449.28 1991.9
1386.74 451.86 2003.3
1339.80 434.94 1928.3
1412.78 453.55 2010.8
1424.25 455.55 2019.7
1373.26 437.63 1940.2
1377.23 437.30 1938.7
1369.20 433.16 1920.4
1369.69 431.75 1914.2
1430.39 449.26 1991.8
1437.88 449.98 1995.0
1410.20 439.74 1949.6
1402.59 435.80 1932.1
1374.64 425.60 1886.9
1394.14 430.11 1906.9
1410.80 433.71 1922.8
1402.42 429.61 1904.7
1381.70 421.78 1870.0
1352.06 411.29 1823.5
1413.90 428.60 1900.2
1458.92 440.72 1953.9
1443.94 434.68 1927.2
1451.92 435.58 1931.1
1446.28 432.39 1917.0
1457.81 434.35 1925.7
1481.28 439.83 1950.0
1472.01 435.59 1931.2
1478.81 436.12 1933.6
1492.21 438.59 1944.5
1441.99 422.40 1872.7
1419.21 411.57 1824.7
1464.61 423.33 1876.8
1553.88 447.64 1984.6
1529.27 437.65 1940.3
1481.12 422.48 1873.1
1534.34 436.23 1934.0
1561.39 442.48 1961.7
1548.58 437.42 1939.3
1509.83 425.10 1884.7
1480.16 415.40 1841.7
1552.97 434.43 1926.1
1650.83 460.33 2040.9
1641.67 456.31 2023.1
1598.87 443.00 1964.0
1643.11 453.81 2012.0
1384.06 483.86 2170.1
1367.37 472.27 2118.1
1447.92 494.13 2216.2
1400.24 475.97 2134.8
1450.90 489.32 2194.6
1325.51 445.29 1997.1
1337.88 447.69 2007.9
1395.10 465.03 2085.7
1339.14 444.66 1994.3
1340.83 441.81 1981.5
1401.87 460.16 2063.8
1384.53 452.74 2030.5
1335.96 435.20 1951.9
1322.74 429.27 1925.3
1347.95 435.80 1954.6
1361.51 438.54 1966.9
1317.86 422.90 1896.7
1399.60 445.80 1999.4
1427.20 449.59 2016.5
1406.23 441.37 1979.6
1385.70 433.35 1943.6
1374.78 428.37 1921.3
1430.35 444.08 1991.7
1432.66 443.20 1987.8
1368.62 421.87 1892.1
1326.21 407.34 1826.9
1357.76 415.54 1863.7
1437.05 438.25 1965.6
1473.03 447.63 2007.7
1483.47 449.22 2014.8
1442.45 435.27 1952.2
1393.59 419.05 1879.5
1433.81 429.64 1927.0
1459.45 435.81 1954.6
1437.96 427.91 1919.2
1437.65 426.34 1912.1
1462.21 432.13 1938.1
1505.87 443.51 1989.2
1529.24 447.33 2006.3
1502.07 437.89 1964.0
1480.15 430.04 1928.8
1463.53 423.78 1900.7
1432.35 413.36 1854.0
1389.55 399.67 1792.5
1418.47 405.28 1817.7
1505.24 428.64 1922.5
1547.32 439.17 1969.7
1484.68 420.01 1883.8
1441.20 405.04 1816.6
1504.26 421.39 1890.0
1540.51 430.14 1929.2
1549.77 431.33 1934.5
1566.46 434.57 1949.1
1562.16 431.98 1937.5
1576.41 434.52 1948.9
1595.66 438.42 1966.4
1588.83 435.16 1951.7
1668.60 455.55 2043.2
1675.13 453.02 2031.8
1370.28 479.32 2175.0
1320.25 454.34 2061.7
1394.57 476.06 2160.3
1424.28 480.41 2180.0
1401.33 470.80 2136.4
1407.41 470.98 2137.2
1322.37 440.79 2000.2
1333.09 442.63 2008.6
1454.56 481.08 2183.1
1421.34 468.27 2124.9
1358.99 442.58 2008.4
1395.22 452.65 2054.0
1353.46 437.43 1985.0
1337.02 430.48 1953.4
1354.44 434.44 1971.4
1327.79 424.30 1925.4
1332.39 422.59 1917.6
1396.59 441.30 2002.5
1436.81 452.33 2052.6
1407.26 438.16 1988.3
1425.56 442.24 2006.8
1441.64 445.60 2022.0
1391.89 428.66 1945.2
1410.78 432.91 1964.5
1426.85 436.27 1979.7
1377.77 419.75 1904.8
1370.17 412.99 1874.1
1440.95 432.79 1963.9
1454.23 435.24 1975.1
1415.47 422.16 1915.7
1368.88 406.83 1846.1
1411.98 418.18 1897.6
1462.92 431.76 1959.3
1466.23 431.24 1956.9
1457.69 427.25 1938.8
1473.41 430.38 1953.0
1494.52 435.05 1974.2
1501.40 435.56 1976.5
1465.29 423.64 1922.4
1405.66 405.02 1837.9
1429.10 410.38 1862.2
1461.03 418.14 1897.4
1464.77 417.80 1895.9
1457.64 414.38 1880.4
1439.56 407.88 1850.9
1483.82 419.02 1901.4
1503.33 423.12 1920.1
1477.86 414.58 1881.3
1447.98 404.86 1837.2
1442.92 400.81 1818.8
1510.91 418.33 1898.3
1578.54 435.64 1976.8
1615.00 444.26 2015.9
1613.91 442.52 2008.1
1588.67 434.20 1970.3
1604.22 437.05 1983.2
1626.63 441.74 2004.5
1617.99 437.99 1987.5
1422.61 483.80 2221.5
1337.37 452.98 2080.0
1334.83 450.30 2067.7
1367.55 459.50 2109.9
1339.81 444.84 2042.6
1306.60 430.41 1976.4
1456.03 477.76 2193.8
1368.14 443.72 2037.5
1378.42 445.34 2044.9
1388.18 446.77 2051.5
1346.53 431.71 1982.3
1345.10 429.61 1972.7
1366.43 434.77 1996.4
1378.91 437.09 2007.0
1347.85 425.64 1954.5
1312.67 412.97 1896.3
1355.35 424.81 1950.7
1417.38 442.60 2032.3
1454.84 452.62 2078.3
1354.93 419.98 1928.5
1439.39 438.07 2011.6
1414.74 429.02 1970.0
1385.34 418.59 1922.1
1382.89 416.35 1911.8
1330.07 399.02 1832.2
1349.04 399.01 1832.2
1418.31 418.03 1919.5
1483.18 435.62 2000.3
1470.11 430.28 1975.8
1461.67 426.32 1957.6
1461.43 424.78 1950.5
1448.14 419.46 1926.1
1423.49 410.90 1886.8
1406.43 404.59 1857.8
1457.82 417.94 1919.1
1466.99 419.14 1924.6
1415.72 403.12 1851.1
1448.19 410.97 1887.1
1489.19 421.19 1934.0
1499.62 422.71 1941.0
1539.65 432.54 1986.2
1570.43 438.26 2012.4
1543.34 429.27 1971.2
1485.67 411.87 1891.2
1422.85 393.16 1805.3
1438.62 396.21 1819.3
1522.44 417.93 1919.0
1547.64 423.46 1944.5
1557.55 424.79 1950.5
1577.94 428.96 1969.7
1561.34 423.07 1942.7
1506.90 407.01 1868.9
1496.24 402.83 1849.7
1588.65 426.35 1957.7
1653.39 442.31 2031.0
1652.87 440.76 2023.9
1403.31 477.36 2218.3
1354.17 455.05 2114.7
1328.31 444.55 2065.9
1362.03 454.01 2109.9
1349.87 448.16 2082.7
1406.86 465.22 2161.9
1457.13 479.93 2230.3
1356.51 445.02 2068.1
1381.46 449.65 2089.6
1435.35 465.37 2162.6
1431.64 462.36 2148.7
1434.51 457.94 2128.1
1378.21 438.28 2036.8
1358.09 430.24 1999.4
1376.11 434.28 2018.2
1371.94 431.33 2004.5
1358.24 425.41 1976.9
1365.12 425.96 1979.5
1365.84 424.59 1973.1
1392.94 431.39 2004.8
1445.50 446.01 2072.7
1454.24 447.04 2077.5
1329.95 407.33 1892.9
1316.11 400.14 1859.5
1390.09 421.09 1956.9
1318.03 397.81 1848.7
1327.56 399.23 1855.3
1353.19 405.47 1884.3
1357.03 405.16 1882.8
1390.89 413.78 1922.9
1389.00 411.74 1913.4
1361.21 397.82 1848.7
1422.91 414.39 1925.7
1488.40 431.95 2007.3
1471.80 425.64 1978.0
1433.88 413.24 1920.4
1402.26 402.72 1871.5
1417.85 405.80 1885.8
1423.98 406.15 1887.5
1379.56 392.13 1822.3
1400.49 396.73 1843.6
1453.16 410.25 1906.5
1443.76 406.21 1887.7
1430.09 401.00 1863.5
1419.94 396.82 1844.1
1431.42 398.69 1852.8
1470.11 408.09 1896.5
1502.89 415.80 1932.3
1513.34 417.30 1939.3
1522.59 418.46 1944.6
1501.40 411.27 1911.3
1458.12 398.11 1850.1
1495.99 407.10 1891.9
1535.82 416.58 1935.9
1516.84 410.09 1905.8
1501.45 404.61 1880.3
1495.23 401.63 1866.4
1548.27 414.54 1926.4
1563.73 417.33 1939.4
1483.09 394.54 1833.5
1512.11 400.97 1863.4
1619.68 428.13 1989.6
1657.15 436.65 2029.2
1646.61 432.49 2009.9
1415.92 473.90 2229.1
1361.33 453.78 2134.5
1328.28 439.19 2065.9
1406.32 463.13 2178.5
1428.56 468.57 2204.1
1440.15 470.49 2213.1
1440.99 468.89 2205.6
1394.82 452.08 2126.5
1377.06 444.56 2091.2
1371.11 440.91 2074.0
1340.05 429.23 2019.0
1305.50 416.54 1959.3
1313.99 417.63 1964.4
1405.39 444.95 2093.0
1424.03 449.12 2112.6
1380.23 428.71 2016.6
1327.50 410.77 1932.2
1295.15 399.26 1878.0
1339.98 411.53 1935.8
1412.55 432.20 2033.0
1431.37 436.33 2052.4
1410.14 428.26 2014.5
1449.37 438.55 2062.9
1395.70 419.22 1971.9
1325.74 393.88 1852.7
1400.23 414.51 1949.8
1450.28 427.78 2012.2
1445.67 424.89 1998.6
1404.54 411.33 1934.8
1377.69 402.03 1891.1
1391.99 404.76 1903.9
1402.25 406.30 1911.2
1393.82 402.44 1893.0
1399.98 402.80 1894.7
1402.61 402.15 1891.6
1396.99 399.14 1877.5
1370.68 390.26 1835.7
1353.68 384.09 1806.7
1383.38 391.16 1840.0
1416.16 399.06 1877.1
1396.10 392.05 1844.2
1394.41 390.24 1835.6
1424.96 397.44 1869.5
1455.03 404.45 1902.5
1485.80 411.61 1936.1
1428.84 394.50 1855.6
1396.34 384.23 1807.3
1447.65 397.01 1867.5
1492.49 407.95 1918.9
1558.74 424.64 1997.4
1567.09 424.10 1994.9
1492.19 402.50 1893.3
1501.38 403.65 1898.7
1516.10 406.28 1911.1
1507.51 402.66 1894.0
1506.87 401.18 1887.1
1502.50 398.72 1875.5
1560.52 412.78 1941.7
1624.93 428.44 2015.3
1585.95 416.82 1960.7
1546.79 405.23 1906.1
1589.69 415.14 1952.8
1712.61 445.82 2097.1
1720.63 443.68 2087.0
1409.66 469.89 2237.6
1381.22 458.52 2183.4
1369.47 452.76 2156.0
1325.58 432.95 2061.7
1426.41 462.16 2200.8
1383.74 446.55 2126.4
1442.60 463.69 2208.1
1450.44 464.37 2211.3
1359.15 433.43 2064.0
1298.26 406.02 1933.4
1370.59 426.99 2033.3
1381.28 423.80 2018.1
1339.14 409.32 1949.1
1338.13 407.48 1940.4
1414.50 429.12 2043.4
1441.74 435.75 2075.0
1415.53 426.24 2029.7
1355.25 406.58 1936.1
1347.33 402.71 1917.7
1442.72 429.63 2045.9
1397.90 414.76 1975.1
1327.15 392.33 1868.3
1364.74 401.98 1914.2
1400.77 411.10 1957.6
1440.97 421.37 2006.5
1454.25 423.72 2017.7
1413.24 410.30 1953.8
1369.70 396.24 1886.8
1340.44 386.39 1839.9
1375.02 394.95 1880.7
1406.81 402.66 1917.4
1390.21 396.50 1888.1
1389.91 395.03 1881.1
1357.87 384.57 1831.3
1371.74 385.80 1837.1
1438.11 403.07 1919.4
1437.78 401.59 1912.3
1442.18 401.43 1911.6
1406.09 390.05 1857.4
1389.51 384.13 1829.2
1451.15 399.81 1903.8
1514.24 415.78 1979.9
1553.56 425.13 2024.4
1500.94 409.35 1949.3
1473.40 400.49 1907.1
1536.98 416.37 1982.7
1541.44 416.19 1981.9
1556.83 418.95 1995.0
1509.71 403.58 1921.8
1443.82 384.70 1831.9
1460.86 387.97 1847.5
1523.95 403.40 1921.0
1572.53 414.90 1975.7
1527.07 401.60 1912.4
1480.78 388.17 1848.4
1491.78 389.79 1856.1
1505.90 392.21 1867.7
1541.77 400.27 1906.0
1586.47 410.56 1955.0
1598.92 412.46 1964.1
1693.18 435.39 2073.3
1425.42 469.27 2262.6
1380.36 448.90 2164.3
1344.72 433.78 2091.4
1414.08 452.51 2181.7
1392.31 443.77 2139.6
1467.92 466.01 2246.8
1399.75 440.87 2125.6
1303.65 408.99 1971.9
1296.89 405.28 1954.0
1338.15 416.55 2008.3
1351.11 418.95 2019.9
1368.50 422.70 2038.0
1418.46 436.45 2104.3
1395.74 427.81 2062.7
1348.50 411.76 1985.3
1366.50 415.67 2004.1
1378.99 417.88 2014.8
1363.62 411.66 1984.8
1389.54 417.91 2014.9
1453.15 435.40 2099.3
1468.69 438.41 2113.8
1363.68 402.56 1940.9
1345.49 395.73 1908.0
1430.86 419.30 2021.6
1438.49 418.47 2017.6
1388.64 402.50 1940.6
1416.74 409.17 1972.8
1417.27 407.85 1966.4
1401.02 401.73 1936.9
1384.66 395.62 1907.4
1359.48 387.04 1866.1
1400.52 397.31 1915.6
1432.38 404.91 1952.3
1415.83 398.83 1922.9
1401.52 393.41 1896.8
1357.16 379.62 1830.3
1341.41 373.91 1802.8
1423.55 395.43 1906.5
1480.59 409.85 1976.1
1467.32 404.78 1951.6
1480.69 407.06 1962.6
1454.20 398.41 1920.9
1436.52 392.23 1891.1
1497.10 407.37 1964.1
1488.37 403.63 1946.1
1451.35 392.26 1891.2
1471.94 396.48 1911.6
1516.72 407.17 1963.2
1538.69 411.69 1984.9
1495.30 398.75 1922.5
1461.41 388.41 1872.7
1447.44 383.43 1848.7
1456.55 384.57 1854.2
1482.78 390.20 1881.3
1476.03 387.16 1866.6
1512.79 395.50 1906.9
1589.02 414.08 1996.4
1570.68 407.97 1967.0
1521.99 394.04 1899.8
1533.07 395.63 1907.5
1567.72 403.27 1944.4
1631.05 418.22 2016.4
1680.91 429.63 2071.4
1697.29 432.43 2084.9
1708.71 433.96 2092.3
1403.88 458.29 2237.6
1395.48 453.68 2215.1
1403.84 447.19 2183.4
1384.90 439.39 2145.3
1402.27 443.12 2163.5
1442.81 454.11 2217.2
1423.71 446.32 2179.2
1354.19 422.85 2064.6
1340.63 416.97 2035.8
1319.34 408.74 1995.6
1330.61 410.62 2004.8
1391.65 427.78 2088.6
1382.29 423.26 2066.5
1379.99 420.92 2055.1
1436.60 436.51 2131.2
1416.13 428.64 2092.8
1383.33 417.11 2036.5
1418.64 426.13 2080.6
1445.76 432.63 2112.3
1438.36 428.79 2093.6
1389.47 412.66 2014.8
1376.77 407.36 1988.9
1416.31 417.49 2038.4
1461.66 429.26 2095.8
1432.36 416.02 2031.2
1417.24 405.66 1980.6
1426.43 406.82 1986.3
1439.10 408.95 1996.7
1433.30 405.84 1981.5
1430.33 403.56 1970.4
1422.10 399.81 1952.0
1440.01 403.41 1969.6
1448.63 404.39 1974.4
1426.84 396.90 1937.9
1406.69 389.92 1903.8
1394.64 385.23 1880.9
1410.19 388.17 1895.2
1431.70 392.72 1917.5
1426.06 389.82 1903.3
1399.01 381.11 1860.8
1395.59 378.87 1849.8
1466.60 396.79 1937.3
1533.49 412.06 2011.9
1451.68 388.76 1898.1
1424.18 380.10 1855.8
1455.55 387.17 1890.3
1479.80 392.29 1915.4
1477.50 390.38 1906.0
1456.39 383.52 1872.5
1445.49 379.38 1852.3
1466.77 383.69 1873.4
1513.12 394.51 1926.2
1529.70 397.52 1940.9
1512.02 391.64 1912.2
1489.34 384.50 1877.3
1501.60 386.40 1886.6
1588.43 407.42 1989.2
1644.10 420.34 2052.3
1628.21 414.93 2025.9
1637.64 415.99 2031.1
1649.27 413.63 2019.5
1706.28 426.57 2082.7
1435.93 460.91 2279.2
1366.95 436.98 2160.9
1398.47 445.23 2201.7
1426.43 452.28 2236.6
1366.80 431.62 2134.4
1337.82 419.07 2072.3
1439.24 449.04 2220.5
1428.28 443.85 2194.8
1364.91 422.47 2089.1
1317.37 406.14 2008.4
1322.13 406.01 2007.7
1351.90 413.52 2044.9
1416.70 431.65 2134.5
1386.52 417.56 2064.9
1396.31 418.89 2071.5
1422.71 425.18 2102.5
1431.47 426.16 2107.4
1425.25 422.70 2090.3
1407.82 415.95 2056.9
1422.66 418.75 2070.7
1392.75 408.40 2019.6
1367.14 399.39 1975.0
1390.34 404.65 2001.0
1344.22 389.77 1927.5
1317.07 380.49 1881.5
1369.16 394.07 1948.7
1416.36 406.16 2008.5
1383.40 395.26 1954.6
1358.24 386.65 1912.0
1413.13 400.81 1982.0
1449.88 409.75 2026.2
1453.97 409.42 2024.6
1460.93 409.90 2027.0
1426.26 398.74 1971.8
1395.45 388.73 1922.3
1387.13 385.04 1904.0
1407.29 389.25 1924.9
1458.45 401.98 1987.8
1480.57 406.64 2010.8
1445.87 395.71 1956.8
1418.62 386.90 1913.2
1425.98 387.55 1916.5
1439.85 389.96 1928.4
1445.47 390.13 1929.2
1430.32 384.71 1902.4
1390.11 372.61 1842.6
1418.81 379.00 1874.2
1500.17 399.36 1974.9
1487.30 394.59 1951.3
1430.56 378.25 1870.5
1425.85 375.73 1858.0
1481.33 389.04 1923.8
1526.76 399.62 1976.1
1530.01 399.13 1973.7
1514.45 393.76 1947.2
1479.97 383.51 1896.5
1478.20 381.79 1888.0
1605.12 413.20 2043.3
1599.49 409.05 2022.8
1483.06 378.04 1869.4
1497.15 380.38 1881.0
1585.23 401.45 1985.2
1610.03 406.42 2009.7
1563.74 393.46 1945.7
1607.15 403.08 1993.3
1657.18 411.66 2035.7
1672.27 414.09 2047.7
1403.80 459.97 2304.1
1413.09 459.11 2299.8
1424.19 460.77 2308.1
1394.42 445.52 2231.7
1384.84 437.02 2189.1
1387.34 436.02 2184.2
1373.92 430.05 2154.2
1343.11 415.34 2080.5
1441.36 443.94 2223.8
1429.32 438.48 2196.5
1413.94 432.04 2164.2
1410.88 429.40 2151.0
1443.03 437.45 2191.3
1400.84 419.71 2102.4
1423.85 424.95 2128.7
1416.15 421.02 2109.0
1367.02 404.85 2028.0
1334.18 393.61 1971.7
1349.37 396.57 1986.5
1348.48 394.80 1977.7
1341.43 391.25 1959.9
1362.81 395.99 1983.6
1369.70 396.49 1986.1
1383.90 399.10 1999.2
1388.00 398.79 1997.7
1323.23 378.77 1897.4
1310.73 373.80 1872.5
1380.40 392.22 1964.7
1386.69 392.56 1966.4
1316.58 371.34 1860.2
1306.11 367.05 1838.6
1371.20 383.94 1923.2
1440.60 401.91 2013.3
1474.70 408.46 2046.1
1431.36 395.04 1978.8
1416.79 389.62 1951.7
1425.96 390.74 1957.3
1399.01 382.00 1913.5
1401.11 381.22 1909.6
1410.22 382.35 1915.3
1367.13 369.36 1850.3
1387.32 373.51 1871.0
1442.36 386.98 1938.5
1454.50 388.88 1948.0
1458.96 388.72 1947.2
1456.30 386.67 1937.0
1428.62 378.02 1893.6
1413.91 372.84 1867.7
1452.27 381.65 1911.8
1480.00 387.62 1941.7
1463.42 381.98 1913.4
1441.33 374.94 1878.2
1479.39 383.55 1921.3
1542.94 398.68 1997.1
1561.96 402.24 2015.0
1533.73 393.66 1971.9
1490.16 381.20 1909.6
1495.71 381.36 1910.3
1571.80 396.82 1987.8
1454.05 365.89 1832.8
1468.70 368.37 1845.3
1551.81 387.95 1943.4
1566.05 390.25 1954.8
1543.18 383.31 1920.1
1621.29 401.41 2010.8
1665.51 411.04 2059.0
1616.48 397.66 1992.0
1617.14 396.56 1986.5
1400.37 447.18 2269.5
1440.51 458.07 2324.8
1369.87 433.79 2201.6
1342.32 419.82 2130.7
1350.53 420.66 2134.9
1357.69 421.16 2137.5
1348.41 416.58 2114.2
1374.69 422.98 2146.7
1433.10 439.17 2228.9
1401.37 427.73 2170.8
1361.92 414.02 2101.2
1372.78 415.66 2109.6
1384.76 417.63 2119.5
1395.14 419.09 2127.0
1439.73 430.79 2186.3
1460.59 435.31 2209.3
1380.58 409.86 2080.1
1359.74 402.10 2040.7
1413.37 416.34 2113.0
1380.33 405.04 2055.7
1304.06 381.19 1934.6
1327.45 386.54 1961.8
1396.97 405.23 2056.6
1400.65 404.75 2054.2
1399.31 402.83 2044.4
1409.66 404.28 2051.8
1404.91 401.40 2037.2
1375.38 391.49 1986.9
1338.90 379.69 1927.0
1306.17 369.03 1872.9
1321.36 371.94 1887.7
1383.70 388.05 1969.4
1374.64 384.09 1949.3
1352.95 376.65 1911.6
1385.45 384.29 1950.3
1408.91 389.37 1976.1
1434.76 395.08 2005.1
1451.48 398.24 2021.1
1426.11 389.87 1978.7
1382.64 376.63 1911.5
1365.63 370.67 1881.2
1406.65 380.45 1930.8
1412.29 380.62 1931.7
1374.70 369.18 1873.6
1343.34 359.49 1824.5
1366.40 364.37 1849.3
1453.66 386.29 1960.5
1475.85 390.82 1983.5
1452.01 383.17 1944.7
1456.47 383.02 1943.9
1453.80 381.00 1933.6
1464.78 382.55 1941.5
1491.28 388.14 1969.9
1504.12 390.15 1980.1
1507.42 389.67 1977.7
1471.09 378.99 1923.5
1432.77 367.87 1867.0
1466.59 375.29 1904.7
1533.16 391.01 1984.4
1550.95 394.22 2000.7
1520.26 385.13 1954.6
1503.39 379.59 1926.5
1537.60 386.95 1963.8
1520.66 381.42 1935.8
1441.83 360.46 1829.4
1497.51 373.15 1893.8
1592.70 395.57 2007.6
1532.54 379.39 1925.5
1543.65 380.90 1933.1
1613.49 396.85 2014.1
1639.01 401.82 2039.3
1659.01 405.42 2057.6
1643.64 400.37 2032.0
1635.65 397.15 2015.6
1680.66 406.78 2064.5
1720.05 411.08 2086.3
1355.75 429.04 2206.5
1369.83 429.86 2210.7
1367.23 427.26 2197.3
1308.11 407.09 2093.6
1321.76 407.95 2098.0
1324.10 407.00 2093.1
1324.84 405.56 2085.7
1357.91 414.00 2129.1
1425.20 432.75 2225.6
1365.07 409.52 2106.1
1317.81 393.77 2025.1
1362.02 405.36 2084.7
1402.12 415.65 2137.6
1366.40 403.46 2075.0
1313.57 386.34 1986.9
1324.29 387.97 1995.3
1385.39 404.30 2079.2
1408.36 409.41 2105.5
1348.33 390.44 2008.0
1295.12 373.59 1921.3
1342.29 385.71 1983.7
1429.06 409.08 2103.9
1442.16 409.71 2107.1
1442.57 408.27 2099.7
1408.74 397.20 2042.8
1350.55 379.37 1951.0
1337.66 374.35 1925.2
1328.07 370.28 1904.3
1324.63 367.95 1892.3
1365.99 378.04 1944.2
1369.97 377.75 1942.7
1359.11 373.38 1920.2
1350.45 369.65 1901.0
1333.69 363.73 1870.6
1370.85 372.51 1915.8
1396.64 378.15 1944.8
1393.07 375.83 1932.8
1368.04 367.75 1891.3
1335.89 357.83 1840.3
1362.32 363.61 1870.0
1385.34 368.44 1894.8
1365.20 361.80 1860.7
1395.91 368.64 1895.8
1486.61 391.21 2012.0
1508.04 392.72 2019.7
1516.77 393.63 2024.4
1492.86 386.08 1985.6
1481.31 381.78 1963.4
1501.89 385.76 1983.9
1511.77 386.97 1990.1
1526.46 389.40 2002.6
1499.16 381.14 1960.2
1538.51 389.82 2004.8
1538.11 385.81 1984.2
1542.57 385.64 1983.3
1559.19 388.50 1998.0
1553.92 385.91 1984.7
1494.86 370.02 1902.9
1509.61 371.22 1909.1
1647.87 403.89 2077.1
1617.97 395.27 2032.8
1530.55 372.70 1916.7
1508.90 366.24 1883.5
1574.46 380.92 1959.0
1629.10 392.87 2020.5
1646.62 395.82 2035.7
1674.77 401.30 2063.8
1636.28 387.13 1991.0
1618.64 381.76 1963.3
1398.77 434.91 2266.9
1456.60 451.00 2350.8
1461.29 448.69 2338.8
1389.47 421.40 2196.5
1397.81 422.19 2200.6
1355.34 401.18 2091.1
1336.57 394.05 2053.9
1404.07 412.31 2149.1
1385.27 405.18 2111.9
1295.18 377.34 1966.8
1288.42 373.90 1948.9
1344.94 388.77 2026.4
1362.31 392.26 2044.6
1343.50 385.35 2008.6
1317.96 376.56 1962.8
1301.07 370.31 1930.2
1326.69 376.15 1960.6
1390.69 392.79 2047.4
1411.61 397.18 2070.3
1392.99 390.46 2035.2
1411.16 394.06 2054.0
1397.43 388.76 2026.4
1365.05 378.33 1972.0
1377.56 380.37 1982.6
1389.53 382.25 1992.4
1406.07 385.37 2008.7
1434.02 391.58 2041.0
1423.94 387.39 2019.2
1401.21 379.82 1979.7
1377.20 371.95 1938.7
1337.56 359.93 1876.1
1354.04 363.04 1892.3
1391.90 371.84 1938.2
1400.45 372.78 1943.1
1425.81 378.17 1971.2
1443.71 381.55 1988.8
1405.81 370.21 1929.7
1366.54 358.60 1869.1
1347.52 352.35 1836.6
1377.01 358.80 1870.2
1430.11 371.33 1935.5
1449.29 374.99 1954.6
1481.50 381.99 1991.1
1505.56 386.84 2016.4
1484.15 377.41 1967.2
1452.83 368.18 1919.1
1473.37 372.11 1939.6
1499.37 377.39 1967.1
1491.22 374.07 1949.8
1549.21 387.30 2018.8
1546.45 382.73 1994.9
1557.61 384.21 2002.6
1553.59 381.94 1990.8
1526.35 374.01 1949.5
1531.36 373.99 1949.4
1530.85 372.64 1942.3
1472.65 357.30 1862.4
1460.91 353.29 1841.5
1521.76 366.81 1911.9
1526.07 366.65 1911.1
1499.45 359.09 1871.7
1565.02 373.59 1947.3
1628.96 387.60 2020.3
1657.06 393.02 2048.6
1656.57 391.65 2041.4
1664.17 392.19 2044.2
1728.09 405.96 2116.0
1713.24 401.20 2091.2
1684.49 393.23 2049.6
1736.79 404.16 2106.6
1437.25 423.06 2235.4
1385.14 406.09 2145.7
1332.16 388.99 2055.3
1361.81 396.06 2092.7
1405.63 407.19 2151.5
1363.52 393.43 2078.8
1288.55 370.33 1956.7
1298.66 371.77 1964.4
1345.39 383.65 2027.1
1352.90 384.29 2030.5
1351.64 382.44 2020.7
1341.52 378.11 1997.9
1306.47 366.82 1938.2
1314.94 367.78 1943.3
1337.31 372.61 1968.8
1314.67 364.91 1928.1
1287.42 355.99 1881.0
1298.05 357.58 1889.3
1363.67 374.24 1977.4
1409.92 385.48 2036.8
1412.40 384.72 2032.8
1414.86 383.96 2028.7
1413.89 382.28 2019.8
1426.53 384.27 2030.4
1453.44 390.08 2061.1
1449.76 386.25 2040.9
1415.45 375.74 1985.3
1409.69 372.85 1970.1
1423.48 375.14 1982.2
1404.94 368.92 1949.3
1404.25 367.42 1941.4
1416.88 369.40 1951.8
1375.99 357.46 1888.7
1343.63 347.82 1837.8
1327.47 342.42 1809.3
1347.55 346.38 1830.2
1390.02 356.04 1881.2
1348.46 344.19 1818.6
1384.17 350.85 1853.8
1475.03 372.59 1968.7
1465.26 368.84 1948.9
1382.77 346.88 1832.8
1411.11 350.38 1851.3
1495.88 370.17 1955.9
1440.11 355.16 1876.6
1443.21 354.73 1874.3
1501.31 367.77 1943.2
1527.53 372.94 1970.5
1566.58 381.20 2014.2
1592.39 386.19 2040.6
1544.49 373.34 1972.6
1525.09 367.43 1941.4
1524.57 366.10 1934.4
1470.02 351.84 1859.0
1476.10 352.14 1860.6
1556.10 370.02 1955.1
1606.15 380.68 2011.4
1623.60 383.57 2026.7
1607.00 378.42 1999.5
1586.59 372.42 1967.8
1647.59 385.49 2036.9
1682.61 392.43 2073.5
1630.92 379.16 2003.4
1634.08 378.69 2000.9
1716.24 396.47 2094.9
1382.17 411.23 2203.0
1355.77 401.71 2152.0
1379.33 407.02 2180.4
1408.82 414.02 2218.0
1389.05 406.55 2178.0
1343.55 391.64 2098.1
1327.67 385.45 2064.9
1347.19 384.91 2062.0
1359.10 386.78 2072.0
1335.17 378.47 2027.5
1345.41 379.88 2035.1
1393.92 392.04 2100.2
1370.88 384.06 2057.5
1338.90 373.65 2001.7
1349.13 375.05 2009.2
1333.97 369.41 1979.0
1306.51 360.42 1930.8
1298.87 356.94 1912.2
1289.49 353.02 1891.2
1320.90 357.54 1915.4
1373.81 370.46 1984.6
1385.21 372.15 1993.6
1400.04 374.73 2007.5
1410.95 376.25 2015.6
1427.56 379.28 2031.8
1439.23 379.58 2033.5
1383.24 363.48 1947.2
1405.56 368.00 1971.4
1457.31 380.17 2036.6
1461.99 380.01 2035.8
1434.87 371.62 1990.8
1336.89 345.00 1848.2
1337.24 340.22 1822.6
1398.98 354.67 1900.0
1404.55 354.83 1900.9
1365.66 341.41 1829.0
1413.21 352.08 1886.1
1361.10 337.93 1810.3
1496.33 365.21 1956.5
1474.87 358.75 1921.9
1444.85 350.27 1876.4
1469.71 355.10 1902.3
1453.43 349.99 1875.0
1449.82 347.96 1864.1
1551.47 371.12 1988.1
1585.20 377.93 2024.6
1540.82 366.14 1961.4
1515.22 358.87 1922.5
1496.84 353.35 1893.0
1539.87 362.32 1941.0
1578.12 370.11 1982.7
1572.04 367.49 1968.7
1588.18 370.06 1982.5
1576.47 366.15 1961.5
1579.60 365.69 1959.1
1655.53 382.05 2046.7
1713.03 394.05 2111.0
1686.37 386.68 2071.5
1660.85 379.62 2033.7
1409.38 415.21 2255.7
1319.63 387.16 2103.3
1301.97 380.41 2066.6
1339.65 389.82 2117.7
1383.33 400.88 2177.8
1373.57 396.44 2153.7
1337.60 384.49 2088.8
1345.75 385.28 2093.0
1324.43 377.65 2051.6
1329.80 374.66 2035.4
1321.60 370.88 2014.9
1332.35 372.43 2023.3
1374.74 382.77 2079.4
1415.69 392.63 2133.0
1386.13 382.94 2080.3
1320.10 363.28 1973.6
1301.07 356.66 1937.6
1338.82 365.60 1986.2
1364.00 371.05 2015.8
1365.95 370.16 2010.9
1371.21 370.18 2011.0
1344.09 361.48 1963.8
1323.52 354.60 1926.4
1340.41 357.78 1943.7
1363.55 362.59 1969.8
1368.73 362.61 1969.9
1376.73 363.37 1974.1
1411.39 371.14 2016.3
1452.45 380.53 2067.3
1454.93 379.78 2063.2
1402.55 364.77 1981.6
1376.22 356.61 1937.3
1427.82 368.64 2002.7
1472.15 378.71 2057.4
1466.48 375.89 2042.0
1480.42 378.09 2054.0
1424.25 362.44 1969.0
1324.21 335.78 1824.2
1346.55 340.23 1848.3
1389.41 349.82 1900.4
1426.01 357.76 1943.6
1460.99 365.25 1984.2
1430.85 356.46 1936.5
1384.04 343.59 1866.6
1389.56 343.76 1867.5
1389.75 342.61 1861.3
1362.62 334.76 1818.6
1401.94 343.23 1864.6
1489.08 363.31 1973.7
1553.28 377.68 2051.8
1546.53 374.76 2035.9
1467.13 354.31 1924.8
1430.65 344.33 1870.6
1478.32 354.60 1926.4
1512.89 361.67 1964.8
1576.01 375.49 2039.9
1598.76 379.64 2062.4
1476.98 349.55 1899.0
1463.03 345.10 1874.8
1548.45 364.04 1977.7
1560.83 365.74 1986.9
1575.08 367.86 1998.5
1595.50 371.41 2017.7
1605.52 372.52 2023.8
1611.24 372.63 2024.4
1603.37 369.61 2007.9
1618.35 371.85 2020.1
1605.45 367.70 1997.6
1611.74 367.95 1998.9
1624.87 369.76 2008.8
1613.71 366.05 1988.6
1454.16 424.13 2337.0
1377.38 400.07 2204.5
1330.57 384.88 2120.7
1312.42 378.06 2083.2
1348.02 386.73 2130.9
1392.27 397.79 2191.9
1381.47 393.10 2166.1
1375.36 389.78 2147.8
1414.09 399.14 2199.3
1415.47 397.92 2192.6
1366.82 382.71 2108.8
1338.89 373.40 2057.5
1328.61 369.06 2033.6
1339.38 370.58 2042.0
1373.02 378.39 2085.0
1398.08 383.79 2114.7
1419.97 388.27 2139.5
1405.21 382.74 2109.0
1355.70 367.83 2026.8
1326.84 358.61 1976.0
1354.72 364.73 2009.8
1368.86 367.13 2023.0
1359.71 363.28 2001.8
1377.78 366.71 2020.6
1364.07 361.68 1993.0
1353.61 357.56 1970.2
1381.26 363.49 2002.9
1395.50 365.86 2016.0
1388.91 362.77 1999.0
1389.04 361.46 1991.7
1416.37 367.21 2023.4
1423.33 367.65 2025.8
1389.82 357.68 1970.9
1366.98 350.51 1931.4
1369.77 349.94 1928.3
1411.60 359.32 1979.9
1443.24 366.04 2017.0
1458.31 365.89 2016.1
1342.05 335.51 1848.7
1411.05 351.51 1936.9
1504.29 373.40 2057.5
1404.78 347.47 1914.6
1397.17 343.16 1890.9
