ply
format ascii 1.0
element vertex 2177
property float x
property float y
property float z
end_header
-591.90 790.95 2020.4
-630.09 849.50 2170.0
-638.05 867.97 2217.1
-607.52 833.97 2130.3
-600.33 831.64 2124.3
-589.87 824.73 2106.7
-563.24 794.86 2030.4
-558.80 796.03 2033.4
-565.40 813.10 2077.0
-579.33 841.14 2148.6
-579.15 849.05 2168.8
-563.81 834.66 2132.0
-567.83 848.94 2168.5
-560.64 846.57 2162.5
-524.70 808.47 2065.2
-551.55 858.60 2193.2
-571.89 899.54 2297.8
-551.04 875.86 2237.3
-516.09 829.03 2117.7
-528.17 857.56 2190.6
-556.58 913.52 2333.5
-551.03 914.34 2335.6
-541.00 907.68 2318.6
-529.79 898.86 2296.1
-503.73 864.36 2207.9
-502.98 872.99 2230.0
-786.37 842.54 2166.5
-793.11 855.87 2200.8
-790.50 859.24 2209.5
-788.49 863.30 2219.9
-738.96 815.03 2095.8
-722.27 802.52 2063.6
-720.82 806.88 2074.8
-713.49 804.69 2069.2
-719.57 817.69 2102.6
-714.01 817.57 2102.3
-706.95 815.71 2097.5
-726.70 845.00 2172.8
-724.51 849.04 2183.2
-678.27 801.10 2060.0
-686.78 817.60 2102.4
-714.75 857.70 2205.5
-662.15 800.98 2059.7
-666.18 819.08 2106.2
-679.23 849.04 2183.2
-644.16 811.96 2087.9
-647.93 823.64 2117.9
-646.92 829.39 2132.7
-642.07 830.26 2135.0
-659.69 860.46 2212.6
-642.94 845.97 2175.4
-600.82 797.54 2050.8
-610.49 817.63 2102.5
-638.31 862.58 2218.1
-629.09 857.85 2205.9
-617.37 849.60 2184.7
-602.73 837.12 2152.6
-576.22 807.79 2077.2
-571.92 809.31 2081.1
-569.80 814.00 2093.1
-573.71 827.47 2127.8
-579.15 843.42 2168.8
-569.54 837.56 2153.7
-573.28 851.41 2189.3
-564.16 846.24 2176.1
-535.10 810.75 2084.8
-536.43 821.07 2111.3
-541.97 838.10 2155.1
-539.38 842.78 2167.2
-555.75 877.49 2256.4
-557.49 889.62 2287.6
-536.28 864.97 2224.2
-531.01 865.77 2226.3
-537.53 886.04 2278.4
-539.54 899.23 2312.3
-534.44 900.75 2316.2
-513.31 874.96 2249.9
-502.17 865.81 2226.4
-515.35 898.87 2311.4
-517.85 913.86 2349.9
-510.02 910.74 2341.9
-831.08 859.94 2226.1
-797.16 830.61 2150.2
-764.27 807.63 2090.7
-787.95 838.60 2170.9
-755.17 809.50 2095.5
-760.10 820.69 2124.5
-763.32 830.18 2149.1
-738.29 808.87 2093.9
-744.56 821.78 2127.3
-742.35 825.45 2136.8
-733.96 822.26 2128.6
-733.52 827.99 2143.4
-721.82 821.01 2125.3
-698.52 800.61 2072.5
-705.24 814.58 2108.7
-720.06 838.20 2169.8
-691.43 811.21 2100.0
-669.26 791.42 2048.7
-667.00 795.06 2058.2
-650.61 781.78 2023.8
-648.36 785.41 2033.2
-661.91 808.39 2092.7
-675.17 831.40 2152.2
-676.15 839.56 2173.3
-664.31 831.79 2153.2
-670.68 846.87 2192.3
-670.59 854.00 2210.7
-648.80 833.38 2157.3
-647.10 838.41 2170.4
-649.55 856.48 2217.2
-645.24 858.40 2222.1
-615.86 849.66 2199.5
-585.96 815.97 2112.3
-593.49 834.25 2159.6
-603.49 856.39 2216.9
-583.70 836.26 2164.8
-566.57 819.60 2121.7
-553.72 808.87 2093.9
-554.30 817.72 2116.8
-571.44 851.45 2204.1
-567.90 854.72 2212.6
-554.40 842.92 2182.1
-544.02 835.66 2163.2
-525.58 815.74 2111.7
-526.65 826.01 2138.3
-538.89 854.20 2211.3
-528.39 846.56 2191.5
-505.39 818.51 2118.9
-488.34 826.85 2140.5
-511.03 875.21 2265.7
-511.71 886.57 2295.1
-502.18 880.29 2278.8
-498.50 884.24 2289.0
-817.90 840.62 2190.8
-824.61 853.44 2224.2
-809.37 843.57 2198.5
-765.83 803.85 2095.0
-755.63 810.38 2112.0
-780.60 843.27 2197.7
-774.83 843.20 2197.5
-764.10 837.68 2183.1
-746.94 824.98 2150.1
-738.83 822.16 2142.7
-737.44 826.83 2154.9
-739.62 835.61 2177.7
-728.48 829.35 2161.4
-712.65 817.61 2130.8
-705.54 815.78 2126.1
-697.86 813.26 2119.5
-698.09 819.97 2137.0
-684.90 810.93 2113.4
-654.01 780.59 2034.4
-649.16 781.11 2035.7
-659.89 800.52 2086.3
-664.46 812.73 2118.1
-656.33 809.48 2109.6
-651.84 810.69 2112.8
-665.18 834.29 2174.3
-666.50 843.09 2197.2
-645.81 823.97 2147.4
-637.16 820.00 2137.1
-644.51 836.74 2180.7
-616.59 837.21 2181.9
-573.62 786.07 2048.6
-571.36 797.75 2079.1
-583.54 822.52 2143.6
-566.84 806.66 2102.3
-571.15 820.68 2138.8
-581.50 843.75 2199.0
-564.01 826.47 2153.9
-562.97 833.20 2171.5
-578.86 865.36 2255.3
-568.01 866.65 2258.7
-543.89 838.50 2185.3
-531.79 828.48 2159.2
-530.46 835.20 2176.7
-533.66 849.27 2213.3
-524.06 843.06 2197.2
-513.26 834.74 2175.5
-503.40 827.82 2157.4
-499.32 830.33 2164.0
-527.29 886.80 2311.2
-528.35 898.81 2342.5
-507.05 872.59 2274.1
-513.28 893.71 2329.2
-496.16 884.72 2305.7
-819.95 831.26 2181.1
-816.88 833.90 2188.1
-809.02 837.51 2197.6
-755.45 793.22 2081.3
-788.90 834.31 2189.1
-779.04 829.85 2177.5
-764.19 819.98 2151.5
-765.11 826.99 2170.0
-757.23 824.54 2163.5
-721.28 791.26 2076.2
-697.70 771.14 2023.4
-722.49 804.59 2111.2
-751.70 843.51 2213.3
-745.58 843.08 2212.2
-733.50 835.84 2193.2
-709.65 814.99 2138.5
-685.77 793.76 2082.8
-688.71 803.50 2108.3
-675.59 794.50 2084.7
-657.11 779.00 2044.0
-661.67 790.78 2074.9
-670.33 807.70 2119.3
-674.56 819.50 2150.3
-662.16 811.15 2128.4
-653.47 807.22 2118.1
-647.02 806.03 2114.9
-629.40 790.78 2074.9
-629.83 798.14 2094.2
-643.84 823.00 2159.5
-635.45 819.39 2150.0
-633.17 823.68 2161.3
-628.48 824.87 2164.4
-607.40 804.40 2110.7
-602.04 804.54 2111.0
-584.67 788.50 2068.9
-574.59 782.08 2052.1
-585.91 804.95 2112.1
-575.31 797.83 2093.4
-558.62 782.07 2052.1
-559.73 791.16 2075.9
-581.05 829.27 2175.9
-545.60 826.83 2169.5
-535.05 819.30 2149.8
-536.04 829.45 2176.4
-535.56 837.53 2197.6
-539.15 852.21 2236.1
-530.80 848.13 2225.4
-521.43 842.31 2210.1
-532.15 869.18 2280.6
-512.09 865.25 2270.3
-505.02 863.23 2265.0
-524.80 907.59 2381.4
-515.68 902.44 2367.9
-474.47 861.07 2259.4
-851.78 845.98 2235.0
-820.15 831.54 2196.8
-831.77 849.22 2243.5
-783.28 805.34 2127.6
-760.22 787.18 2079.6
-811.00 845.76 2234.4
-779.96 825.18 2180.0
-774.56 825.44 2180.7
-785.43 843.19 2227.6
-753.05 820.49 2167.6
-725.25 796.14 2103.3
-747.74 827.05 2185.0
-751.58 844.08 2229.9
-726.31 822.02 2171.7
-690.94 788.11 2082.1
-674.54 775.45 2048.6
-681.07 789.18 2084.9
-676.42 790.05 2087.2
-666.27 784.48 2072.5
-665.34 789.75 2086.4
-668.31 799.78 2112.9
-678.19 818.31 2161.9
-672.18 817.82 2160.6
-658.70 808.15 2135.0
-647.26 800.84 2115.7
-632.90 789.78 2086.5
-636.83 801.52 2117.5
-642.48 815.67 2154.9
-626.37 802.19 2119.3
-605.67 782.54 2067.4
-586.26 764.23 2019.0
-572.11 759.35 2006.1
-571.85 765.97 2023.6
-580.12 784.23 2071.8
-590.66 805.94 2129.2
-577.76 795.79 2102.4
-562.53 782.18 2066.4
-566.05 794.65 2099.4
-572.80 811.93 2145.0
-578.13 827.52 2186.2
-583.01 842.77 2226.5
-549.52 818.68 2162.8
-531.62 800.17 2114.0
-536.40 815.77 2155.2
-538.05 826.90 2184.6
-538.67 836.66 2210.3
-532.56 836.06 2208.8
-515.78 818.52 2162.4
-510.01 818.25 2161.7
-523.21 848.76 2242.3
-528.20 866.49 2289.2
-514.18 853.07 2253.7
-513.13 861.11 2274.9
-525.43 902.51 2384.3
-485.17 843.28 2227.8
-478.94 852.75 2252.9
-492.40 887.53 2344.8
-828.90 817.63 2175.0
-822.20 822.20 2187.1
-821.76 827.47 2201.2
-781.92 792.86 2109.1
-790.72 807.42 2147.8
-803.22 837.90 2228.9
-740.55 778.12 2069.9
-742.16 791.28 2104.9
-771.48 828.63 2204.2
-728.28 788.06 2096.3
-717.51 788.18 2096.6
-740.45 819.58 2180.2
-719.67 802.71 2135.3
-691.03 776.73 2066.2
-676.95 766.85 2039.9
-677.71 773.77 2058.3
-691.84 796.17 2117.9
-696.10 807.48 2148.0
-669.96 783.43 2084.0
-653.85 770.80 2050.4
-658.90 783.12 2083.2
-670.27 803.22 2136.6
-667.68 806.78 2146.1
-656.44 799.87 2127.7
-648.04 796.33 2118.3
-636.96 789.39 2099.9
-615.38 769.23 2046.2
-596.22 751.75 1999.7
-582.53 754.17 2006.2
-587.57 767.54 2041.7
-587.27 774.13 2059.3
-587.65 781.74 2079.5
-587.93 789.36 2099.8
-589.37 798.68 2124.6
-583.96 798.81 2124.9
-575.57 794.84 2114.4
-554.03 772.44 2054.8
-551.68 784.25 2086.2
-563.96 809.65 2153.7
-556.09 806.34 2144.9
-539.16 789.68 2100.6
-540.95 800.38 2129.1
-552.90 826.50 2198.6
-547.04 826.26 2197.9
-538.71 822.25 2187.3
-538.22 830.23 2208.5
-530.57 827.23 2200.5
-518.60 817.36 2174.3
-517.97 825.34 2195.5
-521.29 839.85 2234.1
-517.87 843.71 2244.4
-516.90 851.71 2265.6
-528.21 880.36 2341.8
-503.85 859.50 2286.4
-488.57 843.36 2243.4
-493.64 862.39 2294.0
-832.95 832.95 2231.1
-789.41 794.93 2129.3
-794.91 806.10 2159.2
-792.17 809.02 2167.0
-766.85 788.76 2112.8
-774.73 802.60 2149.8
-748.75 781.30 2092.8
-740.22 783.77 2099.4
-758.37 808.93 2166.8
-709.96 762.94 2043.6
-704.03 773.90 2072.9
-688.61 762.77 2043.1
-686.48 790.82 2118.3
-690.67 802.07 2148.4
-674.40 789.54 2114.8
-680.16 802.81 2150.4
-676.15 804.68 2155.4
-658.69 790.43 2117.2
-638.63 772.80 2070.0
-621.55 758.51 2031.7
-621.88 765.39 2050.1
-611.26 758.80 2032.5
-603.68 755.91 2024.8
-611.08 771.89 2067.6
-586.78 747.75 2002.9
-594.80 771.64 2066.9
-615.10 805.22 2156.8
-609.62 805.37 2157.2
-604.39 805.85 2158.5
-598.14 804.98 2156.2
-584.92 794.61 2128.4
-584.44 801.51 2146.9
-570.15 789.43 2114.5
-548.73 767.15 2054.9
-556.93 786.26 2106.1
-569.89 812.52 2176.4
-561.26 808.22 2164.9
-553.62 805.27 2157.0
-564.77 829.87 2222.9
-549.45 815.68 2184.9
-516.15 774.22 2073.8
-520.49 788.95 2113.3
-531.53 814.26 2181.1
-534.75 827.99 2217.8
-533.63 835.25 2237.3
-532.64 842.85 2257.6
-534.95 855.92 2292.7
-503.71 814.99 2183.0
-479.85 794.24 2127.4
-477.37 808.71 2166.2
-491.77 843.03 2258.1
-494.64 858.17 2298.7
-859.43 836.04 2255.1
-832.83 815.72 2200.2
-811.47 800.28 2158.6
-785.67 780.22 2104.5
-782.46 787.97 2125.4
-795.36 806.64 2175.8
-752.29 768.41 2072.6
-743.63 765.03 2063.5
-778.90 807.12 2177.0
-791.01 831.73 2243.4
-770.80 816.47 2202.3
-752.94 803.51 2167.3
-733.09 788.21 2126.0
-691.73 749.38 2021.3
-701.80 771.98 2082.3
-733.69 813.31 2193.7
-713.65 797.28 2150.5
-697.05 784.87 2117.0
-692.08 798.12 2152.8
-698.03 818.18 2206.9
-673.86 796.38 2148.1
-660.61 787.22 2123.4
-643.86 773.71 2086.9
-651.82 789.92 2130.6
-666.02 821.04 2214.6
-649.93 808.17 2179.9
-648.42 813.37 2193.9
-613.73 776.67 2094.9
-610.16 793.21 2139.5
-618.30 811.16 2187.9
-601.82 796.85 2149.4
-584.02 780.51 2105.3
-579.90 782.31 2110.1
-589.60 802.98 2165.9
-581.63 799.74 2157.1
-566.17 786.04 2120.2
-570.38 799.64 2156.9
-580.36 821.70 2216.4
-567.62 811.69 2189.4
-556.17 803.36 2166.9
-550.85 803.80 2168.1
-519.14 765.33 2064.3
-517.98 779.70 2103.1
-525.05 798.75 2154.5
-523.71 805.27 2172.1
-536.90 834.53 2251.0
-513.42 824.93 2225.1
-495.56 805.29 2172.1
-511.28 840.38 2266.8
-486.42 808.81 2181.6
-503.17 856.59 2310.5
-501.43 874.44 2358.6
-479.12 845.86 2281.5
-485.45 867.74 2340.6
-851.36 816.85 2218.8
-826.06 797.96 2167.5
-825.76 803.14 2181.6
-805.10 788.44 2141.6
-778.66 767.85 2085.7
-768.91 763.53 2074.0
-804.93 804.93 2186.4
-826.79 832.65 2261.7
-793.48 804.82 2186.1
-738.42 754.36 2049.1
-725.38 746.40 2027.5
-727.60 754.16 2048.5
-772.32 812.37 2206.6
-756.17 813.45 2209.6
-693.88 752.14 2043.0
-707.16 772.44 2098.2
-740.06 821.01 2230.1
-731.84 818.27 2222.7
-699.31 788.11 2140.8
-670.38 761.55 2068.6
-698.68 800.10 2173.3
-696.01 810.11 2200.5
-671.84 788.44 2141.6
-659.72 780.67 2120.5
-649.92 775.54 2106.6
-664.19 799.28 2171.1
-652.96 799.31 2171.2
-628.61 776.20 2108.4
-617.39 769.03 2088.9
-618.72 777.50 2111.9
-612.57 776.65 2109.6
-581.66 744.11 2021.2
-583.24 752.91 2045.1
-607.25 791.10 2148.9
-607.12 798.25 2168.3
-594.05 788.37 2141.4
-594.34 796.19 2162.7
-589.82 797.66 2166.7
-570.32 778.70 2115.2
-566.86 781.49 2122.8
-584.32 813.46 2209.6
-577.48 811.91 2205.4
-549.16 779.80 2118.2
-529.92 760.08 2064.6
-520.70 762.26 2070.5
-534.94 791.27 2149.3
-538.21 804.49 2185.2
-532.16 803.91 2183.6
-519.72 793.55 2155.5
-522.04 805.76 2188.7
-516.85 806.51 2190.7
-497.10 784.31 2130.4
-512.56 817.80 2221.4
-505.04 833.90 2265.1
-480.57 802.84 2180.7
-499.77 844.85 2294.9
-502.62 870.39 2364.2
-488.40 856.21 2325.7
-827.41 782.99 2141.9
-818.43 779.72 2133.0
-824.70 796.46 2178.8
-816.68 794.15 2172.5
-809.68 792.81 2168.8
-824.07 812.55 2222.8
-779.39 773.90 2117.0
-755.36 760.76 2081.1
-760.14 771.08 2109.3
-726.24 742.03 2029.9
-781.65 816.39 2233.3
-728.14 783.72 2143.9
-740.59 803.26 2197.4
-728.13 802.08 2194.1
-679.51 754.42 2063.8
-673.16 753.30 2060.7
-668.85 754.47 2063.9
-699.21 795.07 2175.0
-685.73 792.52 2168.0
-649.47 756.82 2070.3
-662.75 778.74 2130.3
-677.42 802.66 2195.7
-636.82 760.94 2081.6
-609.43 740.77 2026.4
-618.58 758.43 2074.7
-628.30 777.11 2125.8
-650.24 811.36 2219.5
-638.83 804.24 2200.1
-602.21 764.97 2092.6
-579.81 743.21 2033.1
-579.76 749.97 2051.6
-596.66 778.98 2130.9
-601.58 792.73 2168.6
-586.31 779.90 2133.5
-567.25 761.73 2083.8
-564.38 765.17 2093.2
-578.74 792.26 2167.3
-571.76 790.38 2162.1
-539.73 753.48 2061.2
-524.11 754.08 2062.8
-532.15 773.54 2116.1
-552.90 812.07 2221.5
-545.53 818.29 2238.5
-524.11 794.61 2173.7
-513.50 786.99 2152.9
-496.71 769.63 2105.4
-488.93 766.00 2095.4
-517.21 819.40 2241.5
-522.34 836.93 2289.5
-492.21 797.72 2182.2
-492.94 808.19 2210.9
-508.72 843.88 2308.5
-491.36 824.78 2256.2
-473.06 803.63 2198.4
-477.96 821.86 2248.2
-486.67 847.17 2317.5
-485.47 855.64 2340.7
-836.90 786.35 2166.5
-821.62 787.86 2170.6
-819.29 791.04 2179.4
-819.89 797.11 2196.1
-819.42 802.23 2210.2
-765.25 754.47 2078.6
-758.19 758.19 2088.9
-780.28 785.89 2165.2
-760.26 771.27 2124.9
-770.82 787.70 2170.2
-789.35 812.56 2238.7
-768.80 797.27 2196.6
-743.48 776.77 2140.1
-748.94 788.36 2172.0
-730.98 775.28 2136.0
-708.92 757.63 2087.3
-752.63 810.53 2233.1
-737.02 806.12 2220.9
-685.35 755.51 2081.5
-678.37 753.74 2076.6
-683.64 765.68 2109.5
-674.00 773.44 2130.9
-647.42 749.08 2063.8
-668.03 779.37 2147.3
-655.55 777.77 2142.8
-623.81 746.44 2056.5
-638.74 770.89 2123.9
-638.76 777.62 2142.4
-638.69 784.36 2161.0
-647.03 801.62 2208.6
-619.84 774.80 2134.7
-581.79 733.78 2021.7
-569.43 731.38 2015.0
-596.36 773.07 2129.9
-588.17 769.57 2120.2
-561.76 741.94 2044.1
-564.22 752.30 2072.7
-584.72 787.13 2168.6
-589.91 801.81 2209.1
-570.28 782.74 2156.5
-547.56 759.00 2091.1
-546.47 765.06 2107.8
-542.48 767.15 2113.6
-534.74 763.92 2104.7
-533.95 770.65 2123.2
-544.68 794.32 2188.4
-556.44 820.01 2259.2
-542.39 807.81 2225.6
-516.12 776.96 2140.6
-501.21 762.72 2101.4
-502.73 773.44 2130.9
-515.03 801.16 2207.3
-521.01 819.57 2258.0
-502.84 799.97 2204.0
-501.52 807.04 2223.5
-490.49 827.33 2279.4
-477.17 814.68 2244.5
-482.99 834.80 2300.0
-479.16 838.54 2310.3
-471.50 835.57 2302.1
-815.07 770.71 2138.7
-857.12 816.02 2264.4
-852.31 822.71 2283.0
-836.49 813.09 2256.3
-820.47 803.14 2228.6
-816.61 805.02 2233.9
-802.70 796.96 2211.5
-768.98 768.98 2133.9
-761.14 766.66 2127.4
-785.34 796.80 2211.1
-781.12 798.35 2215.4
-739.97 761.90 2114.2
-713.90 740.54 2054.9
-715.25 747.52 2074.3
-726.62 765.16 2123.3
-732.59 777.33 2157.0
-710.58 759.78 2108.3
-688.80 742.20 2059.5
-714.63 776.05 2153.5
-705.61 778.42 2160.0
-681.24 757.54 2102.1
-692.46 776.23 2154.0
-669.81 756.94 2100.5
-667.38 760.38 2110.0
-688.67 791.12 2195.3
-663.21 768.22 2131.7
-640.27 747.88 2075.3
-657.71 774.76 2149.9
-660.86 798.77 2216.5
-640.79 781.31 2168.1
-629.46 774.29 2148.6
-624.54 775.10 2150.8
-606.28 759.21 2106.8
-589.00 744.29 2065.3
-610.47 778.49 2160.2
-616.70 793.71 2202.5
-586.86 762.37 2115.5
-579.97 760.52 2110.4
-604.11 799.72 2219.2
-598.95 800.52 2221.4
-577.94 779.94 2164.3
-576.04 784.99 2178.3
-570.71 785.44 2179.5
-566.09 786.87 2183.5
-558.40 784.01 2175.6
-550.04 780.16 2164.9
-549.79 787.85 2186.2
-542.83 785.97 2181.0
-536.11 784.41 2176.7
-531.86 786.48 2182.4
-515.87 771.03 2139.5
-497.67 751.91 2086.5
-496.41 758.26 2104.1
-513.94 793.75 2202.6
-525.67 820.99 2278.2
-508.48 803.17 2228.7
-507.73 811.20 2251.0
-502.98 842.35 2337.5
-483.82 820.14 2275.8
-483.38 829.50 2301.8
-490.42 862.89 2394.4
-849.80 792.38 2214.7
-830.53 779.68 2179.2
-850.69 804.08 2247.4
-829.25 811.61 2268.5
-787.44 776.19 2169.5
-776.62 771.03 2155.1
-791.40 791.40 2212.0
-792.90 798.69 2232.4
-769.41 780.73 2182.2
-748.04 764.66 2137.2
-737.13 759.13 2121.8
-740.80 768.65 2148.4
-757.53 791.96 2213.6
-760.85 801.51 2240.2
-733.80 778.96 2177.2
-703.14 752.19 2102.4
-720.54 776.83 2171.3
-708.50 775.97 2168.9
-663.66 732.68 2047.9
-655.90 729.96 2040.3
-652.49 732.06 2046.1
-667.60 755.15 2110.7
-692.60 789.90 2207.8
-671.58 772.32 2158.7
-647.46 750.83 2098.6
-663.75 776.24 2169.6
-630.83 763.63 2134.4
-636.32 777.10 2172.0
-648.75 799.36 2234.2
-637.87 793.02 2216.5
-628.10 787.98 2202.4
-632.02 800.18 2236.5
-618.70 790.56 2209.6
-603.48 778.33 2175.4
-614.23 799.66 2235.1
-600.64 797.01 2227.7
-579.85 776.89 2171.4
-576.97 780.60 2181.8
-563.26 769.60 2151.1
-551.59 761.20 2127.6
-550.61 767.52 2145.2
-549.54 773.84 2162.9
-548.61 780.50 2181.5
-541.20 777.97 2174.5
-532.01 772.81 2160.0
-525.80 771.91 2157.5
-527.78 783.16 2189.0
-527.64 791.46 2212.2
-514.80 780.69 2182.1
-521.64 799.85 2235.6
-522.05 809.47 2262.5
-494.60 775.63 2167.9
-489.43 776.34 2169.9
-501.72 805.08 2250.2
-487.39 791.29 2211.7
-479.55 797.33 2228.6
-492.06 828.10 2314.6
-497.73 847.98 2370.1
-877.04 806.40 2270.4
-848.71 785.63 2211.9
-835.19 778.37 2191.4
-826.79 775.82 2184.3
-817.42 772.32 2174.4
-809.08 769.75 2167.2
-805.07 771.29 2171.5
-825.61 796.54 2242.6
-812.92 789.86 2223.8
-788.99 772.09 2173.8
-794.23 782.80 2203.9
-773.77 768.16 2162.7
-742.07 742.07 2089.2
-737.82 743.25 2092.6
-735.44 746.33 2101.2
-731.14 747.51 2104.6
-742.28 764.60 2152.7
-739.06 767.06 2159.6
-722.40 755.49 2127.0
-751.60 792.07 2230.0
-735.70 787.43 2217.0
-710.31 766.24 2157.3
-716.68 779.24 2193.9
-714.69 783.30 2205.3
-692.35 764.93 2153.6
-676.58 753.59 2121.7
-668.39 750.57 2113.2
-668.17 756.52 2129.9
-669.56 764.41 2152.2
-666.65 767.49 2160.8
-663.14 769.92 2167.7
-679.38 795.52 2239.7
-650.23 774.63 2180.9
-615.21 739.33 2081.5
-629.62 763.35 2149.1
-639.22 781.90 2201.4
-626.31 773.02 2176.4
-600.55 747.96 2105.8
-586.45 737.09 2075.2
-586.27 743.69 2093.8
-586.24 750.61 2113.3
-587.88 759.81 2139.2
-585.16 763.50 2149.6
-582.15 766.86 2159.1
-578.59 769.58 2166.7
-582.73 782.69 2203.6
-574.95 779.89 2195.7
-550.83 754.64 2124.6
-537.17 743.36 2092.9
-526.92 736.61 2073.9
-531.57 758.60 2135.8
-545.31 786.39 2214.0
-536.05 781.27 2199.6
-536.17 789.84 2223.8
-520.97 793.04 2232.7
-488.25 751.58 2116.0
-482.13 759.21 2137.5
-477.85 761.22 2143.2
-469.20 774.46 2180.5
-488.52 816.18 2297.9
-500.06 845.79 2381.3
-859.87 790.15 2241.0
-830.38 768.24 2178.8
-810.24 754.74 2140.6
-776.03 743.24 2107.9
-796.24 768.01 2178.2
-809.00 785.89 2228.9
-799.00 781.75 2217.2
-766.02 754.92 2141.1
-732.76 727.42 2063.0
-722.90 722.90 2050.2
-721.24 726.59 2060.7
-717.98 728.69 2066.7
-720.56 736.81 2089.7
-709.82 731.33 2074.1
-686.64 712.85 2021.7
-708.23 740.92 2101.4
-729.75 769.35 2182.0
-698.91 742.60 2106.1
-677.63 725.65 2058.0
-685.71 740.13 2099.1
-704.12 766.08 2172.7
-701.28 769.15 2181.4
-667.01 737.50 2091.7
-642.02 715.69 2029.8
-645.69 725.74 2058.3
-649.79 736.43 2088.6
-639.21 730.53 2071.9
-629.27 725.26 2056.9
-621.04 721.89 2047.4
-613.12 718.84 2038.7
-631.24 746.51 2117.2
-657.02 783.82 2223.0
-646.61 778.22 2207.1
-630.46 765.56 2171.2
-621.03 760.90 2158.0
-599.45 741.14 2102.0
-589.98 736.13 2087.8
-594.37 748.47 2122.8
-584.41 742.81 2106.7
-576.29 739.39 2097.0
-600.53 777.83 2206.0
-580.50 766.49 2173.9
-545.92 727.89 2064.4
-565.57 761.56 2159.9
-570.97 776.52 2202.3
-554.52 761.77 2160.5
-540.84 750.55 2128.7
-528.23 740.61 2100.5
-542.49 768.53 2179.7
-548.67 785.47 2227.7
-531.32 768.71 2180.2
-528.16 772.36 2190.5
-537.68 794.83 2254.3
-532.77 805.07 2283.3
-491.18 750.57 2128.7
-472.99 765.79 2171.9
-485.48 795.48 2256.1
-491.46 815.10 2311.7
-495.99 832.77 2361.8
-847.55 773.10 2208.9
-824.20 756.92 2162.6
-866.34 801.06 2288.8
-838.84 786.41 2246.9
-788.73 744.60 2127.4
-793.33 754.22 2154.9
-805.62 771.34 2203.8
-820.61 791.30 2260.9
-810.53 787.20 2249.1
-779.70 762.75 2179.3
-745.38 734.50 2098.6
-737.32 731.90 2091.1
-736.20 736.20 2103.4
-754.02 759.65 2170.4
-778.03 789.73 2256.4
-760.75 778.04 2223.0
-731.71 754.05 2154.4
-704.51 731.61 2090.3
-681.52 713.22 2037.8
-656.08 708.57 2024.5
-684.09 744.77 2127.9
-679.03 745.28 2129.4
-649.94 719.19 2054.8
-649.01 724.11 2068.9
-655.63 737.58 2107.4
-647.80 734.90 2099.7
-630.85 721.73 2062.1
-617.37 712.36 2035.3
-627.92 737.12 2106.1
-657.52 778.64 2224.7
-648.70 774.99 2214.3
-613.75 739.79 2113.7
-603.28 740.39 2115.4
-636.05 787.76 2250.8
-607.36 773.52 2210.1
-578.01 757.59 2164.5
-550.40 735.69 2102.0
-567.84 766.59 2190.3
-563.42 768.30 2195.2
-550.81 758.77 2167.9
-539.26 750.52 2144.3
-534.91 752.21 2149.2
-522.38 742.32 2120.9
-518.95 745.30 2129.4
-527.24 765.34 2186.7
-522.06 766.07 2188.8
-518.83 769.69 2199.1
-513.18 769.77 2199.3
-482.41 731.75 2090.7
-491.27 789.55 2255.9
-506.16 823.27 2352.2
-843.05 773.76 2227.2
-848.13 794.75 2287.7
-796.86 751.96 2164.5
-809.14 768.97 2213.5
-822.17 786.94 2265.2
-811.76 782.56 2252.6
-775.14 752.67 2166.5
-760.23 743.58 2140.4
-774.20 762.81 2195.7
-775.97 770.23 2217.1
-775.81 781.64 2249.9
-712.09 722.88 2080.8
-716.36 732.77 2109.2
-720.50 742.67 2137.7
-694.07 720.97 2075.3
-677.81 709.58 2042.5
-683.38 721.04 2075.5
-685.84 729.38 2099.5
-670.32 718.59 2068.4
-683.72 738.86 2126.8
-700.30 762.93 2196.1
-690.50 758.41 2183.1
-679.33 752.31 2165.5
-678.11 757.22 2179.6
-678.22 763.71 2198.3
-664.08 754.12 2170.7
-657.22 752.72 2166.7
-658.86 761.10 2190.8
-644.92 751.48 2163.1
-639.99 752.27 2165.4
-625.71 741.99 2135.8
-608.42 741.16 2133.4
-618.73 760.64 2189.5
-601.15 745.87 2147.0
-604.82 757.43 2180.2
-597.76 755.66 2175.2
-587.50 749.76 2158.1
-579.53 746.70 2149.3
-580.16 754.77 2172.6
-594.49 781.00 2248.1
-562.59 746.40 2148.5
-549.48 743.74 2140.8
-558.94 764.26 2199.9
-543.37 750.63 2160.7
-535.54 747.53 2151.7
-514.62 725.88 2089.4
-526.09 758.02 2181.9
-535.87 780.51 2246.7
-517.92 762.66 2195.3
-498.29 741.90 2135.5
-490.88 739.07 2127.4
-496.56 756.13 2176.5
-483.46 744.63 2143.4
-481.98 768.88 2213.2
-496.79 802.05 2308.7
-502.66 821.41 2364.4
-477.34 809.67 2330.6
-827.61 743.73 2156.9
-834.53 755.05 2189.7
-806.37 739.64 2145.0
-825.58 767.85 2226.8
-792.17 741.96 2151.8
-824.42 777.65 2255.3
-791.40 762.72 2212.0
-775.10 752.47 2182.3
-788.35 770.96 2235.9
-790.99 779.27 2260.0
-766.35 760.63 2205.9
-703.85 703.85 2041.2
-687.63 703.50 2040.2
-684.63 705.86 2047.1
-683.69 710.40 2060.2
-704.38 737.66 2139.3
-704.04 743.16 2155.2
-684.88 728.71 2113.3
-692.66 742.93 2154.6
-705.14 762.47 2211.3
-698.45 761.43 2208.2
-688.93 757.25 2196.1
-681.15 754.94 2189.4
-674.24 753.56 2185.4
-669.29 754.37 2187.8
-669.56 761.13 2207.4
-641.39 754.91 2189.3
-610.44 724.89 2102.3
-610.88 731.95 2122.7
-595.07 719.50 2086.6
-575.08 714.82 2073.1
-584.13 732.92 2125.5
-590.43 747.88 2168.9
-585.40 748.63 2171.1
-590.14 762.03 2210.0
-572.14 753.42 2185.0
-557.44 748.89 2171.8
-577.11 783.22 2271.4
-571.54 783.65 2272.7
-565.50 783.45 2272.1
-547.21 766.10 2221.8
-524.23 741.73 2151.1
-537.16 768.19 2227.8
-543.32 785.45 2277.9
-519.19 758.82 2200.7
-535.51 791.36 2295.0
-514.28 786.19 2280.0
-489.64 757.24 2196.1
-487.04 762.08 2210.1
-480.94 761.49 2208.4
-475.92 781.44 2266.3
-489.31 813.48 2359.2
-480.94 809.69 2348.2
-469.63 800.77 2322.3
-836.04 745.66 2178.9
-879.89 790.11 2308.8
-853.01 771.22 2253.6
-811.97 739.17 2159.9
-815.99 747.99 2185.7
-804.65 742.76 2170.4
-805.23 748.52 2187.2
-813.57 761.64 2225.6
-800.61 754.86 2205.8
-807.76 767.08 2241.5
-787.15 752.93 2200.1
-765.47 737.53 2155.1
-772.15 749.44 2189.9
-756.97 740.15 2162.8
-713.82 703.17 2054.7
-711.49 706.14 2063.4
-717.12 717.12 2095.5
-707.92 713.32 2084.4
-715.77 726.78 2123.7
-715.90 732.55 2140.6
-718.04 740.48 2163.7
-728.39 757.07 2212.2
-715.19 749.24 2189.3
-682.74 720.97 2106.7
-677.45 721.15 2107.3
-690.93 741.48 2166.7
-686.63 742.92 2170.9
-685.45 747.76 2185.0
-685.04 753.54 2201.9
-664.65 737.26 2154.3
-644.20 720.63 2105.7
-650.47 733.86 2144.4
-634.71 754.79 2205.6
-600.21 720.25 2104.6
-592.83 724.57 2117.3
-601.91 742.55 2169.8
-596.39 742.68 2170.2
-597.11 750.65 2193.5
-584.85 742.31 2169.1
-571.97 733.01 2141.9
-567.23 734.06 2145.0
-562.95 735.74 2149.9
-557.22 735.53 2149.3
-566.12 754.83 2205.7
-576.61 776.66 2269.5
-574.98 782.44 2286.4
-555.11 771.32 2253.8
-533.39 749.02 2188.7
-534.00 757.94 2214.8
-525.46 753.92 2203.0
-519.80 754.00 2203.2
-481.29 721.93 2109.5
-499.64 758.08 2215.2
-512.93 796.55 2327.6
-493.22 775.05 2264.8
-474.01 753.85 2202.8
-468.72 754.53 2204.8
-483.49 787.91 2302.3
-857.12 758.67 2233.8
-861.16 767.43 2259.6
-798.89 737.00 2170.0
-754.72 711.28 2094.3
-758.83 720.34 2121.0
-761.55 728.19 2144.1
-759.40 731.48 2153.8
-733.61 711.87 2096.0
-719.95 703.84 2072.4
-745.52 734.31 2162.1
-757.40 751.66 2213.2
-753.12 753.12 2217.5
-748.82 754.58 2221.8
-735.74 747.14 2199.9
-716.16 732.94 2158.1
-704.81 727.01 2140.6
-716.88 745.33 2194.5
-706.70 740.62 2180.7
-676.48 714.67 2104.3
-668.02 711.46 2094.8
-666.19 715.34 2106.2
-667.44 722.60 2127.6
-667.45 728.63 2145.4
-647.19 712.45 2097.7
-643.56 714.46 2103.6
-665.85 745.53 2195.1
-652.92 737.35 2171.1
-637.66 726.38 2138.7
-658.39 756.57 2227.6
-635.46 743.27 2188.5
-609.15 718.91 2116.7
-613.94 731.15 2152.8
-627.35 753.97 2220.0
-627.10 760.65 2239.6
-614.05 751.78 2213.5
-604.14 746.63 2198.4
-599.80 748.32 2203.3
-592.46 746.27 2197.3
-585.88 745.15 2194.0
-575.18 738.72 2175.1
-563.61 731.03 2152.4
-564.31 739.25 2176.6
-580.95 768.73 2263.4
-575.41 777.10 2288.1
-565.66 771.89 2272.7
-540.09 744.75 2192.8
-529.52 737.95 2172.8
-542.20 763.74 2248.7
-530.04 754.73 2222.2
-521.28 750.42 2209.5
-525.53 764.94 2252.3
-486.88 716.64 2110.1
-483.52 728.06 2143.7
-516.00 786.00 2314.3
-502.08 773.80 2278.4
-505.10 787.72 2319.3
-509.91 804.80 2369.6
-497.50 794.78 2340.1
-504.73 816.29 2403.5
-471.10 791.20 2329.6
-826.77 731.16 2169.4
-824.52 739.22 2193.3
-843.15 761.17 2258.4
-835.68 765.06 2270.0
-755.47 696.53 2066.6
-758.16 709.07 2103.8
-774.14 729.26 2163.7
-780.59 740.70 2197.7
-783.39 748.83 2221.8
-768.76 740.28 2196.4
-766.43 743.55 2206.2
-763.44 746.22 2214.1
-749.00 737.65 2188.6
-745.69 740.00 2195.6
-739.31 739.31 2193.6
-709.68 715.18 2122.0
-673.77 684.30 2030.3
-680.89 696.98 2067.9
-710.01 732.55 2173.5
-709.26 737.63 2188.6
-687.75 721.03 2139.3
-665.61 703.49 2087.3
-653.18 696.01 2065.1
-641.14 688.82 2043.8
-629.13 687.29 2039.2
-649.32 715.35 2122.5
-623.99 705.38 2092.9
-608.30 699.81 2076.4
-597.70 706.37 2095.8
-612.55 730.56 2167.6
-612.68 737.49 2188.2
-610.69 741.95 2201.4
-610.38 748.58 2221.1
-597.49 739.75 2194.9
-582.74 728.43 2161.3
-581.90 734.43 2179.1
-576.82 735.17 2181.3
-570.29 734.04 2177.9
-576.66 749.66 2224.3
-576.42 756.91 2245.8
-563.89 748.02 2219.4
-555.21 744.09 2207.7
-543.13 735.48 2182.2
-539.81 738.69 2191.7
-554.67 767.09 2276.0
-530.00 748.91 2222.0
-504.00 720.00 2136.3
-493.97 713.52 2117.0
-507.11 740.72 2197.7
-523.22 772.94 2293.3
-493.08 736.79 2186.1
-467.49 723.49 2146.6
-511.50 801.14 2377.0
-505.50 811.30 2407.1
-476.93 775.01 2299.5
-854.20 744.54 2226.2
-821.06 730.46 2184.1
-825.04 739.10 2209.9
-827.57 746.55 2232.2
-852.41 774.38 2315.4
-814.30 745.00 2227.6
-794.17 731.77 2188.0
-830.49 770.74 2304.5
-820.95 767.41 2294.6
-806.35 759.27 2270.2
-805.50 764.04 2284.5
-785.36 750.46 2243.9
-786.69 757.33 2264.5
-762.49 745.16 2228.1
-746.22 734.83 2197.2
-750.80 745.02 2227.6
-729.23 729.23 2180.4
-685.06 690.41 2064.4
-685.55 696.35 2082.1
-703.41 720.16 2153.3
-692.44 714.60 2136.7
-686.20 713.87 2134.5
-679.40 712.54 2130.5
-667.72 706.04 2111.1
-656.14 699.52 2091.6
-642.82 702.75 2101.2
-628.79 705.34 2109.0
-626.42 708.85 2119.5
-647.56 739.25 2210.4
-621.79 716.17 2141.4
-619.78 720.29 2153.7
-608.32 713.39 2133.1
-587.88 695.75 2080.3
-602.10 719.17 2150.3
-615.71 742.31 2219.5
-605.79 737.23 2204.3
-582.43 715.56 2139.5
-577.47 716.29 2141.7
-586.25 734.24 2195.4
-582.60 736.82 2203.1
-577.22 737.24 2204.4
-569.92 735.20 2198.3
-554.85 722.98 2161.7
-542.06 713.52 2133.5
-532.42 708.06 2117.1
-534.80 718.64 2148.8
-547.03 742.81 2221.0
-546.97 750.63 2244.4
-532.75 738.98 2209.6
-513.40 719.88 2152.5
-488.25 707.68 2116.0
-513.46 752.69 2250.6
-489.47 725.77 2170.1
-485.69 754.86 2257.1
-495.92 789.80 2361.5
-477.29 769.63 2301.2
-469.25 766.25 2291.1
-881.23 757.03 2281.2
-853.76 738.39 2225.1
-851.39 741.34 2234.0
-854.67 759.71 2289.3
-821.84 735.63 2216.8
-809.46 729.66 2198.7
-789.96 717.12 2161.0
-789.51 721.84 2175.2
-813.59 749.20 2257.6
-789.37 732.17 2206.3
-760.28 710.33 2140.5
-748.31 704.29 2122.3
-760.06 720.65 2171.6
-793.50 757.97 2284.1
-748.28 731.15 2203.2
-726.65 715.47 2156.0
-738.82 733.09 2209.1
-726.10 726.10 2188.0
-680.96 686.33 2068.2
-667.94 683.97 2061.1
-680.27 702.22 2116.1
-690.89 718.98 2166.6
-696.67 730.93 2202.6
-693.13 733.23 2209.5
-666.91 711.37 2143.6
-634.54 682.53 2056.7
-651.37 706.57 2129.2
-668.41 731.25 2203.5
-637.60 703.56 2120.1
-615.63 685.22 2064.8
-649.02 728.73 2195.9
-641.84 740.14 2230.3
-599.35 697.43 2101.6
-593.75 697.25 2101.1
-621.03 736.03 2218.0
-601.39 719.42 2167.9
-576.12 715.95 2157.4
-575.48 722.17 2176.2
-570.41 722.89 2178.4
-563.17 720.86 2172.2
-555.02 717.60 2162.4
-549.02 717.09 2160.9
-543.95 717.79 2163.0
-552.44 736.58 2219.6
-567.24 764.28 2303.1
-546.08 751.60 2264.9
-518.86 721.89 2175.4
-501.91 705.99 2127.4
-495.70 729.31 2197.7
-486.73 724.43 2183.0
-472.03 719.29 2167.5
-481.85 743.09 2239.2
-485.96 758.57 2285.9
-488.08 771.29 2324.2
-495.80 793.28 2390.5
-867.01 739.00 2244.4
-831.53 733.36 2227.3
-772.06 690.51 2097.2
-769.84 693.40 2105.9
-735.22 676.62 2055.0
-731.40 678.01 2059.2
-726.92 678.81 2061.6
-741.98 698.01 2119.9
-774.00 733.57 2227.9
-756.48 733.38 2227.4
-728.38 711.57 2161.1
-737.52 726.09 2205.2
-722.64 722.64 2194.7
-686.63 692.08 2101.9
-685.48 696.44 2115.2
-687.76 704.40 2139.4
-687.61 709.97 2156.3
-691.12 719.44 2185.0
-685.92 719.93 2186.5
-676.45 715.91 2174.3
-660.02 704.39 2139.3
-643.46 692.54 2103.3
-628.74 682.48 2072.8
-641.63 702.47 2133.5
-663.75 733.02 2226.3
-652.46 726.86 2207.6
-644.20 724.01 2198.9
-639.70 725.38 2203.1
-612.77 701.09 2129.3
-604.23 697.61 2118.7
-630.47 734.59 2231.0
-596.73 708.27 2151.1
-574.32 708.14 2150.7
-592.95 738.28 2242.3
-594.43 754.93 2292.8
-578.87 742.59 2255.3
-560.92 726.90 2207.7
-545.28 713.92 2168.3
-543.87 719.49 2185.2
-548.29 732.98 2226.2
-552.51 746.48 2267.2
-531.53 725.85 2204.5
-514.60 710.38 2157.5
-507.97 708.92 2153.1
-513.47 724.56 2200.6
-519.16 740.82 2250.0
-512.32 739.36 2245.5
-517.02 754.72 2292.2
-510.09 753.27 2287.8
-491.91 734.97 2232.2
-498.51 753.70 2289.1
-513.24 785.32 2385.1
-505.52 782.94 2377.9
-496.86 779.02 2366.0
-498.49 791.35 2403.4
-862.99 744.77 2279.9
-854.05 742.14 2271.8
-807.01 706.13 2161.6
-764.46 683.13 2091.2
-773.96 696.57 2132.3
-755.41 684.76 2096.2
-743.45 678.81 2078.0
-740.54 681.08 2084.9
-739.18 684.83 2096.4
-731.44 682.68 2089.8
-738.16 694.09 2124.8
-755.93 716.14 2192.3
-757.59 723.16 2213.8
-740.42 712.16 2180.1
-726.75 704.39 2156.3
-718.65 701.93 2148.8
-711.78 700.65 2144.9
-711.49 705.89 2160.9
-697.78 697.78 2136.1
-692.43 697.97 2136.7
-688.83 699.94 2142.7
-677.36 693.88 2124.1
-671.16 693.17 2121.9
-688.11 716.55 2193.5
-686.65 727.05 2225.6
-673.52 719.18 2201.6
-665.76 716.97 2194.8
-663.74 733.61 2245.7
-643.85 717.93 2197.7
-627.65 706.11 2161.6
-614.79 697.87 2136.3
-620.36 710.59 2175.3
-621.85 718.83 2200.5
-603.14 703.67 2154.1
-601.24 708.00 2167.4
-599.52 712.64 2181.5
-586.95 704.35 2156.2
-592.64 718.00 2198.0
-590.73 722.64 2212.2
-592.16 731.49 2239.3
-601.67 750.60 2297.8
-580.50 731.43 2239.1
-577.16 734.57 2248.7
-572.59 736.19 2253.6
-549.63 713.95 2185.6
-541.04 710.12 2173.8
-531.60 705.06 2158.4
-522.68 700.61 2144.7
-513.82 696.14 2131.1
-506.58 693.79 2123.8
-501.34 694.16 2125.0
-510.38 714.53 2187.3
-530.68 751.30 2299.9
-531.23 769.37 2355.2
-509.42 746.37 2284.8
-502.93 745.52 2282.2
-520.37 780.55 2389.4
-504.51 775.22 2373.1
-490.96 763.71 2337.9
-488.22 768.95 2353.9
-477.56 761.68 2331.7
-464.78 760.55 2328.2
-872.67 732.10 2259.1
-865.44 730.95 2255.5
-837.78 712.40 2198.3
-807.56 701.01 2163.1
-783.61 684.98 2113.6
-780.39 686.96 2119.8
-821.80 728.55 2248.1
-813.33 726.19 2240.8
-775.06 696.99 2150.7
-765.55 693.43 2139.7
-765.69 698.63 2155.8
-753.04 692.13 2135.7
-731.95 677.73 2091.3
-714.19 666.23 2055.8
-709.07 666.42 2056.4
-722.52 684.20 2111.3
-718.49 685.58 2115.5
-676.01 670.65 2069.4
-683.19 683.19 2108.1
-698.38 704.01 2172.4
-705.12 716.59 2211.2
-691.51 708.52 2186.3
-703.18 726.43 2241.5
-698.97 728.10 2246.7
-671.65 705.51 2177.0
-678.74 719.01 2218.6
-663.60 721.31 2225.8
-654.20 717.32 2213.5
-654.24 723.72 2233.2
-636.88 710.81 2193.4
-623.67 702.34 2167.2
-600.11 681.95 2104.3
-592.23 691.85 2134.9
-590.84 696.75 2150.0
-578.60 688.81 2125.5
-589.08 708.03 2184.8
-592.38 718.91 2218.4
-568.43 696.61 2149.5
-550.51 688.14 2123.4
-568.32 717.58 2214.2
-580.76 740.76 2285.8
-573.76 739.38 2281.5
-560.09 729.29 2250.4
-546.35 718.88 2218.3
-542.70 721.68 2226.9
-539.01 724.47 2235.5
-532.83 723.96 2233.9
-526.01 722.54 2229.5
-514.43 714.49 2204.7
-514.77 722.99 2230.9
-505.64 718.24 2216.3
-480.43 690.27 2130.0
-495.48 720.17 2222.3
-505.53 752.28 2321.3
-471.48 710.06 2191.1
-493.78 752.71 2322.6
-490.32 766.13 2364.0
-872.85 721.56 2244.5
-800.73 689.52 2144.8
-828.08 718.05 2233.6
-835.11 739.67 2300.8
-803.49 716.78 2229.6
-801.54 720.22 2240.3
-801.45 725.40 2256.4
-789.19 719.56 2238.3
-788.08 723.87 2251.7
-786.59 727.89 2264.2
-716.42 667.94 2077.7
-710.67 672.70 2092.5
-704.23 671.73 2089.5
-679.58 663.52 2064.0
-674.70 663.99 2065.4
-685.44 679.95 2115.1
-703.25 703.25 2187.5
-697.48 703.15 2187.2
-672.96 683.99 2127.6
-664.75 681.23 2119.0
-643.23 664.67 2067.5
-660.48 694.06 2159.0
-675.01 715.40 2225.3
-670.78 717.05 2230.4
-643.86 694.25 2159.5
-628.93 684.09 2127.9
-636.70 698.68 2173.3
-629.61 697.06 2168.3
-621.74 694.55 2160.5
-601.85 678.45 2110.4
-587.77 674.85 2099.2
-599.54 694.80 2161.2
-593.03 693.74 2157.9
-576.05 693.50 2157.2
-566.89 689.16 2143.7
-561.65 689.56 2144.9
-573.91 711.65 2213.6
-575.85 721.27 2243.6
-572.24 724.06 2252.3
-571.37 730.42 2272.0
-563.03 727.25 2262.2
-552.00 720.50 2241.2
-551.23 727.15 2261.9
-556.85 742.46 2309.5
-538.22 733.40 2281.3
-510.68 703.61 2188.6
-501.84 699.19 2174.9
-493.55 711.64 2213.6
-517.47 763.89 2376.2
-485.27 724.98 2255.1
-512.19 774.53 2409.3
-487.77 756.05 2351.8
-471.37 739.88 2301.5
-879.30 730.77 2291.6
-854.60 715.08 2242.4
-839.62 707.35 2218.2
-839.58 712.20 2233.4
-827.41 706.74 2216.3
-845.95 727.63 2281.8
-835.39 723.61 2269.2
-778.83 679.41 2130.6
-802.66 705.20 2211.4
-821.87 737.88 2313.9
-806.61 729.50 2287.6
-803.17 731.78 2294.8
-739.07 683.50 2143.4
-711.77 668.31 2095.7
-736.81 697.14 2186.1
-715.88 682.58 2140.5
-703.00 675.54 2118.4
-696.50 674.57 2115.4
-687.35 670.98 2104.1
-695.05 683.93 2144.7
-691.73 686.15 2151.7
-664.53 664.53 2083.9
-654.67 660.04 2069.8
-659.48 670.39 2102.3
-649.08 665.30 2086.3
-650.02 671.87 2106.9
-665.98 694.19 2176.9
-671.87 706.33 2215.0
-629.64 679.34 2130.3
-611.92 672.01 2107.4
-621.11 688.26 2158.3
-621.15 694.56 2178.1
-618.49 697.92 2188.6
-624.53 711.27 2230.5
-597.50 699.92 2194.9
-587.68 695.05 2179.6
-601.36 718.13 2252.0
-583.17 703.23 2205.3
-568.35 692.14 2170.5
-577.43 710.24 2227.2
-576.50 716.26 2246.1
-574.29 720.80 2260.3
-577.14 731.84 2295.0
-570.36 730.77 2291.6
-560.84 726.14 2277.1
-542.58 709.97 2226.4
-531.27 702.65 2203.4
-542.46 725.25 2274.3
-532.03 719.11 2255.1
-499.77 683.01 2141.9
-502.34 702.13 2201.8
-523.56 740.21 2321.2
-529.44 757.23 2374.6
-503.03 754.55 2366.2
-465.94 707.54 2218.8
-481.15 739.77 2319.8
-883.66 728.42 2303.0
-875.32 726.45 2296.7
-878.54 734.12 2321.0
-836.51 713.67 2256.3
-800.58 697.65 2205.7
-824.72 723.85 2288.5
-792.93 700.99 2216.3
-818.57 728.94 2304.6
-781.55 706.29 2233.0
-737.66 671.60 2123.3
-726.76 666.65 2107.7
-721.82 667.14 2109.2
-728.58 678.53 2145.2
-733.64 688.49 2176.7
-721.83 682.67 2158.3
-717.65 684.01 2162.6
-719.74 691.41 2185.9
-719.04 696.21 2201.1
-717.96 700.73 2215.4
-705.10 693.72 2193.3
-688.55 682.95 2159.2
-686.59 686.59 2170.7
-669.11 674.64 2132.9
-637.21 653.27 2065.4
-649.07 671.08 2121.7
-647.89 675.58 2135.9
-657.93 691.96 2187.7
-648.52 694.03 2194.2
-609.61 658.17 2080.9
-610.74 665.27 2103.3
-628.96 691.28 2185.6
-636.54 705.98 2232.0
-642.07 718.65 2272.1
-619.27 719.53 2274.9
-593.21 716.55 2265.4
-576.40 703.21 2223.3
-586.18 722.36 2283.8
-585.24 736.08 2327.2
-564.06 716.83 2266.3
-558.73 717.52 2268.5
-544.77 707.04 2235.4
-523.36 686.56 2170.6
-523.78 694.58 2196.0
-541.18 725.54 2293.9
-536.82 727.69 2300.7
-516.74 708.34 2239.5
-529.26 733.75 2319.8
-524.13 752.28 2378.4
-502.77 730.21 2308.6
-514.11 755.68 2389.1
-508.36 756.34 2391.2
-469.61 707.32 2236.3
-485.57 740.49 2341.1
-479.41 759.59 2401.5
-873.93 714.49 2277.6
-861.88 709.44 2261.5
-884.89 733.37 2337.8
-838.40 709.42 2261.4
-786.12 669.86 2135.3
-794.36 681.69 2173.0
-841.37 727.18 2318.0
-798.95 700.53 2233.1
-815.58 720.33 2296.2
-780.81 699.83 2230.9
-741.30 669.38 2133.8
-734.12 667.89 2129.0
-745.28 683.17 2177.8
-767.61 709.01 2260.1
-754.03 701.83 2237.2
-724.15 679.24 2165.2
-733.23 693.13 2209.5
-745.11 709.90 2263.0
-733.51 704.40 2245.4
-722.00 698.89 2227.9
-706.13 700.34 2232.5
-660.39 660.39 2105.1
-647.12 652.51 2080.0
-663.62 674.78 2151.0
-659.05 675.80 2154.3
-640.27 662.16 2110.8
-649.01 676.98 2158.0
-666.27 701.03 2234.7
-652.76 692.84 2208.6
-628.34 672.82 2144.8
-623.71 673.83 2148.0
-636.54 693.89 2211.9
-630.41 693.46 2210.5
-621.43 689.84 2199.0
-621.79 696.63 2220.7
-609.50 689.25 2197.1
-609.24 695.46 2216.9
-609.64 702.54 2239.5
-590.50 687.02 2190.0
-587.64 690.33 2200.6
-594.99 705.83 2250.0
-575.45 689.40 2197.6
-569.84 689.51 2198.0
-591.11 722.46 2303.0
-587.82 725.78 2313.6
-564.65 704.36 2245.3
-555.91 700.68 2233.6
-561.86 715.64 2281.3
-568.26 731.48 2331.8
-533.47 701.63 2236.6
-516.75 687.11 2190.3
-529.16 711.43 2267.8
-528.50 718.52 2290.5
-499.01 686.14 2187.2
-474.71 675.76 2154.1
-470.37 677.56 2159.9
-498.99 727.44 2318.9
-493.13 736.65 2348.2
-476.60 720.85 2297.9
-473.16 724.72 2310.2
-476.86 739.75 2358.1
-879.70 708.48 2277.3
-856.63 699.29 2247.7
-860.50 712.14 2289.0
-797.90 669.57 2152.2
-837.05 707.36 2273.7
-805.43 685.47 2203.3
-805.57 690.49 2219.4
-804.88 705.01 2266.1
-761.32 671.75 2159.2
-753.75 670.00 2153.6
-755.02 676.14 2173.3
-765.57 690.74 2220.2
-794.85 722.59 2322.6
-777.21 717.42 2306.0
-733.15 682.00 2192.1
-731.91 686.17 2205.5
-718.64 689.89 2217.5
-712.80 689.81 2217.2
-720.65 703.07 2259.9
-695.91 684.50 2200.2
-663.70 658.22 2115.7
-659.24 659.24 2119.0
-667.75 673.36 2164.4
-654.73 665.82 2140.1
-637.92 654.28 2103.0
-650.55 672.99 2163.2
-660.98 689.71 2216.9
-640.44 674.15 2166.9
-637.39 676.87 2175.7
-655.13 701.93 2256.2
-645.99 698.36 2244.7
-617.45 673.58 2165.1
-597.89 658.23 2115.7
-587.86 653.18 2099.5
-585.08 656.17 2109.1
-594.18 672.66 2162.1
-586.92 670.77 2156.0
-578.17 693.80 2230.1
-589.61 714.68 2297.2
-575.27 704.41 2264.2
-567.15 701.63 2255.2
-573.41 716.76 2303.9
-573.70 724.68 2329.3
-545.61 711.67 2287.5
-511.84 674.95 2169.5
-505.61 674.15 2166.9
-504.99 680.89 2188.6
-494.34 689.78 2217.1
-489.66 691.29 2222.0
-477.01 681.45 2190.4
-491.90 711.17 2285.9
-490.58 717.92 2307.6
-486.21 720.31 2315.3
-485.48 728.23 2340.7
-478.49 726.82 2336.2
-480.42 739.11 2375.7
-902.88 716.28 2321.7
-874.73 698.61 2264.4
-858.54 690.31 2237.5
-899.96 728.54 2361.4
-907.47 739.65 2397.4
-817.45 670.87 2174.5
-851.86 713.88 2313.9
-845.86 713.88 2313.9
-783.49 665.97 2158.6
-764.81 654.77 2122.3
-781.24 673.68 2183.6
-737.75 650.31 2107.9
-751.42 667.31 2162.9
-775.47 693.84 2248.9
-751.90 693.61 2248.2
-727.26 676.13 2191.5
-726.30 680.54 2205.8
-724.96 684.68 2219.3
-702.55 668.83 2167.9
-677.45 650.14 2107.3
-668.37 646.64 2095.9
-670.34 653.86 2119.3
-660.99 650.07 2107.1
-653.70 648.25 2101.2
-659.43 659.43 2137.4
-658.82 664.40 2153.5
-653.67 664.84 2154.9
-647.68 664.43 2153.6
-639.50 661.75 2144.9
-640.33 668.42 2166.5
-659.12 694.12 2249.8
-654.78 695.70 2255.0
-624.95 669.99 2171.6
-615.77 666.15 2159.2
-613.42 669.69 2170.7
-596.54 657.29 2130.5
-588.30 654.28 2120.7
-591.54 664.09 2152.5
-578.51 655.65 2125.1
-580.33 664.04 2152.3
-584.99 675.86 2190.7
-566.42 660.82 2141.9
-577.94 680.94 2207.1
-599.97 713.96 2314.2
-596.21 716.66 2322.9
-584.16 709.34 2299.2
-576.66 707.44 2293.0
-547.66 678.87 2200.4
-532.76 674.46 2186.1
-554.32 709.30 2299.0
-558.66 722.61 2342.2
-555.74 726.74 2355.6
-503.35 665.55 2157.2
-522.31 714.42 2315.7
-526.36 728.34 2360.8
-492.89 690.05 2236.6
-480.61 680.86 2206.9
-496.47 711.81 2307.2
-480.97 698.00 2262.4
-462.94 680.12 2204.5
-487.38 724.98 2349.9
-484.18 738.68 2394.3
-475.38 734.68 2381.3
-882.56 698.94 2284.7
-892.16 711.31 2325.1
-886.50 711.61 2326.1
-849.17 686.32 2243.4
-842.33 685.48 2240.7
-850.97 697.32 2279.4
-842.38 695.11 2272.1
-856.40 711.66 2326.2
-824.66 695.07 2272.0
-764.01 648.58 2120.1
-746.49 652.49 2132.8
-770.51 678.51 2217.9
-770.34 683.46 2234.1
-770.40 688.69 2251.2
-782.73 705.05 2304.6
-773.33 701.94 2294.5
-753.92 689.63 2254.2
-741.96 683.99 2235.8
-736.69 684.48 2237.4
-729.32 683.01 2232.6
-708.94 669.24 2187.6
-686.72 653.49 2136.1
-689.24 661.22 2161.4
-703.21 680.16 2223.3
-684.13 667.17 2180.8
-664.97 653.89 2137.4
-677.70 672.00 2196.6
-683.41 683.41 2233.9
-674.16 679.93 2222.5
-665.25 676.72 2212.0
-668.45 685.89 2242.0
-656.06 685.09 2239.4
-611.07 643.81 2104.5
-606.80 645.07 2108.6
-620.66 665.79 2176.3
-603.14 652.94 2134.3
-579.22 638.76 2088.0
-595.25 662.64 2166.0
-593.27 666.72 2179.3
-605.45 686.95 2245.5
-604.93 693.03 2265.3
-580.05 671.03 2193.4
-579.31 676.82 2212.4
-588.59 694.53 2270.3
-585.42 697.77 2280.9
-573.70 690.78 2258.0
-570.27 693.73 2267.7
-546.19 671.36 2194.5
-561.22 712.09 2327.7
-515.68 676.11 2210.1
-491.53 659.10 2154.4
-503.06 682.32 2230.3
-476.12 660.96 2160.5
-501.33 704.25 2302.0
-507.30 721.22 2357.5
-483.70 696.06 2275.2
-463.07 674.59 2205.1
-485.58 716.23 2341.2
-456.46 718.17 2347.5
-913.45 712.49 2348.9
-880.70 691.55 2279.9
-859.64 679.58 2240.4
-839.49 677.38 2233.1
-840.07 682.56 2250.2
-821.52 672.15 2215.9
-833.36 686.64 2263.6
-846.29 702.24 2315.1
-836.02 698.67 2303.3
-804.60 677.25 2232.7
-786.79 667.06 2199.1
-782.00 667.84 2201.7
-779.44 670.54 2210.6
-800.33 693.62 2286.7
-785.21 685.60 2260.2
-743.58 654.13 2156.5
-749.11 663.99 2189.0
-765.93 684.07 2255.2
-750.81 675.73 2227.7
-727.59 659.91 2175.5
-734.58 671.45 2213.6
-747.99 689.09 2271.7
-741.13 688.20 2268.8
-721.85 675.65 2227.4
-683.35 644.77 2125.6
-670.43 637.72 2102.4
-692.96 664.56 2190.9
-680.85 658.34 2170.4
-665.98 649.33 2140.7
-681.26 669.81 2208.2
-688.07 682.24 2249.2
-677.40 677.40 2233.2
-664.87 670.60 2210.8
-665.05 676.62 2230.6
-663.51 680.97 2245.0
-626.53 648.71 2138.6
-608.00 640.87 2112.8
-620.02 659.48 2174.1
-600.93 645.04 2126.5
-588.80 637.87 2102.9
-611.68 668.84 2205.0
-620.07 684.41 2256.3
-609.05 678.65 2237.3
-593.86 668.10 2202.5
-565.23 642.06 2116.7
-556.61 644.79 2125.7
-572.37 669.68 2207.7
-576.76 681.62 2247.1
-562.52 671.58 2214.0
-557.09 671.96 2215.2
-568.11 692.38 2282.6
-561.59 691.64 2280.1
-544.63 677.88 2234.8
-560.03 704.56 2322.7
-532.28 684.37 2256.1
-518.43 673.96 2221.9
-518.33 681.40 2246.4
-514.27 683.74 2254.1
-494.76 665.37 2193.5
-485.57 660.60 2177.8
-509.26 700.98 2310.9
-510.66 711.27 2344.9
-493.93 696.27 2295.4
-492.41 702.58 2316.2
-493.93 713.45 2352.0
-488.06 713.79 2353.2
-487.77 722.39 2381.5
-484.86 727.28 2397.6
-462.27 721.14 2377.4
-912.13 710.12 2361.2
-890.88 698.25 2321.8
-888.99 701.52 2332.6
-882.35 710.78 2363.4
-862.53 699.67 2326.5
-873.12 713.26 2371.7
-846.17 696.14 2314.8
-796.50 659.95 2194.4
-785.87 655.83 2180.7
-788.27 662.60 2203.2
-804.40 681.10 2264.7
-826.01 704.53 2342.7
-799.92 692.47 2302.6
-755.35 658.80 2190.6
-757.70 665.86 2214.1
-773.85 685.24 2278.5
-759.29 677.52 2252.8
-724.10 651.13 2165.1
-717.19 649.95 2161.2
-722.32 659.75 2193.8
-711.46 655.00 2178.0
-707.21 656.29 2182.2
-680.85 636.93 2117.9
-665.87 633.13 2105.2
-676.41 648.46 2156.2
-682.70 659.94 2194.4
-675.76 658.73 2190.4
-658.73 647.56 2153.2
-665.30 659.61 2193.3
-671.12 671.12 2231.6
-654.79 660.48 2196.2
-637.26 648.44 2156.2
-628.30 644.98 2144.6
-625.29 647.62 2153.4
-630.46 658.86 2190.8
-636.50 671.22 2231.9
-632.42 673.04 2237.9
-634.78 681.80 2267.1
-624.59 690.02 2294.4
-593.01 661.44 2199.4
-583.20 656.81 2184.0
-585.99 666.42 2215.9
-571.58 656.47 2182.9
-563.36 653.50 2173.0
-581.20 681.01 2264.4
-582.28 689.23 2291.8
-559.58 669.18 2225.1
-553.19 668.44 2222.6
-569.54 695.44 2312.4
-534.54 666.74 2217.0
-512.25 660.23 2195.3
-512.65 668.17 2221.7
-508.64 670.48 2229.4
-503.54 671.39 2232.5
-508.87 686.38 2282.3
-525.30 716.88 2383.7
-517.75 714.98 2377.4
-480.55 671.61 2233.2
-463.71 664.08 2208.1
-459.96 666.94 2217.6
-473.09 694.66 2309.8
-482.34 717.33 2385.2
-464.73 700.12 2328.0
-471.70 719.96 2394.0
-920.18 705.47 2366.2
-920.69 710.60 2383.4
-919.04 714.12 2395.2
-901.22 714.76 2397.3
-884.26 706.18 2368.5
-874.12 702.96 2357.8
-839.11 684.38 2295.4
-794.38 652.52 2188.6
-792.90 656.00 2200.2
-796.23 663.52 2225.5
-814.90 684.04 2294.3
-814.05 688.35 2308.8
-794.36 676.68 2269.6
-809.28 694.53 2329.5
-778.75 678.46 2275.6
-764.13 670.81 2249.9
-779.45 689.51 2312.6
-769.43 685.93 2300.6
-715.53 642.86 2156.2
-684.83 630.04 2113.2
-696.90 646.32 2167.8
-706.96 660.98 2217.0
-690.39 650.77 2182.7
-675.70 642.19 2153.9
-653.14 625.93 2099.4
-640.59 624.31 2093.9
-685.55 673.83 2260.1
-681.53 675.65 2266.2
-656.59 656.59 2202.2
-645.04 650.70 2182.5
-642.77 654.15 2194.0
-646.88 664.20 2227.8
-658.53 682.26 2288.3
-644.79 686.58 2302.8
-612.75 658.57 2208.9
-635.92 689.92 2314.0
-632.58 692.83 2323.8
-620.68 686.33 2302.0
-605.55 689.49 2312.6
-575.56 661.89 2220.0
-570.37 662.55 2222.2
-581.02 681.81 2286.8
-566.51 671.64 2252.7
-551.48 660.62 2215.8
-559.59 677.40 2272.0
-568.33 695.30 2332.1
-531.75 657.54 2205.4
-516.29 645.37 2164.6
-548.22 692.81 2323.7
-545.33 696.80 2337.1
-520.33 672.34 2255.1
-510.48 667.11 2237.5
-500.08 661.03 2217.1
-497.72 665.56 2232.3
-507.06 686.02 2301.0
-508.09 695.60 2333.1
-478.66 663.20 2224.4
-460.28 653.48 2191.8
-459.88 661.08 2217.3
-477.27 694.76 2330.2
-478.21 714.20 2395.5
-476.29 720.71 2417.3
-915.24 686.43 2322.5
-916.75 701.40 2373.2
-884.39 681.22 2304.9
-817.30 656.14 2220.0
-833.68 674.04 2280.6
-842.54 686.07 2321.3
-824.10 675.88 2286.8
-809.71 668.89 2263.2
-796.72 662.96 2243.1
-764.92 641.18 2169.4
-766.86 647.57 2191.0
-800.32 680.87 2303.7
-798.89 689.95 2334.4
-774.84 674.29 2281.4
-781.79 685.57 2319.6
-758.93 670.68 2269.2
-682.49 617.49 2089.3
-688.83 628.21 2125.5
-698.24 641.93 2171.9
-695.72 644.81 2181.7
-666.74 623.02 2108.0
-670.09 631.32 2136.0
-664.72 631.48 2136.6
-637.35 615.75 2083.3
-670.64 653.44 2210.9
-654.54 643.26 2176.4
-634.76 629.24 2129.0
-627.19 627.19 2122.1
-642.38 648.07 2192.7
-665.01 676.88 2290.2
-651.78 669.39 2264.9
-648.43 672.01 2273.7
-622.14 656.70 2221.9
-596.19 635.19 2149.2
-622.33 669.30 2264.5
-627.19 680.95 2304.0
-624.85 684.93 2317.4
-600.07 684.08 2314.5
-579.59 667.41 2258.2
-574.30 668.07 2260.4
-575.33 676.16 2287.8
-576.69 684.82 2317.0
-559.05 670.86 2269.8
-541.41 656.60 2221.6
-537.29 658.62 2228.4
-552.09 684.12 2314.7
-535.21 677.93 2293.8
-516.80 661.96 2239.7
-514.68 666.74 2255.9
-501.06 656.56 2221.4
-495.97 657.45 2224.4
-492.93 661.11 2236.8
-480.22 651.73 2205.1
-474.74 652.05 2206.2
-476.64 662.65 2242.0
-486.45 684.64 2316.4
-493.75 703.59 2380.6
-464.29 669.99 2266.9
-462.49 702.99 2378.5
-928.54 690.30 2356.3
-908.77 680.07 2321.4
-904.98 690.97 2358.5
-838.45 644.52 2200.0
-818.14 651.06 2222.3
-846.78 678.62 2316.4
-860.18 694.28 2369.9
-844.23 686.32 2342.7
-784.89 642.70 2193.8
-749.90 632.38 2158.6
-781.93 664.35 2267.7
-794.41 680.06 2321.3
-718.87 634.63 2166.2
-695.69 619.00 2112.9
-698.18 626.15 2137.3
-688.68 622.57 2125.1
-694.56 632.94 2160.5
-688.85 632.85 2160.2
-668.62 619.30 2113.9
-678.59 633.72 2163.2
-704.05 662.98 2263.0
-688.16 653.46 2230.5
-652.41 624.77 2132.6
-640.33 618.44 2111.0
-636.11 619.66 2115.1
-627.19 616.28 2103.6
