ply
format ascii 1.0
element vertex 2297
property float x
property float y
property float z
end_header
0.00 854.10 2594.0
6.64 842.84 2559.8
13.10 831.57 2525.6
27.29 866.57 2631.9
56.08 890.21 2703.7
63.19 891.72 2708.3
69.84 886.98 2693.9
79.01 912.25 2770.6
93.33 911.80 2769.3
97.82 887.35 2695.0
112.64 894.06 2715.4
150.86 798.29 2424.5
150.67 765.40 2324.6
158.97 776.51 2358.4
162.80 765.78 2325.8
166.33 754.42 2291.3
173.09 758.03 2302.2
179.77 761.02 2311.3
186.41 763.69 2319.4
186.81 741.40 2251.7
189.94 730.97 2220.1
201.66 753.26 2287.8
206.69 749.99 2277.8
205.04 723.35 2196.9
207.34 711.67 2161.4
215.13 718.98 2183.6
225.90 735.63 2234.2
229.38 728.29 2211.9
235.26 728.74 2213.3
249.07 753.13 2287.4
249.25 736.15 2235.8
240.76 694.91 2110.5
250.33 691.12 2099.0
261.33 706.15 2144.7
270.81 716.51 2176.1
280.20 726.24 2205.7
284.49 722.61 2194.6
284.11 707.50 2148.8
287.94 703.25 2135.8
300.38 719.77 2186.0
310.69 730.70 2219.2
313.79 724.58 2200.6
323.49 733.63 2228.1
348.09 749.28 2275.7
350.21 741.28 2251.4
362.01 753.70 2289.1
370.98 759.92 2308.0
366.40 738.62 2243.3
365.38 725.06 2202.1
378.22 738.99 2244.4
389.83 750.12 2278.2
394.93 748.59 2273.6
408.92 763.72 2319.5
404.55 744.60 2261.4
410.76 734.75 2231.5
447.62 789.56 2398.0
460.02 800.30 2430.6
464.50 797.19 2421.2
509.11 828.94 2517.6
513.88 826.10 2509.0
523.42 830.94 2523.7
521.31 817.36 2482.4
554.29 848.14 2575.9
567.30 847.62 2574.3
-40.64 853.52 2612.8
-6.67 839.95 2571.3
0.00 853.62 2613.1
6.87 865.10 2648.3
13.94 878.14 2688.2
20.32 853.59 2613.0
33.67 848.58 2597.7
49.35 888.26 2719.2
57.58 906.85 2776.1
65.19 912.70 2794.0
72.36 911.72 2791.0
148.85 781.45 2392.2
147.03 741.04 2268.5
153.72 744.96 2280.5
159.61 744.84 2280.1
165.15 743.17 2275.0
170.66 741.49 2269.9
176.37 740.74 2267.6
185.11 752.37 2303.2
188.13 740.77 2267.7
186.11 710.60 2175.3
192.21 712.32 2180.6
202.98 730.73 2236.9
207.41 725.94 2222.3
214.03 728.87 2231.2
226.85 752.20 2302.7
234.66 739.18 2262.8
232.22 713.66 2184.7
237.11 711.32 2177.5
243.01 712.07 2179.8
240.08 687.49 2104.6
243.93 682.99 2090.8
258.40 707.80 2166.7
266.02 713.15 2183.1
271.48 712.64 2181.6
279.10 717.67 2197.0
281.77 710.06 2173.7
287.94 711.39 2177.7
298.33 722.88 2212.9
304.49 723.88 2216.0
307.23 716.88 2194.5
310.81 712.03 2179.7
321.55 723.48 2214.7
334.97 740.46 2266.7
341.58 742.05 2271.6
343.46 733.49 2245.4
346.23 727.09 2225.8
349.80 722.53 2211.8
349.81 710.91 2176.3
362.38 724.76 2218.7
379.83 747.80 2289.2
381.51 739.54 2263.9
380.97 727.30 2226.4
396.69 746.01 2283.7
421.11 768.98 2354.0
405.62 730.11 2235.0
422.10 749.08 2293.1
448.83 785.45 2404.4
455.93 786.95 2409.0
455.70 775.92 2375.3
454.20 763.06 2335.9
459.69 762.11 2333.0
480.25 785.87 2405.7
496.09 801.37 2453.2
491.90 784.54 2401.7
552.44 848.88 2598.6
573.25 849.77 2601.3
586.79 849.83 2601.5
0.00 843.79 2603.7
21.07 877.98 2709.2
28.22 881.97 2721.5
64.93 901.83 2782.8
142.60 775.03 2391.5
147.48 768.15 2370.3
154.59 772.95 2385.1
157.10 755.30 2330.6
159.40 737.95 2277.1
165.76 739.98 2283.4
172.36 742.93 2292.5
174.36 726.50 2241.8
179.07 722.06 2228.1
190.01 742.21 2290.3
196.23 743.29 2293.6
195.70 719.49 2220.1
199.69 713.20 2200.7
204.65 710.59 2192.7
211.92 715.96 2209.2
223.57 735.44 2269.4
230.17 737.72 2276.4
233.56 729.88 2252.2
234.21 714.06 2203.4
229.66 683.52 2109.1
239.50 680.41 2099.5
260.43 723.43 2232.3
265.70 722.01 2227.9
262.99 699.45 2158.3
266.16 693.13 2138.8
271.75 693.23 2139.1
278.92 697.31 2151.7
289.78 710.25 2191.6
299.19 719.21 2219.3
304.07 717.15 2212.9
304.96 705.92 2178.3
306.60 696.83 2150.2
312.07 696.60 2149.5
320.60 703.08 2169.5
333.76 719.32 2219.6
341.41 723.34 2232.0
336.98 702.04 2166.3
342.06 689.64 2128.0
363.11 720.46 2223.1
374.66 731.76 2258.0
370.24 712.00 2197.0
370.17 701.07 2163.3
386.22 720.57 2223.5
405.56 745.51 2300.4
398.10 721.20 2225.4
394.86 705.11 2175.8
424.83 747.94 2307.9
444.27 771.30 2380.0
442.80 758.22 2339.7
450.47 760.93 2348.0
457.45 762.41 2352.6
463.53 762.38 2352.5
484.34 786.27 2426.2
503.63 807.10 2490.5
503.54 796.74 2458.5
531.44 810.12 2499.8
554.11 834.50 2575.0
578.06 840.20 2592.6
-19.93 823.88 2562.8
-13.47 835.21 2598.0
-6.63 822.37 2558.1
0.00 828.18 2576.1
6.82 845.93 2631.4
13.74 852.05 2650.4
20.55 849.28 2641.8
64.03 882.14 2744.0
87.39 903.08 2809.1
92.30 880.37 2738.5
99.94 885.19 2753.5
105.89 875.33 2722.8
138.32 779.60 2425.0
140.22 755.96 2351.5
147.18 760.44 2365.4
154.95 768.57 2390.7
157.86 752.88 2341.9
162.84 747.87 2326.3
172.36 763.32 2374.4
175.92 752.19 2339.8
174.64 721.84 2245.4
182.41 729.64 2269.6
199.78 728.60 2266.4
201.65 714.43 2222.3
204.45 704.21 2190.5
207.99 697.05 2168.2
215.34 702.68 2185.8
224.21 712.87 2217.5
230.30 713.92 2220.7
237.81 719.23 2237.2
239.11 705.96 2196.0
236.09 680.82 2117.8
251.24 708.03 2202.4
265.82 732.48 2278.4
262.85 708.56 2204.0
260.54 687.38 2138.2
264.01 682.02 2121.5
268.95 680.60 2117.1
275.46 683.13 2125.0
280.63 682.32 2122.4
285.03 679.68 2114.2
295.48 691.30 2150.4
302.01 693.51 2157.2
310.19 699.35 2175.4
323.40 716.09 2227.5
328.92 715.55 2225.8
338.12 722.88 2248.6
344.84 724.75 2254.4
340.30 703.30 2187.7
340.79 692.75 2154.9
353.51 707.02 2199.3
363.23 714.92 2223.8
362.61 702.56 2185.4
373.21 711.96 2214.6
389.73 732.23 2277.7
376.23 696.31 2165.9
393.36 706.91 2198.9
430.22 762.11 2370.6
436.88 763.00 2373.4
432.17 744.29 2315.2
432.13 734.04 2283.3
440.38 737.93 2295.4
460.70 761.68 2369.3
481.20 785.11 2442.2
487.12 784.46 2440.1
489.44 778.09 2420.3
506.40 794.85 2472.5
554.51 828.42 2576.9
-20.91 857.34 2688.5
-13.94 857.05 2687.6
-6.75 830.63 2604.8
0.00 846.43 2654.3
14.08 865.86 2715.3
28.13 864.92 2712.3
57.51 884.23 2772.9
71.91 884.44 2773.5
85.39 875.21 2744.6
94.36 892.76 2799.6
100.88 886.31 2779.4
105.41 864.37 2710.6
112.86 867.63 2720.8
140.92 787.85 2470.6
146.90 785.61 2463.6
151.32 775.49 2431.9
156.36 769.31 2412.5
159.90 756.46 2372.2
164.96 751.49 2356.6
177.67 780.46 2447.4
175.44 719.29 2255.6
177.51 704.31 2208.6
188.32 723.86 2269.9
189.46 706.16 2214.4
193.65 700.56 2196.9
202.06 710.10 2226.8
208.59 712.67 2234.9
215.97 717.96 2251.4
219.70 711.14 2230.1
224.47 707.95 2220.1
235.19 723.20 2267.9
248.06 726.47 2278.1
243.24 695.77 2181.9
254.45 711.30 2230.5
264.25 722.28 2265.0
267.56 715.44 2243.5
271.46 710.41 2227.8
275.03 704.78 2210.1
280.68 704.57 2209.5
283.14 696.52 2184.2
283.84 684.55 2146.7
283.58 670.78 2103.5
289.33 671.47 2105.7
302.50 689.03 2160.7
317.83 710.78 2228.9
329.39 723.48 2268.8
333.07 718.73 2253.8
334.97 710.36 2227.6
334.28 696.88 2185.3
337.62 692.13 2170.4
346.55 698.79 2191.3
354.68 703.64 2206.5
359.65 702.17 2201.9
361.00 693.81 2175.7
374.11 707.94 2220.0
396.45 738.85 2316.9
388.26 712.78 2235.2
397.68 708.91 2223.1
425.09 746.94 2342.3
422.34 731.66 2294.4
423.03 722.68 2266.2
428.37 721.77 2263.4
436.03 724.74 2272.7
456.66 748.92 2348.5
476.01 770.39 2415.8
480.75 767.95 2408.2
481.66 759.55 2381.8
496.61 773.21 2424.7
519.73 799.08 2505.8
531.27 806.74 2529.9
537.18 805.76 2526.8
-27.24 830.79 2626.6
-20.83 847.09 2678.2
-13.32 812.72 2569.5
0.00 829.32 2622.0
67.04 908.71 2873.0
74.70 911.37 2881.4
80.84 896.54 2834.5
95.84 899.42 2843.6
133.44 775.20 2450.9
141.07 782.32 2473.4
147.07 780.11 2466.4
151.67 770.97 2437.5
158.02 771.15 2438.1
162.59 762.91 2412.0
159.76 721.86 2282.2
164.33 716.03 2263.8
179.11 753.50 2382.3
179.86 731.41 2312.4
177.11 697.00 2203.6
182.63 696.26 2201.3
186.75 690.41 2182.8
193.88 695.68 2199.5
202.04 704.25 2226.6
208.48 706.50 2233.7
215.77 711.45 2249.3
219.68 705.29 2229.8
220.51 689.81 2180.9
226.90 692.05 2188.0
234.43 697.58 2205.5
230.07 668.31 2112.9
239.93 665.26 2103.3
254.83 690.86 2184.2
263.58 699.06 2210.1
270.85 703.06 2222.8
278.07 706.75 2234.5
287.86 716.72 2266.0
294.51 718.60 2271.9
294.18 703.72 2224.9
292.46 686.16 2169.4
299.94 690.43 2182.8
315.69 713.22 2254.9
314.42 697.45 2205.1
308.24 671.53 2123.1
324.24 694.00 2194.1
338.90 712.86 2253.8
341.45 706.05 2232.2
348.58 708.78 2240.9
356.65 713.29 2255.1
364.03 716.31 2264.7
372.84 722.00 2282.7
378.14 720.84 2279.0
385.97 724.43 2290.4
401.90 742.90 2348.7
411.42 749.15 2368.5
413.91 742.60 2347.8
402.00 710.79 2247.2
409.51 703.67 2224.7
434.03 735.43 2325.1
449.70 731.51 2312.7
481.89 773.57 2445.7
492.69 780.62 2468.0
499.81 781.75 2471.6
508.09 784.64 2480.7
540.09 813.48 2571.9
551.86 821.07 2595.9
560.94 824.51 2606.8
-41.84 843.69 2689.5
-34.73 840.43 2679.1
-27.63 835.66 2663.9
-20.25 816.82 2603.8
-13.37 808.76 2578.1
-6.78 820.14 2614.4
0.00 829.72 2644.9
93.82 873.27 2783.7
109.91 886.58 2826.2
146.89 772.79 2463.5
152.25 767.60 2446.9
159.44 771.67 2459.9
166.11 773.05 2464.3
165.87 743.35 2369.6
163.07 704.71 2246.4
170.23 710.26 2264.1
179.32 723.27 2305.6
184.65 720.74 2297.5
186.86 706.58 2252.4
187.05 685.86 2186.3
190.08 676.47 2156.4
194.08 670.96 2138.8
202.42 680.36 2168.8
211.64 692.13 2206.3
213.76 680.65 2169.7
213.09 661.12 2107.5
221.16 669.01 2132.6
230.67 680.76 2170.1
233.86 673.74 2147.7
239.26 673.27 2146.2
242.92 668.03 2129.5
248.60 668.45 2130.8
262.08 689.38 2197.5
274.51 706.73 2252.8
277.56 699.69 2230.4
283.14 699.18 2228.8
293.25 709.67 2262.2
296.77 704.11 2244.5
298.67 694.98 2215.4
310.17 708.12 2257.3
314.07 703.74 2243.3
332.02 704.81 2246.8
353.38 712.66 2271.8
352.43 699.08 2228.5
363.84 710.07 2263.5
377.57 725.18 2311.7
409.53 718.16 2289.3
404.03 698.40 2226.3
433.85 739.38 2356.9
444.27 736.39 2347.4
454.95 733.98 2339.7
553.69 807.19 2573.1
-40.83 816.55 2624.6
-13.53 811.87 2609.6
-6.94 833.27 2678.4
20.50 819.88 2635.3
110.25 881.98 2834.9
153.61 768.05 2468.7
157.95 758.15 2436.9
161.93 747.36 2402.2
166.53 740.12 2379.0
168.73 723.11 2324.3
171.36 709.06 2279.1
175.90 703.60 2261.6
183.11 708.80 2278.3
187.55 703.33 2260.7
194.65 667.38 2145.2
210.91 703.04 2259.8
215.72 699.63 2248.8
212.88 672.26 2160.8
215.17 662.05 2128.0
226.84 680.52 2187.4
235.38 688.92 2214.4
237.03 677.23 2176.8
244.73 682.96 2195.2
251.33 685.44 2203.2
250.44 667.83 2146.6
257.06 670.60 2155.5
270.32 690.18 2218.4
274.58 686.44 2206.4
282.38 691.55 2222.8
294.69 707.27 2273.4
297.11 699.09 2247.1
297.99 687.68 2210.4
300.25 679.80 2185.1
294.95 655.44 2106.8
312.12 668.84 2149.8
329.47 693.61 2229.5
336.69 696.61 2239.1
350.47 712.82 2291.2
356.14 712.28 2289.5
349.10 686.76 2207.4
354.84 686.80 2207.6
362.59 690.65 2219.9
370.71 695.08 2234.2
393.20 725.90 2333.3
397.94 712.73 2290.9
388.28 685.20 2202.4
400.73 696.92 2240.1
422.76 724.74 2329.5
434.85 734.96 2362.4
438.16 730.27 2347.3
449.21 738.43 2373.5
458.95 744.24 2392.2
458.19 733.11 2356.4
469.46 741.25 2382.6
503.55 774.70 2490.1
545.39 807.98 2597.1
-41.69 826.84 2680.0
-13.65 811.89 2631.6
-6.88 818.38 2652.6
0.00 835.78 2709.0
7.00 832.53 2698.5
13.86 824.57 2672.7
66.40 878.01 2845.9
74.12 882.09 2859.1
104.33 886.84 2874.5
111.55 884.99 2868.5
152.71 757.20 2454.3
154.85 737.08 2389.1
160.89 736.38 2386.8
167.78 739.49 2396.9
170.51 724.66 2348.8
173.41 711.60 2306.5
175.80 697.36 2260.3
181.63 697.23 2259.9
187.22 696.21 2256.6
203.78 692.85 2245.7
221.38 693.27 2247.1
224.27 684.30 2218.0
232.63 692.06 2243.2
237.27 688.66 2232.2
234.10 663.27 2149.9
236.75 655.19 2123.7
243.60 658.82 2135.4
251.59 650.85 2109.6
265.89 673.21 2182.1
274.07 679.46 2202.3
285.60 693.60 2248.2
298.96 697.57 2261.0
297.70 681.27 2208.2
298.77 670.82 2174.3
300.99 663.30 2150.0
308.63 667.76 2164.4
312.76 664.62 2154.2
315.44 658.55 2134.6
326.13 669.12 2168.8
342.91 691.64 2241.8
355.36 704.80 2284.5
355.33 693.18 2246.8
350.70 673.11 2181.8
369.15 675.84 2190.6
389.53 702.34 2276.5
389.22 691.30 2240.7
390.74 673.88 2184.3
417.60 709.91 2301.0
436.72 731.97 2372.5
433.03 715.70 2319.8
435.83 710.46 2302.8
450.98 725.23 2350.7
455.78 723.17 2344.0
459.06 718.79 2329.8
474.44 733.23 2376.6
531.45 800.54 2594.8
-34.88 823.15 2690.7
-27.66 815.86 2666.9
-20.81 818.51 2675.5
-13.71 808.87 2644.0
-6.77 798.93 2611.5
0.00 799.81 2614.4
6.81 803.90 2627.8
13.61 803.02 2624.9
20.57 809.15 2644.9
52.61 886.86 2898.9
59.35 875.41 2861.5
65.83 863.08 2821.2
74.82 882.91 2886.0
82.63 886.37 2897.3
87.13 856.77 2800.6
96.64 877.17 2867.3
147.73 757.92 2477.5
151.22 743.50 2430.3
156.69 739.59 2417.5
166.41 755.24 2468.7
172.38 753.37 2462.6
174.03 733.39 2397.3
182.22 741.44 2423.6
184.90 703.83 2300.7
180.16 664.32 2171.5
195.62 678.92 2219.2
206.26 695.39 2273.1
216.46 709.52 2319.3
221.42 706.16 2308.3
219.76 682.41 2230.6
226.64 685.74 2241.5
243.91 702.00 2294.7
239.86 673.89 2202.8
241.58 662.95 2167.0
248.00 665.10 2174.1
247.25 648.35 2119.3
255.06 654.27 2138.7
270.83 679.95 2222.6
280.29 689.05 2252.3
281.10 676.94 2212.8
281.34 663.96 2170.3
293.90 680.01 2222.8
305.33 692.86 2264.8
310.58 691.48 2260.3
317.40 693.57 2267.1
319.79 686.10 2242.7
318.21 670.51 2191.7
322.10 666.81 2179.6
333.90 679.32 2220.5
338.24 676.47 2211.2
337.37 663.50 2168.8
349.90 676.85 2212.5
357.63 680.65 2224.9
355.70 666.23 2177.8
363.09 669.45 2188.3
369.42 670.63 2192.1
378.18 676.14 2210.2
394.90 695.50 2273.4
403.13 699.54 2286.6
407.54 696.95 2278.2
427.81 721.16 2357.3
443.10 736.42 2407.2
435.09 713.06 2330.8
442.19 714.77 2336.4
461.58 736.04 2405.9
532.02 794.66 2597.6
-41.42 807.74 2662.9
6.75 789.25 2601.9
59.09 864.26 2849.2
67.10 872.34 2875.9
72.62 849.66 2801.1
141.81 754.17 2486.3
146.01 742.76 2448.7
154.84 754.82 2488.4
166.08 747.35 2463.8
162.35 703.50 2319.2
169.16 706.85 2330.3
182.20 735.10 2423.4
187.34 730.63 2408.7
179.67 678.11 2235.5
180.44 659.75 2175.0
190.86 676.68 2230.8
199.80 687.54 2266.6
208.48 696.94 2297.6
207.63 674.81 2224.7
211.84 652.25 2150.3
230.18 690.53 2276.5
237.50 694.69 2290.2
235.99 673.44 2220.1
237.02 660.28 2176.7
243.56 662.71 2184.7
252.63 671.76 2214.6
254.86 662.64 2184.5
254.33 646.88 2132.6
261.41 650.74 2145.3
265.24 646.51 2131.4
282.56 648.24 2137.0
296.46 667.03 2199.0
304.67 672.58 2217.3
318.29 689.62 2273.5
327.86 697.45 2299.3
325.73 680.54 2243.5
328.49 674.27 2222.9
337.41 680.65 2243.9
339.06 672.36 2216.6
337.32 657.77 2168.5
348.80 669.01 2205.5
362.14 683.39 2252.9
365.99 679.69 2240.8
368.68 673.99 2221.9
370.15 666.28 2196.5
374.73 664.30 2190.0
386.65 675.20 2225.9
406.74 699.83 2307.1
424.02 719.00 2370.3
426.23 712.41 2348.6
422.59 696.38 2295.8
427.31 694.37 2289.1
447.31 716.92 2363.5
472.86 718.49 2368.7
532.39 788.47 2599.4
-20.24 782.47 2601.8
-13.89 805.52 2678.5
-6.89 798.91 2656.5
0.00 792.86 2636.4
7.04 816.19 2713.9
66.21 853.41 2837.7
87.55 846.34 2814.2
103.66 858.87 2855.8
109.93 850.16 2826.9
118.88 861.88 2865.8
158.85 708.73 2356.6
160.52 689.65 2293.2
172.61 715.10 2377.8
179.82 719.29 2391.7
179.82 695.32 2312.0
177.57 664.46 2209.4
182.71 662.33 2202.3
193.85 681.43 2265.8
203.81 695.35 2312.1
207.85 688.89 2290.6
202.62 652.88 2170.9
206.46 647.29 2152.3
225.99 689.86 2293.9
233.13 676.06 2248.0
235.86 667.30 2218.9
241.03 665.70 2213.5
242.67 654.64 2176.8
246.51 649.89 2161.0
251.82 649.14 2158.5
254.28 641.24 2132.2
260.20 642.20 2135.4
262.70 634.86 2111.0
280.01 649.63 2160.1
282.51 642.58 2136.7
294.45 644.46 2142.9
313.20 672.79 2237.1
321.46 677.99 2254.4
317.97 658.65 2190.1
321.02 653.30 2172.3
330.38 660.77 2197.1
336.83 662.24 2202.0
339.76 656.88 2184.2
342.01 650.37 2162.6
345.35 646.15 2148.5
354.81 653.30 2172.3
363.76 659.31 2192.3
375.67 670.43 2229.3
391.16 687.50 2286.0
385.45 667.34 2219.0
387.21 660.54 2196.4
417.73 702.28 2335.2
434.40 719.86 2393.6
428.27 699.70 2326.6
431.47 695.15 2311.5
446.37 709.30 2358.5
460.96 722.59 2402.7
471.14 719.11 2391.1
473.00 712.56 2369.4
-27.71 796.55 2671.6
-20.91 801.71 2689.0
-14.11 811.43 2721.6
-6.89 792.01 2656.4
0.00 794.59 2665.1
20.81 797.71 2675.5
51.28 842.46 2825.6
58.50 840.99 2820.7
66.93 855.23 2868.5
103.83 852.93 2860.8
109.94 842.86 2827.0
115.91 833.07 2794.2
153.68 679.74 2279.9
166.39 708.71 2377.0
171.35 703.74 2360.4
171.61 680.53 2282.5
178.61 684.68 2296.5
183.69 681.42 2285.5
188.23 676.45 2268.8
198.81 692.83 2323.8
204.21 690.70 2316.6
203.50 668.63 2242.6
205.35 655.96 2200.1
216.31 672.32 2255.0
229.06 693.22 2325.1
230.70 680.25 2281.6
230.22 661.89 2220.0
235.41 660.31 2214.7
241.30 660.71 2216.0
243.90 652.30 2187.8
249.73 652.69 2189.2
257.11 657.06 2203.8
258.44 646.09 2167.0
263.28 644.21 2160.7
269.64 646.01 2166.7
277.35 650.92 2183.2
288.59 663.77 2226.3
288.24 649.96 2180.0
293.87 637.65 2138.7
311.55 663.50 2225.4
318.71 666.39 2235.1
320.54 658.24 2207.8
328.53 662.83 2223.1
336.46 667.12 2237.5
340.69 664.06 2227.3
349.44 669.75 2246.4
358.28 675.44 2265.5
356.71 661.64 2219.2
360.16 657.44 2205.1
372.33 669.04 2244.0
388.37 687.11 2304.6
403.25 702.63 2356.6
395.07 678.11 2274.4
387.15 654.73 2196.0
407.55 679.25 2278.2
426.82 701.20 2351.9
422.14 683.74 2293.3
428.43 684.29 2295.1
446.50 703.39 2359.2
454.77 706.74 2370.4
461.08 706.99 2371.3
-34.51 786.76 2662.0
0.00 785.12 2656.4
6.81 776.89 2628.6
20.55 780.84 2641.9
103.21 840.44 2843.6
110.72 841.50 2847.2
124.53 835.10 2825.5
147.84 702.24 2376.0
168.65 712.09 2409.3
170.35 693.59 2346.7
168.07 660.67 2235.4
171.90 653.20 2210.1
179.36 659.58 2231.7
186.30 663.69 2245.6
196.50 678.81 2296.7
201.49 675.57 2285.8
205.20 668.37 2261.4
211.28 669.07 2263.8
213.62 658.19 2227.0
217.47 652.40 2207.4
224.10 655.06 2216.4
229.10 652.93 2209.2
240.24 668.00 2260.1
252.58 685.59 2319.7
252.68 669.91 2266.6
256.64 664.94 2249.8
261.40 662.22 2240.6
260.21 644.86 2181.9
266.02 645.24 2183.2
273.62 649.84 2198.7
281.53 654.99 2216.1
293.36 668.86 2263.1
298.88 668.09 2260.5
300.03 657.76 2225.5
301.39 648.28 2193.4
310.31 655.09 2216.5
323.81 671.16 2270.9
331.93 675.71 2286.2
330.58 661.17 2237.0
328.99 646.63 2187.8
340.78 658.46 2227.9
357.20 678.69 2296.3
372.47 696.09 2355.2
377.98 694.99 2351.5
372.17 673.45 2278.6
375.42 668.71 2262.6
374.91 657.54 2224.8
383.84 653.11 2209.8
397.25 665.98 2253.3
408.50 674.92 2283.6
416.65 678.55 2295.8
415.12 666.54 2255.2
423.96 671.27 2271.2
441.63 689.67 2333.5
449.47 692.43 2342.8
462.13 702.43 2376.7
496.30 744.45 2518.8
-51.18 826.16 2820.0
-6.90 780.18 2663.1
0.00 802.67 2739.8
51.72 834.88 2849.8
59.72 843.55 2879.4
67.74 850.54 2903.2
74.87 845.99 2887.7
80.41 825.98 2819.4
87.86 827.33 2824.0
95.66 831.48 2838.2
104.36 842.37 2875.3
150.51 708.63 2418.8
155.76 704.04 2403.2
164.87 716.55 2445.9
172.26 720.92 2460.8
177.56 716.59 2446.0
178.76 696.56 2377.6
180.28 679.05 2317.9
184.71 673.31 2298.3
186.11 657.21 2243.3
190.83 653.43 2230.4
194.21 645.46 2203.2
196.23 633.56 2162.6
210.99 662.26 2260.6
222.21 678.63 2316.4
223.64 665.04 2270.0
228.31 661.52 2258.0
229.85 649.33 2216.4
237.27 653.93 2232.1
257.15 660.40 2254.2
254.02 637.87 2177.3
257.55 632.67 2159.5
268.30 645.05 2201.8
280.68 660.78 2255.5
293.71 677.33 2312.0
298.87 675.45 2305.6
297.71 659.62 2251.6
304.09 660.81 2255.6
310.62 662.27 2260.6
315.85 660.94 2256.1
325.79 669.36 2284.8
325.67 657.16 2243.1
316.07 626.59 2138.8
321.93 627.21 2140.9
341.60 654.24 2233.2
351.84 662.63 2261.8
360.12 667.11 2277.1
372.29 678.53 2316.1
373.82 670.50 2288.7
368.76 651.09 2222.4
384.10 647.82 2211.3
398.85 662.80 2262.4
412.34 675.27 2305.0
435.81 703.52 2401.4
445.41 699.05 2386.1
448.01 693.49 2367.2
462.82 706.73 2412.4
498.31 740.91 2529.0
509.34 747.47 2551.4
524.01 749.53 2558.5
-20.72 773.52 2663.9
-14.01 784.68 2702.3
-6.92 774.65 2667.8
0.00 766.84 2640.9
50.66 810.50 2791.3
79.59 810.32 2790.6
89.26 833.12 2869.2
117.14 820.01 2824.0
121.83 802.66 2764.2
156.37 700.52 2412.5
161.37 695.12 2393.9
167.61 695.28 2394.5
178.09 687.81 2368.7
184.43 688.52 2371.2
187.69 678.10 2335.3
187.51 656.29 2260.2
191.70 650.60 2240.6
194.85 641.85 2210.5
205.24 638.52 2199.0
220.25 666.70 2296.0
225.59 664.88 2289.8
229.15 658.06 2266.3
229.32 642.09 2211.3
227.38 621.12 2139.1
234.94 626.51 2157.6
252.61 657.96 2265.9
260.48 663.05 2283.5
263.32 655.39 2257.1
273.54 666.01 2293.6
277.78 661.94 2279.6
283.01 660.36 2274.2
288.46 659.34 2270.7
286.11 640.88 2207.1
288.21 632.93 2179.7
297.49 640.75 2206.7
306.52 647.74 2230.7
314.46 652.22 2246.2
319.64 650.90 2241.6
315.54 631.07 2173.3
320.08 628.92 2165.9
339.44 655.48 2257.4
357.38 678.42 2336.4
366.56 684.24 2356.4
368.33 676.27 2329.0
372.85 673.54 2319.6
382.91 680.72 2344.3
386.79 676.88 2331.1
381.98 658.17 2266.7
390.29 662.32 2280.9
403.45 674.43 2322.6
411.31 677.45 2333.1
424.98 689.81 2375.6
444.55 682.05 2348.9
444.65 672.98 2317.7
-21.43 792.86 2755.1
-14.11 783.19 2721.5
14.05 779.87 2710.0
21.15 782.63 2719.5
51.46 815.99 2835.5
66.47 819.78 2848.6
74.27 824.43 2864.8
81.69 824.37 2864.6
109.01 806.70 2803.2
114.68 795.57 2764.5
122.97 802.95 2790.2
158.84 705.23 2450.6
161.54 689.66 2396.5
168.83 669.29 2325.7
173.75 665.04 2310.9
176.13 651.68 2264.5
183.11 635.16 2207.1
194.04 652.68 2268.0
201.99 659.43 2291.5
206.06 653.51 2270.9
206.99 638.21 2217.7
210.85 632.56 2198.1
222.25 649.21 2255.9
232.69 662.27 2301.3
233.24 647.25 2249.1
231.60 627.00 2178.8
234.58 619.97 2154.3
246.71 636.85 2213.0
261.10 658.68 2288.8
271.19 668.94 2324.5
283.55 669.66 2327.0
282.02 652.17 2266.2
280.66 635.78 2209.3
282.84 627.90 2181.9
289.42 629.90 2188.9
300.14 640.68 2226.3
310.65 650.61 2260.8
316.95 651.50 2263.9
320.26 646.35 2246.0
322.38 639.01 2220.5
333.93 650.29 2259.7
346.25 662.65 2302.7
355.59 668.99 2324.7
361.48 668.74 2323.8
360.31 655.65 2278.3
371.12 664.42 2308.8
388.44 684.39 2378.2
396.50 687.68 2389.6
396.30 676.76 2351.7
401.27 674.85 2345.1
411.46 681.68 2368.8
423.45 691.21 2401.9
426.09 675.66 2347.8
496.74 725.51 2521.1
502.67 724.63 2518.0
-51.42 808.09 2833.6
-28.41 781.30 2739.6
51.18 804.25 2820.1
60.02 825.33 2894.0
81.15 811.48 2845.4
110.77 812.31 2848.4
115.35 793.05 2780.8
123.31 797.90 2797.8
160.06 704.28 2469.6
164.63 696.51 2442.3
168.98 688.46 2414.1
173.12 680.13 2384.9
173.51 658.13 2307.7
188.09 646.55 2267.1
197.12 657.08 2304.0
202.38 654.76 2295.9
209.24 657.62 2305.9
212.94 650.65 2281.5
215.77 641.49 2249.4
226.27 654.99 2296.7
231.30 652.38 2287.6
226.55 623.02 2184.6
234.30 628.60 2204.2
246.61 645.89 2264.8
250.61 641.09 2248.0
256.69 641.74 2250.2
268.25 655.73 2299.3
280.60 656.72 2302.8
276.62 633.93 2222.9
281.58 632.11 2216.5
290.20 638.45 2238.7
296.17 638.80 2239.9
306.51 648.39 2273.6
315.84 655.52 2298.6
320.76 653.40 2291.2
322.79 645.58 2263.7
323.71 635.85 2229.6
333.45 643.51 2256.5
343.91 652.24 2287.1
351.46 655.26 2297.7
355.66 652.04 2286.4
353.34 637.16 2234.2
361.90 642.07 2251.4
372.56 650.50 2281.0
373.29 641.58 2249.7
387.61 655.95 2300.1
407.38 678.96 2380.8
414.04 679.77 2383.6
422.22 683.01 2395.0
418.64 657.86 2306.8
423.34 646.77 2267.9
446.94 673.47 2361.5
456.67 678.83 2380.3
532.21 741.05 2598.5
-51.63 804.01 2845.1
-43.51 790.45 2797.1
-28.40 773.91 2738.6
-21.33 775.01 2742.5
-13.91 758.17 2682.9
-6.88 750.29 2655.0
0.00 753.28 2665.6
7.08 772.04 2732.0
51.81 806.73 2854.7
87.86 798.07 2824.1
96.24 806.97 2855.6
116.15 791.27 2800.0
122.80 787.38 2786.3
153.43 696.83 2465.8
158.18 689.67 2440.5
165.26 692.81 2451.6
172.06 694.60 2458.0
182.50 685.95 2427.3
180.18 654.64 2316.5
184.68 649.36 2297.9
191.32 651.68 2306.1
194.14 641.25 2269.2
204.12 654.39 2315.7
223.37 658.02 2328.5
225.95 648.12 2293.5
222.74 622.53 2202.9
224.72 612.36 2167.0
239.75 637.37 2255.4
254.70 661.01 2339.1
260.70 660.84 2338.5
259.27 642.28 2272.8
263.30 637.78 2256.9
272.39 645.43 2284.0
271.82 630.40 2230.8
276.93 628.86 2225.3
291.72 648.92 2296.3
296.84 647.10 2289.9
299.15 639.35 2262.4
301.44 631.87 2236.0
302.68 622.50 2202.8
311.63 629.03 2225.9
317.70 629.63 2228.0
316.73 616.49 2181.5
323.96 619.51 2192.2
336.98 633.29 2241.0
347.62 642.21 2272.6
358.86 651.93 2306.9
363.80 650.07 2300.4
366.42 644.19 2279.6
370.01 640.18 2265.4
375.11 638.86 2260.7
393.15 659.28 2333.0
423.01 678.05 2399.4
420.06 663.57 2348.1
437.15 680.70 2408.8
466.58 706.35 2499.5
477.51 713.00 2523.1
492.93 706.96 2501.7
507.49 718.39 2542.1
511.55 714.85 2529.6
521.15 719.05 2544.5
-50.83 784.23 2800.8
-43.60 784.80 2802.9
-35.86 774.59 2766.4
-29.06 784.58 2802.1
-14.33 773.56 2762.7
-7.04 760.62 2716.5
0.00 759.01 2710.7
7.20 777.34 2776.2
28.41 767.06 2739.5
35.25 761.38 2719.2
42.94 772.94 2760.5
51.51 794.75 2838.4
81.15 796.73 2845.4
86.87 781.85 2792.3
92.71 770.20 2750.7
100.15 772.56 2759.1
121.83 773.95 2764.1
123.86 743.16 2654.1
159.53 689.18 2461.4
165.37 686.92 2453.3
168.88 675.51 2412.5
172.45 665.17 2375.6
183.34 638.73 2281.2
204.85 650.70 2323.9
214.14 660.77 2359.9
215.91 647.74 2313.3
219.01 639.27 2283.1
221.38 629.19 2247.1
225.80 625.28 2233.1
235.90 636.93 2274.8
243.27 640.80 2288.6
249.87 642.51 2294.7
259.38 651.46 2326.6
261.52 641.90 2292.5
258.01 619.22 2211.5
259.33 608.87 2174.5
267.69 615.12 2196.9
281.87 634.22 2265.1
295.07 650.35 2322.7
299.14 646.14 2307.6
300.86 637.11 2275.4
302.93 629.16 2247.0
300.65 612.65 2188.0
305.82 611.65 2184.5
321.59 631.48 2255.3
330.65 637.67 2277.4
326.99 619.57 2212.7
328.46 611.61 2184.3
344.35 630.33 2251.2
362.95 653.30 2333.2
370.82 656.53 2344.7
375.53 654.15 2336.3
379.89 651.24 2325.9
385.61 650.72 2324.0
400.78 665.90 2378.2
417.93 663.77 2370.6
412.69 645.96 2307.0
428.31 660.82 2360.1
489.97 715.09 2553.9
495.82 713.97 2549.9
505.93 718.95 2567.7
517.63 726.03 2593.0
517.80 716.96 2560.6
518.97 709.48 2533.9
-50.50 771.88 2782.5
-28.90 773.03 2786.6
-20.83 742.84 2677.8
-13.91 743.92 2681.7
-6.98 746.87 2692.3
6.88 736.44 2654.7
14.17 758.36 2733.7
20.86 743.91 2681.7
27.76 742.56 2676.8
43.73 779.93 2811.5
86.48 771.12 2779.7
122.12 768.63 2770.8
123.54 734.37 2647.3
165.22 679.95 2451.1
163.67 648.63 2338.2
167.82 641.32 2311.8
181.95 671.33 2420.0
190.51 679.47 2449.4
180.76 623.91 2249.1
202.70 637.92 2299.6
210.19 642.57 2316.4
212.38 631.25 2275.5
215.84 624.19 2250.1
223.32 628.83 2266.8
233.12 639.59 2305.6
245.96 626.62 2258.8
241.28 600.40 2164.3
253.06 615.39 2218.4
260.19 618.67 2230.2
260.65 606.28 2185.5
268.22 610.62 2201.2
280.63 625.57 2255.1
291.74 637.06 2296.5
297.35 636.34 2293.9
300.93 631.37 2276.0
303.64 624.81 2252.3
302.30 610.29 2200.0
300.54 595.52 2146.7
308.59 600.36 2164.2
321.30 613.92 2213.1
321.99 604.44 2178.9
326.38 602.12 2170.5
345.45 626.49 2258.4
367.04 654.55 2359.5
381.90 659.09 2375.9
384.49 653.03 2354.0
380.50 636.14 2293.2
385.49 634.57 2287.5
392.89 636.96 2296.1
405.81 638.55 2301.8
431.69 659.87 2378.7
434.53 654.85 2360.6
488.40 696.79 2511.8
495.06 697.00 2512.5
502.10 697.72 2515.2
518.14 710.78 2562.2
-51.37 777.89 2830.6
-35.97 762.58 2774.9
-21.07 744.34 2708.5
-7.23 766.09 2787.6
0.00 738.00 2685.4
6.90 731.90 2663.3
14.01 742.49 2701.8
21.09 745.13 2711.4
28.80 763.13 2776.9
65.43 770.66 2804.3
70.18 743.86 2706.8
79.44 765.53 2785.6
87.65 774.22 2817.2
93.42 761.71 2771.7
100.77 762.97 2776.3
121.22 755.87 2750.5
131.90 735.84 2677.6
138.22 732.58 2665.7
152.06 671.60 2443.8
184.67 675.01 2456.3
181.13 640.01 2328.9
184.74 631.70 2298.6
190.42 630.78 2295.3
196.34 630.65 2294.8
206.65 644.25 2344.3
209.89 635.67 2313.1
207.77 611.78 2226.1
212.48 608.73 2215.1
221.39 617.56 2247.2
225.32 612.40 2228.4
230.84 611.73 2226.0
243.38 629.24 2289.7
239.96 605.62 2203.7
247.76 596.87 2171.9
259.02 610.13 2220.2
264.36 609.17 2216.7
273.53 616.89 2244.8
287.96 635.92 2314.0
296.06 640.46 2330.5
298.54 632.91 2303.0
304.67 633.24 2304.2
310.16 632.25 2300.6
309.32 618.65 2251.1
308.50 605.58 2203.6
306.75 591.20 2151.3
324.58 593.21 2158.6
341.44 613.44 2232.2
358.23 632.87 2302.9
371.30 645.21 2347.8
377.71 645.76 2349.8
386.30 649.96 2365.1
388.64 643.69 2342.3
387.98 632.71 2302.3
389.89 626.19 2278.6
391.84 619.92 2255.8
420.82 655.98 2387.0
433.87 657.00 2390.7
418.73 625.15 2274.8
505.27 704.72 2564.4
503.37 692.95 2521.5
509.09 691.84 2517.5
-20.97 733.86 2695.8
-14.53 763.03 2803.0
-7.12 748.06 2748.0
0.00 743.08 2729.7
7.22 757.78 2783.7
14.40 755.94 2776.9
21.36 747.52 2746.0
28.10 737.52 2709.3
34.79 730.67 2684.1
41.92 733.54 2694.6
49.43 741.39 2723.5
56.72 744.50 2734.9
78.09 745.42 2738.3
101.54 761.52 2797.4
104.05 728.38 2675.7
111.42 731.20 2686.0
145.61 664.75 2442.0
165.89 669.95 2461.1
171.84 668.27 2454.9
174.61 654.79 2405.4
172.57 624.81 2295.2
176.91 619.20 2274.6
187.96 636.62 2338.6
196.53 644.88 2368.9
208.05 642.52 2360.3
203.57 610.72 2243.5
204.14 595.41 2187.2
211.33 599.72 2203.1
218.60 604.03 2218.9
221.10 595.26 2186.7
239.28 598.21 2197.5
251.55 614.24 2256.4
256.01 610.94 2244.3
258.41 602.95 2214.9
264.30 603.30 2216.2
274.76 613.82 2254.8
277.90 607.90 2233.1
275.09 589.47 2165.4
287.94 604.67 2221.2
304.36 626.63 2301.9
312.17 630.34 2315.5
313.60 621.28 2282.3
319.41 621.07 2281.5
324.40 619.31 2275.0
324.77 608.95 2237.0
329.19 606.40 2227.6
331.11 599.43 2202.0
339.47 604.15 2219.3
344.81 603.41 2216.6
344.84 593.58 2180.5
350.82 594.13 2182.5
361.01 601.69 2210.3
387.63 635.95 2336.2
410.18 652.55 2397.1
411.26 644.52 2367.6
420.25 648.91 2383.8
422.51 642.95 2361.9
420.69 631.04 2318.1
417.25 617.06 2266.7
450.19 647.53 2378.7
520.72 700.96 2575.0
-51.28 761.88 2825.6
-43.61 755.92 2803.6
-36.32 755.43 2801.7
-28.63 744.25 2760.3
7.03 731.01 2711.2
21.14 732.82 2717.9
42.00 728.07 2700.3
49.70 738.45 2738.8
57.42 746.48 2768.6
64.64 746.96 2770.3
73.07 759.93 2818.4
80.70 763.01 2829.8
87.19 755.66 2802.6
92.56 740.51 2746.4
112.33 730.17 2708.0
141.87 670.64 2487.3
159.82 615.58 2283.1
180.85 626.94 2325.2
187.61 629.41 2334.4
191.63 622.80 2309.8
200.46 631.76 2343.1
203.19 621.51 2305.1
204.14 606.59 2249.7
210.29 607.50 2253.1
214.24 602.18 2233.3
217.70 595.82 2209.8
223.47 595.93 2210.2
226.46 588.79 2183.7
231.96 588.38 2182.2
244.87 606.36 2248.9
256.74 620.95 2303.0
259.57 613.54 2275.5
263.61 609.23 2259.5
271.79 614.49 2279.0
274.23 606.82 2250.6
269.73 584.41 2167.4
298.23 608.15 2255.5
313.01 626.03 2321.8
308.80 605.95 2247.3
308.10 593.37 2200.7
319.70 604.52 2242.0
327.48 608.18 2255.6
333.92 609.26 2259.6
337.65 605.43 2245.4
345.24 608.56 2257.0
350.08 606.80 2250.5
343.85 586.24 2174.3
383.60 623.36 2311.9
401.49 642.38 2382.5
394.14 621.07 2303.4
394.16 611.83 2269.1
402.23 615.17 2281.5
412.74 622.10 2307.2
421.65 626.45 2323.4
437.81 641.30 2378.5
454.96 648.17 2403.9
493.95 684.94 2540.3
-28.80 741.70 2777.5
-20.92 718.24 2689.7
-6.92 713.10 2670.4
6.99 720.07 2696.5
21.57 740.43 2772.8
28.23 727.00 2722.5
36.09 743.49 2784.2
43.47 746.30 2794.7
50.59 744.46 2787.9
58.86 757.84 2838.0
79.35 743.01 2782.4
86.83 745.27 2790.9
93.50 740.83 2774.3
97.04 713.95 2673.6
103.74 712.34 2667.6
111.77 719.49 2694.4
117.16 709.88 2658.4
131.35 712.04 2666.4
145.03 711.35 2663.8
139.21 651.74 2440.6
145.97 653.71 2448.0
152.36 653.87 2448.6
158.81 654.29 2450.2
163.51 647.75 2425.7
168.62 643.26 2408.9
171.06 629.26 2356.4
175.83 624.51 2338.7
182.91 628.00 2351.7
184.41 612.70 2294.5
186.32 599.72 2245.8
193.34 603.46 2259.8
201.70 611.05 2288.2
208.73 614.26 2300.3
215.09 615.41 2304.6
219.17 610.13 2284.8
219.45 594.83 2227.5
221.97 586.22 2195.3
226.60 583.51 2185.1
233.64 586.95 2198.0
247.33 606.56 2271.4
259.90 622.56 2331.4
265.88 622.39 2330.7
273.63 626.32 2345.4
278.95 624.61 2339.0
278.15 609.56 2282.7
279.09 598.88 2242.7
279.70 587.95 2201.7
291.07 587.84 2201.3
307.09 585.74 2193.5
316.16 581.51 2177.6
326.50 589.99 2209.4
334.55 594.12 2224.9
347.22 606.16 2269.9
358.03 614.61 2301.6
357.36 603.42 2259.7
351.73 584.32 2188.2
359.45 587.67 2200.7
379.89 611.39 2289.5
388.25 615.22 2303.9
397.97 621.08 2325.8
415.43 638.64 2391.6
415.41 629.22 2356.3
417.42 623.11 2333.4
427.96 629.71 2358.1
446.67 647.98 2426.6
480.07 677.36 2536.6
512.59 694.69 2601.5
520.04 695.64 2605.0
518.49 684.68 2564.0
-36.60 746.71 2823.7
-28.95 738.30 2791.9
-21.78 740.36 2799.7
7.14 728.36 2754.3
13.97 712.51 2694.3
21.36 726.30 2746.5
29.08 741.62 2804.5
49.40 719.82 2722.0
62.72 710.80 2687.9
69.41 707.95 2677.1
77.22 716.08 2707.9
87.15 740.81 2801.4
93.40 732.83 2771.2
96.58 703.64 2660.8
104.03 707.41 2675.1
112.96 720.12 2723.1
117.88 707.27 2674.6
136.87 664.81 2514.0
155.22 659.68 2494.6
160.66 655.50 2478.8
164.13 643.91 2435.0
168.06 634.88 2400.8
169.49 617.43 2334.8
175.22 616.30 2330.5
183.40 623.58 2358.1
189.87 624.73 2362.4
196.60 626.65 2369.7
196.60 607.67 2297.9
198.01 594.04 2246.4
206.68 602.31 2277.7
214.78 608.55 2301.2
221.99 611.97 2314.2
225.38 604.96 2287.7
225.41 589.55 2229.4
227.85 581.01 2197.1
235.02 584.67 2211.0
249.06 604.86 2287.3
260.82 618.68 2339.6
266.04 616.74 2332.2
269.10 609.96 2306.6
269.62 597.85 2260.8
276.10 599.21 2265.9
284.17 603.85 2283.5
282.44 587.94 2223.3
279.91 571.02 2159.3
286.31 572.61 2165.3
305.14 598.54 2263.4
320.29 604.99 2287.8
313.55 581.49 2198.9
321.92 586.35 2217.3
323.45 578.81 2188.8
322.68 567.47 2145.9
334.12 577.64 2184.3
343.98 584.76 2211.3
352.45 589.34 2228.6
357.63 588.36 2224.9
356.87 577.78 2184.9
367.62 585.89 2215.5
383.50 601.81 2275.7
401.98 621.24 2349.2
413.86 630.06 2382.6
408.28 612.41 2315.9
417.34 616.94 2333.0
436.17 635.57 2403.4
496.60 675.37 2553.9
-21.04 708.49 2705.7
-14.22 717.88 2741.5
-7.09 715.86 2733.8
0.00 721.18 2754.1
7.05 712.31 2720.3
13.87 700.65 2675.8
21.32 717.86 2741.5
28.40 717.09 2738.5
35.24 711.75 2718.1
43.95 739.84 2825.4
51.36 741.08 2830.1
56.55 713.94 2726.5
63.48 712.38 2720.6
70.40 711.08 2715.6
78.16 717.61 2740.5
86.52 728.19 2780.9
91.28 709.15 2708.2
104.77 705.48 2694.2
115.00 725.91 2772.2
123.66 693.87 2649.9
130.86 660.82 2523.6
156.82 659.95 2520.3
160.70 649.23 2479.4
164.37 638.51 2438.4
168.37 629.81 2405.2
169.88 612.77 2340.1
175.55 611.40 2334.9
185.25 623.66 2381.7
192.94 628.60 2400.6
200.93 614.96 2348.5
205.78 611.30 2334.5
221.12 620.37 2369.2
222.41 607.11 2318.5
229.03 608.74 2324.7
232.08 601.03 2295.3
229.59 579.71 2213.9
232.30 572.25 2185.4
245.55 590.50 2255.1
256.91 603.44 2304.5
261.82 601.01 2295.2
264.45 593.54 2266.7
264.06 579.78 2214.2
269.02 578.11 2207.8
275.86 580.45 2216.7
295.88 585.95 2237.7
307.79 597.82 2283.0
318.22 606.41 2315.9
316.33 591.65 2259.5
310.74 570.63 2179.2
317.25 572.19 2185.2
317.14 561.96 2146.1
333.60 571.08 2180.9
348.36 586.40 2239.4
363.26 601.46 2296.9
374.60 610.24 2330.5
380.50 610.01 2329.6
382.74 604.02 2306.7
388.41 603.53 2304.8
391.29 598.79 2286.7
388.44 585.55 2236.2
402.14 597.30 2281.0
432.78 633.49 2419.3
438.35 632.47 2415.4
442.66 629.71 2404.8
505.32 662.83 2531.3
-21.04 701.42 2705.5
7.08 708.46 2732.6
28.97 724.24 2793.5
35.51 710.17 2739.2
43.62 726.95 2804.0
66.09 734.38 2832.6
72.73 727.31 2805.3
80.00 727.26 2805.2
87.57 729.72 2814.6
93.91 722.39 2786.3
99.90 713.55 2752.3
107.55 716.99 2765.5
123.96 688.69 2656.4
126.03 663.29 2558.4
138.36 658.87 2541.3
139.86 635.72 2452.1
147.12 639.64 2467.2
155.54 648.06 2499.7
162.05 648.22 2500.3
168.31 647.36 2497.0
172.66 639.49 2466.6
174.33 622.61 2401.5
174.50 601.72 2320.9
178.31 594.35 2292.5
186.77 602.50 2323.9
194.84 608.88 2348.5
198.74 602.26 2323.0
207.19 609.38 2350.5
226.62 612.47 2362.4
232.21 611.08 2357.0
237.58 609.19 2349.7
237.02 592.56 2285.6
236.85 577.68 2228.2
247.28 588.76 2270.9
256.53 596.59 2301.1
259.24 589.19 2272.6
264.95 588.78 2271.0
267.55 581.63 2243.4
274.34 583.71 2251.4
281.53 586.52 2262.3
284.38 580.37 2238.6
296.32 592.64 2285.9
303.04 594.20 2291.9
305.13 586.79 2263.3
316.70 597.55 2304.8
316.12 585.41 2258.0
315.85 574.28 2215.1
327.47 584.77 2255.5
331.79 582.08 2245.2
338.21 583.11 2249.2
344.06 583.15 2249.3
350.06 583.43 2250.4
364.24 597.11 2303.1
373.91 603.08 2326.2
378.70 601.12 2318.6
379.49 592.95 2287.1
390.10 600.15 2314.9
397.90 602.88 2325.4
397.13 592.73 2286.3
414.00 608.82 2348.3
436.02 622.89 2402.6
437.67 616.44 2377.7
512.41 674.23 2600.6
505.25 656.17 2531.0
-14.57 721.45 2810.9
-7.01 694.36 2705.3
7.19 711.76 2773.1
28.23 698.80 2722.6
50.35 712.15 2774.6
57.10 706.65 2753.2
63.56 699.16 2724.0
70.69 699.86 2726.7
78.61 707.52 2756.6
86.78 715.92 2789.3
93.64 713.13 2778.4
124.63 685.46 2670.6
128.63 670.23 2611.3
132.73 656.99 2559.7
134.71 635.06 2474.3
146.40 630.17 2455.2
154.25 636.28 2479.0
160.34 634.94 2473.8
165.49 630.12 2455.0
168.64 618.36 2409.2
175.84 621.73 2422.3
181.58 619.88 2415.1
181.50 598.94 2333.5
186.11 594.36 2315.7
195.44 604.66 2355.8
200.27 600.82 2340.8
202.21 588.80 2294.0
209.78 593.38 2311.9
217.71 598.69 2332.6
221.85 593.61 2312.8
220.67 574.91 2239.9
231.47 572.89 2232.1
244.98 591.54 2304.7
253.73 598.07 2330.1
261.31 601.62 2344.0
259.08 582.92 2271.1
259.50 570.90 2224.3
263.47 567.03 2209.2
271.46 571.81 2227.8
284.70 587.19 2287.7
292.62 591.21 2303.4
303.85 601.63 2344.0
309.58 600.95 2341.4
299.49 570.19 2221.5
299.09 558.67 2176.6
311.08 570.31 2222.0
325.08 585.14 2279.8
336.44 594.79 2317.3
340.21 590.89 2302.2
349.37 596.33 2323.4
357.31 599.56 2336.0
352.21 581.15 2264.2
355.53 577.00 2248.1
367.83 587.35 2288.4
374.72 588.84 2294.2
373.85 578.30 2253.1
382.12 582.00 2267.5
400.60 600.89 2341.1
410.32 606.29 2362.2
408.19 594.27 2315.4
412.48 591.82 2305.8
430.40 608.71 2371.6
492.01 658.23 2564.5
494.92 653.29 2545.3
521.49 661.90 2578.8
-29.28 717.29 2823.2
-7.15 700.83 2758.4
0.00 691.96 2723.5
7.05 690.73 2718.6
14.03 687.52 2706.0
21.69 708.69 2789.3
28.47 697.59 2745.6
42.92 700.99 2759.0
50.28 703.92 2770.5
63.21 688.34 2709.2
72.45 709.96 2794.3
79.08 704.50 2772.8
85.75 700.26 2756.1
92.59 697.99 2747.2
131.14 676.42 2662.3
140.64 656.33 2583.2
145.83 649.60 2556.7
152.26 648.77 2553.5
157.66 643.76 2533.7
161.88 634.57 2497.6
165.00 621.93 2447.8
173.42 629.45 2477.4
186.56 630.45 2481.4
181.08 591.54 2328.2
186.00 587.99 2314.2
195.48 598.67 2356.3
201.72 599.04 2357.7
205.06 591.06 2326.3
209.03 585.29 2303.6
213.25 580.50 2284.8
215.60 571.05 2247.6
231.11 566.23 2228.6
247.49 591.56 2328.3
261.25 595.41 2343.5
252.86 563.19 2216.6
261.12 568.66 2238.2
273.16 581.95 2290.5
272.57 568.34 2236.9
277.09 565.72 2226.6
285.83 571.66 2250.0
297.93 583.95 2298.3
312.89 589.68 2320.9
307.32 568.25 2236.6
314.90 571.48 2249.3
326.10 581.05 2286.9
335.26 586.70 2309.2
339.99 584.54 2300.7
349.87 591.16 2326.7
366.14 598.03 2353.8
364.23 585.15 2303.1
371.44 587.12 2310.8
376.19 585.19 2303.2
373.12 571.35 2248.7
379.61 572.34 2252.6
394.95 586.44 2308.1
411.06 601.25 2366.5
416.69 600.52 2363.6
421.10 598.08 2354.0
438.80 614.32 2417.9
443.65 612.36 2410.2
432.07 588.10 2314.7
-43.71 706.71 2810.2
-14.46 701.41 2789.1
-7.18 696.05 2767.8
0.00 696.54 2769.8
7.27 705.08 2803.7
14.37 696.78 2770.7
56.35 683.23 2716.8
64.70 697.34 2772.9
72.11 699.49 2781.5
76.66 676.04 2688.2
85.11 687.94 2735.5
94.15 702.51 2793.5
98.53 682.71 2714.7
102.85 665.10 2644.7
107.57 652.12 2593.1
114.49 653.27 2597.7
123.97 668.06 2656.5
131.32 670.41 2665.9
153.80 648.63 2579.2
158.96 642.45 2554.7
162.86 631.89 2512.7
165.23 616.45 2451.3
172.85 620.97 2469.3
180.27 624.51 2483.3
175.99 588.65 2340.7
191.03 579.07 2302.6
202.67 595.72 2368.8
206.89 590.25 2347.1
211.53 586.24 2331.1
213.29 574.69 2285.2
213.05 558.53 2221.0
215.71 550.63 2189.5
223.77 556.56 2213.1
235.56 571.23 2271.5
247.33 585.16 2326.8
255.30 589.61 2344.6
252.81 570.30 2267.8
253.78 559.48 2224.7
271.62 585.50 2328.2
290.44 586.92 2333.9
291.87 577.79 2297.6
301.23 584.39 2323.8
316.58 590.55 2348.3
314.11 574.88 2286.0
318.05 571.31 2271.8
325.75 574.50 2284.5
338.39 586.13 2330.7
346.58 589.79 2345.3
344.02 575.34 2287.8
345.57 568.14 2259.2
356.52 576.37 2291.9
364.29 579.29 2303.5
372.13 582.20 2315.1
377.36 581.01 2310.4
378.59 573.80 2281.7
389.84 581.76 2313.3
395.02 580.56 2308.6
399.85 578.88 2301.9
423.17 603.64 2400.3
444.79 607.67 2416.4
438.03 590.13 2346.6
443.92 589.87 2345.6
502.18 649.49 2582.6
516.24 650.32 2586.0
522.31 649.54 2582.8
-21.45 686.38 2757.8
-14.73 706.92 2840.3
-7.28 698.48 2806.4
0.00 695.58 2794.7
28.69 688.54 2766.5
36.10 693.11 2784.8
43.38 694.05 2788.6
50.15 687.74 2763.3
56.81 681.67 2738.9
64.15 684.29 2749.4
70.40 675.80 2715.3
92.74 684.83 2751.5
99.93 685.25 2753.2
102.54 656.23 2636.6
105.78 634.69 2550.1
112.64 636.07 2555.6
122.01 650.71 2614.5
128.96 651.60 2618.0
136.44 654.90 2631.3
147.78 644.84 2590.9
154.88 646.44 2597.3
164.34 631.05 2535.5
164.29 606.61 2437.3
166.79 593.02 2382.7
169.21 580.14 2330.9
175.58 581.24 2335.4
181.30 580.17 2331.1
189.70 569.11 2286.6
205.36 597.40 2400.3
213.76 586.32 2355.7
210.80 562.13 2258.6
213.83 554.79 2229.1
220.31 556.58 2236.3
227.42 559.81 2249.3
238.40 572.17 2298.9
245.64 575.15 2310.9
249.04 569.24 2287.1
255.55 570.52 2292.3
265.82 579.97 2330.2
273.14 582.69 2341.2
279.13 582.52 2340.5
284.76 581.64 2336.9
282.70 565.40 2271.7
285.69 559.71 2248.9
296.54 569.37 2287.6
305.18 574.46 2308.1
303.93 561.10 2254.4
307.96 557.81 2241.2
319.05 567.19 2278.9
317.03 553.36 2223.3
319.20 547.20 2198.6
327.76 552.02 2218.0
348.07 556.92 2237.6
359.20 565.30 2271.3
370.65 573.92 2305.9
374.14 570.12 2290.7
373.89 560.83 2253.3
393.78 581.59 2336.7
408.20 593.74 2385.6
406.90 583.02 2342.5
423.59 598.01 2402.7
445.23 602.00 2418.8
441.68 588.90 2366.1
454.12 597.19 2399.4
486.85 631.59 2537.6
504.44 637.18 2560.1
519.77 648.03 2603.7
-36.32 690.13 2802.0
0.00 689.47 2799.3
7.01 666.03 2704.2
61.93 653.67 2654.0
72.00 683.99 2777.1
86.60 685.57 2783.5
99.71 676.61 2747.1
121.00 638.59 2592.8
129.38 646.88 2626.4
133.65 634.86 2577.6
137.94 624.03 2533.6
144.71 624.90 2537.2
154.74 639.13 2595.0
157.10 621.85 2524.8
153.07 581.66 2361.6
158.97 580.85 2358.3
167.43 589.10 2391.8
171.28 581.13 2359.5
179.18 586.98 2383.2
186.08 589.26 2392.5
186.65 571.98 2322.3
192.15 570.44 2316.1
204.32 588.19 2388.2
211.23 590.22 2396.4
209.68 569.12 2310.7
209.03 551.61 2239.6
214.70 551.24 2238.1
225.49 563.73 2288.8
237.04 577.40 2344.3
245.56 583.21 2367.9
250.10 579.49 2352.8
247.61 560.08 2274.0
247.84 547.56 2223.2
254.97 550.50 2235.1
259.23 547.26 2222.0
264.80 546.87 2220.4
269.89 545.52 2214.9
272.91 540.14 2193.0
281.08 544.96 2212.6
286.23 543.84 2208.1
288.43 537.26 2181.4
299.18 546.58 2219.2
316.21 566.78 2301.2
324.76 571.33 2319.7
320.37 553.37 2246.8
316.46 536.84 2179.7
328.54 538.12 2184.8
348.18 560.63 2276.3
359.93 569.89 2313.8
365.94 569.91 2313.9
372.11 570.16 2315.0
369.66 557.43 2263.2
373.31 554.14 2249.9
396.76 579.88 2354.4
413.96 586.95 2383.1
400.89 560.07 2274.0
417.02 565.96 2297.9
437.05 584.78 2374.3
445.33 587.58 2385.7
487.69 626.08 2542.0
489.23 619.69 2516.0
512.65 632.50 2568.0
-21.63 677.63 2780.5
7.05 662.49 2718.4
35.83 673.57 2763.9
43.05 674.49 2767.7
49.50 664.76 2727.7
55.61 653.36 2681.0
62.44 652.14 2676.0
72.14 678.14 2782.7
96.53 648.12 2659.5
112.13 620.02 2544.1
122.79 641.24 2631.2
132.88 624.53 2562.7
137.13 613.81 2518.7
143.64 613.72 2518.3
152.75 624.27 2561.6
154.06 603.38 2475.9
153.72 578.00 2371.7
163.96 592.80 2432.4
173.64 604.51 2480.5
177.76 576.19 2364.3
193.47 568.31 2332.0
203.37 579.28 2377.0
207.86 574.68 2358.1
206.46 554.50 2275.3
211.76 537.99 2207.5
222.20 549.64 2255.4
235.52 567.66 2329.3
245.61 577.17 2368.3
253.63 581.50 2386.1
254.70 570.05 2339.1
247.13 540.24 2216.8
256.68 536.17 2200.1
267.83 547.31 2245.8
279.92 559.85 2297.3
290.60 569.09 2335.2
288.97 554.34 2274.7
283.78 533.50 2189.1
291.14 536.62 2201.9
307.28 555.46 2279.3
321.42 570.07 2339.2
326.97 569.17 2335.5
326.33 557.72 2288.5
326.56 548.15 2249.3
335.83 553.82 2272.5
353.45 572.83 2350.5
368.96 578.03 2371.9
371.62 572.67 2349.8
373.56 566.36 2324.0
380.69 568.02 2330.8
393.27 577.61 2370.1
406.04 587.19 2409.5
410.64 584.86 2399.9
412.20 578.31 2373.0
398.93 551.47 2262.9
435.36 576.40 2365.2
477.79 615.24 2524.6
488.89 621.02 2548.2
495.64 621.20 2549.0
507.09 627.19 2573.6
514.47 628.06 2577.1
518.40 624.74 2563.5
533.38 634.66 2604.2
-28.84 670.57 2781.2
-14.47 672.70 2790.0
-7.09 659.82 2736.6
0.00 672.48 2789.1
7.08 658.65 2731.7
20.96 649.72 2694.7
28.11 653.46 2710.2
34.75 646.41 2681.0
63.61 657.31 2726.2
70.95 659.84 2736.7
77.49 655.11 2717.1
93.84 623.33 2585.3
134.01 623.17 2584.6
137.05 606.93 2517.2
144.66 611.53 2536.3
159.04 616.27 2555.9
161.93 602.37 2498.3
169.69 606.95 2517.3
176.79 608.95 2525.6
183.21 567.96 2355.6
188.11 564.34 2340.6
198.40 576.61 2391.5
206.80 582.80 2417.1
210.12 574.74 2383.7
207.99 552.66 2292.2
210.54 543.90 2255.8
218.94 550.31 2282.4
216.89 530.82 2201.5
235.62 547.82 2272.0
252.65 573.09 2376.9
256.64 568.28 2356.9
252.02 545.06 2260.6
249.10 526.50 2183.7
257.06 531.25 2203.3
268.68 543.20 2252.9
280.32 554.68 2300.5
287.64 557.31 2311.4
282.64 536.44 2224.9
281.07 522.78 2168.2
291.70 531.92 2206.1
303.43 542.67 2250.7
312.47 548.30 2274.1
325.00 559.73 2321.5
331.87 561.16 2327.4
326.75 542.64 2250.6
330.19 538.73 2234.4
339.77 544.80 2259.5
343.29 541.13 2244.3
356.31 552.28 2290.6
368.34 561.57 2329.1
361.89 542.83 2251.4
379.16 550.97 2285.1
398.35 569.95 2363.8
404.81 570.41 2365.8
408.44 566.94 2351.4
406.76 556.31 2307.3
422.02 560.68 2325.4
474.59 613.01 2542.4
488.20 621.96 2579.5
529.78 623.67 2586.6
-28.93 665.37 2789.6
-14.21 653.56 2740.1
-7.06 649.16 2721.6
0.00 671.44 2815.0
7.27 668.42 2802.4
14.37 661.22 2772.2
21.52 659.82 2766.3
28.37 652.61 2736.1
42.14 646.07 2708.7
61.97 633.46 2655.8
67.94 625.07 2620.6
81.76 626.84 2628.0
94.60 621.63 2606.2
124.58 603.23 2529.1
133.29 613.12 2570.5
136.34 597.29 2504.1
144.03 602.30 2525.2
152.58 610.32 2558.8
154.84 593.56 2488.5
156.55 576.10 2415.3
162.33 574.38 2408.1
173.57 591.42 2479.5
186.11 570.74 2392.8
189.55 562.53 2358.4
198.44 570.51 2391.9
207.34 578.03 2423.4
211.18 571.43 2395.8
214.18 562.99 2360.4
222.42 568.41 2383.1
227.06 564.58 2367.0
220.74 534.42 2240.6
245.09 549.95 2305.7
250.37 548.42 2299.3
254.75 545.04 2285.1
261.59 546.97 2293.2
262.96 537.60 2253.9
268.84 537.67 2254.2
275.90 540.05 2264.2
277.72 532.29 2231.7
280.10 525.91 2204.9
286.48 527.13 2210.0
292.76 528.11 2214.1
300.09 530.93 2226.0
300.86 522.25 2189.6
305.22 520.01 2180.2
324.23 542.35 2273.8
331.97 545.38 2286.5
325.54 525.44 2202.9
349.04 535.19 2243.8
366.12 552.18 2315.1
365.96 543.03 2276.7
368.58 538.24 2256.6
390.85 561.85 2355.6
401.17 567.81 2380.6
398.97 556.13 2331.6
411.01 564.37 2366.1
419.17 567.11 2377.6
420.86 561.15 2352.7
477.89 610.64 2560.1
484.86 611.05 2561.9
490.36 609.64 2555.9
498.43 611.41 2563.4
-7.15 650.52 2757.3
14.37 653.73 2770.9
21.15 641.55 2719.3
28.73 653.70 2770.8
35.36 643.58 2727.9
55.40 630.18 2671.1
64.09 648.06 2746.9
107.91 613.74 2601.4
108.73 582.02 2466.9
120.68 577.98 2449.9
129.63 589.84 2500.1
132.87 575.77 2440.5
139.18 575.69 2440.1
146.53 579.74 2457.3
152.39 577.82 2449.2
157.02 571.54 2422.5
159.74 559.08 2369.7
168.09 566.54 2401.4
182.01 571.15 2420.9
178.37 541.05 2293.3
182.25 534.99 2267.6
194.53 553.20 2344.8
207.04 570.93 2420.0
212.50 568.75 2410.7
217.12 564.51 2392.7
224.18 566.67 2401.9
227.47 559.45 2371.3
228.22 546.52 2316.5
229.37 535.19 2268.5
235.29 535.28 2268.9
246.98 548.17 2323.5
249.03 539.58 2287.1
250.37 529.84 2245.8
252.37 521.94 2212.3
261.73 517.77 2194.6
277.47 537.22 2277.1
280.76 532.28 2256.1
285.17 529.61 2244.8
298.16 542.66 2300.1
311.69 556.15 2357.3
313.53 548.69 2325.7
308.72 530.07 2246.8
309.99 522.38 2214.2
326.75 540.63 2291.5
339.16 551.13 2336.0
336.55 537.30 2277.4
335.52 526.43 2231.3
344.42 531.23 2251.7
359.26 544.88 2309.6
372.72 556.03 2356.8
377.76 554.45 2350.1
386.21 557.87 2364.6
392.99 558.78 2368.4
386.51 541.11 2293.5
397.06 547.46 2320.5
476.44 593.91 2517.4
511.15 604.09 2560.5
517.93 604.25 2561.2
520.02 599.01 2539.0
-7.05 634.20 2718.0
0.00 647.15 2773.5
7.03 633.06 2713.1
35.10 631.88 2708.0
55.19 620.89 2661.0
63.29 632.90 2712.4
68.53 616.73 2643.1
93.82 603.15 2584.9
101.39 608.31 2607.1
114.28 605.01 2592.9
118.90 594.50 2547.9
126.16 597.61 2561.2
132.03 594.13 2546.3
134.43 576.13 2469.1
140.15 573.33 2457.1
149.57 585.27 2508.3
157.92 592.21 2538.0
161.08 579.87 2485.2
162.32 561.87 2408.0
192.95 542.67 2325.7
205.17 559.55 2398.1
210.57 557.39 2388.8
213.37 548.67 2351.4
218.33 545.83 2339.3
226.11 550.00 2357.1
231.59 548.51 2350.8
232.34 536.17 2297.9
237.74 534.90 2292.4
