ply
format ascii 1.0
element vertex 2177
property float x
property float y
property float z
end_header
1852.93 719.14 2499.0
1872.34 724.14 2516.3
1449.93 699.53 2452.9
1473.08 707.59 2481.2
1452.01 688.45 2414.1
1477.79 697.67 2446.4
1510.24 709.94 2489.4
1553.97 727.39 2550.6
1544.69 719.98 2524.6
1508.85 700.31 2455.6
1505.39 695.77 2439.7
1534.63 706.32 2476.7
1568.12 718.72 2520.2
1563.65 713.70 2502.6
1541.55 700.70 2457.0
1543.62 698.76 2450.2
1530.07 689.78 2418.7
1542.46 692.53 2428.4
1603.50 717.01 2514.2
1619.24 721.12 2528.6
1600.32 709.82 2489.0
1601.81 707.63 2481.3
1588.46 698.92 2450.8
1563.86 685.36 2403.2
1536.41 670.65 2351.6
1527.43 664.10 2328.7
1621.63 702.28 2462.5
1645.24 706.94 2478.9
1586.67 679.12 2381.3
1597.53 681.12 2388.3
1598.65 678.96 2380.8
1570.91 664.61 2330.5
1575.70 664.09 2328.6
1586.50 666.09 2335.6
1572.64 657.76 2306.4
1604.85 668.69 2344.8
1660.90 689.43 2417.5
1620.49 670.13 2349.8
1630.04 669.04 2346.0
1697.73 694.24 2434.3
1693.70 690.03 2419.6
1728.34 693.86 2433.0
1752.42 700.97 2457.9
1756.75 700.15 2455.1
1709.92 679.03 2381.0
1727.76 683.65 2397.2
1775.35 699.96 2454.4
1805.96 709.48 2487.8
1815.45 710.68 2492.0
1821.51 710.52 2491.4
1841.39 715.73 2509.7
1819.14 704.60 2470.7
1801.39 695.27 2438.0
1810.23 696.24 2441.4
1837.11 704.12 2469.0
1875.16 716.21 2511.4
1861.33 708.46 2484.2
1829.82 694.07 2433.8
1869.19 706.57 2477.6
1466.32 716.72 2536.2
1468.05 708.04 2505.5
1482.83 712.02 2519.6
1489.25 711.96 2519.4
1478.30 703.64 2490.0
1455.05 686.58 2429.6
1507.36 708.20 2506.1
1541.87 721.30 2552.4
1557.39 725.45 2567.1
1563.56 719.11 2544.7
1532.70 701.95 2484.0
1536.43 700.71 2479.6
1540.65 699.71 2476.0
1509.81 682.86 2416.4
1538.70 693.05 2452.5
1590.53 713.45 2524.6
1567.23 700.11 2477.5
1569.82 698.41 2471.4
1601.15 709.45 2510.5
1585.41 699.64 2475.8
1596.37 701.63 2482.8
1629.51 713.32 2524.2
1591.36 693.83 2455.2
1544.98 670.93 2374.2
1565.90 677.31 2396.8
1606.11 691.96 2448.6
1632.59 700.60 2479.2
1645.21 703.25 2488.6
1598.66 680.68 2408.7
1550.20 657.48 2326.6
1558.25 658.33 2329.6
1556.00 654.84 2317.3
1592.34 667.56 2362.3
1661.58 693.92 2455.5
1644.70 684.25 2421.3
1603.01 664.37 2351.0
1630.47 665.62 2355.4
1589.12 646.32 2287.1
1623.54 655.43 2319.3
1709.07 682.37 2414.7
1722.37 685.17 2424.6
1776.84 701.72 2483.2
1709.57 672.72 2380.5
1702.34 667.46 2361.9
1724.18 673.60 2383.7
1779.87 692.88 2451.9
1820.30 706.10 2498.6
1767.10 683.03 2417.0
1728.60 665.79 2356.0
1747.70 670.77 2373.6
1769.75 676.85 2395.2
1783.16 679.60 2404.9
1815.23 689.41 2439.6
1835.74 694.78 2458.6
1803.09 680.06 2406.5
1780.81 669.34 2368.6
1826.55 684.17 2421.1
1994.03 736.78 2607.2
1497.23 725.12 2589.7
1506.74 726.47 2594.5
1528.69 720.95 2574.8
1481.56 689.69 2463.2
1522.03 705.49 2519.6
1539.51 710.55 2537.7
1571.12 718.99 2567.8
1559.25 710.54 2537.7
1542.66 700.03 2500.1
1532.58 692.55 2473.4
1524.46 686.01 2450.0
1512.11 677.63 2420.1
1559.63 696.03 2485.8
1592.45 704.86 2517.3
1586.77 699.47 2498.1
1609.27 706.51 2523.2
1562.57 683.23 2440.1
1541.88 671.46 2398.1
1618.69 702.08 2507.4
1628.67 703.58 2512.8
1563.79 672.87 2403.1
1567.19 671.65 2398.8
1603.68 684.57 2444.9
1627.48 692.00 2471.4
1638.49 693.95 2478.4
1590.28 670.90 2396.1
1554.18 653.12 2332.6
1576.32 659.86 2356.6
1596.38 665.67 2377.4
1654.62 687.30 2454.7
1673.40 689.80 2463.6
1625.72 667.60 2384.3
1597.12 648.46 2315.9
1633.45 660.72 2359.7
1634.36 653.74 2334.8
1716.40 684.03 2443.0
1703.89 676.54 2416.2
1680.57 664.84 2374.4
1728.80 681.43 2433.7
1747.25 686.19 2450.7
1682.33 658.30 2351.1
1655.18 645.34 2304.8
1687.72 655.66 2341.6
1711.24 662.42 2365.8
1766.93 681.53 2434.0
1807.92 694.86 2481.6
1755.81 672.44 2401.6
1719.57 656.23 2343.7
1740.97 662.06 2364.5
1781.56 675.12 2411.1
1814.76 685.29 2447.5
1828.86 688.21 2457.9
1828.97 685.86 2449.5
1829.64 683.74 2441.9
1836.73 684.02 2442.9
1876.14 696.30 2486.8
1970.39 723.82 2585.1
1978.48 721.88 2578.1
1983.98 721.45 2576.6
1507.48 689.32 2484.9
1564.79 709.46 2557.5
1540.66 695.57 2507.4
1558.76 700.79 2526.2
1581.53 708.05 2552.4
1570.46 700.16 2524.0
1557.21 691.38 2492.3
1547.46 684.21 2466.4
1543.83 679.79 2450.5
1539.10 674.93 2433.0
1551.00 677.37 2441.8
1579.16 686.87 2476.0
1538.65 666.54 2402.7
1568.01 671.11 2419.2
1556.57 663.56 2392.0
1527.45 648.56 2337.9
1531.79 647.83 2335.3
1570.93 661.77 2385.6
1597.36 670.27 2416.2
1599.12 668.38 2409.4
1613.81 671.90 2422.1
1632.33 676.97 2440.4
1648.20 680.92 2454.6
1658.67 682.61 2460.7
1663.15 681.83 2457.9
1660.53 673.02 2426.1
1637.86 661.32 2383.9
1679.23 675.48 2435.0
1680.82 673.59 2428.2
1626.20 649.27 2340.5
1617.00 643.19 2318.6
1665.31 659.96 2379.0
1709.34 674.91 2432.9
1742.33 685.40 2470.7
1728.46 674.98 2433.2
1668.20 649.08 2339.8
1654.72 641.50 2312.5
1678.69 648.45 2337.5
1745.53 671.84 2421.9
1806.37 692.76 2497.3
1782.63 681.22 2455.7
1739.78 662.48 2388.1
1709.37 648.59 2338.0
1712.81 645.32 2326.3
1750.45 657.19 2369.0
1816.15 679.47 2449.3
1863.46 694.74 2504.4
1855.48 689.36 2485.0
1846.84 683.78 2464.9
1822.28 672.36 2423.7
1826.98 671.78 2421.6
1498.20 705.82 2568.3
1490.95 699.30 2544.6
1496.44 698.78 2542.7
1500.42 697.57 2538.3
1540.66 713.14 2595.0
1521.79 701.35 2552.1
1464.75 672.13 2445.8
1497.88 681.44 2479.6
1543.21 693.14 2522.2
1531.23 684.85 2492.1
1560.03 694.81 2528.3
1580.49 698.05 2540.1
1546.10 680.03 2474.5
1517.67 664.77 2419.0
1526.41 665.84 2422.9
1532.03 665.56 2421.8
1553.32 672.05 2445.5
1590.40 685.29 2493.7
1601.38 687.23 2500.7
1589.74 679.48 2472.5
1528.83 650.83 2368.2
1558.81 650.53 2367.1
1558.34 647.78 2357.2
1534.65 635.44 2312.2
1591.86 656.57 2389.1
1649.52 675.09 2456.5
1638.74 668.10 2431.1
1652.45 671.11 2442.0
1655.79 664.82 2419.2
1608.79 643.52 2341.6
1624.08 647.19 2355.0
1662.17 659.89 2401.2
1645.87 650.98 2368.8
1626.11 640.77 2331.6
1665.51 653.87 2379.3
1687.69 660.13 2402.1
1699.26 662.21 2409.7
1711.42 664.51 2418.0
1668.78 645.59 2349.2
1648.56 635.44 2312.3
1674.77 643.21 2340.5
1674.32 640.71 2331.4
1713.21 653.24 2377.0
1783.15 677.47 2465.2
1772.53 671.03 2441.7
1768.15 666.99 2427.0
1776.96 667.94 2430.5
1736.69 650.49 2367.0
1734.99 647.57 2356.4
1739.04 646.80 2353.6
1768.67 655.52 2385.3
1875.36 692.64 2520.4
1879.27 689.28 2508.2
1813.69 662.93 2412.3
1856.61 676.29 2460.9
1466.49 675.36 2480.9
1525.52 699.47 2569.5
1534.02 700.31 2572.6
1501.49 682.50 2507.1
1482.27 670.85 2464.4
1538.90 693.50 2547.5
1515.28 677.04 2487.1
1488.66 656.76 2412.6
1548.44 669.08 2457.8
1552.57 668.11 2454.3
1570.78 673.19 2473.0
1593.25 680.05 2498.1
1589.01 675.49 2481.4
1630.01 687.35 2525.0
1571.35 657.34 2414.7
1564.10 651.71 2394.0
1555.70 645.64 2371.8
1544.53 638.49 2345.5
1588.28 648.91 2383.7
1653.38 672.89 2471.8
1649.20 668.59 2456.1
1629.68 658.14 2417.7
1635.72 658.05 2417.3
1631.34 653.78 2401.6
1604.91 640.74 2353.7
1597.03 635.18 2333.3
1589.08 629.64 2313.0
1593.80 629.13 2311.1
1623.49 638.45 2345.3
1636.04 640.99 2354.6
1643.60 641.55 2356.7
1676.34 651.91 2394.8
1692.94 655.94 2409.6
1654.46 638.67 2346.1
1643.06 627.35 2304.6
1670.97 635.70 2335.2
1671.08 633.44 2326.9
1678.00 633.78 2328.2
1712.97 644.67 2368.2
1745.20 654.45 2404.1
1785.03 667.00 2450.2
1817.52 676.74 2486.0
1800.44 668.01 2453.9
1778.61 657.58 2415.6
1766.51 650.82 2390.8
1755.48 644.49 2367.5
1819.60 665.71 2445.5
1886.53 685.42 2517.9
1856.16 672.06 2468.8
1943.33 701.20 2575.8
1985.44 713.94 2622.6
1964.06 701.45 2576.8
1990.84 701.47 2576.8
1482.01 694.28 2574.9
1474.70 675.64 2505.8
1560.90 711.99 2640.6
1540.78 693.68 2572.7
1521.16 681.90 2529.0
1492.80 666.31 2471.2
1483.57 656.56 2435.0
1515.21 667.72 2476.4
1513.33 664.08 2462.9
1512.41 660.89 2451.1
1495.53 650.78 2413.6
1513.95 650.62 2413.0
1564.77 669.70 2483.8
1550.70 660.95 2451.3
1548.53 657.33 2437.9
1550.49 655.49 2431.1
1542.43 649.44 2408.7
1582.81 663.76 2461.7
1595.49 661.08 2451.8
1538.69 635.01 2355.1
1597.59 649.02 2407.1
1622.56 656.60 2435.2
1621.05 653.45 2423.5
1623.30 651.83 2417.5
1609.71 643.88 2388.0
1589.43 633.34 2348.9
1585.29 626.88 2325.0
1628.64 641.58 2379.5
1634.58 641.50 2379.2
1652.16 645.96 2395.7
1687.02 657.12 2437.1
1704.19 661.33 2452.7
1672.26 646.53 2397.8
1665.33 641.46 2379.0
1690.89 648.90 2406.6
1660.83 635.02 2355.2
1639.60 624.61 2316.5
1662.35 630.97 2340.1
1643.23 621.44 2304.8
1675.89 626.95 2325.2
1750.94 652.68 2420.7
1825.17 677.92 2514.3
1830.11 677.34 2512.1
1824.08 672.71 2494.9
1833.59 673.83 2499.1
1837.90 673.03 2496.1
1827.67 666.94 2473.5
1820.86 662.13 2455.7
1805.80 654.37 2426.9
1805.85 652.11 2418.6
1834.00 659.99 2447.8
1854.02 664.89 2465.9
1861.73 665.36 2467.7
1993.18 700.31 2597.3
1995.73 698.84 2591.9
1535.29 702.82 2631.9
1533.57 698.93 2617.3
1556.98 706.47 2645.6
1564.14 706.61 2646.1
1523.53 685.26 2566.1
1570.96 703.52 2634.5
1551.04 688.61 2578.7
1504.11 664.91 2489.9
1485.30 651.00 2437.9
1529.17 667.39 2499.3
1537.54 668.21 2502.3
1541.45 664.31 2487.7
1518.37 651.63 2440.2
1520.42 649.81 2433.4
1525.56 649.31 2431.5
1522.88 645.50 2417.3
1544.66 652.05 2441.8
1576.46 662.75 2481.9
1584.27 663.33 2484.0
1582.09 659.74 2470.6
1568.77 651.55 2439.9
1572.80 650.60 2436.4
1605.47 661.45 2477.0
1576.01 646.73 2421.9
1545.27 631.60 2365.2
1553.93 632.63 2369.1
1529.86 620.38 2323.2
1550.83 626.41 2345.8
1597.24 642.64 2406.6
1591.37 637.79 2388.4
1568.60 626.22 2345.1
1552.20 617.28 2311.6
1559.69 617.88 2313.8
1560.06 615.66 2305.5
1605.82 628.89 2355.1
1654.19 645.39 2416.8
1662.42 646.15 2419.7
1652.90 640.03 2396.8
1659.98 640.37 2398.0
1699.38 653.12 2445.8
1690.89 647.44 2424.5
1670.00 637.07 2385.7
1683.78 639.96 2396.5
1692.53 640.92 2400.1
1709.76 645.07 2415.7
1738.91 653.68 2447.9
1723.93 645.69 2418.0
1673.02 624.35 2338.1
1664.00 618.74 2317.1
1674.91 620.56 2323.9
1731.08 639.07 2393.2
1824.82 671.27 2513.8
1842.76 673.06 2520.5
1854.05 674.80 2527.0
1864.78 676.31 2532.6
1862.16 672.99 2520.2
1816.40 654.16 2449.7
1762.21 632.43 2368.3
1834.24 651.47 2439.6
1881.37 665.92 2493.7
1980.75 691.58 2589.8
2003.54 697.18 2610.8
1991.19 690.55 2586.0
1538.90 707.06 2673.8
1534.43 701.85 2654.0
1548.97 705.33 2667.2
1564.53 709.25 2682.1
1510.65 681.80 2578.2
1499.88 673.96 2548.6
1552.79 685.65 2592.8
1551.78 682.25 2579.9
1505.84 659.21 2492.8
1556.38 667.02 2522.3
1548.98 658.32 2489.4
1542.34 652.77 2468.5
1537.69 648.12 2450.9
1555.33 652.85 2468.8
1598.07 668.05 2526.2
1603.88 667.74 2525.1
1585.01 657.20 2485.2
1571.25 648.85 2453.7
1547.33 636.40 2406.6
1536.47 629.40 2380.1
1547.80 631.50 2388.0
1561.29 634.47 2399.3
1574.29 637.21 2409.6
1597.49 644.05 2435.5
1585.34 636.63 2407.4
1579.54 631.82 2389.2
1599.05 637.12 2409.3
1572.06 623.93 2359.4
1551.27 610.93 2310.2
1590.42 623.93 2359.4
1608.94 628.78 2377.7
1624.78 632.55 2392.0
1620.30 628.40 2376.3
1610.79 622.35 2353.4
1650.43 635.26 2402.2
1673.05 641.55 2426.0
1666.28 636.56 2407.1
1689.54 643.03 2431.6
1695.55 642.92 2431.2
1689.79 638.36 2414.0
1716.55 646.08 2443.2
1736.65 651.24 2462.7
1750.04 653.86 2472.6
1776.72 656.61 2483.0
1729.17 636.73 2407.8
1701.36 624.24 2360.6
1695.15 619.73 2343.5
1721.63 627.17 2371.6
1753.38 636.46 2406.8
1754.66 634.66 2400.0
1781.37 642.05 2427.9
1813.38 651.29 2462.8
1823.43 652.59 2467.8
1793.86 639.77 2419.3
1779.90 632.58 2392.1
1815.00 642.81 2430.8
1868.41 659.44 2493.7
1960.84 689.67 2608.0
1980.87 691.95 2616.6
1945.03 677.11 2560.5
1986.92 687.00 2597.9
2000.38 687.00 2597.9
1997.52 683.72 2585.5
1513.47 682.41 2606.1
1519.99 673.33 2571.4
1553.89 685.34 2617.3
1559.98 685.04 2616.1
1567.11 682.23 2605.4
1504.54 652.18 2490.7
1508.84 651.25 2487.1
1512.61 650.10 2482.7
1563.26 663.40 2533.5
1559.36 658.97 2516.6
1553.83 653.91 2497.2
1553.41 651.01 2486.2
1549.30 646.61 2469.4
1567.50 651.51 2488.1
1612.39 667.42 2548.9
1610.94 661.40 2525.9
1604.62 656.14 2505.8
1594.52 649.38 2480.0
1596.50 647.58 2473.1
1574.54 636.12 2429.3
1554.55 625.54 2388.9
1542.42 618.19 2360.8
1539.82 614.71 2347.5
1573.16 625.55 2388.9
1612.58 638.71 2439.2
1624.63 640.97 2447.8
1589.56 624.69 2385.7
1576.00 616.96 2356.1
1621.15 632.19 2414.3
1647.94 640.16 2444.7
1650.74 638.79 2439.5
1639.23 631.92 2413.3
1607.80 617.44 2358.0
1623.10 620.96 2371.4
1687.70 643.24 2456.5
1709.87 649.23 2479.4
1698.73 642.59 2454.0
1759.50 646.22 2467.9
1805.80 658.43 2514.5
1765.57 641.45 2449.7
1749.77 633.43 2419.0
1735.59 626.05 2390.9
1727.06 620.76 2370.6
1733.47 620.85 2371.0
1767.65 630.86 2409.2
1801.39 640.63 2446.6
1814.89 643.17 2456.2
1879.72 663.82 2535.1
1979.00 682.18 2605.2
1958.60 670.57 2560.9
1518.50 684.01 2638.3
1553.40 693.48 2674.9
1517.85 674.60 2602.0
1552.56 686.97 2649.8
1517.16 668.35 2577.9
1512.76 663.49 2559.2
1591.38 688.91 2657.2
1518.04 654.33 2523.8
1519.89 652.31 2516.1
1553.25 658.16 2538.6
1545.85 652.26 2515.8
1564.50 657.35 2535.5
1554.94 650.60 2509.5
1545.78 644.08 2484.3
1540.15 639.07 2465.0
1529.77 632.14 2438.2
1539.59 633.57 2443.8
1574.49 645.28 2488.9
1612.69 658.24 2538.9
1624.32 657.62 2536.5
1606.34 647.72 2498.3
1603.05 643.80 2483.2
1575.79 630.32 2431.2
1587.77 632.58 2439.9
1607.79 638.01 2460.9
1578.03 623.73 2405.8
1590.00 625.98 2414.5
1588.51 622.94 2402.8
1560.49 609.57 2351.2
1584.85 616.67 2378.6
1629.96 631.77 2436.8
1612.06 622.42 2400.8
1575.45 605.94 2337.2
1614.76 618.68 2386.3
1641.05 626.36 2415.9
1607.96 611.39 2358.2
1621.05 614.03 2368.4
1672.38 631.09 2434.2
1677.86 630.77 2433.0
1661.62 622.33 2400.4
1705.53 636.39 2454.7
1730.53 640.94 2472.2
1729.29 638.11 2461.3
1747.74 642.55 2478.4
1723.29 631.24 2434.8
1674.32 611.07 2357.0
1684.14 612.41 2362.2
1750.35 634.18 2446.1
1818.77 651.89 2514.4
1756.44 627.30 2419.6
1744.50 620.82 2394.6
1745.75 619.06 2387.8
1811.82 640.22 2469.4
1859.28 652.38 2516.3
1886.33 659.56 2544.0
1926.33 666.55 2571.0
1895.38 653.58 2521.0
1954.50 671.65 2590.6
1498.54 665.27 2592.0
1565.91 692.08 2696.4
1536.70 670.19 2611.1
1529.38 664.07 2587.3
1534.93 657.83 2563.0
1527.31 651.74 2539.2
1556.01 652.73 2543.1
1550.66 647.74 2523.7
1579.08 656.84 2559.1
1576.75 653.13 2544.7
1581.60 652.41 2541.9
1592.64 654.24 2549.0
1543.97 631.63 2460.9
1546.47 627.46 2444.7
1580.41 638.62 2488.1
1599.80 643.82 2508.4
1563.72 624.23 2432.1
1553.94 617.83 2407.1
1563.21 619.03 2411.8
1610.87 635.36 2475.4
1640.45 636.88 2481.3
1597.41 617.75 2406.8
1609.41 619.97 2415.5
1642.10 630.11 2455.0
1608.96 615.01 2396.1
1571.22 598.27 2330.9
1607.79 609.85 2376.0
1660.46 627.43 2444.5
1655.51 623.18 2428.0
1641.09 615.41 2397.7
1663.69 621.53 2421.5
1686.36 627.63 2445.3
1686.84 625.46 2436.8
1675.56 618.96 2411.5
1661.38 611.44 2382.2
1674.03 613.81 2391.5
1702.46 621.93 2423.1
1718.03 625.31 2436.3
1693.49 614.12 2392.7
1676.16 605.62 2359.6
1716.68 618.00 2407.8
1763.05 632.40 2463.9
1813.22 643.40 2506.8
1738.20 614.58 2394.5
1714.10 603.90 2352.9
1781.88 623.34 2428.6
1862.12 649.12 2529.0
1850.16 642.69 2504.0
1808.36 625.97 2438.8
1816.62 626.64 2441.4
1913.95 657.92 2563.3
1940.31 662.38 2580.7
1993.65 678.25 2642.5
1550.58 681.42 2682.0
1548.99 677.68 2667.3
1552.27 676.10 2661.0
1525.88 661.67 2604.2
1529.49 660.31 2598.9
1580.80 679.47 2674.3
1558.68 664.13 2613.9
1534.13 650.84 2561.6
1572.84 664.39 2614.9
1535.51 634.94 2499.0
1563.83 635.92 2502.9
1542.60 624.69 2458.7
1533.69 618.53 2434.4
1585.85 636.94 2506.9
1604.19 641.68 2525.6
1605.78 639.70 2517.8
1602.06 635.63 2501.8
1591.39 628.86 2475.1
1582.22 622.72 2450.9
1590.50 623.48 2453.9
1609.99 628.60 2474.1
1650.95 642.04 2527.0
1654.12 635.70 2502.0
1639.23 627.52 2469.8
1647.01 628.04 2471.9
1674.37 636.00 2503.2
1663.66 629.49 2477.6
1645.74 620.32 2441.5
1605.75 602.92 2373.0
1579.80 590.92 2325.8
1642.99 612.22 2409.6
1703.72 632.44 2489.2
1690.45 625.15 2460.5
1676.53 617.67 2431.1
1643.55 603.25 2374.3
1630.73 594.09 2338.3
1687.10 612.35 2410.1
1707.69 617.54 2430.6
1713.12 617.23 2429.3
1723.62 618.74 2435.3
1741.52 622.88 2451.6
1699.21 605.54 2383.3
1667.55 589.96 2322.0
1700.32 597.24 2350.7
1746.98 611.44 2406.6
1741.92 607.50 2391.0
1763.97 613.01 2412.7
1772.18 613.69 2415.4
1795.50 619.57 2438.6
1845.68 634.66 2497.9
1865.71 639.30 2516.2
1846.02 630.35 2481.0
1913.56 651.14 2562.8
1958.77 661.93 2605.3
1964.94 661.73 2604.5
1993.27 666.69 2624.0
1968.56 656.19 2582.7
1547.39 673.08 2676.5
1494.76 647.28 2573.9
1559.20 669.21 2661.1
1568.78 664.51 2642.4
1539.88 649.43 2582.4
1526.81 641.13 2549.4
1538.79 643.37 2558.3
1564.96 651.51 2590.7
1533.95 635.87 2528.5
1561.01 641.60 2551.3
1580.74 646.97 2572.6
1542.01 628.47 2499.1
1544.19 626.72 2492.1
1528.27 617.67 2456.1
1538.11 619.07 2461.7
1553.17 622.55 2475.5
1581.82 631.43 2510.8
1620.02 644.03 2560.9
1621.69 642.06 2553.1
1623.33 640.09 2545.3
1620.71 636.47 2530.9
1615.38 631.82 2512.4
1611.57 627.80 2496.4
1607.70 623.79 2480.5
1617.10 624.94 2485.0
1605.11 617.84 2456.8
1582.28 606.64 2412.3
1592.64 608.21 2418.5
1609.50 612.24 2434.5
1612.88 611.13 2430.1
1637.41 618.01 2457.5
1662.04 624.87 2484.8
1649.65 617.82 2456.7
1615.81 602.82 2397.1
1605.64 592.19 2354.8
1704.44 626.25 2490.3
1701.15 620.34 2466.8
1650.38 599.58 2384.2
1639.54 593.42 2359.7
1702.01 613.74 2440.5
1702.97 611.81 2432.8
1664.49 595.78 2369.1
1672.06 596.29 2371.1
1686.43 599.21 2382.7
1706.51 604.13 2402.3
1664.09 586.97 2334.0
1771.30 613.63 2440.1
1818.22 627.64 2495.8
1823.69 627.30 2494.4
1814.65 621.98 2473.3
1853.77 633.15 2517.7
1928.56 656.39 2610.1
1948.79 660.95 2628.2
1922.26 649.68 2583.4
1916.68 645.55 2567.0
1905.17 639.45 2542.7
1901.23 635.93 2528.7
1930.30 643.43 2558.6
1949.41 647.58 2575.1
1988.56 653.87 2600.1
1537.18 658.79 2646.9
1496.07 638.32 2564.7
1562.01 654.82 2631.0
1545.59 645.12 2592.0
1525.49 633.97 2547.2
1531.43 633.69 2546.1
1579.33 650.71 2614.5
1566.10 642.50 2581.5
1521.19 621.42 2496.8
1591.33 647.32 2600.8
1602.29 646.30 2596.8
1614.97 648.69 2606.3
1608.03 643.21 2584.3
1580.27 629.49 2529.2
1560.10 616.34 2476.3
1571.04 618.12 2483.5
1593.55 624.41 2508.8
1614.57 630.08 2531.6
1584.47 615.83 2474.3
1552.57 600.99 2414.7
1588.39 612.39 2460.5
1626.50 624.58 2509.5
1632.23 624.28 2508.3
1617.59 616.23 2475.9
1615.18 612.88 2462.4
1645.03 621.74 2498.1
1630.18 613.71 2465.8
1601.13 600.42 2412.4
1621.83 605.82 2434.1
1643.69 611.61 2457.3
1629.06 603.82 2426.1
1591.32 587.56 2360.7
1618.10 595.16 2391.3
1683.51 616.86 2478.5
1660.40 606.08 2435.1
1662.01 604.37 2428.3
1719.63 622.96 2503.0
1715.21 619.02 2487.1
1683.97 605.47 2432.7
1693.90 606.77 2437.9
1701.04 607.06 2439.1
1643.56 584.38 2347.9
1672.19 590.19 2371.3
1674.11 588.70 2365.3
1682.24 589.40 2368.1
1708.01 596.25 2395.7
1741.30 605.67 2433.5
1780.42 617.04 2479.2
1793.91 619.48 2489.0
1794.79 617.56 2481.3
1836.52 629.67 2529.9
1899.07 646.49 2597.5
1856.57 629.79 2530.4
1864.98 630.42 2532.9
1921.18 647.13 2600.1
1923.29 645.58 2593.8
1934.15 646.96 2599.4
1963.80 654.60 2630.1
1945.92 646.40 2597.1
1936.17 640.94 2575.2
1967.69 649.14 2608.1
1558.12 663.77 2695.0
1562.61 656.85 2666.9
1536.07 642.85 2610.1
1549.74 642.90 2610.3
1558.32 643.65 2613.3
1556.34 640.05 2598.7
1528.59 625.93 2541.4
1547.15 630.81 2561.2
1597.77 648.67 2633.7
1593.24 635.96 2582.1
1559.49 619.88 2516.8
1575.65 623.70 2532.3
1569.04 618.50 2511.2
1622.70 637.01 2586.4
1614.13 628.45 2551.6
1541.76 597.82 2427.3
1591.59 614.64 2495.5
1589.92 611.51 2482.8
1560.13 597.63 2426.5
1598.11 609.72 2475.6
1619.75 615.51 2499.0
1608.36 608.74 2471.6
1636.50 616.94 2504.9
1630.34 607.38 2466.1
1583.39 587.59 2385.7
1584.50 585.71 2378.1
1617.70 595.67 2418.5
1616.10 592.78 2406.8
1624.30 593.50 2409.7
1698.41 618.19 2510.0
1633.49 590.04 2395.7
1603.49 577.01 2342.8
1622.12 581.51 2361.0
1648.05 588.59 2389.8
1650.09 587.11 2383.8
1667.20 590.98 2399.5
1683.24 594.45 2413.6
1697.74 592.96 2407.5
1760.89 612.76 2487.9
1720.40 596.49 2421.8
1700.74 587.53 2385.5
1707.20 587.62 2385.8
1715.37 588.30 2388.6
1805.53 617.00 2505.1
1851.09 628.05 2550.0
1826.63 617.54 2507.3
1874.95 631.63 2564.5
1873.56 628.93 2553.6
1813.38 606.59 2462.8
1851.02 614.85 2496.4
1912.67 633.11 2570.5
1939.93 639.91 2598.1
1920.80 631.41 2563.6
1930.45 632.39 2567.6
1504.88 640.09 2626.5
1533.18 643.39 2640.0
1560.06 651.76 2674.4
1543.72 639.25 2623.1
1566.76 645.95 2650.5
1526.45 626.58 2571.1
1525.86 620.91 2547.8
1535.33 622.07 2552.6
1539.75 621.19 2548.9
1576.64 633.35 2598.9
1582.65 633.06 2597.7
1547.15 611.06 2507.4
1543.67 607.14 2491.3
1589.28 622.47 2554.2
1618.51 631.29 2590.4
1609.07 619.89 2543.6
1598.53 608.35 2496.3
1633.33 616.60 2530.1
1587.41 596.87 2449.1
1589.81 595.39 2443.1
1630.77 608.30 2496.1
1659.02 616.40 2529.3
1647.51 609.71 2501.8
1622.92 598.25 2454.8
1594.90 585.63 2403.0
1592.74 578.06 2372.0
1641.42 593.44 2435.1
1657.92 597.10 2450.1
1615.53 579.62 2378.4
1614.78 570.64 2341.5
1664.16 585.88 2404.1
1732.23 607.57 2493.1
1724.77 600.48 2464.0
1661.48 576.31 2364.8
1708.04 590.28 2422.1
1771.23 609.88 2502.5
1726.21 592.20 2430.0
1702.57 581.97 2388.0
1710.74 582.64 2390.8
1714.92 581.96 2388.0
1802.24 609.39 2500.5
1791.32 601.37 2467.6
1774.21 593.51 2435.4
1828.21 609.40 2500.6
1818.58 604.05 2478.6
1842.98 605.74 2485.5
1880.03 615.76 2526.7
1878.45 613.10 2515.8
1945.10 632.66 2596.0
1536.22 646.46 2681.2
1513.22 628.26 2605.7
1526.23 630.84 2616.4
1543.73 635.25 2634.7
1575.19 645.34 2676.5
1581.12 642.11 2663.1
1569.80 626.57 2598.7
1578.86 627.50 2602.5
1557.36 616.32 2556.2
1577.08 621.48 2577.6
1562.52 613.14 2543.0
1520.57 594.17 2464.3
1547.44 602.14 2497.4
1578.58 611.70 2537.0
1591.70 614.22 2547.5
1587.66 610.13 2530.5
1535.50 587.66 2437.3
1583.36 596.16 2472.6
1639.38 614.77 2549.7
1600.54 597.79 2479.3
1565.69 582.44 2415.6
1580.33 585.54 2428.5
1607.33 593.18 2460.2
1618.32 594.88 2467.2
1632.03 597.55 2478.3
1630.63 594.70 2466.5
1624.31 590.08 2447.3
1613.56 583.89 2421.7
1597.80 575.95 2388.7
1623.46 582.94 2417.7
1620.18 579.53 2403.6
1588.26 565.93 2347.2
1623.36 576.23 2389.9
1670.21 590.61 2449.5
1655.78 583.28 2419.2
1632.35 572.86 2375.9
1654.42 578.42 2399.0
1718.44 598.56 2482.5
1746.37 606.02 2513.4
1737.93 600.85 2492.0
1735.60 597.82 2479.4
1711.22 587.24 2435.6
1731.35 591.97 2455.2
1764.58 601.12 2493.1
1729.75 587.10 2435.0
1717.50 580.83 2409.0
1730.27 583.03 2418.1
1740.79 584.45 2424.0
1812.72 606.41 2515.1
1849.29 616.43 2556.6
1813.36 602.29 2498.0
1819.41 602.15 2497.4
1877.01 619.01 2567.3
1868.07 613.89 2546.1
1810.16 592.76 2458.5
1826.62 596.05 2472.1
1882.30 612.08 2538.6
1896.58 614.57 2548.9
1911.49 617.25 2560.0
1570.95 645.21 2705.1
1507.21 602.88 2527.6
1529.95 604.10 2532.7
1527.71 600.64 2518.2
1536.63 601.57 2522.1
1588.00 619.05 2595.4
1593.98 618.76 2594.2
1571.14 607.33 2546.3
1602.83 616.99 2586.8
1584.59 604.91 2536.1
1553.93 588.32 2466.6
1615.23 606.54 2542.9
1579.40 590.67 2476.4
1587.73 591.38 2479.4
1579.63 585.99 2456.8
1577.28 582.77 2443.3
1577.55 580.54 2433.9
1557.46 570.86 2393.4
1583.17 571.18 2394.7
1655.90 595.09 2494.9
1671.88 598.49 2509.2
1682.99 600.14 2516.1
1679.91 596.73 2501.8
1647.71 583.04 2444.4
1605.95 566.08 2373.3
1636.15 574.53 2408.7
1642.70 574.63 2409.2
1623.01 563.46 2362.3
1706.90 590.36 2475.1
1721.93 593.32 2487.5
1699.48 583.40 2445.9
1705.51 583.30 2445.5
1717.16 585.11 2453.1
1696.11 575.80 2414.1
1717.33 580.86 2435.3
1752.81 590.69 2476.5
1721.91 578.16 2424.0
1706.21 570.81 2393.1
1714.39 571.46 2395.9
1715.84 567.83 2380.7
1838.51 606.25 2541.7
1824.75 597.43 2504.7
1797.19 586.32 2458.2
1866.47 606.77 2543.9
1891.22 612.65 2568.6
1913.70 617.76 2590.0
1941.29 622.29 2609.0
1912.81 611.04 2561.8
1894.77 603.18 2528.9
1915.73 605.66 2539.3
1542.12 626.49 2655.4
1545.35 625.01 2649.2
1523.47 605.40 2566.0
1544.01 610.89 2589.3
1560.08 611.93 2593.7
1550.89 605.71 2567.4
1597.01 621.06 2632.4
1590.35 608.07 2577.4
1619.01 616.44 2612.9
1618.52 611.14 2590.4
1556.18 585.18 2480.3
1600.58 599.40 2540.6
1617.51 598.35 2536.2
1608.50 592.60 2511.8
1631.74 598.74 2537.9
1640.64 597.19 2531.3
1602.52 580.99 2462.6
1575.41 568.90 2411.3
1598.43 570.42 2417.8
1664.72 591.75 2508.2
1674.74 593.00 2513.5
1688.05 595.40 2523.7
1687.16 592.79 2512.6
1659.90 580.97 2462.5
1624.21 566.29 2400.3
1659.97 576.56 2443.8
1671.56 578.37 2451.5
1631.06 562.22 2383.0
1686.47 579.13 2454.7
1725.97 588.25 2493.4
1687.27 572.92 2428.4
1678.67 567.88 2407.0
1704.33 574.42 2434.8
1694.52 569.01 2411.8
1703.30 569.85 2415.4
1725.70 575.23 2438.2
1728.28 573.99 2432.9
1748.50 578.59 2452.4
1743.07 574.71 2436.0
1705.49 560.29 2374.8
1723.40 564.14 2391.2
1844.99 601.77 2550.7
1831.24 593.03 2513.6
1824.19 586.58 2486.3
1886.70 604.54 2562.4
1866.51 589.77 2499.8
1523.34 614.80 2634.9
1497.01 601.48 2577.8
1546.26 615.77 2639.0
1556.88 617.27 2645.4
1569.81 606.36 2598.7
1548.86 595.72 2553.1
1584.89 606.98 2601.3
1527.67 577.69 2475.8
1543.74 581.33 2491.4
1575.42 590.78 2531.9
1551.10 579.25 2482.5
1597.12 586.70 2514.4
1642.45 600.90 2575.3
1590.11 579.39 2483.1
1569.80 569.68 2441.5
1603.08 579.43 2483.3
1592.74 573.39 2457.4
1628.87 584.06 2503.1
1639.71 583.30 2499.8
1629.19 577.27 2474.0
1642.39 579.67 2484.3
1639.34 576.33 2470.0
1653.64 579.10 2481.8
1670.72 582.81 2497.8
1667.05 579.28 2482.6
1636.43 566.46 2427.7
1604.50 553.28 2371.2
1644.64 564.95 2421.2
1720.91 588.91 2523.9
1733.36 584.28 2504.1
1666.08 559.51 2397.9
1663.60 556.59 2385.4
1697.11 565.70 2424.4
1720.03 571.23 2448.1
1760.58 582.54 2496.6
1789.37 589.90 2528.2
1795.51 589.77 2527.6
1802.79 590.00 2528.6
1785.48 582.22 2495.2
1774.93 576.69 2471.5
1826.33 591.26 2534.0
1836.48 592.41 2538.9
1786.61 574.27 2461.1
1814.58 581.18 2490.8
1861.79 594.19 2546.5
1865.58 593.29 2542.7
1879.85 595.73 2553.1
1908.74 602.76 2583.3
1918.97 599.68 2570.0
1524.67 611.24 2649.0
1526.45 609.21 2640.2
1564.64 621.66 2694.2
1528.20 599.16 2596.7
1519.60 585.47 2537.4
1558.38 597.83 2590.9
1522.28 581.47 2520.0
1523.97 574.72 2490.7
1538.48 577.74 2503.9
1525.22 570.35 2471.8
1547.49 576.26 2497.4
1579.71 585.81 2538.8
1553.83 573.82 2486.9
1510.15 550.83 2387.2
1585.15 575.83 2495.6
1590.87 575.56 2494.4
1538.78 550.00 2383.6
1548.00 551.09 2388.3
1603.83 568.69 2464.6
1663.53 585.20 2536.2
1610.95 564.47 2446.3
1579.15 551.15 2388.6
1618.97 558.48 2420.4
1674.28 575.33 2493.4
1661.23 568.65 2464.5
1645.32 561.05 2431.5
1612.18 547.65 2373.4
1614.24 546.26 2367.4
1638.46 552.36 2393.9
1654.99 555.83 2408.9
1679.93 562.08 2436.0
1647.93 549.31 2380.6
1668.42 554.06 2401.2
1762.61 583.17 2527.4
1753.00 577.84 2504.3
1731.43 568.63 2464.4
1755.03 574.26 2488.8
1763.38 574.88 2491.4
1781.41 578.63 2507.7
1802.34 583.30 2528.0
1787.31 576.34 2497.8
1777.90 571.24 2475.7
1809.21 579.21 2510.2
1800.89 574.48 2489.7
1772.86 563.51 2442.2
1815.27 574.94 2491.7
1854.37 585.25 2536.4
1847.10 580.89 2517.5
1839.75 576.54 2498.7
1846.94 576.76 2499.6
1545.28 609.80 2672.8
1532.79 602.17 2639.4
1534.41 592.23 2595.8
1542.96 592.93 2598.9
1550.51 593.24 2600.2
1496.55 570.11 2498.9
1507.70 569.43 2495.9
1527.26 574.35 2517.5
1528.00 572.19 2508.0
1541.51 574.80 2519.4
1583.83 588.09 2577.7
1599.05 591.25 2591.5
1592.60 586.40 2570.2
1596.96 585.55 2566.5
1587.76 579.76 2541.2
1556.04 565.83 2480.1
1539.25 557.42 2443.3
1567.99 565.50 2478.7
1600.54 574.89 2519.8
1561.42 558.56 2448.2
1552.72 548.75 2405.2
1554.50 547.19 2398.4
1605.55 562.90 2467.3
1670.81 583.46 2557.4
1673.36 582.04 2551.1
1633.75 566.02 2480.9
1605.24 553.97 2428.1
1580.89 543.43 2381.9
1604.86 547.39 2399.3
1678.78 570.40 2500.1
1682.76 569.55 2496.4
1673.51 564.25 2473.2
1644.84 552.46 2421.5
1644.09 541.87 2375.1
1747.58 573.83 2515.2
1764.42 577.21 2530.0
1675.88 546.21 2394.1
1660.90 539.33 2364.0
1689.99 546.76 2396.5
1712.94 552.16 2420.2
1744.51 560.28 2455.8
1734.54 555.05 2432.9
1691.87 539.44 2364.4
1714.34 544.63 2387.2
1774.25 561.63 2461.7
1809.06 570.60 2501.0
1827.25 574.28 2517.1
1873.28 586.65 2571.4
1858.84 578.01 2533.5
1514.49 590.86 2619.6
1515.69 588.68 2609.9
1560.86 598.21 2652.2
1535.55 585.93 2597.7
1548.12 583.06 2585.0
1559.09 582.15 2581.0
1550.30 576.39 2555.4
1526.08 564.97 2504.8
1519.59 560.19 2483.6
1542.33 566.17 2510.1
1581.14 577.98 2562.5
1595.84 580.91 2575.5
1608.50 583.08 2585.1
1607.67 580.36 2573.0
1573.90 565.82 2508.6
1555.58 556.94 2469.2
1568.10 559.12 2478.8
1584.33 562.60 2494.3
1545.96 544.53 2414.2
1544.61 541.86 2402.3
1562.40 545.90 2420.2
1580.78 550.11 2438.9
1650.67 572.14 2536.6
1664.32 572.32 2537.4
1670.33 565.44 2506.9
1668.88 562.76 2495.0
1684.37 565.79 2508.4
1670.23 558.89 2477.8
1641.10 547.03 2425.3
1683.59 559.05 2478.6
1699.12 562.07 2491.9
1639.18 540.18 2394.9
1632.89 536.08 2376.7
1655.00 541.30 2399.8
1693.97 551.97 2447.1
1697.20 550.96 2442.7
1654.18 531.05 2354.4
1704.80 545.28 2417.5
1751.66 558.22 2474.9
1722.39 546.89 2424.6
1703.95 537.12 2381.3
1824.57 573.06 2540.7
1843.93 577.06 2558.4
1833.95 571.88 2535.4
1823.88 566.71 2512.5
1838.64 569.26 2523.8
1892.12 581.68 2578.9
1848.70 566.33 2510.8
1833.10 559.58 2480.9
1896.76 574.97 2549.1
1519.17 575.55 2581.3
1506.70 568.32 2548.9
1530.21 574.66 2577.4
1524.64 570.08 2556.8
1526.21 563.32 2526.5
1553.99 571.13 2561.5
1546.55 561.20 2517.0
1610.40 574.67 2577.4
1554.16 552.31 2477.1
1521.11 538.34 2414.5
1521.44 536.25 2405.1
1581.80 555.25 2490.3
1617.64 565.52 2536.4
1600.64 557.31 2499.6
1615.39 560.18 2512.4
1646.18 568.56 2550.0
1667.94 571.49 2563.1
1622.13 553.58 2482.8
1621.30 551.12 2471.8
1678.29 568.24 2548.6
1659.34 557.43 2500.1
1638.82 548.40 2459.6
1658.05 552.68 2478.8
1655.97 549.86 2466.1
1624.16 537.22 2409.5
1599.30 526.97 2363.5
1644.45 539.78 2420.9
1694.78 550.00 2466.8
1684.11 544.49 2442.0
1699.65 547.45 2455.4
1677.07 538.17 2413.7
1653.22 528.54 2370.5
1694.08 539.60 2420.1
1752.08 556.01 2493.7
1811.43 570.63 2559.3
1727.59 542.24 2432.0
1706.30 531.67 2384.6
1841.89 571.85 2564.8
1832.32 564.80 2533.2
1786.98 548.86 2461.7
1821.35 557.43 2500.1
1550.19 580.47 2634.1
1523.82 568.09 2577.9
1532.34 568.77 2581.0
1552.43 573.73 2603.5
1531.21 563.43 2556.8
1515.38 550.46 2497.9
1563.06 553.58 2512.1
1503.38 525.87 2386.3
1593.96 550.76 2499.2
1652.17 568.56 2580.0
1637.83 561.35 2547.3
1637.22 558.89 2536.1
1618.99 546.09 2478.1
1591.73 534.77 2426.7
1636.21 547.55 2484.7
1654.86 551.62 2503.1
1652.36 548.64 2489.6
1676.53 554.50 2516.2
1650.48 543.76 2467.5
1606.70 527.30 2392.8
1611.03 526.68 2390.0
1621.96 528.23 2397.0
1611.91 522.95 2373.0
1636.68 528.97 2400.3
1665.44 536.22 2433.3
1644.72 527.55 2393.9
1643.40 525.15 2383.0
1670.05 531.66 2412.6
1719.25 545.29 2474.4
1766.42 558.16 2532.8
1775.98 559.10 2537.1
1777.98 553.58 2512.1
1752.74 543.73 2467.4
1732.48 535.49 2430.0
1790.04 547.31 2483.6
1828.95 557.21 2528.5
1858.27 560.12 2541.7
1911.09 569.97 2586.4
1556.12 578.38 2655.8
1557.80 576.46 2647.0
1557.95 573.98 2635.6
1554.03 570.04 2617.5
1563.13 570.88 2621.4
1537.39 559.05 2567.1
1527.20 548.23 2517.4
1527.93 546.15 2507.9
1594.81 567.65 2606.5
1585.12 559.45 2568.9
1602.95 556.40 2554.9
1582.07 546.89 2511.2
1599.63 541.81 2487.9
1549.83 522.83 2400.8
1552.14 521.52 2394.7
1647.24 551.27 2531.3
1673.96 557.99 2562.2
1579.93 524.56 2408.7
1561.08 516.26 2370.6
1648.44 543.02 2493.4
1678.08 544.24 2499.1
1649.05 532.77 2446.4
1625.89 523.27 2402.8
1636.97 518.89 2382.7
1688.72 533.28 2448.7
1684.12 529.83 2432.9
1697.98 532.20 2443.8
1682.06 521.38 2394.1
1753.38 537.53 2468.3
1764.55 538.99 2475.0
1730.47 526.67 2418.4
1793.83 540.08 2480.0
1510.43 557.18 2589.3
1558.93 570.01 2648.9
1528.56 556.45 2585.9
1499.44 543.46 2525.6
1539.58 555.59 2581.9
1541.54 553.89 2574.0
1505.68 536.36 2492.5
1573.12 550.92 2560.2
1548.55 540.04 2509.7
1506.16 523.06 2430.7
1581.55 544.68 2531.2
1608.39 549.37 2553.0
1539.54 523.70 2433.7
1616.37 547.59 2544.7
1623.74 545.63 2535.6
1555.54 520.61 2419.3
1540.82 513.61 2386.8
1600.63 529.29 2459.7
1659.88 544.55 2530.6
1580.08 516.32 2399.4
1614.87 525.62 2442.7
1675.93 543.37 2525.1
1644.70 523.03 2430.6
1615.88 511.90 2378.9
1646.78 519.71 2415.2
1644.43 517.00 2402.6
1652.07 517.44 2404.6
1713.38 534.63 2484.5
1714.44 532.95 2476.7
1700.29 526.58 2447.1
1746.31 538.83 2504.0
1691.84 512.49 2381.6
1700.14 511.28 2376.0
1813.22 537.49 2497.8
1543.18 555.00 2610.6
1514.10 542.17 2550.3
1554.80 554.32 2607.4
1572.48 558.19 2625.7
1524.80 538.94 2535.1
1498.13 527.24 2480.0
1530.45 536.31 2522.7
1586.98 553.76 2604.8
1588.88 552.07 2596.8
1556.73 538.62 2533.6
1541.40 531.07 2498.1
1557.02 534.21 2512.8
1594.53 544.80 2562.6
1601.46 544.90 2563.1
1591.64 539.32 2536.9
1570.18 529.86 2492.4
1533.82 515.46 2424.7
1523.58 509.93 2398.6
1531.23 510.41 2400.9
1522.43 505.42 2377.4
1533.77 507.14 2385.5
1564.36 515.17 2423.3
1591.87 522.13 2456.0
1613.59 527.15 2479.6
1641.31 534.08 2512.2
1664.82 539.59 2538.1
1640.24 529.53 2490.8
1623.07 521.93 2455.1
1628.64 521.67 2453.9
1574.69 502.43 2363.3
1645.84 521.08 2451.1
1673.39 527.76 2482.5
1625.01 504.74 2374.2
1662.92 510.71 2402.3
1732.39 530.06 2493.3
1732.86 528.23 2484.7
1716.91 521.43 2452.7
1751.81 530.07 2493.4
1798.78 542.28 2550.8
1715.03 515.14 2423.1
1685.16 502.49 2363.6
1808.55 537.32 2527.5
1829.04 541.45 2546.9
1840.36 542.84 2553.4
1862.68 547.46 2575.1
1888.54 553.07 2601.6
1919.72 560.20 2635.1
1888.76 549.21 2583.4
1869.86 541.80 2548.5
1885.31 544.35 2560.5
1894.36 545.04 2563.8
1539.67 556.75 2651.2
1497.75 539.19 2567.6
1484.86 532.18 2534.2
1534.27 545.07 2595.6
1577.99 558.15 2657.9
1505.01 530.03 2523.9
1544.01 536.76 2556.0
1510.62 522.91 2490.0
1503.61 518.26 2467.9
1545.31 530.38 2525.6
1557.85 532.43 2535.4
1588.52 540.63 2574.4
1607.95 538.20 2562.8
1562.91 520.97 2480.8
1569.14 520.90 2480.5
1602.29 529.74 2522.6
1570.46 517.10 2462.4
1522.48 499.27 2377.5
1563.11 510.53 2431.1
1624.23 528.37 2516.0
1596.75 517.35 2463.6
1563.69 504.62 2402.9
1582.12 508.54 2421.6
1592.52 509.86 2427.9
1571.50 501.15 2386.4
1560.12 495.57 2359.8
1591.66 503.61 2398.1
1620.04 504.70 2403.4
1725.69 531.49 2530.9
1615.02 495.52 2359.6
1736.43 526.78 2508.5
1747.47 524.24 2496.4
1764.34 527.35 2511.2
1809.64 538.90 2566.2
1719.05 510.05 2428.8
1747.56 514.74 2451.1
1892.93 553.53 2635.8
1889.43 550.52 2621.5
1891.07 549.02 2614.4
1879.94 543.84 2589.7
1876.26 540.84 2575.5
1906.29 547.55 2607.4
1916.99 542.92 2585.4
1497.84 532.57 2567.7
1522.76 539.03 2598.9
1554.78 547.94 2641.9
1503.57 522.98 2521.5
1557.44 537.05 2589.3
1506.23 512.76 2472.2
1534.08 520.03 2507.3
1527.00 515.44 2485.2
1539.99 517.64 2495.8
1615.79 540.85 2607.7
1612.74 533.14 2570.5
1601.30 527.18 2541.7
1638.85 532.96 2569.6
1588.92 514.63 2481.2
1634.02 527.10 2541.4
1653.60 529.15 2551.3
1588.99 506.45 2441.8
1578.40 501.08 2415.9
1594.18 504.09 2430.4
1578.04 497.02 2396.4
1573.71 491.78 2371.1
1600.97 498.36 2402.8
1610.27 499.31 2407.4
1656.38 511.62 2466.8
1700.50 523.23 2522.7
1653.13 506.71 2443.0
1606.57 490.56 2365.2
1623.59 493.87 2381.1
1646.78 499.02 2406.0
1690.15 510.23 2460.1
1700.05 500.01 2410.8
1765.79 517.45 2494.8
1851.24 540.51 2606.0
1799.11 523.38 2523.4
1766.78 512.11 2469.1
1814.21 523.96 2526.2
1845.11 530.97 2560.0
1855.89 532.15 2565.7
1855.09 530.03 2555.5
1829.87 520.96 2511.8
1842.91 522.81 2520.7
1932.41 546.26 2633.8
1926.14 540.67 2606.8
1558.10 532.86 2601.7
1589.51 541.26 2642.7
1564.54 530.47 2590.0
1526.59 515.39 2516.4
1532.43 515.16 2515.2
1518.20 508.21 2481.3
1605.71 528.55 2580.6
1613.97 524.71 2561.9
1627.20 526.84 2572.3
1621.44 522.83 2552.7
1649.52 529.72 2586.4
1626.12 511.81 2498.9
1575.74 493.98 2411.8
1551.51 484.46 2365.4
1582.95 492.33 2403.8
1603.65 496.82 2425.7
1620.61 500.11 2441.8
1646.37 506.08 2470.9
1632.77 499.96 2441.0
1656.42 505.24 2466.8
1706.07 518.38 2531.0
1663.66 503.56 2458.6
1630.41 491.61 2400.3
1663.04 499.55 2439.0
1675.21 501.29 2447.5
1705.82 508.53 2482.9
1723.07 509.82 2489.2
1697.66 500.43 2443.3
1750.66 508.46 2482.6
1823.78 523.92 2558.0
1802.40 515.91 2518.9
1864.89 531.86 2596.8
1885.54 535.82 2616.1
1888.90 534.85 2611.4
1899.77 536.01 2617.0
1882.19 529.16 2583.6
1867.41 523.14 2554.2
1935.39 540.27 2637.8
1560.97 536.37 2652.4
1499.46 506.31 2503.7
1536.60 514.40 2543.7
1578.27 526.09 2601.5
1604.78 532.65 2634.0
1532.27 504.29 2493.7
1503.31 490.62 2426.1
1592.25 517.48 2559.0
1600.38 513.70 2540.3
1564.56 500.15 2473.3
1595.61 507.99 2512.0
1655.95 525.06 2596.4
1637.92 517.24 2557.8
1604.82 504.74 2496.0
1658.64 519.57 2569.3
1620.79 503.67 2490.7
1556.89 481.89 2383.0
1572.08 484.67 2396.7
1644.25 504.93 2496.9
1662.41 508.50 2514.6
1674.63 510.24 2523.2
1685.23 511.47 2529.3
1651.99 499.44 2469.8
1618.52 487.43 2410.4
1611.85 483.56 2391.2
1642.14 490.75 2426.8
1678.09 499.58 2470.5
1689.74 501.14 2478.2
1675.79 495.12 2448.4
1683.51 495.52 2450.4
1704.68 499.87 2471.9
1717.49 501.74 2481.1
1733.14 504.42 2494.4
1673.22 485.17 2399.2
1677.70 482.88 2387.9
1768.89 507.25 2508.4
1764.73 504.21 2493.3
1707.37 486.04 2403.5
1836.32 518.96 2566.3
1899.48 534.87 2645.0
1891.85 528.90 2615.5
1870.26 521.00 2576.4
1896.77 526.51 2603.6
1930.94 534.09 2641.1
1915.02 527.82 2610.1
1914.21 525.73 2599.8
1915.40 522.38 2583.2
1493.61 508.89 2549.1
1504.07 510.19 2555.7
1496.50 505.40 2531.7
1491.84 501.62 2512.8
1500.23 502.25 2515.9
1523.12 501.20 2510.6
1580.24 517.78 2593.7
1581.34 513.77 2573.6
1554.65 502.98 2519.5
1590.06 512.28 2566.1
1573.04 504.68 2528.1
1573.10 502.61 2517.7
1633.91 519.88 2604.2
1627.24 515.63 2582.9
1590.43 501.90 2514.1
1624.74 510.63 2557.9
1625.79 508.89 2549.2
1543.32 481.12 2410.0
1543.53 479.24 2400.6
1626.07 502.84 2518.9
1631.05 500.36 2506.5
1594.66 487.26 2440.8
1641.34 499.54 2502.3
1664.85 500.76 2508.4
1610.34 482.47 2416.9
1630.08 486.50 2437.0
1650.99 490.83 2458.7
1631.16 483.08 2419.9
1653.21 487.73 2443.2
1685.32 495.31 2481.1
1692.55 495.54 2482.3
1674.14 488.29 2446.0
1674.03 486.42 2436.6
1720.39 498.01 2494.7
1757.95 506.98 2539.6
1739.37 499.74 2503.4
1718.86 486.59 2437.5
1774.59 496.89 2489.0
1859.91 518.89 2599.3
1885.65 522.28 2616.3
1845.95 507.64 2542.9
1914.68 522.80 2618.9
1504.63 505.98 2568.0
1557.75 519.25 2635.3
1519.07 504.15 2558.6
1499.27 495.41 2514.3
1526.92 502.36 2549.6
1527.75 500.47 2540.0
1530.80 490.89 2491.4
1572.82 502.25 2549.0
1584.40 503.83 2557.0
1542.86 488.57 2479.6
1572.61 491.85 2496.2
1598.38 497.86 2526.7
1574.54 488.43 2478.9
1616.10 495.26 2513.5
1635.74 499.26 2533.8
1615.73 491.18 2492.8
1613.87 488.66 2480.0
1612.49 486.31 2468.1
1618.64 486.23 2467.7
1640.53 490.87 2491.2
1656.50 493.70 2505.6
1617.96 480.33 2437.8
1596.12 472.01 2395.5
1642.17 483.74 2455.1
1680.72 493.18 2503.0
1681.37 491.48 2494.3
1660.42 483.49 2453.8
1649.30 478.42 2428.1
1671.44 483.00 2451.3
1665.79 479.55 2433.8
1663.98 477.22 2422.0
1710.88 488.82 2480.9
1738.32 494.80 2511.2
1709.54 484.79 2460.4
1683.37 472.09 2395.9
1738.21 485.68 2464.9
1719.14 478.59 2428.9
1747.40 484.68 2459.8
1826.20 504.69 2561.4
1890.98 520.71 2642.7
1859.71 508.41 2580.3
1783.14 485.73 2465.2
1920.70 519.48 2636.4
1924.63 518.70 2632.5
1893.49 508.50 2580.7
1889.69 505.69 2566.5
1884.67 502.58 2550.7
1491.43 488.46 2512.1
1515.98 494.34 2542.3
1559.32 504.09 2592.5
1512.97 484.93 2493.9
1583.44 505.35 2599.0
1528.67 485.81 2498.4
1504.50 476.11 2448.5
1553.18 489.45 2517.2
1570.42 492.81 2534.4
1563.74 488.67 2513.2
1553.84 483.56 2486.9
1540.68 477.48 2455.6
1566.86 483.60 2487.1
1597.89 491.15 2525.9
1577.21 482.82 2483.1
1584.32 481.07 2474.1
1650.29 499.08 2566.7
1641.66 494.48 2543.0
1626.49 487.95 2509.4
1630.04 487.06 2504.9
1600.63 476.38 2450.0
1579.14 468.13 2407.5
1574.86 465.02 2391.5
1590.67 466.02 2396.7
1633.34 476.66 2451.4
1638.34 476.26 2449.3
1633.96 473.15 2433.4
1673.11 482.63 2482.1
1693.07 486.52 2502.1
1699.79 486.58 2502.4
1694.24 481.32 2475.3
1650.01 466.98 2401.6
1675.58 472.44 2429.7
1684.95 473.30 2434.1
1685.88 471.79 2426.4
1744.48 481.01 2473.8
1719.14 472.29 2428.9
1725.67 472.35 2429.2
1779.78 485.39 2496.3
1848.49 502.31 2583.3
1873.13 507.17 2608.3
1851.65 499.55 2569.1
1872.20 497.92 2560.8
1904.62 504.76 2595.9
1521.23 493.73 2573.5
1491.26 479.80 2500.9
1548.80 496.15 2586.1
1509.02 481.33 2508.8
1491.38 473.66 2468.9
1593.36 503.88 2626.4
1587.41 497.75 2594.4
1526.73 476.70 2484.7
1543.88 480.03 2502.1
1593.84 493.49 2572.3
1619.56 499.36 2602.9
1610.34 494.46 2577.3
1594.21 487.48 2540.9
1586.87 483.24 2518.8
1579.98 479.17 2497.6
1615.87 488.06 2543.9
1641.31 493.73 2573.5
1621.60 485.82 2532.3
1630.57 486.54 2536.0
1634.19 485.66 2531.5
1628.13 481.93 2512.0
1659.68 489.31 2550.4
1656.80 486.52 2535.9
1601.88 468.54 2442.2
1627.87 468.73 2443.2
1659.75 476.05 2481.4
1663.69 475.34 2477.6
1712.87 487.51 2541.1
1724.64 488.98 2548.7
1722.00 486.37 2535.1
1735.52 486.47 2535.7
1686.91 471.06 2455.3
1712.59 476.43 2483.3
1701.81 471.66 2458.5
1679.67 463.79 2417.4
1702.59 468.37 2441.3
1747.11 478.84 2495.9
1785.57 487.57 2541.4
1794.01 488.08 2544.0
1764.22 478.21 2492.6
1760.56 475.48 2478.4
1781.50 479.39 2498.7
1816.89 487.14 2539.1
1833.97 489.94 2553.7
1805.45 480.59 2505.0
1835.83 486.92 2538.0
1880.83 497.08 2590.9
1852.69 487.90 2543.1
1893.54 495.13 2580.8
1491.54 471.35 2490.5
1523.29 479.31 2532.6
1574.60 493.33 2606.6
1590.21 493.98 2610.1
1541.60 476.85 2519.6
1527.83 468.62 2476.1
1593.36 486.67 2571.5
1608.93 485.34 2564.4
1582.68 475.46 2512.2
1573.13 470.65 2486.8
1607.42 478.95 2530.6
1650.89 485.95 2567.6
1612.25 472.67 2497.5
1602.36 467.89 2472.2
1629.00 473.77 2503.3
1664.93 482.30 2548.4
1647.93 475.49 2512.4
1621.02 465.88 2461.6
1610.25 460.97 2435.7
1591.72 452.12 2388.9
1683.92 476.46 2517.5
1718.96 482.63 2550.1
1651.57 461.93 2440.7
1674.15 462.93 2446.0
1712.08 471.63 2492.0
1733.90 475.84 2514.2
1719.24 470.05 2483.7
1721.38 468.88 2477.5
1768.71 479.98 2536.1
1811.15 489.68 2587.4
1836.72 491.14 2595.1
1840.68 490.40 2591.2
1866.99 495.60 2618.6
1847.38 488.62 2581.7
1811.49 477.40 2522.4
1800.82 472.88 2498.6
1852.05 484.59 2560.4
1876.30 485.71 2566.4
1946.59 500.36 2643.8
1502.29 476.50 2552.7
1498.70 473.27 2535.4
1499.07 471.32 2524.9
1534.79 480.46 2573.9
1510.83 470.91 2522.7
1504.99 467.07 2502.1
1550.13 479.01 2566.1
1574.50 484.46 2595.3
1536.81 470.85 2522.4
1540.80 466.12 2497.1
1578.30 475.47 2547.2
1589.89 476.97 2555.2
1611.45 481.43 2579.1
1595.83 474.79 2543.5
1594.28 472.38 2530.6
1607.99 474.49 2541.9
1591.02 467.56 2504.8
1600.46 468.43 2509.4
1639.22 477.83 2559.8
1624.20 471.54 2526.1
1591.90 460.31 2465.9
1588.92 457.61 2451.5
1600.44 459.09 2459.4
1619.55 462.73 2478.9
1643.06 467.59 2504.9
1657.96 469.97 2517.7
1660.92 468.97 2512.3
1638.72 460.89 2469.0
1630.05 456.67 2446.4
1694.91 473.00 2533.9
1725.38 479.64 2569.5
1662.07 460.27 2465.7
1624.42 448.11 2400.6
1677.48 457.50 2450.9
1695.28 460.61 2467.5
1694.62 458.69 2457.3
1685.47 454.51 2434.9
1693.17 454.88 2436.9
1746.66 467.51 2504.5
1798.12 479.50 2568.7
1815.60 478.84 2565.2
1809.20 475.41 2546.8
1862.41 487.61 2612.2
1870.97 488.08 2614.7
1875.50 487.49 2611.6
1908.92 494.40 2648.5
1872.34 483.18 2588.5
1859.36 478.12 2561.4
1941.19 497.39 2664.6
1944.00 496.34 2659.0
1880.68 478.48 2563.3
1530.85 474.63 2578.5
1535.55 469.93 2552.9
1540.95 469.56 2550.9
1564.79 474.79 2579.3
1522.43 459.97 2498.8
1503.47 452.31 2457.2
1567.10 469.47 2550.4
1602.02 477.91 2596.3
1592.36 473.05 2569.9
1559.63 461.39 2506.6
1538.18 453.16 2461.8
1553.30 455.72 2475.7
1582.70 462.43 2512.2
1629.69 470.36 2555.3
1591.27 457.41 2484.9
1617.79 463.16 2516.1
1626.19 463.69 2519.1
1624.92 461.48 2507.0
1639.78 463.84 2519.9
1622.24 457.06 2483.0
1608.36 451.36 2452.0
1655.79 462.84 2514.4
1691.99 471.10 2559.3
1679.70 465.85 2530.8
1678.26 463.64 2518.8
1644.90 452.67 2459.2
1615.64 441.20 2396.8
1682.00 457.56 2485.7
1670.35 452.65 2459.1
1679.21 453.32 2462.7
1736.10 466.90 2536.5
1757.97 471.00 2558.8
1747.36 466.40 2533.8
1728.78 459.71 2497.4
1689.19 447.51 2431.1
1691.21 446.38 2425.0
1745.38 458.97 2493.4
1793.53 469.89 2552.7
1840.18 480.34 2609.5
1831.60 476.35 2587.8
1771.96 459.16 2494.4
1772.28 457.57 2485.8
1805.95 464.57 2523.8
1842.05 472.15 2565.0
1907.58 483.71 2627.8
1547.91 469.06 2584.6
1567.53 470.93 2594.9
1549.94 463.66 2554.9
1595.95 475.39 2619.5
1621.24 472.86 2605.6
1551.78 450.72 2483.6
1580.06 455.16 2508.0
1620.13 461.01 2540.3
1599.79 453.38 2498.2
1647.19 464.93 2561.9
1650.31 463.94 2556.4
1647.50 461.30 2541.9
1654.33 461.37 2542.2
1627.10 451.97 2490.5
1595.87 441.54 2433.0
1625.33 447.92 2468.2
1683.81 462.22 2546.9
1692.81 462.88 2550.6
1665.09 453.53 2499.0
1603.10 434.95 2396.7
1650.98 444.49 2449.3
1727.98 463.44 2553.7
1727.00 461.41 2542.5
1678.07 446.63 2461.0
1679.11 445.22 2453.2
1735.56 458.45 2526.2
1760.82 463.37 2553.3
1750.15 458.84 2528.3
1716.24 448.27 2470.1
1735.87 451.71 2489.0
1808.32 468.82 2583.3
1798.64 464.59 2560.0
1791.15 460.96 2540.0
1808.73 463.78 2555.5
1775.95 453.71 2500.0
1782.02 453.60 2499.5
1820.89 461.82 2544.7
1889.93 477.60 2631.7
1849.45 462.36 2547.7
1929.56 480.67 2648.6
1586.80 484.47 2708.2
1566.21 467.83 2615.2
1596.68 472.84 2643.2
1509.44 445.09 2488.1
1546.27 452.09 2527.2
1577.46 459.26 2567.3
1583.36 459.04 2566.1
1568.43 452.81 2531.2
1563.28 449.44 2512.4
1632.23 463.47 2590.8
1656.63 468.47 2618.8
1603.20 451.51 2524.0
1581.31 443.54 2479.4
1624.30 453.75 2536.5
1649.32 458.88 2565.2
1629.93 451.67 2524.8
1637.27 451.89 2526.1
1653.25 454.48 2540.6
1660.61 454.69 2541.8
1660.93 452.98 2532.2
1622.58 440.78 2464.0
1615.62 437.17 2443.8
1664.36 448.60 2507.7
1674.94 449.69 2513.8
1666.84 445.78 2492.0
1690.64 450.40 2517.8
1728.90 458.82 2564.9
1720.32 453.06 2532.6
1640.70 430.45 2406.2
1653.19 430.45 2406.3
1690.60 438.54 2451.5
1695.51 438.16 2449.4
1692.50 435.75 2435.9
1749.43 448.74 2508.5
1821.36 465.46 2601.9
1810.57 460.99 2577.0
1764.90 447.71 2502.7
1766.17 444.77 2486.3
1830.24 459.22 2567.1
1911.28 477.82 2671.0
1526.85 453.39 2571.7
1599.76 466.88 2648.3
1537.64 446.83 2534.6
1553.84 438.43 2486.9
1619.48 455.06 2581.2
1619.05 453.07 2569.9
1586.21 440.25 2497.2
1653.62 457.10 2592.8
1644.03 452.61 2567.3
1610.80 441.67 2505.3
1649.76 450.54 2555.6
1680.51 448.14 2541.9
1687.86 448.34 2543.1
1713.87 453.48 2572.2
1725.67 454.83 2579.9
1745.69 454.82 2579.8
1657.92 428.66 2431.5
1746.66 449.90 2551.9
1709.17 438.58 2487.7
1676.51 428.58 2431.0
1742.77 443.85 2517.7
1808.78 458.94 2603.2
1752.22 442.94 2512.5
1707.26 429.98 2438.9
1772.42 444.74 2522.7
1804.79 451.20 2559.3
1801.48 445.46 2526.8
1892.84 466.35 2645.3
1890.48 464.09 2632.4
1851.62 452.91 2569.0
1917.54 467.36 2651.0
1919.04 464.40 2634.2
1936.40 466.93 2648.6
1588.86 471.03 2711.7
1569.27 455.16 2620.3
1558.50 450.08 2591.1
1571.64 451.93 2601.7
1569.43 449.37 2587.0
1520.32 433.45 2495.4
1586.99 446.76 2571.9
1638.22 459.25 2643.9
1629.09 454.79 2618.2
1631.40 453.54 2611.0
1628.53 449.02 2585.0
1582.47 432.76 2491.3
1655.73 450.95 2596.1
1647.74 446.96 2573.1
1633.78 441.38 2541.0
1630.80 433.59 2496.1
1612.57 427.05 2458.5
1706.44 446.61 2571.1
1679.28 437.79 2520.3
1688.24 438.42 2523.9
1713.76 443.33 2552.2
1727.76 445.23 2563.2
1646.93 422.78 2433.9
1725.90 439.68 2531.2
1762.38 445.58 2565.2
1682.63 423.82 2439.9
1705.55 427.98 2463.9
1777.69 444.42 2558.5
1720.47 428.52 2466.9
1701.52 422.23 2430.8
1798.56 444.66 2559.9
1832.71 451.44 2598.9
1764.60 433.07 2493.2
1804.88 439.74 2531.5
1848.45 448.72 2583.2
1903.59 457.13 2631.7
1593.56 467.45 2731.8
1538.94 447.45 2614.9
1588.45 457.81 2675.5
1567.23 447.78 2616.9
1554.41 442.20 2584.3
1585.96 449.24 2625.4
1602.78 452.07 2641.9
1616.57 454.01 2653.3
1625.09 452.56 2644.8
1641.53 455.21 2660.3
1650.73 455.85 2664.1
1600.85 440.23 2572.8
1592.06 436.00 2548.0
1618.40 441.38 2579.5
1647.50 447.47 2615.1
1633.87 441.95 2582.8
1638.15 441.30 2579.0
1683.48 449.84 2628.9
1670.15 444.48 2597.6
1671.73 443.11 2589.6
1650.65 435.77 2546.7
1651.56 434.27 2538.0
1613.98 422.71 2470.4
1611.44 420.38 2456.7
1665.36 429.35 2509.2
1625.44 417.43 2439.5
1617.19 413.70 2417.7
1621.55 413.21 2414.9
1617.60 410.62 2399.7
1649.09 417.01 2437.1
1726.34 434.88 2541.5
1769.63 440.74 2575.7
1693.81 420.27 2456.1
