ply
format ascii 1.0
element vertex 2283
property float x
property float y
property float z
end_header
414.35 457.64 2385.4
421.21 458.38 2389.2
417.01 447.23 2331.1
419.19 443.14 2309.8
420.90 438.68 2286.6
423.75 435.52 2270.1
430.90 436.80 2276.8
463.47 445.41 2321.7
492.05 466.82 2433.2
503.64 471.76 2459.0
505.37 467.47 2436.6
529.61 483.84 2522.0
553.61 487.71 2542.1
530.30 461.67 2406.4
554.22 476.89 2485.7
565.55 481.05 2507.4
564.53 474.72 2474.4
163.27 476.76 2519.1
166.21 466.66 2465.7
181.90 457.88 2419.3
194.99 474.48 2507.1
203.34 478.84 2530.1
205.63 469.10 2478.6
208.58 461.41 2438.0
218.57 469.28 2479.5
226.54 472.50 2496.6
231.41 469.25 2479.4
229.90 453.59 2396.6
233.36 448.30 2368.7
250.66 446.29 2358.1
250.00 434.52 2295.9
260.67 442.54 2338.3
269.89 447.77 2365.9
272.87 442.66 2338.9
275.01 436.43 2306.0
290.54 451.26 2384.3
302.98 442.35 2337.3
299.02 428.01 2261.5
311.48 437.27 2310.4
327.94 451.69 2386.6
336.05 454.29 2400.4
335.78 445.67 2354.8
332.16 432.99 2287.8
327.19 419.03 2214.1
366.99 446.51 2359.2
390.63 459.94 2430.2
393.61 456.08 2409.8
400.02 456.27 2410.8
399.08 448.19 2368.1
402.06 444.71 2349.7
418.42 455.89 2408.8
435.36 454.01 2398.9
431.06 443.20 2341.8
430.98 436.97 2308.8
435.12 435.12 2299.1
438.28 432.36 2284.5
446.82 434.90 2297.9
458.07 439.99 2324.8
471.77 447.26 2363.2
490.33 458.90 2424.7
490.46 453.21 2394.6
489.23 446.42 2358.8
509.85 459.49 2427.8
521.81 464.54 2454.5
528.73 465.03 2457.1
542.57 471.52 2491.4
549.58 472.00 2493.9
567.74 481.92 2546.3
572.95 480.75 2540.2
561.51 465.79 2461.1
578.19 474.25 2505.8
164.50 455.54 2440.4
167.50 446.68 2392.9
173.89 447.15 2395.4
182.94 454.20 2433.2
191.96 460.70 2468.0
197.61 458.96 2458.7
197.20 443.69 2376.9
199.96 436.28 2337.2
209.17 442.95 2373.0
218.48 449.43 2407.7
225.03 450.06 2411.1
235.36 458.00 2453.5
248.98 448.16 2400.9
251.08 440.93 2362.1
263.53 451.76 2420.1
262.43 439.41 2354.0
259.76 425.07 2277.1
266.96 427.13 2288.2
272.81 427.01 2287.6
295.42 434.09 2325.5
300.47 432.67 2317.9
312.56 424.61 2274.7
323.39 431.19 2310.0
325.38 425.95 2281.9
323.55 415.99 2228.5
328.78 415.30 2224.8
337.35 418.78 2243.5
361.42 433.70 2323.4
382.51 451.48 2418.7
381.60 443.15 2374.0
388.08 443.52 2376.0
397.78 447.51 2397.4
419.38 444.05 2378.8
428.48 447.11 2395.2
429.41 441.68 2366.1
426.98 432.99 2319.6
427.93 427.93 2292.5
443.37 437.29 2342.6
457.57 445.21 2385.0
455.09 436.89 2340.5
454.86 430.92 2308.5
466.78 436.47 2338.2
483.53 446.34 2391.1
501.53 457.09 2448.7
521.21 469.09 2513.0
521.93 452.76 2425.5
537.38 449.90 2410.2
551.99 456.82 2447.3
582.43 471.18 2524.2
170.40 465.32 2527.9
176.99 465.42 2528.4
179.88 456.13 2478.0
185.09 453.15 2461.8
184.19 435.92 2368.2
206.34 443.95 2411.8
212.46 443.68 2410.3
218.49 443.22 2407.8
223.22 440.23 2391.6
231.90 444.99 2417.5
237.14 443.08 2407.1
233.63 425.32 2310.6
242.50 430.44 2338.4
262.64 454.81 2470.8
265.05 437.65 2377.6
266.01 429.25 2331.9
277.23 437.40 2376.2
284.12 438.53 2382.4
281.76 425.64 2312.3
278.68 412.21 2239.4
291.22 421.97 2292.4
302.63 429.73 2334.6
298.01 414.87 2253.8
303.36 414.20 2250.2
321.14 430.21 2337.1
318.36 418.58 2274.0
321.15 407.18 2212.0
345.18 429.96 2335.8
347.45 425.33 2310.6
344.09 414.07 2249.5
362.49 428.94 2330.3
379.45 441.66 2399.4
372.25 426.29 2315.9
370.97 418.08 2271.2
385.08 427.20 2320.8
403.85 441.13 2396.5
416.37 447.91 2433.3
404.15 428.27 2326.6
408.87 414.71 2252.9
418.80 418.80 2275.2
419.81 413.98 2249.0
434.78 422.87 2297.3
455.74 437.26 2375.5
459.99 435.46 2365.7
457.34 427.25 2321.1
467.18 430.78 2340.3
481.60 438.38 2381.6
497.61 447.22 2429.6
502.46 445.93 2422.6
502.22 440.21 2391.5
535.09 452.28 2457.1
535.67 447.44 2430.8
556.68 459.58 2496.7
570.86 465.88 2530.9
161.15 451.21 2486.3
182.46 456.14 2513.4
185.84 448.58 2471.8
182.75 426.42 2349.6
200.55 438.70 2417.3
211.72 449.11 2474.7
213.60 439.76 2423.2
220.90 441.80 2434.4
227.07 441.52 2432.9
221.95 419.90 2313.8
246.06 430.61 2372.7
262.44 448.07 2469.0
266.11 443.52 2443.9
259.61 422.63 2328.8
260.56 414.52 2284.1
274.73 427.36 2354.8
284.60 433.08 2386.4
294.15 438.10 2414.0
304.62 435.17 2397.9
302.89 424.05 2336.6
309.11 424.27 2337.8
325.85 438.64 2417.0
324.91 421.19 2320.8
331.76 414.70 2285.1
346.34 425.33 2343.7
338.09 408.04 2248.4
343.50 407.54 2245.6
371.27 433.15 2386.8
380.39 436.52 2405.3
365.54 412.71 2274.1
374.78 409.91 2258.7
384.24 413.80 2280.1
388.83 412.39 2272.4
393.04 410.64 2262.7
397.20 408.88 2253.0
403.73 409.58 2256.9
420.12 420.12 2315.0
438.77 432.59 2383.7
449.81 437.31 2409.7
447.24 428.86 2363.1
449.08 424.80 2340.8
470.72 439.34 2420.8
487.05 448.59 2471.8
473.56 430.51 2372.2
477.28 422.91 2330.3
527.22 450.06 2479.9
536.58 447.15 2463.9
541.63 446.05 2457.8
172.20 440.07 2460.0
179.62 442.63 2474.3
187.03 445.00 2487.6
186.27 428.41 2394.9
189.76 422.36 2361.0
199.99 431.23 2410.6
204.10 426.75 2385.6
208.33 422.80 2363.5
218.24 430.24 2405.1
225.70 432.60 2418.3
222.61 415.14 2320.7
240.18 424.93 2375.4
252.77 436.03 2437.4
258.61 435.22 2432.9
261.01 428.80 2397.0
253.62 406.97 2275.0
264.70 405.87 2268.8
274.93 412.40 2305.3
284.87 418.22 2337.9
292.43 420.36 2349.9
291.23 410.10 2292.5
292.65 403.85 2257.6
302.15 408.79 2285.1
316.39 419.82 2346.8
324.51 422.48 2361.7
336.12 429.48 2400.8
348.18 429.01 2398.2
341.17 412.99 2308.7
341.61 406.40 2271.8
356.30 416.69 2329.3
377.19 433.77 2424.8
378.25 427.86 2391.8
366.49 407.87 2280.0
368.76 403.88 2257.7
375.43 404.76 2262.6
380.16 403.55 2255.9
394.48 412.41 2305.4
408.55 420.74 2352.0
414.81 420.91 2352.9
423.50 423.50 2367.4
428.57 422.45 2361.5
435.04 422.78 2363.4
458.14 439.05 2454.3
456.51 425.67 2379.5
462.84 425.81 2380.3
486.71 430.55 2406.8
492.51 430.17 2404.7
503.50 434.27 2427.6
516.42 439.91 2459.1
519.87 437.45 2445.4
521.93 428.73 2396.6
161.75 423.05 2399.6
165.47 416.74 2363.8
174.70 424.28 2406.6
189.92 416.60 2363.1
204.69 421.79 2392.5
233.58 441.22 2502.7
235.60 432.99 2456.0
241.04 431.33 2446.6
248.70 433.64 2459.7
251.16 426.96 2421.9
256.12 424.78 2409.5
257.60 417.07 2365.7
252.64 399.53 2266.2
263.10 397.58 2255.2
270.50 399.87 2268.2
280.35 405.62 2300.8
287.93 407.90 2313.7
286.14 397.10 2252.4
306.15 392.79 2228.0
317.69 400.05 2269.2
340.56 421.06 2388.4
348.90 423.66 2403.1
343.91 410.28 2327.2
345.27 404.81 2296.2
354.67 408.77 2318.7
370.24 419.60 2380.1
383.50 427.50 2424.9
383.69 420.82 2387.0
382.74 413.11 2343.3
386.07 410.20 2326.8
385.07 402.84 2285.0
393.49 405.41 2299.6
408.22 414.31 2350.1
415.50 415.50 2356.9
420.74 414.64 2352.0
421.37 409.33 2321.8
415.78 398.22 2258.8
427.05 403.33 2287.8
452.03 421.07 2388.4
453.37 416.61 2363.1
451.57 409.42 2322.3
477.18 426.95 2421.8
509.13 438.24 2485.8
514.92 437.68 2482.7
507.93 426.41 2418.7
554.03 448.50 2544.0
165.34 426.06 2452.8
166.23 412.50 2374.7
173.21 414.47 2386.1
188.89 436.41 2512.4
194.82 421.06 2424.0
208.56 423.44 2437.7
240.03 434.64 2502.2
234.76 413.93 2382.9
231.76 398.16 2292.2
238.66 399.76 2301.4
247.69 404.76 2330.2
253.66 404.65 2329.5
252.86 393.99 2268.2
269.04 400.57 2306.1
276.34 402.49 2317.1
286.43 408.32 2350.7
292.44 408.20 2350.0
288.50 394.48 2271.0
289.74 388.25 2235.1
294.53 386.93 2227.5
305.47 393.59 2265.9
316.74 400.41 2305.1
316.32 392.48 2259.5
326.52 397.76 2289.9
342.11 409.31 2356.4
343.77 404.08 2326.3
339.12 391.74 2255.2
342.90 389.40 2241.7
357.97 399.74 2301.3
370.42 406.86 2342.2
383.85 414.81 2388.0
397.52 422.76 2433.8
396.56 415.15 2390.0
390.64 402.66 2318.1
392.33 398.27 2292.8
400.63 400.63 2306.4
410.21 404.17 2326.8
417.79 405.68 2335.5
413.81 396.07 2280.2
445.62 408.99 2354.6
450.22 407.63 2346.7
451.76 403.57 2323.3
451.66 398.17 2292.2
482.05 414.07 2383.8
512.20 423.67 2439.0
181.28 427.30 2497.2
183.29 417.13 2437.8
183.45 403.60 2358.7
192.22 409.24 2391.6
203.67 420.08 2455.0
210.58 421.17 2461.4
219.51 426.12 2490.3
224.67 423.67 2476.0
224.99 412.49 2410.6
237.12 422.97 2471.9
244.34 424.38 2480.1
236.92 400.94 2343.2
239.58 395.30 2310.2
249.36 401.41 2345.9
256.44 402.98 2355.0
260.83 400.35 2339.7
270.07 405.10 2367.5
277.04 406.32 2374.6
279.03 400.34 2339.7
282.62 396.87 2319.4
281.24 386.71 2260.0
291.23 392.28 2292.5
306.84 405.03 2367.1
304.35 393.86 2301.8
308.63 391.73 2289.3
328.15 408.64 2388.2
336.01 410.67 2400.0
339.60 407.52 2381.6
348.06 410.22 2397.4
348.96 404.06 2361.4
343.08 390.40 2281.6
348.42 389.75 2277.8
366.01 402.61 2352.9
374.43 405.12 2367.6
384.17 408.96 2390.0
395.39 401.48 2346.3
391.99 391.99 2290.9
394.39 388.50 2270.5
397.88 386.18 2256.9
415.71 397.64 2323.9
423.14 398.96 2331.6
420.78 391.15 2285.9
442.44 405.57 2370.2
475.49 424.08 2478.4
459.48 404.34 2363.0
502.04 419.43 2451.2
520.32 423.96 2477.7
510.48 410.87 2401.2
514.77 409.34 2392.2
529.73 416.22 2432.4
178.72 414.88 2461.9
180.26 404.03 2397.5
190.09 398.57 2365.1
205.15 416.71 2472.8
215.45 411.89 2444.2
211.31 392.43 2328.7
229.97 404.00 2397.3
256.57 416.92 2474.0
262.53 406.29 2411.0
257.56 389.33 2310.3
270.29 399.29 2369.4
281.04 405.95 2408.9
283.35 400.38 2375.9
287.51 397.62 2359.5
284.40 385.13 2285.4
291.36 386.49 2293.5
307.61 399.89 2373.0
306.16 390.20 2315.5
306.65 383.32 2274.6
322.65 395.70 2348.1
330.27 397.54 2359.0
333.90 394.61 2341.6
361.56 405.19 2404.4
362.73 399.62 2371.4
374.95 406.20 2410.4
378.59 403.42 2393.9
377.76 396.04 2350.1
385.13 397.36 2357.9
398.35 404.58 2400.8
396.70 396.70 2354.1
386.17 380.32 2256.8
415.71 391.61 2323.8
440.58 409.11 2427.7
456.01 411.68 2442.9
461.59 411.00 2438.9
478.31 414.53 2459.9
471.68 403.41 2393.8
477.07 402.72 2389.8
473.84 394.87 2343.2
489.38 402.66 2389.4
516.77 419.87 2491.6
521.75 418.69 2484.5
167.07 411.26 2478.6
165.75 392.90 2367.9
171.65 392.34 2364.5
180.48 398.30 2400.5
187.97 401.00 2416.8
195.30 403.21 2430.0
214.07 402.95 2428.5
212.11 387.86 2337.6
217.94 387.45 2335.1
223.37 386.38 2328.6
232.84 392.15 2363.4
248.63 408.01 2459.0
262.50 409.76 2469.5
256.01 390.12 2351.1
258.98 385.45 2323.0
280.02 407.30 2454.7
294.08 400.44 2413.4
285.62 380.83 2295.2
292.97 382.66 2306.2
309.00 395.52 2383.7
311.20 390.52 2353.6
315.48 388.29 2340.1
330.58 399.19 2405.8
336.70 399.05 2405.0
335.99 390.97 2356.3
350.99 387.30 2334.2
354.67 384.73 2318.7
368.59 393.16 2369.5
375.36 393.82 2373.4
378.85 391.07 2356.9
384.49 390.60 2354.0
396.09 396.09 2387.2
395.39 389.31 2346.3
385.49 373.81 2252.9
396.67 373.33 2250.0
417.97 387.68 2336.5
439.17 401.53 2419.9
450.95 395.35 2382.7
450.96 390.02 2350.6
473.04 403.66 2432.8
493.11 409.86 2470.1
482.64 396.01 2386.7
489.58 396.62 2390.4
508.96 407.17 2453.9
519.32 410.33 2473.0
156.66 394.77 2417.0
160.90 389.88 2387.0
170.10 396.89 2429.9
176.94 398.10 2437.4
186.18 404.46 2476.3
194.55 408.56 2501.4
210.43 401.72 2459.5
213.98 396.50 2427.5
218.18 392.72 2404.4
227.57 398.24 2438.2
236.28 402.32 2463.2
232.35 385.22 2358.5
234.04 378.06 2314.7
248.33 391.12 2394.6
256.35 393.90 2411.6
257.94 386.90 2368.8
268.82 393.85 2411.3
289.19 396.07 2424.9
288.35 386.51 2366.4
283.42 371.99 2277.5
294.33 378.43 2316.9
312.43 393.66 2410.2
316.89 391.45 2396.7
324.32 392.92 2405.6
338.91 388.21 2376.8
340.13 382.64 2342.7
334.10 369.27 2260.8
350.94 374.73 2294.3
367.52 385.90 2362.6
375.35 387.66 2373.4
378.69 384.80 2355.9
384.33 384.33 2353.0
402.39 396.11 2425.1
406.71 394.19 2413.4
394.64 376.70 2306.4
391.83 368.44 2255.8
398.54 369.24 2260.6
413.27 377.33 2310.2
434.06 390.65 2391.7
452.93 401.90 2460.6
467.28 403.27 2469.0
456.16 388.36 2377.7
466.45 391.81 2398.9
483.13 400.49 2452.0
477.27 390.49 2390.8
480.29 387.93 2375.1
502.85 401.01 2455.2
504.15 397.02 2430.7
495.99 385.77 2361.8
515.41 395.98 2424.4
165.15 393.82 2450.1
169.48 389.17 2421.1
181.81 388.71 2418.2
190.73 394.17 2452.2
197.05 394.09 2451.7
201.48 390.37 2428.6
205.88 386.81 2406.4
211.99 386.57 2404.9
219.42 388.70 2418.2
232.52 400.46 2491.3
244.76 389.11 2420.7
250.16 387.75 2412.3
258.02 390.17 2427.3
259.11 382.49 2379.6
267.39 385.54 2398.5
277.56 391.11 2433.2
275.32 379.33 2359.9
273.64 368.82 2294.5
283.68 374.22 2328.1
289.75 374.27 2328.4
289.48 366.27 2278.7
296.05 367.10 2283.8
312.36 379.73 2362.4
336.83 386.73 2405.9
327.20 368.84 2294.6
344.08 367.81 2288.2
357.35 375.52 2336.2
368.58 380.87 2369.4
368.25 374.29 2328.5
362.86 362.86 2257.4
377.49 365.70 2275.1
401.95 383.39 2385.2
409.46 384.64 2392.9
406.19 375.88 2338.4
413.96 377.44 2348.1
424.39 381.33 2372.4
438.81 388.66 2418.0
446.85 390.21 2427.6
451.13 388.47 2416.8
463.24 393.44 2447.7
465.28 389.83 2425.2
463.99 383.56 2386.2
467.09 381.05 2370.6
476.29 383.51 2385.9
495.95 394.22 2452.5
513.16 402.73 2505.5
506.96 392.89 2444.3
510.60 390.83 2431.4
168.72 381.17 2410.2
185.60 377.38 2386.2
193.09 379.95 2402.5
195.76 373.18 2359.7
209.56 375.97 2377.3
222.37 387.56 2450.6
226.10 383.11 2422.5
233.27 384.58 2431.8
248.02 378.23 2391.6
245.38 365.08 2308.5
253.22 367.78 2325.5
269.14 381.80 2414.2
279.24 387.13 2447.9
277.49 376.16 2378.5
287.79 365.74 2312.6
297.18 369.96 2339.4
297.18 362.56 2292.6
306.78 366.94 2320.2
322.86 378.74 2394.8
328.42 377.99 2390.1
330.66 373.53 2361.9
329.00 364.89 2307.3
329.33 358.73 2268.3
339.27 363.08 2295.8
354.79 373.15 2359.5
369.74 382.27 2417.2
377.08 383.36 2424.1
373.80 373.80 2363.6
369.12 363.16 2296.3
371.10 359.32 2272.0
372.79 355.32 2246.7
385.68 361.95 2288.7
402.45 371.96 2352.0
408.38 371.81 2351.0
412.24 369.80 2338.3
418.64 370.10 2340.2
431.93 376.39 2380.0
439.51 377.61 2387.7
433.53 367.30 2322.5
434.02 362.68 2293.3
449.63 370.64 2343.6
462.47 376.14 2378.4
472.62 379.34 2398.6
489.63 387.89 2452.7
494.38 386.63 2444.7
494.72 382.00 2415.4
172.51 383.35 2464.4
175.29 375.62 2414.7
178.77 369.88 2377.8
185.06 370.11 2379.3
192.77 373.10 2398.5
195.68 366.90 2358.6
209.55 369.80 2377.3
221.21 379.21 2437.8
224.63 374.38 2406.7
225.81 366.18 2354.0
234.18 369.76 2377.0
246.15 378.69 2434.5
248.73 373.09 2398.4
243.28 356.03 2288.7
248.72 355.32 2284.2
260.93 364.08 2340.5
267.59 364.90 2345.8
276.00 368.00 2365.7
277.60 362.09 2327.7
278.77 355.87 2287.8
292.42 365.53 2349.8
300.91 368.46 2368.7
299.97 359.96 2314.0
298.35 351.00 2256.5
302.91 349.52 2246.9
312.00 353.21 2270.6
317.23 352.48 2265.9
332.34 362.55 2330.7
350.19 375.20 2412.0
345.04 363.20 2334.9
345.53 357.44 2297.8
365.70 371.90 2390.8
378.59 378.59 2433.8
383.05 376.77 2422.1
387.14 374.65 2408.5
388.45 369.95 2378.3
389.11 364.79 2345.1
388.63 358.73 2306.1
392.11 356.46 2291.5
393.82 352.67 2267.2
406.27 353.28 2271.1
425.03 364.32 2342.0
439.86 371.71 2389.6
442.04 368.37 2368.1
440.26 361.86 2326.2
453.16 367.43 2362.0
462.46 369.97 2378.4
468.98 370.24 2380.1
484.01 377.15 2424.6
485.16 373.20 2399.1
485.78 368.95 2371.8
510.76 383.07 2462.6
165.15 374.76 2450.0
169.12 369.57 2416.1
177.15 373.27 2440.3
185.88 378.18 2472.3
190.49 374.64 2449.2
196.72 374.41 2447.7
200.58 369.81 2417.7
204.19 365.06 2386.6
212.59 368.90 2411.7
221.65 373.64 2442.7
223.61 366.47 2395.8
223.44 356.30 2329.3
233.01 361.78 2365.2
246.15 372.38 2434.4
249.54 368.07 2406.3
244.11 351.28 2296.5
250.00 351.18 2295.9
262.78 360.56 2357.1
270.38 362.56 2370.2
279.77 366.81 2398.0
281.22 360.69 2358.1
281.98 353.98 2314.2
295.10 362.73 2371.3
302.27 363.96 2379.4
307.33 362.65 2370.8
312.21 361.18 2361.2
309.24 350.87 2293.8
310.10 345.20 2256.8
339.38 357.56 2337.6
346.76 358.93 2346.5
365.36 359.27 2348.8
381.81 369.29 2414.3
389.01 370.19 2420.1
394.02 369.00 2412.3
415.77 371.67 2429.8
408.35 359.59 2350.9
410.83 356.46 2330.4
426.10 364.34 2381.9
441.44 372.07 2432.4
452.56 376.07 2458.6
458.36 375.60 2455.5
459.55 371.42 2428.1
465.81 371.39 2428.0
467.35 367.65 2403.5
482.54 374.60 2449.0
500.83 378.83 2476.6
492.51 367.83 2404.7
498.30 367.49 2402.5
502.64 366.12 2393.5
523.19 376.44 2461.0
168.94 376.86 2506.2
171.81 369.08 2454.5
178.72 370.20 2461.9
187.59 375.17 2495.0
192.87 372.88 2479.7
199.18 372.65 2478.2
202.94 367.83 2446.2
208.90 367.16 2441.7
220.40 375.97 2500.3
224.68 372.33 2476.1
220.94 355.96 2367.2
231.16 352.83 2346.4
246.04 365.91 2433.4
251.88 365.22 2428.8
247.86 350.63 2331.8
255.44 352.76 2345.9
267.04 360.20 2395.4
273.51 360.54 2397.7
283.43 365.31 2429.4
285.78 360.33 2396.3
279.82 345.31 2296.4
286.17 345.79 2299.6
300.52 355.72 2365.6
312.53 362.53 2410.9
327.33 365.10 2428.0
327.59 358.49 2384.0
322.13 345.99 2300.9
345.30 351.36 2336.6
361.67 361.67 2405.2
360.89 354.77 2359.3
378.27 365.66 2431.7
386.81 361.85 2406.4
393.84 362.59 2411.3
407.08 357.74 2379.1
410.03 354.95 2360.5
423.53 361.24 2402.4
436.71 367.09 2441.2
451.83 369.10 2454.6
448.18 361.04 2401.0
447.76 355.76 2365.9
450.70 353.25 2349.2
472.44 365.35 2429.7
518.69 371.41 2469.9
524.00 370.63 2464.8
182.22 370.95 2510.2
182.46 358.64 2426.9
191.87 364.54 2466.8
202.10 371.61 2514.7
207.68 369.93 2503.3
215.90 372.91 2523.5
222.56 373.12 2524.9
222.09 361.68 2447.5
225.71 357.38 2418.3
232.78 358.60 2426.6
232.90 349.35 2364.0
238.07 347.95 2354.6
253.91 361.82 2448.4
260.50 362.16 2450.7
260.04 352.91 2388.1
263.85 349.76 2366.8
261.17 338.33 2289.4
281.31 348.58 2358.8
293.57 356.03 2409.2
292.63 347.50 2351.5
300.01 348.99 2361.6
305.52 348.30 2356.9
310.62 347.17 2349.3
322.29 353.28 2390.6
331.07 356.06 2409.4
338.16 356.95 2415.5
333.27 345.39 2337.2
327.41 333.26 2255.1
349.77 349.77 2366.9
383.64 358.48 2425.8
384.75 353.72 2393.6
393.03 355.60 2406.3
397.97 354.45 2398.5
394.82 346.22 2342.9
390.04 336.85 2279.5
399.68 340.03 2300.9
412.34 345.64 2338.9
424.15 350.38 2371.0
434.52 353.82 2394.3
433.90 348.34 2357.2
474.50 360.62 2440.3
519.25 360.94 2442.5
178.99 357.99 2465.7
185.72 358.64 2470.2
206.37 361.14 2487.5
212.86 361.21 2487.9
217.61 358.41 2468.6
222.08 355.32 2447.4
230.76 358.96 2472.4
238.15 360.45 2482.7
238.52 351.50 2421.0
244.73 351.41 2420.4
265.06 353.42 2434.2
270.31 352.03 2424.7
269.11 342.51 2359.1
273.21 332.61 2290.9
296.55 353.33 2433.7
306.98 350.83 2416.4
304.36 340.89 2347.9
305.68 335.65 2311.8
314.08 338.24 2329.7
325.13 343.54 2366.2
334.99 347.40 2392.8
339.96 346.14 2384.1
342.89 342.89 2361.7
337.45 331.53 2283.5
364.30 345.77 2381.6
377.28 346.36 2385.6
375.15 338.84 2333.9
383.76 341.12 2349.6
389.37 340.70 2346.6
394.96 340.27 2343.7
400.03 339.42 2337.9
401.01 335.17 2308.6
405.10 333.61 2297.8
410.18 332.90 2292.9
414.53 331.62 2284.1
432.98 341.51 2352.2
439.61 341.92 2355.0
443.19 335.39 2310.1
476.56 355.83 2450.9
489.00 360.31 2481.7
493.06 358.59 2469.9
517.43 357.73 2464.0
525.41 358.81 2471.4
178.57 363.76 2551.0
179.06 351.72 2466.6
190.99 362.21 2540.2
203.84 361.65 2536.2
203.82 350.32 2456.8
210.65 351.09 2462.2
217.08 351.15 2462.6
222.70 349.95 2454.2
226.24 345.65 2424.1
228.41 339.53 2381.1
235.40 340.71 2389.4
248.90 351.02 2461.7
267.41 350.18 2455.8
270.74 346.29 2428.5
281.67 352.09 2469.2
286.84 350.58 2458.6
280.11 334.92 2348.8
284.20 332.57 2332.3
299.82 343.54 2409.2
304.09 341.33 2393.7
302.94 333.24 2337.0
305.66 329.63 2311.7
317.63 335.96 2356.1
333.20 345.77 2424.9
336.49 342.72 2403.5
335.19 335.19 2350.7
341.87 335.77 2354.7
339.89 327.96 2300.0
347.66 324.09 2272.8
379.44 347.82 2439.3
381.75 344.20 2413.9
367.27 325.80 2284.8
373.95 321.36 2253.7
383.58 324.57 2276.2
386.31 321.93 2257.7
399.23 322.90 2264.5
413.29 329.43 2310.3
417.33 327.90 2299.5
435.29 337.19 2364.7
472.27 351.01 2461.6
469.54 344.33 2414.8
485.91 351.65 2466.1
493.43 352.45 2471.7
487.22 343.55 2409.3
488.25 339.92 2383.9
504.04 346.53 2430.2
513.54 348.70 2445.4
518.38 347.69 2438.4
531.72 352.35 2471.0
177.39 354.78 2534.1
183.78 354.44 2531.7
216.72 354.64 2533.1
219.59 348.76 2491.1
225.82 348.40 2488.6
229.55 344.32 2459.4
234.16 341.75 2441.1
244.03 346.78 2477.0
243.91 337.72 2412.3
246.52 332.81 2377.2
262.98 346.37 2474.1
271.79 349.45 2496.0
264.58 332.26 2373.3
264.26 324.31 2316.5
283.15 339.78 2427.0
289.83 340.23 2430.2
288.13 331.05 2364.6
297.23 334.38 2388.5
299.21 329.74 2355.3
295.67 319.32 2280.9
311.39 323.37 2309.8
326.98 333.15 2379.6
331.25 331.25 2366.1
334.33 328.25 2344.6
345.12 332.80 2377.1
356.52 337.75 2412.5
358.51 333.79 2384.2
350.33 320.64 2290.3
354.45 319.01 2278.6
371.21 328.61 2347.2
371.33 323.41 2310.1
373.49 320.14 2286.7
389.32 328.49 2346.3
403.47 335.19 2394.2
411.18 336.42 2403.0
401.80 323.84 2313.1
405.21 321.79 2298.5
423.03 331.07 2364.8
431.45 332.83 2377.4
441.36 335.68 2397.7
462.54 337.53 2410.9
473.23 331.88 2370.6
485.43 336.06 2400.5
489.42 334.54 2389.6
508.64 343.33 2452.4
519.01 346.01 2471.5
524.12 345.15 2465.4
170.11 346.76 2523.6
175.24 343.99 2503.4
180.55 341.75 2487.1
189.86 346.98 2525.2
207.49 343.65 2501.0
203.96 327.58 2384.0
212.01 330.49 2405.2
223.48 338.41 2462.8
234.32 344.97 2510.6
242.50 329.55 2398.3
242.73 321.61 2340.6
257.21 332.49 2419.8
273.39 344.99 2510.7
273.67 337.32 2454.9
263.56 317.47 2310.4
273.49 322.11 2344.2
290.40 334.59 2435.0
299.02 337.19 2454.0
307.37 339.38 2469.9
308.18 333.34 2425.9
304.56 322.83 2349.4
308.47 320.57 2333.0
311.50 317.49 2310.6
317.79 317.79 2312.7
328.34 322.26 2345.3
337.52 325.25 2367.0
335.85 317.86 2313.2
333.90 310.47 2259.5
348.18 318.16 2315.5
352.25 316.43 2302.8
359.73 312.55 2274.6
375.07 320.63 2333.4
392.15 329.90 2400.9
396.10 328.02 2387.2
398.01 324.53 2361.8
412.15 330.97 2408.7
409.74 324.12 2358.8
403.29 314.33 2287.6
411.48 316.07 2300.2
422.75 320.08 2329.4
436.48 325.83 2371.2
452.25 332.91 2422.8
453.53 329.27 2396.3
450.75 322.83 2349.5
476.50 327.98 2386.9
493.64 335.43 2441.1
503.30 337.66 2457.4
498.75 330.42 2404.7
180.42 347.48 2577.4
180.54 335.29 2487.0
183.46 328.96 2440.1
190.52 330.23 2449.5
198.34 332.69 2467.8
216.30 321.36 2383.7
227.68 328.87 2439.4
232.15 326.26 2420.1
248.33 322.83 2394.6
263.90 334.70 2482.7
283.46 327.56 2429.7
282.99 319.90 2372.9
296.48 328.02 2433.2
315.03 334.32 2479.8
315.87 328.51 2436.7
318.06 324.30 2405.5
319.42 319.42 2369.3
321.40 315.34 2339.1
327.63 315.49 2340.2
338.90 320.41 2376.7
338.81 314.61 2333.6
341.96 306.58 2274.1
358.96 316.37 2346.7
369.17 319.95 2373.2
374.87 319.56 2370.4
385.90 323.65 2400.7
395.64 326.56 2422.3
391.86 318.38 2361.6
381.84 305.47 2265.8
395.12 306.66 2274.7
404.11 309.03 2292.2
411.79 310.34 2302.0
423.06 314.28 2331.2
439.68 322.02 2388.6
457.86 330.68 2452.8
463.27 330.00 2447.8
465.10 326.82 2424.2
476.46 330.34 2450.3
492.16 336.74 2497.8
505.38 341.30 2531.6
509.73 339.82 2520.6
503.27 331.27 2457.2
179.79 339.60 2568.4
184.69 336.40 2544.2
192.00 337.65 2553.6
193.35 328.69 2485.9
195.70 321.96 2435.0
202.96 323.47 2446.4
209.34 323.53 2446.8
214.24 321.37 2430.5
222.38 324.04 2450.7
228.49 323.70 2448.1
227.68 313.83 2373.5
238.77 312.24 2361.5
246.88 314.77 2380.6
256.44 318.99 2412.5
267.67 325.03 2458.2
270.78 321.16 2428.9
284.08 329.27 2490.3
289.19 327.75 2478.8
279.21 309.56 2341.2
283.99 308.16 2330.6
300.23 318.99 2412.6
308.26 320.84 2426.5
314.58 320.87 2426.7
322.32 322.32 2437.7
320.72 314.55 2379.0
319.35 307.30 2324.1
321.41 303.56 2295.8
327.67 303.84 2298.0
342.63 312.04 2359.9
352.39 315.29 2384.6
351.36 308.95 2336.6
357.73 309.22 2338.7
374.02 317.92 2404.4
385.22 322.07 2435.8
393.26 323.49 2446.6
399.92 323.75 2448.5
399.94 318.70 2410.3
393.66 308.87 2336.0
391.02 302.15 2285.2
398.98 303.70 2296.9
413.37 310.03 2344.7
426.42 315.18 2383.7
440.73 321.11 2428.5
472.45 330.07 2496.3
466.56 321.55 2431.9
470.18 319.72 2418.1
490.60 329.22 2489.9
509.11 332.88 2517.6
494.28 319.09 2413.3
508.14 323.94 2450.0
523.61 329.68 2493.4
523.20 325.40 2461.0
171.55 329.90 2545.0
171.19 317.02 2445.6
187.08 322.55 2488.2
191.80 319.66 2466.0
199.74 322.16 2485.3
212.62 332.22 2562.8
218.12 330.48 2549.4
222.15 326.70 2520.2
239.60 323.78 2497.7
241.54 317.81 2451.7
246.14 315.56 2434.3
246.76 308.45 2379.4
248.46 302.99 2337.4
270.12 306.96 2368.0
289.63 321.81 2482.5
295.04 320.69 2473.9
290.68 309.24 2385.5
298.37 310.80 2397.6
306.49 312.74 2412.6
312.64 312.64 2411.8
324.12 317.77 2451.3
325.20 312.69 2412.2
319.86 301.76 2327.8
325.82 296.20 2285.0
342.60 305.89 2359.7
350.47 307.43 2371.6
347.20 299.31 2308.9
349.15 295.89 2282.6
360.88 300.73 2319.9
374.80 307.22 2370.0
385.84 311.16 2400.4
397.98 315.85 2436.6
403.32 315.09 2430.7
398.24 306.34 2363.2
398.01 301.52 2326.0
403.52 301.14 2323.1
414.71 304.93 2352.3
432.85 313.66 2419.7
439.07 309.20 2385.3
446.04 305.51 2356.8
467.64 315.97 2437.5
470.14 313.43 2417.9
490.75 322.86 2490.7
503.60 318.73 2458.8
524.62 327.89 2529.4
174.43 316.57 2491.9
189.78 309.98 2440.1
200.76 317.33 2497.9
211.05 323.17 2543.9
214.38 318.33 2505.8
215.87 311.10 2448.9
221.99 310.78 2446.4
234.91 319.74 2516.9
240.62 318.66 2508.4
244.63 315.45 2483.1
251.01 315.37 2482.5
259.01 317.29 2497.6
267.62 319.84 2517.7
265.81 310.11 2441.1
265.24 302.25 2379.3
272.01 302.92 2384.5
284.66 309.97 2440.0
300.77 320.39 2522.0
301.53 307.81 2423.0
297.71 297.71 2343.5
301.14 295.11 2323.0
309.01 296.89 2337.0
320.66 302.16 2378.5
325.77 301.19 2370.8
324.92 294.84 2320.9
335.31 298.73 2351.5
343.28 300.37 2364.4
341.45 293.52 2310.5
352.60 287.96 2266.7
365.93 293.95 2313.9
375.72 296.94 2337.4
387.07 301.05 2369.8
412.36 306.14 2409.9
398.90 291.73 2296.4
414.84 298.93 2353.1
439.63 312.20 2457.5
439.78 307.84 2423.3
435.48 292.31 2301.0
468.35 310.12 2441.2
485.25 317.03 2495.6
494.55 318.86 2509.9
504.32 316.81 2493.9
502.96 311.96 2455.7
507.46 310.82 2446.7
510.48 308.81 2430.9
526.42 314.57 2476.2
185.30 317.66 2552.6
187.87 310.95 2498.7
191.69 306.71 2464.6
201.06 311.32 2501.7
209.72 314.58 2527.9
215.64 313.65 2520.4
219.59 310.02 2491.2
216.32 296.66 2383.9
219.86 293.15 2355.7
231.51 300.33 2413.4
241.89 305.54 2455.3
249.09 306.57 2463.5
257.87 309.44 2486.6
268.23 314.03 2523.4
267.39 305.59 2455.7
270.39 301.83 2425.4
280.87 306.40 2462.2
287.05 306.19 2460.5
295.81 308.67 2480.4
306.40 306.40 2462.2
306.43 300.18 2412.2
314.50 301.92 2426.1
319.25 300.47 2414.5
328.06 302.82 2433.4
347.23 297.63 2391.7
353.02 297.28 2388.8
357.89 296.19 2380.1
356.72 290.22 2332.1
365.22 292.18 2347.9
377.37 296.94 2386.2
386.87 299.51 2406.8
385.91 294.03 2362.7
400.97 300.73 2416.6
414.83 301.69 2424.3
400.21 286.72 2304.0
415.14 293.04 2354.8
437.84 304.59 2447.6
436.54 299.34 2405.5
426.95 288.64 2319.4
440.60 293.73 2360.3
453.52 298.21 2396.3
464.01 300.98 2418.6
482.37 308.72 2480.8
493.17 311.48 2502.9
497.34 302.18 2428.2
538.55 315.25 2533.3
189.41 306.98 2519.3
199.14 311.99 2560.4
214.10 304.92 2502.4
218.53 302.09 2479.1
215.31 289.13 2372.8
227.98 289.59 2376.6
239.43 296.14 2430.3
247.57 298.35 2448.5
249.76 293.46 2408.4
253.41 290.50 2384.0
262.75 294.03 2413.0
275.53 301.16 2471.5
284.78 304.20 2496.5
289.10 301.95 2478.0
298.37 304.86 2501.9
308.34 301.91 2477.7
307.15 294.62 2417.8
308.47 289.96 2379.6
306.21 282.19 2315.9
326.43 295.05 2421.3
351.77 300.61 2467.0
352.90 296.19 2430.7
364.88 300.87 2469.1
391.13 301.36 2473.2
395.18 299.57 2458.5
388.59 289.90 2379.1
382.24 280.71 2303.7
385.74 278.92 2289.0
403.74 287.51 2359.5
418.85 293.82 2411.3
427.51 295.48 2424.9
446.61 299.86 2460.9
440.92 291.88 2395.3
450.75 294.24 2414.7
460.68 296.60 2434.1
463.40 294.32 2415.4
473.04 296.44 2432.8
509.64 303.21 2488.3
507.77 298.31 2448.2
183.12 300.84 2522.5
190.44 302.08 2533.0
203.04 291.86 2447.3
223.41 285.47 2393.7
230.23 286.23 2400.1
237.85 287.93 2414.3
253.74 299.28 2509.5
266.93 299.48 2511.2
279.68 299.20 2508.8
277.89 290.52 2436.0
283.43 289.73 2429.4
294.70 294.70 2471.1
303.18 296.73 2488.1
299.85 287.35 2409.5
294.86 276.80 2321.0
325.40 282.42 2368.1
321.51 273.88 2296.5
331.55 277.30 2325.2
349.44 287.04 2406.9
357.88 288.81 2421.7
369.48 293.04 2457.2
376.01 293.16 2458.2
371.09 284.51 2385.6
377.91 284.98 2389.6
385.68 286.15 2399.4
388.38 283.58 2377.9
390.65 280.78 2354.4
395.76 280.08 2348.5
414.91 289.18 2424.8
427.48 293.49 2461.0
433.15 293.02 2457.0
442.30 294.87 2472.5
438.58 288.21 2416.7
435.48 282.14 2365.8
447.60 285.97 2397.9
446.78 281.53 2360.7
454.22 278.59 2336.0
492.31 297.98 2498.6
182.02 292.53 2507.4
187.71 281.56 2413.4
210.08 286.47 2455.4
212.30 280.98 2408.4
218.22 280.57 2404.9
229.85 287.31 2462.7
236.27 287.36 2463.1
240.16 284.40 2437.7
251.92 290.67 2491.5
269.95 296.28 2539.6
274.63 294.24 2522.1
271.51 284.14 2435.5
269.30 275.42 2360.8
275.23 275.23 2359.1
281.97 275.84 2364.3
285.85 273.68 2345.9
296.50 277.97 2382.6
306.21 281.21 2410.4
311.98 280.78 2406.7
317.98 280.57 2404.9
321.85 278.52 2387.4
324.68 275.67 2362.9
321.88 268.23 2299.1
332.49 272.04 2331.8
341.13 274.12 2349.6
339.54 268.06 2297.6
360.29 279.53 2396.0
375.67 286.53 2456.0
373.19 279.89 2399.1
382.83 282.41 2420.7
395.73 287.22 2461.9
403.55 288.25 2470.7
426.55 282.28 2419.5
416.37 271.54 2327.5
424.70 273.02 2340.2
433.44 274.72 2354.7
448.10 280.06 2400.5
449.49 277.08 2375.0
459.28 275.57 2362.0
499.60 288.23 2470.6
184.00 279.17 2447.3
189.77 278.32 2439.9
211.58 282.10 2473.0
215.50 278.88 2444.7
218.55 274.75 2408.5
227.33 277.85 2435.7
231.22 274.96 2410.4
231.76 268.35 2352.4
240.90 271.78 2382.5
250.39 275.43 2414.5
253.96 272.54 2389.1
256.31 268.52 2353.9
276.92 270.77 2373.6
288.76 276.20 2421.2
288.21 269.82 2365.3
293.64 269.17 2359.6
306.68 275.38 2414.1
315.90 277.99 2436.9
324.72 280.15 2455.8
331.50 280.50 2458.9
338.57 281.08 2464.0
339.61 276.72 2425.8
340.58 272.47 2388.5
338.80 266.20 2333.6
358.03 271.61 2381.0
391.48 282.38 2475.4
395.53 280.70 2460.7
392.93 274.43 2405.7
392.99 270.18 2368.5
404.74 273.98 2401.8
411.97 274.65 2407.6
427.05 280.45 2458.5
426.50 275.97 2419.2
410.19 261.57 2293.0
427.09 264.68 2320.2
449.32 274.58 2407.1
465.88 280.81 2461.6
475.97 283.01 2481.0
474.21 278.20 2438.8
483.40 272.68 2390.4
514.47 286.54 2511.9
202.15 289.75 2599.1
198.98 276.00 2475.7
199.27 267.77 2401.9
209.35 272.79 2447.0
213.90 270.52 2426.6
217.54 267.26 2397.4
230.07 274.81 2465.1
237.55 276.07 2476.4
236.40 267.51 2399.6
244.26 269.32 2415.8
250.67 269.47 2417.1
251.72 264.00 2368.1
258.22 264.36 2371.4
267.37 267.37 2398.4
277.46 271.15 2432.3
293.01 279.99 2511.5
301.08 281.44 2524.6
295.63 270.47 2426.1
295.69 264.89 2376.1
302.75 265.68 2383.2
308.83 265.60 2382.4
315.17 265.73 2383.6
343.63 268.65 2409.8
349.32 268.23 2406.0
354.84 267.69 2401.2
362.12 268.47 2408.2
373.48 272.20 2441.6
384.71 275.71 2473.1
389.10 274.29 2460.4
391.70 271.66 2436.8
388.24 264.99 2377.0
414.02 261.81 2348.5
421.85 262.89 2358.2
422.63 259.61 2328.8
438.19 265.38 2380.5
451.82 269.84 2420.5
460.65 271.34 2434.0
468.62 272.30 2442.6
465.05 266.63 2391.7
476.98 269.87 2420.7
498.50 274.82 2465.1
515.21 276.93 2484.1
196.10 284.01 2608.3
196.66 275.32 2528.5
199.75 270.63 2485.3
207.22 271.97 2497.7
212.12 269.97 2479.3
211.78 261.61 2402.5
215.53 258.64 2375.3
228.75 266.88 2450.9
246.13 265.07 2434.3
268.94 268.94 2469.9
278.13 271.67 2494.9
288.24 275.14 2526.8
290.79 271.40 2492.5
285.86 261.00 2396.9
293.31 262.10 2407.1
306.45 268.15 2462.6
296.32 253.99 2332.6
307.96 253.61 2329.1
345.41 263.76 2422.3
352.27 264.20 2426.4
358.14 263.89 2423.5
366.21 265.19 2435.4
372.23 264.98 2433.5
378.09 264.66 2430.6
385.33 265.31 2436.5
391.33 265.09 2434.5
400.85 267.23 2454.2
401.02 263.17 2416.9
392.25 253.45 2327.6
424.77 258.56 2374.5
447.78 268.67 2467.3
455.95 269.72 2477.0
461.61 269.27 2472.9
469.84 270.32 2482.5
477.55 271.04 2489.2
485.86 272.08 2498.7
499.03 268.71 2467.7
192.16 281.38 2647.2
193.01 263.78 2481.6
195.58 258.67 2433.5
206.94 265.15 2494.4
215.91 268.25 2523.6
216.03 260.50 2450.7
220.71 258.55 2432.4
228.35 260.07 2446.6
238.91 264.74 2490.6
251.40 264.29 2486.4
251.12 251.12 2362.5
268.69 262.30 2467.6
276.45 263.59 2479.8
286.06 266.56 2507.7
289.02 263.33 2477.3
292.18 260.42 2449.9
308.54 269.15 2532.1
313.54 267.81 2519.5
317.16 254.98 2398.7
327.93 258.56 2432.4
338.48 252.32 2373.7
339.51 248.57 2338.4
354.92 250.89 2360.3
369.78 256.96 2417.4
379.41 259.27 2439.1
389.94 262.09 2465.6
388.59 256.97 2417.5
390.53 254.16 2391.0
403.08 258.22 2429.3
407.39 256.97 2417.5
414.99 257.80 2425.3
420.42 257.27 2420.3
408.72 246.44 2318.4
420.33 249.76 2349.7
442.04 258.91 2435.7
447.79 258.58 2432.7
466.84 265.84 2500.9
184.76 273.72 2639.4
197.63 272.59 2628.5
207.51 267.75 2581.9
223.60 263.06 2536.6
227.69 260.22 2509.3
235.16 261.29 2519.6
238.88 258.25 2490.3
245.28 258.19 2489.7
252.97 259.46 2501.9
251.28 251.28 2423.1
257.50 251.22 2422.4
271.13 258.22 2490.0
276.19 256.92 2477.4
283.21 257.46 2482.7
296.94 263.94 2545.2
310.42 258.69 2494.5
311.65 254.41 2453.2
327.88 262.31 2529.4
330.14 253.95 2448.8
324.73 245.08 2363.2
338.74 250.92 2419.6
344.61 250.62 2416.7
338.31 241.65 2330.2
371.53 251.88 2428.9
395.80 255.36 2462.4
394.97 250.77 2418.2
403.51 252.20 2431.9
404.52 248.94 2400.5
409.06 247.92 2390.6
425.30 253.91 2448.4
424.89 249.94 2410.1
415.71 240.99 2323.8
443.42 246.34 2375.4
460.47 252.31 2433.0
462.62 250.06 2411.3
471.68 251.56 2425.8
489.09 257.41 2482.2
180.14 270.20 2672.3
200.59 269.75 2667.9
225.14 258.25 2554.1
228.47 254.58 2517.9
234.67 254.22 2514.3
237.04 249.86 2471.1
239.10 245.39 2426.9
242.73 242.73 2400.6
251.35 245.06 2423.7
267.87 254.80 2520.0
278.21 258.33 2554.9
280.12 254.06 2512.7
291.40 258.29 2554.5
316.53 257.18 2543.5
326.43 254.62 2518.2
319.81 244.56 2418.7
328.63 246.47 2437.6
339.85 250.07 2473.3
354.00 255.67 2528.6
358.74 254.38 2515.9
354.70 247.02 2443.1
348.24 238.27 2356.5
370.27 244.75 2420.6
392.31 250.82 2480.7
396.06 249.13 2464.0
408.22 252.71 2499.3
410.78 250.32 2475.7
405.29 243.17 2405.0
406.82 240.39 2377.5
419.44 244.15 2414.7
413.77 237.31 2347.0
438.83 241.05 2384.0
448.28 242.82 2401.5
454.66 242.90 2402.3
450.17 237.25 2346.5
474.40 243.44 2407.7
497.74 252.10 2493.3
498.43 249.22 2464.8
506.97 250.28 2475.3
197.73 259.09 2629.9
198.02 250.83 2546.0
203.47 249.41 2531.6
214.59 254.83 2586.6
220.15 253.51 2573.2
217.60 243.20 2468.5
224.75 244.02 2476.9
235.01 248.06 2517.9
238.91 245.37 2490.6
242.96 242.96 2466.2
251.30 244.85 2485.4
265.48 252.20 2559.9
269.94 250.18 2539.5
267.50 242.03 2456.7
277.54 245.27 2489.6
311.91 252.18 2559.8
314.76 249.19 2529.3
329.84 250.68 2544.5
344.43 242.38 2460.2
348.29 240.64 2442.6
342.06 232.11 2356.0
347.16 231.44 2349.2
356.53 233.59 2371.0
363.89 234.37 2378.9
370.37 234.57 2381.0
375.62 233.99 2375.1
387.79 237.68 2412.5
399.34 240.87 2444.9
400.78 237.97 2415.4
400.26 234.00 2375.2
406.58 234.09 2376.1
413.76 234.67 2382.0
454.99 247.00 2507.1
459.53 242.53 2461.8
473.28 246.37 2500.7
474.66 243.75 2474.1
468.50 237.37 2409.4
483.94 241.97 2456.1
493.58 243.58 2472.5
500.50 240.75 2443.7
520.22 244.05 2477.2
197.03 251.38 2620.6
201.62 248.67 2592.3
211.49 252.43 2631.5
216.46 250.28 2609.1
215.03 241.09 2513.3
233.40 239.88 2500.7
244.58 244.58 2549.6
248.59 242.05 2523.3
256.97 243.79 2541.4
263.38 243.63 2539.8
260.22 234.83 2448.0
262.72 231.44 2412.7
278.38 239.54 2497.1
295.07 237.34 2474.2
300.82 231.89 2417.3
333.67 242.07 2523.6
324.80 231.11 2409.2
341.37 238.31 2484.4
353.62 242.30 2525.9
345.57 232.47 2423.5
347.25 225.41 2349.8
363.57 231.93 2417.8
378.58 237.41 2475.0
378.88 233.64 2435.7
378.05 229.31 2390.5
383.77 229.03 2387.5
389.97 229.03 2387.5
402.67 232.80 2426.8
414.25 235.81 2458.2
407.86 228.65 2383.6
412.94 224.69 2342.3
447.23 239.82 2500.0
453.46 236.31 2463.5
456.35 234.51 2444.7
480.25 243.41 2537.5
483.59 241.80 2520.7
477.54 235.59 2455.9
490.99 239.03 2491.9
498.77 239.67 2498.5
182.79 243.72 2611.3
191.98 246.83 2644.6
192.97 239.55 2566.6
197.27 236.73 2536.3
210.03 243.90 2613.3
217.42 244.59 2620.6
218.65 238.52 2555.6
218.40 231.25 2477.7
220.63 226.94 2431.5
233.83 233.83 2505.3
243.21 236.64 2535.4
245.52 232.60 2492.2
254.83 235.22 2520.3
261.09 234.98 2517.6
258.28 226.78 2429.8
262.24 224.78 2408.4
269.52 225.64 2417.6
276.95 226.59 2427.8
287.31 229.85 2462.7
315.65 236.74 2536.5
329.11 236.96 2538.8
337.80 238.44 2554.8
351.84 230.29 2467.4
346.94 223.04 2389.7
355.34 224.42 2404.5
372.10 230.96 2474.5
392.59 235.56 2523.8
384.36 226.83 2430.4
383.23 222.52 2384.2
388.77 222.16 2380.2
402.61 226.47 2426.4
408.89 226.46 2426.4
427.04 226.08 2422.3
448.03 233.76 2504.5
454.50 233.74 2504.4
432.30 219.19 2348.5
461.84 227.76 2440.3
476.39 231.76 2483.1
482.60 231.65 2481.9
501.36 231.40 2479.3
182.76 236.92 2610.9
191.95 239.94 2644.2
193.24 233.22 2570.2
203.22 229.44 2528.5
216.23 236.50 2606.4
223.45 236.99 2611.8
220.29 226.77 2499.1
219.79 219.79 2422.1
228.97 222.61 2453.3
233.76 221.12 2436.8
237.77 219.00 2413.4
248.77 223.26 2460.4
254.88 223.02 2457.8
260.69 217.24 2394.1
273.33 222.48 2451.8
275.66 219.27 2416.5
280.91 218.49 2407.8
297.08 221.23 2438.0
314.50 229.32 2527.2
309.15 220.82 2433.5
329.13 225.87 2489.2
336.27 226.33 2494.3
339.63 224.29 2471.7
353.38 229.04 2524.1
357.54 227.53 2507.4
343.88 214.92 2368.5
365.37 220.48 2429.8
388.10 230.23 2537.2
388.09 226.39 2494.9
376.67 216.12 2381.7
377.31 213.00 2347.3
385.01 213.89 2357.2
390.15 213.36 2351.3
417.63 218.16 2404.3
426.44 219.49 2418.9
432.88 219.57 2419.8
452.82 226.41 2495.2
444.66 219.20 2415.7
471.81 223.15 2459.2
504.12 232.16 2558.5
496.66 225.75 2487.9
513.52 230.42 2539.4
509.05 225.53 2485.4
206.17 233.66 2650.7
217.64 224.24 2543.9
229.11 222.56 2524.9
232.45 219.54 2490.6
236.28 217.13 2463.2
239.09 213.93 2426.9
246.02 214.48 2433.2
270.02 218.59 2479.8
276.04 218.27 2476.1
289.29 218.57 2479.6
303.89 224.61 2548.1
306.66 221.84 2516.7
312.23 221.16 2509.0
313.24 217.35 2465.7
322.85 219.54 2490.6
334.16 222.78 2527.3
335.28 219.22 2486.9
339.30 217.67 2469.3
352.76 222.11 2519.8
360.44 222.81 2527.7
350.54 212.83 2414.4
370.05 216.92 2460.9
386.49 219.01 2484.6
379.24 211.38 2398.0
383.72 210.43 2387.2
390.88 210.95 2393.1
395.29 210.00 2382.3
400.80 209.65 2378.4
416.03 214.32 2431.4
428.46 217.43 2466.6
425.68 212.84 2414.5
424.38 209.11 2372.3
437.09 212.30 2408.5
452.15 216.52 2456.4
454.65 214.70 2435.6
473.35 220.46 2501.1
490.04 222.15 2520.2
474.53 209.53 2377.1
517.58 225.61 2559.5
519.55 223.61 2536.7
206.37 227.01 2653.3
220.15 220.15 2573.2
238.34 218.48 2553.6
238.33 212.57 2484.6
247.06 214.55 2507.7
259.41 219.50 2565.6
265.48 219.02 2560.0
276.34 217.12 2537.8
296.28 217.27 2539.6
317.82 223.15 2608.2
367.22 216.40 2529.3
365.78 211.76 2475.2
366.87 208.73 2439.8
366.42 204.95 2395.5
388.87 213.88 2499.9
406.26 216.24 2527.4
404.13 211.69 2474.3
413.32 213.12 2491.0
424.57 215.55 2519.4
425.54 212.77 2486.9
423.95 208.81 2440.7
434.24 210.74 2463.2
446.40 213.50 2495.4
440.75 207.78 2428.6
436.02 202.65 2368.7
445.06 203.99 2384.3
470.30 212.60 2485.0
473.03 208.13 2432.7
497.65 213.28 2492.9
519.47 219.78 2568.8
519.99 211.85 2476.1
203.40 216.96 2615.1
205.43 212.05 2556.0
217.37 217.37 2620.0
220.80 214.11 2580.7
231.91 200.57 2417.6
251.80 212.04 2555.9
282.65 215.35 2595.8
280.58 208.80 2516.8
299.89 208.62 2514.6
313.07 213.15 2569.2
370.59 211.77 2552.6
361.48 202.94 2446.1
354.50 195.58 2357.5
379.61 202.46 2440.4
402.91 211.36 2547.7
403.66 208.34 2511.2
403.74 205.07 2471.9
414.22 207.11 2496.4
423.00 208.25 2510.1
422.43 204.82 2468.8
426.26 203.59 2453.9
442.47 208.22 2509.8
452.23 206.73 2491.9
446.93 201.43 2428.0
455.40 202.40 2439.6
452.24 198.24 2389.5
475.16 200.07 2411.5
505.17 209.94 2530.5
517.21 212.19 2557.6
534.23 211.05 2544.0
213.62 213.62 2657.9
210.49 203.91 2537.1
238.34 199.69 2484.6
251.56 205.22 2553.4
278.61 205.64 2558.7
285.50 205.82 2560.9
300.10 206.74 2572.3
299.95 202.14 2515.1
317.71 209.56 2607.4
335.75 208.16 2590.0
329.80 200.47 2494.3
358.66 205.90 2561.8
354.47 199.79 2485.9
362.51 200.67 2496.9
366.51 199.33 2480.2
366.43 195.85 2436.8
373.96 196.49 2444.8
376.93 194.75 2423.1
377.92 192.06 2389.7
394.09 197.05 2451.7
410.41 201.95 2512.7
433.62 203.67 2534.1
413.04 191.11 2377.8
430.10 196.07 2439.6
445.53 200.17 2490.6
453.92 201.02 2501.2
461.46 201.48 2506.9
475.43 204.70 2546.9
476.99 202.56 2520.3
459.06 192.31 2392.8
474.10 193.38 2406.1
504.69 203.19 2528.1
514.08 201.73 2510.0
211.42 204.60 2630.6
211.60 198.38 2550.6
224.38 197.98 2545.5
250.00 202.70 2606.2
252.59 199.41 2563.9
258.47 198.82 2556.3
262.97 197.23 2535.8
265.57 194.32 2498.4
268.85 192.03 2469.0
279.15 194.75 2504.0
294.48 200.78 2581.5
300.51 200.34 2575.8
304.03 198.28 2549.3
310.18 197.99 2545.5
320.50 200.31 2575.4
325.18 195.11 2508.5
351.01 202.51 2603.7
357.90 198.83 2556.4
356.09 194.23 2497.3
366.45 196.31 2524.0
376.06 197.93 2544.8
381.92 197.54 2539.9
386.09 196.32 2524.1
385.13 192.57 2475.8
379.09 186.44 2397.1
388.16 187.82 2414.8
403.10 191.95 2467.9
431.55 193.23 2484.4
445.76 196.66 2528.5
450.71 195.96 2519.5
448.67 192.29 2472.3
454.69 192.12 2470.2
467.29 194.70 2503.3
489.96 198.63 2553.8
478.45 191.38 2460.6
493.85 194.94 2506.4
505.96 197.13 2534.5
503.18 193.53 2488.3
519.38 197.23 2535.9
533.38 200.02 2571.7
530.55 196.50 2526.4
540.34 197.69 2541.7
202.60 195.84 2604.8
210.35 196.77 2617.2
216.92 196.58 2614.7
220.25 193.55 2574.4
227.49 194.03 2580.7
234.39 194.21 2583.1
254.01 193.85 2578.3
255.01 189.62 2522.1
268.37 194.57 2587.9
276.02 190.59 2534.9
278.54 187.85 2498.5
282.56 186.23 2477.0
300.23 185.25 2463.9
307.75 185.93 2473.0
316.83 187.51 2494.0
325.11 188.56 2508.0
340.65 193.70 2576.4
348.01 194.09 2581.4
342.64 187.48 2493.6
348.57 187.19 2489.8
362.92 191.36 2545.1
365.80 189.43 2519.5
368.70 187.58 2494.9
383.62 191.81 2551.2
396.42 194.85 2591.6
400.35 190.33 2531.5
387.44 181.22 2410.3
392.59 177.89 2366.1
417.95 186.47 2480.1
428.40 188.24 2503.6
425.66 184.24 2450.5
445.85 190.14 2529.0
449.11 186.06 2474.7
450.27 183.91 2446.1
446.52 179.85 2392.0
480.28 188.22 2503.4
499.48 193.13 2568.8
503.01 191.94 2552.8
501.17 188.75 2510.5
498.53 185.35 2465.3
516.28 189.52 2520.7
532.27 192.95 2566.3
532.49 190.65 2535.7
542.93 192.01 2553.9
212.92 186.31 2566.5
235.80 183.40 2526.4
251.91 190.63 2626.1
257.48 189.72 2613.5
254.45 182.69 2516.6
264.00 184.80 2545.7
284.01 184.93 2547.6
297.75 177.38 2443.5
328.95 180.60 2487.9
343.02 184.70 2544.3
342.30 180.84 2491.1
353.61 183.35 2525.8
371.72 189.24 2606.8
376.76 188.38 2595.0
370.51 182.01 2507.2
377.62 182.30 2511.2
392.26 177.15 2440.3
390.06 173.36 2388.2
407.68 178.36 2457.0
415.04 178.79 2462.9
408.13 173.14 2385.1
411.40 171.93 2368.4
435.89 179.48 2472.5
462.27 182.30 2511.3
453.55 176.38 2429.7
455.18 174.59 2405.1
480.94 181.98 2506.8
491.77 183.59 2529.1
484.97 178.67 2461.3
507.12 184.41 2540.3
534.85 184.89 2546.9
210.74 183.55 2622.1
212.79 179.55 2564.9
218.55 178.81 2554.4
253.42 180.06 2572.3
258.72 179.11 2558.7
261.06 176.22 2517.4
274.48 180.75 2582.2
312.53 179.54 2564.8
317.35 178.51 2550.1
322.98 177.97 2542.4
331.48 172.12 2458.8
347.03 173.52 2478.8
368.83 181.06 2586.6
371.67 179.20 2560.0
362.56 171.74 2453.4
361.37 168.22 2403.2
375.60 171.88 2455.5
383.96 172.78 2468.3
378.21 167.40 2391.5
382.20 166.44 2377.7
398.98 170.99 2442.7
410.04 172.99 2471.2
411.80 171.06 2443.6
421.83 172.57 2465.2
435.96 173.10 2472.9
427.77 167.39 2391.3
446.25 172.12 2458.9
455.85 173.35 2476.4
455.10 170.66 2438.0
465.10 172.02 2457.5
469.93 171.46 2449.4
216.30 175.74 2607.1
223.26 175.90 2609.6
226.74 173.39 2572.2
249.06 170.41 2528.1
261.37 174.25 2585.0
270.68 175.94 2610.1
268.62 170.34 2527.1
276.59 167.24 2481.0
283.51 167.53 2485.3
330.16 171.68 2547.0
334.95 164.31 2437.6
359.96 173.31 2571.1
370.86 175.32 2600.8
361.98 168.06 2493.3
361.46 164.87 2445.9
368.10 165.01 2448.0
366.46 161.49 2395.8
390.66 163.82 2430.4
393.10 162.23 2406.7
404.74 161.90 2401.8
428.13 168.66 2502.0
443.31 172.03 2552.1
429.46 164.20 2436.0
435.46 161.74 2399.4
457.57 162.97 2417.7
476.21 167.32 2482.2
472.70 163.87 2431.1
499.41 170.85 2534.6
230.80 169.71 2618.4
249.75 168.75 2603.6
306.43 166.54 2569.4
323.37 168.42 2598.5
319.82 163.17 2517.5
333.60 160.38 2474.5
355.24 167.57 2585.3
374.52 167.20 2579.6
381.65 167.39 2582.6
384.93 165.92 2559.9
379.35 160.74 2480.0
372.90 155.37 2397.2
381.46 156.33 2412.0
398.80 160.81 2481.0
398.47 158.12 2439.6
392.21 153.21 2363.8
404.31 155.50 2399.2
430.05 162.90 2513.3
438.88 161.35 2489.5
434.77 157.53 2430.4
456.91 163.18 2517.7
467.74 164.70 2541.1
451.59 156.80 2419.2
466.18 159.65 2463.2
490.77 165.80 2558.1
493.35 164.45 2537.3
532.66 164.40 2536.5
226.02 159.55 2564.1
229.55 157.41 2529.7
281.02 160.58 2580.8
292.65 159.63 2565.4
303.64 158.42 2546.1
312.70 156.35 2512.8
319.37 156.42 2514.0
324.62 155.82 2504.2
333.12 153.75 2470.9
344.30 155.91 2505.7
351.08 156.04 2507.7
366.90 160.10 2573.0
380.46 163.05 2620.5
390.64 161.64 2597.8
386.05 157.04 2523.8
379.71 151.88 2441.0
387.59 147.65 2373.0
399.23 147.41 2369.1
424.23 154.26 2479.2
444.16 154.49 2482.9
454.13 155.70 2502.4
480.18 157.87 2537.1
475.24 154.13 2477.1
482.38 154.36 2480.8
224.14 156.22 2619.8
232.11 157.01 2633.1
260.72 149.91 2514.1
272.97 153.13 2568.0
302.35 147.96 2481.3
313.24 150.10 2517.1
348.64 154.21 2586.1
341.50 148.20 2485.3
353.63 150.62 2525.9
376.36 154.58 2592.3
369.22 148.98 2498.5
378.08 149.93 2514.3
377.81 147.28 2469.9
383.76 147.11 2467.0
392.65 148.05 2482.8
390.05 144.70 2426.6
416.04 144.98 2431.4
442.49 151.90 2547.4
459.91 151.11 2534.2
455.96 147.71 2477.1
479.57 153.20 2569.1
482.48 152.01 2549.3
484.34 150.54 2524.6
499.80 153.27 2570.4
509.49 152.19 2552.2
513.28 151.35 2538.2
257.05 148.82 2609.1
280.46 146.91 2575.6
279.86 143.19 2510.4
311.94 142.97 2506.6
344.33 148.53 2604.1
338.69 140.59 2464.9
370.30 142.92 2505.8
367.00 139.21 2440.6
382.24 142.53 2498.9
397.56 141.07 2473.3
406.86 142.08 2491.0
417.40 143.48 2515.6
418.43 141.62 2483.0
430.92 143.64 2518.4
434.36 142.62 2500.6
444.11 143.68 2519.1
445.89 140.14 2456.9
458.94 140.23 2458.6
475.12 143.19 2510.4
491.94 146.25 2564.1
491.86 144.28 2529.6
483.90 140.08 2455.9
237.86 142.72 2621.4
251.91 142.98 2626.1
285.99 136.50 2507.1
364.39 141.71 2602.8
399.62 137.58 2526.9
407.76 138.11 2536.7
427.12 137.99 2534.6
433.34 137.88 2532.5
430.49 134.93 2478.3
459.53 135.92 2496.4
472.38 137.78 2530.6
481.32 138.46 2543.2
475.26 134.87 2477.2
255.55 134.50 2594.0
368.32 136.41 2630.8
387.60 129.20 2491.7
396.56 130.02 2507.5
415.20 125.82 2426.5
426.95 127.45 2457.9
427.76 125.81 2426.4
444.05 126.87 2446.8
483.61 132.50 2555.3
499.86 131.54 2536.9
383.78 125.72 2552.2
387.08 124.65 2530.5
383.81 121.54 2467.4
402.38 125.33 2544.3
398.65 120.23 2440.7
440.68 124.97 2537.0
440.99 123.22 2501.4
461.41 125.24 2542.4
393.38 118.01 2528.9
391.51 115.53 2475.6
400.96 114.56 2454.8
405.35 114.01 2443.0
413.17 114.42 2451.8
452.32 119.73 2565.7
447.16 116.65 2499.6
464.76 117.83 2524.9
475.82 115.74 2480.1
388.23 111.86 2538.0
390.20 110.56 2508.4
394.67 109.99 2495.6
394.32 108.12 2453.2
407.44 109.95 2494.6
415.37 110.33 2503.4
427.66 111.85 2537.8
458.29 112.91 2561.9
457.95 111.22 2523.4
486.26 110.22 2500.8
384.95 104.39 2516.6
393.47 103.20 2488.0
399.28 103.04 2484.0
409.74 104.06 2508.6
414.44 103.61 2497.7
433.48 103.52 2495.5
449.30 105.72 2548.5
456.58 105.87 2552.3
460.31 105.21 2536.4
453.11 102.11 2461.6
386.04 98.15 2523.8
398.53 96.42 2479.3
435.67 99.01 2546.1
442.25 99.01 2546.0
457.68 96.69 2486.4
464.28 96.72 2487.2
463.26 95.19 2447.7
392.01 91.47 2520.1
393.39 90.29 2487.5
440.54 90.70 2498.8
462.01 92.40 2545.8
455.55 89.83 2474.8
475.87 92.53 2549.3
425.84 85.17 2527.0
435.14 84.43 2505.1
437.88 82.50 2447.8
450.45 83.65 2482.1
459.39 84.11 2495.7
478.48 86.39 2563.3
497.90 86.30 2560.6
434.49 77.82 2501.4
453.23 78.82 2533.6
443.53 76.03 2443.9
460.55 76.76 2467.2
407.07 72.22 2532.5
438.21 70.89 2485.7
448.60 69.50 2437.1
408.02 64.76 2498.1
414.32 64.74 2497.0
420.95 64.76 2498.0
424.21 64.27 2479.1
461.85 65.05 2509.0
468.32 65.04 2508.8
467.90 64.10 2472.3
415.69 60.34 2586.1
422.53 59.42 2546.5
435.93 60.36 2586.8
443.99 59.64 2556.0
450.40 57.91 2481.8
470.74 59.67 2557.4
479.90 59.99 2570.9
481.88 59.41 2546.1
451.66 53.14 2561.9
442.78 51.34 2475.2
449.89 51.42 2479.0
470.22 52.98 2554.5
478.46 53.16 2563.2
479.11 52.51 2531.5
502.84 53.64 2586.0
525.79 53.24 2567.2
