ply
format ascii 1.0
element vertex 2273
property float x
property float y
property float z
end_header
809.67 764.69 2168.8
833.10 776.04 2201.0
851.01 787.33 2233.0
849.67 780.77 2214.4
852.34 777.97 2206.4
842.58 763.94 2166.6
847.52 763.33 2164.9
862.21 771.45 2187.9
881.90 783.92 2223.3
906.69 800.71 2270.9
901.92 791.36 2244.4
918.05 800.35 2269.9
952.92 825.46 2341.1
939.11 808.34 2292.6
930.14 795.59 2256.4
946.51 804.53 2281.8
945.41 798.60 2264.9
947.91 795.77 2256.9
981.47 818.89 2322.5
1012.34 839.50 2380.9
1010.91 833.24 2363.2
1008.65 826.37 2343.7
1014.62 826.28 2343.4
1000.82 810.19 2297.8
1009.73 812.56 2304.5
1077.77 862.22 2445.4
1114.53 881.26 2499.4
1102.50 866.71 2458.1
1134.52 886.75 2514.9
1123.90 873.43 2477.2
1105.61 854.33 2423.0
1140.69 876.46 2485.8
515.87 904.44 2584.1
511.46 885.22 2529.2
516.83 883.19 2523.4
512.57 864.96 2471.3
525.73 876.22 2503.5
539.06 887.47 2535.6
532.43 866.01 2474.3
533.96 858.15 2451.9
557.16 884.90 2528.3
576.82 905.48 2587.1
585.12 907.94 2594.1
585.23 897.79 2565.1
588.81 893.14 2551.8
602.44 903.66 2581.9
606.43 899.64 2570.4
603.33 885.31 2529.5
609.78 885.17 2529.1
615.79 884.38 2526.8
615.44 874.57 2498.8
626.15 880.53 2515.8
642.72 894.51 2555.7
648.52 893.38 2552.5
651.95 889.02 2540.1
650.80 878.58 2510.2
651.41 870.70 2487.7
661.85 875.97 2502.8
660.86 866.18 2474.8
654.06 849.03 2425.8
655.24 842.45 2407.0
676.15 861.14 2460.4
682.21 852.76 2436.5
684.24 847.45 2421.3
690.61 847.57 2421.6
692.53 842.27 2406.5
693.05 835.37 2386.8
680.68 813.20 2323.4
659.13 780.55 2230.1
667.74 783.87 2239.6
684.04 796.08 2274.5
674.07 777.78 2222.2
686.05 784.89 2242.5
713.50 809.43 2312.7
705.78 794.00 2268.6
680.81 759.58 2170.2
678.54 750.85 2145.3
707.28 776.28 2217.9
734.61 799.78 2285.1
735.06 793.86 2268.2
707.14 757.65 2164.7
746.85 781.58 2233.1
762.41 791.74 2262.1
761.02 784.25 2240.7
748.14 765.15 2186.1
748.01 759.26 2169.3
769.91 775.66 2216.2
777.61 777.61 2221.7
777.74 772.02 2205.8
792.74 781.17 2231.9
809.77 792.17 2263.3
798.93 775.94 2217.0
793.06 764.74 2185.0
809.54 775.09 2214.5
808.10 768.26 2195.0
806.90 761.75 2176.4
820.56 769.27 2197.9
833.65 776.15 2217.6
849.51 785.51 2244.3
851.62 782.10 2234.6
833.93 760.68 2173.4
859.57 768.49 2195.7
880.60 782.12 2234.6
907.78 800.98 2288.5
932.02 817.03 2334.4
924.54 805.25 2300.7
892.66 772.50 2207.1
900.82 769.69 2199.1
932.61 791.84 2262.4
931.86 786.26 2246.5
951.89 793.24 2266.4
1025.13 849.03 2425.8
1045.45 860.58 2458.8
1029.59 842.39 2406.8
1010.48 821.78 2347.9
1000.95 809.15 2311.9
1006.46 808.76 2310.7
1036.04 827.60 2364.6
1061.62 843.05 2408.7
1076.20 849.63 2427.5
1120.73 879.64 2513.3
1119.56 863.66 2467.6
1116.25 856.22 2446.3
514.23 894.89 2575.9
525.55 902.87 2598.9
542.68 897.77 2584.2
540.46 883.19 2542.2
551.97 891.13 2565.1
572.25 912.88 2627.7
586.95 914.56 2632.5
589.53 908.01 2613.7
584.21 889.58 2560.6
586.07 882.40 2540.0
597.52 889.64 2560.8
613.20 902.95 2599.1
622.03 906.00 2607.9
623.35 898.17 2585.3
623.66 889.05 2559.1
622.71 878.35 2528.3
634.19 885.22 2548.1
658.47 909.64 2618.4
653.43 875.60 2520.4
637.74 846.11 2435.5
633.75 832.58 2396.5
646.93 841.64 2422.6
652.83 841.15 2421.2
661.96 844.79 2431.7
693.97 861.04 2478.5
677.79 833.25 2398.5
667.72 813.41 2341.4
681.51 822.72 2368.2
693.83 830.12 2389.5
692.12 820.75 2362.5
680.06 799.37 2301.0
659.43 755.24 2173.9
701.83 797.00 2294.1
720.75 811.60 2336.2
704.33 786.50 2263.9
689.27 763.33 2197.2
697.65 766.27 2205.7
719.63 783.98 2256.7
741.84 801.66 2307.6
740.28 793.58 2284.3
708.25 753.21 2168.1
729.56 763.75 2198.4
741.07 769.79 2215.8
727.17 749.55 2157.5
745.99 763.08 2196.5
753.30 764.72 2201.2
744.53 750.13 2159.2
757.38 757.38 2180.1
778.80 773.03 2225.1
791.26 779.63 2244.1
788.54 771.27 2220.1
786.99 764.17 2199.6
803.70 774.79 2230.2
826.39 790.97 2276.8
833.30 791.93 2279.5
821.82 775.52 2232.3
824.66 772.76 2224.4
843.76 785.17 2260.1
849.64 785.18 2260.1
856.52 786.12 2262.8
871.54 794.46 2286.8
865.19 783.35 2254.8
854.93 768.86 2213.1
871.36 778.42 2240.7
877.86 779.03 2242.4
876.69 772.87 2224.7
889.47 779.01 2242.4
898.09 781.46 2249.4
915.97 791.87 2279.4
910.06 781.72 2250.2
892.54 761.78 2192.8
914.45 775.54 2232.4
922.74 777.65 2238.4
1000.49 827.57 2382.1
1061.27 856.69 2466.0
1025.87 823.15 2369.4
1008.29 804.23 2315.0
1042.10 826.28 2378.4
1069.27 842.83 2426.1
1066.51 835.74 2405.7
1096.65 854.37 2459.3
1142.63 885.05 2547.6
1127.45 868.27 2499.3
1107.71 848.19 2441.5
1138.39 866.73 2494.8
509.25 868.33 2518.3
524.86 883.62 2562.6
539.72 897.29 2602.2
544.66 894.31 2593.6
542.45 879.83 2551.6
552.59 885.48 2568.0
570.68 903.57 2620.5
578.41 905.05 2624.7
581.63 899.50 2608.6
583.10 891.40 2585.2
590.35 892.23 2587.6
606.55 906.42 2628.7
606.38 896.09 2598.8
609.75 891.17 2584.5
621.41 898.34 2605.3
626.94 896.59 2600.2
645.02 912.63 2646.7
662.84 918.31 2663.2
666.38 895.24 2596.3
664.64 883.97 2563.6
658.17 866.70 2513.5
660.18 860.82 2496.5
680.71 878.97 2549.1
679.75 869.30 2521.1
681.90 863.74 2504.9
680.67 838.24 2431.0
653.26 797.10 2311.7
648.18 783.71 2272.8
664.95 796.75 2310.7
690.65 820.14 2378.5
702.78 827.17 2398.9
695.37 811.26 2352.7
674.97 780.62 2263.9
678.77 778.24 2257.0
717.25 815.34 2364.6
719.60 804.26 2332.4
721.22 799.35 2318.2
723.33 795.07 2305.8
718.79 783.60 2272.5
728.52 787.75 2284.6
746.74 800.94 2322.8
741.41 788.86 2287.8
733.85 774.61 2246.5
745.10 780.30 2263.0
729.79 758.30 2199.1
737.67 748.93 2172.0
757.24 762.97 2212.7
762.42 762.42 2211.1
776.03 770.23 2233.8
796.01 784.22 2274.3
806.70 788.90 2287.9
802.48 779.05 2259.3
801.01 771.99 2238.8
818.47 783.14 2271.2
830.88 789.33 2289.1
827.03 780.11 2262.4
824.38 772.13 2239.3
836.17 777.69 2255.4
861.34 795.54 2307.2
871.67 799.53 2318.7
866.90 789.71 2290.2
869.78 786.95 2282.2
881.15 791.84 2296.4
888.81 793.36 2300.8
905.11 802.53 2327.4
910.42 801.89 2325.6
886.74 775.89 2250.2
876.05 761.54 2208.5
892.72 770.98 2235.9
918.74 788.34 2286.3
945.70 806.27 2338.3
962.47 815.34 2364.6
956.61 805.25 2335.3
936.09 783.02 2270.8
931.70 774.48 2246.1
971.61 802.64 2327.7
1013.36 831.96 2412.8
1029.15 839.73 2435.3
1047.27 849.31 2463.1
1036.78 820.78 2380.4
1046.64 823.69 2388.8
1071.54 838.32 2431.2
1066.46 829.47 2405.6
1083.03 837.46 2428.7
1118.04 859.53 2492.7
1140.37 871.67 2527.9
1159.71 881.38 2556.1
1178.77 890.77 2583.3
1197.23 894.56 2594.3
510.94 887.43 2593.1
500.18 857.45 2505.5
502.87 851.02 2486.7
543.26 874.52 2555.4
548.63 872.51 2549.6
560.82 881.29 2575.2
569.06 883.71 2582.3
572.17 878.21 2566.2
588.34 892.65 2608.4
620.67 900.31 2630.8
624.74 896.37 2619.3
617.85 876.95 2562.5
622.81 874.59 2555.6
660.42 917.63 2681.4
665.48 905.61 2646.2
641.59 864.18 2525.2
652.73 870.30 2543.1
675.15 891.19 2604.1
664.19 868.06 2536.5
663.10 858.13 2507.5
686.90 863.53 2523.3
686.48 854.87 2498.0
678.33 836.82 2445.2
645.07 788.42 2303.8
650.74 780.89 2281.8
663.61 789.16 2306.0
685.59 808.02 2361.1
709.98 829.36 2423.4
714.19 826.96 2416.4
696.11 799.01 2334.8
701.43 798.18 2332.4
722.19 814.78 2380.9
717.60 802.74 2345.7
716.20 794.45 2321.4
727.96 800.75 2339.9
713.05 777.87 2273.0
691.51 748.19 2186.3
713.46 765.66 2237.3
744.09 792.09 2314.6
751.33 793.41 2318.4
757.12 793.17 2317.7
764.38 794.47 2321.5
745.60 768.90 2246.8
725.85 742.73 2170.3
747.37 758.87 2217.5
756.86 762.64 2228.5
748.54 748.54 2187.3
755.22 749.54 2190.2
772.52 760.99 2223.7
785.89 768.43 2245.4
788.92 765.72 2237.5
794.13 765.15 2235.8
802.86 767.96 2244.0
814.53 773.51 2260.3
821.72 774.77 2263.9
818.80 766.53 2239.9
816.74 759.22 2218.5
824.84 761.39 2224.9
844.96 774.55 2263.3
857.21 780.36 2280.3
854.36 772.43 2257.1
855.13 767.87 2243.8
864.71 771.23 2253.6
881.54 780.96 2282.0
908.16 799.18 2335.3
914.87 799.76 2337.0
891.90 774.54 2263.3
884.75 763.31 2230.5
907.12 777.53 2272.0
922.22 785.38 2294.9
937.78 793.51 2318.7
957.03 804.64 2351.2
954.75 797.64 2330.8
956.72 794.26 2320.9
975.82 805.05 2352.4
995.06 815.82 2383.9
1014.06 826.27 2414.4
1042.11 843.91 2466.0
1052.35 841.88 2460.0
1035.20 823.17 2405.4
1057.60 835.95 2442.7
1048.54 823.85 2407.4
1051.57 821.34 2400.0
1069.57 830.49 2426.8
1057.90 816.63 2386.2
1069.77 820.98 2399.0
1132.07 863.78 2524.0
1176.27 887.24 2592.6
1171.23 878.43 2566.8
515.57 854.93 2517.2
537.95 859.41 2530.4
561.85 876.22 2579.9
549.27 846.52 2492.5
600.53 893.97 2632.2
629.64 906.41 2668.8
629.62 896.52 2639.7
617.87 870.34 2562.6
614.51 856.40 2521.6
642.52 886.00 2608.7
658.79 898.97 2646.9
640.73 865.32 2547.8
634.35 847.95 2496.7
661.95 875.92 2579.0
688.27 892.71 2628.5
659.47 846.96 2493.8
666.04 847.10 2494.2
679.44 839.68 2472.3
660.18 793.42 2336.1
664.26 791.07 2329.2
669.88 790.58 2327.8
671.52 785.44 2312.6
675.48 783.08 2305.7
694.23 797.76 2348.9
689.82 785.80 2313.7
677.85 765.50 2253.9
682.42 764.07 2249.7
695.87 772.53 2274.6
712.24 784.06 2308.6
718.60 784.47 2309.8
698.76 756.51 2227.5
704.15 749.95 2208.1
737.64 779.28 2294.5
747.77 783.66 2307.4
748.80 778.51 2292.2
753.03 776.74 2287.0
759.92 777.73 2289.9
766.23 778.11 2291.0
766.15 772.04 2273.2
752.20 752.20 2214.8
750.00 744.32 2191.6
763.83 752.34 2215.2
769.95 752.71 2216.3
771.04 748.20 2203.0
772.38 743.99 2190.6
775.25 741.30 2182.7
796.05 755.68 2225.0
820.92 773.68 2278.0
829.78 776.44 2286.1
828.54 769.77 2266.5
838.06 773.14 2276.4
857.22 785.29 2312.2
861.22 783.47 2306.8
857.48 774.69 2281.0
852.94 765.30 2253.4
852.34 759.56 2236.4
868.73 768.94 2264.1
894.86 786.76 2316.5
883.57 771.65 2272.0
852.95 739.97 2178.8
879.38 752.93 2216.9
896.44 762.55 2245.2
907.57 767.04 2258.5
906.60 761.31 2241.6
908.78 758.28 2232.7
918.16 761.26 2241.4
931.93 767.81 2260.7
957.11 783.64 2307.3
976.99 794.94 2340.6
999.23 808.02 2379.1
1032.04 829.43 2442.2
1048.94 832.79 2452.1
1018.16 803.49 2365.8
1022.28 801.91 2361.1
1027.13 800.92 2358.2
1040.40 806.46 2374.5
1081.46 833.36 2453.7
1093.45 837.67 2466.4
1119.11 852.34 2509.6
1183.37 885.84 2608.2
1197.15 886.02 2608.8
513.74 878.77 2607.3
520.27 878.38 2606.2
530.16 861.51 2556.1
549.22 870.72 2583.4
569.64 892.21 2647.2
551.16 852.99 2530.8
548.66 839.13 2489.7
561.66 849.02 2519.1
566.66 846.73 2512.3
596.34 880.95 2613.8
612.29 884.41 2624.1
612.22 874.60 2595.0
617.08 871.96 2587.1
621.01 868.07 2575.6
632.97 875.39 2597.3
644.59 882.07 2617.1
645.05 873.50 2591.7
660.68 885.45 2627.2
684.19 898.43 2665.7
682.36 887.06 2631.9
687.18 875.82 2598.6
674.63 851.47 2526.3
670.11 821.83 2438.4
654.67 795.39 2360.0
678.08 816.21 2421.7
687.05 819.41 2431.2
676.75 799.79 2373.0
681.42 798.06 2367.9
682.36 792.02 2350.0
667.95 768.44 2280.0
669.12 763.03 2263.9
684.07 773.30 2294.4
692.32 775.87 2302.0
704.46 782.74 2322.4
725.89 799.71 2372.8
732.40 800.10 2373.9
730.43 791.30 2347.8
719.50 773.01 2293.6
708.59 755.05 2240.3
701.48 741.40 2199.7
701.16 735.09 2181.0
710.44 738.85 2192.2
712.37 734.99 2180.7
730.93 748.20 2219.9
752.97 764.73 2269.0
771.91 777.90 2308.0
784.95 784.95 2329.0
765.61 759.76 2254.2
758.56 747.06 2216.6
774.00 756.54 2244.7
781.13 757.81 2248.5
799.92 770.29 2285.5
817.93 781.84 2319.8
798.13 757.35 2247.1
796.62 750.44 2226.6
815.04 762.27 2261.7
817.68 759.28 2252.8
833.37 768.36 2279.7
862.47 784.06 2326.3
847.82 765.39 2270.9
853.38 765.10 2270.1
858.93 764.80 2269.2
860.74 761.20 2258.5
879.24 772.31 2291.5
918.76 796.26 2362.5
883.45 760.59 2256.7
885.09 756.98 2246.0
900.75 765.34 2270.8
911.56 769.50 2283.1
930.97 780.81 2316.7
939.79 783.16 2323.6
923.08 764.33 2267.8
912.27 750.60 2227.1
924.19 755.63 2242.0
943.87 766.89 2275.4
976.92 788.82 2340.5
1012.86 812.79 2411.6
1018.99 812.69 2411.3
1024.37 812.00 2409.2
1032.37 813.38 2413.3
1024.52 802.33 2380.5
1045.36 813.76 2414.4
1066.74 825.45 2449.1
1077.53 828.87 2459.3
1117.81 849.80 2521.4
1140.49 862.00 2557.6
1167.04 871.93 2587.0
1169.94 869.10 2578.6
510.46 866.43 2590.7
512.66 858.88 2568.1
514.76 851.33 2545.5
522.64 842.76 2519.9
540.45 860.72 2573.6
553.39 870.58 2603.0
551.47 857.11 2562.8
548.95 843.02 2520.7
564.01 855.96 2559.4
578.63 867.95 2595.2
585.91 868.76 2597.6
603.24 864.64 2585.3
645.56 905.19 2706.5
632.84 877.81 2624.7
642.00 881.04 2634.3
650.53 883.35 2641.2
655.41 880.70 2633.3
677.18 900.58 2692.8
688.00 896.49 2680.5
679.28 876.27 2620.1
690.26 881.61 2636.1
688.66 870.95 2604.2
684.00 848.42 2536.8
670.17 823.35 2461.9
668.33 813.35 2431.9
685.17 826.05 2469.9
692.18 826.77 2472.1
684.18 809.72 2421.1
676.46 793.30 2372.0
682.97 793.73 2373.3
695.86 801.48 2396.5
691.99 789.98 2362.1
672.84 761.38 2276.5
667.43 748.68 2238.6
691.45 768.94 2299.1
719.35 793.13 2371.5
729.14 777.35 2324.3
716.86 757.99 2266.4
707.77 742.29 2219.5
738.90 750.54 2244.1
740.00 745.78 2229.9
736.79 736.79 2203.0
790.99 784.90 2346.9
788.11 770.20 2302.9
784.18 760.60 2274.2
791.07 761.55 2277.1
808.68 772.73 2310.5
811.14 763.78 2283.7
789.79 738.28 2207.5
788.12 731.42 2187.0
793.84 731.47 2187.1
813.97 744.70 2226.7
838.90 762.10 2278.7
838.85 756.73 2262.6
831.38 744.78 2226.9
843.56 750.48 2244.0
857.50 757.65 2265.4
867.80 761.54 2277.0
883.27 769.88 2302.0
910.51 777.85 2325.8
900.40 764.15 2284.8
903.13 761.46 2276.8
917.50 768.55 2298.0
942.29 784.23 2344.9
979.53 804.84 2406.5
957.07 781.40 2336.4
958.68 777.80 2325.6
962.81 776.27 2321.1
980.90 785.94 2350.0
1006.14 801.18 2395.6
999.22 790.79 2364.5
1014.21 797.77 2385.3
1033.06 807.67 2414.9
1009.71 784.65 2346.1
1015.68 784.57 2345.9
1076.23 826.39 2470.9
1101.90 826.43 2471.0
1094.81 816.36 2440.9
528.90 867.94 2615.4
526.39 831.83 2506.6
542.73 847.18 2552.9
556.69 858.50 2587.0
569.19 867.34 2613.6
563.81 849.03 2558.5
597.65 879.29 2649.7
594.50 855.02 2576.5
625.52 889.63 2680.8
640.96 891.77 2687.3
639.77 880.55 2653.4
660.50 899.41 2710.3
678.09 913.64 2753.2
670.92 876.30 2640.6
685.19 885.91 2669.6
694.76 871.86 2627.3
675.12 838.99 2528.2
661.94 814.70 2455.0
662.40 807.50 2433.3
673.36 813.12 2450.2
694.07 830.29 2502.0
704.24 834.66 2515.1
682.35 801.29 2414.6
662.84 771.30 2324.2
655.80 756.24 2278.8
679.64 769.85 2319.9
686.83 771.18 2323.9
672.26 748.26 2254.8
686.73 757.77 2283.5
706.86 773.32 2330.3
720.52 781.58 2355.2
716.31 770.49 2321.8
699.48 746.11 2248.3
717.10 758.59 2285.9
738.07 774.37 2333.5
724.78 754.25 2272.8
726.12 737.65 2222.8
746.29 752.16 2266.6
720.99 720.99 2172.6
767.78 755.97 2278.0
800.60 770.50 2321.8
804.15 768.14 2314.7
790.33 749.35 2258.1
776.55 730.87 2202.4
787.11 735.40 2216.1
795.80 738.14 2224.3
805.17 741.46 2234.3
823.06 752.51 2267.6
803.72 729.62 2198.6
817.86 732.07 2206.0
839.64 746.35 2249.0
840.78 742.21 2236.6
842.54 738.66 2225.9
844.58 735.42 2216.1
851.71 736.61 2219.7
867.11 744.90 2244.7
862.19 735.74 2217.1
863.07 731.61 2204.6
877.54 738.98 2226.8
881.19 737.21 2221.5
895.44 744.26 2242.8
926.54 765.14 2305.7
962.93 790.09 2380.9
1007.06 810.72 2443.0
971.52 777.21 2342.1
944.72 751.09 2263.3
1007.78 786.56 2370.2
1038.26 805.44 2427.1
1030.05 794.25 2393.4
1024.99 780.95 2353.3
1077.81 816.33 2459.9
1090.57 821.14 2474.4
1107.27 828.83 2497.6
1117.44 831.58 2505.9
1095.92 810.85 2443.4
540.24 879.62 2671.5
530.49 852.81 2590.1
532.65 835.15 2536.4
553.82 857.74 2605.1
571.72 874.80 2656.9
573.06 866.41 2631.4
555.62 830.17 2521.3
598.09 873.07 2651.6
638.78 881.79 2678.1
652.97 891.69 2708.2
666.40 900.35 2734.5
675.86 903.51 2744.1
693.51 907.99 2757.7
694.63 900.19 2734.0
683.73 843.04 2560.4
674.58 823.76 2501.9
679.91 822.36 2497.6
667.28 799.48 2428.1
665.53 789.92 2399.1
691.38 813.02 2469.2
683.88 796.81 2420.0
679.79 784.85 2383.7
689.50 788.88 2395.9
672.94 763.06 2317.5
683.61 768.30 2333.4
697.87 777.45 2361.2
690.18 762.20 2314.9
695.73 761.71 2313.4
707.37 767.82 2332.0
713.22 767.62 2331.4
701.92 749.10 2275.1
699.34 734.02 2229.3
728.52 758.38 2303.3
723.85 747.39 2269.9
714.34 731.62 2222.0
727.55 739.19 2245.0
739.38 745.24 2263.4
731.29 731.29 2221.0
738.64 732.86 2225.8
767.80 755.89 2295.7
769.84 752.08 2284.2
763.24 739.93 2247.3
762.32 733.45 2227.6
762.87 728.46 2212.4
768.05 727.93 2210.8
754.91 710.18 2156.9
765.66 714.99 2171.5
802.04 743.50 2258.1
805.04 740.87 2250.1
810.91 740.91 2250.2
845.46 766.96 2329.3
841.67 758.10 2302.4
801.11 716.49 2176.1
833.53 735.13 2232.7
841.36 736.91 2238.1
858.00 746.34 2266.7
874.09 755.17 2293.5
859.83 737.82 2240.9
854.96 728.72 2213.2
863.47 731.07 2220.4
878.64 738.99 2244.4
890.41 743.96 2259.5
892.01 740.43 2248.8
908.81 749.48 2276.2
941.78 771.65 2343.6
947.08 771.02 2341.7
964.98 780.59 2370.8
1002.27 800.55 2431.4
960.07 762.06 2314.5
1001.67 780.44 2370.3
1022.31 791.67 2404.4
1014.86 781.14 2372.4
1020.89 781.04 2372.1
1010.94 768.80 2334.9
1042.79 783.63 2380.0
1052.67 786.41 2388.4
1064.14 790.33 2400.3
1078.39 796.25 2418.3
516.80 845.67 2588.8
533.65 862.05 2638.9
526.68 840.02 2571.5
544.01 846.24 2590.5
557.67 826.67 2530.6
579.66 839.50 2569.9
621.21 889.45 2722.8
625.59 885.66 2711.2
621.03 869.44 2661.5
648.61 898.07 2749.2
655.01 887.43 2716.6
640.26 858.21 2627.2
667.74 867.37 2655.2
694.67 893.15 2734.1
707.76 900.79 2757.5
700.40 865.20 2648.6
687.91 841.52 2576.1
697.43 836.92 2562.0
676.35 803.97 2461.1
655.55 771.96 2363.1
664.10 774.79 2371.8
682.81 789.30 2416.2
704.87 807.40 2471.6
705.56 786.73 2408.4
696.20 769.48 2355.6
698.86 765.70 2344.0
714.92 776.55 2377.2
715.35 770.37 2358.3
710.38 758.54 2322.1
724.93 767.57 2349.7
732.80 769.44 2355.4
724.69 754.64 2310.1
729.03 752.94 2304.9
734.22 752.13 2302.4
735.00 746.86 2286.3
734.53 740.41 2266.6
731.29 731.29 2238.7
744.65 738.78 2261.6
774.65 762.55 2334.3
781.06 762.89 2335.4
760.92 737.51 2257.7
754.24 725.45 2220.8
755.12 720.80 2206.5
807.39 742.57 2273.2
825.88 754.06 2308.4
808.55 732.93 2243.7
821.26 739.13 2262.6
845.20 755.29 2312.1
829.40 735.95 2252.9
816.99 719.86 2203.7
830.76 726.91 2225.2
855.39 743.31 2275.4
891.43 769.31 2355.0
898.87 770.46 2358.5
872.74 743.01 2274.5
884.49 747.96 2289.7
911.56 765.71 2344.0
910.27 759.57 2325.2
902.93 748.48 2291.3
906.73 746.71 2285.9
926.81 758.30 2321.3
939.91 764.06 2339.0
925.46 747.49 2288.2
919.08 737.60 2258.0
937.95 747.99 2289.8
964.26 764.13 2339.2
967.31 761.76 2331.9
962.58 753.32 2306.1
1002.59 779.79 2387.1
1044.08 807.08 2470.7
1037.22 796.89 2439.5
1034.74 790.17 2418.9
1046.17 794.08 2430.9
1045.10 788.52 2413.8
1058.86 794.14 2431.0
1067.30 795.74 2435.9
1053.75 781.01 2390.9
1102.12 812.09 2486.0
1159.88 849.68 2601.1
521.28 846.24 2611.2
545.95 874.91 2699.7
547.72 866.64 2674.2
529.42 827.22 2552.6
542.64 837.41 2584.0
567.52 865.12 2669.5
569.95 858.36 2648.6
570.86 849.49 2621.3
556.23 817.99 2524.1
590.15 847.92 2616.4
623.99 886.35 2735.0
620.68 871.74 2690.0
608.69 845.41 2608.7
627.62 862.11 2660.2
640.15 869.77 2683.9
671.24 865.01 2669.2
706.52 865.83 2671.7
705.39 856.06 2641.6
684.14 814.46 2513.2
689.99 813.67 2510.7
693.78 810.49 2500.9
677.70 784.38 2420.4
672.65 771.39 2380.3
689.40 783.41 2417.4
705.79 794.81 2452.6
721.29 805.01 2484.0
700.75 768.37 2371.0
686.25 745.93 2301.7
698.10 752.26 2321.3
694.50 741.99 2289.6
691.08 725.92 2240.0
726.22 756.48 2334.3
746.36 771.03 2379.2
735.02 753.09 2323.8
726.31 738.12 2277.6
742.83 748.82 2310.6
758.02 758.02 2339.0
763.26 757.20 2336.5
786.02 767.60 2368.6
758.86 735.33 2269.0
755.95 726.88 2242.9
768.60 733.40 2263.0
776.69 735.50 2269.6
771.72 725.30 2238.1
765.34 713.94 2203.0
761.64 705.22 2176.1
763.22 701.49 2164.6
795.14 725.50 2238.7
817.42 740.42 2284.7
803.92 722.95 2230.8
811.04 724.15 2234.5
828.04 734.08 2265.2
820.05 721.88 2227.5
813.88 711.43 2195.3
826.97 717.85 2215.1
851.59 734.13 2265.3
841.89 720.79 2224.2
877.15 735.87 2270.7
909.74 758.12 2339.3
913.33 756.06 2333.0
926.00 761.52 2349.8
943.76 766.04 2363.8
929.83 749.86 2313.9
926.08 742.05 2289.8
930.16 740.57 2285.2
947.65 749.72 2313.4
971.84 764.02 2357.6
991.44 774.56 2390.1
1002.70 778.49 2402.2
1031.45 795.87 2455.8
535.22 873.25 2716.3
530.81 854.81 2659.0
535.76 851.72 2649.4
551.56 865.75 2693.0
548.02 849.43 2642.2
540.88 828.02 2575.6
542.54 820.43 2552.0
555.91 830.52 2583.4
568.63 839.41 2611.1
569.37 830.61 2583.7
583.05 840.67 2615.0
595.20 848.33 2638.8
601.73 847.90 2637.5
619.20 862.70 2683.5
628.65 866.14 2694.2
633.77 863.60 2686.3
631.54 851.20 2647.7
633.14 844.18 2625.9
637.56 841.04 2616.1
675.68 863.76 2686.8
704.26 873.29 2716.4
680.61 803.77 2500.2
691.24 808.62 2515.3
696.57 807.24 2511.0
681.27 782.20 2433.1
673.91 766.65 2384.7
687.79 775.33 2411.7
689.38 770.12 2395.5
688.76 762.55 2372.0
706.55 775.33 2411.8
693.39 754.21 2346.1
673.35 726.05 2258.5
679.87 726.75 2260.6
685.56 726.57 2260.1
694.92 718.08 2233.7
721.13 739.01 2298.7
717.94 729.71 2269.8
723.91 729.80 2270.1
755.34 755.34 2349.6
768.28 762.13 2370.7
772.10 759.85 2363.6
776.93 752.65 2341.2
755.13 725.87 2257.9
756.47 721.56 2244.5
767.90 726.86 2261.0
774.44 727.50 2263.0
776.61 724.06 2252.3
777.80 719.75 2238.9
781.13 717.48 2231.8
791.10 721.30 2243.7
777.75 703.95 2189.7
808.65 716.24 2227.9
842.08 740.55 2303.5
850.04 742.29 2309.0
839.39 727.86 2264.1
849.29 731.34 2274.9
865.98 740.56 2303.6
844.83 717.52 2231.9
847.15 709.78 2207.8
874.98 728.17 2265.0
874.24 722.71 2248.0
902.06 740.76 2304.2
940.12 756.98 2354.7
934.02 747.21 2324.3
936.03 744.03 2314.4
934.03 737.70 2294.7
946.09 742.50 2309.6
965.53 752.99 2342.3
978.87 758.62 2359.8
985.26 758.84 2360.4
1010.96 773.82 2407.0
1030.52 783.95 2438.6
1019.07 770.51 2396.8
1039.86 781.47 2430.9
1057.66 766.96 2385.7
543.34 867.94 2721.8
533.69 841.59 2639.1
535.68 834.04 2615.5
540.08 830.37 2604.0
541.86 822.83 2580.3
548.89 823.33 2581.9
568.57 842.58 2642.2
589.76 863.58 2708.1
622.34 869.87 2727.8
627.16 866.75 2718.0
634.09 866.59 2717.5
636.85 860.80 2699.4
654.59 875.16 2744.4
677.60 886.65 2780.4
650.17 841.79 2639.8
682.46 865.38 2713.7
675.99 831.47 2607.4
703.38 831.88 2608.7
703.69 824.32 2585.0
708.95 822.65 2579.7
707.54 813.34 2550.5
692.58 788.77 2473.5
686.34 774.49 2428.7
682.24 762.87 2392.3
667.12 739.24 2318.2
671.91 737.90 2314.0
694.14 755.57 2369.4
697.67 752.75 2360.5
694.32 742.62 2328.8
696.87 738.92 2317.2
699.91 735.81 2307.4
711.59 741.74 2326.0
717.14 741.24 2324.5
697.96 715.41 2243.4
705.74 711.53 2231.3
736.04 736.04 2308.1
744.73 738.73 2316.6
733.99 722.25 2264.9
749.75 731.90 2295.2
779.41 754.87 2367.2
786.50 755.78 2370.0
783.58 747.14 2342.9
779.92 737.92 2314.0
785.66 737.68 2313.3
799.14 744.65 2335.2
808.67 747.86 2345.2
791.21 726.26 2277.5
776.60 707.57 2218.8
784.31 709.34 2224.4
768.01 689.53 2162.3
815.41 716.39 2246.5
853.17 744.25 2333.9
866.17 750.27 2352.8
859.27 739.09 2317.7
864.61 738.52 2315.9
876.67 743.66 2332.0
888.13 748.22 2346.3
891.12 745.63 2338.2
897.50 745.90 2339.0
896.63 740.17 2321.1
886.63 727.04 2279.9
905.45 737.55 2312.9
915.98 741.22 2324.4
904.64 727.26 2280.6
949.63 758.47 2378.5
954.52 747.81 2345.1
955.44 743.79 2332.4
964.34 746.00 2339.4
945.33 726.72 2278.9
989.69 742.27 2327.7
1056.01 787.21 2468.6
1058.61 775.06 2430.5
1066.63 771.73 2420.1
548.84 858.44 2714.0
549.68 848.87 2683.8
552.30 842.26 2662.9
548.73 826.49 2613.0
551.27 820.18 2593.1
564.96 830.42 2625.4
580.63 843.30 2666.2
574.92 825.17 2608.9
575.15 815.91 2579.6
643.67 872.52 2758.6
646.09 866.18 2738.5
665.48 882.48 2790.0
687.20 882.52 2790.2
689.44 876.16 2770.1
702.29 883.30 2792.6
695.42 848.42 2682.3
674.36 814.57 2575.3
709.97 849.19 2684.8
717.25 849.56 2686.0
704.12 825.98 2611.4
704.94 819.07 2589.6
710.21 817.41 2584.3
709.06 808.46 2556.0
693.58 783.48 2477.1
696.44 779.51 2464.5
700.82 777.27 2457.4
681.35 748.87 2367.6
683.58 744.61 2354.2
706.19 762.44 2410.5
708.73 758.47 2398.0
716.12 759.71 2401.9
710.40 740.76 2342.0
701.44 725.21 2292.8
716.50 734.57 2322.4
705.55 717.31 2267.8
702.92 708.73 2240.7
734.23 734.23 2321.3
745.27 739.21 2337.1
733.81 721.98 2282.6
724.46 707.07 2235.5
739.85 716.37 2264.9
763.17 733.13 2317.8
765.92 730.02 2308.0
774.70 732.66 2316.4
782.28 734.14 2321.1
802.52 747.38 2362.9
782.31 712.25 2251.9
768.57 694.56 2195.9
777.19 697.19 2204.2
775.91 690.95 2184.5
772.27 682.73 2158.5
791.25 694.47 2195.6
828.71 722.16 2283.2
845.84 731.86 2313.8
836.94 719.06 2273.4
850.18 725.33 2293.2
875.91 742.09 2346.2
876.24 737.25 2330.9
874.80 731.00 2311.1
869.17 721.35 2280.6
866.14 713.98 2257.3
879.59 720.20 2277.0
885.83 720.47 2277.8
905.70 731.76 2313.5
917.99 736.81 2329.5
909.83 725.49 2293.7
968.17 752.33 2378.6
982.62 758.73 2398.8
968.62 743.22 2349.7
954.00 722.91 2285.5
1031.97 777.16 2457.1
1021.38 764.47 2416.9
1024.89 762.42 2410.5
1037.81 753.65 2382.7
1067.30 765.95 2421.6
539.82 848.29 2704.1
552.64 857.31 2732.9
562.40 850.64 2711.6
547.75 818.24 2608.3
551.66 814.04 2594.9
565.96 825.08 2630.1
573.93 826.73 2635.4
562.16 800.25 2551.0
603.84 839.82 2677.1
629.82 866.01 2760.6
616.87 838.67 2673.4
623.91 838.81 2673.9
638.86 849.47 2707.9
649.75 854.56 2724.1
691.08 871.04 2776.6
680.62 849.02 2706.4
682.30 842.43 2685.4
688.40 841.37 2682.1
694.95 840.89 2680.5
707.14 830.71 2648.1
699.63 813.99 2594.8
705.68 813.21 2592.3
708.67 808.96 2578.7
704.17 796.31 2538.4
694.32 777.89 2479.7
702.91 780.30 2487.4
708.92 779.81 2485.8
689.50 751.61 2395.9
675.78 730.08 2327.3
683.53 731.92 2333.2
697.28 740.09 2359.2
716.34 753.72 2402.6
718.39 742.95 2368.3
709.76 727.81 2320.0
725.47 737.66 2351.5
732.78 738.88 2355.4
749.57 749.57 2389.4
755.25 749.06 2387.8
739.08 727.07 2317.7
733.73 715.98 2282.3
728.49 705.18 2247.9
729.94 700.97 2234.5
738.21 703.34 2242.0
743.19 702.55 2239.5
755.46 708.61 2258.8
751.58 699.55 2230.0
759.90 701.89 2237.4
791.22 725.28 2312.0
782.56 711.96 2269.5
761.75 687.85 2192.7
765.92 686.49 2188.3
786.64 699.88 2231.0
797.61 704.46 2245.6
794.10 696.28 2219.5
812.58 707.36 2254.9
824.02 712.19 2270.3
815.77 700.06 2231.6
807.00 687.66 2192.1
821.39 695.02 2215.5
866.09 727.75 2319.9
885.94 739.30 2356.7
872.66 723.23 2305.5
855.39 704.09 2244.5
850.21 695.10 2215.8
860.45 698.76 2227.4
862.75 695.95 2218.5
877.95 703.52 2242.6
911.90 725.92 2314.0
924.23 730.93 2330.0
885.72 695.92 2218.4
914.10 709.01 2260.1
999.99 765.82 2441.2
973.27 740.66 2361.0
957.95 724.45 2309.4
1009.74 758.88 2419.1
1048.48 773.57 2465.9
1021.84 749.35 2388.7
1038.16 756.73 2412.2
1040.83 754.13 2404.0
1069.94 770.61 2456.5
554.49 842.27 2707.3
555.81 823.42 2646.7
553.45 809.92 2603.3
566.88 800.30 2572.4
614.07 856.85 2754.1
608.69 839.57 2698.6
615.22 820.29 2636.6
640.18 844.20 2713.5
658.64 859.10 2761.4
670.29 837.86 2693.1
668.39 818.44 2630.7
699.82 848.27 2726.6
713.14 847.29 2723.4
685.50 806.47 2592.2
699.72 815.21 2620.3
696.86 796.41 2559.9
672.36 761.16 2446.6
692.11 776.20 2494.9
705.13 783.47 2518.3
702.10 772.95 2484.5
697.32 760.71 2445.2
676.46 731.30 2350.6
672.41 714.07 2295.2
688.79 725.04 2330.5
694.11 724.28 2328.1
697.75 721.81 2320.1
708.03 726.19 2334.2
722.86 735.12 2362.9
737.83 744.03 2391.5
744.38 744.38 2392.7
746.35 740.18 2379.1
738.41 726.31 2334.6
724.14 706.48 2270.8
719.26 696.05 2237.3
729.87 700.68 2252.2
746.51 710.96 2285.2
760.60 718.68 2310.0
774.20 725.81 2333.0
767.19 702.77 2258.9
760.57 686.23 2205.7
768.56 688.26 2212.3
756.92 672.82 2162.6
761.96 672.31 2161.0
796.21 697.41 2241.7
815.96 709.53 2280.6
834.27 720.23 2315.0
845.20 724.45 2328.6
835.75 711.28 2286.2
825.44 697.55 2242.1
835.95 701.49 2254.8
877.74 731.45 2351.1
885.84 733.11 2356.4
860.65 707.39 2273.7
856.29 699.01 2246.8
865.21 701.52 2254.9
875.55 705.14 2266.5
877.58 702.06 2256.6
885.52 703.72 2262.0
908.97 717.61 2306.6
912.78 715.91 2301.1
979.92 748.98 2407.4
1001.36 760.53 2444.6
983.05 741.92 2384.7
976.61 732.46 2354.3
983.36 732.94 2355.9
1027.71 761.26 2446.9
1034.21 752.15 2417.6
1048.69 758.09 2436.7
1054.09 757.43 2434.6
560.07 843.65 2734.5
584.89 838.58 2718.1
555.99 787.65 2553.0
578.20 809.48 2623.8
601.74 823.07 2667.8
619.13 818.62 2653.4
646.79 845.80 2741.5
663.10 857.71 2780.1
630.43 806.68 2614.7
666.36 826.01 2677.3
682.50 837.30 2713.9
677.11 822.21 2665.0
698.16 839.21 2720.1
692.51 815.93 2644.7
688.18 802.88 2602.4
690.28 767.70 2488.3
699.92 771.21 2499.7
693.19 756.79 2453.0
692.28 748.92 2427.5
675.86 724.57 2348.5
674.03 716.15 2321.3
697.13 734.15 2379.6
701.76 732.54 2374.4
695.95 720.15 2334.2
704.85 723.08 2343.7
720.20 732.52 2374.3
721.11 727.22 2357.1
721.08 721.08 2337.2
722.94 716.92 2323.7
721.29 709.37 2299.3
728.49 710.58 2303.2
728.71 705.01 2285.2
733.83 704.24 2282.7
754.03 717.83 2326.7
756.25 714.23 2315.0
755.41 707.82 2294.3
763.84 710.13 2301.7
790.56 729.28 2363.8
758.39 683.70 2216.1
764.20 683.76 2216.3
772.84 686.33 2224.6
759.64 669.61 2170.4
784.20 681.17 2207.9
814.24 702.13 2275.8
841.33 720.27 2334.6
853.94 725.85 2352.7
846.52 714.44 2315.7
835.93 700.54 2270.6
845.84 703.88 2281.5
867.22 716.66 2322.9
852.95 700.00 2268.9
851.01 693.63 2248.3
870.19 704.44 2283.3
874.72 703.32 2279.7
879.92 702.76 2277.8
886.85 703.57 2280.5
900.10 709.35 2299.2
908.85 711.53 2306.3
896.00 696.89 2258.8
903.61 698.25 2263.2
914.10 701.80 2274.7
930.52 705.30 2286.1
970.29 730.79 2368.7
974.14 729.07 2363.1
991.23 737.23 2389.6
1019.18 753.30 2441.7
1003.77 737.34 2389.9
993.00 724.95 2349.8
1033.99 750.27 2431.9
533.28 817.23 2671.3
547.74 828.63 2708.6
604.99 839.87 2745.4
606.80 832.59 2721.5
607.64 824.15 2694.0
597.90 801.72 2620.6
608.69 807.02 2638.0
643.08 843.14 2756.0
652.08 845.55 2763.9
651.78 835.97 2732.6
656.48 832.96 2722.7
657.96 825.95 2699.8
668.95 830.90 2716.0
696.22 855.77 2797.3
689.62 830.36 2714.3
672.42 801.47 2619.8
673.31 786.64 2571.3
709.98 821.35 2684.8
696.33 790.06 2582.5
686.48 771.47 2521.7
702.47 767.51 2508.8
688.18 745.00 2435.2
681.43 730.99 2389.4
680.03 722.91 2363.0
691.60 728.65 2381.8
712.71 744.24 2432.8
715.01 740.10 2419.2
709.58 728.09 2379.9
719.70 732.11 2393.1
721.24 727.41 2377.7
706.71 706.71 2310.1
721.56 715.50 2338.8
738.82 726.51 2374.8
740.16 721.81 2359.4
751.27 726.64 2375.2
751.07 720.54 2355.3
755.77 719.20 2350.9
766.07 723.17 2363.9
757.05 708.98 2317.5
742.39 689.78 2254.7
737.42 679.81 2222.1
732.90 670.41 2191.4
740.20 671.87 2196.2
764.81 688.91 2251.9
772.57 690.63 2257.5
782.24 694.02 2268.6
795.74 700.72 2290.5
783.94 685.22 2239.8
783.72 680.00 2222.7
802.72 691.39 2260.0
824.15 704.71 2303.5
842.85 715.51 2338.8
846.30 713.31 2331.6
836.51 700.06 2288.3
823.52 684.34 2236.9
833.69 687.94 2248.7
856.01 701.45 2292.9
869.73 707.78 2313.6
894.78 723.18 2363.9
893.69 717.38 2344.9
878.72 700.60 2290.1
886.72 702.24 2295.4
893.70 703.04 2298.1
927.32 724.66 2368.7
912.89 704.06 2301.4
927.60 706.17 2308.3
947.96 717.04 2343.8
945.98 710.99 2324.1
955.22 713.39 2331.9
979.89 727.21 2377.1
1019.88 752.16 2458.6
1009.62 735.40 2403.9
554.96 832.44 2744.3
555.85 823.23 2713.9
552.11 807.46 2662.0
552.84 798.54 2632.6
552.61 788.49 2599.4
558.48 787.25 2595.3
584.51 814.14 2684.0
596.58 811.62 2675.7
590.55 794.18 2618.2
601.08 799.16 2634.6
633.04 832.20 2743.5
657.81 845.76 2788.2
660.68 840.21 2769.9
669.07 841.74 2775.0
673.85 838.73 2765.1
687.76 847.03 2792.4
693.97 837.05 2759.5
694.34 828.96 2732.8
689.10 814.39 2684.8
674.47 789.13 2601.5
691.03 800.50 2639.0
701.63 804.81 2653.2
692.99 787.18 2595.1
703.04 790.92 2607.4
709.69 776.02 2558.3
700.61 759.00 2502.2
700.13 751.52 2477.5
692.42 736.48 2428.0
691.37 728.74 2402.4
687.52 718.21 2367.7
692.67 717.19 2364.4
694.54 712.82 2349.9
687.55 699.51 2306.1
685.33 691.24 2278.8
694.26 688.37 2269.4
743.28 730.78 2409.2
758.57 721.57 2378.8
748.63 706.36 2328.7
744.66 697.00 2297.8
743.82 690.69 2277.0
738.37 680.23 2242.5
742.14 678.37 2236.4
744.97 675.67 2227.5
740.99 666.89 2198.5
752.95 672.48 2217.0
758.45 672.26 2216.3
766.46 674.25 2222.8
804.77 702.67 2316.5
821.92 712.33 2348.4
786.79 676.87 2231.4
770.09 657.67 2168.1
802.01 679.97 2241.7
832.31 700.58 2309.6
837.99 700.32 2308.7
829.45 688.27 2269.0
830.37 684.18 2255.5
856.29 700.60 2309.7
869.68 706.62 2329.5
872.66 704.15 2321.4
896.37 718.33 2368.1
895.97 713.12 2350.9
873.42 690.48 2276.3
873.42 685.84 2261.0
889.38 693.72 2287.0
931.07 721.42 2378.3
912.04 697.45 2299.3
923.16 696.83 2297.3
956.13 717.10 2364.1
966.90 720.56 2375.5
971.88 719.68 2372.6
992.98 730.68 2408.8
1037.35 744.60 2454.7
556.82 817.60 2718.6
562.48 805.53 2678.5
574.30 793.08 2637.1
594.47 811.28 2697.6
596.36 804.39 2674.7
597.50 796.66 2649.0
626.78 816.93 2716.4
628.48 810.04 2693.5
648.34 826.46 2748.1
668.40 833.71 2772.2
663.63 818.95 2723.1
679.73 829.99 2759.8
682.26 815.90 2713.0
678.74 803.41 2671.4
699.83 820.01 2726.6
707.58 796.88 2649.7
704.02 785.25 2611.1
714.40 781.79 2599.6
705.55 764.89 2543.4
712.73 765.53 2545.5
719.15 765.33 2544.8
717.12 756.24 2514.6
707.24 739.10 2457.6
697.08 721.98 2400.7
726.36 745.64 2479.3
727.82 734.15 2441.1
709.03 709.03 2357.6
695.42 689.48 2292.6
713.83 701.73 2333.4
727.33 709.00 2357.5
718.39 694.44 2309.1
749.48 718.51 2389.1
747.52 693.69 2306.6
742.46 678.16 2255.0
782.30 708.96 2357.4
786.02 706.81 2350.2
780.48 696.43 2315.7
775.40 686.61 2283.1
764.55 671.88 2234.1
753.47 657.16 2185.1
773.09 669.24 2225.3
819.59 704.24 2341.7
812.89 693.35 2305.5
818.49 683.06 2271.3
838.19 694.50 2309.3
830.64 683.37 2272.3
833.23 680.66 2263.3
843.46 684.20 2275.1
840.27 676.89 2250.7
848.83 679.06 2258.0
878.20 697.75 2320.1
875.28 690.70 2296.7
850.52 666.63 2216.6
859.74 669.33 2225.6
887.15 686.06 2281.2
890.93 684.42 2275.8
877.74 669.85 2227.3
895.32 674.40 2242.5
923.73 691.31 2298.7
944.45 702.28 2335.2
959.51 708.94 2357.3
969.19 711.56 2366.0
999.47 729.17 2424.6
563.59 810.17 2717.3
557.94 792.13 2656.8
568.97 778.95 2612.6
591.16 799.80 2682.6
597.39 798.84 2679.3
604.88 799.55 2681.7
602.12 786.86 2639.1
612.10 782.13 2623.3
652.97 825.19 2767.7
652.94 798.80 2679.2
661.68 792.64 2658.5
662.10 784.97 2632.8
673.31 782.13 2623.3
702.39 807.74 2709.2
680.03 759.26 2546.6
682.06 747.01 2505.5
702.65 762.31 2556.8
720.40 774.26 2596.9
717.36 763.85 2562.0
713.09 752.34 2523.4
705.47 737.54 2473.7
690.16 715.03 2398.3
693.26 711.83 2387.5
739.98 727.34 2439.5
725.84 707.38 2372.6
708.25 684.44 2295.6
704.57 675.21 2264.7
740.19 703.48 2359.5
744.15 684.61 2296.2
752.88 681.74 2286.6
784.06 693.59 2326.3
777.75 682.76 2290.0
785.30 684.16 2294.7
793.49 686.10 2301.2
768.85 659.83 2213.1
770.83 656.63 2202.4
823.01 695.93 2334.2
811.80 676.50 2269.0
820.32 678.68 2276.3
844.64 693.81 2327.1
842.74 687.34 2305.4
846.73 685.73 2300.0
858.05 690.04 2314.4
845.18 674.97 2263.9
843.26 668.79 2243.2
879.43 692.71 2323.4
882.01 690.01 2314.3
864.86 672.02 2254.0
882.85 681.39 2285.4
907.26 695.57 2333.0
905.19 689.38 2312.2
917.50 694.16 2328.2
944.45 709.88 2381.0
934.83 698.09 2341.4
929.70 689.78 2313.5
944.31 696.13 2334.8
952.47 697.67 2340.0
972.35 707.72 2373.7
1014.78 733.96 2461.7
546.03 808.41 2735.2
553.25 808.60 2735.9
587.63 788.12 2666.6
600.31 795.76 2692.4
599.37 785.38 2657.3
623.40 780.97 2642.4
654.34 769.02 2601.9
667.10 776.02 2625.6
668.98 770.34 2606.4
682.34 777.87 2631.9
708.74 799.96 2706.6
692.22 773.66 2617.7
673.29 745.20 2521.3
685.93 751.88 2544.0
687.05 745.94 2523.9
697.76 750.42 2539.0
707.77 754.07 2551.4
697.08 735.81 2489.6
690.80 722.49 2444.5
681.93 706.73 2391.2
682.37 700.81 2371.2
700.69 713.20 2413.1
683.22 689.27 2332.1
687.54 681.56 2306.0
720.22 707.80 2394.8
719.80 701.34 2373.0
709.42 685.37 2318.9
726.86 696.32 2356.0
747.58 704.33 2383.1
730.89 682.96 2310.8
730.52 677.07 2290.8
718.27 660.35 2234.3
721.18 657.72 2225.4
744.07 673.21 2277.8
740.41 664.62 2248.7
736.61 656.04 2219.7
747.94 660.97 2236.4
751.65 659.14 2230.2
758.74 660.28 2234.0
780.19 673.80 2279.8
797.76 683.79 2313.6
781.03 664.46 2248.2
766.55 647.31 2190.1
801.43 671.79 2273.0
829.98 680.71 2303.1
820.19 667.87 2259.7
815.15 659.06 2229.9
815.30 654.54 2214.6
834.47 665.24 2250.8
830.88 657.78 2225.6
859.51 671.13 2270.7
908.65 704.66 2384.2
910.84 696.88 2357.9
885.11 672.68 2276.0
911.02 687.79 2327.1
975.46 722.09 2443.2
959.04 705.36 2386.5
960.80 702.13 2375.6
989.42 718.43 2430.8
559.88 800.84 2733.6
571.12 777.55 2654.1
584.96 759.77 2593.4
616.75 765.86 2614.2
663.21 805.84 2750.7
660.17 785.25 2680.4
654.90 770.87 2631.3
678.71 790.66 2698.8
694.31 800.59 2732.7
700.28 799.31 2728.4
682.31 771.01 2631.8
678.98 759.66 2593.0
711.38 788.09 2690.1
706.97 760.83 2597.0
712.50 759.55 2592.7
717.75 758.00 2587.3
699.10 731.46 2496.8
686.81 712.01 2430.4
684.49 703.15 2400.1
692.67 705.15 2406.9
711.88 718.24 2451.6
693.68 693.68 2367.8
714.58 696.10 2376.1
721.66 696.99 2379.1
701.14 671.43 2291.9
708.31 672.60 2295.9
736.67 693.69 2367.9
725.00 677.07 2311.1
721.19 667.99 2280.1
734.50 674.79 2303.3
728.16 663.57 2265.0
738.27 667.40 2278.1
755.62 677.66 2313.1
745.40 663.23 2263.9
737.38 650.97 2222.0
746.28 653.71 2231.4
750.90 652.70 2227.9
757.67 653.56 2230.9
777.25 665.37 2271.2
791.98 672.89 2296.8
793.23 668.92 2283.3
794.73 665.22 2270.7
788.80 655.40 2237.1
794.64 655.43 2237.3
812.17 665.04 2270.0
803.38 653.10 2229.3
816.76 659.24 2250.2
833.54 668.01 2280.2
816.14 649.47 2216.9
818.90 647.10 2208.8
836.46 656.39 2240.5
855.51 666.71 2275.7
870.97 674.11 2301.0
903.03 694.16 2369.5
888.80 669.56 2285.5
895.40 670.07 2287.2
971.86 708.52 2418.4
979.12 709.23 2420.9
555.82 788.00 2713.8
559.27 782.97 2696.5
562.43 777.68 2678.2
572.50 781.95 2692.9
591.69 770.57 2653.8
662.53 797.88 2747.8
656.52 782.24 2693.9
654.85 772.03 2658.8
670.90 782.72 2695.6
679.86 784.99 2703.4
681.26 778.58 2681.3
699.30 791.13 2724.6
692.43 775.52 2670.8
694.55 770.19 2652.5
694.10 747.49 2574.3
684.41 730.04 2514.2
701.74 741.46 2553.5
730.83 764.98 2634.5
704.01 723.39 2491.3
684.93 697.38 2401.7
690.45 696.67 2399.2
706.16 706.16 2431.9
708.49 702.22 2418.3
690.53 678.42 2336.4
695.31 677.17 2332.1
725.31 700.30 2411.7
724.92 693.94 2389.9
697.93 662.44 2281.4
694.56 653.71 2251.3
711.09 663.68 2285.6
723.73 669.90 2307.1
746.07 684.91 2358.8
762.20 694.04 2390.2
757.83 684.49 2357.3
756.57 677.89 2334.6
762.68 677.94 2334.7
763.06 672.94 2317.5
765.79 670.06 2307.6
764.48 663.74 2285.8
757.84 652.91 2248.5
765.59 654.55 2254.2
784.61 665.73 2292.7
796.57 670.79 2310.1
795.94 665.27 2291.1
798.42 662.39 2281.2
793.14 653.17 2249.4
790.62 646.34 2225.9
800.33 649.54 2236.9
806.49 649.84 2238.0
836.68 669.35 2305.1
866.98 683.82 2355.0
869.05 680.65 2344.1
889.62 691.93 2382.9
875.40 676.17 2328.6
860.23 659.90 2272.6
870.24 663.04 2283.4
891.02 674.28 2322.1
916.48 688.90 2372.5
912.79 681.55 2347.2
906.51 672.38 2315.6
955.30 703.90 2424.2
589.01 769.18 2672.8
582.98 743.80 2584.6
593.45 748.55 2601.1
600.31 748.70 2601.7
614.39 757.75 2633.1
630.17 768.67 2671.1
672.31 769.35 2673.4
673.64 763.00 2651.3
688.98 772.49 2684.3
683.93 759.16 2638.0
687.68 755.77 2626.2
706.68 761.57 2646.4
675.74 721.22 2506.2
669.92 708.21 2460.9
674.36 706.17 2453.9
688.80 714.55 2483.0
698.59 704.94 2449.6
678.63 678.63 2358.2
696.40 690.18 2398.3
700.54 688.14 2391.2
681.69 663.75 2306.5
686.39 662.51 2302.2
726.61 695.29 2416.1
737.14 699.34 2430.1
709.37 667.29 2318.8
708.08 660.48 2295.1
719.27 665.33 2311.9
726.50 666.46 2315.9
728.80 663.09 2304.2
725.47 654.70 2275.0
736.76 659.52 2291.8
750.51 666.45 2315.8
763.16 672.31 2336.2
770.48 673.41 2340.0
770.52 668.19 2321.9
765.88 659.01 2290.0
760.78 649.59 2257.3
770.41 652.79 2268.4
786.97 661.77 2299.6
796.12 664.43 2308.8
783.77 649.24 2256.1
775.96 638.01 2217.0
788.18 643.29 2235.4
803.06 650.65 2261.0
814.48 655.13 2276.5
821.39 655.93 2279.3
831.27 659.08 2290.2
844.51 664.83 2310.2
872.18 681.78 2369.1
862.34 660.14 2293.9
858.02 652.33 2266.8
877.31 662.46 2302.0
890.17 667.63 2320.0
906.60 675.39 2346.9
911.24 674.32 2343.2
915.16 672.73 2337.7
923.65 674.50 2343.8
939.64 681.70 2368.8
970.07 699.21 2429.7
981.32 702.75 2442.0
579.55 732.76 2569.4
613.04 749.27 2627.3
622.41 744.19 2609.5
658.98 755.08 2647.7
672.75 762.91 2675.1
688.73 757.60 2656.5
674.94 735.08 2577.6
686.39 740.23 2595.6
710.62 758.91 2661.1
712.56 753.67 2642.8
697.71 730.93 2563.0
692.42 718.55 2519.6
674.81 693.73 2432.6
686.67 699.39 2452.4
723.80 730.44 2561.3
703.26 703.26 2466.0
691.60 685.37 2403.2
718.63 705.80 2474.9
727.29 707.98 2482.5
711.92 686.94 2408.8
700.33 669.88 2348.9
724.29 686.82 2408.3
742.37 697.95 2447.4
720.55 671.70 2355.3
716.21 662.04 2321.4
724.03 663.69 2327.2
723.20 657.46 2305.4
717.33 646.77 2267.9
722.70 646.32 2266.3
742.25 658.44 2308.8
751.27 661.12 2318.2
758.84 662.48 2323.0
763.72 661.49 2319.5
761.27 654.22 2294.0
770.34 656.88 2303.3
779.75 659.79 2313.5
790.76 664.00 2328.3
789.06 652.60 2288.4
771.01 628.23 2202.9
818.20 661.78 2320.5
803.23 644.93 2261.4
784.07 624.99 2191.5
796.68 630.47 2210.7
810.36 636.71 2232.6
831.10 648.38 2273.5
866.71 671.39 2354.2
870.44 664.92 2331.5
857.09 650.20 2279.9
875.30 659.48 2312.4
874.74 654.57 2295.2
865.10 642.98 2254.6
900.18 664.56 2330.3
925.80 678.92 2380.6
910.07 662.96 2324.7
898.33 650.11 2279.6
909.91 654.18 2293.9
936.60 669.00 2345.8
958.84 680.46 2386.0
976.90 688.84 2415.4
999.11 695.58 2439.1
583.96 731.62 2589.0
608.62 737.10 2608.4
627.67 751.82 2660.5
651.28 747.26 2644.3
680.92 757.35 2680.0
694.19 764.31 2704.6
693.04 755.42 2673.2
696.87 752.07 2661.3
694.48 742.14 2626.2
706.34 747.49 2645.1
716.65 743.95 2632.6
719.96 740.34 2619.8
707.99 721.23 2552.2
685.80 692.16 2449.3
687.26 687.26 2432.0
688.36 682.10 2413.7
698.44 685.86 2427.0
728.35 690.35 2442.9
721.41 677.87 2398.8
708.65 660.19 2336.2
707.16 653.23 2311.5
720.07 659.56 2334.0
744.84 676.56 2394.1
747.77 668.09 2364.1
744.28 659.56 2334.0
756.01 664.55 2351.6
757.99 660.97 2338.9
752.72 651.16 2304.2
744.86 639.29 2262.2
750.18 638.83 2260.6
767.75 648.72 2295.6
784.86 658.07 2328.7
803.67 668.71 2366.3
798.26 659.17 2332.6
777.55 627.80 2221.6
818.70 656.17 2322.0
798.22 635.08 2247.3
783.25 618.65 2189.2
801.10 628.20 2223.0
815.47 634.90 2246.7
834.26 644.92 2282.2
860.89 660.82 2338.4
874.33 666.45 2358.3
866.57 655.94 2321.2
864.41 649.79 2299.4
862.14 643.65 2277.7
900.02 658.41 2329.9
924.25 671.62 2376.6
906.73 654.53 2316.2
896.03 642.55 2273.8
909.02 647.60 2291.7
952.58 674.23 2385.9
585.05 734.71 2624.0
595.79 739.61 2641.5
592.67 727.37 2597.8
622.09 738.31 2636.8
655.39 745.08 2661.0
648.64 729.71 2606.1
674.71 736.05 2628.8
695.18 750.79 2681.4
684.11 731.53 2612.6
668.02 707.31 2526.1
684.87 718.12 2564.7
704.93 732.04 2614.4
710.26 730.55 2609.1
721.70 735.31 2626.1
718.52 718.52 2566.1
701.87 695.43 2483.7
687.47 674.97 2410.6
696.75 677.92 2421.1
692.83 656.37 2344.2
693.76 651.53 2326.9
700.99 652.65 2330.9
696.47 642.90 2296.1
703.08 643.50 2298.2
730.77 663.22 2368.6
758.43 671.39 2397.8
738.86 648.76 2317.0
734.89 640.06 2285.9
732.84 633.17 2261.3
743.20 632.01 2257.2
777.43 655.96 2342.7
780.18 653.17 2332.7
782.87 650.38 2322.8
801.37 660.67 2359.5
794.06 649.68 2320.3
767.02 622.84 2224.4
766.81 618.03 2207.2
781.22 624.97 2232.0
787.37 625.27 2233.1
806.47 635.76 2270.6
833.56 652.35 2329.8
831.41 645.99 2307.1
823.88 635.56 2269.9
849.70 650.84 2324.4
883.13 671.67 2398.8
888.06 666.04 2378.7
882.62 657.40 2347.9
878.75 650.03 2321.6
866.83 636.86 2274.5
884.50 645.45 2305.2
919.73 666.65 2380.9
924.10 665.35 2376.3
918.56 656.98 2346.4
922.10 655.18 2339.9
920.62 649.85 2320.9
947.76 664.66 2373.8
987.40 687.99 2457.1
566.27 730.01 2631.5
566.24 712.80 2569.5
583.96 726.55 2619.1
590.87 726.70 2619.6
604.86 735.46 2651.2
670.98 740.15 2668.1
646.35 705.71 2544.0
643.21 695.18 2506.0
674.53 721.75 2601.8
677.21 717.43 2586.2
659.39 684.99 2469.3
690.78 710.71 2562.0
708.42 721.91 2602.4
710.63 717.33 2585.8
708.62 708.62 2554.5
698.91 692.44 2496.1
680.50 668.01 2408.1
683.92 665.27 2398.2
711.61 685.97 2472.8
706.51 674.97 2433.1
689.22 641.27 2311.7
705.32 650.60 2345.3
708.68 648.11 2336.3
716.80 649.98 2343.1
747.46 672.09 2422.8
747.49 666.51 2402.6
715.87 633.04 2282.0
721.28 632.60 2280.4
731.68 636.50 2294.5
727.05 627.37 2261.6
722.85 618.76 2230.5
755.14 636.22 2293.5
788.26 658.93 2375.3
790.46 655.66 2363.5
770.06 633.82 2284.8
765.15 624.97 2252.9
787.02 637.96 2299.7
790.18 635.71 2291.6
792.99 633.21 2282.6
810.13 642.10 2314.7
807.47 635.29 2290.1
818.29 639.10 2303.8
841.88 652.76 2353.1
836.18 643.67 2320.3
812.81 621.22 2239.4
821.97 623.76 2248.5
862.92 650.23 2344.0
884.13 661.55 2384.8
889.94 661.28 2383.8
897.11 662.00 2386.4
892.98 654.44 2359.1
880.44 640.87 2310.2
896.81 648.37 2337.3
932.14 669.39 2413.0
934.47 666.59 2402.9
926.16 656.28 2365.8
937.91 660.24 2380.0
944.72 660.69 2381.7
931.43 647.17 2332.9
661.31 737.88 2685.0
645.02 712.21 2591.6
666.69 728.54 2651.0
672.22 727.10 2645.8
669.32 716.64 2607.7
675.53 702.02 2554.5
662.54 681.84 2481.1
672.09 685.02 2492.6
698.45 705.10 2565.7
711.84 711.84 2590.3
711.39 704.74 2564.4
700.65 687.67 2502.3
699.85 680.59 2476.5
720.94 694.72 2528.0
715.57 677.24 2464.3
687.78 645.18 2347.7
697.80 648.83 2361.0
717.55 661.39 2406.7
719.13 657.13 2391.2
726.52 658.22 2395.1
737.90 662.86 2412.0
723.97 644.88 2346.6
731.06 635.18 2311.3
734.18 632.71 2302.3
722.16 617.33 2246.4
745.66 632.32 2300.9
774.23 651.33 2370.1
771.64 644.05 2343.6
771.97 639.29 2326.3
784.80 644.88 2346.6
775.78 632.56 2301.8
753.16 609.43 2217.6
757.72 608.47 2214.1
770.78 614.31 2235.3
783.30 619.62 2254.7
791.11 621.17 2260.3
777.69 606.14 2205.6
819.93 625.27 2275.2
834.11 631.54 2298.1
826.11 621.05 2259.9
851.05 635.29 2311.7
863.78 640.28 2329.9
858.29 631.80 2299.0
874.46 639.26 2326.2
879.44 638.50 2323.4
877.85 633.01 2303.4
906.36 649.15 2362.1
915.93 651.60 2371.0
893.23 631.22 2296.9
909.39 638.38 2323.0
948.76 661.63 2407.6
972.07 673.46 2450.6
974.37 670.67 2440.4
966.14 660.72 2404.2
972.64 660.90 2404.9
570.45 713.06 2619.4
639.33 714.14 2623.4
620.33 685.63 2518.6
642.58 695.57 2555.2
658.83 705.89 2593.1
667.09 707.52 2599.0
689.93 724.43 2661.2
679.76 706.68 2596.0
665.81 685.39 2517.8
665.95 678.88 2493.8
668.48 674.91 2479.2
687.20 687.20 2524.4
693.06 686.52 2521.9
685.71 672.90 2471.9
698.47 679.07 2494.5
719.75 693.34 2546.9
724.64 679.35 2495.6
702.89 653.13 2399.3
711.39 655.23 2407.0
730.15 666.66 2448.9
721.24 652.84 2398.2
718.26 644.59 2367.9
749.67 667.08 2450.5
706.99 618.62 2272.5
710.65 616.68 2265.4
752.81 647.91 2380.1
755.21 644.69 2368.3
747.19 632.70 2324.2
773.87 650.05 2387.9
780.28 645.11 2369.8
786.16 644.89 2369.0
802.84 648.45 2382.1
786.31 630.25 2315.2
775.73 617.06 2266.7
773.76 610.87 2244.0
794.89 622.86 2288.1
809.17 629.36 2311.9
788.46 608.74 2236.2
801.76 610.04 2241.0
842.42 636.36 2337.6
850.79 638.10 2344.0
835.91 622.49 2286.7
842.52 622.99 2288.5
836.33 614.09 2255.8
837.10 610.38 2242.2
858.61 621.75 2284.0
892.99 642.22 2359.2
923.92 659.94 2424.3
906.19 642.91 2361.7
914.51 635.92 2336.0
950.73 656.75 2412.6
968.69 664.79 2442.1
992.54 676.73 2486.0
563.40 697.54 2587.0
600.41 709.58 2631.7
606.70 708.95 2629.3
604.61 698.66 2591.2
623.88 713.01 2644.4
630.32 704.88 2614.2
627.13 693.84 2573.3
635.19 681.03 2525.8
635.41 674.31 2500.9
644.65 677.21 2511.6
668.26 694.99 2577.6
665.72 685.49 2542.4
659.29 672.22 2493.1
686.83 693.50 2572.0
698.55 691.89 2566.1
670.91 658.25 2441.3
671.90 653.06 2422.1
693.41 667.73 2476.5
713.34 680.62 2524.3
722.08 682.70 2532.0
720.42 674.98 2503.4
704.30 653.99 2425.5
689.17 634.28 2352.4
704.14 642.37 2382.4
728.93 659.21 2444.9
725.85 650.77 2413.6
725.15 644.58 2390.6
748.56 648.75 2406.1
724.99 623.14 2311.1
742.45 632.91 2347.3
743.60 628.73 2331.8
733.70 615.36 2282.2
756.11 629.09 2333.1
771.24 636.58 2360.9
764.68 626.20 2322.4
777.47 631.69 2342.8
793.94 630.30 2337.7
780.58 615.00 2280.9
779.91 609.85 2261.8
801.40 621.98 2306.8
833.02 641.73 2380.1
830.49 635.08 2355.4
807.74 613.17 2274.1
815.95 614.92 2280.6
845.54 632.63 2346.3
842.03 625.51 2319.9
824.08 607.83 2254.3
826.59 605.39 2245.3
840.52 611.29 2267.1
860.30 621.33 2304.4
871.39 624.99 2318.0
895.91 638.18 2366.9
898.21 635.47 2356.8
925.19 641.47 2379.1
946.15 651.65 2416.8
954.47 653.06 2422.1
969.25 658.83 2443.5
989.51 668.24 2478.4
