ply
format ascii 1.0
element vertex 2146
property float x
property float y
property float z
end_header
-969.33 821.95 2186.5
-1005.68 857.79 2281.8
-993.03 852.01 2266.4
-963.08 831.23 2211.1
-984.82 855.08 2274.6
-977.64 859.14 2285.4
-961.06 849.72 2260.3
-933.56 830.47 2209.1
-909.21 813.80 2164.8
-922.17 830.53 2209.3
-938.19 850.24 2261.7
-951.81 868.00 2309.0
-947.67 869.70 2313.5
-937.45 865.80 2303.1
-945.68 879.00 2338.2
-934.74 874.43 2326.1
-918.25 864.58 2299.9
-919.87 877.51 2334.3
-874.28 839.54 2233.3
-868.15 839.21 2232.4
-899.07 874.94 2327.4
-907.25 888.86 2364.5
-865.53 853.75 2271.1
-847.94 842.13 2240.2
-881.94 881.94 2346.1
-877.52 883.61 2350.5
-852.41 864.33 2299.2
-838.94 856.66 2278.8
-813.25 836.33 2224.7
-818.57 853.90 2271.5
-810.42 851.52 2265.1
-801.97 848.80 2257.9
-824.90 879.49 2339.5
-849.32 912.23 2426.6
-816.42 883.43 2350.0
-795.30 873.63 2323.9
-844.37 934.61 2486.1
-814.44 908.41 2416.5
-791.41 889.57 2366.3
-800.94 907.32 2413.6
-794.35 906.93 2412.5
-776.35 893.42 2376.6
-764.90 887.29 2360.3
-771.68 902.37 2400.4
-783.99 924.22 2458.5
-782.39 929.89 2473.6
-786.91 943.00 2508.5
-780.92 943.61 2510.1
-767.15 934.76 2486.6
-781.84 960.73 2555.6
-1293.38 862.26 2309.6
-1246.10 834.59 2235.5
-1223.09 823.01 2204.5
-1265.38 880.26 2357.8
-1244.02 878.13 2352.1
-1200.64 851.68 2281.3
-1182.66 843.08 2258.3
-1193.73 855.21 2290.7
-1213.83 873.96 2341.0
-1218.92 882.03 2362.6
-1176.02 864.02 2314.3
-1108.20 818.37 2192.1
-1120.18 831.47 2227.2
-1155.34 862.02 2309.0
-1154.66 865.99 2319.6
-1140.03 859.50 2302.2
-1104.11 836.80 2241.4
-1088.88 829.62 2222.2
-1078.30 825.93 2212.3
-1050.39 808.85 2166.6
-1036.13 806.50 2160.3
-1055.54 826.07 2212.7
-1095.02 861.66 2308.0
-1074.13 854.56 2289.0
-1046.32 837.06 2242.1
-1043.83 839.73 2249.3
-1048.84 848.50 2272.8
-1030.83 838.64 2246.4
-1016.08 831.34 2226.8
-1003.76 825.95 2212.4
-985.66 815.72 2185.0
-988.60 822.88 2204.1
-997.61 835.21 2237.2
-982.70 827.53 2216.6
-983.13 832.77 2230.6
-1004.01 855.48 2291.5
-1004.96 861.39 2307.3
-976.90 842.35 2256.3
-947.56 821.98 2201.7
-944.88 824.62 2208.8
-948.82 833.11 2231.5
-934.62 825.67 2211.6
-924.16 821.48 2200.4
-928.68 830.62 2224.9
-938.16 844.35 2261.6
-950.72 861.03 2306.3
-945.15 861.40 2307.3
-915.34 839.55 2248.8
-903.16 833.69 2233.1
-919.93 854.65 2289.2
-932.95 872.37 2336.7
-907.75 859.97 2303.5
-889.75 848.50 2272.8
-912.62 876.11 2346.7
-899.47 881.12 2360.1
-902.06 889.70 2383.1
-859.03 859.03 2301.0
-859.95 865.96 2319.5
-871.53 883.80 2367.3
-840.12 857.99 2298.2
-828.34 852.01 2282.2
-831.67 861.58 2307.8
-817.39 852.93 2284.6
-796.59 837.29 2242.7
-806.72 854.17 2288.0
-834.08 889.69 2383.1
-803.74 863.72 2313.5
-781.88 852.96 2284.7
-838.35 921.55 2468.4
-816.58 904.52 2422.8
-781.26 872.10 2336.0
-777.82 875.04 2343.9
-774.04 877.65 2350.8
-769.28 886.21 2373.8
-803.43 933.02 2499.2
-795.14 946.29 2534.7
-1276.32 833.39 2247.9
-1296.10 858.07 2314.5
-1241.83 825.96 2227.9
-1222.98 817.23 2204.3
-1266.00 866.21 2336.4
-1248.55 858.38 2315.3
-1238.81 855.80 2308.4
-1236.27 858.19 2314.8
-1176.61 820.75 2213.8
-1177.33 825.29 2226.0
-1201.90 846.66 2283.7
-1196.25 846.85 2284.2
-1220.01 867.97 2341.2
-1211.25 883.72 2383.6
-1160.37 850.94 2295.2
-1153.80 850.48 2294.0
-1169.74 866.70 2337.7
-1170.69 871.92 2351.8
-1155.14 864.85 2332.8
-1143.87 860.91 2322.1
-1150.59 870.55 2348.1
-1122.70 853.97 2303.4
-1078.85 825.00 2225.3
-1077.36 828.29 2234.2
-1084.85 838.56 2261.8
-1065.27 827.90 2233.1
-1064.91 832.14 2244.5
-1094.43 859.91 2319.4
-1072.32 851.90 2297.8
-1074.50 858.40 2315.4
-1061.21 857.36 2312.6
-1036.09 841.82 2270.6
-1012.31 827.20 2231.2
-1013.25 832.73 2246.1
-1036.61 856.85 2311.2
-1029.96 856.31 2309.7
-999.14 835.54 2253.7
-1004.47 844.93 2279.0
-995.86 847.67 2286.4
-934.35 800.07 2158.0
-931.79 802.68 2165.1
-954.50 827.23 2231.3
-980.62 855.05 2306.3
-952.32 840.63 2267.4
-932.65 828.38 2234.4
-934.14 834.89 2251.9
-937.72 843.35 2274.8
-931.14 842.75 2273.1
-901.04 820.70 2213.7
-882.89 814.54 2197.1
-896.13 832.12 2244.5
-900.43 841.58 2270.0
-907.38 853.66 2302.6
-909.97 879.23 2371.6
-884.33 860.27 2320.4
-874.98 857.00 2311.6
-862.67 850.77 2294.8
-832.92 827.14 2231.0
-842.54 842.54 2272.6
-886.22 892.46 2407.2
-837.67 855.62 2307.9
-804.77 827.93 2233.2
-823.74 853.59 2302.4
-837.01 873.67 2356.5
-813.93 855.82 2308.4
-808.21 856.11 2309.2
-830.37 886.14 2390.2
-828.45 890.74 2402.6
-788.89 854.63 2305.2
-798.52 878.38 2369.2
-810.89 898.89 2424.6
-803.97 898.18 2422.7
-797.94 898.47 2423.4
-789.56 896.09 2417.0
-808.83 925.30 2495.8
-817.33 942.57 2542.4
-805.27 936.21 2525.2
-767.30 914.37 2466.3
-767.52 922.31 2487.8
-1269.91 831.00 2257.2
-1243.93 817.77 2221.3
-1239.41 818.59 2223.5
-1265.82 839.93 2281.5
-1233.09 822.06 2233.0
-1263.02 854.04 2319.8
-1248.93 852.64 2316.0
-1235.60 847.61 2302.4
-1231.73 849.05 2306.3
-1191.68 825.46 2242.2
-1211.03 842.97 2289.8
-1236.81 865.16 2350.0
-1230.58 865.06 2349.8
-1221.72 863.10 2344.4
-1228.18 872.01 2368.6
-1190.96 849.83 2308.4
-1142.27 819.21 2225.2
-1156.60 833.69 2264.6
-1146.22 830.43 2255.7
-1136.74 827.78 2248.5
-1168.68 855.43 2323.6
-1167.57 859.04 2333.4
-1151.60 851.71 2313.5
-1147.94 853.44 2318.2
-1148.44 858.31 2331.4
-1144.29 859.73 2335.3
-1105.18 834.76 2267.5
-1087.06 825.47 2242.2
-1111.92 848.89 2305.8
-1109.82 851.87 2313.9
-1081.54 834.67 2267.2
-1060.37 822.80 2235.0
-1070.91 835.55 2269.6
-1065.18 835.66 2269.9
-1037.38 818.38 2223.0
-1034.13 820.37 2228.4
-1034.04 824.91 2240.7
-1042.98 836.74 2272.8
-1044.30 842.56 2288.7
-1029.88 835.67 2269.9
-1039.71 848.50 2304.8
-1021.82 843.60 2291.5
-989.49 821.68 2231.9
-990.28 827.18 2246.9
-1004.70 844.18 2293.1
-959.88 811.33 2203.8
-938.43 807.62 2193.7
-960.21 831.40 2258.3
-969.52 849.82 2308.4
-948.65 836.69 2272.7
-949.34 842.54 2288.6
-935.16 835.17 2268.6
-911.02 818.76 2224.0
-897.07 811.36 2203.9
-889.95 810.08 2200.4
-894.83 819.78 2226.8
-909.42 838.56 2277.8
-911.91 846.35 2298.9
-918.12 857.71 2329.8
-900.38 846.72 2299.9
-866.32 820.12 2227.7
-882.69 841.22 2285.0
-894.39 858.13 2330.9
-866.13 836.67 2272.7
-854.21 830.81 2256.7
-866.64 848.71 2305.4
-861.65 849.68 2308.0
-835.61 829.77 2253.9
-840.52 840.52 2283.1
-851.45 857.49 2329.2
-813.47 825.10 2241.2
-813.61 843.31 2290.7
-796.35 837.64 2275.3
-828.21 877.66 2384.0
-836.78 893.41 2426.8
-806.01 867.07 2355.2
-777.99 843.32 2290.7
-794.91 868.29 2358.5
-801.33 882.08 2396.0
-787.64 873.79 2373.5
-785.86 878.68 2386.8
-782.84 882.25 2396.5
-798.40 906.98 2463.6
-802.66 919.17 2496.7
-786.11 907.54 2465.2
-792.47 922.39 2505.5
-795.25 933.27 2535.0
-775.47 917.63 2492.6
-767.56 915.91 2487.9
-1277.19 826.07 2259.8
-1243.01 815.18 2230.0
-1286.98 847.97 2319.7
-1266.13 838.14 2292.8
-1236.21 822.20 2249.2
-1257.19 840.12 2298.2
-1273.42 855.01 2338.9
-1258.62 849.12 2322.8
-1226.72 831.58 2274.8
-1228.32 836.68 2288.8
-1269.32 868.81 2376.7
-1278.23 879.18 2405.0
-1268.34 876.65 2398.1
-1263.79 877.81 2401.3
-1252.16 874.03 2391.0
-1239.69 869.63 2378.9
-1248.28 880.04 2407.4
-1210.52 857.71 2346.3
-1149.56 818.63 2239.4
-1156.09 827.46 2263.6
-1135.38 816.78 2234.3
-1117.36 807.93 2210.2
-1138.30 827.32 2263.2
-1127.97 824.06 2254.3
-1121.48 823.59 2253.0
-1128.07 832.76 2278.1
-1117.75 829.48 2269.1
-1103.28 823.08 2251.6
-1111.77 833.83 2281.0
-1139.62 859.28 2350.6
-1120.53 849.44 2323.7
-1077.74 821.41 2247.0
-1076.98 825.29 2257.6
-1083.50 834.82 2283.7
-1066.80 826.48 2260.9
-1036.89 807.74 2209.6
-1014.42 794.63 2173.8
-1016.08 800.38 2189.5
-989.43 783.76 2144.0
-1016.29 814.19 2227.3
-1051.39 847.12 2317.3
-1016.65 823.84 2253.7
-983.74 801.77 2193.3
-1009.81 827.81 2264.5
-1029.41 848.81 2322.0
-999.03 828.60 2266.7
-984.11 821.06 2246.1
-974.96 818.27 2238.4
-958.30 809.10 2213.4
-938.01 796.74 2179.5
-931.28 795.82 2177.0
-915.29 786.92 2152.7
-928.39 808.04 2210.4
-950.07 832.05 2276.1
-952.21 839.13 2295.5
-939.45 833.10 2279.0
-932.51 832.18 2276.5
-935.58 840.23 2298.5
-914.75 826.79 2261.7
-906.79 824.89 2256.5
-916.76 839.37 2296.2
-914.68 842.94 2305.9
-910.46 844.57 2310.4
-883.10 824.62 2255.8
-870.05 823.33 2252.3
-896.07 853.69 2335.3
-880.93 844.98 2311.5
-863.22 833.66 2280.5
-872.28 848.22 2320.4
-883.80 865.39 2367.3
-874.38 862.16 2358.5
-832.98 827.11 2262.6
-832.60 844.57 2310.4
-819.89 837.71 2291.6
-803.47 826.93 2262.1
-798.50 827.86 2264.7
-819.43 855.85 2341.2
-835.04 878.67 2403.6
-824.78 874.40 2392.0
-817.33 873.06 2388.3
-812.93 874.98 2393.6
-804.90 886.65 2425.5
-776.30 875.67 2395.4
-799.80 909.45 2487.9
-802.78 920.26 2517.4
-784.83 907.05 2481.3
-761.67 887.56 2428.0
-793.73 932.64 2551.3
-1285.62 833.27 2295.7
-1251.25 814.77 2244.8
-1252.22 819.21 2257.0
-1245.31 818.51 2255.1
-1222.34 807.21 2223.9
-1258.94 835.31 2301.4
-1290.66 860.44 2370.6
-1280.79 857.94 2363.7
-1250.60 841.75 2319.1
-1238.60 837.70 2307.9
-1265.23 859.86 2369.0
-1248.70 852.77 2349.5
-1218.89 836.49 2304.6
-1241.58 856.26 2359.1
-1260.51 873.62 2406.9
-1235.24 860.37 2370.4
-1234.22 863.96 2380.3
-1251.05 880.13 2424.9
-1238.56 875.75 2412.8
-1212.71 861.82 2374.4
-1163.73 831.24 2290.1
-1152.45 827.40 2279.6
-1182.67 853.48 2351.4
-1164.49 844.71 2327.3
-1151.91 839.94 2314.1
-1156.27 847.53 2335.0
-1141.62 841.20 2317.6
-1106.96 819.97 2259.1
-1096.71 816.70 2250.1
-1130.86 846.64 2332.6
-1118.01 841.51 2318.4
-1038.62 785.98 2165.5
-1037.00 793.33 2185.7
-1049.70 807.46 2224.6
-1044.07 807.57 2224.9
-1047.27 814.54 2244.1
-1058.38 827.78 2280.6
-1036.69 815.37 2246.4
-987.02 780.70 2150.9
-1001.24 796.44 2194.3
-1053.31 842.65 2321.6
-1036.11 833.65 2296.8
-1009.69 817.09 2251.2
-1003.09 830.96 2289.4
-974.52 812.10 2237.4
-984.24 825.11 2273.3
-989.68 834.67 2299.6
-969.63 822.71 2266.7
-940.81 803.13 2212.7
-921.46 791.44 2180.5
-940.44 812.73 2239.1
-956.23 831.51 2290.9
-952.17 833.15 2295.4
-948.08 834.79 2299.9
-948.64 840.57 2315.8
-952.69 849.54 2340.6
-932.47 836.83 2305.6
-907.10 819.31 2257.3
-899.86 818.06 2253.8
-895.08 819.03 2256.5
-889.25 819.04 2256.5
-893.77 828.66 2283.0
-892.32 832.84 2294.5
-862.84 810.72 2233.6
-863.71 822.58 2266.3
-883.97 847.65 2335.3
-880.59 850.23 2342.5
-880.48 856.03 2358.4
-867.79 849.59 2340.7
-826.73 815.09 2245.6
-824.38 824.38 2271.3
-851.51 857.63 2362.9
-843.45 855.68 2357.5
-837.01 855.34 2356.5
-845.66 870.53 2398.4
-826.93 857.55 2362.6
-803.39 839.36 2312.5
-811.53 854.24 2353.5
-824.38 874.34 2408.9
-813.24 869.11 2394.5
-837.20 901.60 2484.0
-826.06 903.51 2489.3
-771.98 851.00 2344.6
-763.20 848.00 2336.3
-759.12 850.21 2342.4
-757.02 854.71 2354.8
-772.67 879.46 2423.0
-766.62 879.73 2423.7
-758.01 877.04 2416.3
-1284.11 830.19 2303.7
-1271.55 825.91 2291.8
-1252.12 817.11 2267.4
-1245.58 820.55 2277.0
-1265.52 837.65 2324.4
-1245.30 828.21 2298.2
-1267.26 846.87 2350.0
-1259.36 853.91 2369.5
-1214.80 827.73 2296.9
-1223.33 837.65 2324.4
-1233.95 849.10 2356.2
-1203.93 832.57 2310.3
-1223.21 850.13 2359.1
-1235.92 867.64 2407.6
-1196.20 844.02 2342.1
-1183.07 839.01 2328.2
-1208.21 861.24 2389.9
-1152.70 834.51 2315.7
-1123.27 817.46 2268.4
-1084.38 793.31 2201.4
-1082.67 804.77 2233.2
-1094.81 818.17 2270.3
-1039.34 780.91 2167.0
-1032.83 784.50 2176.9
-1048.81 801.01 2222.7
-1046.41 803.60 2229.9
-1015.03 783.83 2175.1
-1031.44 805.45 2235.1
-1037.65 814.88 2261.2
-1012.59 799.71 2219.1
-1021.46 811.33 2251.4
-1007.00 818.55 2271.4
-1009.25 825.21 2289.9
-1004.56 826.24 2292.7
-954.35 789.61 2191.1
-942.69 784.64 2177.3
-964.87 807.93 2241.9
-961.73 810.19 2248.2
-947.80 803.32 2229.1
-943.18 804.31 2231.9
-942.59 808.76 2244.3
-937.91 809.75 2247.0
-931.40 809.16 2245.3
-924.90 808.56 2243.7
-918.40 807.96 2242.0
-915.12 810.20 2248.2
-914.30 814.66 2260.6
-907.05 813.42 2257.2
-895.24 808.04 2242.3
-885.95 804.88 2233.5
-875.64 800.75 2222.0
-875.76 806.16 2237.0
-889.20 823.99 2286.5
-875.42 816.67 2266.2
-868.53 815.71 2263.5
-906.87 857.52 2379.5
-905.58 868.11 2408.9
-898.04 866.85 2405.5
-878.65 854.07 2370.0
-856.47 838.38 2326.4
-851.08 839.01 2328.2
-856.02 849.90 2358.4
-860.49 860.49 2387.8
-853.97 860.16 2386.9
-849.67 862.08 2392.2
-863.29 882.34 2448.4
-846.62 871.71 2418.9
-813.31 843.66 2341.1
-813.38 850.07 2358.9
-832.66 876.82 2433.1
-828.46 879.05 2439.3
-792.49 847.36 2351.3
-788.24 855.98 2375.3
-799.49 875.03 2428.2
-775.82 855.87 2375.0
-768.63 875.73 2430.1
-791.14 908.83 2521.9
-790.74 915.94 2541.7
-1282.62 819.45 2290.4
-1278.89 820.87 2294.4
-1301.34 851.11 2378.9
-1271.82 835.77 2336.0
-1249.30 824.89 2305.6
-1270.80 843.13 2356.6
-1273.16 848.77 2372.3
-1241.74 831.85 2325.0
-1265.12 851.64 2380.4
-1259.21 856.02 2392.6
-1238.31 845.97 2364.5
-1220.15 837.72 2341.4
-1252.11 863.95 2414.8
-1232.11 863.10 2412.4
-1214.93 855.41 2390.9
-1216.76 861.09 2406.8
-1217.66 866.17 2421.0
-1173.00 843.09 2356.5
-1127.84 814.88 2277.6
-1072.77 787.46 2201.0
-1078.01 795.54 2223.6
-1051.33 780.02 2180.2
-1062.68 792.71 2215.6
-1090.68 818.01 2286.4
-1088.19 820.60 2293.6
-1064.96 807.50 2257.0
-1046.32 797.75 2229.7
-1012.59 789.48 2206.6
-1017.64 797.92 2230.2
-991.53 781.90 2185.4
-989.47 784.75 2193.4
-1023.94 816.79 2282.9
-1009.62 810.05 2264.1
-965.72 779.35 2178.3
-972.40 789.36 2206.3
-981.24 801.25 2239.5
-944.40 775.76 2168.3
-930.62 773.65 2162.4
-921.19 784.72 2193.3
-924.68 792.59 2215.3
-926.25 798.89 2232.9
-924.48 802.38 2242.7
-923.38 806.49 2254.2
-919.71 808.41 2259.5
-917.80 811.90 2269.3
-925.40 823.90 2302.8
-928.26 831.82 2325.0
-907.23 818.29 2287.1
-883.24 801.89 2241.3
-887.46 811.06 2266.9
-908.07 835.42 2335.0
-898.28 831.96 2325.4
-896.35 835.78 2336.0
-897.75 866.36 2421.5
-881.66 856.83 2394.9
-871.88 853.33 2385.1
-871.20 858.75 2400.2
-873.33 867.05 2423.4
-864.50 864.50 2416.3
-850.31 856.51 2394.0
-854.17 866.73 2422.5
-856.33 875.36 2446.7
-837.86 862.87 2411.7
-831.58 862.85 2411.7
-846.78 885.27 2474.3
-843.09 888.14 2482.4
-805.49 855.05 2389.9
-777.62 831.88 2325.1
-793.31 855.29 2390.6
-816.08 886.77 2478.5
-801.69 878.04 2454.2
-795.00 877.68 2453.1
-794.10 883.75 2470.1
-767.23 860.80 2406.0
-758.65 858.14 2398.5
-790.04 901.04 2518.4
-1269.49 808.93 2277.5
-1266.93 830.48 2338.2
-1275.71 840.25 2365.7
-1265.86 837.79 2358.8
-1223.22 813.50 2290.4
-1235.05 825.37 2323.8
-1269.92 852.84 2401.1
-1264.49 853.37 2402.6
-1254.43 863.60 2431.4
-1130.17 802.25 2258.7
-1154.25 823.61 2318.8
-1162.85 834.09 2348.3
-1148.58 828.19 2331.7
-1152.82 835.64 2352.7
-1129.01 822.73 2316.4
-1086.23 795.79 2240.5
-1053.70 776.11 2185.1
-1062.17 786.58 2214.6
-1081.59 805.31 2267.3
-1069.75 800.85 2254.8
-1052.69 792.41 2231.0
-1038.95 786.39 2214.0
-1039.78 791.39 2228.1
-1043.35 798.54 2248.2
-1018.91 784.22 2207.9
-1015.68 786.14 2213.3
-1013.21 788.69 2220.5
-980.82 767.84 2161.8
-967.47 761.74 2144.6
-990.79 784.61 2209.0
-980.11 780.67 2197.9
-947.77 763.79 2150.4
-958.27 776.82 2187.1
-930.64 758.91 2136.7
-925.27 763.62 2149.9
-914.92 768.98 2165.0
-932.52 788.61 2220.3
-937.78 797.99 2246.7
-931.28 797.41 2245.0
-921.15 793.70 2234.6
-923.68 800.91 2254.9
-923.60 805.94 2269.1
-919.17 807.22 2272.7
-923.94 816.64 2299.2
-917.31 816.05 2297.5
-885.48 792.88 2232.3
-871.34 785.35 2211.1
-886.37 804.19 2264.1
-894.62 817.08 2300.4
-872.59 802.32 2258.9
-869.11 804.52 2265.1
-895.69 834.76 2350.2
-879.53 825.31 2323.6
-850.14 803.24 2261.5
-861.52 819.64 2307.6
-865.42 829.11 2334.3
-854.78 824.68 2321.8
-849.73 825.62 2324.5
-848.54 830.36 2337.8
-849.22 837.00 2356.5
-858.11 851.89 2398.4
-862.99 862.99 2429.7
-851.96 858.23 2416.3
-840.68 853.13 2401.9
-848.43 867.43 2442.2
-826.95 864.83 2434.9
-819.71 863.85 2432.1
-819.69 870.52 2450.9
-804.05 860.58 2422.9
-790.62 852.87 2401.2
-808.17 878.73 2474.0
-782.49 871.55 2453.8
-756.08 849.04 2390.4
-766.82 868.22 2444.4
-794.19 906.70 2552.7
-1264.79 819.10 2323.1
-1273.21 828.50 2349.7
-1282.46 850.80 2413.0
-1262.20 845.61 2398.3
-1164.00 816.00 2314.3
-1120.18 793.46 2250.4
-1142.05 813.19 2306.3
-1141.35 816.96 2317.0
-1144.79 823.76 2336.3
-1120.58 810.63 2299.1
-1104.42 803.22 2278.0
-1098.29 803.05 2277.6
-1075.67 790.76 2242.7
-1064.68 786.94 2231.9
-1056.19 784.93 2226.2
-1043.24 779.56 2210.9
-1053.02 791.22 2244.0
-1077.15 813.85 2308.2
-1078.14 819.15 2323.2
-1050.34 802.50 2276.0
-1026.30 788.57 2236.5
-1005.60 777.06 2203.8
-1001.17 778.05 2206.7
-1018.64 796.18 2258.1
-1011.73 795.35 2255.7
-970.71 767.54 2176.8
-953.56 758.39 2150.9
-979.52 783.61 2222.4
-985.29 792.90 2248.8
-952.57 771.13 2187.0
-931.45 758.55 2151.3
-934.94 765.98 2172.4
-938.33 773.41 2193.5
-940.88 780.24 2212.9
-952.59 794.80 2254.2
-963.74 809.07 2294.6
-965.55 815.62 2313.2
-953.43 810.42 2298.5
-937.39 801.79 2274.0
-934.42 804.31 2281.1
-934.64 809.63 2296.2
-930.16 810.91 2299.9
-910.42 798.82 2265.6
-880.26 777.37 2204.7
-882.07 789.22 2238.3
-872.81 786.10 2229.5
-863.29 787.97 2234.8
-890.16 817.98 2319.9
-914.26 845.85 2398.9
-895.30 833.98 2365.3
-849.75 797.01 2260.4
-843.21 796.37 2258.6
-858.79 816.75 2316.4
-860.32 823.97 2336.9
-855.89 825.54 2341.3
-855.31 830.88 2356.5
-849.52 831.18 2357.3
-851.70 839.36 2380.5
-859.82 853.54 2420.8
-852.27 852.27 2417.2
-836.91 843.11 2391.2
-841.27 853.83 2421.6
-847.35 866.46 2457.4
-821.31 846.20 2399.9
-801.64 832.23 2360.3
-803.96 841.06 2385.4
-796.83 840.07 2382.6
-773.88 822.25 2332.0
-776.38 831.40 2358.0
-808.19 872.33 2474.0
-816.06 887.87 2518.1
-787.74 863.98 2450.4
-773.28 855.01 2424.9
-769.51 857.81 2432.9
-752.08 845.31 2397.4
-749.74 849.70 2409.9
-766.33 875.80 2483.9
-1280.77 811.75 2319.3
-1272.81 810.51 2315.8
-1226.08 848.82 2425.2
-1156.02 821.38 2346.8
-1124.98 803.56 2295.9
-1128.85 810.61 2316.0
-1139.28 822.48 2349.9
-1127.20 818.13 2337.5
-1098.25 801.43 2289.8
-1074.84 788.61 2253.2
-1055.26 778.47 2224.2
-1045.17 775.26 2215.0
-1059.00 789.86 2256.7
-1060.24 804.11 2297.5
-1018.26 776.64 2219.0
-1008.66 773.69 2210.5
-1015.63 783.49 2238.5
-1012.68 785.70 2244.9
-985.92 769.36 2198.2
-979.91 769.12 2197.5
-995.14 785.64 2244.7
-987.88 784.49 2241.4
-959.99 766.85 2191.0
-962.73 773.62 2210.4
-976.74 789.58 2255.9
-973.23 791.48 2261.4
-970.43 793.99 2268.5
-953.82 785.16 2243.3
-947.70 784.90 2242.6
-960.00 800.00 2285.7
-963.67 808.04 2308.7
-955.93 806.56 2304.5
-944.94 802.30 2292.3
-946.62 808.82 2310.9
-952.88 819.35 2341.0
-946.51 819.10 2340.3
-923.48 804.32 2298.1
-901.34 790.13 2257.5
-903.57 797.27 2277.9
-909.89 808.12 2308.9
-895.26 800.40 2286.9
-889.70 800.73 2287.8
-909.13 823.71 2353.4
-891.14 812.86 2322.5
-870.91 799.82 2285.2
-897.05 852.83 2436.7
-874.77 837.55 2393.0
-872.79 841.62 2404.6
-865.27 840.37 2401.1
-850.40 831.92 2376.9
-842.01 829.71 2370.6
-834.90 828.76 2367.9
-819.33 819.33 2340.9
-832.85 839.07 2397.3
-848.59 861.35 2461.0
-824.68 843.42 2409.8
-806.81 831.44 2375.5
-801.52 832.35 2378.1
-785.38 821.91 2348.3
-775.35 817.75 2336.4
-790.90 840.72 2402.1
-804.66 862.14 2463.3
-792.97 856.41 2446.9
-784.26 853.83 2439.5
-789.42 866.43 2475.5
-764.07 845.49 2415.7
-771.93 875.72 2502.1
-1226.37 838.44 2413.4
-1148.41 814.22 2343.7
-1121.24 799.18 2300.4
-1141.71 818.12 2354.9
-1139.56 820.97 2363.1
-1105.59 800.80 2305.1
-1077.21 784.49 2258.1
-1070.70 784.01 2256.7
-1074.77 791.32 2277.8
-1070.25 792.34 2280.7
-1088.69 810.47 2332.9
-1071.74 806.82 2322.4
-1042.42 789.17 2271.6
-1047.35 797.41 2295.3
-1020.66 781.53 2249.6
-985.93 759.28 2185.6
-970.98 752.09 2164.9
-975.15 759.71 2186.8
-1011.66 792.76 2281.9
-990.09 785.04 2259.7
-986.99 787.24 2266.0
-991.04 795.21 2289.0
-977.67 789.20 2271.7
-966.61 785.00 2259.6
-941.44 769.23 2214.2
-932.79 766.83 2207.3
-942.59 779.68 2244.3
-944.90 786.44 2263.7
-937.62 785.26 2260.3
-923.83 778.57 2241.1
-922.38 782.28 2251.8
-913.71 779.86 2244.8
-893.65 767.62 2209.6
-909.22 786.04 2262.6
-924.56 804.49 2315.7
-918.24 804.21 2314.9
-915.42 807.01 2323.0
-914.98 811.97 2337.2
-923.78 825.24 2375.4
-904.38 818.83 2357.0
-859.00 783.04 2253.9
-878.74 806.51 2321.5
-863.86 815.19 2346.5
-843.74 801.85 2308.1
-845.85 809.60 2330.4
-856.55 825.74 2376.9
-861.27 836.30 2407.3
-850.89 832.25 2395.6
-842.14 829.75 2388.4
-833.73 827.56 2382.1
-855.91 855.91 2463.7
-854.78 861.21 2479.0
-814.21 826.54 2379.2
-819.92 838.70 2414.2
-839.42 865.25 2490.6
-806.74 838.01 2412.2
-780.71 817.30 2352.6
-785.54 828.84 2385.8
-789.63 839.76 2417.2
-803.80 861.68 2480.3
-780.10 856.83 2466.4
-755.76 836.95 2409.1
-787.51 879.38 2531.3
-1127.74 793.59 2301.5
-1072.18 758.51 2199.8
-1065.80 758.03 2198.4
-1105.05 790.17 2291.6
-1109.21 797.43 2312.6
-1084.09 783.61 2272.5
-1081.23 785.81 2278.9
-1075.49 785.94 2279.3
-1060.83 779.50 2260.6
-1044.22 771.56 2237.6
-1032.52 767.18 2224.9
-1039.68 776.84 2252.9
-1054.26 792.19 2297.4
-1050.52 798.39 2315.4
-1022.30 781.41 2266.2
-1014.59 780.00 2262.1
-996.79 770.77 2235.3
-1009.64 785.28 2277.4
-1000.61 792.15 2297.3
-987.18 786.19 2280.0
-970.80 777.81 2255.7
-956.40 770.92 2235.7
-942.46 764.32 2216.6
-945.30 771.32 2236.9
-957.27 785.91 2279.2
-961.70 794.45 2304.0
-942.65 783.58 2272.5
-916.12 766.31 2222.4
-925.19 778.80 2258.6
-926.56 784.92 2276.4
-908.96 785.01 2276.6
-914.68 795.11 2305.9
-921.30 806.14 2337.9
-923.74 819.05 2375.3
-917.62 819.09 2375.4
-920.37 827.09 2398.6
-903.34 817.31 2370.3
-874.98 797.07 2311.6
-891.77 817.96 2372.2
-894.05 831.53 2411.5
-861.19 806.61 2339.3
-872.76 823.24 2387.5
-865.93 822.63 2385.7
-868.45 830.96 2409.9
-867.65 836.22 2425.1
-851.50 826.64 2397.3
-860.77 841.78 2441.3
-871.40 858.49 2489.7
-856.22 849.83 2464.6
-819.14 819.14 2375.6
-800.34 812.56 2356.5
-836.99 856.31 2483.4
-823.61 849.14 2462.6
-786.96 817.70 2371.4
-781.06 817.96 2372.2
-795.81 840.02 2436.2
-821.38 873.95 2534.6
-812.52 878.58 2548.0
-1162.95 807.95 2360.9
-1140.25 796.37 2327.0
-1106.80 777.12 2270.8
-1055.97 749.40 2189.8
-1092.18 779.28 2277.1
-1100.03 789.15 2306.0
-1082.77 781.01 2282.2
-1062.76 770.79 2252.3
-1041.24 759.36 2218.9
-1020.27 748.20 2186.3
-1028.79 758.66 2216.9
-1054.78 782.19 2285.6
-1037.85 773.99 2261.6
-1020.62 765.46 2236.7
-1031.50 778.05 2273.5
-1029.66 781.12 2282.5
-1011.76 771.98 2255.8
-985.02 755.95 2208.9
-982.86 758.70 2217.0
-996.06 773.41 2260.0
-1006.38 786.05 2296.9
-999.60 790.10 2308.7
-983.91 782.39 2286.2
-966.44 773.15 2259.2
-949.83 764.50 2233.9
-941.50 762.44 2227.9
-943.90 769.10 2247.4
-952.45 780.89 2281.8
-937.09 773.10 2259.1
-906.22 752.33 2198.4
-912.10 762.01 2226.7
-940.50 790.74 2310.6
-927.41 784.74 2293.1
-896.28 763.28 2230.4
-898.29 769.96 2249.9
-899.15 775.74 2266.8
-900.98 782.43 2286.3
-901.68 788.22 2303.2
-887.09 780.64 2281.1
-883.94 783.09 2288.2
-890.30 794.05 2320.3
-889.39 798.64 2333.7
-875.94 791.94 2314.1
-884.35 805.07 2352.5
-907.58 831.94 2431.0
-892.37 823.72 2407.0
-877.59 815.79 2383.8
-882.70 844.32 2467.2
-870.27 838.51 2450.2
-857.88 838.82 2451.1
-806.56 794.52 2321.7
-814.46 808.33 2362.0
-826.17 826.17 2414.1
-818.05 824.29 2408.7
-831.52 844.32 2467.2
-845.32 864.98 2527.5
-835.76 861.88 2518.5
-797.99 829.41 2423.6
-781.33 818.54 2391.8
-795.01 839.53 2453.2
-792.39 843.52 2464.8
-776.14 832.93 2433.9
-770.35 833.49 2435.5
-793.57 865.71 2529.7
-1130.62 792.04 2332.1
-1084.49 763.81 2249.0
-1079.66 764.52 2251.0
-1087.17 774.02 2279.0
-1071.19 766.81 2257.8
-1063.05 765.16 2252.9
-1054.11 762.92 2246.3
-1034.69 753.03 2217.2
-1046.37 765.78 2254.7
-1068.29 786.21 2314.9
-1046.51 774.53 2280.5
-1009.40 751.32 2212.2
-1000.22 748.74 2204.6
-1003.64 755.61 2224.8
-991.33 750.66 2210.2
-972.07 740.36 2179.9
-977.72 749.01 2205.4
-992.88 765.10 2252.8
-1004.76 778.84 2293.2
-1004.64 783.38 2306.6
-984.35 772.15 2273.5
-958.54 756.44 2227.2
-930.68 738.90 2175.6
-929.94 742.81 2187.1
-938.80 754.49 2221.5
-945.65 764.69 2251.5
-960.08 781.19 2300.1
-965.52 790.52 2327.6
-955.20 786.99 2317.2
-932.62 773.25 2276.7
-933.96 779.29 2294.5
-934.85 785.03 2311.4
-917.88 775.76 2284.1
-904.92 769.77 2266.5
-890.99 762.87 2246.2
-877.83 756.56 2227.6
-872.51 761.99 2243.6
-892.46 784.64 2310.3
-885.12 783.45 2306.8
-869.99 775.29 2282.8
-878.58 788.31 2321.1
-908.79 821.04 2417.5
-889.02 814.42 2398.0
-854.84 788.62 2322.0
-861.90 800.77 2357.8
-875.29 819.02 2411.5
-870.01 819.94 2414.2
-864.08 820.25 2415.1
-860.69 822.99 2423.2
-865.17 833.36 2453.7
-829.87 805.28 2371.1
-825.59 813.18 2394.3
-844.33 837.94 2467.2
-840.68 840.68 2475.3
-838.81 845.26 2488.8
-834.46 847.39 2495.1
-830.07 849.53 2501.3
-798.86 824.02 2426.2
-769.77 806.72 2375.3
-778.70 822.66 2422.2
-773.81 824.14 2426.6
-757.99 820.63 2416.3
-778.22 849.56 2501.4
-780.94 859.69 2531.3
-1147.63 797.82 2367.2
-1127.18 787.81 2337.5
-1075.40 755.69 2242.2
-1036.63 736.40 2184.9
-1044.15 745.82 2212.9
-1047.90 752.63 2233.1
-1042.25 752.74 2233.4
-1059.14 769.21 2282.3
-1060.76 779.09 2311.6
-1019.20 752.82 2233.6
-1005.23 746.74 2215.6
-1004.70 750.64 2227.2
-991.99 745.42 2211.7
-973.89 736.08 2184.0
-965.21 733.78 2177.2
-965.80 738.55 2191.3
-950.22 730.94 2168.7
-936.42 728.95 2162.8
-938.79 735.20 2181.4
-920.79 725.47 2152.5
-930.19 737.35 2187.7
-983.67 784.52 2327.7
-962.57 791.99 2349.9
-928.48 768.80 2281.1
-893.98 744.98 2210.4
-902.85 757.23 2246.7
-915.45 772.79 2292.9
-902.86 767.14 2276.1
-891.04 762.07 2261.1
-872.32 751.00 2228.3
-876.57 759.70 2254.0
-892.73 778.90 2311.0
-880.27 773.21 2294.1
-865.50 765.41 2271.0
-874.13 778.33 2309.3
-883.92 792.48 2351.3
-874.16 789.18 2341.5
-878.38 798.52 2369.2
-881.14 806.67 2393.4
-866.76 799.14 2371.1
-858.01 796.73 2363.9
-845.42 790.68 2346.0
-831.94 783.71 2325.3
-838.01 795.19 2359.4
-853.74 816.07 2421.3
-855.01 823.34 2442.9
-859.62 833.96 2474.4
-866.25 846.71 2512.2
-861.59 848.54 2517.6
-840.05 833.64 2473.4
-819.63 819.63 2431.9
-813.60 819.91 2432.7
-808.17 820.79 2435.3
-816.71 836.00 2480.5
-825.63 851.84 2527.4
-813.48 846.02 2510.2
-808.11 847.21 2513.7
-800.40 845.96 2510.0
-775.77 826.64 2452.7
-757.68 814.04 2415.3
-766.92 837.81 2485.8
-1163.96 794.45 2375.4
-1136.65 779.94 2332.0
-1136.26 783.84 2343.7
-1127.49 781.97 2338.1
-1083.97 755.85 2260.0
-1058.08 741.81 2218.0
-1069.31 753.77 2253.8
-1048.51 743.17 2222.1
-1027.03 731.97 2188.6
-1037.27 743.37 2222.7
-1070.31 771.34 2306.3
-1051.88 766.62 2292.2
-1019.87 747.52 2235.1
-1014.98 748.19 2237.1
-1016.77 753.81 2253.9
-1007.52 751.27 2246.3
-981.16 735.87 2200.3
-963.52 726.87 2173.4
-961.81 729.85 2182.3
-942.41 719.35 2150.9
-933.25 720.90 2155.5
-949.25 737.67 2205.7
-945.09 738.89 2209.3
-965.60 759.53 2271.0
-950.35 761.46 2276.8
-931.33 750.88 2245.2
-937.20 760.37 2273.5
-911.08 743.86 2224.2
-902.05 750.74 2244.7
-918.91 769.74 2301.5
-910.87 767.99 2296.3
-922.45 782.87 2340.8
-926.87 791.83 2367.6
-885.83 761.81 2277.8
-858.61 743.36 2222.7
-866.51 755.27 2258.3
-873.57 766.61 2292.2
-874.39 772.58 2310.0
-876.47 779.76 2331.5
-876.77 785.44 2348.5
-889.60 802.51 2399.5
-895.72 825.34 2467.8
-881.91 818.46 2447.2
-871.40 814.57 2435.6
-882.65 831.11 2485.0
-855.98 830.24 2482.4
-832.87 813.95 2433.7
-803.47 797.29 2383.9
-831.72 831.72 2486.9
-815.05 821.41 2456.1
-811.63 824.41 2465.0
-810.83 830.14 2482.1
-787.92 813.13 2431.3
-796.15 828.25 2476.5
-800.98 840.05 2511.8
-790.70 836.06 2499.9
-791.87 844.23 2524.3
-783.87 842.66 2519.6
-789.37 855.71 2558.6
-1138.98 771.38 2324.5
-1135.71 781.56 2355.2
-1111.18 768.82 2316.7
-1105.37 768.96 2317.2
-1098.74 768.52 2315.8
-1060.63 745.94 2247.8
-1042.35 737.13 2221.3
-1057.38 751.91 2265.8
-1051.65 752.02 2266.1
-1033.49 743.18 2239.5
-1042.19 753.67 2271.1
-1050.34 763.89 2301.9
-1030.68 753.87 2271.7
-1019.41 749.91 2259.8
-1023.85 757.53 2282.7
-1009.87 751.53 2264.7
-990.92 741.74 2235.2
-985.60 742.10 2236.2
-969.14 734.03 2211.9
-951.26 724.77 2184.0
-957.44 733.85 2211.4
-966.52 745.27 2245.8
-950.61 737.45 2222.2
-961.00 750.05 2260.2
-979.04 768.82 2316.7
-934.24 738.16 2224.4
-916.00 728.25 2194.5
-949.54 759.63 2289.1
-936.74 754.11 2272.4
-892.13 722.74 2177.9
-915.62 751.28 2263.9
-930.46 768.38 2315.4
-923.79 767.83 2313.8
-911.14 762.26 2297.0
-917.83 772.91 2329.1
-934.12 791.84 2386.1
-903.75 771.20 2323.9
-877.44 753.77 2271.4
-887.64 767.69 2313.3
-889.82 774.81 2334.8
-886.83 777.49 2342.9
-882.12 778.70 2346.5
-876.04 778.71 2346.5
-877.27 785.25 2366.3
-879.72 792.99 2389.6
-862.50 805.84 2428.3
-851.80 807.63 2433.7
-868.03 829.16 2498.6
-832.95 801.63 2415.6
-792.15 779.97 2350.3
-828.07 821.65 2476.0
-817.73 817.73 2464.1
-789.54 795.75 2397.9
-787.07 819.06 2468.1
-791.26 830.18 2501.6
-1164.49 774.29 2351.6
-1129.58 759.03 2305.3
-1153.09 787.33 2391.2
-1135.52 779.52 2367.5
-1108.15 764.86 2323.0
-1082.19 751.03 2281.0
-1062.95 741.73 2252.7
-1062.56 745.55 2264.3
-1052.39 742.52 2255.1
-1022.49 725.45 2203.3
-1006.90 722.47 2194.2
-1037.11 748.37 2272.9
-1035.70 751.63 2282.8
-1000.38 730.16 2217.6
-981.41 720.45 2188.1
-1000.78 738.95 2244.3
-1016.80 755.16 2293.5
-1001.70 748.33 2272.8
-978.62 735.41 2233.5
-967.56 731.43 2221.4
-982.79 747.39 2269.9
-997.05 762.80 2316.7
-983.24 756.80 2298.5
-943.29 730.48 2218.5
-915.62 713.40 2166.7
-922.26 723.01 2195.9
-955.31 753.56 2288.7
-954.14 762.11 2314.6
-934.43 751.09 2281.1
-953.44 771.26 2342.4
-957.84 779.78 2368.3
-943.21 772.82 2347.2
-937.54 773.16 2348.2
-925.16 767.94 2332.3
-898.47 750.70 2280.0
-881.08 741.04 2250.6
-895.01 757.77 2301.4
-910.76 776.29 2357.7
-913.93 784.25 2381.9
-909.15 785.46 2385.5
-890.82 774.89 2353.4
-871.29 763.13 2317.7
-863.28 761.36 2312.4
-861.60 765.20 2324.0
-839.40 750.73 2280.1
-840.03 756.62 2298.0
-862.09 782.03 2375.1
-862.40 787.95 2393.1
-870.68 801.28 2433.6
-825.70 765.43 2324.7
-847.95 803.66 2440.8
-852.82 814.35 2473.3
-822.61 791.45 2403.7
-798.54 774.16 2351.2
-807.04 788.42 2394.5
-825.93 813.12 2469.5
-843.25 836.66 2541.1
-842.03 842.03 2557.3
-821.46 827.98 2514.7
-817.27 830.35 2521.9
-806.04 825.54 2507.3
-794.29 820.12 2490.8
-782.61 814.69 2474.3
-800.14 839.82 2550.6
-1164.92 776.61 2377.4
-1142.19 765.51 2343.4
-1132.99 763.41 2337.0
-1112.15 753.39 2306.3
-1098.91 748.45 2291.2
-1077.88 738.11 2259.5
-1075.48 740.49 2266.8
-1077.55 745.99 2283.7
-1062.83 739.87 2264.9
-1037.65 726.36 2223.5
-1020.32 718.21 2198.6
-1010.72 715.45 2190.2
-1003.56 718.46 2199.4
-1032.02 743.05 2274.7
-1024.28 741.72 2270.6
-991.06 721.82 2209.6
-997.14 730.46 2236.1
-990.66 729.96 2234.6
-957.92 709.98 2173.4
-949.66 708.03 2167.4
-952.13 714.10 2186.0
-954.52 720.17 2204.6
-954.92 724.82 2218.8
-960.16 733.21 2244.5
-940.54 722.61 2212.1
-930.39 719.20 2201.6
-956.61 744.03 2277.7
-950.04 743.51 2276.0
-931.73 733.74 2246.1
-923.40 731.75 2240.1
-920.54 734.10 2247.2
-932.79 748.61 2291.7
-930.13 751.26 2299.8
-926.36 753.04 2305.2
-931.42 762.07 2332.9
-928.25 764.44 2340.1
-911.00 755.17 2311.8
-893.53 745.60 2282.4
-906.71 761.63 2331.5
-916.55 775.07 2372.7
-914.20 778.31 2382.6
-898.19 769.88 2356.8
-868.74 749.74 2295.1
-882.65 766.99 2347.9
-907.68 794.22 2431.3
-889.44 783.71 2399.1
-852.53 756.47 2315.7
-835.54 768.46 2352.4
-840.87 779.04 2384.8
-815.73 761.35 2330.7
-814.05 765.45 2343.2
-852.17 807.32 2471.4
-859.37 820.31 2511.1
-844.26 812.04 2485.8
-858.25 831.84 2546.5
-839.83 820.30 2511.1
-818.57 805.78 2466.7
-831.27 824.72 2524.7
-824.71 824.71 2524.6
-832.86 839.53 2570.0
-806.74 826.42 2529.9
-776.26 801.71 2454.2
-792.99 825.76 2527.8
-1150.48 764.94 2360.4
-1128.68 754.47 2328.1
-1102.85 741.16 2287.0
-1086.32 734.00 2264.9
-1074.43 729.91 2252.3
-1079.86 737.61 2276.1
-1097.89 754.04 2326.8
-1099.38 759.24 2342.8
-1068.75 742.19 2290.2
-1046.41 730.74 2254.8
-1060.81 744.95 2298.7
-1069.01 754.95 2329.6
-1058.36 751.67 2319.4
-1039.58 751.14 2317.8
-1023.95 744.15 2296.2
-996.36 728.33 2247.4
-965.88 710.21 2191.5
-958.74 709.12 2188.2
-963.85 717.15 2212.9
-968.09 724.62 2236.0
-950.24 715.54 2208.0
-940.06 712.16 2197.5
-928.04 707.35 2182.7
-926.53 710.53 2192.5
-950.94 733.75 2264.1
-941.07 730.64 2254.6
-918.03 717.21 2213.1
-904.30 710.92 2193.7
-896.82 709.51 2189.3
-904.88 720.45 2223.1
-925.72 741.76 2288.9
-948.04 764.55 2359.2
-946.60 768.35 2370.9
-936.28 764.94 2360.4
-907.75 746.50 2303.5
-878.78 727.46 2244.7
-883.03 735.86 2270.6
-885.09 742.52 2291.2
-876.07 739.93 2283.2
-848.23 731.23 2256.4
-892.56 774.80 2390.8
-894.37 781.79 2412.4
-872.94 768.43 2371.2
-864.17 766.11 2364.0
-864.57 771.94 2382.0
-860.02 773.40 2386.5
-838.37 759.39 2343.3
-835.16 762.00 2351.3
-840.81 772.80 2384.6
-815.98 755.53 2331.4
-814.29 759.60 2343.9
-854.94 803.51 2479.4
-865.85 819.93 2530.1
-854.37 815.24 2515.6
-840.22 807.90 2493.0
-797.67 772.93 2385.1
-794.18 781.68 2412.0
-791.45 785.17 2422.8
-800.45 800.45 2470.0
-816.53 823.11 2539.9
-801.79 814.83 2514.3
-781.70 800.92 2471.4
-1148.60 765.73 2381.9
-1129.78 757.26 2355.5
-1116.45 752.39 2340.4
-1087.13 736.63 2291.4
-1073.58 731.45 2275.3
-1078.87 739.11 2299.1
-1052.78 725.25 2256.0
-1029.70 713.31 2218.8
-1044.59 727.69 2263.6
-1070.09 749.67 2331.9
-1073.37 756.24 2352.4
-1055.15 747.65 2325.6
-1025.20 730.60 2272.6
-1008.83 723.09 2249.3
-1003.89 723.74 2251.3
-1013.33 734.81 2285.7
-1017.97 742.52 2309.7
-1006.71 738.65 2297.6
-1008.90 744.67 2316.4
-1012.16 751.54 2337.7
-991.05 740.30 2302.8
-971.22 729.89 2270.4
-951.15 719.17 2237.0
-939.45 714.67 2223.1
-952.30 728.92 2267.4
-942.79 726.13 2258.7
-919.00 712.22 2215.4
-908.18 708.26 2203.1
-903.22 708.86 2205.0
-916.68 724.00 2252.1
-945.73 751.74 2338.4
-917.13 748.19 2327.3
-869.45 723.57 2250.7
-871.51 730.19 2271.3
-856.08 722.14 2246.3
-873.07 751.81 2338.6
-896.31 777.22 2417.6
-897.67 783.88 2438.3
-875.93 770.32 2396.2
-863.52 764.83 2379.1
-855.74 763.39 2374.6
-831.20 746.87 2323.2
-841.81 761.93 2370.1
-862.70 786.58 2446.7
-845.93 777.00 2416.9
-854.73 790.94 2460.3
-849.91 792.40 2464.8
-813.78 764.46 2377.9
-797.74 755.11 2348.8
-828.44 802.55 2496.4
-830.63 811.00 2522.7
-812.19 799.30 2486.3
-808.96 802.49 2496.2
-809.48 809.48 2518.0
-776.71 802.60 2496.6
-795.27 828.68 2577.7
-1150.44 764.89 2398.6
-1127.08 753.43 2362.7
-1089.46 732.26 2296.3
-1064.42 719.36 2255.8
-1056.69 718.08 2251.8
-1042.47 712.36 2233.9
-1031.16 708.56 2222.0
-1045.65 722.56 2265.9
-1071.57 744.65 2335.1
-1064.88 744.21 2333.8
-1035.98 728.15 2283.4
-1022.30 722.66 2266.2
-1020.87 725.82 2276.1
-986.94 705.78 2213.2
-969.23 697.17 2186.2
-1005.07 727.20 2280.4
-1024.30 745.50 2337.8
-990.77 725.39 2274.7
-959.80 706.92 2216.8
-949.20 703.32 2205.5
-936.75 698.30 2189.8
-962.28 721.71 2263.2
-977.44 742.13 2327.2
-935.28 714.53 2240.7
-918.86 706.38 2215.1
-914.25 707.25 2217.9
-916.17 713.22 2236.6
-936.08 733.36 2299.7
-951.03 749.85 2351.4
-960.02 761.82 2389.0
-941.45 751.94 2358.0
-914.19 734.94 2304.7
-913.17 738.95 2317.3
-894.62 728.73 2285.2
-877.95 719.92 2257.6
-889.37 734.18 2302.3
-895.78 744.47 2334.6
-884.64 740.21 2321.2
-886.44 746.79 2341.9
-913.09 774.55 2428.9
-865.34 754.87 2367.2
-866.72 761.47 2387.9
-872.55 772.11 2421.3
-833.37 742.79 2329.3
-831.16 746.23 2340.1
-870.61 787.39 2469.2
-872.76 795.18 2493.6
-875.42 803.56 2519.9
-863.91 798.95 2505.4
-827.97 771.52 2419.4
-810.29 760.80 2385.8
-797.96 754.99 2367.6
-815.46 777.53 2438.3
-841.67 808.79 2536.3
-828.50 802.41 2516.3
-798.49 779.47 2444.3
-782.38 769.86 2414.2
-791.59 785.21 2462.3
-772.70 792.01 2483.7
-783.13 809.45 2538.4
-1146.16 755.85 2389.7
-1126.12 746.67 2360.7
-1095.49 730.33 2309.0
-1075.75 721.10 2279.8
-1070.82 721.77 2281.9
-1058.98 717.75 2269.2
-1062.56 724.20 2289.6
-1092.62 748.88 2367.6
-1070.34 741.94 2345.7
-1039.81 724.90 2291.8
-1024.53 718.35 2271.1
-1035.67 730.36 2309.1
-1013.78 719.08 2273.4
-988.54 705.27 2229.8
-1018.88 731.19 2311.7
-1023.80 739.07 2336.7
-974.91 707.97 2238.3
-948.97 693.26 2191.8
-944.49 694.14 2194.6
-929.79 687.48 2173.5
-953.13 709.04 2241.7
-983.27 735.94 2326.7
-957.62 721.17 2280.1
-935.88 709.18 2242.1
-940.42 717.07 2267.1
-927.28 711.50 2249.5
-918.95 709.57 2243.4
-926.56 720.00 2276.4
-928.98 726.51 2296.9
-940.61 740.35 2340.7
-926.06 733.63 2319.4
-911.96 727.18 2299.0
-925.02 742.45 2347.3
-918.99 742.49 2347.5
-913.64 743.09 2349.4
-904.47 740.58 2341.4
-890.19 733.81 2320.0
-900.93 747.71 2364.0
-887.61 762.60 2411.0
-854.72 739.55 2338.1
-876.45 763.77 2414.7
-873.46 766.63 2423.8
-826.18 730.39 2309.2
-831.72 740.66 2341.6
-880.76 790.09 2497.9
-867.33 783.81 2478.1
-854.63 778.10 2460.0
-863.24 791.85 2503.5
-844.97 780.96 2469.1
-841.64 783.82 2478.1
-844.08 792.14 2504.4
-814.19 770.01 2434.5
-793.07 755.90 2389.8
-792.82 761.61 2407.9
-781.43 762.68 2411.3
-812.35 799.25 2526.9
-823.23 816.54 2581.6
-794.91 801.48 2533.9
-770.95 783.80 2478.1
-787.62 807.47 2552.9
-1159.51 754.30 2404.5
-1142.29 747.12 2381.6
-1127.23 741.28 2363.0
-1101.12 728.06 2320.9
-1085.03 721.37 2299.5
-1083.75 724.49 2309.5
-1089.73 732.54 2335.1
-1111.80 751.55 2395.7
-1077.99 732.79 2335.9
-1021.57 698.36 2226.2
-1012.73 696.25 2219.5
-997.95 690.01 2199.6
-1006.59 699.98 2231.4
-1039.86 727.30 2318.4
-1030.47 724.92 2310.9
-1017.60 720.05 2295.3
-1031.93 734.49 2341.3
-1020.59 730.72 2329.3
-990.50 713.39 2274.1
-982.79 712.08 2269.9
-980.42 714.64 2278.1
-968.93 710.55 2265.0
-956.37 705.62 2249.3
-949.86 705.11 2247.7
-946.70 707.11 2254.1
-946.47 711.32 2267.5
-948.38 717.22 2286.3
-933.37 710.30 2264.2
-923.18 707.00 2253.7
-928.61 715.68 2281.4
-917.70 711.81 2269.0
-914.72 714.07 2276.3
-933.78 733.68 2338.8
-932.32 752.08 2397.4
-904.72 734.71 2342.0
-880.12 719.55 2293.7
-881.02 725.19 2311.7
-921.92 764.05 2435.6
-885.42 749.20 2388.3
-854.72 728.32 2321.7
-856.28 734.82 2342.4
-883.58 763.67 2434.4
-887.69 772.74 2463.3
-854.19 748.97 2387.5
-874.96 772.78 2463.4
-866.53 782.46 2494.3
-864.45 786.45 2507.0
-852.37 781.34 2490.7
-855.47 790.16 2518.8
-844.53 792.16 2525.2
-813.53 769.04 2451.5
-805.95 767.87 2447.8
-801.06 769.27 2452.2
-814.46 788.40 2513.2
-827.57 807.55 2574.2
-819.42 806.10 2569.6
-800.32 800.32 2551.2
-779.16 785.66 2504.5
-1141.81 736.65 2367.8
-1145.07 742.75 2387.4
-1151.13 750.74 2413.1
-1132.74 742.78 2387.5
-1122.67 740.22 2379.3
-1125.71 746.33 2398.9
-1113.70 746.62 2399.8
-1036.32 698.64 2245.6
-1019.39 691.11 2221.4
-1047.71 714.35 2296.1
-1029.18 705.73 2268.4
-1032.14 711.82 2288.0
-1024.47 718.93 2310.8
-1010.08 712.99 2291.8
-1002.32 711.71 2287.6
-974.99 696.42 2238.5
-961.25 690.72 2220.2
-952.15 688.30 2212.4
-945.72 687.80 2210.8
-940.43 688.12 2211.8
-968.05 712.68 2290.7
-979.66 730.18 2347.0
-960.41 720.30 2315.3
-941.66 710.69 2284.3
-927.78 704.64 2264.9
-938.62 717.42 2306.0
-933.06 717.74 2307.0
-911.37 705.58 2267.9
-911.58 710.32 2283.2
-930.49 729.80 2345.8
-939.96 742.07 2385.2
-941.19 747.97 2404.2
-926.66 741.33 2382.8
-894.23 720.19 2314.9
-866.93 702.91 2259.4
-882.75 725.55 2332.1
-904.08 748.21 2405.0
-868.33 723.61 2325.9
-848.63 712.13 2289.0
-855.62 723.06 2324.1
-849.26 722.77 2323.2
-868.12 744.10 2391.8
-872.97 764.65 2457.8
-862.47 761.00 2446.1
-863.10 767.20 2466.0
-863.64 773.41 2486.0
-877.22 791.48 2544.0
-867.14 794.33 2553.2
-859.61 793.49 2550.5
-858.18 798.31 2566.0
-849.42 796.33 2559.6
-831.68 785.84 2525.9
-815.89 777.04 2497.6
-812.05 779.57 2505.8
-805.53 779.55 2505.7
-801.34 781.79 2512.9
-810.40 797.12 2562.2
-793.69 787.13 2530.1
-781.40 781.40 2511.6
-1150.45 736.04 2385.7
-1127.01 724.94 2349.8
-1141.05 737.96 2391.9
-1129.71 734.62 2381.1
-1091.29 713.54 2312.8
-1065.03 700.21 2269.6
-1079.67 713.78 2313.6
-1059.25 704.20 2282.5
-1036.95 693.24 2247.0
-1074.23 722.23 2340.9
-1058.86 720.02 2333.8
-1031.19 705.24 2285.9
-1040.37 715.63 2319.6
-1047.73 729.12 2363.3
-1034.77 724.34 2347.8
-1027.28 723.35 2344.6
-985.98 698.40 2263.7
-959.18 683.49 2215.4
-948.18 679.72 2203.2
-941.40 678.95 2200.7
-936.50 679.54 2202.6
-964.17 703.90 2281.6
-970.96 722.15 2340.7
-921.73 689.85 2236.0
-908.32 684.12 2217.4
-919.28 696.78 2258.5
-925.37 705.89 2288.0
-915.54 702.90 2278.3
-907.18 701.00 2272.1
-917.62 713.71 2313.3
-918.72 719.26 2331.3
-911.31 718.19 2327.9
-917.86 728.17 2360.2
-906.24 723.77 2346.0
-881.60 708.86 2297.6
-872.92 706.65 2290.5
-865.97 705.83 2287.8
-851.93 699.17 2266.2
-858.15 709.16 2298.6
-879.57 731.95 2372.5
-877.08 735.02 2382.4
-860.04 725.85 2352.7
-840.18 714.15 2314.8
-833.19 713.30 2312.0
-844.64 728.35 2360.8
-836.26 726.39 2354.4
-820.89 718.28 2328.1
-815.14 718.53 2329.0
-813.49 722.43 2341.6
-826.16 739.20 2396.0
-843.55 760.48 2464.9
-840.24 763.28 2474.0
-830.14 759.90 2463.1
-827.70 763.54 2474.9
-822.17 764.37 2477.5
-807.03 756.19 2451.0
-805.41 760.67 2465.5
-816.74 777.53 2520.2
-801.96 769.62 2494.6
-789.34 763.67 2475.3
-796.48 776.89 2518.1
-776.14 763.31 2474.1
-1118.52 713.43 2332.0
-1072.14 691.33 2259.8
-1049.18 680.24 2223.5
-1040.29 678.20 2216.9
-1072.99 703.40 2299.3
-1065.98 702.71 2297.0
-1056.16 700.15 2288.6
-1058.42 705.61 2306.5
-1041.80 698.48 2283.2
-1013.73 683.55 2234.4
-990.16 675.37 2207.6
-1009.25 692.39 2263.3
-1013.25 699.20 2285.5
-1017.16 706.03 2307.8
-1038.73 725.27 2370.7
-1024.27 719.43 2351.6
-993.82 702.22 2295.4
-980.74 697.15 2278.8
-964.70 689.91 2255.1
-951.78 684.81 2238.5
-945.29 684.32 2236.9
-961.17 700.11 2288.5
-977.19 716.20 2341.1
-942.08 694.78 2271.1
-919.01 682.03 2229.4
-931.51 695.69 2274.0
-935.10 702.81 2297.3
-933.53 706.13 2308.2
-922.93 702.62 2296.7
-914.89 701.02 2291.5
-925.65 713.90 2333.6
-925.30 718.32 2348.0
-927.67 724.94 2369.6
-943.19 741.98 2425.3
-921.03 729.40 2384.2
-884.92 705.55 2306.3
-869.03 697.59 2280.3
-855.64 691.54 2260.5
-870.41 708.33 2315.4
-908.46 744.43 2433.4
-895.17 738.67 2414.6
-855.73 711.10 2324.4
-862.91 722.15 2360.5
-865.32 729.34 2384.0
-847.09 719.11 2350.6
-846.17 723.53 2365.1
-831.67 716.32 2341.5
-823.61 719.90 2353.2
-844.92 744.03 2432.1
-828.27 734.86 2402.1
-815.18 728.73 2382.0
-816.40 735.38 2403.8
-810.75 735.91 2405.5
-821.85 751.77 2457.4
-829.98 765.14 2501.0
-835.79 776.56 2538.4
-836.82 789.95 2582.2
-789.86 751.64 2456.9
-780.82 749.08 2448.6
-791.22 765.28 2501.5
-782.97 763.56 2495.9
-782.40 775.82 2536.0
-1146.30 724.96 2390.0
-1076.39 684.44 2256.4
-1070.30 684.29 2255.9
-1070.80 688.37 2269.3
-1086.79 702.51 2316.0
-1120.53 728.34 2401.1
-1113.30 727.69 2399.0
-1083.86 712.43 2348.7
-1066.70 705.10 2324.5
-1036.83 689.25 2272.3
-1013.25 685.26 2259.1
-1015.36 690.68 2277.0
-1002.94 686.22 2262.3
-998.35 687.10 2265.2
-1009.21 698.68 2303.4
-991.04 690.19 2275.4
-957.69 670.95 2211.9
-958.88 675.84 2228.0
-954.31 676.69 2230.9
-961.41 685.89 2261.2
-972.87 698.32 2302.2
-952.82 688.15 2268.6
-932.91 677.95 2235.0
-929.75 679.88 2241.4
-940.50 692.07 2281.5
-938.66 695.09 2291.5
-927.34 691.07 2278.3
-924.73 693.55 2286.4
-913.82 689.79 2274.0
-909.04 690.63 2276.8
-922.69 705.59 2326.1
-943.88 726.54 2395.2
-939.64 737.84 2432.4
-896.17 708.46 2335.6
-873.70 695.39 2292.5
-860.95 689.94 2274.5
-876.72 707.42 2332.2
-893.23 725.75 2392.6
-859.30 703.07 2317.8
-859.50 713.20 2351.2
-882.28 737.33 2430.8
-883.17 743.39 2450.7
-874.89 741.76 2445.4
-851.51 727.20 2397.4
-823.88 708.77 2336.6
-833.36 722.24 2381.0
-865.03 755.28 2489.9
-857.95 754.74 2488.2
-834.39 739.57 2438.2
-824.97 736.80 2429.0
-815.58 734.02 2419.9
-823.00 746.44 2460.8
-854.74 781.28 2575.7
-823.45 770.75 2540.9
-789.43 757.07 2495.9
-802.47 775.94 2558.1
-791.24 771.46 2543.3
-1134.37 715.15 2378.0
-1094.10 693.53 2306.1
-1064.85 678.69 2256.7
-1074.33 688.52 2289.4
-1099.17 708.35 2355.4
-1092.45 707.95 2354.0
-1065.92 694.64 2309.8
-1064.12 697.39 2318.9
-1047.06 690.11 2294.7
-1020.14 676.21 2248.5
-1030.70 687.13 2284.8
-1037.54 695.69 2313.3
-1023.44 690.22 2295.1
-1009.80 685.01 2277.7
-1004.01 685.09 2278.0
-1016.02 697.38 2318.9
-999.35 690.03 2294.4
-953.68 662.43 2202.7
-941.18 657.69 2186.9
-948.45 666.79 2217.2
-966.91 683.91 2274.1
-969.35 689.84 2293.8
-939.23 672.53 2236.3
-934.23 673.11 2238.2
-946.57 686.26 2281.9
-935.21 682.29 2268.7
-912.59 670.00 2227.8
-914.84 675.93 2247.6
-924.95 687.78 2287.0
-919.07 687.82 2287.1
-919.61 692.69 2303.3
-943.51 715.34 2378.6
-941.28 732.81 2436.7
-929.50 728.53 2422.5
-922.59 728.03 2420.8
-926.59 736.20 2447.9
-919.28 735.42 2445.4
-909.29 732.48 2435.6
-899.00 729.26 2424.9
-901.05 736.07 2447.5
-896.39 737.46 2452.1
-890.07 737.48 2452.2
-887.98 741.05 2464.1
-876.10 736.44 2448.7
-869.13 735.90 2447.0
-858.00 731.82 2433.4
-844.06 725.27 2411.6
-850.12 735.92 2447.0
-851.92 743.03 2470.7
-838.04 736.46 2448.8
-866.64 767.40 2551.7
-847.02 761.66 2532.6
-825.31 747.94 2487.0
-848.32 774.84 2576.4
-835.07 768.79 2556.3
-806.80 748.71 2489.5
-781.48 731.06 2430.9
-788.33 755.75 2513.0
-786.63 760.41 2528.4
-1147.10 716.94 2404.6
-1100.54 691.60 2319.6
-1058.47 668.82 2243.2
-1057.33 671.78 2253.2
-1082.67 691.71 2320.0
-1077.25 692.09 2321.3
-1041.07 672.60 2255.9
-1028.12 667.99 2240.5
-1022.85 668.34 2241.6
-1009.99 663.71 2226.1
-1015.84 671.39 2251.9
-1018.02 676.72 2269.7
-1018.16 680.75 2283.2
-1018.23 684.77 2296.8
-1017.46 688.28 2308.5
-1033.67 703.38 2359.2
-1018.26 701.20 2351.8
-999.32 692.30 2322.0
-1001.38 697.93 2340.9
-980.33 687.42 2305.6
-943.66 665.77 2233.0
-941.30 668.20 2241.2
-962.66 687.61 2306.3
-964.89 693.51 2326.1
-940.57 680.28 2281.7
-914.62 665.70 2232.8
-914.68 669.99 2247.2
-955.88 704.65 2363.4
-940.19 702.09 2354.8
-922.42 693.32 2325.4
-947.18 716.62 2403.6
-935.40 712.39 2389.4
-912.15 699.31 2345.5
-911.32 703.36 2359.1
-912.49 709.03 2378.1
-917.68 717.92 2407.9
-930.24 732.73 2457.6
-887.71 724.02 2428.4
-887.02 728.62 2443.8
-890.50 736.75 2471.1
-880.88 734.07 2462.1
-875.48 734.89 2464.9
-879.35 743.57 2494.0
-879.90 749.55 2514.0
-866.46 743.60 2494.1
-848.71 733.84 2461.3
-851.05 741.44 2486.8
-854.28 761.57 2554.3
-792.51 712.02 2388.1
-802.15 732.12 2455.6
-817.40 752.01 2522.3
-808.78 750.08 2515.8
-799.90 747.87 2508.4
-795.97 750.30 2516.5
-798.05 758.48 2544.0
-1145.69 709.83 2401.7
-1094.14 685.34 2318.8
-1094.06 689.08 2331.5
-1123.34 711.45 2407.2
-1117.73 711.85 2408.5
-1079.73 691.51 2339.7
-1037.59 668.28 2261.1
-1012.58 659.63 2231.8
-1039.48 681.04 2304.3
-1041.15 686.08 2321.3
-1041.57 690.35 2335.8
-1028.62 685.75 2320.2
-1015.73 681.14 2304.6
-1026.15 692.20 2342.0
-1026.38 696.47 2356.5
-1016.95 694.21 2348.8
-1011.75 694.82 2350.9
-1005.09 698.66 2363.9
-959.26 670.89 2269.9
-950.09 668.58 2262.1
-956.19 677.05 2290.8
-942.56 671.57 2272.2
-941.14 674.78 2283.1
-936.38 675.62 2285.9
-933.79 678.04 2294.1
-940.41 696.15 2355.4
-900.59 671.03 2270.4
-904.28 678.21 2294.7
-921.92 696.02 2354.9
-929.14 706.15 2389.2
-905.98 693.16 2345.3
-886.12 682.55 2309.4
-870.54 675.11 2284.2
-861.22 672.46 2275.2
-878.02 699.96 2368.3
-884.55 710.13 2402.7
-868.08 701.86 2374.7
-882.32 718.46 2430.9
-885.18 725.98 2456.3
-874.30 722.25 2443.7
-861.85 717.16 2426.5
-858.13 719.31 2433.8
-860.42 726.57 2458.3
-847.41 720.93 2439.2
-847.99 726.85 2459.3
-871.24 752.43 2545.8
-859.60 753.80 2550.5
-840.48 742.75 2513.1
-812.73 723.84 2449.1
-811.70 740.27 2504.7
-819.62 753.52 2549.5
-811.82 752.42 2545.8
-809.55 756.47 2559.5
-791.37 751.80 2543.7
-1135.12 697.11 2379.5
-1103.07 681.13 2325.0
-1107.15 687.41 2346.4
-1134.94 708.56 2418.6
-1129.31 708.96 2420.0
-1088.28 687.01 2345.1
-1075.91 683.02 2331.4
-1058.36 675.67 2306.3
-1022.05 656.20 2239.9
-1024.76 661.70 2258.7
-1061.54 689.39 2353.2
-1055.17 693.23 2366.3
-1023.75 676.52 2309.2
-990.63 658.48 2247.6
-982.58 656.99 2242.6
-992.29 667.43 2278.2
-993.39 672.17 2294.4
-974.95 663.67 2265.4
-968.03 662.95 2262.9
-969.80 668.22 2280.9
-943.30 653.95 2232.2
-924.12 644.60 2200.3
-919.58 645.42 2203.1
-929.27 664.60 2268.6
-953.64 686.38 2342.9
-935.34 677.52 2312.6
-895.94 653.17 2229.5
-905.21 664.21 2267.2
-924.63 682.89 2331.0
-906.25 673.73 2299.7
-904.20 676.65 2309.7
-927.61 698.80 2385.3
-921.83 699.11 2386.3
-887.01 677.25 2311.7
-866.84 684.98 2338.1
-889.10 707.52 2415.1
-890.81 713.91 2436.9
-904.25 729.86 2491.3
-871.92 713.97 2437.1
-838.52 691.62 2360.8
-847.59 720.13 2458.1
-872.10 746.57 2548.4
-827.06 735.88 2511.9
-794.20 723.75 2470.4
-808.83 743.07 2536.4
-793.81 735.25 2509.7
-789.86 737.64 2517.9
