ply
format ascii 1.0
element vertex 2111
property float x
property float y
property float z
end_header
-257.35 -824.47 1838.2
-255.27 -833.24 1857.8
-255.16 -848.91 1892.7
-240.87 -817.06 1821.7
-227.87 -788.43 1757.9
-213.97 -804.73 1794.2
-203.55 -782.55 1744.7
-189.43 -780.26 1739.6
-190.08 -802.03 1788.2
-190.85 -825.43 1840.4
-182.91 -811.35 1809.0
-169.57 -771.99 1721.2
-164.69 -814.06 1815.0
-164.27 -835.83 1863.5
-157.21 -824.16 1837.5
-148.10 -800.64 1785.1
-143.05 -798.33 1779.9
-140.80 -811.94 1810.3
-135.79 -810.03 1806.0
-130.53 -806.48 1798.1
-127.03 -813.96 1814.8
-120.57 -802.23 1788.6
-114.88 -794.99 1772.5
-109.28 -787.75 1756.3
-105.50 -793.57 1769.3
-105.66 -830.86 1852.5
-101.91 -839.54 1871.8
-94.85 -820.43 1829.2
-89.98 -819.29 1826.7
-86.02 -826.73 1843.3
-79.60 -810.05 1806.1
-63.55 -785.31 1750.9
-59.11 -786.60 1753.8
-49.84 -783.84 1747.6
-47.13 -815.39 1818.0
-41.51 -797.84 1778.8
-30.91 -763.95 1703.3
-18.10 -782.84 1745.4
-13.72 -791.45 1764.6
-4.62 -799.65 1782.9
0.00 -835.67 1863.2
4.92 -851.63 1898.8
9.54 -825.02 1839.4
13.44 -775.08 1728.1
22.70 -785.28 1750.8
28.34 -817.17 1821.9
33.56 -829.42 1849.2
38.11 -824.06 1837.3
41.97 -806.84 1798.9
45.64 -789.61 1760.5
49.71 -781.79 1743.1
54.20 -781.33 1742.0
64.68 -799.22 1781.9
68.58 -790.97 1763.5
70.39 -761.05 1696.8
74.82 -761.39 1697.6
81.00 -778.49 1735.7
85.40 -777.59 1733.7
89.93 -777.91 1734.4
95.76 -788.86 1758.8
102.33 -804.71 1794.1
108.87 -818.91 1825.8
112.68 -812.26 1811.0
115.77 -801.12 1786.1
120.14 -799.37 1782.3
124.68 -798.85 1781.1
128.08 -791.37 1764.4
129.63 -773.28 1724.1
133.58 -770.30 1717.4
137.28 -766.09 1708.0
148.96 -780.91 1741.1
161.22 -820.33 1829.0
168.98 -835.27 1862.3
167.84 -806.56 1798.3
167.06 -760.58 1695.8
178.31 -790.98 1763.5
182.00 -787.14 1755.0
186.22 -785.74 1751.9
192.20 -791.67 1765.1
209.06 -803.71 1791.9
219.82 -826.70 1843.2
218.57 -804.52 1793.7
216.50 -780.32 1739.8
221.42 -781.73 1742.9
225.64 -780.71 1740.6
224.70 -762.21 1699.4
227.69 -757.52 1688.9
235.61 -769.08 1714.7
244.93 -784.69 1749.5
256.62 -807.18 1799.6
259.50 -801.66 1787.3
260.97 -792.08 1766.0
263.70 -786.56 1753.7
277.31 -773.78 1725.2
288.02 -790.92 1763.4
281.12 -759.89 1694.2
288.30 -767.31 1710.8
305.89 -801.81 1787.7
306.03 -790.20 1761.8
302.39 -769.30 1715.2
311.23 -758.34 1690.8
327.24 -786.29 1753.1
340.50 -806.95 1799.1
343.13 -802.19 1788.5
350.08 -807.51 1800.4
355.48 -809.19 1804.1
338.69 -760.94 1696.6
338.92 -742.20 1654.8
398.64 -774.89 1727.7
417.09 -801.74 1787.5
425.10 -808.15 1801.8
412.97 -776.57 1731.4
408.88 -760.60 1695.8
441.75 -756.67 1687.0
451.44 -758.24 1690.5
464.89 -773.32 1724.2
464.04 -764.56 1704.6
503.11 -784.12 1748.3
481.22 -743.32 1657.3
507.93 -764.11 1703.6
514.69 -767.60 1711.4
519.08 -767.53 1711.2
513.52 -752.87 1678.6
519.18 -754.77 1682.8
533.32 -768.87 1714.2
539.35 -771.14 1719.3
546.24 -774.59 1727.0
559.31 -786.68 1753.9
561.25 -783.03 1745.8
555.49 -768.80 1714.1
564.71 -775.36 1728.7
592.00 -758.64 1691.4
590.08 -745.13 1661.3
616.62 -773.01 1723.5
616.60 -767.42 1711.0
604.56 -747.07 1665.6
609.40 -747.70 1667.0
662.80 -780.03 1739.1
658.23 -769.42 1715.5
674.34 -767.51 1711.2
713.67 -801.72 1787.5
684.10 -749.05 1670.0
696.53 -748.44 1668.7
697.79 -745.18 1661.4
737.88 -783.15 1746.1
740.18 -744.48 1659.9
762.43 -762.43 1699.9
802.15 -788.48 1758.0
810.82 -774.99 1727.9
793.65 -754.40 1682.0
779.44 -736.85 1642.9
789.01 -741.84 1654.0
815.06 -762.19 1699.4
842.11 -783.26 1746.3
832.55 -770.22 1717.3
837.08 -770.30 1717.4
825.82 -744.10 1659.0
856.38 -767.63 1711.5
880.81 -777.45 1733.4
852.76 -737.64 1644.6
884.58 -761.35 1697.5
888.82 -746.44 1664.2
876.91 -732.88 1634.0
885.14 -725.73 1618.1
901.05 -728.42 1624.1
915.73 -736.84 1642.8
916.38 -733.95 1636.4
943.48 -752.18 1677.0
969.38 -769.28 1715.2
970.33 -756.16 1685.9
955.09 -740.94 1652.0
968.35 -744.55 1660.0
986.31 -755.01 1683.3
990.26 -748.10 1667.9
1020.84 -767.85 1712.0
986.37 -738.71 1647.0
965.90 -717.17 1599.0
991.35 -732.92 1634.1
1022.28 -752.57 1677.9
1010.49 -740.74 1651.5
983.92 -718.22 1601.3
1089.13 -785.08 1750.4
1091.07 -783.22 1746.2
1095.48 -783.13 1746.0
1063.78 -754.24 1681.6
1078.35 -758.35 1690.8
1097.77 -768.88 1714.3
1090.95 -761.03 1696.8
1073.16 -739.67 1649.1
1097.31 -753.31 1679.6
1085.72 -736.59 1642.3
1106.45 -747.72 1667.1
1105.45 -744.14 1659.1
1092.44 -732.53 1633.2
1135.78 -749.96 1672.1
1145.04 -744.70 1660.4
1187.10 -769.17 1714.9
1165.64 -752.45 1677.6
1134.38 -729.54 1626.6
1163.21 -745.32 1661.7
1195.41 -763.12 1701.4
1138.93 -719.11 1603.3
1132.33 -707.19 1576.7
1203.26 -743.44 1657.6
1189.08 -732.07 1632.2
1195.90 -733.65 1635.7
1240.55 -758.36 1690.8
1193.63 -717.01 1598.6
1279.42 -765.88 1707.6
1282.86 -757.46 1688.8
1233.28 -725.71 1618.0
1324.00 -748.54 1668.9
1279.96 -716.61 1597.7
1353.34 -750.41 1673.1
1421.60 -785.74 1751.9
1335.08 -735.57 1640.0
1333.96 -730.30 1628.3
1417.05 -773.35 1724.2
1389.85 -756.12 1685.8
1381.19 -749.05 1670.1
-1688.82 -935.84 2074.5
-1701.99 -946.16 2097.4
-1646.84 -918.43 2035.9
-1619.70 -927.06 2055.1
-1681.31 -975.16 2161.7
-1621.60 -943.67 2091.9
-1623.16 -947.75 2100.9
-1572.98 -921.54 2042.8
-1559.68 -916.84 2032.4
-1576.15 -929.66 2060.8
-1613.43 -968.06 2145.9
-1548.16 -932.11 2066.3
-1583.49 -960.02 2128.1
-1517.55 -923.26 2046.6
-1518.93 -927.34 2055.7
-1469.71 -933.32 2068.9
-1448.07 -929.76 2061.0
-1323.78 -853.10 1891.1
-1335.32 -863.74 1914.7
-1358.53 -882.03 1955.2
-1395.46 -909.40 2015.9
-1420.99 -929.52 2060.5
-1301.76 -861.24 1909.1
-1279.76 -849.91 1884.0
-1237.43 -834.55 1850.0
-1226.14 -830.15 1840.2
-1212.30 -823.98 1826.6
-1256.83 -857.60 1901.1
-1202.36 -826.92 1833.1
-1158.95 -800.22 1773.9
-1172.38 -812.73 1801.6
-1151.12 -801.18 1776.0
-1128.60 -791.84 1755.3
-1145.87 -807.21 1789.4
-1126.32 -796.67 1766.0
-1090.83 -774.71 1717.3
-1089.88 -817.41 1812.0
-1101.11 -829.41 1838.6
-1066.33 -813.78 1803.9
-1056.08 -809.51 1794.5
-1031.46 -797.67 1768.2
-1044.73 -811.53 1799.0
-1020.10 -795.95 1764.4
-1000.72 -784.35 1738.7
-1014.31 -798.59 1770.3
-1048.52 -829.29 1838.3
-1042.47 -828.26 1836.0
-1014.89 -810.05 1795.7
-1021.70 -819.25 1816.1
-1008.88 -812.71 1801.6
-989.31 -800.65 1774.8
-995.58 -809.49 1794.4
-985.12 -804.75 1783.9
-984.12 -807.72 1790.5
-1006.73 -830.19 1840.3
-964.55 -810.78 1797.3
-1001.49 -845.92 1875.2
-989.28 -839.68 1861.4
-939.76 -801.56 1776.9
-943.47 -812.69 1801.5
-898.08 -789.22 1749.5
-911.69 -830.54 1841.1
-879.04 -805.02 1784.5
-861.27 -810.06 1795.7
-851.77 -805.48 1785.5
-833.98 -792.97 1757.8
-832.11 -795.54 1763.5
-844.37 -811.72 1799.4
-811.95 -793.70 1759.4
-839.71 -825.48 1829.9
-859.09 -849.33 1882.8
-825.65 -825.65 1830.3
-790.57 -804.44 1783.2
-807.84 -826.85 1832.9
-778.52 -801.56 1776.9
-798.83 -832.31 1845.0
-790.30 -828.39 1836.3
-758.52 -819.77 1817.2
-741.67 -806.57 1788.0
-726.35 -794.88 1762.0
-722.35 -795.50 1763.4
-722.85 -801.12 1775.9
-729.87 -814.08 1804.6
-717.49 -805.44 1785.5
-719.74 -823.91 1826.4
-718.90 -828.41 1836.4
-716.68 -831.35 1842.9
-704.13 -822.27 1822.8
-671.53 -789.50 1750.1
-670.43 -793.57 1759.2
-681.04 -811.64 1799.2
-687.24 -824.68 1828.1
-693.62 -838.13 1857.9
-680.66 -828.21 1835.9
-665.56 -815.55 1807.9
-665.14 -820.81 1819.5
-651.46 -809.68 1794.9
-630.69 -812.89 1802.0
-639.12 -829.91 1839.7
-585.90 -809.10 1793.6
-570.29 -793.85 1759.8
-543.93 -808.92 1793.2
-556.00 -834.00 1848.8
-562.03 -850.37 1885.1
-557.21 -850.48 1885.3
-538.98 -829.93 1839.7
-524.03 -814.12 1804.7
-526.76 -825.73 1830.4
-520.80 -823.82 1826.2
-490.12 -804.54 1783.5
-525.03 -870.04 1928.7
-488.39 -825.05 1828.9
-462.01 -795.94 1764.4
-444.23 -780.77 1730.8
-448.32 -796.00 1764.5
-428.95 -794.01 1760.1
-428.25 -801.23 1776.1
-417.54 -807.23 1789.4
-418.42 -827.33 1834.0
-418.89 -837.79 1857.2
-395.15 -799.49 1772.3
-388.57 -795.42 1763.2
-400.14 -828.86 1837.4
-395.17 -828.42 1836.4
-384.11 -815.06 1806.8
-342.13 -773.12 1713.8
-330.41 -776.90 1722.2
-322.33 -768.30 1703.1
-320.03 -784.31 1738.6
-318.26 -791.10 1753.7
-302.57 -762.99 1691.4
-301.94 -772.61 1712.7
-300.27 -779.80 1728.6
-302.24 -821.70 1821.5
-297.03 -820.36 1818.5
-269.98 -796.21 1765.0
-277.71 -833.13 1846.8
-279.82 -854.17 1893.5
-273.02 -848.32 1880.5
-264.49 -836.76 1854.9
-252.04 -812.13 1800.3
-241.35 -792.37 1756.5
-232.97 -779.54 1728.0
-183.80 -799.52 1772.3
-181.72 -810.75 1797.2
-174.33 -798.23 1769.5
-154.41 -814.18 1804.8
-158.06 -859.44 1905.2
-148.54 -833.75 1848.2
-142.43 -826.10 1831.2
-136.47 -818.85 1815.2
-130.27 -809.54 1794.5
-127.74 -823.21 1824.8
-122.35 -818.81 1815.1
-116.42 -810.31 1796.3
-110.25 -799.33 1771.9
-102.53 -775.62 1719.4
-99.07 -783.52 1736.9
-98.49 -816.06 1809.0
-94.14 -819.03 1815.6
-77.88 -797.10 1767.0
-73.45 -798.82 1770.8
-63.03 -783.33 1736.4
-59.36 -794.49 1761.2
-36.35 -790.61 1752.6
-31.49 -782.83 1735.3
-26.84 -778.34 1725.4
-13.52 -784.15 1738.3
-9.20 -800.61 1774.8
8.86 -770.59 1708.2
17.97 -781.67 1732.8
22.70 -789.87 1751.0
67.91 -787.79 1746.3
73.04 -794.30 1760.8
75.47 -772.45 1712.3
79.48 -768.26 1703.0
85.77 -785.44 1741.1
92.30 -803.01 1780.1
95.57 -791.83 1755.3
99.12 -783.93 1737.8
104.42 -790.00 1751.2
106.86 -774.70 1717.3
110.23 -767.21 1700.7
120.99 -779.71 1728.4
126.11 -783.69 1737.2
128.00 -767.98 1702.4
132.18 -766.62 1699.4
135.90 -762.80 1690.9
151.46 -775.09 1718.2
162.14 -806.09 1786.9
164.12 -793.23 1758.4
163.59 -769.31 1705.4
172.27 -788.81 1748.6
178.97 -798.47 1770.0
183.05 -776.83 1722.0
189.84 -786.47 1743.4
207.06 -800.63 1774.8
216.70 -802.27 1778.4
212.35 -769.78 1706.4
217.64 -772.84 1713.2
222.02 -772.63 1712.7
227.00 -774.45 1716.8
236.63 -791.78 1755.2
240.98 -791.15 1753.8
246.85 -795.40 1763.2
256.24 -810.66 1797.0
256.62 -797.37 1767.6
258.83 -776.50 1721.3
259.34 -764.85 1695.5
261.41 -758.08 1680.5
266.68 -760.68 1686.2
281.97 -791.35 1754.2
298.79 -825.24 1829.4
298.95 -812.76 1801.7
293.49 -785.65 1741.6
297.13 -783.34 1736.5
295.26 -766.81 1699.8
308.14 -765.95 1697.9
307.95 -754.71 1673.0
315.36 -762.11 1689.4
344.94 -822.19 1822.6
350.38 -802.18 1778.2
348.93 -788.49 1747.9
350.96 -782.91 1735.5
358.06 -788.64 1748.2
363.74 -791.13 1753.7
360.60 -774.63 1717.2
355.38 -754.11 1671.7
364.75 -764.67 1695.1
380.47 -788.12 1747.1
380.89 -779.70 1728.4
372.44 -753.55 1670.4
390.86 -764.16 1694.0
411.50 -795.57 1763.6
421.34 -805.64 1785.9
411.95 -779.13 1727.1
400.98 -750.23 1663.1
423.64 -759.94 1684.6
431.62 -766.35 1698.8
426.01 -748.74 1659.8
443.90 -764.74 1695.2
444.54 -758.34 1681.0
464.07 -754.66 1672.9
486.97 -743.28 1647.7
508.00 -768.63 1703.9
514.75 -772.13 1711.6
520.74 -774.44 1716.7
515.74 -760.50 1685.8
531.71 -777.45 1723.4
546.57 -785.98 1742.3
536.06 -764.54 1694.8
535.65 -757.74 1679.7
557.36 -769.69 1706.2
558.55 -765.25 1696.4
579.35 -769.52 1705.8
587.85 -774.89 1717.7
570.59 -740.92 1642.4
602.42 -776.45 1721.2
605.55 -774.75 1717.4
605.88 -769.52 1705.8
631.28 -795.96 1764.4
629.17 -787.59 1745.9
616.28 -765.95 1697.9
634.16 -782.58 1734.8
645.52 -790.99 1753.4
626.29 -756.77 1677.6
639.91 -767.89 1702.2
646.46 -770.44 1707.9
663.54 -785.42 1741.1
662.94 -779.40 1727.7
637.70 -744.70 1650.8
656.05 -755.98 1675.8
694.05 -794.50 1761.2
708.29 -805.51 1785.6
679.89 -768.19 1702.9
702.69 -759.43 1683.5
715.44 -768.43 1703.4
716.05 -755.11 1673.9
750.86 -787.04 1744.7
759.18 -791.00 1753.5
747.61 -774.31 1716.5
754.25 -763.02 1691.4
786.52 -782.02 1733.5
756.94 -748.34 1658.9
817.33 -790.09 1751.4
816.06 -784.50 1739.0
785.49 -750.96 1664.7
808.03 -751.86 1666.7
868.89 -804.18 1782.7
869.48 -800.47 1774.4
820.47 -751.38 1665.6
843.24 -760.23 1685.2
872.28 -782.35 1734.3
857.99 -765.59 1697.1
893.38 -754.60 1672.8
886.77 -745.40 1652.4
865.96 -724.41 1605.8
860.45 -716.36 1588.0
878.43 -727.84 1613.4
916.59 -755.86 1675.5
909.76 -746.69 1655.2
885.31 -723.21 1603.2
908.02 -738.30 1636.6
936.77 -758.13 1680.6
951.59 -766.56 1699.3
949.60 -761.43 1687.9
943.90 -753.39 1670.1
966.13 -750.47 1663.6
974.19 -753.37 1670.0
968.14 -745.38 1652.3
970.99 -744.28 1649.9
986.64 -752.96 1669.1
1015.21 -771.39 1710.0
1035.35 -783.27 1736.3
983.24 -740.62 1641.8
1014.81 -754.60 1672.8
1022.50 -757.08 1678.3
989.28 -729.39 1616.9
966.74 -706.77 1566.7
1029.82 -749.74 1662.0
1064.65 -771.87 1711.0
1060.09 -765.37 1696.6
1058.44 -761.03 1687.0
1100.48 -784.77 1739.6
1081.31 -767.95 1702.3
1112.60 -783.77 1737.4
1074.49 -753.88 1671.2
1076.70 -752.39 1667.9
1074.82 -748.07 1658.3
1064.22 -737.75 1635.4
1073.50 -741.22 1643.1
1080.74 -743.28 1647.7
1065.36 -729.81 1617.8
1076.69 -734.68 1628.6
1111.36 -755.38 1674.5
1107.28 -743.88 1649.0
1118.23 -748.36 1658.9
1089.85 -726.57 1610.6
1165.04 -770.78 1708.6
1166.11 -768.57 1703.7
1127.88 -740.57 1641.7
1183.07 -770.99 1709.1
1159.48 -752.80 1668.8
1153.45 -746.10 1653.9
1205.44 -776.84 1722.1
1213.93 -776.56 1721.4
1197.57 -763.29 1692.0
1195.23 -759.01 1682.5
1154.16 -730.27 1618.8
1146.72 -722.93 1602.6
1156.75 -726.62 1610.7
1190.31 -739.69 1639.7
1172.24 -725.87 1609.1
1224.71 -753.00 1669.2
1199.27 -734.77 1628.8
1228.94 -739.92 1640.2
1252.75 -751.65 1666.2
1276.08 -763.02 1691.4
1276.79 -760.82 1686.6
1262.09 -749.50 1661.5
1229.05 -727.40 1612.5
1323.75 -752.72 1668.6
1333.63 -755.87 1675.6
1325.29 -748.70 1659.7
1315.71 -740.89 1642.4
1270.91 -711.06 1576.2
1364.95 -761.22 1687.4
1431.41 -795.74 1763.9
1402.98 -770.09 1707.1
1324.71 -724.84 1606.8
1373.12 -748.97 1660.3
-1643.87 -919.10 2025.8
-1676.05 -940.09 2072.0
-1653.03 -930.16 2050.2
-1720.45 -971.22 2140.6
-1705.04 -965.64 2128.3
-1686.73 -958.37 2112.3
-1715.42 -977.84 2155.2
-1684.76 -976.27 2151.8
-1649.01 -961.92 2120.2
-1622.28 -949.49 2092.8
-1591.03 -934.33 2059.3
-1537.00 -937.19 2065.7
-1555.63 -965.37 2127.8
-1572.25 -979.16 2158.1
-1468.16 -937.69 2066.8
-1397.49 -902.44 1989.0
-1318.57 -854.63 1883.7
-1359.59 -884.49 1949.5
-1353.31 -883.69 1947.7
-1368.36 -896.86 1976.8
-1420.00 -934.21 2059.1
-1355.17 -894.92 1972.5
-1330.38 -885.24 1951.1
-1351.45 -902.69 1989.6
-1294.73 -868.11 1913.4
-1178.58 -802.54 1768.9
-1173.16 -801.96 1767.6
-1224.47 -840.32 1852.1
-1234.83 -854.13 1882.6
-1205.15 -836.91 1844.6
-1200.10 -840.07 1851.6
-1154.98 -811.73 1789.1
-1132.83 -799.38 1761.9
-1140.07 -811.02 1787.6
-1151.12 -822.23 1812.3
-1102.17 -790.49 1742.3
-1140.28 -831.46 1832.6
-1144.82 -841.78 1855.4
-1065.96 -787.10 1734.8
-1067.40 -791.50 1744.5
-1109.06 -825.90 1820.3
-1105.93 -827.09 1823.0
-1090.07 -833.02 1836.1
-1079.27 -828.39 1825.8
-1028.51 -803.52 1771.0
-1015.60 -796.99 1756.6
-997.63 -786.42 1733.3
-1011.68 -801.11 1765.7
-1019.60 -811.05 1787.6
-987.93 -789.44 1740.0
-963.77 -773.67 1705.2
-970.76 -782.87 1725.5
-986.75 -799.45 1762.0
-993.07 -808.31 1781.6
-1013.75 -829.00 1827.2
-1019.85 -837.91 1846.8
-991.41 -818.38 1803.8
-987.22 -818.78 1804.7
-995.46 -829.55 1828.4
-998.73 -836.25 1843.2
-976.80 -821.83 1811.4
-967.31 -817.77 1802.4
-981.90 -834.14 1838.5
-952.34 -812.97 1791.9
-881.69 -779.27 1717.6
-889.73 -810.95 1787.4
-869.59 -805.18 1774.7
-841.81 -783.60 1727.1
-845.10 -803.76 1771.6
-821.40 -785.49 1731.3
-771.94 -790.00 1741.2
-822.06 -846.24 1865.2
-826.05 -855.38 1885.3
-772.48 -814.37 1794.9
-765.18 -811.55 1788.7
-734.68 -803.55 1771.1
-743.31 -818.11 1803.2
-733.26 -812.16 1790.1
-727.45 -810.85 1787.2
-731.28 -841.94 1855.7
-725.67 -841.01 1853.7
-707.38 -825.28 1819.0
-663.17 -794.90 1752.0
-668.82 -807.20 1779.1
-678.21 -824.21 1816.6
-668.87 -818.54 1804.1
-634.26 -792.82 1747.5
-624.56 -786.32 1733.1
-633.47 -821.17 1809.9
-639.76 -835.51 1841.5
-635.12 -835.68 1841.9
-629.88 -835.06 1840.5
-605.43 -821.31 1810.2
-615.01 -840.84 1853.3
-614.34 -846.53 1865.8
-602.77 -837.18 1845.2
-589.88 -825.83 1820.2
-553.95 -814.63 1795.5
-534.06 -792.04 1745.7
-530.39 -793.32 1748.5
-541.50 -816.91 1800.5
-547.89 -833.75 1837.7
-549.69 -843.82 1859.8
-538.49 -833.94 1838.1
-514.36 -810.93 1787.4
-523.60 -832.99 1836.0
-513.90 -825.07 1818.5
-499.84 -809.92 1785.1
-472.81 -788.02 1736.9
-494.32 -831.79 1833.3
-474.00 -805.34 1775.0
-449.51 -794.59 1751.3
-447.91 -799.83 1762.9
-439.99 -793.80 1749.6
-426.84 -778.09 1715.0
-422.39 -778.08 1715.0
-423.35 -788.15 1737.2
-414.55 -780.07 1719.3
-424.10 -815.57 1797.6
-423.38 -823.24 1814.5
-418.06 -822.02 1811.8
-413.55 -822.41 1812.7
-401.40 -807.41 1779.6
-398.63 -820.71 1808.9
-401.71 -836.89 1844.6
-388.83 -819.83 1807.0
-359.56 -796.49 1755.5
-357.15 -801.29 1766.1
-359.69 -817.48 1801.8
-349.34 -804.40 1773.0
-343.31 -801.07 1765.6
-347.99 -822.96 1813.9
-337.65 -809.44 1784.1
-310.95 -777.37 1713.4
-321.25 -814.77 1795.8
-311.17 -800.79 1765.0
-300.30 -784.36 1728.8
-293.88 -803.58 1771.2
-284.83 -791.19 1743.8
-286.34 -808.22 1781.4
-268.75 -797.15 1757.0
-270.80 -817.06 1800.9
-267.54 -821.41 1810.5
-208.22 -775.30 1708.8
-205.90 -783.30 1726.5
-203.58 -791.72 1745.0
-188.17 -803.16 1770.2
-183.24 -801.70 1767.0
-178.79 -802.28 1768.3
-172.82 -795.87 1754.2
-167.78 -793.56 1749.1
-153.76 -840.88 1853.4
-145.19 -819.60 1806.5
-139.40 -813.14 1792.2
-133.61 -806.27 1777.1
-125.46 -784.13 1728.3
-117.39 -790.14 1741.5
-113.07 -791.49 1744.5
-108.96 -794.49 1751.1
-102.97 -783.45 1726.8
-97.98 -779.42 1717.9
-95.97 -799.74 1762.7
-94.29 -825.00 1818.4
-89.36 -823.03 1814.0
-73.16 -800.15 1763.6
-68.02 -793.61 1749.2
-62.93 -786.65 1733.9
-21.90 -766.37 1689.1
-17.38 -760.19 1675.5
-13.48 -786.24 1732.9
-9.26 -810.63 1786.7
9.09 -795.75 1753.9
13.73 -800.70 1764.8
18.42 -806.05 1776.6
22.82 -798.60 1760.2
27.88 -813.03 1792.0
32.98 -824.57 1817.4
37.43 -818.75 1804.6
41.53 -807.56 1779.9
44.70 -782.32 1724.3
48.65 -774.02 1706.0
54.83 -799.57 1762.3
59.21 -797.04 1756.7
61.74 -771.79 1701.1
66.96 -781.22 1721.9
71.80 -785.28 1730.8
85.46 -787.12 1734.9
90.37 -790.75 1742.9
105.45 -768.91 1694.7
110.36 -772.52 1702.7
117.21 -788.90 1738.8
125.90 -816.00 1798.5
128.56 -803.51 1771.0
134.45 -784.29 1728.6
140.95 -795.70 1753.8
139.52 -763.01 1681.7
157.46 -787.29 1735.3
164.47 -799.49 1762.1
169.09 -799.74 1762.7
172.37 -793.81 1749.6
184.70 -788.36 1737.6
191.23 -796.81 1756.2
187.56 -763.33 1682.4
202.63 -788.02 1736.9
218.64 -831.77 1833.3
219.03 -815.55 1797.5
215.53 -785.77 1731.9
221.11 -789.67 1740.5
224.50 -785.76 1731.9
228.21 -783.08 1726.0
233.84 -786.96 1734.5
234.17 -773.20 1704.2
266.48 -818.13 1803.2
264.56 -798.23 1759.4
261.30 -775.06 1708.3
265.93 -775.62 1709.5
273.98 -786.00 1732.4
286.34 -808.22 1781.4
302.55 -827.27 1823.4
298.67 -804.11 1772.3
300.08 -795.66 1753.7
296.23 -773.75 1705.4
313.88 -784.70 1729.6
316.92 -781.14 1721.7
342.98 -789.76 1740.7
360.05 -818.29 1803.6
356.42 -799.67 1762.5
358.82 -794.86 1751.9
356.57 -760.97 1677.2
382.87 -807.26 1779.3
387.51 -807.31 1779.4
376.99 -776.15 1710.7
376.87 -766.89 1690.3
381.48 -767.35 1691.3
381.82 -759.30 1673.6
390.91 -768.65 1694.2
407.17 -791.72 1745.0
413.39 -794.97 1752.2
419.54 -772.84 1703.4
437.54 -781.32 1722.1
435.63 -770.05 1697.2
454.27 -794.98 1752.2
467.78 -802.57 1768.9
451.08 -766.40 1689.2
453.54 -763.18 1682.1
474.26 -790.43 1742.2
468.07 -772.76 1703.2
461.20 -754.30 1662.5
492.35 -762.48 1680.6
492.77 -756.45 1667.3
525.55 -772.86 1703.4
547.08 -797.83 1758.5
533.17 -771.11 1699.6
511.50 -733.70 1617.1
550.25 -770.35 1697.9
566.27 -786.49 1733.5
559.48 -770.94 1699.2
549.64 -751.45 1656.3
567.10 -751.83 1657.1
576.40 -758.42 1671.6
569.48 -743.73 1639.2
585.49 -758.97 1672.8
594.31 -764.74 1685.6
602.27 -769.33 1695.7
626.38 -794.33 1750.8
625.81 -787.89 1736.6
632.24 -779.17 1717.4
656.07 -802.88 1769.6
638.94 -776.49 1711.4
639.03 -771.24 1699.9
658.08 -778.13 1715.1
662.88 -768.23 1693.2
686.02 -789.82 1740.8
685.60 -784.18 1728.4
684.26 -753.12 1659.9
698.28 -763.74 1683.4
716.31 -778.59 1716.1
721.98 -779.91 1719.0
700.72 -752.30 1658.1
694.35 -740.92 1633.0
723.07 -766.89 1690.3
742.20 -782.44 1724.6
736.16 -771.43 1700.3
739.98 -770.81 1698.9
749.34 -775.94 1710.2
755.02 -777.22 1713.1
755.47 -773.14 1704.1
768.29 -781.69 1722.9
770.61 -779.52 1718.1
744.80 -740.57 1632.3
796.22 -787.22 1735.1
775.24 -762.18 1679.9
758.70 -741.75 1634.9
781.85 -760.13 1675.4
780.81 -754.92 1663.9
785.72 -743.24 1638.2
783.25 -736.93 1624.2
820.70 -768.03 1692.8
842.22 -783.98 1728.0
832.02 -762.33 1680.2
881.30 -748.68 1650.2
877.29 -741.67 1634.7
884.12 -740.29 1631.7
936.80 -773.30 1704.4
945.20 -772.94 1703.6
924.73 -752.68 1659.0
926.32 -750.49 1654.1
912.39 -735.80 1621.8
930.82 -747.22 1646.9
950.73 -759.71 1674.5
936.17 -744.68 1641.3
955.16 -739.62 1630.2
978.29 -754.19 1662.3
993.48 -762.54 1680.7
1021.58 -780.69 1720.7
1030.38 -780.59 1720.5
1021.72 -741.91 1635.2
1060.24 -760.42 1676.0
1083.52 -773.95 1705.8
1077.79 -766.72 1689.9
1027.16 -727.75 1604.0
1029.25 -726.28 1600.8
1065.28 -748.69 1650.2
1056.76 -739.73 1630.4
1041.03 -725.82 1599.8
1046.14 -726.48 1601.2
1048.17 -725.02 1598.0
1053.79 -726.04 1600.2
1087.79 -746.52 1645.4
1124.53 -768.72 1694.3
1118.41 -761.56 1678.5
1100.52 -735.08 1620.2
1172.13 -779.93 1719.0
1171.11 -776.30 1711.0
1130.81 -746.76 1645.9
1124.30 -739.67 1630.3
1129.46 -740.28 1631.6
1148.52 -749.97 1653.0
1186.42 -771.84 1701.2
1186.87 -769.27 1695.5
1172.75 -757.31 1669.2
1185.00 -762.41 1680.4
1207.58 -774.09 1706.2
1198.21 -765.28 1686.7
1151.73 -732.92 1615.4
1183.24 -742.18 1635.8
1209.91 -756.19 1666.7
1193.01 -742.98 1637.6
1137.76 -706.06 1556.2
1173.96 -723.39 1594.4
1155.50 -702.12 1547.5
1156.54 -700.33 1543.6
1188.65 -717.29 1581.0
1219.18 -733.18 1616.0
1262.32 -756.53 1667.4
1297.67 -775.06 1708.3
1288.69 -767.08 1690.7
1256.78 -745.55 1643.2
1247.89 -727.93 1604.4
1319.58 -767.20 1691.0
1341.07 -777.11 1712.8
1331.69 -761.58 1678.6
1356.25 -773.11 1704.0
1346.21 -764.89 1685.9
1331.38 -754.02 1661.9
1282.21 -723.83 1595.4
1280.17 -720.35 1587.7
1355.79 -760.46 1676.1
1385.34 -774.55 1707.2
1407.76 -782.09 1723.8
1454.88 -805.71 1775.8
1432.67 -790.90 1743.2
1370.12 -753.99 1661.9
1447.47 -794.06 1750.2
-1635.28 -922.46 2021.6
-1646.27 -940.73 2061.7
-1682.65 -964.65 2114.1
-1590.81 -930.17 2038.5
-1587.29 -931.21 2040.8
-1599.89 -941.74 2063.9
-1600.34 -945.17 2071.4
-1581.02 -962.84 2110.1
-1548.06 -946.04 2073.3
-1523.63 -934.35 2047.7
-1573.11 -968.07 2121.6
-1560.96 -963.96 2112.6
-1511.63 -950.17 2082.4
-1500.72 -946.69 2074.7
-1493.74 -949.09 2080.0
-1454.49 -927.50 2032.7
-1457.95 -939.92 2059.9
-1440.67 -932.20 2043.0
-1396.52 -906.96 1987.7
-1381.57 -900.58 1973.7
-1395.07 -912.76 2000.4
-1360.91 -893.73 1958.7
-1266.68 -834.97 1829.9
-1265.70 -840.62 1842.3
-1325.16 -883.44 1936.1
-1305.20 -873.44 1914.2
-1277.43 -858.12 1880.6
-1252.92 -844.88 1851.6
-1161.15 -795.19 1742.7
-1163.53 -799.93 1753.1
-1178.75 -813.57 1783.0
-1193.85 -827.24 1812.9
-1173.99 -816.69 1789.8
-1170.56 -817.54 1791.7
-1197.69 -839.81 1840.5
-1161.14 -817.44 1791.5
-1173.38 -829.38 1817.6
-1212.79 -860.69 1886.3
-1158.30 -825.35 1808.8
-1152.79 -824.76 1807.5
-1170.79 -841.06 1843.2
-1129.29 -814.57 1785.2
-1138.74 -824.77 1807.5
-1175.36 -854.81 1873.4
-1109.42 -810.20 1775.6
-1113.82 -816.80 1790.1
-1055.90 -784.13 1718.5
-1065.20 -808.08 1771.0
-1081.64 -831.31 1821.9
-1059.04 -817.50 1791.6
-980.03 -794.86 1742.0
-982.80 -800.80 1755.0
-996.37 -815.63 1787.5
-1022.42 -840.87 1842.8
-1015.02 -838.70 1838.1
-974.98 -809.42 1773.9
-981.54 -818.73 1794.3
-998.23 -836.61 1833.5
-996.17 -838.88 1838.5
-971.63 -822.15 1801.8
-936.35 -803.89 1761.8
-935.24 -806.87 1768.3
-940.15 -815.11 1786.4
-955.30 -832.34 1824.1
-941.16 -824.10 1806.1
-921.55 -810.96 1777.3
-913.95 -808.32 1771.5
-855.77 -772.39 1692.7
-895.84 -825.48 1809.1
-876.80 -812.19 1780.0
-871.73 -811.77 1779.0
-876.39 -820.45 1798.1
-847.87 -798.00 1748.9
-845.68 -800.21 1753.7
-851.46 -810.04 1775.2
-823.70 -787.89 1726.7
-825.48 -793.90 1739.9
-848.49 -820.52 1798.2
-797.95 -831.00 1821.2
-764.53 -815.50 1787.2
-769.16 -825.44 1809.0
-757.90 -818.34 1793.4
-750.63 -815.50 1787.2
-749.07 -818.85 1794.6
-757.71 -833.48 1826.6
-751.45 -831.79 1822.9
-726.00 -808.71 1772.3
-695.21 -804.98 1764.2
-697.87 -813.41 1782.6
-687.76 -806.97 1768.5
-678.04 -800.91 1755.2
-667.27 -809.93 1775.0
-706.88 -863.97 1893.4
-670.52 -825.25 1808.6
-616.60 -815.95 1788.2
-626.94 -835.92 1832.0
-614.93 -826.16 1810.6
-597.15 -808.45 1771.8
-606.92 -828.05 1814.7
-593.13 -821.97 1801.4
-583.97 -822.24 1802.0
-593.47 -849.20 1861.1
-571.64 -838.41 1837.4
-572.63 -846.92 1856.1
-556.10 -829.44 1817.8
-534.70 -804.33 1762.7
-529.66 -803.61 1761.2
-545.82 -835.35 1830.7
-556.20 -858.69 1881.9
-544.69 -848.37 1859.2
-524.35 -823.98 1805.8
-505.28 -801.17 1755.8
-500.26 -800.42 1754.2
-509.45 -822.59 1802.8
-513.70 -837.14 1834.6
-521.95 -858.54 1881.5
-513.72 -852.97 1869.3
-477.91 -801.06 1755.6
-462.89 -783.36 1716.8
-455.62 -778.54 1706.2
-461.43 -812.11 1779.8
-452.96 -805.26 1764.8
-439.38 -789.10 1729.4
-429.77 -779.79 1709.0
-420.97 -814.19 1784.4
-432.54 -845.85 1853.7
-409.45 -809.69 1774.5
-386.66 -791.30 1734.2
-385.28 -797.77 1748.3
-380.54 -797.31 1747.4
-380.02 -805.82 1766.0
-360.41 -773.57 1695.3
-367.13 -807.69 1770.1
-368.38 -820.69 1798.6
-360.07 -812.46 1780.6
-362.57 -828.73 1816.2
-353.07 -817.63 1791.9
-342.12 -802.84 1759.5
-341.82 -812.97 1781.7
-345.99 -834.16 1828.1
-323.47 -790.70 1732.9
-315.21 -792.53 1736.9
-331.23 -844.87 1851.6
-325.76 -843.13 1847.8
-312.19 -820.07 1797.2
-278.84 -804.53 1763.2
-278.56 -817.12 1790.8
-277.32 -827.25 1813.0
-276.23 -838.21 1837.0
-269.69 -832.72 1824.9
-256.53 -806.22 1766.9
-240.55 -814.18 1784.3
-234.08 -807.82 1770.4
-227.57 -801.03 1755.5
-220.27 -807.65 1770.0
-221.02 -827.67 1813.9
-221.45 -847.27 1856.9
-215.21 -841.71 1844.7
-202.63 -810.53 1776.3
-182.12 -781.77 1713.3
-181.19 -797.23 1747.2
-177.98 -803.19 1760.2
-173.10 -801.71 1757.0
-166.84 -793.60 1739.2
-151.48 -807.88 1770.5
-150.98 -830.37 1819.8
-131.09 -795.59 1743.6
-126.53 -795.30 1743.0
-121.52 -792.11 1736.0
-117.22 -793.47 1738.9
-112.08 -789.02 1729.2
-107.21 -786.23 1723.1
-95.92 -803.94 1761.9
-84.28 -824.11 1806.1
-68.06 -798.61 1750.2
-64.69 -813.20 1782.2
-44.80 -788.51 1728.1
-40.20 -786.07 1722.7
-36.13 -794.82 1741.9
-32.31 -812.28 1780.2
-28.37 -832.24 1823.9
-22.94 -807.36 1769.4
-17.76 -781.23 1712.1
-13.38 -784.98 1720.3
-8.93 -786.23 1723.1
0.00 -826.51 1811.3
4.69 -826.09 1810.4
9.11 -801.59 1756.7
22.06 -776.64 1702.1
27.31 -801.11 1755.7
32.69 -821.83 1801.1
37.47 -824.29 1806.5
42.19 -825.08 1808.2
46.12 -811.75 1779.0
49.59 -793.45 1738.9
55.14 -808.75 1772.4
60.84 -823.63 1805.0
64.85 -815.27 1786.7
67.99 -797.78 1748.4
70.37 -774.07 1696.4
80.04 -782.63 1715.2
84.93 -786.70 1724.1
91.32 -765.38 1677.4
97.58 -780.63 1710.8
105.68 -808.72 1772.3
112.13 -822.29 1802.1
116.08 -817.20 1790.9
121.87 -824.96 1807.9
128.38 -836.85 1834.0
128.77 -809.39 1773.8
136.72 -802.09 1757.8
142.20 -807.33 1769.3
147.09 -761.38 1668.6
155.00 -779.44 1708.2
159.48 -779.70 1708.8
164.14 -780.78 1711.1
178.09 -783.59 1717.3
183.46 -787.55 1726.0
186.12 -779.93 1709.3
186.67 -764.06 1674.5
191.38 -765.53 1677.7
197.69 -773.18 1694.5
205.27 -785.37 1721.2
215.63 -807.45 1769.6
222.86 -817.14 1790.8
223.08 -801.25 1756.0
220.89 -777.53 1704.0
222.86 -769.07 1685.5
263.96 -815.03 1786.2
261.73 -794.20 1740.5
261.33 -779.56 1708.5
269.46 -790.41 1732.2
282.79 -790.02 1731.4
295.24 -811.91 1779.4
293.84 -795.63 1743.7
297.95 -794.52 1741.2
302.18 -759.77 1665.1
320.91 -795.51 1743.4
324.14 -792.33 1736.4
341.48 -780.53 1710.6
353.37 -797.35 1747.4
375.60 -796.45 1745.5
369.85 -774.92 1698.3
373.89 -756.37 1657.6
383.70 -767.40 1681.8
435.51 -815.43 1787.1
440.14 -815.42 1787.0
426.00 -781.00 1711.6
433.98 -779.39 1708.1
427.04 -759.18 1663.8
441.46 -776.96 1702.8
472.49 -815.29 1786.7
467.66 -799.11 1751.3
481.95 -815.61 1787.5
471.03 -782.09 1714.0
460.78 -757.91 1661.0
461.36 -751.85 1647.7
499.11 -777.37 1703.7
500.63 -772.90 1693.9
492.94 -754.42 1653.3
513.99 -760.19 1666.0
520.71 -763.71 1673.7
533.78 -776.41 1701.6
538.41 -776.73 1702.2
526.60 -753.51 1651.4
544.02 -772.16 1692.2
560.50 -789.19 1729.6
553.80 -773.56 1695.3
553.24 -766.70 1680.3
549.43 -755.47 1655.7
587.86 -777.92 1704.9
602.43 -791.25 1734.1
596.90 -755.79 1656.4
665.07 -812.87 1781.4
646.56 -784.79 1719.9
651.25 -779.73 1708.8
672.07 -793.86 1739.8
664.41 -779.57 1708.5
671.02 -782.12 1714.1
677.66 -784.66 1719.6
679.57 -781.73 1713.2
683.40 -761.25 1668.3
710.72 -786.70 1724.1
735.46 -809.01 1773.0
723.51 -790.91 1733.3
695.56 -746.46 1635.9
718.11 -765.98 1678.7
726.99 -770.78 1689.2
740.67 -780.59 1710.7
763.30 -799.64 1752.5
754.63 -785.89 1722.3
761.65 -774.86 1698.2
729.73 -738.12 1617.6
753.38 -753.38 1651.1
788.23 -783.78 1717.7
767.91 -750.85 1645.5
804.50 -782.28 1714.4
826.01 -798.78 1750.6
837.06 -796.34 1745.2
848.89 -803.25 1760.4
831.33 -782.43 1714.7
800.59 -749.49 1642.5
903.04 -790.72 1732.9
880.03 -766.76 1680.4
861.82 -736.31 1613.7
868.83 -731.65 1603.4
889.93 -745.84 1634.6
917.15 -757.83 1660.8
924.29 -742.81 1627.9
942.82 -754.26 1653.0
986.42 -768.19 1683.5
987.46 -765.61 1677.9
979.47 -756.08 1657.0
965.21 -741.82 1625.7
963.22 -737.07 1615.3
981.28 -747.65 1638.5
1041.02 -757.10 1659.2
1021.43 -724.89 1588.6
1066.02 -753.49 1651.3
1065.64 -750.21 1644.1
1053.52 -738.72 1619.0
1061.22 -741.17 1624.3
1061.77 -738.62 1618.7
1066.91 -739.28 1620.2
1075.15 -742.07 1626.3
1083.41 -744.85 1632.4
1092.73 -748.33 1640.0
1157.07 -774.31 1697.0
1148.61 -765.74 1678.2
1108.28 -736.07 1613.1
1100.12 -727.90 1595.2
1087.63 -716.94 1571.2
1091.61 -716.88 1571.1
1141.13 -746.61 1636.2
1156.50 -753.87 1652.1
1156.94 -745.87 1634.6
1170.79 -746.59 1636.2
1143.69 -726.67 1592.5
1153.53 -722.49 1583.4
1148.07 -716.52 1570.3
1218.42 -752.43 1649.0
1275.60 -784.99 1720.3
1238.30 -759.38 1664.2
1166.87 -705.74 1546.7
1218.94 -734.71 1610.2
1261.00 -757.46 1660.0
1263.34 -756.28 1657.4
1212.55 -723.42 1585.4
1278.84 -750.25 1644.2
1312.36 -767.36 1681.7
1291.47 -752.64 1649.5
1251.27 -726.81 1592.8
1277.52 -727.65 1594.7
1255.43 -712.76 1562.1
1301.32 -731.73 1603.6
1338.52 -750.25 1644.2
1347.23 -752.74 1649.7
1376.88 -766.87 1680.6
1435.96 -797.25 1747.2
1458.66 -807.31 1769.3
1447.77 -798.77 1750.5
-1668.97 -940.79 2050.1
-1673.25 -946.21 2062.0
-1681.62 -954.00 2078.9
-1718.75 -984.53 2145.5
-1655.79 -951.54 2073.6
-1572.41 -921.58 2008.3
-1637.63 -966.20 2105.5
-1602.30 -948.52 2067.0
-1647.56 -978.59 2132.5
-1608.30 -958.48 2088.7
-1648.38 -989.03 2155.3
-1621.26 -976.07 2127.0
-1596.51 -964.44 2101.7
-1542.36 -934.93 2037.4
-1520.30 -931.12 2029.1
-1529.61 -940.07 2048.6
-1548.94 -955.27 2081.7
-1568.14 -970.49 2114.9
-1526.46 -948.01 2065.9
-1499.96 -934.83 2037.2
-1510.73 -961.87 2096.1
-1461.01 -933.57 2034.4
-1468.21 -941.57 2051.8
-1491.65 -960.08 2092.2
-1373.84 -894.00 1948.2
-1366.48 -892.50 1944.9
-1317.27 -863.54 1881.8
-1305.22 -858.83 1871.5
-1320.98 -872.44 1901.2
-1275.38 -845.48 1842.4
-1283.34 -857.18 1867.9
-1304.68 -874.73 1906.2
-1250.02 -841.27 1833.3
-1253.41 -846.77 1845.3
-1260.94 -855.12 1863.5
-1242.28 -845.70 1842.9
-1233.07 -842.67 1836.3
-1186.66 -823.68 1794.9
-1213.02 -845.29 1842.0
-1206.42 -844.02 1839.3
-1140.61 -801.14 1745.8
-1141.66 -811.54 1768.5
-1194.75 -852.71 1858.2
-1158.46 -830.15 1809.0
-1137.90 -818.73 1784.2
-1137.93 -822.10 1791.5
-1115.00 -808.83 1762.6
-1141.38 -831.37 1811.7
-1139.71 -837.05 1824.1
-1062.29 -783.44 1707.3
-1054.52 -780.96 1701.9
-1088.34 -809.39 1763.8
-1081.93 -808.02 1760.8
-1082.84 -822.59 1792.6
-1115.24 -850.85 1854.2
-1099.58 -842.54 1836.0
-1045.40 -804.50 1753.2
-1003.98 -800.47 1744.4
-1022.13 -818.63 1783.9
-1031.38 -829.79 1808.3
-1029.51 -832.07 1813.2
-1050.01 -852.53 1857.8
-1031.03 -844.87 1841.1
-1006.44 -828.56 1805.6
-1008.11 -833.81 1817.0
-979.68 -814.10 1774.1
-944.72 -788.75 1718.8
-946.05 -793.60 1729.4
-979.26 -825.37 1798.6
-994.50 -842.23 1835.4
-934.30 -806.69 1757.9
-930.60 -807.43 1759.5
-932.93 -813.44 1772.6
-940.79 -824.35 1796.4
-922.86 -812.67 1770.9
-900.77 -797.18 1737.2
-873.67 -784.97 1710.6
-883.43 -797.80 1738.5
-899.76 -816.70 1779.7
-844.62 -786.83 1714.6
-844.98 -791.33 1724.5
-827.30 -804.57 1753.3
-804.08 -808.65 1762.2
-791.41 -800.46 1744.3
-793.99 -807.68 1760.1
-785.93 -804.10 1752.3
-754.09 -808.94 1762.8
-771.39 -832.53 1814.2
-774.10 -840.59 1831.8
-731.44 -799.17 1741.5
-728.83 -806.27 1757.0
-743.44 -827.60 1803.5
-728.86 -816.51 1779.3
-734.18 -827.70 1803.7
-713.92 -825.90 1799.8
-704.72 -820.63 1788.3
-691.56 -810.64 1766.5
-692.82 -817.53 1781.5
-695.34 -826.00 1800.0
-665.82 -796.29 1735.3
-670.56 -818.55 1783.8
-657.15 -813.40 1772.5
-628.91 -783.92 1708.3
-641.63 -805.45 1755.2
-638.15 -806.81 1758.2
-643.92 -838.04 1826.2
-629.92 -825.90 1799.8
-604.60 -798.62 1740.3
-608.27 -809.50 1764.0
-620.73 -832.35 1813.8
-609.95 -824.13 1795.9
-584.61 -795.97 1734.6
-586.02 -804.07 1752.2
-583.59 -807.00 1758.6
-591.54 -851.25 1855.0
-562.24 -815.71 1777.6
-570.32 -834.26 1818.0
-564.05 -831.97 1813.0
-541.06 -804.77 1753.7
-538.45 -807.67 1760.1
-530.76 -802.94 1749.7
-521.79 -796.18 1735.0
-534.60 -822.82 1793.1
-549.72 -853.52 1860.0
-544.19 -852.41 1857.5
-519.28 -820.64 1788.3
-503.07 -809.48 1764.0
-521.91 -847.51 1846.9
-513.22 -841.12 1832.9
-507.78 -839.97 1830.4
-507.68 -847.72 1847.3
-480.35 -809.73 1764.5
-468.18 -796.80 1736.4
-463.69 -796.83 1736.4
-426.03 -777.39 1694.1
-432.74 -806.27 1757.0
-434.89 -818.88 1784.5
-410.52 -798.48 1740.0
-422.38 -830.68 1810.2
-381.92 -786.05 1712.9
-383.94 -799.50 1742.2
-374.93 -790.04 1721.6
-382.27 -825.14 1798.1
-396.33 -866.06 1887.3
-368.94 -826.62 1801.3
-325.67 -800.60 1744.6
-326.55 -814.07 1774.0
-321.10 -811.91 1769.3
-315.66 -809.75 1764.6
-319.59 -831.87 1812.8
-314.38 -830.53 1809.9
-287.51 -807.77 1760.3
-275.38 -786.18 1713.2
-267.19 -775.29 1689.5
-275.08 -811.48 1768.4
-281.60 -844.79 1840.9
-273.80 -835.55 1820.8
-260.91 -810.19 1765.5
-253.66 -801.75 1747.2
-245.09 -788.76 1718.8
-241.28 -805.78 1755.9
-245.43 -835.40 1820.5
-239.11 -829.84 1808.4
-232.49 -823.03 1793.5
-227.91 -823.25 1794.0
-223.54 -824.30 1796.3
-222.24 -836.95 1823.9
-215.53 -847.74 1847.4
-205.01 -824.72 1797.2
-192.84 -793.79 1729.8
-178.81 -811.54 1768.5
-174.80 -814.20 1774.3
-169.37 -810.22 1765.6
-163.30 -802.90 1749.7
-155.26 -785.18 1711.1
-152.21 -792.40 1726.8
-155.59 -834.54 1818.6
-153.84 -850.91 1854.3
-142.43 -813.21 1772.1
-136.59 -805.86 1756.1
-135.94 -829.71 1808.1
-128.11 -809.86 1764.8
-120.32 -788.76 1718.8
-119.30 -812.18 1769.9
-117.20 -829.79 1808.3
-111.29 -820.74 1788.5
-95.09 -801.47 1746.5
-93.44 -826.97 1802.1
-86.50 -805.81 1756.0
-82.25 -808.81 1762.5
-78.17 -813.89 1773.6
-68.99 -814.03 1773.9
-64.46 -814.93 1775.9
-53.62 -790.87 1723.4
-51.17 -823.44 1794.4
-47.40 -838.92 1828.1
-37.66 -833.16 1815.6
-32.31 -816.93 1780.2
-27.54 -812.37 1770.3
-13.84 -816.61 1779.5
26.92 -794.03 1730.3
32.28 -816.10 1778.4
36.45 -806.47 1757.4
40.39 -794.34 1731.0
44.81 -793.05 1728.2
48.97 -788.00 1717.2
53.31 -786.28 1713.5
57.53 -783.31 1707.0
62.38 -788.67 1718.7
66.62 -786.11 1713.1
80.64 -792.97 1728.0
86.95 -809.98 1765.1
90.52 -801.14 1745.8
95.04 -801.05 1745.6
96.40 -775.55 1690.1
98.98 -761.71 1659.9
108.75 -802.00 1747.7
116.44 -824.37 1796.5
116.37 -792.20 1726.3
135.53 -799.62 1742.5
140.82 -804.06 1752.2
142.86 -790.19 1722.0
147.30 -790.05 1721.7
153.01 -796.56 1735.8
159.13 -804.72 1753.6
162.12 -797.08 1737.0
165.11 -789.86 1721.2
176.60 -781.47 1703.0
185.11 -799.14 1741.5
189.39 -798.13 1739.3
191.43 -787.99 1717.2
208.92 -786.79 1714.6
217.02 -800.26 1743.9
218.39 -788.86 1719.1
219.16 -775.81 1690.6
272.14 -802.80 1749.5
268.33 -778.60 1696.7
287.80 -795.95 1734.5
298.10 -811.75 1768.9
299.04 -801.98 1747.7
301.89 -763.35 1663.5
314.83 -784.87 1710.4
327.34 -804.71 1753.6
338.40 -767.90 1673.4
338.38 -758.14 1652.1
338.63 -749.21 1632.7
364.30 -776.88 1693.0
365.03 -769.17 1676.2
360.57 -750.83 1636.2
387.39 -788.14 1717.5
393.90 -792.27 1726.5
393.67 -782.91 1706.1
399.77 -786.21 1713.3
411.77 -800.92 1745.4
424.57 -816.84 1780.0
435.61 -829.07 1806.7
442.24 -832.73 1814.7
431.21 -803.42 1750.8
420.53 -775.35 1689.6
451.93 -792.00 1725.9
442.61 -768.06 1673.7
439.62 -748.19 1630.4
447.20 -753.86 1642.8
446.85 -746.16 1626.0
478.63 -777.22 1693.7
485.50 -781.22 1702.4
493.18 -786.42 1713.7
508.31 -803.30 1750.5
516.15 -808.48 1761.8
507.96 -788.67 1718.6
490.66 -755.19 1645.7
502.01 -740.47 1613.6
537.69 -786.53 1714.0
553.67 -803.28 1750.5
551.46 -793.56 1729.3
555.31 -792.66 1727.3
558.02 -790.15 1721.9
552.45 -776.05 1691.2
551.60 -768.76 1675.3
592.86 -783.11 1706.5
635.95 -798.33 1739.7
648.10 -796.62 1736.0
623.36 -760.93 1658.2
673.07 -804.95 1754.1
667.84 -793.34 1728.8
657.50 -775.85 1690.7
664.07 -778.41 1696.3
669.66 -779.80 1699.3
669.15 -774.11 1686.9
680.71 -762.57 1661.8
706.95 -786.98 1715.0
734.83 -812.91 1771.5
725.72 -797.84 1738.6
747.56 -787.61 1716.3
780.94 -767.93 1673.4
855.42 -814.03 1773.9
861.69 -815.61 1777.4
831.52 -782.87 1706.0
796.98 -746.37 1626.5
835.03 -746.47 1626.7
863.97 -768.45 1674.6
875.58 -759.69 1655.5
904.28 -780.77 1701.4
865.94 -744.03 1621.4
910.96 -767.81 1673.2
909.54 -762.98 1662.7
935.19 -752.40 1639.6
940.38 -753.16 1641.3
996.48 -780.43 1700.7
998.97 -778.93 1697.4
984.40 -764.20 1665.3
947.72 -729.33 1589.3
954.73 -731.54 1594.2
962.23 -734.11 1599.8
968.30 -735.58 1603.0
1058.58 -774.25 1687.2
1045.97 -761.88 1660.3
1026.78 -729.88 1590.5
1059.43 -744.12 1621.6
1092.75 -764.49 1666.0
1078.98 -751.89 1638.5
1068.71 -741.81 1616.5
1074.37 -742.83 1618.7
1093.71 -738.88 1610.1
1116.22 -751.22 1637.0
1115.05 -747.59 1629.1
1088.73 -724.45 1578.7
1090.06 -722.63 1574.7
1169.12 -766.42 1670.2
1155.04 -743.43 1620.1
1193.43 -765.35 1667.8
1154.38 -737.63 1607.4
1162.23 -729.48 1589.7
1173.41 -733.90 1599.3
1200.19 -748.00 1630.0
1262.75 -784.24 1709.0
1275.30 -789.26 1719.9
1173.80 -709.09 1545.2
1186.19 -714.14 1556.2
1237.15 -732.36 1595.9
1243.37 -733.59 1598.6
1228.78 -722.57 1574.6
1233.23 -722.78 1575.1
1298.48 -743.79 1620.9
1284.71 -733.53 1598.5
1250.17 -711.51 1550.5
1285.33 -724.53 1578.9
1300.49 -730.75 1592.4
1351.52 -757.02 1649.7
1426.08 -796.27 1735.2
1439.16 -801.04 1745.6
1421.62 -788.80 1718.9
-1669.19 -937.27 2031.0
-1659.24 -934.63 2025.3
-1745.79 -986.51 2137.7
-1708.92 -968.75 2099.2
-1678.11 -954.32 2068.0
-1658.65 -946.28 2050.5
-1628.01 -931.79 2019.1
-1705.36 -979.21 2121.9
-1670.46 -984.58 2133.5
-1613.48 -957.33 2074.5
-1603.03 -963.98 2088.9
-1524.18 -932.32 2020.3
-1545.98 -948.91 2056.2
-1534.46 -945.10 2048.0
-1503.89 -929.49 2014.1
-1556.33 -982.36 2128.7
-1493.46 -946.03 2050.0
-1441.71 -933.18 2022.1
-1421.21 -923.27 2000.7
-1355.85 -890.56 1929.8
-1362.48 -898.22 1946.4
-1297.90 -865.26 1875.0
-1336.33 -894.24 1937.8
-1305.72 -877.05 1900.5
-1242.01 -843.81 1828.5
-1239.62 -845.41 1832.0
-1173.45 -828.87 1796.1
-1089.24 -778.66 1687.3
-1082.45 -776.92 1683.5
-1086.73 -783.15 1697.0
-1103.98 -798.82 1731.0
-1103.62 -801.81 1737.5
-1113.23 -818.82 1774.3
-1120.11 -827.30 1792.7
-1091.51 -809.53 1754.2
-1054.71 -785.52 1702.2
-1085.01 -814.90 1765.8
-1076.05 -825.59 1789.0
-1103.05 -849.97 1841.8
-1089.84 -843.44 1827.7
-1043.46 -811.07 1757.5
-1028.57 -803.01 1740.1
-1025.68 -815.05 1766.2
-1017.90 -812.50 1760.6
-1014.78 -813.66 1763.1
-1002.88 -807.75 1750.3
-979.99 -792.90 1718.2
-1024.45 -840.33 1820.9
-1027.95 -847.11 1835.6
-956.03 -795.21 1723.2
-952.47 -795.96 1724.8
-937.28 -786.96 1705.3
-941.26 -797.83 1728.8
-994.16 -846.70 1834.7
-988.12 -845.60 1832.4
-931.28 -800.81 1735.3
-940.73 -812.86 1761.4
-963.54 -836.63 1812.9
-949.77 -828.72 1795.8
-924.85 -810.95 1757.3
-906.54 -798.83 1731.0
-888.76 -787.06 1705.5
-867.25 -771.85 1672.5
-885.75 -792.28 1716.8
-910.83 -818.82 1774.3
-906.62 -819.18 1775.1
-928.38 -843.12 1827.0
-893.55 -819.86 1776.6
-879.61 -819.74 1776.3
-878.22 -822.76 1782.9
-836.56 -787.87 1707.3
-815.41 -780.34 1690.9
-831.69 -800.22 1734.0
-824.64 -806.52 1747.7
-817.28 -803.73 1741.6
-812.73 -812.73 1761.1
-820.38 -825.01 1787.7
-810.68 -819.89 1776.7
-780.84 -794.23 1721.0
-741.40 -794.99 1722.7
-733.54 -791.33 1714.8
-726.07 -788.05 1707.6
-732.96 -800.41 1734.4
-726.32 -813.11 1762.0
-746.71 -841.23 1822.9
-740.47 -839.52 1819.2
-714.26 -814.98 1766.0
-700.28 -804.19 1742.6
-725.25 -838.28 1816.5
-732.61 -852.32 1846.9
-705.12 -825.73 1789.3
-688.61 -811.74 1759.0
-688.55 -817.08 1770.6
-693.40 -828.36 1795.0
-666.55 -801.67 1737.2
-672.10 -842.49 1825.6
-663.74 -837.92 1815.7
-639.15 -812.64 1760.9
-641.56 -821.57 1780.3
-638.93 -824.13 1785.8
-618.78 -803.96 1742.1
-614.68 -804.51 1743.3
-627.84 -827.82 1793.8
-630.53 -837.57 1815.0
-617.88 -826.94 1791.9
-615.73 -830.30 1799.2
-611.47 -830.85 1800.4
-591.11 -809.36 1753.8
-581.42 -802.27 1738.5
-568.93 -791.16 1714.4
-579.46 -831.81 1802.5
-526.56 -781.07 1692.5
-532.66 -810.37 1756.0
-533.96 -819.35 1775.5
-512.68 -793.54 1719.6
-495.83 -802.35 1738.6
-512.98 -837.71 1815.3
-502.15 -827.63 1793.4
-481.91 -801.68 1737.2
-466.05 -782.61 1695.9
-459.02 -793.26 1718.9
-448.04 -781.87 1694.3
-431.64 -792.08 1716.4
-442.84 -821.10 1779.3
-450.67 -844.41 1829.8
-453.28 -858.33 1859.9
-442.26 -846.48 1834.3
-420.79 -814.13 1764.2
-405.10 -792.40 1717.1
-400.01 -791.14 1714.3
-392.01 -820.92 1778.9
-385.25 -816.36 1769.0
-394.79 -856.99 1857.0
-325.17 -792.89 1718.1
-326.53 -807.24 1749.2
-302.86 -781.28 1693.0
-310.75 -813.43 1762.6
-306.29 -813.73 1763.3
-290.31 -782.96 1696.6
-285.48 -806.58 1747.8
-277.72 -797.32 1727.7
-265.23 -773.94 1677.1
-268.38 -796.19 1725.3
-271.01 -817.61 1771.7
-259.60 -796.70 1726.4
-252.54 -788.64 1708.9
-244.39 -820.77 1778.6
-243.98 -835.15 1809.7
-236.85 -826.65 1791.3
-229.46 -816.89 1770.1
-224.36 -815.03 1766.1
-219.73 -814.83 1765.7
-208.61 -790.05 1712.0
-200.04 -791.28 1714.7
-197.40 -798.56 1730.4
-190.94 -790.41 1712.8
-181.68 -808.48 1751.9
-179.00 -817.00 1770.4
-154.29 -784.67 1700.3
-150.39 -787.33 1706.1
-149.09 -804.18 1742.6
-143.17 -796.39 1725.7
-139.08 -798.62 1730.5
-140.04 -830.93 1800.6
-138.19 -848.21 1838.0
-129.37 -822.42 1782.1
-114.21 -813.16 1762.1
-112.19 -832.09 1803.1
-106.72 -825.93 1789.7
-101.06 -817.66 1771.8
-92.92 -787.63 1706.7
-72.04 -801.43 1736.6
-68.64 -814.48 1764.9
-64.16 -815.80 1767.8
-54.21 -804.19 1742.6
-50.99 -825.18 1788.1
-46.67 -830.68 1800.0
-41.98 -830.30 1799.2
-35.42 -788.03 1707.6
-17.81 -792.74 1717.8
-14.01 -831.31 1801.4
-9.05 -805.76 1746.0
8.83 -785.65 1702.4
12.99 -770.55 1669.7
17.33 -771.37 1671.5
21.86 -778.06 1686.0
26.73 -793.12 1718.6
31.60 -803.56 1741.3
45.16 -803.87 1741.9
49.23 -796.70 1726.4
53.45 -792.88 1718.1
65.78 -780.56 1691.4
86.10 -806.64 1747.9
90.67 -806.97 1748.6
94.65 -802.27 1738.5
95.53 -772.89 1674.8
105.31 -781.06 1692.5
111.86 -796.43 1725.8
121.35 -771.41 1671.6
135.18 -802.09 1738.1
139.74 -802.38 1738.7
141.22 -785.52 1702.2
147.85 -797.50 1728.1
156.05 -816.98 1770.3
160.45 -815.99 1768.2
161.62 -799.13 1731.7
165.90 -798.14 1729.5
167.41 -784.20 1699.3
183.30 -795.78 1724.4
197.62 -781.70 1693.9
210.90 -816.08 1768.4
222.80 -793.17 1718.7
226.00 -788.79 1709.3
243.70 -788.71 1709.1
247.14 -785.56 1702.3
265.78 -801.84 1737.5
275.51 -817.35 1771.1
275.75 -804.64 1743.6
265.88 -763.32 1654.1
271.98 -768.45 1665.2
291.10 -809.62 1754.4
302.65 -828.80 1796.0
304.44 -821.06 1779.2
308.85 -808.46 1751.9
316.64 -816.85 1770.1
319.65 -812.82 1761.3
316.18 -792.68 1717.7
311.82 -770.89 1670.5
329.99 -783.18 1697.1
339.19 -794.41 1721.4
335.32 -755.52 1637.2
350.52 -779.91 1690.0
345.76 -759.81 1646.5
350.53 -751.75 1629.0
367.10 -768.74 1665.8
386.52 -800.01 1733.6
405.08 -828.79 1795.9
409.75 -828.81 1796.0
400.88 -801.77 1737.4
398.77 -788.68 1709.0
407.41 -796.91 1726.8
416.13 -805.12 1744.6
427.72 -818.64 1773.9
435.56 -824.78 1787.3
431.03 -807.61 1750.0
425.42 -788.81 1709.3
440.63 -784.33 1699.6
456.83 -805.11 1744.6
436.83 -762.31 1651.9
442.30 -757.01 1640.4
455.67 -772.46 1673.9
461.21 -774.48 1678.2
487.13 -795.50 1723.8
500.85 -810.46 1756.2
493.99 -792.16 1716.6
493.82 -784.81 1700.6
505.13 -795.70 1724.2
501.01 -782.28 1695.1
498.57 -771.70 1672.2
506.11 -763.45 1654.4
518.84 -763.26 1653.9
515.08 -751.51 1628.5
531.21 -768.74 1665.8
552.00 -792.39 1717.1
559.49 -796.71 1726.4
559.06 -789.78 1711.4
549.67 -770.40 1669.4
597.14 -793.22 1718.9
594.84 -772.86 1674.7
596.60 -769.53 1667.5
595.64 -757.32 1641.1
624.36 -788.21 1708.0
638.18 -799.97 1733.5
654.37 -756.34 1638.9
683.48 -784.90 1700.8
695.30 -793.35 1719.1
672.53 -762.48 1652.2
670.71 -755.61 1637.4
679.70 -760.92 1648.9
691.20 -768.96 1666.3
722.62 -798.92 1731.2
740.08 -813.17 1762.1
732.60 -800.02 1733.6
717.06 -778.28 1686.5
729.66 -759.53 1645.9
741.21 -767.07 1662.2
749.43 -771.09 1670.9
762.24 -779.76 1689.7
763.70 -776.79 1683.3
784.90 -784.90 1700.8
788.66 -775.59 1680.7
762.81 -746.05 1616.6
803.34 -772.94 1674.9
840.28 -804.13 1742.5
841.85 -792.85 1718.1
875.15 -782.80 1696.3
881.73 -784.74 1700.5
877.92 -762.29 1651.8
929.20 -795.18 1723.1
915.58 -779.77 1689.7
920.39 -776.44 1682.5
922.99 -774.96 1679.3
892.40 -745.76 1616.0
886.75 -737.58 1598.3
904.00 -738.13 1599.5
911.86 -741.15 1606.0
936.76 -757.93 1642.4
950.27 -765.37 1658.5
931.88 -747.18 1619.1
966.60 -761.30 1649.7
968.98 -759.82 1646.5
997.94 -772.32 1673.6
999.86 -770.46 1669.5
1035.38 -790.97 1714.0
1025.73 -776.94 1683.6
994.40 -740.60 1604.8
1018.21 -755.17 1636.4
1009.58 -745.67 1615.8
1007.80 -741.27 1606.3
1025.34 -751.07 1627.5
1023.30 -740.44 1604.5
1005.80 -724.83 1570.7
1100.65 -774.37 1678.0
1122.84 -786.88 1705.1
1096.25 -765.22 1658.2
1101.51 -762.91 1653.2
1092.19 -753.52 1632.8
1099.63 -744.24 1612.7
1086.29 -732.42 1587.1
1175.27 -774.81 1679.0
1164.20 -761.86 1650.9
1178.15 -762.58 1652.5
1210.04 -780.39 1691.0
1213.66 -779.90 1690.0
1200.85 -768.89 1666.1
1173.68 -748.80 1622.6
1157.35 -735.74 1594.3
1154.16 -731.10 1584.3
1158.12 -731.01 1584.1
1176.49 -739.98 1603.5
1212.15 -759.73 1646.3
1215.60 -738.49 1600.3
1237.19 -749.05 1623.1
1234.90 -745.12 1614.6
1236.57 -743.61 1611.4
1233.65 -739.36 1602.1
1251.37 -747.46 1619.7
1274.32 -758.63 1643.9
1259.28 -747.18 1619.1
1243.00 -735.06 1592.8
1247.48 -735.27 1593.3
1252.55 -735.82 1594.5
1266.92 -741.82 1607.5
1231.18 -718.52 1557.0
1271.42 -734.78 1592.2
1325.29 -763.44 1654.3
1306.87 -750.40 1626.1
1257.64 -719.80 1559.8
1289.27 -730.86 1583.7
1252.61 -707.82 1533.8
1400.91 -781.70 1693.9
-1618.73 -922.78 1988.4
-1718.53 -982.80 2117.8
-1686.57 -967.61 2085.0
-1651.17 -950.35 2047.8
-1644.17 -949.38 2045.7
-1555.81 -919.11 1980.5
-1631.73 -967.15 2084.0
-1523.72 -918.34 1978.9
-1547.69 -935.93 2016.8
-1598.88 -970.17 2090.5
-1527.54 -930.03 2004.1
-1555.64 -960.21 2069.1
-1581.21 -979.36 2110.4
-1576.33 -979.74 2111.2
-1589.92 -991.62 2136.8
-1589.46 -994.80 2143.6
-1577.27 -990.64 2134.7
-1561.78 -984.36 2121.1
-1534.88 -977.74 2106.9
-1513.47 -967.54 2084.9
-1461.34 -951.20 2049.7
-1446.76 -945.14 2036.6
-1353.34 -887.35 1912.1
-1323.42 -870.93 1876.7
-1358.12 -897.06 1933.0
-1366.88 -906.19 1952.7
-1298.04 -863.75 1861.2
-1270.95 -858.49 1849.9
-1228.98 -833.29 1795.6
-1224.04 -833.09 1795.2
-1209.65 -826.44 1780.8
-1218.37 -855.24 1842.9
-1200.58 -849.42 1830.4
-1153.22 -819.15 1765.1
-1119.84 -798.61 1720.9
-1099.30 -803.16 1730.7
-1088.46 -798.50 1720.6
-1109.91 -817.59 1761.8
-1107.95 -819.51 1765.9
-1078.89 -804.67 1733.9
-1060.29 -794.11 1711.2
-1086.70 -817.31 1761.2
-1133.85 -856.37 1845.3
-1099.14 -833.67 1796.4
-1024.98 -787.43 1696.8
-1038.83 -801.51 1727.1
-1054.95 -817.47 1761.5
-1074.25 -836.05 1801.5
-1060.68 -829.09 1786.5
-1038.65 -815.43 1757.1
-988.24 -786.20 1694.1
-1037.47 -829.05 1786.5
-1041.27 -835.82 1801.0
-1008.44 -813.11 1752.1
-941.83 -776.90 1674.1
-939.10 -785.51 1692.6
-922.60 -775.33 1670.7
-929.00 -791.86 1706.3
-982.34 -841.33 1812.9
-1001.01 -865.60 1865.2
-951.31 -826.63 1781.2
-916.13 -803.86 1732.2
-902.57 -795.86 1714.9
-898.72 -800.35 1724.6
-884.61 -795.71 1714.6
-928.66 -839.55 1809.1
-913.39 -834.17 1797.5
-837.91 -785.27 1692.1
-866.89 -816.71 1759.9
-857.81 -812.42 1750.6
-824.85 -789.56 1701.4
-829.96 -798.73 1721.1
