ply
format ascii 1.0
element vertex 2036
property float x
property float y
property float z
end_header
-1161.34 1207.01 2516.5
-1150.80 1202.81 2507.8
-1144.86 1203.40 2509.0
-1121.87 1185.98 2472.7
-1097.91 1167.32 2433.8
-1107.49 1184.31 2469.2
-1114.29 1198.51 2498.8
-1092.00 1181.41 2463.2
-1090.55 1186.78 2474.4
-1118.44 1224.33 2552.7
-1128.06 1242.21 2589.9
-1119.33 1239.97 2585.3
-1104.46 1230.88 2566.3
-1078.16 1208.85 2520.4
-1093.94 1234.02 2572.9
-1124.44 1276.20 2660.8
-1084.05 1237.96 2581.1
-1083.40 1268.54 2644.8
-1084.25 1277.62 2663.8
-1081.59 1282.65 2674.3
-1074.10 1281.99 2672.9
-1168.00 1193.96 2502.9
-1169.05 1201.71 2519.1
-1191.17 1231.32 2581.2
-1162.89 1208.88 2534.1
-1141.28 1193.15 2501.2
-1135.35 1193.74 2502.4
-1126.01 1190.73 2496.1
-1120.46 1191.70 2498.1
-1111.90 1189.47 2493.5
-1127.87 1213.62 2544.1
-1135.60 1236.39 2591.8
-1086.97 1190.50 2495.6
-1072.63 1181.82 2477.4
-1080.57 1212.35 2541.4
-1084.44 1239.36 2598.0
-1095.01 1259.26 2639.8
-1109.23 1283.63 2690.8
-1099.97 1280.98 2685.3
-1092.80 1280.74 2684.8
-1079.46 1273.21 2669.0
-1055.62 1253.12 2626.9
-1052.99 1258.11 2637.3
-1065.80 1281.75 2686.9
-1047.22 1267.69 2657.4
-1032.77 1258.48 2638.1
-1039.93 1275.65 2674.1
-1042.97 1287.96 2699.9
-1182.99 1202.70 2535.0
-1171.21 1197.38 2523.8
-1194.89 1228.45 2589.2
-1169.25 1208.88 2548.0
-1157.12 1203.15 2535.9
-1160.22 1213.26 2557.2
-1125.85 1184.09 2495.7
-1111.74 1182.84 2493.1
-1101.99 1193.28 2515.1
-1093.60 1227.79 2587.8
-1109.66 1269.18 2675.1
-1074.96 1237.21 2607.7
-1089.49 1261.88 2659.7
-1086.60 1274.67 2686.6
-1056.22 1247.02 2628.4
-1038.03 1258.01 2651.5
-1052.80 1284.41 2707.2
-1216.33 1236.71 2621.0
-1175.23 1208.43 2561.0
-1158.88 1198.38 2539.7
-1174.88 1221.88 2589.5
-1152.51 1205.50 2554.8
-1100.96 1158.24 2454.7
-1098.11 1161.95 2462.5
-1069.93 1194.64 2531.8
-1078.75 1211.93 2568.5
-1105.77 1250.00 2649.1
-1091.67 1241.78 2631.7
-1087.08 1244.33 2637.1
-1087.90 1269.22 2689.9
-1076.97 1264.57 2680.0
-1074.90 1270.33 2692.2
-1057.57 1258.03 2666.1
-1045.73 1252.13 2653.6
-1051.97 1267.94 2687.2
-1218.85 1225.63 2611.8
-1198.38 1211.77 2582.3
-1197.31 1217.49 2594.5
-1175.08 1201.64 2560.7
-1140.78 1173.19 2500.1
-1139.41 1178.48 2511.4
-1157.28 1203.83 2565.4
-1145.55 1198.52 2554.1
-1095.69 1153.02 2457.1
-1077.46 1174.83 2503.6
-1087.71 1193.19 2542.7
-1076.22 1187.78 2531.2
-1054.07 1170.47 2494.3
-1072.94 1198.78 2554.6
-1108.86 1246.60 2656.5
-1111.61 1257.51 2679.8
-1088.44 1254.83 2674.1
-1074.42 1246.61 2656.5
-1083.32 1273.26 2713.3
-1059.18 1253.02 2670.2
-1043.64 1242.75 2648.3
-1046.89 1254.88 2674.2
-1052.02 1269.43 2705.2
-1033.89 1255.93 2676.4
-1030.98 1260.86 2686.9
-1231.50 1224.69 2624.3
-1197.29 1197.29 2565.6
-1204.44 1211.17 2595.4
-1194.86 1222.02 2618.6
-1162.06 1195.26 2561.3
-1148.05 1187.63 2544.9
-1158.20 1205.06 2582.3
-1131.47 1184.09 2537.3
-1100.08 1157.98 2481.4
-1108.26 1173.45 2514.5
-1100.42 1172.04 2511.5
-1077.90 1154.89 2474.8
-1081.47 1165.66 2497.8
-1094.38 1186.68 2542.9
-1102.39 1202.60 2577.0
-1090.46 1196.85 2564.7
-1080.73 1193.44 2557.4
-1107.31 1230.34 2636.5
-1116.19 1247.92 2674.1
-1093.58 1230.28 2636.3
-1052.59 1191.62 2553.5
-1031.60 1182.73 2534.4
-1076.05 1241.60 2660.6
-1081.26 1255.66 2690.7
-1062.84 1242.29 2662.0
-1042.87 1226.90 2629.1
-1035.11 1233.91 2644.1
-1041.65 1249.98 2678.5
-1036.79 1252.49 2683.9
-1214.28 1207.54 2602.0
-1220.97 1220.97 2631.0
-1213.62 1220.44 2629.8
-1169.77 1182.99 2549.1
-1188.61 1208.87 2604.9
-1193.49 1220.77 2630.6
-1153.95 1187.10 2558.0
-1138.46 1177.94 2538.3
-1147.06 1193.74 2572.3
-1151.02 1204.87 2596.3
-1119.23 1178.48 2539.4
-1083.86 1161.74 2503.4
-1110.60 1197.57 2580.6
-1119.61 1229.51 2649.4
-1116.81 1234.01 2659.1
-1096.62 1219.23 2627.2
-1049.10 1173.68 2529.1
-1041.87 1195.47 2576.0
-1045.90 1207.85 2602.7
-1042.32 1211.53 2610.6
-1037.01 1213.24 2614.3
-1033.36 1216.92 2622.2
-1047.07 1241.23 2674.6
-1039.24 1240.16 2672.3
-1018.85 1223.99 2637.5
-1003.88 1214.15 2616.3
-1206.64 1180.12 2557.2
-1197.92 1191.23 2581.3
-1148.41 1168.10 2531.2
-1169.70 1196.59 2592.9
-1135.28 1168.09 2531.2
-1124.01 1163.22 2520.6
-1131.83 1178.17 2553.0
-1104.95 1156.95 2507.0
-1090.84 1148.93 2489.7
-1114.31 1180.64 2558.4
-1111.13 1184.32 2566.3
-1113.73 1194.25 2587.9
-1110.18 1212.35 2627.1
-1092.84 1200.77 2602.0
-1067.09 1179.77 2556.5
-1030.36 1175.67 2547.6
-1022.14 1173.81 2543.6
-1005.75 1162.48 2519.0
-1033.85 1202.78 2606.4
-1065.93 1248.26 2704.9
-1010.48 1191.16 2581.2
-970.85 1183.64 2564.9
-1222.00 1175.51 2561.7
-1209.67 1170.01 2549.7
-1200.15 1167.18 2543.5
-1202.42 1175.85 2562.4
-1221.00 1200.65 2616.4
-1200.48 1187.06 2586.8
-1177.76 1171.14 2552.1
-1145.95 1145.95 2497.2
-1143.00 1162.71 2533.7
-1122.65 1148.60 2503.0
-1114.82 1147.23 2500.0
-1126.44 1165.96 2540.8
-1120.76 1166.91 2542.9
-1127.66 1181.04 2573.7
-1132.93 1193.62 2601.1
-1109.88 1176.34 2563.5
-1084.09 1155.92 2519.0
-1075.15 1153.35 2513.3
-1083.91 1169.83 2549.3
-1081.02 1173.87 2558.1
-1078.80 1178.69 2568.6
-1067.66 1173.76 2557.8
-1039.98 1150.48 2507.1
-1028.67 1145.12 2495.4
-1046.72 1172.59 2555.3
-1087.73 1226.30 2672.3
-1076.45 1221.36 2661.6
-1025.77 1171.36 2552.6
-1008.67 1159.31 2526.3
-1035.09 1197.46 2609.5
-1017.39 1192.57 2598.8
-959.65 1155.50 2518.0
-972.68 1179.21 2569.7
-981.59 1198.22 2611.1
-955.92 1174.99 2560.5
-1197.20 1157.73 2537.2
-1197.14 1164.07 2551.1
-1212.25 1185.31 2597.7
-1205.37 1185.17 2597.4
-1195.39 1181.96 2590.3
-1174.65 1168.01 2559.8
-1157.49 1184.41 2595.7
-1135.65 1182.68 2591.9
-1098.90 1151.22 2523.0
-1099.10 1158.33 2538.6
-1097.41 1163.51 2549.9
-1089.49 1162.12 2546.9
-1097.82 1178.15 2582.0
-1081.58 1167.84 2559.4
-1066.51 1158.68 2539.3
-1088.10 1189.47 2606.8
-1094.90 1204.39 2639.5
-1060.81 1174.23 2573.4
-1056.00 1176.30 2577.9
-1091.10 1223.14 2680.6
-1076.00 1213.95 2660.4
-1042.80 1184.08 2595.0
-1040.61 1189.27 2606.4
-1014.61 1167.13 2557.8
-993.88 1150.81 2522.1
-1017.61 1186.09 2599.4
-1002.28 1176.01 2577.3
-974.56 1158.93 2539.9
-977.53 1170.37 2564.9
-969.96 1169.26 2562.5
-977.60 1186.61 2600.5
-1199.37 1153.24 2541.8
-1190.66 1151.19 2537.3
-1212.47 1178.79 2598.1
-1212.98 1185.88 2613.8
-1166.55 1146.89 2527.8
-1146.94 1140.42 2513.6
-1187.96 1187.96 2618.4
-1133.14 1139.65 2511.9
-1136.25 1149.39 2533.3
-1166.36 1186.70 2615.6
-1163.90 1191.13 2625.3
-1142.90 1183.48 2608.5
-1099.09 1144.88 2523.4
-1093.06 1145.42 2524.6
-1104.17 1164.04 2565.6
-1109.29 1176.52 2593.1
-1115.36 1190.17 2623.2
-1094.36 1174.92 2589.6
-1054.56 1139.19 2510.9
-1052.79 1144.33 2522.2
-1090.89 1193.16 2629.8
-1087.72 1197.18 2638.7
-1032.09 1143.14 2519.6
-1019.40 1136.27 2504.4
-1027.85 1153.04 2541.4
-1022.39 1154.31 2544.2
-1003.24 1140.04 2512.7
-1002.71 1162.08 2561.3
-1010.83 1179.30 2599.3
-997.87 1171.99 2583.2
-994.54 1175.98 2591.9
-986.91 1174.89 2589.5
-976.34 1170.28 2579.4
-981.37 1184.42 2610.5
-990.11 1203.26 2652.1
-989.88 1228.58 2707.9
-960.26 1235.63 2723.4
-1239.48 1184.99 2626.8
-1207.37 1160.68 2572.9
-1207.60 1167.34 2587.7
-1185.55 1152.43 2554.6
-1156.34 1143.20 2534.2
-1151.96 1158.62 2568.4
-1129.30 1142.44 2532.5
-1127.03 1146.81 2542.2
-1135.53 1162.25 2576.4
-1139.04 1172.74 2599.7
-1126.21 1166.43 2585.7
-1091.41 1137.16 2520.8
-1074.79 1126.59 2497.4
-1081.89 1140.90 2529.1
-1090.29 1156.77 2564.3
-1097.44 1171.50 2596.9
-1083.35 1163.60 2579.4
-1051.55 1136.46 2519.2
-1056.80 1149.27 2547.6
-1072.82 1174.03 2602.5
-1038.92 1144.13 2536.2
-1023.05 1133.83 2513.4
-1028.39 1147.05 2542.7
-1028.43 1154.49 2559.2
-1015.39 1147.26 2543.2
-999.36 1136.52 2519.4
-1025.01 1173.37 2601.1
-1041.89 1200.59 2661.4
-1022.40 1185.98 2629.0
-981.46 1146.14 2540.7
-983.17 1163.75 2579.7
-1012.75 1206.97 2675.6
-1006.22 1207.46 2676.6
-974.56 1185.83 2628.7
-947.44 1169.18 2591.8
-965.04 1225.67 2717.0
-1256.11 1162.07 2590.9
-1250.89 1163.46 2594.0
-1236.43 1156.23 2577.9
-1236.93 1175.77 2621.4
-1186.71 1134.26 2528.9
-1183.13 1137.11 2535.3
-1160.01 1121.12 2499.6
-1148.37 1148.37 2560.4
-1149.09 1155.77 2576.9
-1168.47 1182.14 2635.7
-1158.12 1178.55 2627.7
-1144.82 1171.92 2612.9
-1143.40 1177.43 2625.2
-1118.78 1158.98 2584.0
-1097.26 1143.53 2549.6
-1099.89 1153.22 2571.2
-1081.80 1141.17 2544.3
-1061.67 1126.81 2512.3
-1095.72 1170.12 2608.8
-1110.45 1193.22 2660.4
-1058.41 1144.40 2551.5
-1021.60 1118.59 2494.0
-1040.29 1146.31 2555.8
-1058.35 1173.68 2616.8
-1014.19 1161.96 2590.7
-1003.88 1157.81 2581.4
-970.67 1127.02 2512.8
-998.47 1175.07 2619.9
-1005.46 1191.41 2656.3
-976.27 1164.79 2597.0
-948.96 1140.07 2541.8
-979.62 1210.53 2699.0
-964.09 1226.38 2734.3
-1283.45 1168.01 2619.3
-1245.38 1145.49 2568.8
-1226.51 1134.19 2543.5
-1180.20 1121.51 2515.0
-1141.04 1108.81 2486.5
-1134.54 1127.98 2529.5
-1131.18 1131.18 2536.7
-1172.82 1179.68 2645.5
-1153.23 1180.69 2647.7
-1124.13 1157.79 2596.4
-1096.72 1136.36 2548.3
-1084.07 1130.07 2534.2
-1052.67 1104.02 2475.8
-1056.17 1121.36 2514.7
-1109.61 1185.42 2658.3
-1096.50 1178.74 2643.3
-1041.17 1126.30 2525.8
-1029.82 1121.07 2514.0
-1041.52 1141.03 2558.8
-1050.93 1158.72 2598.5
-1045.00 1159.61 2600.5
-1029.80 1150.17 2579.3
-1052.16 1182.82 2652.5
-1003.95 1143.58 2564.5
-977.30 1120.64 2513.1
-987.15 1139.52 2555.4
-1014.98 1179.57 2645.2
-981.50 1156.29 2593.0
-963.80 1143.26 2563.8
-948.16 1132.53 2539.7
-937.69 1143.85 2565.1
-968.52 1189.90 2668.4
-978.54 1210.85 2715.4
-963.41 1218.43 2732.4
-1255.21 1141.70 2575.3
-1252.87 1145.67 2584.2
-1257.75 1156.32 2608.2
-1233.21 1139.88 2571.2
-1226.01 1139.39 2570.1
-1232.41 1164.32 2626.3
-1187.80 1128.41 2545.3
-1193.15 1139.83 2571.0
-1208.48 1160.96 2618.7
-1201.86 1174.38 2649.0
-1174.64 1154.39 2603.9
-1144.58 1131.35 2551.9
-1120.41 1113.90 2512.6
-1138.48 1138.48 2568.0
-1146.96 1153.71 2602.3
-1125.90 1139.23 2569.7
-1116.83 1136.77 2564.1
-1086.42 1112.44 2509.3
-1089.58 1122.40 2531.7
-1111.20 1151.61 2597.6
-1055.00 1100.03 2481.3
-1050.62 1122.85 2532.7
-1029.71 1107.42 2497.9
-1041.21 1126.88 2541.8
-1077.98 1174.10 2648.3
-1046.62 1147.26 2587.8
-1001.75 1105.15 2492.8
-1007.70 1118.94 2523.9
-1051.35 1175.04 2650.5
-1049.68 1180.89 2663.7
-1001.44 1134.08 2558.1
-982.83 1120.42 2527.3
-1001.64 1149.54 2592.9
-996.32 1151.16 2596.6
-968.28 1126.36 2540.7
-955.20 1118.76 2523.5
-959.43 1131.46 2552.2
-972.56 1154.92 2605.1
-965.86 1154.98 2605.2
-947.36 1140.83 2573.3
-966.08 1171.63 2642.8
-1259.96 1145.42 2598.8
-1223.35 1124.16 2550.6
-1258.20 1162.47 2637.5
-1241.30 1153.12 2616.3
-1193.17 1114.50 2528.7
-1198.69 1125.84 2554.4
-1229.61 1161.30 2634.9
-1204.37 1169.96 2654.5
-1180.94 1153.79 2617.9
-1147.80 1127.90 2559.1
-1119.82 1106.80 2511.2
-1138.67 1132.01 2568.4
-1150.52 1150.52 2610.4
-1093.71 1100.18 2496.2
-1068.54 1087.73 2468.0
-1118.70 1145.65 2599.4
-1125.61 1159.72 2631.3
-1055.15 1093.75 2481.6
-1033.40 1097.99 2491.2
-1088.45 1163.76 2640.5
-1045.07 1138.86 2584.0
-1019.85 1118.54 2537.9
-1048.36 1157.28 2625.8
-1021.54 1135.04 2575.3
-998.75 1131.92 2568.2
-997.16 1137.70 2581.3
-973.65 1118.38 2537.5
-962.19 1112.74 2524.7
-964.20 1122.70 2547.3
-975.21 1143.35 2594.2
-997.00 1177.01 2670.5
-979.22 1164.11 2641.3
-950.09 1137.43 2580.7
-949.47 1144.75 2597.3
-962.95 1169.29 2653.0
-974.60 1191.95 2704.4
-962.35 1185.51 2689.8
-935.34 1160.64 2633.4
-1308.02 1151.33 2627.7
-1279.23 1156.09 2638.6
-1244.41 1130.68 2580.6
-1268.42 1165.02 2659.0
-1201.65 1109.72 2532.7
-1193.27 1120.34 2557.0
-1189.61 1123.15 2563.4
-1162.56 1103.78 2519.2
-1149.65 1097.69 2505.3
-1185.00 1137.87 2597.0
-1182.18 1154.84 2635.7
-1130.57 1110.85 2535.3
-1128.32 1115.12 2545.1
-1146.60 1139.86 2601.5
-1096.85 1096.85 2503.4
-1087.48 1100.51 2511.7
-1096.15 1115.96 2547.0
-1060.15 1085.85 2478.3
-1082.88 1115.89 2546.8
-1083.99 1144.96 2613.2
-1075.25 1157.43 2641.6
-1011.56 1095.86 2501.1
-1021.74 1114.03 2542.6
-1027.26 1127.32 2572.9
-1000.94 1127.72 2573.8
-989.34 1122.14 2561.1
-997.69 1139.25 2600.2
-1018.71 1171.17 2673.0
-990.03 1170.04 2670.4
-957.93 1140.08 2602.0
-954.41 1143.94 2610.9
-946.42 1142.47 2607.5
-935.94 1137.94 2597.2
-959.14 1174.60 2680.8
-969.87 1196.41 2730.6
-930.27 1156.00 2638.4
-922.24 1154.50 2635.0
-1295.35 1133.43 2602.3
-1287.69 1132.63 2600.4
-1300.21 1149.66 2639.5
-1300.25 1155.78 2653.6
-1250.05 1117.07 2564.7
-1231.10 1106.01 2539.3
-1252.28 1131.09 2596.9
-1247.28 1145.05 2628.9
-1189.93 1098.40 2521.8
-1187.58 1102.28 2530.7
-1202.88 1122.69 2577.6
-1221.89 1146.80 2633.0
-1216.49 1148.15 2636.1
-1182.77 1122.63 2577.5
-1201.01 1146.42 2632.1
-1188.98 1147.98 2635.7
-1186.94 1152.64 2646.4
-1151.55 1124.77 2582.4
-1102.88 1083.53 2487.7
-1098.86 1092.36 2508.0
-1128.12 1128.12 2590.1
-1120.48 1127.19 2587.9
-1095.59 1108.79 2545.7
-1071.25 1090.73 2504.2
-1103.75 1130.67 2595.9
-1108.32 1156.51 2655.2
-1084.89 1139.13 2615.4
-1027.34 1085.50 2492.2
-1037.09 1116.87 2564.2
-1031.93 1118.48 2567.9
-1021.94 1114.84 2559.6
-1014.03 1113.44 2556.4
-1011.23 1117.67 2566.1
-996.55 1108.75 2545.6
-976.60 1093.79 2511.2
-971.81 1095.74 2515.7
-986.59 1119.91 2571.2
-1009.02 1153.16 2647.6
-1012.40 1164.95 2674.6
-1004.90 1164.30 2673.1
-982.18 1145.88 2630.8
-973.50 1143.69 2625.8
-975.70 1154.35 2650.3
-966.98 1152.15 2645.2
-952.92 1143.50 2625.4
-940.51 1136.73 2609.8
-961.52 1170.55 2687.5
-932.30 1151.67 2644.1
-1284.57 1123.16 2594.1
-1271.57 1117.64 2581.4
-1248.37 1103.06 2547.7
-1260.42 1143.97 2642.2
-1251.87 1142.42 2638.6
-1202.00 1102.94 2547.4
-1205.93 1112.65 2569.9
-1208.17 1120.92 2588.9
-1212.29 1131.02 2612.3
-1171.56 1118.00 2582.2
-1127.60 1082.23 2499.6
-1112.72 1080.37 2495.3
-1110.94 1084.95 2505.9
-1088.20 1075.32 2483.6
-1091.55 1085.06 2506.1
-1070.77 1077.22 2488.0
-1081.26 1094.37 2527.6
-1049.14 1088.24 2513.5
-1061.95 1108.41 2560.1
-1039.87 1092.19 2522.6
-1034.70 1100.60 2542.0
-1064.75 1139.83 2632.6
-1058.40 1140.34 2633.8
-1045.50 1133.76 2618.6
-1035.40 1130.14 2610.3
-1038.60 1141.10 2635.6
-1029.51 1138.60 2629.8
-1000.27 1113.64 2572.1
-987.33 1106.61 2555.9
-987.09 1113.81 2572.5
-992.37 1127.39 2603.9
-980.44 1121.47 2590.2
-958.46 1103.89 2549.6
-943.80 1094.55 2528.0
-940.83 1098.73 2537.7
-938.76 1104.04 2550.0
-928.05 1099.18 2538.7
-939.51 1120.70 2588.4
-953.25 1145.27 2645.2
-962.03 1164.20 2688.9
-957.90 1167.66 2696.9
-939.87 1154.11 2665.6
-936.06 1157.94 2674.5
-1300.06 1129.90 2625.4
-1310.08 1144.60 2659.6
-1291.22 1134.08 2635.1
-1255.70 1108.75 2576.3
-1257.45 1116.24 2593.7
-1239.28 1106.02 2569.9
-1216.91 1103.86 2564.9
-1212.90 1106.27 2570.5
-1214.01 1113.40 2587.1
-1212.29 1118.00 2597.8
-1167.38 1082.60 2515.5
-1172.78 1093.72 2541.3
-1150.96 1091.77 2536.8
-1117.63 1072.41 2491.8
-1169.34 1128.54 2622.3
-1157.47 1123.63 2610.8
-1114.51 1088.28 2528.7
-1063.93 1063.93 2472.1
-1075.93 1082.45 2515.2
-1060.39 1093.32 2540.4
-1064.25 1104.16 2565.6
-1063.39 1110.21 2579.7
-1055.78 1109.23 2577.4
-1040.81 1100.47 2557.0
-1032.20 1098.37 2552.1
-1050.62 1125.18 2614.4
-1061.17 1143.86 2657.9
-1019.49 1106.11 2570.1
-991.48 1082.80 2516.0
-1022.93 1124.54 2613.0
-1033.07 1143.26 2656.5
-1005.55 1120.28 2603.1
-990.57 1111.05 2581.6
-994.20 1122.70 2608.7
-980.28 1114.57 2589.8
-956.99 1095.59 2545.7
-939.37 1090.45 2533.8
-939.56 1098.36 2552.1
-930.82 1103.69 2564.5
-957.83 1143.88 2657.9
-980.96 1179.99 2741.8
-1285.74 1110.72 2596.5
-1312.75 1140.02 2665.0
-1310.30 1143.91 2674.1
-1264.86 1110.12 2595.1
-1258.84 1110.74 2596.5
-1272.60 1135.02 2653.3
-1219.03 1093.15 2555.4
-1201.87 1083.66 2533.2
-1210.68 1097.59 2565.8
-1225.27 1116.96 2611.1
-1235.33 1132.39 2647.1
-1199.70 1105.87 2585.2
-1179.18 1093.06 2555.2
-1219.04 1136.40 2656.5
-1166.57 1106.23 2586.0
-1118.73 1092.25 2553.3
-1118.14 1111.40 2598.1
-1124.39 1124.39 2628.4
-1084.25 1090.87 2550.1
-1061.85 1074.88 2512.7
-1070.24 1090.05 2548.2
-1075.59 1102.31 2576.8
-1086.15 1120.09 2618.4
-1091.91 1133.11 2648.8
-1066.87 1114.13 2604.5
-1035.01 1087.75 2542.8
-1040.72 1100.76 2573.2
-1039.52 1121.05 2620.6
-991.96 1076.80 2517.2
-1002.10 1095.01 2559.8
-1035.27 1138.80 2662.1
-1034.17 1145.22 2677.1
-1002.38 1117.52 2612.4
-991.06 1112.41 2600.5
-989.65 1118.44 2614.5
-976.74 1111.46 2598.2
-964.55 1105.21 2583.6
-969.52 1118.67 2615.1
-964.72 1120.97 2620.5
-944.60 1105.38 2584.0
-949.02 1118.49 2614.6
-974.99 1157.37 2705.5
-970.54 1160.43 2712.7
-959.84 1156.01 2702.4
-944.44 1162.93 2718.5
-1268.49 1089.18 2561.7
-1297.67 1120.09 2634.4
-1289.57 1130.96 2659.9
-1281.38 1129.82 2657.2
-1257.44 1114.70 2621.7
-1204.04 1090.95 2565.8
-1205.36 1104.36 2597.4
-1185.98 1092.70 2569.9
-1180.33 1093.64 2572.1
-1159.95 1080.86 2542.1
-1189.40 1114.64 2621.5
-1170.55 1109.65 2609.8
-1157.17 1103.35 2595.0
-1143.85 1097.02 2580.1
-1129.46 1089.60 2562.6
-1153.29 1119.17 2632.2
-1065.25 1071.79 2520.8
-1054.95 1074.61 2527.4
-1077.05 1103.98 2596.5
-1082.16 1116.19 2625.2
-1058.57 1098.77 2584.2
-1034.46 1080.58 2541.4
-1050.99 1104.89 2598.6
-1030.44 1104.52 2597.7
-987.33 1065.27 2505.4
-990.05 1075.29 2529.0
-1013.89 1108.52 2607.2
-1011.08 1128.01 2653.0
-988.17 1110.00 2610.6
-1000.77 1131.90 2662.1
-990.56 1144.02 2690.6
-962.61 1119.63 2633.3
-959.32 1123.78 2643.0
-965.74 1139.44 2679.9
-942.59 1120.18 2634.6
-923.06 1104.98 2598.8
-938.26 1131.43 2661.0
-957.12 1171.40 2755.0
-948.04 1177.86 2770.2
-1332.15 1119.28 2648.6
-1321.65 1122.02 2655.1
-1308.07 1116.31 2641.6
-1306.11 1120.51 2651.5
-1316.86 1135.70 2687.5
-1277.50 1119.53 2649.2
-1230.13 1083.85 2564.8
-1204.90 1091.10 2581.9
-1180.77 1075.22 2544.3
-1139.06 1060.95 2510.6
-1163.83 1090.25 2579.9
-1149.72 1083.26 2563.4
-1133.77 1074.45 2542.5
-1120.19 1067.78 2526.7
-1087.48 1042.70 2467.4
-1089.47 1050.79 2486.5
-1123.01 1089.59 2578.3
-1133.18 1106.04 2617.3
-1131.00 1110.56 2628.0
-1111.54 1098.07 2598.4
-1085.65 1079.03 2553.4
-1059.75 1072.92 2538.9
-1056.15 1075.96 2546.1
-1035.48 1061.53 2511.9
-1038.60 1071.47 2535.5
-1042.67 1082.52 2561.6
-1045.92 1092.85 2586.1
-1054.95 1109.40 2625.2
-1048.27 1109.53 2625.5
-1005.20 1070.90 2534.1
-976.96 1054.60 2495.5
-992.81 1078.86 2552.9
-1010.74 1105.71 2616.5
-1019.71 1123.06 2657.5
-994.03 1102.23 2608.3
-974.18 1087.61 2573.7
-988.84 1111.59 2630.4
-1001.93 1134.13 2683.7
-996.35 1135.70 2687.4
-981.43 1126.57 2665.9
-955.76 1104.88 2614.5
-958.22 1115.65 2640.0
-970.96 1138.61 2694.3
-958.72 1132.40 2679.6
-950.27 1130.61 2675.4
-941.83 1128.81 2671.2
-936.48 1130.72 2675.7
-947.89 1188.51 2812.4
-1313.64 1114.19 2652.8
-1293.88 1103.21 2626.7
-1245.00 1067.14 2540.8
-1228.32 1064.10 2533.6
-1240.30 1080.26 2572.1
-1246.05 1091.14 2597.9
-1254.50 1104.51 2629.8
-1226.74 1085.97 2585.6
-1185.20 1054.96 2511.8
-1171.38 1048.42 2496.2
-1186.08 1067.47 2541.6
-1179.73 1067.68 2542.1
-1153.01 1049.36 2498.5
-1149.85 1052.41 2505.7
-1171.87 1078.65 2568.2
-1171.99 1084.93 2583.2
-1153.61 1074.05 2557.3
-1143.37 1070.67 2549.2
-1131.63 1065.84 2537.7
-1134.32 1074.62 2558.6
-1118.09 1065.47 2536.8
-1090.71 1045.53 2489.4
-1092.61 1053.59 2508.5
-1090.71 1058.05 2519.2
-1077.32 1051.36 2503.2
-1049.01 1049.01 2497.6
-1084.31 1091.05 2597.7
-1085.59 1099.16 2617.0
-1056.21 1076.14 2562.2
-1049.34 1075.91 2561.7
-1050.90 1084.37 2581.8
-1051.31 1091.75 2599.4
-1044.35 1091.51 2598.8
-1024.60 1077.83 2566.3
-1016.67 1076.48 2563.0
-1014.56 1081.31 2574.5
-1001.53 1074.49 2558.3
-996.67 1076.40 2562.9
-1019.29 1108.22 2638.6
-992.20 1093.45 2603.4
-957.85 1062.82 2530.5
-966.73 1080.08 2571.6
-974.12 1095.88 2609.2
-970.33 1099.25 2617.3
-955.57 1090.16 2595.6
-934.20 1073.33 2555.6
-943.16 1091.37 2598.5
-970.83 1131.47 2694.0
-972.99 1142.21 2719.5
-955.11 1129.40 2689.0
-937.06 1116.20 2657.6
-940.03 1128.04 2685.8
-944.59 1168.11 2781.2
-945.13 1177.78 2804.2
-1304.47 1093.85 2620.6
-1275.99 1075.57 2576.8
-1287.01 1090.57 2612.7
-1266.97 1079.27 2585.7
-1249.09 1069.70 2562.7
-1287.25 1108.28 2655.1
-1218.46 1077.87 2582.3
-1187.79 1056.54 2531.2
-1206.39 1079.04 2585.1
-1206.24 1084.94 2599.2
-1186.43 1073.12 2570.9
-1194.82 1086.81 2603.7
-1171.23 1071.41 2566.8
-1125.02 1035.02 2479.6
-1139.53 1054.39 2526.1
-1160.71 1080.20 2587.9
-1108.80 1050.10 2515.8
-1152.30 1097.76 2629.9
-1134.13 1086.87 2603.9
-1111.61 1071.68 2567.5
-1097.38 1064.32 2549.8
-1060.08 1034.38 2478.1
-1076.55 1063.34 2547.5
-1075.87 1069.23 2561.6
-1067.93 1067.93 2558.5
-1102.91 1109.80 2658.8
-1073.50 1107.90 2654.3
-1054.24 1095.05 2623.4
-1024.74 1071.32 2566.6
-1006.50 1059.13 2537.4
-1018.81 1079.13 2585.3
-1019.34 1086.84 2603.8
-989.71 1062.29 2545.0
-989.57 1069.27 2561.7
-1012.04 1100.94 2637.6
-979.42 1072.69 2569.9
-942.81 1039.68 2490.8
-948.85 1053.55 2524.0
-954.40 1067.08 2556.4
-950.09 1069.68 2562.7
-929.98 1054.42 2526.1
-930.60 1070.19 2563.9
-979.53 1134.56 2718.1
-971.17 1141.30 2734.3
-940.01 1112.80 2666.0
-929.45 1108.45 2655.6
-947.33 1138.20 2726.8
-941.77 1166.35 2794.3
-934.98 1176.03 2817.5
-1316.52 1091.42 2631.1
-1301.70 1084.75 2615.0
-1284.03 1075.63 2593.0
-1307.87 1101.37 2655.1
-1293.07 1112.32 2681.5
-1220.20 1072.71 2586.0
-1176.44 1051.57 2535.0
-1186.96 1066.93 2572.1
-1196.92 1081.96 2608.3
-1174.09 1067.36 2573.1
-1142.52 1044.59 2518.2
-1170.81 1076.61 2595.4
-1126.56 1047.96 2526.3
-1117.22 1051.50 2534.9
-1132.96 1072.62 2585.8
-1088.37 1036.55 2498.8
-1085.02 1039.54 2506.0
-1088.28 1048.94 2528.7
-1085.55 1052.65 2537.6
-1103.24 1076.34 2594.7
-1119.23 1098.63 2648.5
-1094.82 1081.30 2606.7
-1054.04 1047.49 2525.2
-1054.06 1054.06 2541.0
-1060.76 1067.43 2573.3
-1050.33 1063.62 2564.1
-1057.53 1077.73 2598.1
-1059.32 1086.48 2619.2
-1059.96 1094.15 2637.7
-1047.37 1088.18 2623.3
-1023.49 1070.31 2580.2
-1030.24 1084.46 2614.3
-1021.53 1082.41 2609.4
-982.41 1047.90 2526.2
-942.70 1026.06 2473.5
-947.55 1038.41 2503.3
-940.12 1037.37 2500.8
-932.37 1035.96 2497.4
-954.26 1090.58 2629.1
-971.14 1142.52 2754.3
-944.37 1119.26 2698.2
-947.50 1131.35 2727.4
-964.50 1169.09 2818.3
-1321.86 1083.38 2628.2
-1300.16 1088.03 2639.4
-1259.77 1071.14 2598.5
-1236.24 1056.79 2563.6
-1285.01 1104.41 2679.2
-1219.14 1059.25 2569.6
-1220.34 1066.12 2586.3
-1243.36 1092.23 2649.6
-1192.80 1053.64 2556.0
-1180.11 1048.26 2542.9
-1196.91 1069.15 2593.6
-1212.30 1089.02 2641.8
-1168.28 1073.74 2604.7
-1141.93 1055.62 2560.8
-1122.21 1043.46 2531.3
-1132.44 1059.16 2569.4
-1112.07 1046.27 2538.1
-1135.55 1074.72 2607.1
-1111.80 1077.91 2614.9
-1074.99 1048.61 2543.8
-1073.24 1053.37 2555.3
-1052.72 1039.64 2522.0
-1040.58 1034.07 2508.5
-1033.12 1033.12 2506.2
-1033.37 1046.53 2538.8
-1033.90 1053.78 2556.3
-1032.95 1059.61 2570.5
-1068.99 1103.70 2677.4
-1025.76 1080.10 2620.2
-987.94 1047.22 2540.4
-964.55 1036.24 2513.8
-998.63 1080.15 2620.3
-987.30 1075.21 2608.3
-962.22 1055.13 2559.6
-955.32 1054.83 2558.9
-942.57 1048.04 2542.4
-923.78 1034.37 2509.3
-935.55 1054.99 2559.3
-972.54 1104.53 2679.4
-981.78 1123.04 2724.4
-961.28 1107.56 2686.8
-951.56 1104.37 2679.1
-942.81 1102.25 2673.9
-922.07 1085.99 2634.5
-1317.24 1078.36 2632.5
-1287.77 1059.72 2587.0
-1257.59 1045.79 2553.0
-1272.19 1074.90 2624.1
-1259.19 1069.63 2611.2
-1263.27 1078.90 2633.8
-1225.25 1052.12 2568.5
-1213.27 1053.28 2571.3
-1236.26 1091.23 2663.9
-1170.71 1063.06 2595.2
-1135.84 1037.35 2532.4
-1121.46 1030.17 2514.9
-1130.68 1044.72 2550.4
-1132.11 1058.42 2583.8
-1137.94 1070.20 2612.6
-1115.98 1075.15 2624.7
-1083.13 1049.90 2563.0
-1083.15 1056.41 2578.9
-1074.81 1054.79 2575.0
-1076.16 1062.71 2594.3
-1062.81 1056.13 2578.2
-1049.17 1049.17 2561.3
-1046.18 1052.84 2570.2
-1032.27 1045.51 2552.3
-1028.90 1048.82 2560.4
-1061.19 1088.75 2657.9
-1052.70 1087.11 2653.9
-997.64 1037.02 2531.6
-991.84 1037.82 2533.6
-984.67 1037.19 2532.0
-973.81 1032.63 2520.9
-1009.50 1077.70 2630.9
-1005.62 1088.27 2656.7
-979.11 1066.89 2604.5
-971.44 1065.89 2602.1
-980.99 1083.89 2646.0
-983.23 1094.01 2670.7
-974.77 1092.30 2666.5
-952.01 1089.99 2660.9
-914.18 1077.92 2631.4
-941.75 1144.59 2794.2
-1321.31 1069.31 2627.0
-1324.04 1088.35 2673.8
-1249.82 1032.74 2537.2
-1299.38 1085.12 2665.9
-1272.37 1073.99 2638.6
-1242.30 1054.28 2590.1
-1214.46 1036.25 2545.8
-1228.92 1065.97 2618.8
-1234.31 1076.59 2644.9
-1228.92 1077.88 2648.1
-1225.87 1081.24 2656.4
-1214.17 1076.98 2645.9
-1177.60 1050.47 2580.8
-1117.92 1014.53 2492.5
-1109.35 1012.60 2487.7
-1125.86 1033.68 2539.5
-1152.17 1070.36 2629.6
-1098.25 1038.71 2551.9
-1125.69 1071.11 2631.5
-1100.73 1053.75 2588.8
-1089.45 1049.34 2578.0
-1105.40 1071.28 2631.9
-1078.09 1057.88 2599.0
-1031.55 1018.57 2502.4
-1054.26 1047.59 2573.7
-1087.93 1087.93 2672.8
-1078.00 1084.91 2665.4
-1077.51 1091.41 2681.4
-1057.87 1078.48 2649.6
-1000.09 1026.24 2521.2
-985.75 1018.18 2501.4
-1017.18 1057.60 2598.3
-992.58 1038.90 2552.4
-964.82 1016.62 2497.6
-959.07 1017.40 2499.5
-940.92 1011.81 2485.8
-940.44 1018.27 2501.7
-941.84 1026.86 2522.8
-961.32 1055.44 2593.0
-971.76 1074.41 2639.6
-971.08 1081.27 2656.4
-950.87 1066.33 2619.7
-912.15 1030.27 2531.1
-934.86 1063.58 2613.0
-938.44 1075.44 2642.1
-934.07 1086.29 2668.8
-909.96 1074.16 2639.0
-916.74 1090.36 2678.8
-1318.06 1059.89 2620.6
-1334.36 1078.55 2666.7
-1306.45 1061.49 2624.6
-1297.50 1059.73 2620.2
-1250.95 1038.02 2566.5
-1305.68 1089.23 2693.1
-1289.25 1081.30 2673.6
-1257.46 1060.35 2621.7
-1229.94 1042.77 2578.3
-1210.25 1031.69 2550.9
-1239.97 1062.83 2627.9
-1239.43 1068.23 2641.2
-1207.45 1046.46 2587.4
-1210.10 1054.61 2607.5
-1216.18 1065.87 2635.4
-1196.70 1054.72 2607.8
-1152.40 1021.44 2525.5
-1130.07 1013.17 2505.1
-1141.43 1029.27 2544.9
-1129.30 1024.25 2532.5
-1110.38 1012.98 2504.6
-1126.00 1033.27 2554.8
-1151.93 1063.32 2629.1
-1117.62 1037.79 2566.0
-1089.91 1018.12 2517.3
-1120.97 1053.44 2604.7
-1127.26 1072.27 2651.2
-1099.42 1052.20 2601.6
-1101.18 1060.40 2621.9
-1093.83 1059.86 2620.5
-1045.56 1019.42 2520.5
-1063.97 1050.50 2597.4
-1051.07 1064.73 2632.6
-1034.37 1054.65 2607.6
-1033.06 1074.38 2656.4
-984.81 1031.08 2549.4
-960.51 1012.43 2503.3
-943.75 1001.53 2476.3
-943.34 1007.95 2492.2
-942.84 1014.37 2508.1
-943.91 1022.56 2528.3
-944.55 1030.41 2547.7
-934.76 1026.92 2539.1
-931.10 1030.15 2547.1
-908.27 1012.07 2502.4
-906.55 1017.43 2515.6
-968.05 1094.32 2705.7
-962.53 1104.08 2729.9
-934.22 1079.54 2669.2
-1314.97 1061.56 2641.7
-1261.72 1023.91 2548.0
-1251.68 1021.11 2541.0
-1258.64 1032.22 2568.7
-1272.07 1048.78 2609.9
-1290.65 1069.79 2662.2
-1290.62 1075.52 2676.4
-1275.08 1068.31 2658.5
-1262.84 1063.80 2647.3
-1260.72 1067.82 2657.3
-1233.80 1062.44 2643.9
-1194.40 1034.26 2573.7
-1202.54 1047.16 2605.8
-1185.47 1038.12 2583.3
-1173.55 1033.53 2571.9
-1174.87 1040.60 2589.5
-1201.60 1070.39 2663.6
-1125.74 1026.41 2554.2
-1096.00 1011.19 2516.3
-1111.63 1031.76 2567.5
-1110.72 1037.11 2580.8
-1103.46 1036.59 2579.5
-1104.65 1044.03 2598.0
-1100.64 1046.62 2604.5
-1096.78 1075.96 2677.5
-1070.57 1056.93 2630.1
-1054.76 1047.99 2607.9
-1026.11 1026.11 2553.5
-1004.66 1011.18 2516.3
-1004.10 1017.22 2531.3
-1029.91 1050.23 2613.5
-1042.02 1069.62 2661.7
-1036.25 1070.80 2664.7
-1024.06 1065.30 2651.0
-1001.19 1048.55 2609.3
-986.85 1040.55 2589.4
-977.56 1037.82 2582.6
-965.67 1032.26 2568.8
-944.66 1016.83 2530.4
-923.84 1001.36 2491.9
-930.98 1016.21 2528.8
-944.70 1038.50 2584.3
-934.86 1035.02 2575.6
-945.02 1053.80 2622.4
-971.67 1091.37 2715.8
-957.81 1083.65 2696.6
-921.33 1050.05 2613.0
-919.15 1079.30 2685.8
-1305.69 1052.75 2636.8
-1268.00 1027.75 2574.1
-1271.59 1036.11 2595.1
-1282.92 1050.90 2632.1
-1294.90 1066.39 2670.9
-1289.54 1067.68 2674.2
-1269.92 1057.13 2647.7
-1252.04 1047.90 2624.6
-1256.60 1075.09 2692.7
-1196.49 1029.38 2578.2
-1183.76 1024.15 2565.1
-1178.92 1025.72 2569.1
-1178.34 1031.05 2582.4
-1185.47 1043.22 2612.9
-1195.32 1070.22 2680.5
-1165.01 1049.19 2627.8
-1110.69 1006.15 2520.1
-1075.18 991.49 2483.3
-1091.55 1024.99 2567.2
-1092.73 1032.39 2585.8
-1044.53 1024.57 2566.2
-1010.83 1004.31 2515.4
-1049.95 1049.95 2629.8
-1024.59 1031.29 2583.0
-1028.66 1042.19 2610.3
-989.57 1029.69 2579.0
-961.27 1007.05 2522.3
-936.88 988.22 2475.1
-952.59 1011.72 2534.0
-959.51 1026.14 2570.1
-926.85 998.15 2500.0
-923.32 1001.35 2508.0
-958.32 1046.67 2621.5
-970.42 1067.47 2673.6
-944.83 1046.79 2621.8
-934.93 1043.33 2613.2
-956.39 1075.07 2692.6
-955.07 1081.47 2708.7
-923.99 1054.03 2640.0
-906.43 1041.72 2609.1
-915.85 1060.46 2656.1
-918.99 1072.15 2685.4
-908.14 1067.59 2673.9
-1299.54 1040.99 2624.3
-1286.84 1036.24 2612.4
-1314.39 1064.03 2682.4
-1296.24 1054.92 2659.5
-1281.48 1048.48 2643.2
-1249.60 1027.89 2591.3
-1217.30 1012.21 2551.8
-1275.92 1066.75 2689.3
-1239.77 1059.69 2671.5
-1218.55 1047.41 2640.5
-1206.88 1043.23 2630.0
-1158.54 1007.14 2539.0
-1143.87 1005.82 2535.7
-1147.89 1015.19 2559.3
-1148.74 1021.85 2576.1
-1152.56 1031.24 2599.8
-1133.90 1020.51 2572.7
-1121.40 1015.23 2559.4
-1088.68 991.47 2499.5
-1110.71 1029.93 2596.5
-1129.15 1053.41 2655.7
-1129.04 1059.77 2671.7
-1095.75 1034.88 2608.9
-1050.81 998.59 2517.5
-1044.05 998.37 2516.9
-1077.36 1036.71 2613.6
-1078.92 1044.78 2633.9
-1016.52 1003.41 2529.6
-1066.78 1059.85 2671.9
-1051.69 1051.69 2651.3
-1012.96 1019.62 2570.5
-999.21 1012.44 2552.4
-991.70 1025.20 2584.5
-950.01 988.79 2492.7
-951.24 996.84 2513.0
-992.60 1047.37 2640.4
-987.54 1056.60 2663.7
-966.47 1041.34 2625.2
-986.43 1070.38 2698.4
-945.15 1047.88 2641.7
-936.47 1045.83 2636.6
-952.41 1071.46 2701.2
-938.34 1063.46 2681.0
-909.31 1038.24 2617.4
-908.04 1044.59 2633.4
-928.22 1075.89 2712.3
-934.77 1091.76 2752.3
-1335.07 1046.03 2654.4
-1287.10 1024.29 2599.2
-1309.45 1047.56 2658.3
-1293.89 1046.13 2654.6
-1284.07 1043.73 2648.6
-1258.30 1028.28 2609.4
-1222.09 1004.10 2548.0
-1241.32 1025.44 2602.2
-1217.10 1010.93 2565.3
-1200.27 1002.43 2543.8
-1237.61 1056.84 2681.8
-1199.71 1042.03 2644.3
-1201.52 1055.67 2678.9
-1174.90 1038.29 2634.8
-1166.40 1036.80 2631.0
-1135.14 1014.95 2575.5
-1145.65 1030.41 2614.8
-1135.70 1027.54 2607.5
-1085.05 987.59 2506.1
-1089.12 997.26 2530.7
-1115.26 1027.39 2607.1
-1121.19 1039.15 2636.9
-1097.34 1023.28 2596.7
-1065.38 1012.11 2568.3
-1078.91 1031.41 2617.3
-1060.88 1020.60 2589.9
-1032.70 999.81 2537.1
-1026.59 1000.27 2538.3
-1013.46 993.85 2522.0
-1000.41 987.42 2505.7
-1008.89 1002.29 2543.4
-992.41 992.41 2518.3
-988.35 1001.53 2541.5
-1014.99 1035.42 2627.5
-978.02 1004.45 2548.9
-968.81 1001.76 2542.1
-1005.46 1046.79 2656.3
-998.76 1054.25 2675.3
-983.99 1060.76 2691.8
-959.50 1041.74 2643.5
-961.06 1066.29 2705.8
-934.47 1044.41 2650.3
-919.90 1035.74 2628.3
-912.28 1050.50 2665.8
-928.60 1077.45 2734.1
-1315.60 1029.30 2629.3
-1314.57 1044.74 2668.7
-1273.56 1017.50 2599.1
-1242.35 997.85 2548.9
-1230.69 993.77 2538.5
-1244.06 1009.97 2579.9
-1245.42 1016.53 2596.6
-1229.25 1008.78 2576.8
-1245.99 1051.08 2684.9
-1208.53 1025.21 2618.8
-1189.21 1044.02 2666.8
-1161.94 1026.04 2620.9
-1118.92 993.86 2538.7
-1118.56 999.43 2552.9
-1149.72 1033.38 2639.7
-1139.34 1030.19 2631.5
-1122.68 1021.23 2608.6
-1129.80 1033.94 2641.1
-1118.36 1029.71 2630.3
-1077.67 998.33 2550.1
-1066.48 1012.82 2587.2
-1089.14 1040.89 2658.8
-1100.48 1058.43 2703.6
-1076.37 1041.87 2661.4
-1046.14 1019.14 2603.3
-1022.44 1002.52 2560.8
-1023.18 1009.81 2579.5
-1026.25 1019.50 2604.2
-1011.39 1011.39 2583.5
-1021.81 1028.62 2627.5
-1029.32 1043.14 2664.6
-990.56 1010.64 2581.6
-978.26 1004.88 2566.9
-990.96 1024.90 2618.0
-975.34 1015.70 2594.5
-933.87 979.27 2501.4
-958.23 1040.95 2659.0
-969.22 1076.11 2748.8
-946.04 1058.17 2703.0
-904.21 1034.36 2642.2
-911.25 1050.37 2683.1
-1330.30 1039.29 2672.5
-1286.53 1021.06 2625.6
-1240.78 989.98 2545.7
-1273.27 1032.38 2654.7
-1232.65 1010.37 2598.1
-1229.64 1024.70 2634.9
-1231.43 1031.92 2653.5
-1213.77 1022.84 2630.2
-1197.00 1014.40 2608.5
-1190.49 1014.62 2609.0
-1212.02 1038.87 2671.4
-1213.11 1045.79 2689.2
-1193.68 1034.98 2661.4
-1180.89 1029.85 2648.2
-1176.37 1037.97 2669.1
-1134.15 1006.64 2588.5
-1123.13 1002.79 2578.6
-1139.83 1023.80 2632.6
-1137.69 1034.26 2659.5
-1103.37 1009.18 2595.0
-1103.41 1015.41 2611.0
-1070.20 990.93 2548.1
-1074.94 1007.76 2591.4
-1084.87 1023.46 2631.8
-1080.70 1025.98 2638.2
-1088.91 1040.36 2675.2
-1063.80 1022.88 2630.3
-1083.77 1048.81 2696.9
-1064.20 1043.33 2682.9
-1023.94 1010.47 2598.3
-998.80 992.19 2551.3
-997.73 997.73 2565.6
-1002.46 1022.91 2630.4
-975.43 1002.16 2577.0
-962.87 996.08 2561.3
-980.56 1050.60 2701.5
-949.43 1024.57 2634.6
-937.13 1026.06 2638.4
-938.45 1035.06 2661.6
-953.93 1059.92 2725.5
-950.92 1064.46 2737.2
-917.57 1034.85 2661.0
-904.62 1027.98 2643.4
-1325.78 1028.86 2663.4
-1287.38 1004.29 2599.8
-1304.78 1023.22 2648.8
-1285.80 1013.67 2624.1
-1269.82 1006.40 2605.3
-1263.39 1006.66 2605.9
-1233.57 988.18 2558.1
-1281.14 1031.84 2671.1
-1212.60 992.73 2569.9
-1210.21 996.25 2579.0
-1219.01 1020.41 2641.5
-1163.25 979.23 2534.9
-1177.27 996.67 2580.1
-1210.91 1036.93 2684.3
-1178.36 1014.89 2627.2
-1156.42 1001.78 2593.3
-1152.98 1004.64 2600.7
-1173.83 1028.83 2663.3
-1161.86 1024.36 2651.8
-1113.05 987.17 2555.5
-1092.38 974.64 2523.0
-1121.77 1006.89 2606.5
-1126.32 1017.10 2633.0
-1101.99 1001.20 2591.8
-1111.21 1015.77 2629.5
-1130.47 1039.76 2691.6
-1100.06 1030.87 2668.6
-1080.10 1018.58 2636.8
-1072.35 1017.71 2634.5
-1031.78 985.49 2551.1
-1032.66 992.68 2569.7
-1084.74 1049.52 2716.9
-1064.67 1036.84 2684.0
-1020.93 1000.78 2590.7
-992.71 979.56 2535.8
-1010.63 1017.46 2633.9
-1008.59 1022.32 2646.5
-983.52 1003.73 2598.3
-970.90 997.69 2582.7
-956.38 989.59 2561.7
-931.17 970.24 2511.6
-972.12 1027.27 2659.3
-959.42 1028.44 2662.3
-932.94 1022.12 2646.0
-962.44 1062.25 2749.8
-951.36 1065.81 2759.1
-929.06 1048.71 2714.8
-911.19 1036.39 2682.9
-1336.02 1014.01 2642.7
-1307.76 1008.07 2627.2
-1267.17 992.28 2586.1
-1278.60 1006.56 2623.3
-1286.57 1018.25 2653.7
-1269.77 1010.35 2633.2
-1207.68 966.15 2518.0
-1262.79 1021.28 2661.6
-1263.07 1027.11 2676.8
-1183.41 967.65 2521.9
-1241.19 1026.23 2674.5
-1242.07 1032.73 2691.5
-1179.86 986.55 2571.1
-1191.86 1002.24 2612.0
-1212.58 1031.39 2688.0
-1177.68 1007.50 2625.7
-1154.97 993.81 2590.1
-1126.38 986.42 2570.8
-1121.79 988.25 2575.5
-1087.95 964.17 2512.8
-1103.97 984.26 2565.2
-1134.21 1017.35 2651.4
-1134.18 1023.53 2667.5
-1113.52 1011.04 2635.0
-1101.39 1006.21 2622.4
-1092.35 1023.21 2666.7
-1078.85 1017.01 2650.5
-1030.45 977.61 2547.8
-1031.08 990.91 2582.5
-1046.04 1011.85 2637.1
-1035.53 1008.28 2627.7
-1028.15 1007.72 2626.3
-1005.41 992.01 2585.3
-967.28 980.54 2555.4
-989.21 1009.67 2631.4
-983.90 1018.30 2653.9
-968.00 1008.90 2629.4
-975.14 1023.55 2667.5
-967.97 1023.29 2666.9
-964.95 1027.43 2677.7
-970.75 1041.09 2713.3
-970.71 1048.65 2733.0
-965.99 1059.01 2760.0
-935.76 1033.53 2693.6
-934.34 1039.72 2709.7
-931.32 1044.20 2721.4
-916.75 1035.71 2699.3
-927.85 1064.51 2774.3
-1316.04 992.09 2603.1
-1336.46 1012.68 2657.2
-1317.68 1003.62 2633.4
-1279.52 1000.48 2625.2
-1288.35 1018.21 2671.7
-1210.60 961.94 2524.0
-1247.09 1001.76 2628.5
-1257.53 1015.69 2665.1
-1184.27 961.81 2523.7
-1209.07 992.92 2605.3
-1239.81 1023.88 2686.6
-1201.21 997.62 2617.7
-1189.20 993.25 2606.2
-1204.55 1011.82 2654.9
-1192.11 1007.12 2642.6
-1164.25 989.28 2595.8
-1150.06 982.90 2579.0
-1154.87 1004.54 2635.8
-1143.74 1000.77 2625.9
-1101.13 969.26 2543.3
-1099.56 973.71 2554.9
-1110.19 989.08 2595.2
-1132.44 1015.05 2663.4
-1134.18 1022.85 2683.9
-1096.01 994.52 2609.5
-1106.49 1010.27 2650.9
-1080.51 998.96 2621.2
-1056.00 982.48 2577.9
-1044.47 977.95 2566.0
-1034.06 974.40 2556.7
-1046.88 992.85 2605.1
-1051.44 1003.65 2633.5
-1047.87 1006.78 2641.7
-1031.13 997.21 2616.6
-1017.25 990.30 2598.5
-1029.06 1008.48 2646.2
-1000.25 986.82 2589.3
-973.04 966.46 2535.9
-987.67 987.67 2591.6
-996.04 1002.86 2631.4
-982.37 1009.85 2649.7
-959.31 993.09 2605.8
-960.70 1001.58 2628.1
-968.40 1016.82 2668.1
-981.34 1037.82 2723.1
-968.33 1031.49 2706.5
-948.79 1018.04 2671.2
-954.75 1031.97 2707.8
-941.57 1025.26 2690.2
-950.32 1058.31 2776.9
-1310.31 1001.60 2646.1
-1292.46 1003.72 2651.7
-1283.92 1007.81 2662.5
-1223.34 965.44 2550.6
-1221.08 968.90 2559.7
-1237.44 987.25 2608.2
-1199.89 962.55 2542.9
-1197.63 971.41 2566.3
-1223.48 997.92 2636.4
-1220.50 1001.08 2644.7
-1209.98 998.06 2636.8
-1227.35 1018.15 2689.8
-1199.96 1001.11 2644.8
-1147.11 962.52 2542.9
-1133.38 956.50 2526.9
-1132.81 961.57 2540.4
-1119.15 955.53 2524.4
-1134.13 974.02 2573.2
-1145.49 989.59 2614.4
-1098.18 954.37 2521.3
-1109.83 970.27 2563.3
-1137.76 1006.74 2659.7
-1121.09 998.04 2636.7
-1117.02 1000.52 2643.2
-1073.06 967.08 2554.9
-1062.59 963.59 2545.7
-1057.94 965.37 2550.4
-1055.22 981.29 2592.4
-1088.26 1018.50 2690.7
-1077.57 1015.01 2681.5
-1059.58 1004.54 2653.9
-1054.93 1006.66 2659.5
-1038.49 997.49 2635.3
-1017.34 983.65 2598.7
-1019.59 992.40 2621.8
-1022.42 1001.83 2646.7
-1025.46 1011.60 2672.5
-977.35 970.70 2564.5
-962.53 969.17 2560.4
-980.68 994.30 2626.8
-957.57 977.66 2582.9
-959.07 986.09 2605.1
-962.41 996.54 2632.7
-970.12 1011.69 2672.8
-984.02 1033.57 2730.6
-969.08 1025.26 2708.6
-962.76 1026.01 2710.6
-961.94 1048.09 2768.9
-921.07 1011.10 2671.2
-940.40 1040.13 2747.9
-1316.61 984.07 2617.7
-1297.20 989.97 2633.4
-1234.37 957.13 2546.1
-1272.08 991.68 2638.0
-1286.46 1008.31 2682.2
-1242.34 979.02 2604.3
-1219.25 966.07 2569.9
-1191.05 948.92 2524.2
-1185.68 955.13 2540.7
-1200.06 972.12 2585.9
-1193.22 972.01 2585.6
-1179.67 966.40 2570.7
-1214.89 1000.90 2662.5
-1203.96 997.57 2653.6
-1152.61 960.51 2555.0
-1140.79 956.15 2543.5
-1137.87 959.25 2551.7
-1120.35 950.00 2527.1
-1106.36 943.66 2510.2
-1095.62 951.29 2530.5
-1143.06 1004.50 2672.1
-1092.34 965.78 2569.1
-1055.68 939.10 2498.1
-1058.49 947.41 2520.2
-1091.40 982.94 2614.7
-1108.31 1004.41 2671.8
-1104.09 1006.87 2678.4
-1055.07 968.26 2575.7
-1050.31 970.03 2580.4
-1096.86 1019.52 2712.0
-1076.83 1013.90 2697.1
-1073.13 1017.01 2705.4
-1061.07 1012.21 2692.6
-1043.91 1002.43 2666.6
-1016.94 983.04 2615.0
-993.95 967.26 2573.0
-1008.32 987.88 2627.9
-973.38 960.14 2554.1
-990.15 990.15 2633.9
-1005.51 1012.50 2693.3
-976.01 989.66 2632.6
-971.21 991.73 2638.1
-965.74 993.14 2641.8
-958.64 992.87 2641.1
-956.01 997.27 2652.8
-939.30 1001.46 2664.0
-971.36 1043.31 2775.3
-922.80 998.55 2656.2
-944.95 1045.94 2782.3
-921.96 1036.32 2756.7
-1315.36 981.41 2628.8
-1302.30 987.01 2643.8
-1223.25 941.96 2523.1
-1255.69 972.15 2604.0
-1269.75 993.71 2661.7
-1253.83 986.62 2642.7
-1230.72 973.75 2608.3
-1202.92 957.02 2563.4
-1196.14 956.91 2563.2
-1228.83 988.56 2647.9
-1240.91 1003.88 2689.0
-1186.44 965.24 2585.5
-1182.35 967.38 2591.2
-1188.01 977.56 2618.5
-1150.33 952.00 2550.0
-1146.65 954.44 2556.5
-1150.65 963.33 2580.4
-1138.04 958.35 2567.0
-1129.68 956.91 2563.2
-1109.95 945.76 2533.3
-1089.28 944.92 2531.0
-1119.72 977.21 2617.5
-1119.04 982.57 2631.9
-1066.77 942.42 2524.3
-1057.80 940.27 2518.6
-1081.64 967.43 2591.3
-1088.49 979.64 2624.0
-1100.22 996.43 2669.0
-1065.53 971.12 2601.2
-1040.40 954.26 2556.0
-1064.02 982.17 2630.8
-1083.42 1006.53 2696.1
-1083.59 1013.23 2714.0
-1067.06 1010.90 2707.8
-1042.68 1007.69 2699.2
-997.68 1026.18 2748.7
-935.93 976.63 2616.0
-950.30 1013.65 2715.1
-938.10 1031.20 2762.1
-1323.59 990.96 2672.9
-1303.21 980.84 2645.6
-1295.04 979.85 2642.9
-1286.88 978.85 2640.3
-1279.56 978.49 2639.3
-1280.47 984.45 2655.4
-1278.85 988.52 2666.3
-1258.80 978.31 2638.8
-1244.96 972.84 2624.0
-1265.17 994.06 2681.3
-1249.50 992.66 2677.5
-1216.24 988.20 2665.5
-1200.21 980.75 2645.4
-1181.15 970.72 2618.3
-1198.26 990.47 2671.6
-1199.70 997.42 2690.3
-1184.92 990.90 2672.8
-1153.04 969.91 2616.1
-1112.28 941.16 2538.6
-1093.07 941.62 2539.8
-1079.83 953.19 2571.0
-1049.64 932.29 2514.7
-1041.80 931.11 2511.5
-1036.50 932.20 2514.4
-1040.86 942.04 2541.0
-1051.16 957.42 2582.5
-1035.38 949.10 2560.0
-1042.68 968.20 2611.5
-1071.24 1001.23 2700.6
-1012.88 985.32 2657.7
-975.32 955.28 2576.7
-964.35 964.35 2601.2
-999.40 1020.82 2753.5
-948.18 975.47 2631.1
-988.17 1023.97 2762.0
-962.87 1019.93 2751.1
-965.10 1029.92 2778.0
-951.51 1023.05 2759.5
-1308.50 972.81 2642.4
-1250.68 975.80 2650.6
-1234.34 973.76 2645.0
-1204.62 955.62 2595.8
-1189.02 948.55 2576.5
-1195.26 958.91 2604.7
-1215.53 980.71 2663.9
-1189.32 965.05 2621.4
-1161.73 948.08 2575.3
-1203.00 987.43 2682.2
-1153.10 963.18 2616.3
-1103.57 927.26 2518.7
-1069.52 914.89 2485.1
-1136.25 977.86 2656.2
-1126.46 987.39 2682.0
-1081.77 954.11 2591.6
-1060.34 941.05 2556.2
-1044.11 932.48 2532.9
-1038.40 933.24 2535.0
-1049.43 949.17 2578.2
-1033.30 940.57 2554.9
-1035.38 954.70 2593.2
-1044.53 982.27 2668.1
-1011.52 964.00 2618.5
-1006.53 965.72 2623.2
-971.03 944.42 2565.3
-956.77 956.77 2598.9
-1001.36 1008.46 2739.3
-966.95 980.76 2664.0
-947.37 981.95 2667.3
-926.47 974.51 2647.1
-955.53 1027.92 2792.1
-1315.73 971.29 2657.0
-1270.32 978.77 2677.5
-1200.10 929.75 2543.4
-1193.77 929.96 2544.0
-1195.87 936.76 2562.6
-1199.08 944.53 2583.8
-1162.01 952.58 2605.8
-1172.02 966.40 2643.6
-1150.49 954.23 2610.3
-1126.05 939.49 2570.0
-1119.21 939.34 2569.6
-1135.35 958.59 2622.3
-1126.88 957.17 2618.4
-1131.85 967.22 2645.9
-1093.67 940.29 2572.2
-1071.86 932.92 2552.1
-1088.03 952.87 2606.6
-1050.58 925.83 2532.7
-1044.54 932.15 2550.0
-1091.62 980.38 2681.9
-1078.45 974.75 2666.5
-1054.74 959.48 2624.7
-1060.37 970.86 2655.8
-1038.05 969.31 2651.6
-987.95 941.22 2574.8
-1029.22 987.21 2700.6
-1007.79 979.98 2680.8
-995.64 974.90 2666.9
-989.81 975.96 2669.8
-963.80 970.69 2655.4
-997.70 1012.06 2768.6
-954.31 975.05 2667.3
-1305.23 956.72 2635.9
-1319.78 972.47 2679.2
-1299.41 962.52 2651.9
-1229.72 945.94 2606.2
-1213.17 938.36 2585.3
-1206.75 938.58 2585.9
-1245.90 974.45 2684.7
-1220.15 959.67 2644.0
-1168.64 934.91 2575.8
-1181.33 950.50 2618.7
-1158.09 937.18 2582.0
-1147.04 950.21 2617.9
-1127.21 939.34 2588.0
-1142.36 969.28 2670.5
-1067.74 911.48 2511.2
-1050.67 902.42 2486.3
-1113.77 962.51 2651.8
-1116.58 970.94 2675.0
-1060.79 928.19 2557.3
-1031.54 908.28 2502.4
-1063.98 942.77 2597.4
-1085.55 980.50 2701.4
-1056.93 960.84 2647.2
-1056.49 966.73 2663.4
-1052.51 969.41 2670.8
-1042.61 966.66 2663.2
-1018.51 970.01 2672.5
-1019.40 977.51 2693.1
-1003.05 982.01 2705.5
-974.77 996.11 2744.4
-971.50 1000.08 2755.3
-944.12 979.09 2697.5
-1293.95 966.98 2683.3
-1252.38 961.77 2668.8
-1209.05 944.15 2619.9
-1222.75 960.24 2664.6
-1198.57 957.48 2656.9
-1164.62 957.88 2658.1
-1095.84 917.60 2546.3
-1080.46 910.20 2525.7
-1079.50 920.56 2554.5
-1080.09 938.33 2603.8
-1045.30 913.82 2535.8
-1073.38 944.31 2620.4
-1082.45 970.71 2693.6
-1050.66 948.32 2631.5
-1047.47 951.63 2640.7
-1041.11 952.07 2641.9
-1028.51 946.78 2627.2
-1010.83 936.70 2599.3
-1001.46 934.25 2592.5
-1012.15 950.60 2637.9
-962.95 949.29 2634.2
-958.78 951.93 2641.5
-961.95 961.95 2669.3
-938.57 966.38 2681.6
-1276.29 952.04 2661.0
-1233.77 945.89 2643.8
-1161.66 926.64 2590.0
-1164.81 945.55 2642.9
-1151.57 945.94 2643.9
-1098.51 907.75 2537.2
-1094.37 909.77 2542.8
-1066.45 908.46 2539.2
-1064.14 923.60 2581.5
-1080.99 944.16 2638.9
-1093.96 967.74 2704.9
-1044.30 929.77 2598.7
-1026.44 919.79 2570.9
-1020.94 920.85 2573.8
-1012.64 919.37 2569.7
-1048.63 958.35 2678.6
-984.18 956.45 2673.3
-1002.07 980.74 2741.2
-996.03 981.80 2744.2
-964.59 957.65 2676.7
-968.57 968.57 2707.2
-966.50 987.98 2761.4
-956.62 985.17 2753.6
-1308.83 933.91 2629.4
-1319.31 946.31 2664.3
-1203.22 920.90 2592.7
-1189.72 942.15 2652.6
-1163.35 926.62 2608.8
-1159.39 939.86 2646.1
-1131.88 923.02 2598.7
-1073.22 880.42 2478.8
-1084.99 895.44 2521.1
-1072.90 901.76 2538.8
-1047.34 885.71 2493.7
-1099.48 941.43 2650.5
-1087.61 949.07 2672.0
-1061.34 938.09 2641.1
-1026.82 913.47 2571.8
-1004.52 899.47 2532.4
-1043.85 947.07 2666.4
-1023.79 954.14 2686.3
-987.71 926.82 2609.4
-1280.50 941.34 2669.8
-1172.10 916.13 2598.3
-1176.17 930.00 2637.6
-1131.78 900.13 2552.9
-1075.22 880.90 2498.4
-1104.45 910.33 2581.8
-1052.00 888.64 2520.3
-1037.59 881.95 2501.3
-1068.56 913.99 2592.2
-1034.96 890.85 2526.6
-1024.60 887.55 2517.2
-1027.10 895.42 2539.5
-1033.75 907.03 2572.5
-1031.79 911.19 2584.2
-1030.47 915.97 2597.8
-1048.94 938.52 2661.8
-1056.72 951.75 2699.3
-1004.90 936.07 2654.8
-984.86 956.72 2713.4
-986.28 964.99 2736.8
-980.23 966.02 2739.8
-963.68 956.64 2713.2
-1181.13 916.40 2618.3
-1188.24 927.24 2649.3
-1132.80 921.25 2632.1
-1137.04 930.31 2658.0
-1041.97 879.16 2511.9
-1037.51 892.13 2548.9
-1039.60 899.65 2570.4
-1045.12 910.27 2600.8
-1056.85 926.46 2647.0
-1068.72 942.98 2694.2
-988.94 896.02 2560.1
-982.54 961.18 2746.2
-966.75 966.75 2762.2
-1299.15 935.95 2694.1
-1268.19 918.58 2644.1
-1217.77 906.56 2609.5
-1208.08 904.38 2603.2
-1212.80 913.01 2628.1
-1185.86 913.25 2628.8
-1149.95 911.79 2624.6
-1119.40 892.85 2570.0
-1104.98 886.63 2552.1
-1101.57 889.22 2559.6
-1122.47 911.58 2623.9
-1086.27 893.01 2570.5
-1055.44 873.02 2513.0
-1071.81 892.07 2567.8
-1076.26 901.37 2594.6
-1060.62 893.86 2572.9
-1046.39 898.83 2587.2
-1071.41 926.25 2666.2
-1083.16 948.65 2730.6
-1075.20 947.87 2728.4
-1284.25 918.31 2663.2
-1255.93 907.82 2632.8
-1254.11 926.65 2687.4
-1230.02 919.06 2665.4
-1143.08 894.29 2593.5
-1108.74 877.75 2545.6
-1120.52 892.39 2588.0
-1094.44 893.01 2589.8
-1041.78 855.29 2480.4
-1037.32 856.91 2485.1
-1066.05 886.16 2570.0
-1075.89 899.95 2610.0
-1033.91 881.48 2556.4
-1012.50 868.79 2519.6
-1062.44 935.79 2713.9
-1271.56 917.19 2680.1
-1289.00 934.88 2731.8
-1249.69 916.44 2677.9
-1193.63 885.16 2586.5
-1163.30 867.54 2535.0
-1181.40 891.11 2603.9
-1168.92 902.32 2636.7
-1144.24 888.47 2596.2
-1086.80 874.74 2556.1
-1088.51 881.49 2575.8
-1091.98 889.76 2600.0
-1049.42 876.73 2561.9
-1020.31 868.91 2539.0
-1051.20 912.89 2667.5
-1306.67 915.37 2695.2
-1289.85 928.41 2733.6
-1262.42 913.68 2690.2
-1242.44 904.22 2662.4
-1224.59 896.21 2638.8
-1163.24 870.77 2563.9
-1171.20 902.51 2657.3
-1125.08 882.55 2598.6
-1079.68 852.03 2508.7
-1066.58 846.80 2493.3
-1077.37 865.86 2549.4
-1039.37 850.99 2505.6
-1031.34 855.10 2517.7
-1049.91 893.10 2629.6
-994.14 874.04 2573.5
-1317.12 920.57 2731.4
-1285.19 903.10 2679.5
-1288.07 910.05 2700.1
-1274.46 905.35 2686.2
-1241.31 886.65 2630.7
-1251.06 898.55 2666.0
-1267.12 915.14 2715.3
-1189.96 873.99 2593.1
-1169.62 863.92 2563.3
-1192.85 886.11 2629.1
-1196.13 893.66 2651.5
-1179.74 886.51 2630.3
-1166.23 886.60 2630.6
-1140.77 872.35 2588.3
-1091.73 854.97 2536.7
-1087.97 857.19 2543.3
-1075.57 852.59 2529.7
-1062.10 868.38 2576.5
-1054.12 867.32 2573.4
-1053.00 871.91 2587.0
-1028.18 856.82 2542.2
-1078.30 904.38 2683.3
-1073.28 906.02 2688.2
-1008.42 856.82 2542.2
-1035.45 891.44 2644.9
-986.58 860.77 2553.9
-1313.76 916.08 2739.1
-1304.57 914.62 2734.7
-1281.03 903.02 2700.1
-1247.84 884.46 2644.6
-1260.01 898.02 2685.1
-1257.02 900.87 2693.6
-1250.77 901.39 2695.2
-1259.74 912.96 2729.8
-1214.69 885.28 2647.0
-1173.96 860.46 2572.8
-1177.03 867.64 2594.3
-1171.74 868.71 2597.5
-1145.30 854.01 2553.5
-1144.36 858.27 2566.3
-1134.83 856.10 2559.8
-1126.87 855.10 2556.8
-1086.55 876.03 2619.4
-1036.37 846.15 2530.0
-1050.47 863.13 2580.8
-1029.54 856.84 2562.0
-1076.36 907.52 2713.5
-997.58 863.68 2582.4
-1297.69 912.66 2750.2
-1267.33 896.24 2700.7
-1223.82 870.27 2622.5
-1211.68 866.45 2611.0
-1219.64 877.05 2642.9
-1174.76 849.54 2560.0
-1151.26 846.90 2552.1
-1155.06 854.61 2575.3
-1159.24 867.74 2614.8
-1135.34 854.84 2576.0
-1137.22 871.64 2626.6
-1104.86 867.62 2614.5
-1053.10 832.08 2507.4
-1086.52 863.82 2603.0
-1054.55 876.51 2641.3
-1289.67 895.02 2718.3
-1263.36 881.57 2677.4
-1258.79 883.24 2682.5
-1244.47 878.04 2666.7
-1261.27 894.87 2717.8
-1231.06 883.30 2682.7
-1168.16 852.62 2589.5
-1189.92 873.52 2653.0
-1138.01 850.16 2582.0
-1134.17 862.51 2619.6
-1093.15 862.30 2618.9
-1067.89 852.97 2590.6
-1035.23 832.11 2527.2
-1022.82 877.69 2665.6
-1297.07 902.93 2764.1
-1251.35 875.94 2681.5
-1247.95 878.45 2689.1
-1245.32 881.52 2698.5
-1223.06 870.65 2665.3
-1163.92 833.26 2550.8
-1163.24 847.21 2593.5
-1159.59 854.44 2615.6
-1107.07 820.53 2511.8
