ply
format ascii 1.0
element vertex 2108
property float x
property float y
property float z
end_header
-603.88 -929.04 1628.8
-605.22 -937.67 1644.0
-579.26 -903.81 1584.6
-585.75 -920.46 1613.8
-606.44 -959.83 1682.8
-600.38 -957.13 1678.1
-564.88 -920.55 1614.0
-550.94 -904.53 1585.9
-545.67 -909.45 1594.5
-571.86 -960.38 1683.8
-562.22 -951.45 1668.1
-554.05 -944.89 1656.6
-569.75 -979.26 1716.9
-563.16 -975.56 1710.4
-551.42 -962.79 1688.0
-542.49 -954.77 1674.0
-526.36 -933.86 1637.3
-537.28 -968.86 1698.7
-539.23 -980.41 1718.9
-534.55 -980.01 1718.2
-533.76 -986.79 1730.1
-518.27 -966.27 1694.1
-492.77 -926.57 1624.5
-485.03 -919.89 1612.8
-451.56 -894.98 1569.1
-449.65 -899.30 1576.7
-453.90 -916.13 1606.2
-461.08 -939.23 1646.7
-450.72 -926.71 1624.8
-445.51 -933.44 1636.6
-451.29 -954.65 1673.7
-448.90 -977.81 1714.3
-424.46 -933.81 1637.2
-429.34 -954.09 1672.8
-421.97 -947.29 1660.8
-409.75 -929.34 1629.4
-423.26 -969.97 1700.6
-410.27 -960.20 1683.5
-399.12 -944.15 1655.3
-394.39 -943.12 1653.5
-377.83 -913.44 1601.5
-364.91 -892.00 1563.9
-357.89 -894.72 1568.7
-369.16 -933.51 1636.7
-369.82 -946.06 1658.7
-361.54 -935.75 1640.6
-355.68 -966.03 1693.7
-339.37 -933.26 1636.2
-326.85 -910.21 1595.8
-334.08 -942.28 1652.0
-329.92 -942.64 1652.7
-322.22 -932.74 1635.3
-325.26 -954.09 1672.8
-323.31 -974.34 1708.3
-304.75 -931.17 1632.6
-296.83 -919.76 1612.6
-292.75 -920.08 1613.1
-273.75 -912.50 1599.8
-267.52 -905.44 1587.5
-265.48 -912.59 1600.0
-246.92 -905.37 1587.3
-244.33 -911.05 1597.3
-245.82 -932.44 1634.8
-240.00 -926.31 1624.1
-235.10 -923.63 1619.3
-231.46 -925.85 1623.2
-228.16 -929.54 1629.7
-226.25 -939.14 1646.5
-220.87 -934.47 1638.3
-214.29 -924.37 1620.6
-210.25 -925.10 1621.9
-207.63 -932.22 1634.4
-202.48 -928.01 1627.0
-200.41 -938.09 1644.7
-199.49 -954.08 1672.7
-192.78 -942.47 1652.4
-184.20 -920.98 1614.7
-178.22 -911.81 1598.6
-175.52 -919.41 1611.9
-171.20 -918.61 1610.6
-148.20 -905.68 1587.9
-142.22 -893.98 1567.4
-138.15 -949.78 1665.2
-132.25 -938.57 1645.5
-124.30 -911.52 1598.1
-120.37 -913.14 1601.0
-119.38 -938.00 1644.5
-114.34 -931.70 1633.5
-91.55 -915.45 1605.0
-90.65 -949.70 1665.1
-87.29 -960.19 1683.5
-82.38 -953.85 1672.3
-78.33 -957.41 1678.6
-73.99 -957.49 1678.7
-63.20 -926.95 1625.2
-60.79 -955.24 1674.8
-54.14 -916.18 1606.3
-36.92 -902.52 1582.3
-33.38 -917.91 1609.3
8.28 -910.62 1596.5
12.67 -929.44 1629.5
17.29 -951.22 1667.7
21.36 -939.80 1647.7
25.06 -918.97 1611.2
29.54 -928.35 1627.6
34.42 -946.64 1659.7
38.56 -942.64 1652.7
42.48 -934.67 1638.7
47.30 -946.01 1658.6
51.00 -935.06 1639.4
53.35 -902.81 1582.9
73.34 -949.07 1664.0
77.56 -948.00 1662.1
77.38 -895.94 1570.8
89.57 -895.66 1570.3
94.97 -908.42 1592.7
99.14 -908.81 1593.4
105.04 -888.79 1558.3
115.62 -942.08 1651.7
122.15 -959.75 1682.7
127.15 -964.56 1691.1
130.97 -960.46 1683.9
129.68 -920.28 1613.5
132.62 -911.73 1598.5
139.63 -930.85 1632.0
145.86 -891.36 1562.8
158.10 -940.07 1648.2
160.21 -927.55 1626.2
158.62 -894.80 1568.8
169.30 -931.14 1632.5
179.01 -960.55 1684.1
176.65 -925.33 1622.3
171.76 -878.77 1540.7
198.39 -909.30 1594.2
205.22 -921.39 1615.4
208.35 -916.73 1607.2
213.14 -919.45 1612.0
217.04 -918.23 1609.9
222.81 -924.87 1621.5
224.66 -915.28 1604.7
226.72 -890.69 1561.6
232.23 -896.34 1571.5
232.10 -880.36 1543.5
244.06 -910.06 1595.6
259.51 -951.53 1668.3
259.40 -935.53 1640.2
258.59 -917.58 1608.7
265.07 -925.64 1622.9
271.62 -933.68 1637.0
278.23 -941.72 1651.1
281.69 -938.96 1646.2
281.83 -925.42 1622.5
282.46 -913.85 1602.2
294.98 -901.33 1580.3
309.03 -931.32 1632.8
307.89 -915.35 1604.8
313.10 -918.43 1610.2
328.63 -951.30 1667.9
330.27 -943.61 1654.4
314.36 -886.65 1554.5
332.45 -914.24 1602.9
348.14 -945.56 1657.8
349.57 -937.88 1644.3
345.24 -915.09 1604.4
347.03 -908.88 1593.5
343.49 -889.04 1558.7
355.75 -889.37 1559.3
380.24 -889.92 1560.2
385.15 -891.93 1563.8
380.36 -871.66 1528.2
390.55 -885.78 1553.0
401.93 -902.29 1581.9
399.96 -888.81 1558.3
402.10 -875.87 1535.6
418.87 -903.45 1584.0
418.93 -894.80 1568.8
414.12 -876.02 1535.9
421.11 -882.33 1546.9
425.14 -882.37 1547.0
479.36 -917.04 1607.8
491.82 -916.95 1607.6
480.18 -887.73 1556.4
473.77 -868.57 1522.8
477.18 -867.60 1521.1
486.15 -876.66 1537.0
472.50 -845.12 1481.7
511.92 -873.05 1530.7
536.09 -907.23 1590.6
547.81 -919.98 1613.0
526.58 -877.63 1538.7
522.78 -864.75 1516.1
535.05 -878.44 1540.1
533.18 -868.88 1523.4
586.34 -908.41 1592.7
591.62 -910.18 1595.8
562.53 -847.65 1486.1
578.89 -866.37 1519.0
587.50 -873.31 1531.1
594.25 -877.41 1538.3
588.23 -862.73 1512.6
623.53 -885.02 1551.7
639.05 -901.22 1580.1
614.22 -849.86 1490.0
618.99 -851.12 1492.2
626.51 -856.09 1500.9
664.24 -885.65 1552.8
694.18 -914.48 1603.3
675.83 -879.78 1542.5
707.57 -915.68 1605.4
686.40 -883.08 1548.3
703.05 -888.91 1558.5
670.25 -842.60 1477.3
736.91 -905.70 1587.9
754.35 -921.98 1616.5
764.19 -923.74 1619.5
742.63 -892.78 1565.3
783.91 -927.20 1625.6
776.62 -913.67 1601.9
746.23 -873.24 1531.0
784.00 -845.49 1482.4
819.37 -875.05 1534.2
802.78 -853.20 1495.9
818.69 -865.92 1518.2
806.15 -848.58 1487.8
785.79 -823.21 1443.3
814.17 -848.90 1488.3
826.18 -849.34 1489.1
805.78 -824.52 1445.6
822.37 -837.60 1468.5
821.49 -832.85 1460.2
800.31 -807.65 1416.0
812.55 -816.26 1431.1
803.99 -803.99 1409.6
920.69 -788.14 1381.8
936.05 -785.99 1378.0
1016.74 -828.46 1452.5
992.92 -806.06 1413.2
1043.83 -820.15 1437.9
1045.96 -818.90 1435.7
1036.28 -808.44 1417.4
1025.99 -797.59 1398.4
1037.73 -803.87 1409.4
1032.22 -796.80 1397.0
1060.62 -801.84 1405.8
1101.74 -821.64 1440.5
1123.74 -835.22 1464.3
1125.81 -833.94 1462.1
1096.69 -804.24 1410.0
1084.60 -792.73 1389.9
1102.81 -803.37 1408.5
1147.58 -833.23 1460.9
1104.40 -799.24 1401.3
1178.64 -841.88 1476.0
1177.79 -838.56 1470.2
1149.06 -812.84 1425.1
1204.43 -849.28 1489.0
1183.39 -831.77 1458.3
1180.14 -826.85 1449.7
1178.59 -823.14 1443.2
1119.61 -779.48 1366.6
1131.87 -783.06 1372.9
1122.55 -774.17 1357.3
-1471.39 -1022.57 1784.7
-1466.01 -1022.04 1783.8
-1470.03 -1034.64 1805.8
-1430.64 -1010.13 1763.0
-1416.67 -1019.82 1779.9
-1424.32 -1028.67 1795.4
-1485.65 -1076.49 1878.8
-1453.09 -1059.85 1849.8
-1456.65 -1073.07 1872.8
-1464.47 -1082.44 1889.2
-1461.09 -1083.56 1891.2
-1256.39 -947.65 1653.9
-1357.16 -1027.16 1792.7
-1395.53 -1059.83 1849.7
-1336.98 -1018.87 1778.3
-1271.37 -979.00 1708.7
-1270.94 -982.09 1714.1
-1211.66 -939.57 1639.8
-1195.42 -943.53 1646.7
-1160.44 -929.19 1621.7
-1157.92 -930.55 1624.1
-1162.22 -937.41 1636.1
-1203.62 -974.36 1700.6
-1161.28 -947.02 1652.9
-1078.21 -882.53 1540.3
-1116.76 -920.91 1607.3
-1137.90 -941.86 1643.8
-1108.06 -920.61 1606.7
-1080.41 -901.02 1572.6
-1095.72 -924.25 1613.1
-1099.19 -930.73 1624.4
-1042.54 -886.16 1546.6
-1057.63 -905.95 1581.2
-1046.28 -910.35 1588.8
-1081.18 -951.95 1661.5
-1071.53 -947.24 1653.2
-1063.39 -943.81 1647.2
-1065.49 -949.49 1657.2
-1042.78 -933.02 1628.4
-1013.73 -929.60 1622.4
-976.26 -914.21 1595.6
-997.33 -937.91 1637.0
-974.91 -920.75 1607.0
-977.21 -926.88 1617.7
-964.66 -918.93 1603.8
-931.88 -891.54 1556.0
-942.03 -905.17 1579.8
-964.44 -930.74 1624.4
-943.31 -914.34 1595.8
-908.83 -912.96 1593.4
-894.90 -903.07 1576.1
-882.36 -894.50 1561.2
-908.16 -929.18 1621.7
-908.24 -933.58 1629.4
-899.17 -928.58 1620.7
-911.31 -945.54 1650.3
-904.38 -942.78 1645.4
-891.90 -934.17 1630.4
-894.00 -940.82 1642.0
-875.19 -925.44 1615.2
-870.06 -924.44 1613.4
-895.33 -955.89 1668.3
-903.55 -969.34 1691.8
-873.97 -942.18 1644.4
-853.35 -924.46 1613.5
-834.29 -917.30 1601.0
-838.22 -926.24 1616.6
-797.99 -899.77 1570.4
-819.48 -928.75 1621.0
-810.75 -923.59 1612.0
-794.89 -910.21 1588.6
-805.70 -927.39 1618.6
-823.08 -952.36 1662.2
-804.11 -935.30 1632.4
-795.83 -930.57 1624.1
-798.10 -938.19 1637.4
-777.44 -918.79 1603.6
-781.23 -928.24 1620.1
-779.58 -931.28 1625.4
-774.07 -939.94 1640.5
-740.47 -919.35 1604.5
-766.84 -957.47 1671.1
-771.93 -969.30 1691.7
-747.26 -943.68 1647.0
-745.02 -946.25 1651.5
-743.47 -949.76 1657.6
-730.36 -938.42 1637.8
-733.12 -947.48 1653.7
-721.88 -938.44 1637.9
-718.56 -962.44 1679.8
-709.54 -956.15 1668.8
-684.38 -927.91 1619.5
-688.21 -938.86 1638.6
-667.43 -916.16 1599.0
-678.68 -955.35 1667.4
-679.80 -963.06 1680.8
-643.33 -917.26 1600.9
-647.48 -929.17 1621.7
-655.76 -947.21 1653.2
-662.28 -962.92 1680.6
-654.99 -971.49 1695.6
-615.65 -919.32 1604.5
-605.94 -910.97 1589.9
-602.53 -912.05 1591.8
-590.12 -899.42 1569.8
-628.38 -971.13 1694.9
-628.35 -977.92 1706.8
-591.79 -940.91 1642.2
-537.99 -900.73 1572.1
-561.66 -947.54 1653.7
-558.84 -950.02 1658.1
-557.94 -955.85 1668.3
-566.95 -978.87 1708.4
-554.34 -964.64 1683.6
-540.48 -947.99 1654.5
-529.47 -936.11 1633.8
-535.22 -953.89 1664.8
-534.46 -976.17 1703.7
-521.49 -960.41 1676.2
-513.04 -952.78 1662.9
-511.06 -957.16 1670.5
-499.63 -943.75 1647.1
-489.58 -932.73 1627.9
-489.88 -941.42 1643.1
-478.85 -944.87 1649.1
-476.04 -947.78 1654.2
-467.91 -940.08 1640.7
-466.05 -944.92 1649.2
-477.83 -977.77 1706.5
-471.30 -973.44 1699.0
-444.12 -934.76 1631.4
-441.70 -938.61 1638.2
-445.80 -956.52 1669.4
-439.79 -962.30 1679.5
-418.08 -923.97 1612.6
-425.41 -949.64 1657.4
-420.23 -947.67 1654.0
-410.17 -934.51 1631.0
-423.65 -975.28 1702.2
-404.86 -951.86 1661.3
-388.66 -923.58 1611.9
-403.50 -969.27 1691.7
-405.31 -984.31 1717.9
-384.56 -944.30 1648.1
-368.08 -914.00 1595.2
-360.61 -905.62 1580.6
-363.19 -922.59 1610.2
-371.90 -955.68 1668.0
-370.35 -962.92 1680.6
-365.03 -960.39 1676.2
-345.43 -942.48 1644.9
-338.47 -935.02 1631.9
-335.24 -937.83 1636.8
-337.87 -957.29 1670.8
-329.22 -944.92 1649.2
-329.28 -957.52 1671.2
-328.41 -980.79 1711.8
-294.34 -970.89 1694.5
-281.38 -942.20 1644.4
-268.47 -927.06 1618.0
-260.47 -943.68 1647.0
-251.06 -924.75 1614.0
-248.40 -930.45 1623.9
-248.01 -945.01 1649.3
-239.74 -929.50 1622.3
-237.60 -937.66 1636.5
-236.49 -950.25 1658.5
-225.26 -921.89 1609.0
-212.80 -922.12 1609.4
-205.43 -908.02 1584.8
-198.55 -953.89 1664.8
-194.48 -955.10 1667.0
-188.23 -945.42 1650.1
-184.76 -949.58 1657.3
-179.84 -946.32 1651.6
-151.59 -930.59 1624.2
-150.39 -949.59 1657.3
-142.84 -928.44 1620.4
-140.44 -940.49 1641.5
-138.79 -958.50 1672.9
-129.88 -925.92 1616.0
-123.02 -906.22 1581.6
-120.17 -915.78 1598.3
-117.36 -926.33 1616.7
-110.82 -907.10 1583.2
-98.17 -903.98 1577.7
-97.86 -940.33 1641.2
-91.05 -914.62 1596.3
-84.05 -928.72 1620.9
-81.94 -953.15 1663.5
-75.86 -931.38 1625.5
-62.19 -916.21 1599.1
0.00 -905.79 1580.9
4.22 -933.13 1628.6
8.50 -939.59 1639.9
12.85 -946.54 1652.0
17.46 -964.91 1684.1
21.52 -950.97 1659.7
24.90 -917.14 1600.7
28.95 -914.13 1595.4
34.17 -943.92 1647.4
38.76 -951.83 1661.2
50.89 -937.27 1635.8
55.19 -938.20 1637.5
59.52 -939.63 1639.9
64.24 -946.52 1652.0
76.34 -937.34 1636.0
80.58 -937.25 1635.8
82.02 -906.37 1581.9
87.11 -916.70 1599.9
91.20 -916.11 1598.9
95.18 -914.51 1596.1
101.30 -932.77 1628.0
103.54 -915.28 1597.5
106.09 -901.77 1573.9
113.19 -926.46 1617.0
116.92 -922.86 1610.7
118.93 -906.35 1581.9
128.00 -942.92 1645.7
132.24 -942.78 1645.4
147.01 -928.27 1620.1
151.83 -932.07 1626.8
157.51 -940.82 1642.0
163.61 -951.54 1660.7
166.40 -942.94 1645.7
167.50 -925.42 1615.1
167.42 -902.46 1575.1
173.07 -910.69 1589.4
176.29 -906.04 1581.3
190.01 -912.85 1593.2
199.03 -935.87 1633.4
196.78 -906.00 1581.2
205.88 -874.97 1527.1
212.62 -886.59 1547.4
223.09 -913.00 1593.5
227.52 -914.23 1595.6
230.35 -909.05 1586.6
231.72 -898.44 1568.1
231.71 -882.90 1540.9
243.79 -913.20 1593.8
261.56 -947.62 1653.9
262.16 -891.34 1555.7
274.77 -920.07 1605.8
284.36 -937.95 1637.0
282.00 -916.51 1599.6
276.85 -886.72 1547.6
293.67 -914.09 1595.4
297.38 -912.79 1593.1
320.75 -945.13 1649.6
325.07 -945.27 1649.8
316.25 -907.69 1584.2
325.36 -898.81 1568.7
333.42 -909.71 1587.7
345.20 -930.37 1623.8
352.58 -938.79 1638.5
353.52 -930.10 1623.3
349.32 -908.23 1585.1
350.71 -890.88 1554.9
362.16 -909.52 1587.4
356.11 -884.27 1543.3
370.01 -898.59 1568.3
388.10 -932.27 1627.1
399.92 -950.34 1658.6
389.97 -916.84 1600.2
373.66 -869.26 1517.1
429.16 -929.85 1622.9
406.75 -872.73 1523.2
418.89 -873.35 1524.3
428.95 -885.96 1546.3
431.08 -882.12 1539.6
443.42 -899.05 1569.1
452.30 -908.71 1586.0
460.77 -917.40 1601.1
461.75 -911.13 1590.2
454.09 -880.29 1536.4
472.10 -907.25 1583.4
479.22 -913.00 1593.5
475.28 -882.67 1540.5
476.40 -877.37 1531.3
486.93 -889.35 1552.2
494.11 -895.07 1562.2
507.74 -876.64 1530.0
523.38 -896.64 1564.9
536.38 -911.85 1591.5
536.50 -905.09 1579.7
515.74 -850.59 1484.5
525.66 -860.52 1501.9
552.63 -885.01 1544.6
561.05 -892.04 1556.9
560.82 -885.30 1545.1
592.58 -928.80 1621.0
592.85 -916.23 1599.1
604.14 -896.07 1563.9
639.16 -923.24 1611.3
619.33 -888.77 1551.2
629.50 -897.54 1566.5
654.31 -926.93 1617.8
629.07 -885.50 1545.5
686.71 -914.23 1595.6
689.28 -912.16 1592.0
698.98 -914.05 1595.3
703.31 -914.30 1595.7
656.29 -848.19 1480.4
681.46 -870.53 1519.4
704.19 -894.41 1561.0
698.78 -872.49 1522.8
713.33 -885.66 1545.7
709.31 -875.74 1528.4
708.97 -870.45 1519.2
707.44 -863.78 1507.6
708.14 -859.88 1500.8
766.57 -910.81 1589.7
742.54 -877.55 1531.6
754.09 -886.45 1547.1
779.40 -911.36 1590.6
748.93 -831.73 1451.6
784.07 -866.39 1512.1
805.86 -886.05 1546.4
813.32 -889.82 1553.0
766.59 -830.48 1449.4
783.93 -845.12 1475.0
822.60 -874.01 1525.4
774.78 -819.27 1429.9
772.26 -812.71 1418.4
820.29 -859.16 1499.5
824.56 -851.54 1486.2
791.55 -813.64 1420.1
815.51 -834.39 1456.3
823.82 -839.01 1464.3
805.31 -816.39 1424.9
822.42 -829.94 1448.5
813.47 -817.16 1426.2
972.11 -823.13 1436.6
998.23 -842.02 1469.6
1016.33 -854.03 1490.5
1005.01 -822.62 1435.7
1009.29 -823.07 1436.5
1060.97 -843.43 1472.1
1045.12 -824.90 1439.7
1000.77 -787.08 1373.7
1050.45 -823.23 1436.8
1103.59 -861.81 1504.1
1104.20 -859.26 1499.7
1085.91 -842.06 1469.7
1089.15 -841.61 1468.9
1115.16 -858.71 1498.7
1100.50 -844.48 1473.9
1063.94 -813.60 1420.0
1058.88 -806.94 1408.4
1088.17 -815.21 1422.8
1089.62 -813.54 1419.9
1061.30 -787.07 1373.7
1093.89 -808.53 1411.1
1123.25 -827.46 1444.2
1102.84 -809.72 1413.2
1069.38 -782.56 1365.8
1105.27 -795.65 1388.7
1099.73 -789.09 1377.2
1190.89 -843.55 1472.3
1210.14 -854.44 1491.3
1142.91 -804.41 1403.9
1132.80 -784.79 1369.7
-1457.63 -1014.40 1762.5
-1510.42 -1054.44 1832.0
-1541.50 -1079.54 1875.6
-1513.95 -1063.60 1848.0
-1448.55 -1027.41 1785.1
-1413.04 -1025.14 1781.1
-1514.48 -1102.34 1915.3
-1503.76 -1101.76 1914.3
-1379.64 -1014.17 1762.1
-1407.46 -1041.52 1809.6
-1403.67 -1042.19 1810.8
-1434.37 -1072.16 1862.8
-1404.44 -1053.33 1830.1
-1344.93 -1015.56 1764.5
-1347.79 -1021.19 1774.3
-1369.26 -1041.01 1808.7
-1384.04 -1055.86 1834.5
-1305.91 -999.69 1736.9
-1239.56 -952.19 1654.4
-1230.02 -948.14 1647.4
-1223.76 -946.60 1644.7
-1179.96 -919.13 1596.9
-1196.39 -935.21 1624.9
-1200.37 -941.63 1636.0
-1191.93 -948.42 1647.8
-1205.81 -962.91 1673.0
-1158.65 -938.76 1631.1
-1139.05 -936.55 1627.2
-1127.19 -933.72 1622.3
-1156.51 -961.59 1670.7
-1135.88 -947.99 1647.1
-1110.22 -930.07 1615.9
-1074.98 -903.96 1570.6
-1059.75 -894.54 1554.2
-1102.93 -934.54 1623.7
-1120.03 -952.67 1655.2
-1072.95 -916.13 1591.7
-1044.72 -895.47 1555.8
-1061.26 -913.18 1586.6
-1062.18 -917.52 1594.1
-1035.58 -901.56 1566.4
-1057.41 -931.52 1618.5
-1026.61 -918.98 1596.7
-992.21 -910.21 1581.4
-1023.80 -943.09 1638.6
-984.91 -911.05 1582.9
-972.18 -926.28 1609.4
-995.71 -952.79 1655.4
-953.63 -916.48 1592.3
-954.05 -920.87 1600.0
-954.43 -925.26 1607.6
-943.60 -926.90 1610.4
-917.27 -905.04 1572.5
-884.53 -892.57 1550.8
-916.17 -928.72 1613.6
-942.29 -964.00 1674.9
-938.77 -964.85 1676.4
-928.29 -958.52 1665.4
-910.05 -944.07 1640.3
-925.59 -964.70 1676.1
-922.91 -966.44 1679.1
-878.66 -924.47 1606.2
-891.71 -951.73 1653.6
-863.30 -925.86 1608.6
-820.80 -884.55 1536.9
-831.17 -913.46 1587.1
-839.28 -926.96 1610.6
-843.59 -936.39 1626.9
-858.86 -958.12 1664.7
-854.44 -958.01 1664.5
-780.22 -897.45 1559.3
-817.22 -944.91 1641.7
-796.64 -935.74 1625.8
-787.04 -939.38 1632.1
-771.54 -925.85 1608.6
-776.73 -947.44 1646.1
-778.34 -954.65 1658.7
-760.03 -937.37 1628.6
-777.56 -975.24 1694.4
-737.75 -935.89 1626.1
-737.07 -956.90 1662.6
-737.23 -962.74 1672.7
-705.04 -926.15 1609.1
-716.12 -963.51 1674.0
-691.21 -935.66 1625.7
-647.25 -881.54 1531.6
-653.84 -901.57 1566.4
-675.49 -949.10 1649.0
-693.98 -981.29 1705.0
-629.53 -901.65 1566.6
-657.62 -948.00 1647.1
-659.66 -957.15 1663.0
-658.38 -961.58 1670.7
-610.48 -897.53 1559.4
-595.78 -893.68 1552.7
-592.16 -894.27 1553.8
-603.46 -923.92 1605.3
-632.33 -974.84 1693.7
-630.80 -979.28 1701.5
-600.05 -938.10 1629.9
-601.96 -954.54 1658.5
-597.75 -954.68 1658.7
-569.84 -916.69 1592.7
-561.12 -922.72 1603.2
-554.50 -932.57 1620.3
-558.82 -947.02 1645.4
-536.67 -916.47 1592.3
-542.05 -932.83 1620.7
-558.07 -967.91 1681.7
-540.32 -944.50 1641.0
-522.22 -920.10 1598.6
-516.75 -917.76 1594.6
-527.95 -945.20 1642.2
-515.74 -930.84 1617.3
-515.48 -953.63 1656.9
-481.06 -905.04 1572.5
-489.19 -928.21 1612.7
-496.63 -950.45 1651.4
-485.61 -937.44 1628.8
-470.45 -940.91 1634.8
-460.70 -929.78 1615.4
-454.61 -925.90 1608.7
-460.81 -947.23 1645.8
-472.21 -979.72 1702.2
-462.94 -969.55 1684.5
-445.71 -942.36 1637.3
-426.21 -909.80 1580.7
-427.07 -948.09 1647.3
-414.53 -929.55 1615.0
-412.93 -964.95 1676.6
-399.68 -943.92 1640.0
-400.03 -965.28 1677.1
-395.65 -965.22 1677.0
-373.55 -953.19 1656.1
-377.76 -975.14 1694.3
-373.71 -976.03 1695.8
-365.57 -966.14 1678.6
-364.66 -975.36 1694.6
-361.32 -978.21 1699.6
-357.77 -980.56 1703.7
-349.07 -968.67 1683.0
-332.26 -933.68 1622.2
-321.27 -914.39 1588.7
-325.97 -939.81 1632.9
-339.19 -990.80 1721.5
-287.62 -953.01 1655.8
-272.27 -915.82 1591.2
-253.94 -924.18 1605.7
-246.78 -913.08 1586.4
-250.10 -941.05 1635.0
-254.98 -975.94 1695.7
-239.47 -932.68 1620.5
-228.87 -923.79 1605.0
-226.65 -967.64 1681.2
-222.01 -966.40 1679.1
-212.69 -944.34 1640.7
-201.04 -910.85 1582.6
-186.42 -919.65 1597.8
-187.53 -946.16 1643.9
-182.06 -939.91 1633.1
-163.46 -907.21 1576.2
-158.41 -925.46 1607.9
-155.52 -933.09 1621.2
-153.60 -947.18 1645.7
-154.77 -981.67 1705.6
-149.23 -974.37 1692.9
-140.50 -945.19 1642.2
-132.61 -919.97 1598.4
-130.08 -931.56 1618.5
-128.86 -953.60 1656.8
-116.78 -894.01 1553.3
-102.92 -913.92 1587.9
-102.96 -952.38 1654.7
-100.80 -972.92 1690.4
-92.38 -932.18 1619.6
-85.45 -903.38 1569.6
-85.21 -945.83 1643.3
-81.13 -947.92 1647.0
-61.44 -909.35 1580.0
-60.84 -964.76 1676.2
-57.58 -983.28 1708.4
-50.65 -936.97 1627.9
-47.24 -953.48 1656.6
-44.14 -979.96 1702.6
-38.17 -941.60 1636.0
-21.03 -933.76 1622.4
-17.02 -944.75 1641.5
-12.69 -939.28 1632.0
-8.42 -934.30 1623.3
-4.14 -919.35 1597.3
16.99 -942.76 1638.0
21.70 -963.68 1674.4
26.04 -963.66 1674.3
28.98 -919.24 1597.1
32.73 -908.23 1578.0
38.23 -943.10 1638.6
42.39 -941.06 1635.0
55.30 -944.39 1640.8
60.72 -962.77 1672.8
65.82 -974.17 1692.6
67.15 -931.72 1618.8
73.43 -905.64 1573.5
81.64 -953.90 1657.4
87.14 -967.26 1680.6
90.36 -955.20 1659.6
92.53 -933.67 1622.2
103.82 -921.89 1601.7
111.51 -952.15 1654.3
113.06 -929.61 1615.2
123.48 -913.78 1587.7
135.57 -970.87 1686.8
140.35 -944.19 1640.5
143.97 -940.05 1633.3
151.94 -963.76 1674.5
154.97 -955.64 1660.4
156.10 -936.57 1627.2
157.31 -919.00 1596.7
161.07 -916.83 1593.0
169.59 -896.41 1557.5
175.23 -904.66 1571.8
179.07 -903.47 1569.7
184.60 -910.71 1582.3
192.37 -928.37 1613.0
197.34 -932.12 1619.5
191.41 -885.28 1538.1
200.74 -891.29 1548.6
241.28 -923.51 1604.6
244.32 -919.29 1597.2
250.25 -925.94 1608.8
260.05 -946.42 1644.4
262.16 -938.72 1631.0
268.60 -903.48 1569.8
282.32 -895.37 1555.7
296.18 -926.09 1609.0
300.09 -925.28 1607.6
296.70 -902.30 1567.7
307.06 -921.17 1600.5
310.93 -920.34 1599.0
301.32 -880.17 1529.3
309.77 -893.11 1551.7
317.99 -905.05 1572.5
347.37 -940.43 1634.0
340.46 -910.63 1582.2
341.63 -892.25 1550.2
353.47 -912.45 1585.3
355.13 -906.19 1574.5
358.28 -903.84 1570.4
366.31 -913.73 1587.6
379.98 -937.29 1628.5
376.02 -917.33 1593.8
391.92 -935.55 1625.5
387.90 -916.10 1591.7
372.85 -871.29 1513.8
413.25 -917.42 1594.0
423.23 -912.20 1584.9
423.03 -903.00 1568.9
433.64 -899.70 1563.2
453.27 -931.71 1618.8
450.57 -917.67 1594.4
443.66 -895.40 1555.7
441.90 -883.79 1535.5
435.15 -862.52 1498.6
447.90 -879.95 1528.9
472.47 -920.07 1598.6
476.36 -919.57 1597.7
467.62 -894.94 1554.9
467.07 -886.24 1539.8
473.11 -890.09 1546.5
479.44 -894.41 1554.0
485.02 -897.28 1559.0
484.58 -889.07 1544.7
480.38 -874.13 1518.8
483.50 -872.67 1516.2
470.51 -842.37 1463.6
516.61 -896.00 1556.7
520.33 -895.46 1555.8
522.09 -891.57 1549.1
549.79 -931.70 1618.8
547.96 -921.57 1601.2
581.65 -928.97 1614.0
572.56 -907.91 1577.4
592.58 -933.00 1621.0
597.01 -933.35 1621.6
580.02 -900.44 1564.5
559.68 -862.83 1499.1
599.56 -875.67 1521.4
630.84 -903.53 1569.8
610.32 -868.53 1509.0
627.77 -887.68 1542.3
638.69 -897.39 1559.2
669.63 -890.17 1546.6
673.49 -889.97 1546.3
671.32 -881.85 1532.2
654.09 -854.16 1484.1
659.60 -856.32 1487.8
689.99 -890.57 1547.3
681.52 -874.55 1519.5
720.07 -908.27 1578.1
725.45 -909.89 1580.9
701.13 -874.45 1519.3
747.36 -896.83 1558.2
752.34 -897.95 1560.2
731.37 -868.26 1508.6
749.87 -885.48 1538.5
765.76 -899.46 1562.8
744.44 -843.19 1465.0
778.44 -868.41 1508.8
785.80 -872.23 1515.5
777.12 -858.32 1491.3
757.60 -832.61 1446.6
791.99 -857.67 1490.2
767.70 -815.45 1416.8
796.31 -841.81 1462.6
813.97 -856.40 1488.0
833.46 -872.77 1516.4
850.25 -882.03 1532.5
797.74 -819.90 1424.5
837.10 -856.39 1487.9
851.21 -866.83 1506.1
978.82 -801.84 1393.2
1026.16 -825.39 1434.1
1055.79 -846.15 1470.2
1021.92 -810.24 1407.7
1030.35 -811.12 1409.3
1061.39 -832.61 1446.6
1038.77 -812.00 1410.8
1052.69 -819.99 1424.7
1089.37 -845.59 1469.2
1092.60 -845.15 1468.4
1058.34 -815.80 1417.4
1025.53 -787.77 1368.7
1061.15 -809.54 1406.5
1092.78 -830.81 1443.5
1108.03 -839.54 1458.7
1137.13 -858.65 1491.9
1130.98 -851.11 1478.8
1112.04 -834.03 1449.1
1107.98 -828.18 1438.9
1106.66 -824.42 1432.4
1132.08 -840.54 1460.4
1155.93 -855.39 1486.2
1134.48 -836.73 1453.8
1097.76 -806.96 1402.1
1112.50 -791.59 1375.3
1058.69 -739.08 1284.1
1130.22 -786.55 1366.6
-1455.48 -1014.29 1754.4
-1429.77 -999.49 1728.8
-1486.64 -1042.52 1803.2
-1522.96 -1071.36 1853.1
-1467.49 -1038.89 1796.9
-1447.80 -1034.81 1789.9
-1516.80 -1087.61 1881.2
-1495.81 -1076.02 1861.2
-1442.41 -1040.96 1800.5
-1391.48 -1007.47 1742.6
-1468.13 -1073.42 1856.7
-1423.46 -1051.10 1818.0
-1425.83 -1056.34 1827.1
-1437.09 -1068.24 1847.7
-1390.88 -1037.35 1794.3
-1359.32 -1017.21 1759.4
-1415.51 -1062.82 1838.3
-1421.61 -1071.01 1852.5
-1381.29 -1044.16 1806.0
-1382.43 -1048.58 1813.7
-1368.71 -1041.72 1801.8
-1349.00 -1030.23 1781.9
-1324.44 -1014.95 1755.5
-1273.78 -979.49 1694.2
-1202.21 -934.12 1615.7
-1230.22 -962.59 1665.0
-1236.29 -970.75 1679.1
-1231.58 -970.47 1678.6
-1229.01 -971.87 1681.0
-1190.15 -944.50 1633.7
-1237.13 -985.29 1704.2
-1100.09 -895.33 1548.6
-1118.07 -913.29 1579.7
-1140.10 -934.71 1616.7
-1121.45 -922.82 1596.2
-1119.98 -925.02 1600.0
-1134.00 -940.08 1626.0
-1111.32 -924.71 1599.4
-1083.08 -904.59 1564.6
-1108.28 -929.13 1607.1
-1126.68 -948.11 1639.9
-1098.55 -927.95 1605.0
-1092.42 -926.27 1602.1
-1096.43 -933.22 1614.2
-1074.11 -917.73 1587.4
-1074.07 -921.22 1593.4
-1092.09 -940.29 1626.4
-1055.36 -912.19 1577.8
-1002.82 -870.15 1505.1
-1036.19 -906.16 1567.3
-1050.46 -922.25 1595.2
-988.97 -882.16 1525.8
-1026.94 -919.70 1590.8
-1030.60 -926.71 1602.9
-984.93 -903.87 1563.4
-975.60 -899.00 1555.0
-952.50 -881.36 1524.5
-962.24 -894.08 1546.5
-984.18 -918.30 1588.3
-976.74 -915.18 1583.0
-967.62 -926.09 1601.8
-969.82 -936.24 1619.4
-918.40 -898.26 1553.7
-973.76 -956.61 1654.6
-981.21 -968.19 1674.6
-935.38 -927.07 1603.5
-900.62 -896.60 1550.8
-883.73 -895.78 1549.4
-916.23 -932.96 1613.7
-940.98 -962.56 1664.9
-923.48 -949.01 1641.5
-907.82 -937.24 1621.1
-923.45 -966.81 1672.2
-925.07 -973.07 1683.1
-885.99 -936.37 1619.6
-902.47 -962.92 1665.5
-896.81 -961.48 1663.0
-834.70 -899.21 1555.3
-815.01 -882.27 1526.0
-837.66 -911.21 1576.1
-831.73 -913.67 1580.3
-855.09 -953.43 1649.1
-834.67 -944.83 1634.2
-783.99 -910.57 1575.0
-815.22 -951.80 1646.3
-763.15 -905.23 1565.7
-755.70 -920.88 1592.8
-791.11 -969.33 1676.6
-790.77 -974.26 1685.1
-755.17 -935.58 1618.2
-760.15 -963.15 1665.9
-733.74 -935.00 1617.2
-701.49 -904.23 1564.0
-717.26 -940.88 1627.4
-735.56 -970.59 1678.8
-700.00 -929.17 1607.1
-680.20 -908.29 1571.0
-672.56 -914.52 1581.8
-647.30 -885.57 1531.7
-655.23 -907.56 1569.8
-655.35 -913.39 1579.9
-644.99 -904.62 1564.7
-657.44 -927.90 1605.0
-651.41 -925.25 1600.4
-667.01 -959.64 1659.8
-663.82 -961.25 1662.6
-634.31 -924.52 1599.1
-631.24 -926.10 1601.8
-606.28 -919.73 1590.8
-621.23 -962.05 1664.0
-613.35 -956.48 1654.4
-590.93 -928.01 1605.1
-591.68 -935.77 1618.6
-608.24 -968.85 1675.8
-610.54 -979.50 1694.2
-603.28 -974.86 1686.2
-601.93 -979.79 1694.7
-593.24 -972.74 1682.5
-534.81 -924.52 1599.1
-557.22 -970.78 1679.1
-546.61 -959.80 1660.1
-523.58 -926.65 1602.8
-514.06 -917.08 1586.2
-507.39 -942.91 1630.9
-506.03 -948.27 1640.2
-483.11 -913.00 1579.2
-464.64 -933.46 1614.6
-451.35 -915.00 1582.6
-442.01 -904.29 1564.1
-457.17 -970.93 1679.4
-440.76 -945.10 1634.7
-432.00 -953.81 1649.8
-430.55 -960.13 1660.7
-402.74 -965.71 1670.3
-402.02 -974.47 1685.5
-382.42 -937.14 1620.9
-377.27 -956.04 1653.6
-376.59 -965.29 1669.6
-377.92 -979.94 1695.0
-371.62 -974.94 1686.3
-359.98 -955.67 1653.0
-355.84 -956.06 1653.7
-349.16 -949.55 1642.4
-342.72 -943.53 1632.0
-342.33 -954.24 1650.5
-332.59 -938.84 1623.9
-327.48 -936.24 1619.4
-338.05 -979.01 1693.4
-329.24 -966.06 1671.0
-301.84 -934.85 1617.0
-300.11 -942.59 1630.4
-298.31 -950.34 1643.8
-291.55 -942.25 1629.8
-274.17 -926.36 1602.3
-275.59 -945.48 1635.4
-249.05 -910.46 1574.8
-245.71 -913.21 1579.5
-252.71 -955.16 1652.1
-255.21 -981.24 1697.2
-236.54 -925.42 1600.7
-224.94 -912.03 1577.5
-219.35 -905.82 1566.8
-224.79 -945.82 1635.9
-221.65 -969.18 1676.4
-217.58 -970.42 1678.5
-210.55 -958.22 1657.4
-203.63 -946.01 1636.3
-199.75 -947.73 1639.2
-185.58 -899.65 1556.1
-184.57 -935.42 1618.0
-184.16 -955.06 1651.9
-163.01 -908.79 1571.9
-166.82 -953.84 1649.8
-160.79 -943.55 1632.0
-149.00 -922.95 1596.4
-149.11 -950.06 1643.3
-147.31 -966.19 1671.2
-142.12 -960.37 1661.1
-135.11 -941.55 1628.6
-132.99 -956.68 1654.7
-121.20 -931.99 1612.0
-104.20 -929.50 1607.7
-101.07 -939.11 1624.3
-96.15 -932.22 1612.4
-92.82 -940.83 1627.3
-90.63 -962.43 1664.7
-88.07 -982.03 1698.6
-81.68 -958.62 1658.1
-64.74 -902.35 1560.8
-61.85 -919.43 1590.3
-59.55 -948.51 1640.6
-54.74 -939.07 1624.3
-49.11 -912.61 1578.5
-46.70 -946.69 1637.5
-43.49 -969.76 1677.4
-37.40 -926.77 1603.0
-21.80 -972.45 1682.0
-17.47 -973.97 1684.6
-12.89 -958.47 1657.8
-8.46 -943.47 1631.9
4.19 -934.46 1616.3
12.31 -914.93 1582.5
16.58 -924.42 1598.9
21.00 -936.41 1619.7
25.98 -965.41 1669.8
29.82 -949.87 1642.9
45.91 -930.68 1609.8
51.05 -948.64 1640.8
56.93 -976.60 1689.2
59.58 -949.01 1641.5
61.54 -914.93 1582.5
66.64 -928.86 1606.6
71.64 -939.79 1625.5
75.29 -932.71 1613.3
81.04 -951.12 1645.1
92.57 -938.33 1623.0
106.45 -949.49 1642.3
115.72 -955.74 1653.1
114.66 -913.15 1579.4
119.12 -916.01 1584.4
137.98 -961.52 1663.1
139.46 -942.40 1630.0
142.22 -906.15 1567.3
149.56 -926.44 1602.4
155.09 -934.75 1616.8
155.52 -912.63 1578.5
164.53 -917.26 1586.6
168.43 -916.08 1584.5
171.94 -912.90 1579.0
187.89 -891.48 1542.0
194.20 -902.22 1560.5
207.16 -942.80 1630.7
210.67 -939.58 1625.2
206.75 -904.04 1563.7
212.38 -910.77 1575.3
222.19 -934.88 1617.0
222.96 -920.72 1592.5
244.98 -895.58 1549.1
251.81 -905.72 1566.6
273.13 -937.06 1620.8
264.64 -894.18 1546.6
288.78 -907.01 1568.8
300.10 -916.74 1585.6
308.03 -928.26 1605.6
309.76 -921.01 1593.0
304.52 -893.53 1545.5
315.74 -914.40 1581.6
331.27 -947.09 1638.1
334.34 -943.77 1632.4
340.75 -938.11 1622.6
352.42 -958.41 1657.7
336.25 -903.41 1562.6
382.15 -946.87 1637.8
387.22 -948.91 1641.3
381.00 -894.34 1546.9
412.68 -939.05 1624.2
399.34 -899.51 1555.9
433.36 -938.25 1622.9
425.53 -912.44 1578.2
431.08 -898.41 1553.9
455.85 -941.24 1628.0
458.17 -937.35 1621.3
436.15 -868.41 1502.1
471.03 -929.56 1607.8
478.17 -935.37 1617.9
462.86 -897.54 1552.4
467.64 -898.99 1554.9
482.08 -918.83 1589.3
470.82 -889.78 1539.0
479.83 -891.68 1542.3
493.77 -910.01 1574.0
485.69 -887.77 1535.5
484.33 -878.10 1518.8
477.26 -858.30 1484.6
548.25 -926.21 1602.0
557.50 -934.75 1616.8
551.26 -917.40 1586.8
544.59 -899.58 1556.0
564.82 -912.71 1578.7
562.71 -889.96 1539.3
579.09 -909.42 1573.0
573.62 -894.53 1547.2
559.11 -865.84 1497.6
599.08 -908.80 1571.9
611.89 -921.97 1594.7
597.85 -894.77 1547.6
635.93 -926.88 1603.2
640.30 -927.19 1603.7
622.34 -878.37 1519.3
646.61 -884.63 1530.1
646.31 -878.82 1520.1
649.43 -877.71 1518.1
658.47 -884.57 1530.0
654.35 -863.43 1493.4
659.15 -864.65 1495.6
687.97 -897.18 1551.8
689.68 -894.17 1546.6
651.17 -839.38 1451.8
714.72 -875.73 1514.7
691.11 -842.17 1456.7
725.78 -847.37 1465.7
726.43 -826.49 1429.6
762.28 -862.89 1492.5
777.63 -862.75 1492.3
773.41 -853.81 1476.8
781.97 -859.01 1485.8
762.42 -829.36 1434.5
788.15 -853.19 1475.7
786.62 -835.32 1444.8
789.26 -834.14 1442.8
805.20 -846.98 1465.0
834.17 -873.33 1510.6
799.63 -825.55 1427.9
837.22 -860.37 1488.1
839.45 -858.71 1485.3
812.56 -827.40 1431.1
789.64 -796.78 1378.2
1001.10 -808.86 1399.1
1011.64 -814.42 1408.7
1007.91 -808.51 1398.4
1006.47 -779.32 1348.0
1005.13 -775.58 1341.5
1079.31 -824.27 1425.7
1115.41 -848.93 1468.4
1119.72 -849.31 1469.0
1087.58 -822.14 1422.0
1079.08 -812.95 1406.1
1086.59 -815.86 1411.2
1074.11 -803.78 1390.3
1084.40 -808.77 1398.9
1120.97 -833.25 1441.2
1108.98 -821.60 1421.1
1100.28 -812.46 1405.3
1116.27 -821.55 1421.0
1117.66 -819.86 1418.1
1100.18 -799.16 1382.3
1090.44 -779.39 1348.1
1110.60 -791.26 1368.6
1063.89 -750.79 1298.6
1069.03 -752.03 1300.8
1061.39 -744.31 1287.4
-1440.41 -1008.29 1736.2
-1543.58 -1108.21 1908.3
-1472.99 -1064.36 1832.8
-1473.20 -1067.95 1838.9
-1475.66 -1073.20 1848.0
-1420.81 -1036.68 1785.1
-1368.28 -1011.53 1741.8
-1423.05 -1059.01 1823.6
-1461.63 -1095.00 1885.5
-1446.03 -1086.95 1871.7
-1422.17 -1072.61 1847.0
-1357.47 -1027.27 1768.9
-1343.25 -1019.96 1756.3
-1367.59 -1041.97 1794.2
-1328.11 -1015.34 1748.4
-1281.12 -982.78 1692.3
-1289.52 -992.62 1709.2
-1263.51 -975.95 1680.5
-1237.84 -962.76 1657.8
-1248.62 -981.37 1689.9
-1229.39 -969.66 1669.7
-1188.27 -940.54 1619.5
-1138.55 -907.60 1562.8
-1187.75 -950.20 1636.2
-1190.11 -958.94 1651.2
-1117.91 -904.02 1556.7
-1115.00 -904.92 1558.2
-1141.98 -930.20 1601.7
-1159.91 -948.25 1632.8
-1117.68 -917.07 1579.1
-1087.62 -895.69 1542.3
-1090.41 -901.30 1552.0
-1106.63 -918.09 1580.9
-1131.51 -942.23 1622.5
-1122.76 -938.43 1615.9
-1049.83 -880.75 1516.6
-1050.66 -888.10 1529.3
-1039.70 -885.53 1524.8
-1070.19 -914.97 1575.5
-1046.95 -898.53 1547.2
-1045.97 -901.14 1551.7
-1079.62 -933.73 1607.8
-1057.97 -918.55 1581.7
-1033.43 -900.73 1551.0
-1055.29 -923.38 1590.0
-1053.18 -925.15 1593.0
-1029.77 -908.15 1563.8
-1019.80 -902.91 1554.8
-1036.42 -921.27 1586.4
-1046.05 -933.53 1607.5
-1053.64 -944.06 1625.6
-1034.83 -930.93 1603.0
-996.31 -907.21 1562.2
-969.61 -886.50 1526.5
-998.43 -920.37 1584.8
-982.86 -909.75 1566.5
-946.44 -879.68 1514.8
-944.35 -881.39 1517.7
-962.07 -901.69 1552.7
-957.50 -920.52 1585.1
-946.89 -914.24 1574.3
-932.60 -916.24 1577.7
-954.75 -942.14 1622.3
-931.97 -923.73 1590.6
-919.68 -915.59 1576.6
-918.21 -918.21 1581.1
-912.25 -916.34 1577.9
-913.43 -921.66 1587.0
-908.80 -921.13 1586.1
-902.39 -918.80 1582.1
-899.97 -920.52 1585.1
-890.51 -915.02 1575.6
-874.96 -903.18 1555.2
-861.67 -893.58 1538.7
-873.48 -918.59 1581.8
-868.85 -918.03 1580.8
-858.23 -911.11 1568.9
-876.20 -934.62 1609.4
-886.36 -949.97 1635.8
-859.63 -925.76 1594.1
-824.66 -892.39 1536.6
-831.44 -904.09 1556.8
-841.06 -919.01 1582.5
-830.18 -911.57 1569.7
-839.24 -926.05 1594.6
-848.60 -941.02 1620.4
-858.88 -966.78 1664.7
-837.02 -946.93 1630.6
-828.63 -942.20 1622.4
-840.80 -960.91 1654.6
-809.56 -929.95 1601.3
-806.97 -941.47 1621.1
-782.95 -918.23 1581.1
-797.46 -945.14 1627.5
-767.08 -913.97 1573.8
-759.36 -909.61 1566.3
-783.23 -943.25 1624.2
-762.02 -922.66 1588.8
-754.30 -918.28 1581.2
-749.66 -917.61 1580.1
-745.01 -916.94 1578.9
-767.07 -949.30 1634.6
-753.70 -937.93 1615.1
-728.86 -912.09 1570.6
-731.52 -963.88 1659.7
-741.93 -983.38 1693.3
-698.96 -931.94 1604.8
-687.25 -921.82 1587.3
-693.75 -936.14 1612.0
-694.24 -942.48 1622.9
-687.77 -939.39 1617.6
-670.69 -921.68 1587.1
-667.05 -922.34 1588.2
-686.16 -954.65 1643.9
-684.41 -958.17 1649.9
-656.10 -924.32 1591.6
-651.10 -923.08 1589.5
-668.02 -953.10 1641.2
-680.74 -977.47 1683.1
-630.93 -929.79 1601.0
-625.44 -946.61 1630.0
-636.03 -969.19 1668.9
-618.75 -949.31 1634.7
-622.33 -961.40 1655.5
-619.44 -970.31 1670.8
-591.45 -946.32 1629.5
-589.39 -949.80 1635.5
-576.35 -935.53 1610.9
-583.70 -954.37 1643.4
-584.76 -963.13 1658.5
-573.29 -951.23 1638.0
-565.08 -944.61 1626.6
-533.78 -898.99 1548.0
-544.51 -938.24 1615.6
-539.54 -936.87 1613.2
-539.81 -944.67 1626.7
-552.62 -974.69 1678.4
-553.75 -984.45 1695.2
-519.19 -930.38 1602.1
-517.32 -942.11 1622.3
-516.31 -947.98 1632.4
-503.73 -932.52 1605.7
-517.77 -966.51 1664.3
-511.17 -962.20 1656.9
-471.98 -943.95 1625.4
-459.32 -926.91 1596.1
-435.13 -919.53 1583.4
-451.18 -962.52 1657.4
-437.57 -942.46 1622.8
-441.45 -960.05 1653.1
-443.24 -983.02 1692.7
-413.47 -926.16 1594.8
-390.47 -940.48 1619.4
-380.58 -926.63 1595.6
-381.21 -938.36 1615.8
-380.35 -946.65 1630.1
-377.66 -950.50 1636.7
-378.02 -962.24 1656.9
-365.85 -941.95 1622.0
-355.92 -927.06 1596.3
-361.48 -952.60 1640.3
-361.44 -963.85 1659.7
-349.05 -942.02 1622.1
-333.59 -911.28 1569.2
-340.38 -941.29 1620.8
-352.73 -987.63 1700.6
-341.48 -968.23 1667.2
-334.87 -961.68 1656.0
-336.15 -977.88 1683.8
-300.88 -949.25 1634.6
-303.41 -970.92 1671.9
-300.25 -974.72 1678.4
-290.12 -955.69 1645.6
-276.36 -937.94 1615.1
-275.57 -949.67 1635.3
-252.97 -928.96 1599.6
-252.37 -942.17 1622.4
-246.79 -936.97 1613.4
-236.88 -914.83 1575.3
-227.51 -926.57 1595.5
-227.76 -944.77 1626.8
-222.42 -940.03 1618.7
-217.00 -934.79 1609.6
-209.25 -919.06 1582.6
-207.59 -948.97 1634.1
-208.75 -974.16 1677.4
-196.76 -958.13 1649.8
-184.60 -918.88 1582.2
-185.15 -942.57 1623.0
-185.01 -963.77 1659.6
-172.40 -919.47 1583.3
-166.05 -929.85 1601.2
-152.61 -949.58 1635.1
-151.84 -971.78 1673.3
-149.81 -986.97 1699.5
-140.33 -952.58 1640.3
-127.37 -920.32 1584.7
-126.43 -944.01 1625.5
-120.22 -928.61 1599.0
-85.64 -913.49 1573.0
-86.00 -963.25 1658.7
-81.12 -956.32 1646.7
-71.18 -937.93 1615.1
-69.80 -977.15 1682.6
-63.76 -952.13 1639.5
-58.67 -938.65 1616.3
-55.94 -963.81 1659.6
-52.17 -973.91 1677.0
-47.31 -963.42 1659.0
-42.03 -941.38 1621.0
-37.10 -923.35 1590.0
-32.24 -902.81 1554.6
-21.76 -974.70 1678.4
-17.19 -962.67 1657.7
-12.44 -929.04 1599.8
4.20 -941.62 1621.4
8.30 -930.06 1601.5
12.12 -904.94 1558.2
45.36 -923.76 1590.7
51.29 -957.34 1648.5
55.06 -948.75 1633.7
55.50 -887.95 1529.0
69.54 -916.35 1577.9
76.45 -951.39 1638.2
81.75 -963.85 1659.7
93.16 -948.50 1633.3
92.44 -900.25 1550.2
99.72 -930.73 1602.7
104.42 -935.63 1611.1
106.20 -914.96 1575.5
114.08 -946.42 1629.7
120.35 -962.83 1657.9
122.10 -943.14 1624.0
139.01 -889.67 1532.0
148.11 -921.55 1586.9
155.33 -940.40 1619.3
157.38 -927.71 1597.5
160.60 -899.34 1548.6
186.23 -948.07 1632.5
188.51 -938.36 1615.8
186.81 -909.68 1566.4
186.74 -889.99 1532.5
192.91 -900.26 1550.2
204.53 -934.99 1610.0
206.09 -923.28 1589.8
212.84 -916.83 1578.7
221.00 -934.04 1608.4
220.18 -913.36 1572.7
244.98 -899.60 1549.1
258.70 -934.64 1609.4
269.95 -930.29 1601.9
264.65 -898.19 1546.6
312.90 -934.53 1609.2
323.67 -953.99 1642.7
323.22 -940.27 1619.1
326.95 -938.92 1616.8
324.21 -919.28 1582.9
327.16 -904.73 1557.9
339.20 -926.59 1595.5
341.37 -921.29 1586.4
337.57 -900.18 1550.1
372.83 -927.94 1597.9
380.18 -925.65 1593.9
402.60 -884.15 1522.4
416.92 -906.71 1561.3
411.00 -885.23 1524.3
499.02 -923.80 1590.7
504.44 -926.18 1594.8
497.38 -905.80 1559.7
484.53 -875.28 1507.2
505.97 -858.61 1478.5
535.78 -902.36 1553.8
551.84 -922.49 1588.5
541.71 -898.84 1547.8
517.68 -852.65 1468.2
560.60 -896.97 1544.5
562.74 -894.00 1539.4
561.51 -885.76 1525.2
579.75 -908.14 1563.8
590.80 -919.02 1582.5
603.82 -884.03 1522.2
667.77 -879.88 1515.1
679.07 -889.54 1531.7
663.82 -864.51 1488.6
674.04 -872.75 1502.8
699.96 -901.10 1551.6
695.05 -889.66 1531.9
707.29 -900.19 1550.1
714.09 -903.70 1556.1
695.33 -875.02 1506.7
689.76 -863.16 1486.3
722.26 -898.81 1547.7
751.28 -929.76 1601.0
724.61 -891.83 1535.7
693.10 -848.38 1460.9
758.98 -914.04 1573.9
753.56 -902.66 1554.3
738.73 -880.19 1515.6
742.45 -879.95 1515.2
762.24 -898.64 1547.4
788.86 -925.15 1593.1
763.87 -891.19 1534.6
751.49 -858.84 1478.9
785.81 -893.51 1538.6
786.30 -889.55 1531.8
764.35 -860.38 1481.5
784.97 -866.18 1491.5
768.62 -843.98 1453.3
750.86 -820.45 1412.8
780.46 -844.56 1454.3
813.14 -875.69 1507.9
812.53 -870.85 1499.5
801.23 -854.65 1471.7
804.78 -854.36 1471.2
823.78 -870.40 1498.8
829.53 -872.37 1502.2
808.90 -846.70 1458.0
805.40 -831.38 1431.6
800.49 -822.52 1416.3
790.67 -808.72 1392.6
790.26 -800.98 1379.2
929.29 -806.83 1389.3
939.52 -812.56 1399.2
987.17 -809.98 1394.7
1014.92 -829.71 1428.7
1006.12 -796.36 1371.3
1034.96 -816.31 1405.6
1054.78 -829.02 1427.5
1070.36 -838.33 1443.5
1042.17 -813.40 1400.6
1023.03 -795.69 1370.1
1020.64 -791.09 1362.2
1085.44 -829.82 1428.9
1107.83 -844.06 1453.4
1034.20 -780.00 1343.1
1055.50 -793.40 1366.2
1059.06 -793.41 1366.2
1080.47 -806.75 1389.2
1084.07 -806.75 1389.2
1093.27 -810.90 1396.3
1080.07 -788.06 1357.0
1081.62 -774.07 1332.9
1048.24 -747.79 1287.6
1071.24 -761.77 1311.7
1122.64 -795.80 1370.3
1076.34 -760.57 1309.7
-1449.82 -1019.41 1747.6
-1438.69 -1014.75 1739.6
-1506.21 -1075.87 1844.3
-1490.94 -1068.35 1831.5
-1440.46 -1052.29 1803.9
-1446.35 -1060.03 1817.2
-1464.06 -1076.52 1845.5
-1403.50 -1049.13 1798.5
-1467.77 -1100.83 1887.1
-1425.45 -1072.66 1838.8
-1379.12 -1051.87 1803.2
-1395.11 -1067.69 1830.3
-1342.42 -1030.87 1767.2
-1181.03 -922.68 1581.7
-1202.11 -952.37 1632.6
-1208.73 -961.00 1647.4
-1108.81 -897.42 1538.4
-1150.21 -934.29 1601.6
-1130.91 -921.94 1580.5
-1140.00 -932.73 1599.0
-1133.85 -931.08 1596.1
-1091.36 -912.85 1564.9
-1085.29 -911.16 1562.0
-1057.66 -908.29 1557.1
-1031.44 -889.17 1524.3
-1024.96 -886.99 1520.6
-1052.12 -914.00 1566.9
-1067.58 -931.03 1596.1
-1079.44 -945.04 1620.1
-1076.28 -945.95 1621.6
-1050.30 -926.74 1588.7
-1077.85 -954.79 1636.8
-1087.14 -970.66 1664.0
-1047.12 -938.65 1609.1
-1040.52 -936.47 1605.4
-1006.18 -909.20 1558.6
-992.55 -907.82 1556.3
-982.24 -902.05 1546.4
-989.15 -919.67 1576.6
-987.89 -922.30 1581.1
-967.67 -907.19 1555.2
-967.36 -910.70 1561.2
-962.33 -909.77 1559.6
-964.80 -915.95 1570.2
-968.63 -923.48 1583.1
-966.83 -933.64 1600.5
-949.73 -921.08 1579.0
-900.78 -885.05 1517.2
-922.67 -910.53 1560.9
-913.57 -905.52 1552.3
-917.14 -913.08 1565.3
-930.55 -930.55 1595.2
-931.29 -935.44 1603.6
-929.75 -938.08 1608.1
-918.84 -931.25 1596.4
-900.88 -917.18 1572.3
-888.38 -916.91 1571.8
-901.26 -934.48 1602.0
-868.28 -904.46 1550.5
-871.11 -928.91 1592.4
-886.88 -950.23 1629.0
-896.14 -964.74 1653.8
-885.86 -958.26 1642.7
-868.48 -944.00 1618.3
-852.45 -931.08 1596.1
-840.69 -922.71 1581.8
-821.93 -906.54 1554.1
-824.38 -913.72 1566.4
-847.39 -943.88 1618.1
-834.87 -934.56 1602.1
-815.47 -917.41 1572.7
-800.40 -914.17 1567.1
-819.51 -940.76 1612.7
-793.99 -916.14 1570.5
-793.87 -925.50 1586.6
-810.94 -950.33 1629.1
-777.21 -925.26 1586.2
-769.07 -920.43 1577.9
-783.74 -943.01 1616.6
-796.32 -963.29 1651.4
-764.35 -929.61 1593.6
-746.72 -913.11 1565.3
-729.59 -897.04 1537.8
-758.95 -948.68 1626.3
-770.94 -969.06 1661.2
-740.57 -936.11 1604.8
-721.64 -922.55 1581.5
-729.76 -938.26 1608.5
-726.88 -962.05 1649.2
-702.85 -941.31 1613.7
-712.84 -960.41 1646.4
-697.24 -945.06 1620.1
-675.87 -921.64 1580.0
-681.92 -935.56 1603.8
-677.91 -935.76 1604.2
-671.50 -932.64 1598.8
-687.85 -961.28 1647.9
-676.64 -951.53 1631.2
-639.35 -904.74 1551.0
-626.43 -892.07 1529.3
-637.50 -913.62 1566.2
-651.69 -939.94 1611.3
-651.51 -958.10 1642.5
-635.45 -940.63 1612.5
-623.86 -948.44 1625.9
-610.99 -935.19 1603.2
-619.36 -954.49 1636.3
-585.87 -921.82 1580.3
-583.84 -931.66 1597.1
-555.52 -912.36 1564.0
-573.38 -948.60 1626.2
-578.20 -963.66 1652.0
-582.89 -978.73 1677.8
-562.62 -951.81 1631.7
-537.76 -916.63 1571.4
-548.93 -942.82 1616.3
-569.66 -985.96 1690.2
-572.84 -999.13 1712.8
-554.13 -974.06 1669.8
-548.76 -972.21 1666.6
-552.36 -986.36 1690.9
-507.75 -928.81 1592.2
-523.68 -965.80 1655.6
-527.26 -980.45 1680.8
-530.73 -995.11 1705.9
-512.95 -969.86 1662.6
-489.50 -933.38 1600.1
-497.28 -956.31 1639.4
-514.42 -997.80 1710.5
-511.26 -1000.30 1714.8
-483.40 -971.11 1664.8
-487.29 -987.76 1693.3
-459.72 -940.33 1612.0
-432.59 -918.23 1574.1
-441.08 -945.18 1620.3
-437.36 -964.75 1653.9
-434.60 -968.17 1659.7
-411.05 -924.87 1585.5
-386.65 -925.48 1586.5
-375.16 -907.65 1556.0
-372.82 -932.06 1597.8
-382.13 -966.07 1656.1
-386.70 -988.73 1695.0
-378.07 -977.77 1676.2
-353.83 -925.73 1587.0
-346.69 -917.70 1573.2
-353.84 -947.79 1624.8
-348.12 -943.71 1617.8
-343.40 -953.88 1635.2
-354.63 -997.40 1709.8
-342.84 -976.45 1673.9
-332.78 -959.95 1645.6
-331.02 -967.27 1658.2
-284.23 -940.47 1612.2
-256.35 -945.55 1620.9
-257.55 -965.81 1655.7
-253.46 -966.59 1657.0
-244.73 -949.38 1627.5
-236.15 -932.16 1598.0
-232.07 -932.42 1598.4
-234.95 -961.18 1647.7
-231.95 -966.44 1656.8
-223.82 -950.18 1628.9
-217.69 -941.92 1614.7
-210.04 -926.64 1588.5
-204.08 -918.36 1574.3
-202.77 -931.11 1596.2
-191.31 -896.76 1537.3
-193.61 -968.07 1659.6
-182.59 -933.69 1600.6
-169.97 -932.77 1599.0
-167.73 -943.50 1617.4
-160.09 -923.61 1583.3
-154.42 -939.02 1609.8
-151.96 -949.74 1628.1
-146.12 -939.36 1610.3
-103.87 -898.90 1541.0
-101.06 -909.57 1559.3
-97.41 -913.21 1565.5
-86.81 -930.13 1594.5
-84.66 -952.37 1632.6
-72.40 -958.17 1642.6
-69.50 -977.39 1675.5
-50.77 -951.97 1632.0
-46.69 -955.05 1637.2
-41.89 -942.51 1615.7
-37.42 -935.50 1603.7
-33.80 -950.65 1629.7
-30.34 -975.37 1672.1
-26.20 -982.46 1684.2
-21.78 -979.97 1679.9
-17.26 -970.92 1664.4
-4.14 -932.16 1598.0
0.00 -929.14 1592.8
4.07 -916.54 1571.2
8.03 -903.94 1549.6
16.22 -912.47 1564.2
21.50 -967.37 1658.4
25.35 -950.72 1629.8
40.01 -900.19 1543.2
50.13 -939.88 1611.2
53.14 -919.68 1576.6
73.63 -920.33 1577.7
80.86 -957.50 1641.4
86.27 -970.49 1663.7
90.15 -965.86 1655.8
92.95 -950.66 1629.7
96.04 -939.48 1610.5
100.15 -938.87 1609.5
101.34 -912.09 1563.6
108.28 -902.30 1546.8
115.27 -926.31 1588.0
143.39 -921.78 1580.2
151.40 -946.22 1622.1
157.31 -956.60 1639.9
162.38 -961.44 1648.2
165.66 -955.73 1638.4
167.47 -941.99 1614.8
166.41 -913.20 1565.5
185.63 -949.23 1627.3
187.80 -938.99 1609.7
184.35 -901.69 1545.8
202.12 -928.10 1591.0
208.75 -939.39 1610.4
212.19 -936.15 1604.8
252.42 -931.07 1596.1
264.05 -958.24 1642.7
254.12 -907.55 1555.8
267.28 -911.18 1562.0
275.54 -925.33 1586.3
283.43 -898.20 1539.8
289.08 -903.36 1548.6
301.70 -929.90 1594.1
300.82 -914.65 1568.0
305.60 -916.80 1571.7
312.75 -925.90 1587.3
331.97 -910.88 1561.5
332.41 -901.11 1544.8
338.13 -905.69 1552.6
336.96 -891.96 1529.1
349.00 -902.59 1547.3
353.45 -903.70 1549.2
357.90 -904.79 1551.1
365.71 -914.28 1567.3
372.01 -919.81 1576.8
377.75 -923.84 1583.7
420.70 -937.21 1606.6
412.64 -910.23 1560.4
410.64 -897.02 1537.7
414.19 -896.09 1536.1
448.91 -878.31 1505.7
456.34 -885.15 1517.4
465.05 -879.30 1507.4
483.35 -891.43 1528.2
468.98 -857.89 1470.7
485.36 -880.70 1509.8
508.67 -915.61 1569.6
519.50 -927.68 1590.3
530.71 -932.89 1599.2
530.10 -924.59 1585.0
528.29 -914.36 1567.5
520.66 -880.82 1510.0
542.65 -911.17 1562.0
539.42 -899.03 1541.2
524.43 -867.62 1487.3
529.42 -869.49 1490.5
591.42 -924.10 1584.2
581.76 -896.54 1536.9
576.91 -883.03 1513.8
572.27 -870.00 1491.4
593.88 -879.10 1507.0
618.76 -881.15 1510.5
645.38 -913.28 1565.6
665.17 -935.40 1603.5
665.80 -930.47 1595.1
693.61 -902.10 1546.5
713.07 -922.07 1580.7
700.57 -900.73 1544.1
687.17 -878.48 1506.0
669.91 -851.58 1459.8
686.88 -868.24 1488.4
714.02 -897.51 1538.6
709.97 -887.46 1521.4
699.46 -869.49 1490.6
722.01 -887.72 1521.8
702.91 -859.53 1473.5
782.09 -946.08 1621.9
779.49 -937.89 1607.8
753.93 -902.31 1546.8
746.42 -888.60 1523.3
756.42 -895.76 1535.6
770.80 -908.01 1556.6
756.81 -868.78 1489.3
757.62 -865.30 1483.4
755.56 -858.60 1471.9
764.17 -842.83 1444.9
769.35 -844.41 1447.6
787.52 -860.16 1474.6
821.79 -893.26 1531.3
826.33 -893.86 1532.3
798.64 -859.78 1473.9
767.73 -822.56 1410.1
752.77 -802.72 1376.1
789.99 -838.44 1437.3
814.99 -860.90 1475.8
812.05 -853.79 1463.6
796.05 -833.07 1428.1
810.37 -844.13 1447.1
846.19 -877.38 1504.1
800.20 -825.90 1415.8
800.63 -815.12 1397.4
1017.88 -854.56 1465.0
991.77 -829.55 1422.1
975.40 -803.90 1378.1
997.88 -819.42 1404.7
1000.00 -815.21 1397.5
1042.68 -846.94 1451.9
1011.04 -818.29 1402.8
1014.60 -812.41 1392.7
1001.56 -796.29 1365.1
1051.84 -833.33 1428.6
1089.45 -860.09 1474.4
1092.16 -856.22 1467.8
1059.62 -827.83 1419.1
1043.74 -812.60 1393.0
1028.90 -792.82 1359.1
1080.74 -829.92 1422.7
1088.26 -832.86 1427.8
1041.91 -786.68 1348.6
1030.42 -775.40 1329.3
1075.73 -806.80 1383.1
1107.26 -827.69 1418.9
1078.98 -803.87 1378.1
1056.58 -774.37 1327.5
1065.82 -761.30 1305.1
1148.95 -818.08 1402.4
1131.68 -803.25 1377.0
-1450.97 -1027.96 1754.4
-1489.69 -1058.71 1806.9
-1466.33 -1045.39 1784.2
-1510.50 -1087.18 1855.5
-1517.60 -1095.77 1870.2
-1443.55 -1062.68 1813.7
-1482.84 -1102.37 1881.4
-1377.95 -1027.77 1754.1
-1357.47 -1015.86 1733.8
-1392.92 -1045.84 1784.9
-1400.87 -1055.32 1801.1
-1364.85 -1031.62 1760.7
-1124.85 -898.29 1533.1
-1149.27 -937.68 1600.3
-1151.00 -942.49 1608.5
-1094.53 -899.51 1535.2
-1079.59 -897.02 1530.9
-1102.09 -919.09 1568.6
-1059.26 -910.24 1553.5
-1075.47 -927.70 1583.3
-1049.73 -908.96 1551.3
-1041.19 -905.04 1544.6
-1066.77 -930.85 1588.7
-1080.68 -946.64 1615.6
-1082.51 -951.94 1624.7
-1067.91 -942.77 1609.0
-1044.95 -926.11 1580.6
-1077.42 -958.65 1636.1
-1046.93 -938.91 1602.4
-1017.82 -916.45 1564.1
-1019.13 -921.29 1572.4
-985.85 -894.79 1527.1
-1005.29 -934.96 1595.7
-1029.26 -965.19 1647.3
-971.55 -914.87 1561.4
-948.50 -904.47 1543.7
-999.99 -957.62 1634.4
-985.50 -947.76 1617.5
-990.56 -956.70 1632.8
-984.82 -959.35 1637.3
-950.25 -929.69 1586.7
-939.68 -923.34 1575.9
-926.87 -914.73 1561.2
-919.09 -915.04 1561.7
-946.54 -946.54 1615.5
-947.25 -951.46 1623.9
-935.37 -943.72 1610.7
-920.87 -933.26 1592.8
-898.43 -914.62 1561.0
-930.13 -968.71 1653.3
-920.56 -963.18 1643.9
-871.16 -915.73 1562.9
-886.49 -954.03 1628.2
-901.66 -975.00 1664.0
-898.96 -976.75 1667.0
-904.65 -987.68 1685.7
-868.25 -957.20 1633.6
-821.57 -910.17 1553.4
-838.60 -942.90 1609.3
-845.74 -955.69 1631.1
-843.44 -957.87 1634.8
-830.98 -948.50 1618.8
-804.49 -922.91 1575.1
-795.84 -917.66 1566.2
-796.03 -922.58 1574.6
-791.40 -921.94 1573.5
-780.44 -913.88 1559.7
-797.11 -953.16 1626.8
-782.28 -940.41 1605.0
-760.99 -919.70 1569.7
-739.85 -898.96 1534.3
-740.28 -904.35 1543.4
-755.13 -927.50 1583.0
-761.09 -939.93 1604.2
-770.34 -956.58 1632.6
-749.82 -936.24 1597.9
-739.91 -929.00 1585.5
-759.78 -959.28 1637.2
-759.03 -974.66 1663.5
-764.77 -987.64 1685.6
-732.68 -951.65 1624.2
-717.11 -936.81 1598.8
-701.65 -921.94 1573.5
-678.09 -896.19 1529.5
-690.98 -918.59 1567.8
-701.63 -949.52 1620.5
-689.24 -938.36 1601.5
-665.85 -912.01 1556.5
-670.22 -923.59 1576.3
-683.74 -948.01 1618.0
-696.05 -971.03 1657.3
-683.09 -958.88 1636.5
-644.63 -910.54 1554.0
-627.21 -926.47 1581.2
-618.71 -919.93 1570.0
-606.74 -908.10 1549.9
-609.71 -931.05 1589.0
-595.69 -915.82 1563.0
-610.88 -952.14 1625.0
-584.38 -917.15 1565.3
-583.07 -927.98 1583.8
-566.40 -907.84 1549.4
-555.90 -923.78 1576.6
-564.59 -945.16 1613.1
-572.24 -965.12 1647.2
-560.33 -952.14 1625.0
-543.15 -929.93 1587.1
-532.33 -918.37 1567.4
-530.26 -921.83 1573.3
-543.13 -951.53 1624.0
-533.73 -942.37 1608.3
-522.27 -951.88 1624.6
-518.36 -952.43 1625.5
-517.07 -957.85 1634.8
