ply
format ascii 1.0
element vertex 2016
property float x
property float y
property float z
end_header
-1119.99 1295.80 2511.6
-1115.06 1320.81 2560.1
-1160.35 1305.40 2543.0
-1113.51 1259.86 2454.3
-1091.28 1241.80 2419.1
-1108.13 1306.01 2544.2
-1087.97 1238.90 2425.7
-1119.08 1281.73 2509.6
-1121.89 1292.48 2530.6
-1128.63 1307.89 2560.8
-1168.85 1301.68 2561.6
-1103.15 1235.53 2431.4
-1120.26 1299.24 2556.8
-1159.96 1299.96 2571.3
-1122.26 1264.98 2502.2
-1121.31 1301.52 2574.4
-1109.92 1311.72 2594.6
-1240.60 1337.09 2658.4
-1182.89 1311.32 2607.2
-1165.12 1299.04 2582.8
-1159.35 1300.08 2584.8
-1145.43 1291.93 2568.6
-1123.47 1274.58 2534.1
-1138.30 1299.00 2582.7
-1133.59 1301.28 2587.2
-1149.89 1327.84 2640.0
-1145.86 1339.14 2662.5
-1122.71 1320.03 2624.5
-1204.73 1291.73 2581.6
-1223.82 1326.95 2651.9
-1205.79 1314.78 2627.6
-1169.72 1282.71 2563.5
-1142.75 1282.27 2562.6
-1168.34 1318.65 2635.3
-1169.76 1328.02 2654.1
-1151.76 1315.32 2628.7
-1140.76 1310.52 2619.1
-1138.83 1316.13 2630.3
-1103.92 1299.12 2596.3
-1186.34 1279.64 2570.7
-1203.82 1305.83 2623.3
-1200.26 1309.37 2630.4
-1171.08 1284.84 2581.1
-1142.48 1260.67 2532.6
-1150.20 1291.45 2594.4
-1151.36 1300.36 2612.3
-1140.38 1295.58 2602.7
-1134.89 1297.01 2605.6
-1121.06 1288.89 2589.3
-1250.93 1320.04 2665.7
-1243.38 1326.73 2679.3
-1191.48 1293.03 2611.2
-1210.91 1321.62 2668.9
-1162.23 1290.62 2606.3
-1136.83 1269.79 2564.3
-1138.43 1279.06 2583.0
-1129.34 1276.35 2577.5
-1136.99 1292.65 2610.4
-1135.82 1299.05 2623.4
-1128.10 1297.99 2621.2
-1256.33 1311.55 2662.6
-1201.97 1261.74 2561.4
-1201.81 1275.66 2589.7
-1183.45 1263.24 2564.5
-1196.04 1283.89 2606.4
-1168.83 1291.15 2621.1
-1152.25 1280.28 2599.1
-1163.34 1300.20 2639.5
-1155.95 1299.59 2638.3
-1163.12 1315.43 2670.4
-1158.19 1317.71 2675.0
-1146.40 1312.14 2663.7
-1201.62 1261.70 2574.9
-1176.84 1249.56 2550.1
-1176.47 1285.28 2623.0
-1162.43 1277.32 2606.8
-1187.30 1312.28 2678.1
-1170.53 1309.05 2671.5
-1150.37 1317.69 2689.2
-1141.07 1315.02 2683.7
-1109.45 1286.41 2625.3
-1184.27 1243.82 2551.9
-1215.03 1283.29 2632.9
-1219.29 1302.43 2672.1
-1180.88 1268.60 2602.8
-1172.83 1267.20 2599.9
-1156.19 1256.44 2577.8
-1155.27 1262.74 2590.7
-1180.20 1297.54 2662.1
-1180.87 1305.91 2679.3
-1126.49 1253.14 2571.0
-1115.97 1248.83 2562.2
-1149.24 1309.43 2686.5
-1103.77 1280.92 2628.0
-1264.05 1277.72 2635.5
-1194.42 1240.87 2559.5
-1200.75 1261.46 2601.9
-1172.88 1246.18 2570.4
-1188.71 1270.23 2620.0
-1177.24 1265.20 2609.7
-1157.20 1250.85 2580.1
-1152.94 1253.48 2585.5
-1175.69 1285.69 2651.9
-1177.86 1295.64 2672.4
-1122.71 1242.29 2562.4
-1146.93 1292.03 2665.0
-1141.64 1293.86 2668.8
-1102.19 1264.47 2608.2
-1279.83 1272.99 2639.8
-1273.68 1273.68 2641.3
-1239.36 1246.05 2584.0
-1231.45 1279.61 2653.6
-1196.80 1250.59 2593.4
-1132.63 1203.82 2496.4
-1145.11 1231.15 2553.1
-1187.86 1284.55 2663.8
-1183.02 1286.79 2668.5
-1155.28 1264.01 2621.2
-1141.69 1256.53 2605.7
-1116.40 1258.49 2609.8
-1104.06 1252.17 2596.7
-1099.97 1255.18 2602.9
-1134.76 1302.87 2701.8
-1107.77 1287.78 2670.5
-1280.74 1273.86 2655.9
-1259.86 1259.86 2626.7
-1267.16 1274.04 2656.3
-1270.78 1284.67 2678.5
-1228.22 1255.37 2617.4
-1198.42 1231.71 2568.0
-1213.60 1254.28 2615.1
-1201.29 1248.53 2603.1
-1155.00 1207.21 2517.0
-1123.23 1201.15 2504.3
-1163.90 1251.87 2610.1
-1158.44 1253.29 2613.0
-1151.12 1252.69 2611.8
-1157.39 1266.96 2641.5
-1161.69 1279.24 2667.2
-1157.51 1282.27 2673.5
-1128.70 1257.89 2622.6
-1105.51 1239.51 2584.3
-1104.68 1246.13 2598.1
-1112.33 1262.46 2632.2
-1217.22 1217.22 2551.6
-1247.46 1254.27 2629.3
-1226.55 1246.88 2613.8
-1188.96 1215.38 2547.8
-1203.44 1237.05 2593.2
-1195.40 1235.70 2590.4
-1155.23 1200.92 2517.5
-1132.32 1190.55 2495.7
-1147.13 1213.06 2542.9
-1140.34 1212.85 2542.5
-1145.50 1225.42 2568.8
-1143.48 1230.41 2579.3
-1140.66 1234.60 2588.1
-1137.07 1237.99 2595.2
-1131.24 1238.98 2597.2
-1145.79 1262.42 2646.4
-1133.67 1256.60 2634.2
-1117.29 1245.94 2611.8
-1123.93 1260.99 2643.4
-1146.81 1294.56 2713.8
-1148.11 1304.02 2733.6
-1131.33 1292.94 2710.4
-1105.40 1312.22 2750.8
-1307.12 1265.63 2667.6
-1298.51 1263.98 2664.1
-1276.67 1249.36 2633.3
-1273.73 1253.19 2641.4
-1209.15 1202.58 2534.7
-1233.55 1233.55 2600.0
-1216.40 1236.67 2606.6
-1201.37 1228.22 2588.8
-1209.90 1243.88 2621.8
-1183.03 1223.14 2578.0
-1161.32 1207.50 2545.1
-1173.87 1227.54 2587.3
-1195.68 1257.52 2650.5
-1191.28 1260.14 2656.0
-1176.76 1252.02 2638.9
-1157.48 1238.71 2610.9
-1167.55 1256.83 2649.1
-1179.28 1276.97 2691.5
-1123.08 1223.35 2578.5
-1104.93 1225.46 2582.9
-1107.34 1235.63 2604.4
-1128.20 1266.63 2669.7
-1118.23 1287.02 2712.7
-1111.36 1287.20 2713.1
-1110.00 1293.82 2727.0
-1105.48 1296.81 2733.3
-1104.68 1304.23 2749.0
-1099.82 1315.47 2772.6
-1296.47 1248.45 2645.9
-1278.63 1237.82 2623.3
-1244.82 1211.53 2567.6
-1226.03 1199.67 2542.5
-1239.19 1219.10 2583.6
-1245.43 1231.89 2610.8
-1240.51 1233.73 2614.6
-1239.98 1253.76 2657.1
-1224.07 1244.58 2637.7
-1193.25 1226.95 2600.3
-1162.31 1201.94 2547.3
-1166.15 1212.80 2570.3
-1178.95 1233.15 2613.4
-1178.02 1239.30 2626.5
-1166.56 1234.38 2616.0
-1119.04 1191.02 2524.1
-1163.36 1252.85 2655.2
-1157.77 1254.25 2658.1
-1125.18 1226.24 2598.8
-1140.37 1250.28 2649.7
-1125.37 1241.32 2630.7
-1106.51 1227.96 2602.4
-1101.34 1229.72 2606.2
-1123.14 1261.80 2674.1
-1308.57 1246.59 2656.5
-1287.41 1232.92 2627.4
-1305.94 1257.31 2679.4
-1306.14 1264.23 2694.1
-1290.68 1255.98 2676.5
-1273.84 1253.07 2670.3
-1236.03 1222.52 2605.2
-1216.96 1210.27 2579.1
-1192.14 1192.14 2540.5
-1171.77 1178.28 2510.9
-1178.63 1191.80 2539.7
-1215.81 1236.31 2634.6
-1207.69 1234.98 2631.8
-1174.76 1208.13 2574.5
-1177.41 1217.77 2595.1
-1174.29 1221.53 2603.1
-1160.22 1213.87 2586.8
-1130.87 1190.05 2536.0
-1133.39 1213.87 2586.8
-1167.94 1258.32 2681.5
-1171.40 1269.61 2705.6
-1155.60 1267.66 2701.4
-1134.06 1251.61 2667.2
-1126.24 1250.61 2665.1
-1122.70 1254.37 2673.1
-1142.79 1284.75 2737.8
-1114.31 1292.88 2755.2
-1107.12 1301.22 2772.9
-1081.83 1279.81 2727.3
-1082.28 1288.76 2746.4
-1248.93 1183.19 2535.4
-1254.40 1194.66 2560.0
-1298.14 1242.90 2663.3
-1258.39 1237.76 2652.4
-1238.04 1224.43 2623.8
-1201.36 1194.73 2560.1
-1170.03 1170.03 2507.2
-1168.00 1174.52 2516.8
-1194.47 1207.89 2588.3
-1207.56 1228.03 2631.5
-1194.10 1221.24 2616.9
-1163.20 1196.43 2563.8
-1127.61 1166.50 2499.6
-1142.76 1189.00 2547.9
-1142.71 1195.86 2562.5
-1128.79 1188.20 2546.1
-1173.17 1242.18 2661.8
-1174.59 1251.04 2680.8
-1138.84 1220.19 2614.7
-1143.56 1232.58 2641.2
-1152.15 1249.32 2677.1
-1143.95 1247.95 2674.2
-1138.64 1249.72 2678.0
-1139.38 1258.21 2696.2
-1142.17 1269.08 2719.5
-1141.31 1276.00 2734.3
-1143.55 1286.49 2756.8
-1108.58 1255.00 2689.3
-1103.58 1273.37 2728.6
-1117.19 1297.38 2780.1
-1082.92 1265.75 2712.3
-1086.93 1287.16 2758.2
-1082.59 1290.50 2765.4
-1085.85 1303.02 2792.2
-1256.49 1183.74 2550.8
-1244.22 1184.66 2552.7
-1232.64 1179.91 2542.5
-1237.05 1203.44 2593.2
-1208.06 1181.65 2546.3
-1210.35 1190.40 2565.1
-1196.89 1183.66 2550.6
-1172.57 1166.06 2512.7
-1175.19 1175.19 2532.3
-1186.60 1193.26 2571.3
-1183.61 1196.98 2579.3
-1156.48 1176.20 2534.5
-1133.18 1172.48 2526.5
-1162.05 1209.35 2605.9
-1178.63 1233.77 2658.6
-1155.98 1217.18 2622.8
-1133.94 1215.42 2619.0
-1143.33 1232.86 2656.6
-1137.70 1234.24 2659.6
-1145.74 1250.53 2694.7
-1141.38 1261.15 2717.6
-1120.70 1246.00 2684.9
-1100.17 1230.81 2652.2
-1097.66 1259.50 2714.0
-1102.41 1273.11 2743.3
-1086.25 1262.59 2720.7
-1091.86 1277.40 2752.6
-1102.36 1298.18 2797.3
-1093.25 1295.97 2792.6
-1305.70 1223.23 2650.7
-1293.06 1217.80 2638.9
-1248.89 1182.46 2562.3
-1197.42 1152.12 2496.6
-1178.86 1140.42 2471.2
-1189.27 1169.56 2534.4
-1204.77 1191.38 2581.6
-1187.44 1180.80 2558.7
-1177.93 1177.93 2552.5
-1146.53 1153.00 2498.5
-1137.49 1163.64 2521.5
-1167.34 1201.07 2602.6
-1190.81 1232.35 2670.4
-1182.24 1230.64 2666.7
-1136.53 1190.02 2578.7
-1108.95 1168.01 2531.0
-1142.26 1210.26 2622.5
-1143.70 1219.03 2641.6
-1113.73 1194.25 2587.9
-1119.49 1207.70 2617.0
-1137.72 1234.84 2675.8
-1135.97 1240.51 2688.1
-1104.95 1214.08 2630.8
-1076.51 1205.15 2611.5
-1115.91 1265.17 2741.5
-1103.10 1258.66 2727.4
-1115.71 1281.27 2776.4
-1106.63 1279.09 2771.7
-1327.68 1223.96 2667.2
-1308.81 1219.26 2657.0
-1242.34 1175.90 2562.5
-1214.29 1155.53 2518.1
-1223.19 1170.30 2550.3
-1208.08 1162.12 2532.5
-1189.48 1150.48 2507.1
-1178.08 1145.71 2496.7
-1183.20 1157.05 2521.4
-1187.03 1167.25 2543.6
-1158.89 1145.95 2497.2
-1162.67 1156.14 2519.4
-1146.72 1146.72 2498.9
-1135.27 1148.25 2502.2
-1164.24 1184.32 2580.8
-1186.44 1213.87 2645.2
-1185.81 1220.28 2659.2
-1152.97 1193.43 2600.7
-1151.26 1198.66 2612.1
-1167.61 1222.88 2664.9
-1170.67 1240.77 2703.9
-1125.98 1200.59 2616.3
-1117.91 1199.22 2613.3
-1119.23 1207.95 2632.3
-1100.74 1195.28 2604.7
-1107.68 1210.25 2637.3
-1108.45 1218.60 2655.6
-1080.55 1195.36 2604.9
-1127.26 1254.87 2734.6
-1114.06 1264.03 2754.5
-1087.12 1249.49 2722.9
-1304.98 1208.82 2649.2
-1306.07 1222.71 2679.6
-1255.47 1181.61 2589.6
-1245.02 1178.08 2581.8
-1229.70 1182.66 2591.9
-1179.06 1140.19 2498.8
-1173.58 1141.16 2500.9
-1166.92 1140.98 2500.5
-1156.15 1149.62 2519.5
-1173.20 1173.20 2571.1
-1158.74 1165.36 2553.9
-1149.65 1162.87 2548.5
-1149.28 1169.21 2562.4
-1129.67 1155.94 2533.3
-1130.38 1163.43 2549.7
-1161.91 1202.91 2636.3
-1154.90 1202.74 2635.9
-1148.63 1203.32 2637.2
-1132.18 1222.48 2679.1
-1130.05 1227.71 2690.6
-1093.27 1233.43 2703.1
-1070.66 1256.24 2753.1
-1051.71 1242.28 2722.5
-1344.46 1194.32 2632.4
-1278.84 1153.59 2542.6
-1262.60 1144.84 2523.3
-1276.58 1163.55 2564.6
-1264.07 1158.18 2552.7
-1247.92 1149.40 2533.4
-1246.11 1153.81 2543.1
-1253.59 1166.90 2572.0
-1244.78 1164.90 2567.5
-1236.79 1163.65 2564.8
-1193.45 1147.55 2529.3
-1182.80 1143.59 2520.6
-1189.78 1156.73 2549.5
-1165.88 1139.83 2512.3
-1150.17 1137.18 2506.4
-1144.95 1158.19 2552.7
-1139.65 1159.53 2555.7
-1157.16 1184.23 2610.1
-1169.22 1203.61 2652.8
-1139.20 1179.64 2600.0
-1110.89 1157.17 2550.5
-1115.07 1168.48 2575.4
-1139.20 1200.97 2647.0
-1147.40 1216.94 2682.2
-1156.52 1234.10 2720.0
-1145.00 1229.29 2709.5
-1098.50 1186.66 2615.5
-1085.83 1180.25 2601.4
-1111.73 1215.96 2680.1
-1109.51 1221.16 2691.5
-1075.78 1191.53 2626.2
-1053.08 1181.34 2603.8
-1056.75 1193.11 2629.7
-1054.56 1230.32 2711.7
-1050.30 1233.57 2718.9
-1358.00 1175.58 2606.0
-1340.99 1172.52 2599.2
-1338.85 1176.57 2608.2
-1335.41 1179.50 2614.6
-1325.91 1183.12 2622.7
-1291.12 1158.01 2567.0
-1256.98 1133.23 2512.1
-1252.41 1134.99 2516.0
-1255.22 1143.50 2534.8
-1253.85 1148.26 2545.4
-1203.35 1119.70 2482.1
-1229.75 1150.41 2550.2
-1213.79 1160.44 2572.4
-1178.27 1132.70 2510.9
-1163.76 1124.96 2493.8
-1176.20 1143.34 2534.5
-1184.19 1157.58 2566.1
-1160.39 1140.72 2528.7
-1162.18 1168.90 2591.2
-1170.73 1184.34 2625.4
-1149.52 1169.68 2592.9
-1120.24 1146.60 2541.7
-1119.76 1152.88 2555.7
-1119.20 1159.17 2569.6
-1111.60 1158.20 2567.4
-1123.37 1177.50 2610.2
-1109.14 1169.64 2592.8
-1093.54 1160.22 2571.9
-1121.53 1197.21 2653.9
-1118.74 1201.61 2663.7
-1088.18 1176.04 2607.0
-1093.23 1188.89 2635.5
-1094.98 1198.28 2656.3
-1064.46 1172.25 2598.6
-1086.07 1235.13 2738.0
-1063.74 1225.76 2717.2
-1311.92 1146.28 2555.7
-1295.50 1137.67 2536.5
-1303.13 1150.21 2564.5
-1298.90 1152.36 2569.3
-1296.74 1156.37 2578.2
-1292.04 1158.15 2582.2
-1274.92 1148.75 2561.2
-1266.11 1146.79 2556.8
-1259.78 1147.06 2557.4
-1213.85 1111.09 2477.2
-1200.14 1116.26 2488.8
-1224.40 1144.98 2552.8
-1218.74 1158.47 2582.9
-1185.14 1132.76 2525.6
-1164.71 1119.42 2495.8
-1171.32 1132.05 2524.0
-1202.63 1168.84 2606.0
-1199.58 1172.47 2614.1
-1163.15 1163.15 2593.3
-1167.18 1173.96 2617.4
-1139.97 1153.31 2571.4
-1109.24 1128.81 2516.8
-1109.18 1135.44 2531.5
-1127.16 1160.70 2587.9
-1136.42 1177.25 2624.7
-1149.53 1198.01 2671.0
-1137.34 1192.49 2658.7
-1102.51 1177.38 2625.0
-1115.08 1198.19 2671.4
-1135.22 1227.46 2736.7
-1111.93 1217.49 2714.5
-1068.14 1177.00 2624.2
-1067.70 1184.05 2639.9
-1078.19 1203.40 2683.1
-1056.65 1187.01 2646.5
-1092.44 1235.25 2754.1
-1075.75 1232.48 2747.9
-1326.49 1146.51 2571.1
-1295.98 1125.80 2524.6
-1274.54 1112.80 2495.5
-1275.96 1119.72 2511.0
-1268.50 1118.88 2509.1
-1263.97 1120.63 2513.0
-1264.81 1127.19 2527.8
-1254.00 1123.38 2519.2
-1234.99 1112.13 2494.0
-1218.94 1103.46 2474.5
-1229.94 1119.31 2510.1
-1241.59 1135.92 2547.3
-1215.02 1117.56 2506.2
-1190.64 1101.02 2469.1
-1236.91 1162.56 2607.1
-1210.53 1150.34 2579.7
-1163.69 1118.18 2507.6
-1205.17 1164.54 2611.5
-1133.63 1107.87 2484.4
-1164.87 1158.13 2597.1
-1167.01 1167.01 2617.1
-1169.82 1176.66 2638.7
-1166.92 1180.65 2647.6
-1163.98 1184.64 2656.6
-1177.26 1205.29 2702.9
-1146.93 1181.27 2649.0
-1120.50 1161.00 2603.6
-1121.56 1169.14 2621.8
-1090.19 1157.49 2595.7
-1124.22 1201.02 2693.3
-1105.86 1203.85 2699.7
-1108.77 1214.71 2724.0
-1052.43 1198.80 2688.3
-1330.84 1137.87 2566.6
-1295.54 1113.25 2511.1
-1328.87 1147.66 2588.7
-1324.58 1155.63 2606.7
-1274.96 1118.04 2521.9
-1284.19 1131.94 2553.2
-1299.51 1151.38 2597.1
-1260.39 1122.53 2532.0
-1206.78 1086.10 2449.9
-1226.84 1110.00 2503.8
-1213.69 1103.94 2490.1
-1193.21 1096.98 2474.4
-1218.75 1126.52 2541.0
-1191.63 1107.44 2498.0
-1209.54 1142.72 2577.6
-1157.98 1100.08 2481.4
-1189.24 1136.09 2562.6
-1190.36 1163.15 2623.7
-1168.92 1148.77 2591.2
-1154.45 1141.10 2573.9
-1190.63 1183.71 2670.0
-1165.32 1179.11 2659.6
-1173.43 1194.38 2694.1
-1138.68 1165.96 2630.0
-1137.54 1171.80 2643.2
-1101.73 1148.76 2591.2
-1096.84 1157.78 2611.5
-1122.66 1192.40 2689.6
-1121.89 1199.02 2704.6
-1079.08 1160.52 2617.7
-1095.22 1185.33 2673.7
-1087.61 1199.88 2706.5
-1068.83 1210.40 2730.2
-1058.25 1214.50 2739.5
-1384.21 1164.93 2643.1
-1369.59 1158.36 2628.2
-1355.89 1152.51 2614.9
-1332.42 1138.25 2582.6
-1324.36 1148.68 2606.2
-1312.50 1144.23 2596.1
-1270.10 1124.56 2551.5
-1245.21 1108.30 2514.6
-1260.75 1128.04 2559.4
-1280.60 1151.86 2613.5
-1268.02 1146.62 2601.6
-1201.97 1092.70 2479.2
-1214.76 1110.26 2519.1
-1209.82 1130.05 2564.0
-1198.29 1125.47 2553.6
-1189.04 1155.06 2620.7
-1146.60 1120.24 2541.7
-1123.12 1103.64 2504.1
-1145.51 1132.19 2568.8
-1123.86 1130.51 2565.0
-1106.11 1125.98 2554.7
-1159.37 1187.31 2693.9
-1133.95 1182.65 2683.3
-1140.09 1196.39 2714.5
-1133.60 1196.96 2715.8
-1102.60 1171.51 2658.1
-1087.49 1192.73 2706.2
-1080.42 1208.37 2741.7
-1377.07 1152.10 2629.5
-1352.57 1137.23 2595.5
-1377.54 1164.02 2656.7
-1321.63 1133.78 2587.7
-1305.56 1125.72 2569.3
-1304.07 1141.91 2606.2
-1271.51 1119.20 2554.4
-1285.44 1137.38 2595.9
-1247.66 1139.75 2601.3
-1230.79 1130.45 2580.1
-1193.28 1101.99 2515.1
-1171.12 1087.47 2482.0
-1175.17 1097.26 2504.3
-1189.73 1117.02 2549.4
-1186.48 1120.20 2556.7
-1176.58 1117.09 2549.6
-1167.86 1115.08 2545.0
-1155.31 1109.36 2531.9
-1130.14 1091.39 2490.9
-1134.94 1102.32 2515.9
-1156.34 1129.60 2578.1
-1129.81 1110.11 2533.6
-1139.23 1125.90 2569.7
-1172.83 1172.83 2676.8
-1122.75 1129.43 2577.7
-1128.40 1141.92 2606.2
-1138.69 1159.27 2645.8
-1150.62 1178.52 2689.8
-1122.70 1185.85 2706.5
-1109.13 1193.91 2724.9
-1104.31 1196.34 2730.4
-1051.46 1169.06 2668.2
-1061.67 1196.15 2730.0
-1439.77 1174.18 2695.8
-1406.21 1158.05 2658.8
-1412.33 1174.61 2696.8
-1358.36 1135.34 2606.7
-1360.58 1142.88 2624.0
-1350.32 1139.97 2617.3
-1308.14 1109.94 2548.3
-1306.54 1114.21 2558.1
-1336.99 1145.99 2631.1
-1295.63 1116.24 2562.8
-1233.63 1068.30 2452.7
-1238.38 1077.97 2474.9
-1262.55 1104.73 2536.4
-1255.86 1104.63 2536.1
-1252.87 1107.80 2543.4
-1234.69 1097.50 2519.8
-1221.49 1091.54 2506.1
-1261.15 1133.01 2601.3
-1220.16 1120.15 2571.8
-1174.05 1083.74 2488.2
-1174.14 1089.81 2502.1
-1184.79 1105.80 2538.8
-1196.05 1122.55 2577.3
-1199.74 1132.33 2599.7
-1176.17 1116.37 2563.1
-1150.07 1097.79 2520.4
-1144.88 1099.09 2523.4
-1171.78 1131.38 2597.5
-1192.42 1164.69 2674.0
-1142.79 1122.74 2577.7
-1139.30 1125.90 2585.0
-1153.68 1160.59 2664.6
-1111.74 1125.13 2583.2
-1100.82 1120.84 2573.4
-1114.65 1141.83 2621.6
-1109.46 1143.49 2625.4
-1096.88 1144.57 2627.8
-1090.58 1145.11 2629.1
-1112.19 1197.74 2749.9
-1093.09 1192.47 2737.8
-1047.26 1180.81 2711.0
-1421.63 1158.11 2674.8
-1390.89 1149.90 2655.9
-1406.43 1168.53 2698.9
-1312.22 1095.70 2530.7
-1260.03 1068.14 2467.1
-1280.55 1091.08 2520.0
-1248.95 1080.70 2496.1
-1249.42 1086.73 2510.0
-1221.27 1067.81 2466.3
-1229.97 1081.08 2496.9
-1223.36 1080.95 2496.6
-1188.17 1061.09 2450.8
-1180.83 1060.21 2448.7
-1208.69 1097.01 2533.7
-1184.80 1081.21 2497.2
-1171.80 1075.23 2483.4
-1203.16 1110.10 2564.0
-1192.82 1106.67 2556.0
-1180.55 1101.41 2543.9
-1201.98 1140.51 2634.2
-1181.55 1127.54 2604.2
-1131.04 1085.54 2507.2
-1145.67 1112.36 2569.2
-1172.36 1144.94 2644.4
-1111.23 1104.61 2551.3
-1087.64 1142.36 2638.5
-1080.94 1142.51 2638.8
-1097.68 1167.60 2696.8
-1078.18 1169.20 2700.5
-1072.34 1170.47 2703.4
-1066.15 1186.98 2741.5
-1425.79 1154.54 2682.7
-1359.67 1128.52 2622.2
-1267.37 1067.94 2481.4
-1272.24 1077.51 2503.7
-1244.58 1059.49 2461.8
-1235.97 1057.58 2457.4
-1259.95 1083.68 2518.0
-1243.74 1075.31 2498.6
-1223.88 1063.69 2471.6
-1239.59 1083.01 2516.5
-1261.66 1108.13 2574.8
-1245.07 1099.37 2554.5
-1224.50 1086.99 2525.7
-1189.06 1061.20 2465.8
-1191.43 1086.69 2525.0
-1204.12 1104.33 2566.0
-1174.47 1083.12 2516.7
-1150.14 1072.61 2492.3
-1175.58 1115.12 2591.1
-1138.25 1098.55 2552.6
-1156.16 1128.96 2623.2
-1100.57 1149.03 2669.9
-1109.66 1165.84 2708.9
-1088.44 1150.83 2674.1
-1093.14 1163.22 2702.8
-1074.26 1165.54 2708.2
-1072.14 1170.89 2720.7
-1430.99 1140.65 2666.4
-1443.94 1156.55 2703.6
-1434.33 1154.46 2698.7
-1406.81 1137.86 2659.9
-1375.67 1123.69 2626.8
-1402.97 1151.69 2692.3
-1399.87 1154.89 2699.7
-1342.30 1112.96 2601.7
-1305.63 1088.02 2543.4
-1300.65 1089.38 2546.6
-1293.54 1088.95 2545.6
-1255.24 1062.13 2482.9
-1229.79 1045.96 2445.1
-1236.68 1057.27 2471.5
-1240.54 1066.09 2492.2
-1238.92 1070.27 2501.9
-1234.78 1072.31 2506.7
-1238.01 1080.80 2526.5
-1251.77 1098.63 2568.2
-1259.66 1111.46 2598.2
-1238.30 1104.43 2581.8
-1180.07 1058.22 2473.8
-1186.28 1069.60 2500.4
-1207.89 1095.07 2559.9
-1190.41 1085.18 2536.8
-1186.04 1087.21 2541.5
-1170.27 1078.74 2521.7
-1169.42 1084.01 2534.1
-1181.91 1114.37 2605.0
-1152.40 1092.79 2554.6
-1155.89 1102.44 2577.1
-1181.28 1133.20 2649.0
-1137.42 1110.49 2596.0
-1139.76 1139.76 2664.4
-1157.07 1164.13 2721.3
-1121.97 1135.74 2655.0
-1101.94 1122.34 2623.7
-1099.95 1127.28 2635.2
-1116.08 1150.96 2690.6
-1092.49 1148.16 2684.0
-1080.11 1142.42 2670.6
-1097.58 1168.39 2731.3
-1067.92 1159.26 2710.0
-1059.34 1157.55 2706.0
-1451.19 1138.74 2678.2
-1460.41 1157.04 2721.3
-1444.59 1150.06 2704.8
-1438.05 1150.44 2705.7
-1414.00 1136.75 2673.5
-1409.70 1138.87 2678.5
-1428.81 1160.03 2728.3
-1334.32 1099.64 2586.3
-1289.54 1068.10 2512.1
-1302.07 1083.96 2549.4
-1314.02 1099.49 2585.9
-1273.08 1070.69 2518.2
-1249.22 1056.04 2483.7
-1228.85 1044.21 2455.9
-1236.98 1062.12 2498.0
-1267.53 1094.08 2573.2
-1282.13 1112.54 2616.6
-1267.58 1117.66 2628.6
-1252.60 1110.41 2611.6
-1206.32 1075.20 2528.8
-1172.01 1050.32 2470.3
-1158.05 1049.28 2467.8
-1172.78 1068.53 2513.1
-1165.30 1067.65 2511.0
-1172.30 1080.10 2540.3
-1197.45 1109.50 2609.4
-1182.79 1102.15 2592.2
-1160.89 1087.92 2558.7
-1145.65 1079.81 2539.6
-1142.31 1082.89 2546.9
-1156.03 1102.26 2592.4
-1153.29 1106.08 2601.4
-1145.62 1105.19 2599.3
-1165.63 1131.14 2660.4
-1158.95 1131.35 2660.8
-1139.30 1118.83 2631.4
-1151.45 1151.45 2708.1
-1143.18 1150.19 2705.2
-1116.98 1137.80 2676.0
-1102.37 1129.93 2657.5
-1132.88 1168.51 2748.2
-1113.24 1155.52 2717.7
-1083.92 1132.24 2662.9
-1084.83 1140.46 2682.3
-1098.83 1162.64 2734.4
-1069.49 1153.92 2713.9
-1056.69 1155.31 2717.2
-1064.50 1171.67 2755.7
-1049.50 1162.96 2735.2
-1456.30 1135.77 2687.6
-1454.06 1150.54 2722.6
-1419.78 1128.90 2671.4
-1389.23 1110.02 2626.7
-1403.39 1132.44 2679.7
-1401.64 1136.65 2689.7
-1286.25 1058.88 2505.7
-1283.65 1067.53 2526.1
-1275.32 1066.04 2522.6
-1259.01 1057.83 2503.2
-1246.96 1053.13 2492.1
-1216.20 1032.50 2443.3
-1244.57 1062.12 2513.4
-1278.43 1096.76 2595.3
-1242.45 1082.99 2562.7
-1219.45 1068.66 2528.8
-1197.80 1055.36 2497.4
-1183.93 1048.81 2481.8
-1181.74 1052.58 2490.8
-1165.41 1055.34 2497.3
-1172.12 1067.35 2525.7
-1136.36 1058.44 2504.6
-1133.90 1062.21 2513.6
-1142.46 1076.42 2547.2
-1139.09 1079.49 2554.4
-1118.30 1065.98 2522.5
-1108.55 1062.90 2515.2
-1126.15 1086.16 2570.2
-1164.35 1129.69 2673.2
-1163.43 1142.41 2703.3
-1096.51 1083.22 2563.3
-1113.83 1120.71 2652.0
-1117.53 1131.41 2677.3
-1082.92 1103.23 2610.6
-1093.34 1120.84 2652.3
-1118.04 1153.42 2729.4
-1106.32 1155.96 2735.4
-1090.36 1146.64 2713.3
-1091.42 1155.20 2733.6
-1061.49 1130.86 2676.0
-1050.23 1133.70 2682.7
-1045.42 1136.02 2688.2
-1441.55 1122.75 2673.2
-1424.81 1125.95 2680.8
-1388.51 1102.64 2625.3
-1363.36 1088.00 2590.5
-1367.92 1097.04 2612.0
-1331.24 1072.94 2554.6
-1360.40 1107.46 2636.8
-1315.03 1075.93 2561.7
-1265.73 1051.53 2503.6
-1281.85 1070.41 2548.6
-1291.90 1084.39 2581.9
-1281.37 1081.15 2574.2
-1259.65 1068.39 2543.8
-1241.78 1058.78 2520.9
-1242.12 1064.67 2534.9
-1226.41 1056.80 2516.2
-1206.69 1045.37 2489.0
-1208.62 1052.67 2506.3
-1213.70 1062.81 2530.5
-1225.11 1078.63 2568.2
-1218.32 1078.52 2567.9
-1180.02 1050.34 2500.8
-1160.78 1044.71 2487.4
-1186.81 1074.09 2557.4
-1169.45 1064.33 2534.1
-1142.84 1045.99 2490.4
-1146.27 1055.09 2512.1
-1160.80 1074.57 2558.5
-1168.97 1088.35 2591.3
-1159.80 1086.05 2585.8
-1138.86 1072.64 2553.9
-1129.40 1069.96 2547.5
-1130.89 1077.67 2565.9
-1124.05 1077.49 2565.5
-1135.46 1094.91 2606.9
-1138.53 1104.45 2629.6
-1119.51 1126.47 2682.1
-1112.38 1126.28 2681.6
-1119.09 1140.21 2714.8
-1102.33 1144.72 2725.5
-1066.71 1144.42 2724.8
-1455.78 1137.77 2725.8
-1450.53 1139.20 2729.2
-1438.24 1135.08 2719.4
-1431.66 1135.46 2720.3
-1383.74 1102.88 2642.2
-1314.74 1069.05 2561.2
-1309.31 1070.04 2563.5
-1310.65 1076.61 2579.3
-1292.36 1083.70 2596.3
-1268.09 1068.92 2560.8
-1250.59 1059.71 2538.8
-1250.08 1064.88 2551.2
-1252.78 1072.86 2570.3
-1252.54 1078.39 2583.5
-1250.61 1082.52 2593.4
-1250.66 1088.41 2607.6
-1219.66 1078.93 2584.8
-1186.20 1055.13 2527.8
-1180.68 1056.05 2530.0
-1190.09 1070.42 2564.5
-1211.11 1095.44 2624.4
-1193.35 1091.65 2615.3
-1176.00 1081.92 2592.0
-1187.57 1098.85 2632.5
-1184.04 1101.91 2639.9
-1145.46 1072.21 2568.7
-1118.94 1053.50 2523.9
-1158.53 1097.20 2628.6
-1163.22 1114.75 2670.7
-1126.83 1086.34 2602.6
-1098.12 1065.04 2551.6
-1100.54 1080.41 2588.4
-1136.50 1122.56 2689.4
-1136.22 1129.21 2705.3
-1118.98 1118.98 2680.8
-1120.78 1127.79 2701.9
-1125.15 1146.52 2746.8
-1092.54 1120.38 2684.1
-1076.64 1111.15 2662.0
-1053.89 1094.69 2622.6
-1071.78 1135.24 2719.7
-1466.87 1128.36 2720.1
-1442.79 1126.08 2714.7
-1425.73 1123.73 2709.0
-1348.63 1068.22 2575.2
-1290.45 1042.79 2513.9
-1307.73 1062.12 2560.5
-1331.19 1086.68 2619.7
-1301.50 1067.89 2574.4
-1247.14 1028.57 2479.6
-1262.82 1046.90 2523.8
-1282.90 1069.08 2577.3
-1265.73 1060.30 2556.1
-1256.10 1057.77 2550.0
-1246.49 1055.23 2543.9
-1238.55 1054.09 2541.1
-1249.00 1068.67 2576.3
-1256.05 1080.47 2604.7
-1254.46 1084.93 2615.5
-1257.94 1099.84 2651.4
-1203.82 1058.30 2551.3
-1184.73 1047.28 2524.7
-1194.65 1061.91 2560.0
-1229.63 1099.11 2649.6
-1174.99 1074.28 2589.8
-1161.96 1068.47 2575.8
-1171.19 1083.18 2611.2
-1144.08 1064.26 2565.6
-1119.82 1047.78 2525.9
-1160.96 1092.67 2634.1
-1156.68 1101.60 2655.6
-1152.60 1104.29 2662.1
-1156.99 1115.17 2688.3
-1135.52 1101.11 2654.5
-1149.30 1121.27 2703.1
-1127.07 1120.07 2700.2
-1108.08 1108.08 2671.3
-1111.65 1118.64 2696.7
-1088.55 1102.32 2657.4
-1084.98 1105.71 2665.5
-1098.16 1126.32 2715.2
-1101.72 1137.26 2741.6
-1459.70 1126.66 2733.1
-1456.20 1129.45 2739.9
-1421.92 1108.26 2688.5
-1345.27 1058.90 2568.8
-1363.74 1078.78 2617.0
-1325.80 1054.01 2556.9
-1312.23 1048.46 2543.4
-1321.43 1061.14 2574.2
-1333.05 1075.91 2610.0
-1303.75 1063.05 2578.8
-1239.64 1016.00 2464.7
-1244.04 1024.88 2486.2
-1259.62 1043.13 2530.5
-1239.22 1031.60 2502.5
-1220.58 1021.44 2477.9
-1197.19 1017.94 2469.4
-1227.69 1049.48 2545.9
-1250.15 1074.45 2606.5
-1252.16 1082.03 2624.9
-1223.56 1063.09 2578.9
-1191.95 1041.32 2526.1
-1198.38 1052.72 2553.8
-1177.75 1040.35 2523.8
-1182.87 1050.71 2548.9
-1231.44 1099.99 2668.4
-1209.99 1093.11 2651.8
-1199.89 1090.18 2644.7
-1156.33 1056.64 2563.3
-1136.10 1044.16 2533.0
-1159.46 1071.83 2600.1
-1185.17 1102.00 2673.3
-1179.60 1103.28 2676.4
-1159.38 1090.78 2646.1
-1162.82 1100.52 2669.7
-1153.14 1117.99 2712.1
-1128.49 1100.79 2670.4
-1122.11 1101.33 2671.7
-1088.00 1074.49 2606.6
-1078.17 1071.44 2599.2
-1088.67 1088.67 2641.0
-1092.96 1099.88 2668.2
-1112.61 1126.79 2733.4
-1107.80 1129.10 2739.1
-1093.55 1121.77 2721.3
-1075.78 1132.78 2748.0
-1070.49 1134.72 2752.7
-1425.06 1098.34 2681.3
-1360.98 1054.10 2573.3
-1378.97 1078.60 2633.1
-1353.18 1069.01 2609.7
-1332.16 1057.69 2582.1
-1330.56 1061.76 2592.0
-1332.76 1068.92 2609.5
-1336.16 1077.11 2629.5
-1295.39 1060.48 2588.9
-1278.56 1052.15 2568.5
-1254.31 1037.60 2533.0
-1231.46 1024.06 2500.0
-1221.96 1021.53 2493.8
-1219.88 1025.21 2502.8
-1220.62 1031.32 2517.7
-1246.96 1059.25 2585.9
-1261.48 1089.14 2658.9
-1232.08 1069.61 2611.2
-1227.98 1071.94 2616.8
-1191.34 1045.73 2552.9
-1157.74 1021.92 2494.7
-1165.62 1034.66 2525.8
-1205.03 1075.68 2626.0
-1209.72 1092.21 2666.3
-1148.36 1042.77 2545.6
-1129.32 1031.40 2517.9
-1154.64 1060.66 2589.3
-1190.65 1100.13 2685.7
-1173.44 1097.06 2678.2
-1174.20 1104.30 2695.9
-1162.88 1106.84 2702.0
-1160.64 1118.18 2729.7
-1103.89 1070.02 2612.2
-1103.76 1089.96 2660.8
-1095.60 1088.71 2657.8
-1078.24 1078.24 2632.2
-1093.76 1100.73 2687.1
-1083.80 1097.69 2679.7
-1053.91 1081.28 2639.7
-1098.88 1134.79 2770.3
-1078.84 1121.42 2737.6
-1374.42 1052.61 2586.0
-1359.34 1046.16 2570.2
-1372.80 1061.72 2608.4
-1407.04 1093.59 2686.7
-1358.07 1066.09 2619.1
-1330.56 1049.74 2579.0
-1306.64 1036.07 2545.4
-1285.00 1024.09 2516.0
-1262.61 1021.80 2510.3
-1303.93 1060.71 2605.9
-1293.34 1057.57 2598.2
-1276.10 1048.94 2577.0
-1248.99 1032.06 2535.5
-1235.27 1026.13 2521.0
-1254.12 1047.33 2573.0
-1278.07 1073.03 2636.2
-1250.35 1055.40 2592.9
-1229.31 1043.25 2563.0
-1256.09 1071.77 2633.1
-1248.36 1070.99 2631.2
-1205.79 1040.16 2555.4
-1183.88 1026.90 2522.9
-1195.03 1042.33 2560.8
-1204.44 1056.40 2595.4
-1177.52 1038.60 2551.6
-1183.27 1049.57 2578.5
-1186.55 1058.46 2600.4
-1147.46 1041.33 2558.3
-1154.01 1053.37 2587.9
-1170.68 1074.84 2640.6
-1179.93 1089.70 2677.2
-1158.18 1075.95 2643.4
-1112.26 1039.43 2553.7
-1125.65 1064.62 2615.5
-1132.09 1090.42 2678.9
-1104.67 1070.58 2630.2
-1120.74 1092.89 2685.0
-1120.05 1099.05 2700.1
-1081.13 1067.53 2622.7
-1074.83 1068.03 2623.9
-1102.04 1102.04 2707.5
-1091.68 1098.68 2699.2
-1054.84 1068.45 2624.9
-1075.27 1103.38 2710.8
-1058.66 1108.07 2722.3
-1045.47 1109.05 2724.7
-1405.66 1064.48 2632.0
-1397.08 1063.14 2628.7
-1391.59 1064.16 2631.2
-1349.54 1052.64 2602.7
-1338.44 1049.23 2594.2
-1330.38 1048.18 2591.6
-1278.25 1012.22 2502.7
-1268.62 1020.13 2522.3
-1265.76 1023.11 2529.7
-1235.75 1009.30 2495.5
-1242.86 1020.45 2523.1
-1226.27 1012.16 2502.6
-1243.95 1032.21 2552.2
-1255.25 1047.16 2589.1
-1219.05 1022.43 2528.0
-1194.89 1007.59 2491.3
-1214.97 1030.09 2546.9
-1243.66 1060.17 2621.3
-1237.16 1060.42 2621.9
-1189.96 1025.60 2535.8
-1180.45 1023.06 2529.5
-1207.72 1052.54 2602.4
-1201.24 1052.77 2603.0
-1184.56 1044.02 2581.4
-1165.25 1032.84 2553.7
-1154.59 1029.24 2544.8
-1180.62 1058.48 2617.1
-1183.66 1067.35 2639.1
-1168.27 1059.60 2619.9
-1176.15 1072.98 2653.0
-1174.42 1077.70 2664.6
-1163.97 1074.44 2656.6
-1133.72 1052.74 2602.9
-1121.34 1053.79 2605.5
-1154.50 1104.92 2731.9
-1135.29 1093.24 2703.1
-1121.62 1086.78 2687.1
-1091.50 1064.22 2631.3
-1085.91 1065.42 2634.3
-1114.73 1100.62 2721.3
-1104.13 1104.13 2730.0
-1081.16 1088.13 2690.4
-1089.61 1103.76 2729.1
-1097.53 1119.05 2766.9
-1086.30 1129.76 2793.4
-1382.46 1050.40 2613.9
-1342.33 1024.93 2550.5
-1367.58 1049.38 2611.4
-1352.08 1042.65 2594.6
-1333.18 1033.21 2571.1
-1359.28 1058.74 2634.6
-1358.45 1063.43 2646.3
-1312.59 1032.75 2570.0
-1307.57 1034.05 2573.2
-1262.91 1014.26 2524.0
-1243.79 1014.67 2525.0
-1252.44 1027.13 2556.0
-1250.23 1030.78 2565.1
-1241.42 1028.99 2560.6
-1259.17 1049.31 2611.2
-1261.22 1062.44 2643.9
-1243.39 1053.15 2620.7
-1217.91 1048.75 2609.8
-1178.58 1020.56 2539.6
-1223.80 1065.67 2651.9
-1226.97 1080.57 2689.0
-1198.15 1061.22 2640.8
-1196.84 1084.85 2699.6
-1195.38 1089.91 2712.2
-1185.21 1087.03 2705.0
-1167.57 1077.22 2680.6
-1133.26 1051.82 2617.4
-1110.72 1037.11 2580.8
-1128.55 1060.15 2638.2
-1154.67 1098.00 2732.3
-1132.23 1096.85 2729.5
-1116.41 1088.33 2708.3
-1106.02 1085.02 2700.0
-1081.52 1067.74 2657.1
-1094.81 1087.79 2706.9
-1112.41 1112.41 2768.2
-1075.53 1082.51 2693.8
-1074.55 1095.76 2726.8
-1368.03 1032.73 2586.6
-1319.95 1011.31 2533.0
-1315.93 1013.26 2537.9
-1340.39 1037.29 2598.0
-1338.35 1040.94 2607.2
-1313.12 1026.50 2571.0
-1329.44 1044.56 2616.2
-1334.93 1054.25 2640.5
-1281.49 1017.27 2547.9
-1257.10 1003.07 2512.3
-1252.15 1004.33 2515.5
-1231.31 992.79 2486.6
-1234.72 1000.77 2506.6
-1235.55 1006.75 2521.5
-1226.83 1004.96 2517.1
-1235.78 1017.70 2549.0
-1271.97 1053.13 2637.7
-1236.64 1035.02 2592.3
-1232.63 1037.30 2598.1
-1234.33 1056.04 2645.0
-1183.43 1018.15 2550.1
-1219.60 1055.16 2642.8
-1201.36 1051.19 2632.9
-1155.96 1017.25 2547.8
-1177.78 1042.41 2610.8
-1169.58 1053.30 2638.1
-1133.42 1026.74 2571.6
-1145.04 1043.41 2613.4
-1148.97 1053.22 2637.9
-1129.28 1041.37 2608.3
-1120.11 1039.14 2602.7
-1096.38 1035.84 2594.4
-1153.05 1096.11 2745.4
-1134.09 1098.43 2751.2
-1109.02 1080.94 2707.4
-1067.16 1046.77 2621.8
-1061.91 1048.30 2625.6
-1087.85 1094.96 2742.5
-1384.01 1038.01 2616.8
-1371.95 1034.03 2606.8
-1355.55 1026.73 2588.4
-1331.80 1013.76 2555.7
-1306.46 999.44 2519.6
-1311.96 1008.69 2542.9
-1307.45 1010.30 2547.0
-1278.91 993.26 2504.0
-1301.46 1031.73 2601.0
-1261.89 1005.57 2535.1
-1232.72 992.66 2502.5
-1254.70 1015.71 2560.6
-1244.25 1012.60 2552.8
-1253.13 1025.29 2584.8
-1242.64 1022.17 2576.9
-1207.35 998.51 2517.2
-1193.79 992.66 2502.5
-1216.60 1017.16 2564.3
-1249.58 1062.15 2677.7
-1231.17 1058.25 2667.9
-1187.65 1026.61 2588.1
-1158.93 1007.48 2539.9
-1159.08 1031.04 2599.3
-1152.94 1031.58 2600.6
-1122.45 1022.23 2577.1
-1111.10 1017.96 2566.3
-1121.34 1033.53 2605.5
-1101.47 1021.36 2574.9
-1095.76 1028.54 2593.0
-1107.03 1045.52 2635.8
-1092.77 1038.47 2618.0
-1125.00 1075.78 2712.0
-1122.69 1087.16 2740.7
-1075.78 1048.37 2643.0
-1109.25 1094.94 2760.4
-1101.85 1101.85 2777.8
-1066.27 1073.28 2705.8
-1052.17 1073.21 2705.6
-1391.56 1047.11 2657.1
-1391.22 1052.07 2669.7
-1344.49 1026.95 2606.0
-1288.57 989.21 2510.2
-1271.68 981.19 2489.9
-1320.98 1040.35 2640.0
-1274.16 1008.71 2559.7
-1228.10 977.34 2480.1
-1264.45 1011.56 2566.9
-1287.98 1035.84 2628.5
-1277.37 1032.77 2620.8
-1253.64 1019.00 2585.8
-1213.68 991.82 2516.8
-1206.20 991.04 2514.9
-1219.01 1007.01 2555.4
-1205.14 1012.05 2568.2
-1226.57 1047.40 2657.9
-1212.89 1041.58 2643.1
-1213.34 1047.88 2659.1
-1211.38 1052.17 2670.0
-1164.55 1023.19 2596.4
-1139.65 1007.13 2555.7
-1161.44 1032.39 2619.8
-1146.90 1025.47 2602.2
-1150.18 1034.48 2625.1
-1163.12 1052.34 2670.4
-1126.15 1025.00 2601.0
-1114.02 1020.07 2588.5
-1120.43 1032.16 2619.2
-1110.89 1029.60 2612.7
-1134.51 1077.78 2735.0
-1132.82 1089.80 2765.5
-1110.61 1075.24 2728.5
-1120.27 1091.54 2769.9
-1098.56 1077.30 2733.7
-1061.73 1090.43 2767.1
-1372.39 1025.89 2620.5
-1366.02 1026.21 2621.4
-1370.58 1039.98 2656.5
-1320.12 1006.76 2571.7
-1310.39 1004.41 2565.7
-1304.10 1004.69 2566.4
-1289.71 998.70 2551.1
-1273.69 991.38 2532.4
-1269.56 993.29 2537.2
-1277.61 1004.79 2566.6
-1284.69 1015.64 2594.4
-1278.71 1016.24 2595.9
-1259.86 1006.56 2571.1
-1260.54 1012.45 2586.2
-1248.80 1008.39 2575.8
-1211.29 983.36 2511.9
-1207.50 985.58 2517.6
-1238.18 1016.11 2595.6
-1211.54 999.68 2553.6
-1163.91 987.37 2522.1
-1211.83 1033.82 2640.8
-1206.66 1053.21 2690.3
-1167.74 1025.16 2618.7
-1179.11 1041.20 2659.6
-1160.68 1030.96 2633.5
-1161.63 1037.91 2651.2
-1129.75 1027.66 2625.1
-1101.30 1007.86 2574.5
-1117.62 1029.03 2628.6
-1120.51 1038.02 2651.5
-1082.05 1021.19 2608.5
-1102.68 1047.20 2675.0
-1109.46 1060.30 2708.4
-1124.58 1081.61 2762.9
-1134.53 1098.16 2805.1
-1109.22 1080.60 2760.3
-1081.33 1060.27 2708.3
-1089.71 1075.47 2747.2
-1095.15 1087.94 2779.0
-1077.83 1077.83 2753.2
-1059.27 1066.33 2723.8
-1053.02 1067.15 2725.9
-1050.79 1072.09 2738.5
-1405.71 1038.70 2670.9
-1378.19 1023.41 2631.6
-1344.27 1003.19 2579.6
-1346.25 1009.69 2596.3
-1343.82 1012.93 2604.7
-1312.00 993.94 2555.8
-1304.02 992.91 2553.2
-1297.76 993.18 2553.9
-1319.20 1014.77 2609.4
-1292.46 1004.50 2583.0
-1260.02 984.39 2531.3
-1279.33 1004.71 2583.5
-1288.82 1017.49 2616.4
-1275.32 1012.16 2602.7
-1281.31 1022.32 2628.8
-1267.83 1016.97 2615.1
-1227.34 989.79 2545.2
-1262.25 1023.45 2631.7
-1221.37 1006.62 2588.5
-1164.38 981.22 2523.1
-1193.46 1011.41 2600.8
-1204.97 1026.96 2640.8
-1189.04 1019.18 2620.7
-1155.36 996.00 2561.1
-1173.24 1017.26 2615.8
-1179.41 1040.66 2676.0
-1164.39 1033.49 2657.5
-1122.41 1014.23 2608.0
-1118.06 1016.42 2613.7
-1159.73 1060.73 2727.6
-1138.37 1054.04 2710.4
-1099.83 1031.09 2651.4
-1107.47 1044.78 2686.6
-1100.32 1044.61 2686.1
-1100.62 1051.55 2704.0
-1095.19 1053.07 2707.9
-1122.00 1085.81 2792.1
-1094.96 1080.55 2778.6
-1094.78 1087.53 2796.5
-1094.84 1094.84 2815.3
-1353.53 1003.36 2597.4
-1338.93 997.50 2582.2
-1323.09 990.66 2564.5
-1285.84 977.50 2530.4
-1335.92 1020.78 2642.5
-1318.34 1017.79 2634.7
-1293.77 1004.02 2599.1
-1269.98 1011.91 2619.5
-1243.01 995.74 2577.7
-1230.72 1007.57 2608.3
-1200.19 988.00 2557.6
-1190.23 985.24 2550.5
-1221.61 1016.87 2632.4
-1206.36 1009.82 2614.1
-1177.03 990.83 2564.9
-1191.76 1008.94 2611.8
-1180.57 1005.17 2602.1
-1146.52 981.79 2541.6
-1162.53 1001.26 2591.9
-1174.47 1017.42 2633.8
-1147.24 999.65 2587.8
-1141.13 1000.16 2589.1
-1151.27 1015.02 2627.6
-1133.75 1005.53 2603.0
-1123.72 1014.76 2626.9
-1136.28 1032.35 2672.4
-1142.75 1044.60 2704.1
-1152.00 1059.55 2742.8
-1151.63 1065.79 2759.0
-1146.00 1073.92 2780.0
-1127.22 1063.01 2751.8
-1116.72 1059.82 2743.5
-1072.73 1024.59 2652.4
-1098.70 1063.03 2751.9
-1088.96 1060.49 2745.3
-1064.41 1043.40 2701.0
-1067.84 1053.69 2727.7
-1049.31 1042.32 2698.2
-1049.56 1049.56 2717.0
-1392.87 1020.52 2659.6
-1361.04 1002.16 2611.8
-1363.40 1008.92 2629.4
-1346.59 1001.48 2610.0
-1307.38 977.23 2546.8
-1303.15 989.06 2577.7
-1295.58 993.50 2589.2
-1270.67 979.48 2552.7
-1290.82 1000.22 2606.7
-1296.95 1010.25 2632.9
-1271.31 1006.17 2622.3
-1259.50 1002.19 2611.9
-1234.25 987.40 2573.3
-1210.78 973.89 2538.1
-1233.23 997.37 2599.3
-1222.73 999.81 2605.7
-1208.27 993.47 2589.2
-1238.01 1023.60 2667.7
-1221.10 1015.29 2646.0
-1169.23 977.66 2548.0
-1155.80 971.92 2533.0
-1177.15 995.53 2594.5
-1173.76 998.37 2601.9
-1157.21 989.99 2580.1
-1136.14 977.61 2547.8
-1118.00 973.32 2536.6
-1122.59 983.10 2562.1
-1115.29 1000.39 2607.2
-1123.48 1013.87 2642.3
-1106.54 1004.71 2618.5
-1094.09 999.54 2605.0
-1115.10 1025.06 2671.5
-1143.75 1057.97 2757.3
-1115.94 1058.71 2759.2
-1073.14 1024.67 2670.5
-1079.63 1037.57 2704.1
-1113.76 1077.36 2807.8
-1053.19 1039.15 2708.2
-1391.33 1017.54 2669.9
-1380.93 1014.98 2663.2
-1351.01 997.98 2618.6
-1316.08 977.09 2563.8
-1262.02 956.27 2509.2
-1252.27 963.79 2528.9
-1245.53 973.90 2555.4
-1272.74 1005.87 2639.3
-1224.10 972.66 2552.2
-1217.36 972.56 2551.9
-1258.84 1011.20 2653.3
-1202.36 981.92 2576.5
-1187.59 975.28 2559.0
-1185.95 979.41 2569.9
-1149.19 954.42 2504.3
-1162.79 976.74 2562.9
-1176.96 994.33 2609.0
-1177.39 1000.44 2625.1
-1161.59 992.76 2604.9
-1145.12 984.40 2583.0
-1130.63 977.67 2565.3
-1120.39 974.54 2557.1
-1139.21 996.81 2615.5
-1147.26 1009.87 2649.8
-1132.40 1002.79 2631.2
-1139.88 1015.53 2664.7
-1145.73 1026.97 2694.7
-1126.10 1015.56 2664.7
-1111.72 1008.78 2646.9
-1131.20 1032.83 2710.1
-1118.59 1027.70 2696.6
-1086.98 1004.94 2636.9
-1119.99 1042.01 2734.1
-1135.87 1070.34 2808.5
-1125.63 1067.53 2801.1
-1106.32 1056.03 2770.9
-1114.60 1070.89 2809.9
-1090.54 1068.73 2804.2
-1068.15 1053.81 2765.1
-1039.19 1032.17 2708.3
-1391.49 1015.79 2683.6
-1334.57 979.13 2586.7
-1280.13 948.72 2506.4
-1281.70 954.73 2522.3
-1266.10 947.95 2504.4
-1269.10 965.05 2549.5
-1304.42 997.10 2634.2
-1241.47 953.97 2520.3
-1240.20 963.13 2544.5
-1272.00 998.45 2637.8
-1229.07 969.97 2562.5
-1228.01 974.40 2574.2
-1228.11 979.81 2588.5
-1218.06 977.12 2581.4
-1246.21 1005.23 2655.7
-1244.03 1009.04 2665.8
-1190.04 970.65 2564.3
-1156.34 953.82 2519.9
-1186.93 984.61 2601.2
-1165.20 972.11 2568.2
-1143.83 965.31 2550.2
-1140.12 967.78 2556.8
-1160.13 990.52 2616.8
-1182.53 1015.59 2683.1
-1118.95 966.66 2553.8
-1168.38 1021.46 2698.6
-1141.41 1016.14 2684.5
-1131.72 1013.69 2678.0
-1127.17 1015.84 2683.7
-1116.77 1012.72 2675.5
-1119.97 1041.50 2751.5
-1115.57 1050.79 2776.1
-1078.12 1022.12 2700.3
-1065.01 1016.29 2684.9
-1068.57 1026.39 2711.6
-1083.00 1047.14 2766.4
-1088.98 1059.94 2800.2
-1074.40 1052.77 2781.3
-1052.82 1038.59 2743.8
-1392.02 1009.21 2684.6
-1345.06 980.07 2607.1
-1304.74 960.34 2554.6
-1273.17 951.59 2531.3
-1305.47 985.90 2622.6
-1260.77 957.13 2546.1
-1279.19 976.23 2596.9
-1293.64 992.48 2640.1
-1255.19 968.10 2575.2
-1217.42 943.99 2511.1
-1232.18 960.57 2555.2
-1240.18 972.03 2585.7
-1233.78 972.27 2586.3
-1229.80 974.44 2592.1
-1192.67 950.20 2527.6
-1191.60 954.60 2539.3
-1211.70 976.09 2596.5
-1182.13 957.59 2547.3
-1161.50 946.16 2516.9
-1179.67 966.40 2570.7
-1206.25 993.78 2643.6
-1179.72 977.49 2600.2
-1148.27 968.02 2575.0
-1129.63 969.21 2578.2
-1136.94 987.16 2625.9
-1140.78 1008.61 2683.0
-1138.81 1013.05 2694.8
-1126.54 1008.32 2682.2
-1108.87 998.67 2656.6
-1117.00 1012.28 2692.8
-1139.72 1039.37 2764.8
-1115.22 1023.46 2722.5
-1112.97 1027.91 2734.3
-1099.23 1041.76 2771.2
-1058.30 1009.57 2685.5
-1046.18 1024.97 2726.5
-1351.66 968.36 2593.8
-1331.81 958.90 2568.5
-1340.77 970.21 2598.8
-1338.34 973.34 2607.1
-1315.72 966.65 2589.2
-1257.43 933.35 2500.0
-1239.77 934.69 2503.6
-1269.94 967.57 2591.7
-1271.44 973.87 2608.6
-1238.55 953.75 2554.7
-1256.10 972.47 2604.8
-1261.55 981.97 2630.3
-1253.83 981.26 2628.4
-1262.77 993.65 2661.6
-1236.78 978.55 2621.1
-1225.05 974.63 2610.6
-1232.99 986.39 2642.1
-1224.36 996.09 2668.1
-1178.03 963.84 2581.7
-1179.01 970.16 2598.6
-1162.01 961.66 2575.9
-1188.10 988.94 2648.9
-1167.85 989.24 2649.7
-1139.95 971.32 2601.7
-1130.39 968.91 2595.3
-1147.17 989.17 2649.6
-1157.29 1010.00 2705.3
-1131.62 993.62 2661.5
-1114.25 984.37 2636.7
-1098.40 982.42 2631.5
-1136.66 1023.00 2740.2
-1143.81 1035.91 2774.7
-1104.58 1006.71 2696.5
-1089.22 999.03 2676.0
-1135.59 1048.24 2807.8
-1125.63 1052.54 2819.3
-1096.92 1032.40 2765.3
-1055.63 1000.07 2678.8
-1091.65 1047.98 2807.1
-1081.81 1045.51 2800.5
-1345.56 957.29 2582.1
-1332.28 952.58 2569.4
-1346.05 967.26 2609.0
-1332.32 962.23 2595.4
-1338.08 971.29 2619.9
-1331.71 976.58 2634.1
-1299.25 957.69 2583.2
-1323.92 980.94 2645.9
-1307.59 978.98 2640.6
-1241.15 934.13 2519.6
-1253.71 948.58 2558.6
-1291.04 982.01 2648.8
-1220.01 948.16 2557.5
-1227.95 964.82 2602.4
-1202.87 977.33 2636.2
-1186.90 969.87 2616.0
-1202.97 988.65 2666.7
-1190.30 995.39 2684.9
-1166.02 980.83 2645.6
-1160.54 981.99 2648.7
-1131.59 963.20 2598.0
-1128.82 966.59 2607.2
-1152.45 1004.88 2710.5
-1116.17 979.22 2641.2
-1097.05 968.39 2612.0
-1116.70 991.85 2675.3
-1129.89 1009.84 2723.8
-1108.96 997.37 2690.2
-1074.03 984.53 2655.6
-1064.12 981.74 2648.0
-1063.36 987.41 2663.3
-1070.55 1000.58 2698.9
-1066.84 1010.32 2725.1
-1302.62 948.57 2576.6
-1329.17 972.90 2642.7
-1292.96 951.30 2584.0
-1260.80 932.46 2532.9
-1280.26 951.82 2585.4
-1276.84 954.27 2592.1
-1260.85 947.31 2573.2
-1270.73 959.80 2607.1
-1263.47 959.43 2606.1
-1254.57 957.79 2601.6
-1275.23 978.83 2658.8
-1244.98 960.80 2609.8
-1201.69 937.58 2546.7
-1231.22 965.93 2623.8
-1184.60 934.52 2538.4
-1172.68 930.28 2526.9
-1196.97 954.89 2593.8
-1222.15 980.48 2663.3
-1207.73 979.99 2661.9
-1212.41 989.43 2687.6
-1186.27 979.37 2660.2
-1161.58 964.58 2620.1
-1180.24 985.85 2677.9
-1163.65 977.75 2655.8
-1124.08 950.12 2580.8
-1128.69 965.51 2622.6
-1153.39 992.61 2696.2
-1121.42 970.98 2637.5
-1121.04 976.61 2652.8
-1137.09 996.71 2707.4
-1144.41 1022.05 2776.2
-1081.45 971.94 2640.1
-1077.61 987.23 2681.6
-1110.11 1023.61 2780.4
-1116.69 1036.41 2815.2
-1095.36 1023.29 2779.6
-1080.36 1029.61 2796.7
-1303.94 942.85 2579.2
-1307.44 950.26 2599.5
-1247.49 911.38 2493.1
-1245.99 915.03 2503.1
-1300.97 960.40 2627.2
-1272.26 944.15 2582.8
-1234.97 921.33 2520.3
-1276.60 957.45 2619.2
-1246.37 944.83 2584.6
-1224.37 933.17 2552.7
-1239.30 949.68 2597.9
-1209.67 932.04 2549.7
-1191.59 923.15 2525.3
-1179.25 918.65 2513.0
-1175.91 926.27 2533.9
-1184.49 948.94 2595.9
-1199.18 966.20 2643.1
-1139.22 933.89 2554.7
-1164.87 971.87 2658.6
-1143.07 959.36 2624.4
-1135.35 958.59 2622.3
-1129.50 959.40 2624.5
-1115.07 952.88 2606.7
-1093.88 952.08 2604.5
-1120.15 981.00 2683.6
-1141.34 1005.81 2751.4
-1097.23 973.01 2661.7
-1092.30 974.77 2666.5
-1121.62 1007.31 2755.6
-1079.87 976.03 2670.0
-1106.71 1013.29 2771.9
-1121.70 1033.73 2827.8
-1100.51 1027.63 2811.2
-1087.63 1036.18 2834.5
-1336.57 940.30 2590.6
-1321.13 934.13 2573.6
-1305.33 927.64 2555.8
-1301.66 929.76 2561.6
-1307.40 938.65 2586.1
-1281.41 924.73 2547.7
-1252.59 908.62 2503.3
-1284.57 936.66 2580.6
-1297.09 955.75 2633.2
-1232.89 913.25 2516.1
-1247.08 928.67 2558.6
-1275.30 959.91 2644.6
-1230.13 946.25 2607.0
-1242.23 960.84 2647.2
-1252.14 973.89 2683.2
-1227.91 960.38 2645.9
-1165.63 916.79 2525.8
-1173.74 938.99 2587.0
-1164.94 937.30 2582.4
-1151.87 932.15 2568.2
-1169.51 968.82 2669.2
-1142.75 952.29 2623.6
-1166.69 978.07 2694.7
-1165.49 988.90 2724.5
-1119.32 955.52 2632.6
-1119.71 961.71 2649.6
-1141.31 986.32 2717.4
-1124.98 978.24 2695.2
-1103.66 965.70 2660.6
-1099.11 967.77 2666.3
-1132.62 1003.58 2765.0
-1088.73 983.37 2709.3
-1086.09 987.35 2720.3
-1109.25 1015.00 2796.4
-1097.64 1024.46 2822.5
-1069.09 1011.30 2786.2
-1348.55 946.71 2627.0
-1333.49 940.89 2610.9
-1331.43 944.23 2620.2
-1340.07 955.23 2650.7
-1328.04 951.54 2640.4
-1309.66 943.23 2617.4
-1293.07 936.13 2597.7
-1290.08 938.85 2605.2
-1258.03 920.35 2553.9
-1239.95 921.67 2557.6
-1250.57 934.56 2593.3
-1205.09 905.44 2512.5
-1237.84 940.22 2609.0
-1225.28 946.19 2625.6
-1160.04 921.40 2556.8
-1210.68 967.15 2683.8
-1133.70 938.00 2602.9
-1124.90 936.29 2598.1
-1126.07 954.41 2648.4
-1115.34 951.12 2639.3
-1159.03 994.48 2759.6
-1164.90 1005.72 2790.8
-1126.99 979.07 2716.9
-1106.77 967.55 2684.9
-1115.10 981.00 2722.2
-1130.04 1000.48 2776.3
-1140.83 1016.51 2820.7
-1122.05 1006.23 2792.2
-1123.10 1013.70 2813.0
-1076.66 1011.19 2806.0
-1343.36 926.92 2590.8
-1347.98 934.78 2612.7
-1338.14 932.64 2606.8
-1345.65 942.64 2634.7
-1312.25 938.29 2622.6
-1262.54 907.45 2536.4
-1277.43 922.96 2579.7
-1263.09 917.40 2564.2
-1229.60 902.58 2522.7
-1225.85 904.64 2528.5
-1224.84 913.67 2553.7
-1209.23 927.07 2591.2
-1169.66 911.94 2548.9
-1201.58 942.15 2633.3
-1206.42 951.35 2659.0
-1128.05 926.61 2589.9
-1155.21 960.35 2684.2
-1158.56 968.98 2708.3
-1111.68 946.99 2646.9
-1133.18 971.29 2714.8
-1109.61 957.04 2674.9
-1099.97 954.69 2668.4
-1119.85 978.10 2733.8
-1130.85 994.00 2778.3
-1137.02 1005.83 2811.3
-1119.32 996.56 2785.4
-1120.74 1004.30 2807.1
-1118.05 1015.07 2837.1
-1079.15 1006.23 2812.5
-1307.98 923.68 2600.6
-1262.22 905.36 2549.0
-1284.15 925.94 2606.9
-1271.04 921.34 2594.0
-1277.18 930.71 2620.3
-1264.08 926.09 2607.3
-1227.33 908.89 2558.9
-1265.27 942.08 2652.4
-1271.38 951.80 2679.7
-1247.63 944.34 2658.7
-1252.33 953.16 2683.6
-1232.07 942.98 2654.9
-1197.68 932.28 2624.8
-1197.82 937.72 2640.1
-1207.68 950.87 2677.1
-1204.51 953.86 2685.5
-1159.86 923.84 2601.0
-1179.44 950.49 2676.0
-1185.34 960.90 2705.3
-1132.26 923.33 2599.6
-1132.15 928.77 2614.9
-1154.89 953.13 2683.5
-1137.69 944.63 2659.5
-1110.56 927.72 2611.9
-1118.40 940.01 2646.5
-1110.26 938.93 2643.5
-1124.96 963.25 2712.0
-1143.12 997.50 2808.4
-1125.44 994.74 2800.6
-1102.53 980.82 2761.4
-1103.61 988.20 2782.2
-1117.46 1007.18 2835.7
-1110.30 1007.36 2836.1
-1095.91 1000.93 2818.0
-1099.72 1011.15 2846.8
-1267.72 902.67 2560.1
-1261.84 903.21 2561.6
-1281.12 921.87 2614.5
-1258.24 924.98 2623.4
-1226.33 906.42 2570.7
-1196.28 889.04 2521.4
-1203.64 909.41 2579.2
-1246.14 946.79 2685.2
-1241.09 948.25 2689.4
-1212.58 931.70 2642.4
-1206.41 932.22 2643.9
-1204.94 936.41 2655.8
-1213.21 948.25 2689.4
-1205.35 947.56 2687.4
-1156.01 914.06 2592.4
-1193.31 954.64 2707.5
-1171.04 947.99 2688.6
-1149.95 936.49 2656.0
-1154.20 945.61 2681.9
-1154.58 951.65 2699.0
-1144.83 949.37 2692.6
-1149.07 970.64 2752.9
-1140.33 969.28 2749.0
-1151.53 984.96 2793.5
-1102.35 948.86 2691.1
-1100.93 953.67 2704.7
-1124.04 979.93 2779.2
-1104.98 969.53 2749.7
-1082.53 956.00 2711.3
-1064.10 945.87 2682.6
-1098.28 989.18 2805.4
-1351.80 926.36 2646.7
-1344.49 926.06 2645.9
-1295.41 896.82 2562.4
-1298.23 908.09 2594.5
-1315.26 924.79 2642.3
-1304.84 927.13 2648.9
-1302.97 930.69 2659.1
-1289.61 941.07 2688.8
-1221.00 895.84 2559.6
-1187.93 890.94 2545.6
-1227.73 925.94 2645.5
-1221.57 926.47 2647.1
-1192.74 909.72 2599.2
-1195.36 916.90 2619.7
-1202.62 927.73 2650.7
-1216.78 944.06 2697.3
-1215.14 948.23 2709.2
-1215.00 953.63 2724.7
-1177.43 940.55 2687.3
-1161.97 933.73 2667.8
-1164.75 941.56 2690.2
-1167.04 949.10 2711.7
-1163.62 952.05 2720.2
-1153.45 949.49 2712.8
-1133.11 956.06 2731.6
-1097.95 932.23 2663.5
-1117.85 961.21 2746.3
-1145.52 991.31 2832.3
-1127.75 982.23 2806.4
-1098.11 962.63 2750.4
-1071.17 945.15 2700.4
-1102.88 986.02 2817.2
-1297.71 896.36 2580.1
-1318.31 915.30 2634.7
-1304.25 924.71 2661.7
-1265.37 921.52 2652.6
-1205.19 892.24 2568.3
-1212.41 912.71 2627.2
-1203.09 910.82 2621.8
-1224.68 932.42 2684.0
-1195.95 915.76 2636.0
-1175.67 905.40 2606.2
-1207.00 934.90 2691.1
-1178.42 928.88 2673.7
-1140.00 903.91 2601.9
-1136.90 906.81 2610.2
-1145.49 919.14 2645.7
-1155.42 932.69 2684.7
-1156.34 950.61 2736.3
-1120.71 927.01 2668.4
-1118.40 930.84 2679.4
-1106.18 926.42 2666.7
-1119.41 943.40 2715.5
-1138.01 971.30 2795.8
-1111.70 954.93 2748.7
-1117.54 966.13 2781.0
-1110.88 966.61 2782.4
-1084.91 950.18 2735.1
-1075.89 948.48 2730.2
-1353.18 918.23 2663.0
-1318.24 899.11 2607.5
-1332.32 922.91 2676.5
-1257.10 875.36 2538.6
-1264.78 885.34 2567.6
-1283.68 903.33 2619.7
-1286.87 910.39 2640.2
-1292.46 919.24 2665.9
-1295.04 926.02 2685.6
-1283.90 923.02 2676.9
-1276.08 922.38 2675.0
-1235.52 897.95 2604.1
-1201.37 877.93 2546.1
-1241.28 912.10 2645.2
-1256.13 928.14 2691.7
-1206.49 896.44 2599.8
-1207.22 902.03 2616.0
-1225.14 931.11 2700.3
-1194.12 912.74 2647.1
-1218.75 936.96 2717.3
-1218.99 942.59 2733.6
-1175.08 913.95 2650.6
-1152.31 901.51 2614.5
-1144.23 900.49 2611.5
-1146.82 907.90 2633.0
-1160.67 924.37 2680.8
-1164.51 933.01 2705.8
-1140.45 930.55 2698.7
-1132.89 947.64 2748.3
-1127.67 955.29 2770.4
-1093.20 932.02 2703.0
-1088.50 934.00 2708.7
-1136.73 981.72 2847.1
-1092.36 955.82 2772.0
-1083.96 954.75 2768.9
-1093.26 975.86 2830.1
-1306.58 884.46 2584.4
-1291.24 878.57 2567.3
-1290.58 891.92 2606.3
-1321.37 918.00 2682.5
-1276.82 896.49 2619.6
-1256.62 887.03 2592.0
-1231.97 874.30 2554.8
-1230.61 878.06 2565.8
-1235.78 886.54 2590.5
-1242.48 896.22 2618.8
-1251.09 907.38 2651.4
-1253.47 914.13 2671.2
-1230.71 902.52 2637.2
-1198.04 883.47 2581.6
-1212.43 899.11 2627.3
-1236.18 921.89 2693.8
-1230.29 922.72 2696.3
-1217.23 928.75 2713.9
-1149.45 882.14 2577.7
-1141.07 880.82 2573.8
-1147.70 891.16 2604.0
-1169.51 913.47 2669.2
-1181.17 933.62 2728.1
-1148.33 913.13 2668.2
-1155.15 924.12 2700.3
-1147.26 923.40 2698.3
