ply
format ascii 1.0
element vertex 2112
property float x
property float y
property float z
end_header
1180.74 -19.79 2544.3
1195.47 -19.92 2561.7
1183.50 -19.62 2522.1
1176.05 -19.39 2492.4
1190.75 -19.52 2509.8
1223.18 -19.94 2564.1
1240.70 -20.12 2586.8
1248.31 -20.13 2588.7
1216.67 -19.52 2509.6
1196.08 -19.09 2454.0
1226.29 -19.46 2502.6
1269.02 -19.73 2536.2
1244.61 -19.25 2474.6
1251.53 -19.25 2475.6
1229.00 -18.81 2418.6
1213.36 -18.38 2363.7
1237.92 -18.66 2399.4
1258.48 -18.88 2427.1
1281.45 -19.13 2459.1
1287.85 -19.13 2459.1
1301.69 -19.24 2473.3
1280.06 -18.82 2420.3
1224.88 -17.93 2304.7
1223.41 -17.82 2290.7
1250.72 -18.13 2330.5
1285.78 -18.54 2384.3
1315.81 -18.89 2428.4
1339.80 -19.14 2460.9
1332.07 -18.59 2389.8
1310.40 -18.20 2340.0
1364.68 -18.69 2403.5
1357.00 -18.50 2379.1
1339.27 -18.18 2337.4
1319.38 -17.83 2292.4
1299.32 -17.48 2247.4
1273.54 -17.06 2193.0
1286.35 -17.15 2205.2
1336.62 -17.74 2281.2
1384.63 -18.30 2352.7
1394.24 -18.35 2358.7
1351.29 -17.70 2276.0
1316.21 -17.17 2207.3
1332.75 -17.31 2225.4
1344.21 -17.38 2234.8
1340.70 -17.26 2219.4
1362.54 -17.47 2246.0
1427.15 -18.22 2342.4
1453.49 -18.48 2375.6
1457.44 -18.45 2372.0
1469.25 -18.52 2381.1
1412.08 -17.72 2278.9
1416.35 -17.70 2276.3
1514.38 -18.85 2423.7
1472.22 -18.18 2336.9
1443.94 -17.75 2282.6
1463.71 -17.92 2304.4
1481.40 -18.07 2322.7
1539.60 -18.70 2404.2
1164.35 -27.24 2626.3
1163.51 -27.06 2609.2
1163.83 -26.91 2594.8
1171.06 -26.92 2596.0
1179.54 -26.96 2599.8
1180.97 -26.84 2588.2
1200.28 -27.12 2615.6
1203.76 -26.46 2551.1
1187.73 -25.96 2503.4
1186.56 -25.79 2487.4
1214.73 -26.26 2532.6
1228.74 -26.42 2548.1
1228.86 -26.29 2534.7
1240.31 -26.39 2544.7
1227.15 -25.97 2504.4
1220.89 -25.70 2478.5
1245.94 -25.69 2477.2
1272.92 -25.98 2505.0
1208.03 -24.53 2365.2
1202.38 -24.29 2342.3
1220.02 -24.52 2364.7
1228.53 -24.57 2369.3
1263.41 -25.14 2424.4
1284.11 -25.43 2452.0
1301.67 -25.65 2473.3
1285.18 -25.20 2430.0
1265.22 -24.69 2380.6
1298.29 -25.21 2430.9
1315.95 -25.43 2452.1
1322.46 -25.31 2440.6
1302.48 -24.81 2392.3
1335.57 -25.32 2441.5
1339.47 -25.27 2437.0
1289.69 -24.22 2335.5
1277.52 -23.77 2291.9
1358.26 -25.15 2425.5
1384.40 -25.29 2438.3
1348.05 -24.51 2363.5
1349.69 -24.43 2355.6
1351.78 -24.36 2348.7
1373.37 -24.63 2375.5
1385.00 -24.73 2384.9
1361.91 -24.21 2334.7
1386.13 -24.53 2365.7
1390.06 -24.28 2341.3
1369.96 -23.83 2297.4
1376.40 -23.83 2298.3
1381.29 -23.82 2296.5
1360.84 -23.36 2252.8
1364.60 -23.33 2249.3
1403.19 -23.88 2303.1
1399.71 -23.72 2287.7
1379.41 -23.28 2245.0
1369.98 -23.02 2220.3
1360.44 -22.77 2195.6
1413.15 -23.55 2271.1
1494.22 -24.80 2391.5
1497.61 -24.75 2387.0
1466.86 -24.15 2328.4
1481.33 -24.28 2341.7
1479.77 -24.16 2329.7
1472.23 -23.94 2308.4
1534.18 -24.84 2395.8
1153.38 -33.92 2616.9
1169.99 -34.21 2639.1
1159.77 -32.95 2541.7
1209.84 -34.18 2636.5
1189.22 -32.67 2520.3
1149.98 -31.42 2423.8
1169.31 -31.77 2451.2
1219.02 -32.95 2541.6
1212.64 -32.60 2514.7
1192.62 -31.89 2460.0
1230.20 -32.72 2524.0
1241.64 -32.85 2534.0
1203.18 -31.66 2442.6
1223.36 -32.03 2470.5
1256.44 -32.55 2511.0
1210.41 -31.20 2406.6
1231.18 -31.57 2435.3
1277.87 -32.60 2514.8
1258.94 -31.95 2464.9
1237.51 -31.25 2410.7
1241.54 -31.19 2406.4
1220.22 -30.51 2353.3
1225.48 -30.48 2351.7
1256.25 -31.10 2398.8
1283.48 -31.61 2438.7
1314.97 -31.76 2450.3
1319.90 -31.73 2447.6
1281.46 -30.66 2365.0
1285.97 -30.33 2339.7
1296.43 -30.43 2347.7
1284.10 -30.00 2314.5
1349.05 -31.37 2420.2
1348.46 -31.21 2408.0
1337.02 -30.81 2376.5
1375.48 -31.40 2422.6
1365.36 -31.03 2393.8
1396.88 -31.60 2438.0
1368.21 -30.82 2377.2
1358.32 -30.46 2349.4
1399.54 -31.24 2409.9
1405.71 -31.24 2409.8
1400.76 -30.99 2390.7
1411.45 -31.09 2398.3
1382.22 -30.05 2318.0
1340.92 -29.02 2239.0
1382.30 -29.79 2298.2
1401.66 -30.08 2320.3
1363.01 -29.12 2246.7
1356.33 -28.86 2226.2
1382.45 -29.29 2259.5
1394.04 -29.41 2268.8
1384.65 -29.09 2244.0
1377.80 -28.82 2223.6
1447.46 -30.16 2326.3
1459.90 -30.04 2317.3
1477.56 -30.28 2335.7
1479.20 -30.19 2328.8
1479.73 -30.08 2320.1
1141.64 -40.29 2590.3
1157.80 -40.62 2611.6
1156.34 -39.65 2548.7
1196.68 -40.80 2622.6
1193.96 -40.47 2601.8
1177.74 -39.70 2552.1
1184.44 -39.70 2552.3
1166.63 -38.89 2499.9
1207.62 -40.03 2573.5
1192.81 -39.11 2514.1
1217.49 -39.70 2552.2
1230.66 -39.91 2565.9
1185.68 -38.25 2458.8
1166.85 -37.44 2406.8
1206.07 -38.49 2474.5
1220.92 -38.76 2491.7
1185.92 -37.45 2407.5
1185.16 -37.23 2393.4
1212.42 -37.89 2435.7
1224.18 -38.06 2446.6
1216.22 -37.62 2418.1
1214.45 -37.37 2402.2
1235.71 -37.83 2431.8
1234.34 -37.59 2416.8
1223.78 -37.08 2384.0
1214.91 -36.63 2354.8
1213.43 -36.22 2328.5
1265.03 -37.58 2415.5
1268.07 -37.48 2409.4
1282.77 -37.73 2425.4
1266.56 -37.07 2383.1
1254.37 -36.18 2326.1
1240.45 -35.61 2289.3
1293.16 -36.60 2352.8
1339.41 -37.73 2425.5
1360.71 -38.15 2452.6
1329.37 -36.93 2373.9
1264.43 -34.96 2247.5
1263.92 -34.79 2236.3
1276.70 -34.98 2248.6
1291.51 -35.22 2264.3
1354.09 -36.76 2363.3
1357.70 -36.69 2358.9
1314.74 -35.37 2274.1
1319.15 -35.33 2271.5
1310.45 -34.95 2246.5
1293.56 -34.34 2207.7
1327.23 -35.08 2255.2
1383.97 -36.42 2341.3
1411.94 -36.99 2378.2
1357.09 -35.40 2275.9
1336.90 -34.58 2222.7
1383.52 -35.63 2290.3
1372.83 -35.20 2262.9
1341.73 -34.26 2202.2
1343.80 -34.16 2196.3
1364.69 -34.55 2221.0
1365.18 -34.42 2212.5
1415.15 -35.53 2283.9
1505.51 -37.33 2399.6
1467.33 -36.23 2329.1
1178.42 -48.24 2658.1
1175.57 -46.49 2561.8
1162.19 -45.70 2518.4
1171.35 -45.81 2524.1
1212.18 -46.62 2569.0
1235.80 -46.76 2576.6
1217.77 -45.83 2525.3
1222.64 -45.77 2521.9
1183.25 -44.06 2427.6
1184.73 -42.75 2355.5
1240.57 -44.53 2453.9
1233.85 -44.07 2428.1
1260.06 -43.88 2418.0
1297.92 -44.98 2478.3
1285.72 -44.34 2443.0
1251.41 -42.94 2366.1
1242.08 -42.00 2314.4
1291.82 -43.47 2395.5
1279.00 -42.84 2360.4
1275.59 -42.52 2342.9
1322.50 -43.87 2417.6
1316.72 -43.48 2395.6
1276.05 -41.94 2310.7
1288.39 -42.14 2322.2
1296.39 -42.21 2325.8
1300.50 -42.15 2322.3
1284.97 -41.45 2284.0
1286.02 -41.29 2275.4
1304.31 -41.69 2297.2
1306.33 -41.56 2290.3
1348.58 -42.72 2353.7
1374.11 -43.33 2387.5
1347.73 -42.31 2331.1
1320.11 -41.25 2273.2
1283.20 -39.92 2199.8
1323.13 -40.80 2248.2
1355.43 -41.61 2293.0
1357.79 -41.50 2287.0
1338.61 -40.74 2244.9
1319.78 -39.99 2203.7
1336.35 -40.32 2221.8
1368.49 -41.11 2265.4
1382.64 -41.36 2279.1
1378.10 -41.05 2261.9
1368.81 -40.60 2237.2
1381.92 -40.82 2249.1
1396.12 -41.06 2262.6
1464.09 -42.88 2362.8
1454.36 -42.24 2327.7
1452.32 -42.01 2314.8
1508.32 -43.45 2394.2
1480.68 -42.48 2340.7
1500.07 -42.69 2352.0
1143.57 -53.82 2594.7
1193.02 -54.54 2629.5
1180.40 -53.65 2586.9
1198.45 -54.17 2611.6
1153.01 -51.24 2470.7
1173.43 -51.30 2473.3
1188.56 -51.68 2491.5
1163.55 -50.32 2425.9
1171.12 -50.10 2415.6
1188.62 -49.79 2400.4
1181.58 -49.23 2373.7
1205.35 -49.70 2396.5
1252.25 -51.37 2477.0
1230.18 -50.21 2420.9
1221.52 -49.60 2391.7
1234.65 -49.88 2405.2
1215.74 -48.87 2356.4
1226.08 -49.04 2364.6
1304.30 -51.40 2478.3
1236.87 -48.50 2338.6
1249.61 -48.53 2339.8
1293.09 -49.97 2409.5
1314.07 -50.54 2436.8
1299.43 -49.74 2398.1
1296.58 -49.39 2381.5
1349.32 -51.16 2466.6
1342.67 -50.67 2442.9
1290.01 -48.45 2336.0
1292.71 -48.33 2330.0
1296.34 -48.24 2325.7
1293.61 -47.91 2310.0
1328.56 -48.98 2361.5
1380.78 -50.44 2431.9
1352.35 -49.18 2371.0
1359.96 -49.23 2373.6
1348.63 -48.60 2343.2
1358.69 -48.74 2350.1
1365.25 -48.76 2350.9
1345.62 -47.84 2306.8
1360.19 -48.15 2321.4
1381.40 -48.68 2347.2
1395.58 -48.97 2360.9
1381.73 -48.27 2327.3
1350.85 -46.99 2265.4
1391.14 -48.18 2322.9
1454.25 -49.93 2407.4
1419.92 -48.54 2340.5
1439.96 -49.02 2363.5
1458.51 -49.44 2383.8
1451.48 -49.00 2362.3
1440.70 -48.43 2334.9
1434.01 -48.00 2314.3
1407.18 -46.91 2261.5
1419.79 -46.74 2253.6
1504.86 -48.94 2359.5
1143.11 -60.52 2593.6
1196.94 -61.21 2623.2
1200.06 -61.02 2615.2
1203.56 -60.85 2608.0
1165.78 -58.61 2512.1
1149.57 -57.48 2463.4
1184.70 -56.41 2417.8
1259.55 -59.66 2557.0
1246.85 -58.14 2491.9
1234.94 -57.29 2455.3
1223.77 -56.48 2420.7
1254.13 -57.59 2468.0
1250.57 -56.84 2436.2
1274.28 -57.06 2445.3
1251.16 -55.47 2377.3
1232.61 -54.38 2330.6
1258.43 -55.25 2367.8
1258.03 -54.96 2355.5
1263.25 -54.92 2353.9
1261.81 -54.60 2339.9
1303.19 -55.59 2382.3
1351.29 -56.57 2424.2
1279.39 -53.31 2284.6
1332.16 -55.00 2357.0
1364.43 -56.07 2403.1
1325.05 -54.21 2323.1
1318.65 -53.70 2301.5
1324.63 -53.70 2301.5
1351.62 -54.55 2337.8
1361.18 -54.69 2343.9
1350.60 -54.02 2315.3
1404.61 -55.94 2397.2
1363.81 -53.60 2297.1
1308.29 -51.19 2194.0
1326.35 -51.68 2214.7
1444.46 -56.04 2401.5
1426.61 -54.87 2351.5
1441.46 -55.20 2365.9
1480.89 -56.47 2420.3
1492.77 -56.69 2429.5
1455.34 -55.03 2358.6
1425.53 -53.68 2300.6
1449.90 -54.37 2330.2
1444.19 -53.93 2311.4
1453.27 -54.05 2316.3
1136.61 -67.26 2594.1
1149.50 -67.62 2608.1
1152.51 -66.62 2569.6
1163.80 -66.89 2579.9
1171.23 -66.17 2552.3
1191.79 -66.21 2553.8
1192.97 -65.91 2542.2
1172.34 -64.41 2484.5
1197.61 -64.04 2470.3
1226.88 -65.26 2517.2
1236.55 -65.43 2523.6
1265.13 -65.55 2528.4
1220.50 -62.91 2426.6
1225.52 -62.85 2424.1
1276.71 -65.14 2512.5
1206.22 -60.92 2349.8
1199.27 -59.96 2312.9
1223.85 -60.89 2348.5
1259.19 -61.72 2380.8
1264.00 -61.66 2378.3
1241.96 -60.29 2325.4
1266.02 -61.16 2359.1
1282.63 -61.66 2378.5
1257.39 -60.16 2320.5
1277.81 -60.85 2347.0
1340.07 -63.51 2449.7
1375.08 -63.96 2466.9
1310.10 -60.65 2339.5
1275.00 -58.76 2266.3
1355.71 -62.19 2398.7
1388.88 -63.13 2435.0
1377.08 -61.75 2381.9
1329.99 -59.37 2290.2
1316.28 -58.50 2256.5
1368.66 -60.56 2335.9
1387.31 -60.85 2347.0
1321.89 -57.72 2226.5
1398.30 -60.01 2314.8
1430.17 -61.12 2357.4
1455.44 -61.93 2388.9
1451.79 -60.74 2343.0
1438.22 -59.93 2311.4
1509.28 -62.63 2415.6
1467.64 -59.66 2301.2
1148.11 -73.43 2574.7
1131.17 -71.92 2522.0
1141.95 -72.19 2531.4
1188.70 -74.72 2620.0
1150.73 -71.51 2507.6
1177.85 -72.38 2538.1
1201.10 -72.20 2531.6
1210.32 -72.36 2537.2
1191.48 -70.46 2470.8
1179.67 -69.39 2433.2
1226.81 -71.78 2517.0
1244.84 -72.07 2527.1
1237.24 -71.25 2498.5
1223.58 -69.38 2432.7
1214.17 -68.49 2401.7
1245.39 -69.89 2450.8
1236.79 -69.06 2421.6
1240.39 -68.91 2416.4
1271.01 -70.26 2463.6
1252.12 -68.87 2414.8
1208.08 -66.11 2318.3
1237.52 -67.06 2351.4
1308.19 -70.54 2473.5
1323.52 -71.02 2490.2
1274.38 -68.05 2386.2
1274.46 -67.73 2374.8
1307.38 -68.48 2401.3
1287.71 -67.13 2354.0
1365.71 -69.55 2438.8
1327.87 -67.31 2360.3
1352.19 -68.23 2392.5
1343.06 -67.46 2365.5
1344.98 -66.34 2326.4
1298.29 -63.76 2235.6
1291.53 -63.14 2214.1
1294.15 -62.44 2189.3
1303.45 -62.61 2195.5
1310.81 -62.42 2188.7
1331.99 -63.15 2214.5
1377.55 -65.03 2280.4
1396.39 -65.64 2301.7
1409.07 -65.96 2312.8
1473.31 -67.81 2377.7
1461.91 -67.00 2349.5
1487.81 -67.35 2361.6
1476.69 -66.57 2334.3
1482.07 -66.54 2333.3
1132.02 -80.86 2599.0
1171.59 -81.27 2612.1
1172.29 -80.85 2598.7
1150.62 -78.90 2536.1
1137.59 -76.69 2465.1
1157.16 -77.58 2493.5
1173.04 -78.20 2513.7
1196.65 -79.34 2550.1
1208.45 -79.68 2561.1
1168.03 -76.59 2461.9
1164.20 -75.93 2440.5
1184.82 -76.03 2443.9
1188.63 -75.87 2438.7
1237.72 -78.59 2526.0
1247.85 -78.81 2533.2
1216.76 -76.45 2457.2
1242.80 -77.68 2496.7
1236.53 -76.49 2458.5
1205.53 -74.19 2384.6
1213.16 -74.28 2387.4
1228.99 -74.86 2406.3
1255.84 -76.11 2446.4
1262.52 -75.37 2422.7
1248.90 -74.19 2384.7
1275.62 -75.41 2423.8
1318.35 -76.43 2456.6
1296.72 -74.81 2404.6
1336.94 -76.40 2455.6
1308.59 -73.72 2369.7
1349.36 -74.62 2398.5
1307.84 -71.99 2314.0
1288.69 -70.61 2269.7
1348.61 -73.56 2364.4
1330.39 -71.59 2301.1
1315.28 -70.46 2264.8
1308.08 -69.76 2242.4
1289.17 -68.45 2200.2
1313.07 -68.81 2211.7
1379.25 -71.96 2313.0
1379.05 -71.64 2302.7
1374.68 -71.10 2285.5
1400.73 -72.14 2318.8
1400.98 -71.85 2309.3
1358.02 -69.35 2229.0
1373.71 -69.85 2245.2
1478.94 -74.88 2407.0
1469.54 -73.78 2371.6
1487.18 -74.36 2390.1
1525.03 -75.31 2420.7
1167.42 -89.27 2648.8
1131.26 -85.50 2536.9
1144.92 -86.03 2552.7
1178.37 -88.04 2612.2
1190.19 -88.41 2623.3
1139.15 -82.27 2441.0
1187.22 -85.27 2530.0
1181.50 -84.39 2504.0
1183.95 -82.75 2455.2
1214.40 -84.42 2504.9
1231.47 -85.15 2526.6
1266.19 -83.56 2479.1
1247.65 -80.69 2394.2
1291.48 -83.11 2466.0
1306.12 -81.63 2422.1
1329.55 -82.70 2453.7
1298.58 -80.01 2373.8
1308.51 -79.86 2369.5
1341.82 -81.51 2418.5
1351.48 -81.72 2424.6
1378.19 -82.56 2449.7
1341.70 -80.01 2373.9
1325.63 -78.69 2334.8
1293.55 -76.44 2267.9
1309.91 -77.05 2286.2
1312.37 -76.85 2280.2
1285.28 -74.93 2223.1
1314.19 -76.27 2263.0
1350.31 -78.02 2314.8
1384.59 -79.64 2363.1
1371.40 -78.54 2330.3
1329.09 -75.78 2248.5
1388.51 -78.82 2338.7
1426.27 -80.62 2391.9
1390.26 -78.24 2321.4
1408.60 -78.93 2341.9
1458.53 -81.38 2414.5
1484.88 -82.49 2447.6
1471.31 -81.39 2414.9
1390.84 -76.61 2273.2
1388.84 -76.18 2260.3
1465.00 -80.02 2374.2
1472.08 -80.07 2375.7
1422.13 -77.03 2285.6
1476.87 -79.34 2353.9
1520.67 -81.35 2413.8
1130.94 -94.81 2612.1
1141.92 -94.60 2606.2
1156.45 -95.24 2623.9
1138.83 -91.63 2524.5
1187.85 -94.49 2603.2
1134.24 -89.71 2471.7
1124.86 -88.47 2437.5
1161.46 -90.34 2488.8
1199.45 -92.77 2556.0
1182.69 -90.98 2506.5
1167.86 -89.34 2461.5
1152.41 -87.68 2415.8
1216.49 -91.07 2509.2
1192.91 -87.90 2421.7
1177.11 -86.28 2377.1
1202.54 -87.69 2415.8
1254.07 -90.97 2506.3
1278.82 -90.88 2503.9
1276.72 -89.37 2462.2
1243.16 -86.16 2373.8
1320.55 -90.63 2496.8
1279.16 -87.36 2406.8
1283.55 -87.23 2403.3
1306.83 -88.38 2435.1
1307.45 -88.00 2424.5
1324.22 -88.70 2443.9
1347.75 -89.85 2475.5
1357.01 -90.04 2480.7
1331.13 -87.49 2410.5
1250.08 -81.78 2253.2
1289.97 -82.84 2282.4
1277.67 -81.68 2250.3
1293.70 -81.22 2237.7
1373.84 -85.86 2365.7
1369.86 -85.24 2348.3
1365.30 -84.58 2330.2
1433.32 -87.63 2414.2
1395.46 -84.94 2340.2
1384.52 -83.91 2311.8
1428.59 -86.21 2375.1
1448.13 -85.91 2366.8
1421.45 -83.26 2294.0
1479.43 -85.59 2358.0
1148.24 -101.92 2620.7
1156.78 -101.47 2609.3
1119.28 -97.61 2510.0
1156.97 -99.17 2550.1
1200.20 -102.29 2630.3
1205.42 -102.15 2626.8
1170.84 -98.67 2537.1
1145.12 -95.96 2467.5
1178.70 -98.22 2525.8
1206.57 -99.99 2571.2
1204.35 -99.26 2552.4
1205.90 -98.84 2541.7
1180.29 -96.22 2474.2
1186.80 -95.71 2461.1
1211.94 -96.19 2473.4
1168.97 -92.29 2373.1
1172.14 -92.05 2367.1
1204.38 -93.12 2394.6
1250.36 -96.18 2473.2
1259.53 -96.39 2478.7
1242.36 -94.60 2432.5
1219.97 -92.42 2376.6
1212.01 -91.36 2349.2
1241.66 -93.12 2394.6
1249.78 -93.27 2398.3
1248.03 -91.77 2359.7
1276.25 -93.38 2401.3
1252.38 -91.19 2345.0
1265.56 -90.83 2335.6
1334.27 -95.30 2450.7
1333.93 -93.94 2415.6
1272.78 -89.21 2294.1
1305.96 -90.27 2321.3
1322.82 -91.02 2340.5
1277.57 -87.50 2250.1
1275.94 -86.60 2226.9
1346.08 -90.95 2338.8
1368.74 -90.85 2336.0
1359.55 -89.84 2310.1
1394.51 -91.74 2359.1
1384.75 -90.70 2332.4
1379.97 -88.46 2274.7
1430.03 -91.28 2347.2
1457.94 -92.67 2382.8
1489.11 -94.25 2423.5
1475.30 -92.98 2390.9
1496.63 -93.93 2415.4
1494.81 -93.43 2402.4
1142.93 -108.21 2608.5
1172.88 -109.74 2645.6
1151.74 -107.14 2582.8
1143.83 -105.79 2550.2
1167.40 -107.35 2587.8
1169.26 -106.90 2577.1
1166.49 -106.04 2556.4
1213.23 -109.67 2643.9
1216.38 -109.34 2635.8
1161.43 -103.82 2502.7
1167.19 -103.75 2501.1
1188.21 -105.04 2532.1
1178.66 -103.62 2497.9
1195.94 -104.56 2520.7
1188.36 -103.34 2491.1
1163.80 -100.65 2426.5
1218.05 -103.66 2499.0
1184.14 -100.24 2416.6
1172.41 -98.73 2380.1
1212.40 -101.56 2448.4
1226.84 -102.24 2464.6
1190.81 -98.21 2367.6
1238.98 -101.66 2450.7
1246.30 -101.74 2452.6
1221.35 -99.20 2391.3
1197.96 -96.81 2333.7
1222.23 -97.78 2357.2
1265.84 -100.76 2429.1
1249.92 -99.00 2386.7
1287.87 -100.52 2423.2
1309.24 -101.69 2451.4
1317.96 -101.87 2455.8
1335.71 -102.75 2476.9
1306.87 -100.05 2411.9
1333.68 -101.61 2449.6
1343.37 -101.87 2455.7
1301.09 -98.20 2367.2
1357.01 -101.93 2457.4
1336.58 -99.47 2397.8
1296.88 -96.07 2315.9
1352.90 -99.75 2404.8
1355.66 -99.50 2398.6
1349.51 -98.59 2376.8
1363.08 -99.13 2389.8
1387.62 -100.46 2421.8
1389.54 -99.70 2403.4
1327.96 -94.85 2286.7
1382.26 -97.43 2348.7
1383.72 -97.10 2340.9
1390.25 -97.14 2341.7
1353.79 -94.18 2270.3
1405.48 -95.69 2306.9
1465.65 -99.37 2395.4
1166.48 -117.34 2662.3
1174.79 -116.79 2649.9
1139.43 -112.62 2555.2
1119.19 -109.98 2495.3
1156.61 -113.00 2563.9
1174.93 -114.14 2589.6
1161.00 -112.14 2544.4
1191.87 -114.47 2597.3
1204.12 -115.00 2609.3
1161.32 -110.29 2502.5
1161.16 -109.67 2488.2
1176.64 -110.51 2507.4
1196.03 -111.72 2534.8
1242.95 -115.47 2619.8
1180.43 -107.31 2434.8
1195.44 -106.40 2414.1
1238.31 -109.64 2487.7
1213.51 -106.89 2425.2
1237.39 -108.43 2460.2
1277.88 -110.84 2514.8
1219.42 -105.23 2387.6
1233.45 -105.90 2402.8
1268.61 -108.37 2458.9
1246.51 -105.95 2404.0
1233.40 -104.32 2366.9
1258.62 -105.92 2403.3
1247.22 -104.45 2369.8
1231.47 -102.62 2328.4
1272.29 -105.51 2393.9
1284.65 -106.02 2405.4
1284.77 -105.51 2394.0
1314.93 -106.45 2415.2
1320.66 -105.41 2391.5
1304.35 -103.14 2340.0
1288.19 -100.45 2279.2
1292.17 -100.31 2275.8
1336.23 -103.25 2342.7
1392.97 -107.15 2431.2
1386.93 -105.73 2398.9
1345.41 -102.11 2316.7
1470.97 -108.25 2456.2
1466.90 -107.49 2438.8
1437.43 -104.88 2379.6
1424.32 -103.48 2347.8
1428.25 -103.32 2344.2
1443.63 -103.99 2359.4
1475.80 -105.86 2401.8
1513.36 -106.75 2422.1
1482.28 -104.13 2362.6
1134.81 -123.80 2652.8
1145.80 -122.76 2630.7
1170.14 -123.90 2654.9
1166.98 -122.84 2632.3
1158.03 -121.19 2596.9
1141.56 -118.78 2545.2
1181.15 -122.19 2618.3
1204.95 -123.94 2655.8
1196.14 -122.33 2621.4
1165.09 -118.48 2538.9
1165.49 -115.91 2483.7
1237.28 -122.37 2622.2
1182.44 -116.31 2492.3
1154.08 -112.29 2406.2
1192.99 -115.45 2474.0
1193.40 -114.87 2461.6
1206.44 -115.51 2475.2
1192.71 -113.59 2434.1
1221.64 -115.73 2480.0
1230.80 -115.99 2485.5
1207.92 -113.24 2426.6
1195.96 -111.54 2390.2
1234.14 -114.51 2453.7
1273.47 -117.55 2518.9
1228.42 -112.81 2417.4
1201.13 -109.75 2351.7
1239.73 -112.70 2415.1
1261.63 -114.12 2445.4
1228.45 -110.56 2369.2
1249.91 -111.93 2398.6
1307.64 -116.52 2496.9
1311.78 -116.32 2492.5
1313.57 -115.90 2483.6
1260.45 -110.67 2371.6
1278.56 -110.64 2371.0
1319.97 -113.68 2436.0
1344.66 -114.17 2446.5
1303.16 -110.13 2359.8
1311.05 -109.76 2352.0
1356.58 -112.53 2411.3
1301.35 -107.45 2302.5
1311.78 -107.82 2310.4
1369.77 -112.07 2401.6
1343.65 -107.02 2293.2
1369.86 -108.62 2327.6
1448.06 -114.32 2449.7
1466.22 -114.25 2448.2
1453.89 -112.80 2417.2
1444.54 -111.60 2391.3
1456.33 -112.03 2400.6
1440.08 -110.30 2363.7
1435.16 -109.46 2345.6
1489.80 -113.15 2424.6
1481.53 -111.58 2391.0
1116.62 -128.58 2610.3
1120.49 -127.48 2588.0
1140.10 -128.94 2617.6
1141.79 -128.37 2605.9
1125.29 -125.77 2553.2
1127.99 -125.33 2544.3
1175.41 -129.84 2635.9
1204.44 -131.52 2670.0
1180.47 -128.17 2601.9
1200.57 -129.61 2631.1
1197.05 -128.50 2608.6
1146.96 -122.43 2485.4
1195.08 -125.45 2546.7
1235.45 -128.98 2618.3
1154.49 -119.87 2433.4
1208.50 -123.45 2506.1
1233.81 -125.36 2544.9
1226.24 -121.98 2476.3
1235.84 -122.30 2482.7
1263.35 -124.37 2524.8
1256.46 -123.06 2498.1
1253.51 -122.14 2479.5
1196.62 -116.00 2354.9
1204.93 -115.62 2347.3
1232.19 -117.65 2388.3
1226.95 -116.56 2366.3
1285.34 -121.50 2466.5
1328.39 -123.72 2511.7
1250.95 -115.94 2353.7
1304.38 -119.73 2430.5
1323.01 -120.85 2453.4
1298.43 -118.04 2396.3
1282.59 -115.49 2344.6
1306.90 -116.58 2366.6
1324.99 -111.89 2271.4
1319.06 -110.41 2241.3
1361.50 -113.46 2303.3
1364.39 -113.20 2298.1
1374.93 -113.58 2305.8
1378.82 -113.41 2302.3
1407.93 -115.30 2340.8
1446.48 -117.95 2394.5
1443.76 -117.23 2379.8
1409.80 -113.98 2314.0
1404.79 -113.10 2296.0
1460.37 -117.08 2376.7
1471.80 -116.03 2355.6
1136.56 -138.61 2673.1
1117.47 -134.64 2596.5
1157.68 -138.64 2673.8
1167.90 -139.04 2681.4
1174.54 -139.00 2680.7
1163.84 -136.92 2640.7
1171.16 -135.39 2611.2
1183.37 -136.02 2623.2
1157.23 -132.26 2550.6
1171.83 -133.16 2568.1
1195.25 -135.06 2604.7
1171.53 -131.63 2538.6
1192.41 -131.76 2541.0
1228.07 -134.95 2602.7
1243.86 -135.94 2621.7
1264.02 -137.39 2649.7
1226.16 -131.84 2542.7
1188.79 -127.14 2452.1
1226.31 -129.77 2502.7
1258.47 -131.78 2541.4
1239.49 -126.48 2439.2
1277.72 -126.51 2439.8
1307.33 -128.80 2484.0
1323.11 -129.72 2501.7
1314.11 -128.21 2472.5
1350.65 -129.25 2492.6
1319.81 -125.70 2424.1
1286.26 -120.21 2318.4
1362.35 -126.73 2444.1
1355.83 -124.96 2410.0
1280.45 -117.47 2265.5
1302.65 -118.96 2294.3
1348.72 -122.61 2364.6
1378.67 -124.77 2406.2
1396.82 -125.84 2426.9
1361.54 -122.11 2355.0
1318.95 -117.76 2271.2
1335.43 -118.70 2289.3
1374.20 -121.61 2345.3
1401.01 -123.44 2380.6
1404.58 -123.21 2376.2
1384.15 -120.89 2331.4
1374.80 -119.55 2305.6
1357.64 -117.54 2266.9
1363.00 -117.50 2266.1
1414.31 -121.40 2341.3
1410.98 -120.60 2325.8
1390.43 -118.33 2282.2
1395.79 -118.29 2281.3
1464.42 -123.58 2383.3
1134.72 -141.00 2589.8
1172.57 -144.85 2660.5
1175.10 -144.31 2650.6
1157.25 -141.29 2595.2
1196.78 -145.27 2668.3
1199.66 -144.79 2659.3
1165.77 -139.89 2569.4
1206.11 -143.91 2643.3
1223.29 -144.32 2650.8
1167.98 -137.03 2516.8
1211.73 -139.82 2568.0
1255.70 -144.10 2646.7
1251.41 -142.82 2623.3
1210.73 -137.43 2524.3
1186.97 -134.01 2461.5
1203.60 -133.03 2443.4
1238.83 -136.21 2501.8
1247.15 -136.41 2505.4
1217.04 -132.42 2432.3
1191.11 -128.93 2368.2
1191.50 -128.32 2356.8
1244.33 -133.32 2448.7
1258.95 -133.53 2452.5
1289.22 -134.69 2474.0
1234.48 -128.34 2357.2
1270.44 -131.43 2413.9
1315.50 -135.42 2487.3
1341.16 -137.39 2523.4
1290.73 -131.58 2416.8
1258.26 -127.04 2333.3
1282.93 -128.91 2367.7
1353.28 -134.69 2473.8
1317.95 -128.73 2364.4
1303.42 -125.56 2306.2
1280.32 -122.77 2255.0
1313.94 -125.42 2303.7
1330.86 -126.46 2322.8
1322.93 -125.14 2298.5
1344.26 -124.91 2294.3
1374.02 -127.11 2334.7
1377.49 -126.87 2330.3
1353.41 -124.11 2279.6
1397.68 -127.61 2343.9
1440.14 -130.92 2404.7
1373.67 -124.34 2283.8
1429.49 -128.29 2356.3
1492.68 -133.39 2450.0
1476.98 -131.43 2413.9
1113.99 -152.22 2668.8
1134.69 -153.15 2685.1
1144.90 -152.65 2676.4
1107.01 -145.83 2556.8
1173.20 -153.63 2693.6
1167.44 -151.98 2664.5
1165.98 -150.89 2645.5
1169.95 -147.92 2593.5
1139.22 -142.40 2496.7
1240.78 -151.65 2658.8
1231.16 -149.64 2623.6
1240.15 -149.09 2613.9
1163.97 -139.17 2440.0
1187.69 -141.24 2476.3
1225.44 -144.94 2541.2
1196.80 -140.80 2468.6
1193.04 -137.42 2409.3
1232.77 -141.25 2476.5
1257.57 -143.35 2513.3
1247.86 -139.36 2443.2
1253.34 -136.50 2393.2
1252.16 -135.70 2379.2
1254.65 -135.31 2372.2
1300.70 -139.59 2447.3
1276.00 -136.27 2389.2
1290.55 -133.30 2337.0
1316.83 -134.75 2362.4
1361.26 -137.38 2408.5
1302.38 -130.83 2293.8
1306.87 -130.69 2291.3
1327.70 -130.40 2286.2
1377.42 -134.68 2361.3
1425.41 -138.76 2432.8
1403.25 -136.00 2384.4
1357.52 -130.99 2296.6
1349.70 -129.67 2273.3
1419.53 -135.78 2380.6
1457.95 -138.25 2423.9
1399.04 -132.10 2316.0
1449.03 -136.23 2388.5
1456.54 -134.64 2360.5
1451.49 -133.61 2342.5
1491.76 -136.74 2397.5
1111.92 -158.85 2663.9
1124.82 -157.75 2645.5
1148.69 -160.12 2685.2
1143.91 -158.49 2658.0
1132.83 -154.17 2585.5
1141.27 -154.41 2589.4
1156.03 -153.69 2577.4
1134.08 -149.91 2514.0
1168.18 -150.94 2531.4
1216.88 -156.36 2622.2
1233.03 -157.55 2642.2
1243.74 -158.04 2650.4
1249.84 -157.08 2634.3
1179.31 -147.41 2472.2
1202.66 -149.52 2507.5
1233.36 -150.09 2517.1
1192.45 -143.59 2408.1
1250.42 -149.79 2512.0
1279.67 -151.71 2544.3
1197.75 -139.84 2345.1
1260.94 -145.74 2444.0
1219.70 -139.57 2340.6
1319.45 -149.49 2507.0
1280.65 -144.39 2421.4
1284.14 -144.07 2416.2
1302.67 -145.44 2439.1
1257.53 -139.73 2343.2
1271.25 -140.57 2357.4
1346.26 -146.75 2461.0
1314.06 -141.89 2379.6
1270.33 -136.53 2289.7
1325.92 -141.84 2378.7
1348.68 -143.61 2408.3
1307.89 -138.62 2324.7
1324.25 -139.71 2343.0
1323.11 -137.70 2309.2
1341.60 -137.75 2310.1
1313.36 -134.25 2251.5
1398.49 -142.32 2386.8
1420.83 -143.96 2414.2
1451.39 -146.41 2455.4
1465.50 -144.66 2426.0
1458.71 -143.38 2404.5
1494.81 -145.07 2432.8
1469.49 -142.01 2381.5
1121.15 -164.07 2636.9
1125.46 -160.78 2584.0
1145.55 -161.72 2599.2
1167.37 -163.84 2633.2
1139.33 -158.98 2555.0
1127.28 -156.39 2513.3
1134.75 -156.52 2515.5
1166.57 -159.99 2571.2
1174.58 -160.17 2574.2
1204.11 -161.45 2594.7
1202.01 -159.38 2561.5
1177.63 -155.29 2495.8
1229.99 -161.31 2592.5
1241.92 -161.99 2603.4
1213.74 -157.46 2530.6
1240.32 -160.04 2572.1
1254.34 -158.44 2546.4
1170.17 -146.27 2350.8
1196.50 -148.79 2391.2
1234.84 -150.44 2417.7
1297.72 -157.30 2528.0
1303.07 -155.59 2500.6
1297.04 -154.10 2476.7
1312.31 -155.15 2493.5
1298.23 -152.73 2454.6
1332.25 -155.97 2506.7
1286.18 -149.12 2396.6
1250.24 -144.26 2318.4
1331.95 -152.95 2458.2
1315.39 -150.33 2416.0
1270.94 -143.20 2301.5
1356.41 -152.12 2444.8
1335.00 -149.02 2395.0
1284.11 -142.68 2293.1
1297.45 -143.50 2306.2
1371.75 -151.02 2427.1
1379.26 -149.11 2396.4
1368.93 -147.33 2367.8
1354.48 -145.12 2332.3
1346.84 -143.03 2298.7
1379.63 -145.86 2344.3
1424.29 -149.93 2409.5
1438.64 -150.12 2412.6
1440.17 -149.63 2404.7
1456.59 -150.68 2421.7
1451.48 -147.61 2372.3
1134.28 -172.91 2667.7
1147.98 -173.94 2683.6
1149.22 -171.01 2638.5
1146.55 -169.61 2616.8
1166.33 -171.52 2646.3
1162.76 -169.99 2622.8
1169.66 -170.01 2623.0
1192.90 -172.38 2659.6
1148.96 -165.08 2547.0
1129.70 -161.39 2490.0
1194.31 -169.65 2617.4
1203.67 -170.01 2623.0
1164.94 -163.62 2524.4
1203.53 -168.09 2593.4
1191.67 -164.60 2539.5
1209.09 -164.28 2534.6
1226.27 -164.82 2543.0
1224.22 -163.67 2525.1
1258.14 -165.55 2554.1
1208.98 -158.24 2441.5
1202.19 -154.92 2390.2
1248.12 -160.02 2468.8
1241.00 -158.29 2442.2
1251.94 -158.88 2451.2
1250.13 -157.85 2435.3
1231.78 -154.75 2387.5
1238.51 -154.81 2388.5
1242.00 -154.48 2383.4
1242.22 -153.74 2372.0
1261.93 -155.41 2397.7
1258.39 -154.21 2379.3
1307.72 -159.48 2460.5
1276.62 -153.44 2367.4
1255.21 -150.14 2316.5
1311.88 -156.18 2409.6
1307.12 -154.87 2389.4
1270.78 -149.15 2301.2
1300.05 -151.88 2343.2
1331.06 -153.35 2365.9
1357.34 -155.66 2401.6
1354.66 -154.64 2385.9
1324.21 -150.48 2321.7
1324.79 -148.52 2291.4
1390.41 -155.18 2394.2
1453.07 -159.33 2458.2
1463.91 -159.82 2465.7
1374.03 -149.35 2304.3
1426.44 -153.05 2361.4
1480.06 -157.45 2429.3
1446.61 -153.24 2364.3
1120.05 -177.57 2634.3
1144.88 -178.24 2644.3
1133.97 -174.46 2588.1
1100.95 -168.38 2498.0
1164.62 -177.08 2627.0
1122.94 -167.80 2489.3
1153.95 -170.47 2528.9
1218.91 -177.05 2626.5
1205.94 -174.19 2584.1
1207.19 -173.41 2572.6
1186.67 -169.52 2514.9
1160.77 -164.92 2446.6
1216.23 -171.86 2549.5
1228.27 -171.69 2547.1
1241.90 -172.67 2561.6
1250.03 -171.06 2537.7
1217.67 -165.76 2459.0
1183.20 -160.23 2377.0
1266.87 -168.92 2505.9
1284.61 -168.69 2502.5
1238.02 -161.75 2399.6
1213.99 -157.82 2341.3
1262.13 -163.26 2422.0
1302.67 -166.84 2475.2
1270.82 -161.97 2402.8
1255.07 -159.18 2361.5
1318.16 -166.37 2468.1
1324.48 -164.77 2444.3
1350.85 -167.25 2481.2
1325.17 -162.52 2411.0
1364.23 -166.53 2470.4
1308.41 -158.23 2347.3
1314.51 -158.23 2347.3
1367.60 -163.86 2430.9
1353.72 -161.45 2395.2
1309.14 -155.42 2305.7
1323.14 -154.96 2298.9
1303.63 -151.99 2254.8
1307.01 -151.71 2250.6
1309.36 -151.30 2244.6
1384.35 -158.56 2352.3
1386.47 -156.05 2315.1
1421.94 -157.99 2343.9
1123.73 -187.29 2675.6
1100.10 -182.23 2603.2
1094.89 -180.26 2575.1
1098.71 -177.64 2537.7
1170.40 -188.10 2687.1
1144.21 -182.80 2611.5
1099.18 -174.58 2493.9
1148.67 -181.37 2591.0
1133.33 -176.88 2526.8
1114.57 -172.95 2470.7
1157.41 -178.57 2551.0
1164.14 -178.59 2551.3
1175.43 -179.30 2561.5
1193.46 -181.03 2586.2
1182.60 -178.38 2548.3
1203.23 -180.48 2578.3
1238.46 -182.72 2610.3
1224.21 -179.64 2566.3
1204.17 -175.74 2510.6
1215.52 -176.45 2520.7
1253.82 -177.24 2532.0
1219.06 -171.43 2449.0
1190.59 -164.85 2355.0
1251.06 -172.34 2462.0
1217.54 -166.87 2383.9
1236.12 -168.56 2408.0
1241.05 -168.38 2405.5
1224.38 -165.29 2361.3
1278.56 -171.75 2453.5
1269.95 -168.91 2413.0
1301.91 -172.31 2461.6
1325.03 -173.67 2481.0
1330.97 -173.61 2480.1
1330.62 -171.08 2444.0
1302.93 -166.73 2381.8
1299.03 -165.44 2363.5
1329.97 -164.72 2353.2
1269.53 -156.52 2236.0
1332.37 -162.78 2325.4
1372.50 -165.44 2363.4
1325.78 -159.09 2272.8
1315.04 -157.11 2244.4
1375.06 -163.55 2336.5
1401.16 -163.77 2339.6
1403.36 -162.62 2323.2
1125.18 -192.10 2646.3
1135.69 -192.72 2654.9
1140.32 -192.34 2649.6
1109.64 -186.05 2562.9
1105.67 -184.28 2538.5
1139.23 -188.75 2600.1
1152.13 -189.76 2614.1
1162.25 -190.31 2621.6
1165.49 -189.73 2613.6
1150.72 -186.24 2565.6
1170.61 -188.37 2595.0
1168.37 -186.94 2575.2
1129.58 -179.71 2475.5
1130.73 -178.87 2464.1
1136.84 -178.83 2463.4
1135.80 -177.67 2447.5
1165.49 -181.30 2497.5
1210.23 -187.22 2579.0
1225.50 -188.54 2597.2
1235.28 -189.00 2603.6
1234.34 -187.83 2587.5
1183.27 -179.09 2467.1
1165.06 -175.39 2416.0
1170.14 -175.21 2413.6
1261.93 -186.95 2575.4
1225.99 -178.79 2462.9
1230.66 -178.54 2459.5
1242.48 -179.33 2470.3
1185.46 -170.22 2344.9
1205.86 -170.53 2349.1
1232.18 -173.37 2388.3
1240.28 -173.64 2392.0
1263.15 -175.96 2424.0
1256.52 -174.17 2399.3
1227.47 -169.31 2332.3
1263.93 -173.48 2389.8
1314.67 -179.56 2473.6
1290.05 -175.35 2415.5
1271.79 -172.03 2369.8
1268.04 -170.70 2351.4
1293.20 -173.25 2386.6
1307.05 -174.27 2400.7
1292.45 -169.90 2340.5
1261.40 -164.28 2263.0
1346.68 -173.76 2393.7
1324.38 -170.10 2343.3
1293.01 -165.32 2277.3
1305.38 -166.14 2288.7
1353.27 -169.16 2330.2
1370.86 -170.60 2350.0
1430.40 -177.22 2441.3
1439.30 -176.76 2434.9
1461.81 -178.74 2462.2
1359.18 -165.47 2279.4
1414.01 -169.92 2340.8
1130.02 -198.61 2641.6
1133.44 -198.01 2633.6
1105.90 -192.04 2554.3
1115.45 -192.55 2561.0
1162.27 -199.44 2652.7
1180.75 -197.93 2632.6
1167.15 -194.52 2587.3
1133.56 -187.85 2498.5
1120.29 -184.59 2455.2
1146.78 -187.89 2499.0
1144.60 -186.48 2480.3
1133.52 -183.64 2442.5
1156.87 -186.38 2479.0
1194.78 -191.43 2546.1
1212.53 -193.21 2569.7
1223.97 -193.96 2579.8
1241.02 -195.60 2601.5
1208.55 -189.45 2519.7
1168.78 -182.23 2423.7
1222.22 -187.54 2494.3
1262.29 -191.66 2549.1
1233.81 -186.36 2478.6
1269.32 -190.73 2536.8
1237.05 -183.97 2446.9
1190.86 -175.30 2331.6
1230.74 -180.26 2397.5
1231.54 -179.47 2387.0
1202.89 -174.42 2319.9
1205.87 -173.12 2302.6
1208.23 -172.60 2295.7
1252.60 -173.81 2311.7
1324.51 -182.91 2432.8
1259.46 -171.48 2280.7
1247.13 -168.22 2237.4
1318.35 -177.00 2354.2
1300.98 -173.86 2312.5
1335.48 -177.66 2362.9
1353.92 -179.29 2384.6
1282.45 -169.05 2248.5
1304.71 -171.21 2277.1
1332.05 -174.01 2314.4
1355.53 -173.94 2313.5
1384.80 -176.91 2353.0
1404.56 -178.65 2376.1
1429.00 -180.96 2406.9
1393.74 -175.73 2337.3
1422.82 -178.62 2375.8
1468.47 -181.99 2420.5
1098.66 -200.97 2583.9
1087.46 -197.72 2542.1
1123.63 -200.65 2579.8
1144.06 -203.09 2611.1
1138.08 -200.84 2582.2
1155.81 -202.77 2607.1
1159.83 -202.30 2600.9
1160.14 -201.18 2586.6
1163.26 -200.56 2578.7
1138.73 -195.21 2509.9
1137.50 -193.89 2492.9
1159.07 -196.45 2525.8
1150.68 -193.94 2493.5
1123.68 -188.33 2421.3
1129.68 -188.28 2420.8
1161.53 -192.52 2475.2
1175.73 -193.80 2491.7
1173.31 -192.35 2473.0
1175.97 -191.73 2465.2
1174.70 -190.49 2449.2
1164.70 -187.85 2415.3
1200.24 -192.55 2475.7
1248.70 -199.26 2561.9
1246.61 -197.87 2544.1
1237.82 -195.44 2512.9
1238.63 -194.55 2501.3
1250.95 -195.46 2513.1
1268.22 -197.13 2534.6
1269.44 -196.31 2523.9
1245.86 -191.67 2464.3
1207.56 -184.83 2376.4
1187.95 -180.91 2325.9
1191.82 -180.58 2321.7
1225.40 -184.73 2375.1
1232.10 -184.81 2376.2
1208.83 -180.42 2319.7
1224.20 -181.81 2337.6
1231.74 -182.03 2340.4
1225.77 -180.26 2317.6
1217.82 -178.22 2291.4
1217.75 -177.34 2280.1
1265.75 -183.44 2358.5
1291.39 -185.37 2383.3
1283.76 -183.39 2357.9
1305.19 -184.70 2374.7
1264.58 -178.11 2290.0
1297.20 -181.85 2338.1
1281.70 -177.19 2278.2
1236.12 -170.11 2187.1
1332.04 -182.47 2346.1
1349.49 -184.02 2366.0
1267.81 -172.10 2212.7
1343.73 -178.37 2293.4
1448.73 -188.96 2429.5
1467.26 -189.73 2439.4
1465.72 -188.72 2426.4
1506.05 -191.45 2461.5
1087.12 -209.32 2604.5
1102.53 -210.98 2625.1
1088.12 -206.94 2574.9
1089.62 -204.72 2547.2
1117.28 -208.65 2596.1
1140.39 -211.69 2633.9
1134.19 -209.29 2604.0
1115.05 -204.54 2544.9
1125.51 -202.85 2524.0
1161.17 -208.07 2588.9
1156.91 -206.12 2564.6
1125.35 -199.35 2480.4
1122.82 -197.77 2460.7
1140.99 -199.83 2486.4
1157.18 -201.53 2507.5
1153.72 -199.81 2486.1
1132.03 -194.96 2425.8
1136.34 -194.62 2421.6
1136.38 -193.56 2408.3
1149.58 -193.68 2409.8
1177.10 -197.24 2454.2
1178.37 -196.39 2443.6
1225.71 -203.19 2528.2
1234.08 -203.49 2531.9
1190.66 -195.29 2429.9
1234.97 -201.50 2507.1
1262.75 -203.88 2536.8
1239.45 -199.08 2477.1
1262.06 -201.67 2509.3
1262.75 -200.75 2497.8
1189.74 -188.17 2341.3
1242.46 -192.58 2396.2
1263.03 -194.80 2423.7
1264.27 -194.02 2414.1
1267.32 -193.53 2408.0
1260.55 -191.55 2383.4
1246.65 -188.52 2345.6
1226.48 -184.57 2296.5
1251.87 -187.48 2332.7
1243.49 -183.56 2284.0
1238.00 -181.89 2263.1
1250.21 -182.81 2274.6
1258.11 -183.11 2278.3
1307.16 -189.35 2356.0
1245.31 -177.90 2213.5
1288.49 -182.39 2269.4
1308.26 -184.35 2293.7
1268.95 -177.20 2204.7
1294.71 -179.98 2239.4
1303.40 -179.58 2234.4
1335.96 -183.25 2280.1
1377.30 -188.09 2340.3
1376.78 -184.76 2298.9
1489.23 -198.14 2465.3
1094.99 -217.64 2623.3
1109.20 -216.43 2608.7
1113.35 -215.92 2602.6
1129.70 -217.77 2624.9
1145.34 -219.47 2645.4
1131.60 -215.54 2598.1
1151.27 -217.99 2627.6
1158.99 -218.16 2629.7
1137.22 -212.81 2565.2
1156.18 -215.10 2592.8
1150.77 -212.86 2565.7
1109.15 -203.98 2458.7
1139.96 -206.09 2484.2
1183.30 -212.73 2564.1
1203.89 -215.22 2594.2
1204.36 -214.11 2580.8
1189.95 -210.38 2535.8
1171.08 -205.90 2481.9
1160.52 -202.93 2446.1
1195.75 -207.96 2506.6
1252.04 -214.25 2582.5
1199.79 -204.22 2461.6
1163.26 -196.95 2374.0
1209.64 -203.73 2455.7
1264.77 -211.90 2554.1
1240.31 -206.72 2491.7
1236.12 -204.95 2470.4
1277.09 -210.65 2539.1
1224.33 -199.89 2409.4
1197.10 -192.50 2320.3
1229.40 -196.70 2371.0
1246.23 -198.40 2391.5
1243.24 -196.95 2373.9
1262.46 -199.01 2398.8
1272.93 -199.68 2406.8
1277.34 -199.39 2403.4
1272.33 -197.64 2382.3
1213.47 -187.59 2261.1
1210.92 -186.29 2245.5
1251.06 -191.55 2308.9
1244.24 -189.60 2285.3
1249.77 -189.54 2284.6
1274.99 -192.45 2319.7
1238.62 -186.08 2243.0
1244.53 -186.10 2243.1
1303.36 -193.99 2338.3
1275.34 -188.94 2277.4
1246.43 -182.13 2195.3
1299.10 -187.26 2257.1
1311.98 -188.27 2269.3
1328.32 -188.92 2277.1
1386.68 -196.34 2366.7
1354.32 -190.92 2301.2
1405.96 -197.33 2378.5
1460.04 -203.14 2448.5
1457.03 -201.84 2432.9
1485.37 -202.26 2438.0
1101.97 -221.74 2591.7
1097.46 -219.49 2565.5
1110.97 -220.85 2581.4
1122.55 -221.82 2592.7
1111.09 -218.25 2551.0
1130.66 -220.78 2580.5
1130.97 -215.73 2521.6
1133.13 -214.90 2511.9
1157.08 -218.19 2550.3
1124.90 -210.92 2465.3
1132.68 -211.18 2468.3
1158.02 -214.69 2509.4
1160.45 -213.94 2500.6
1178.43 -216.05 2525.2
1181.26 -215.37 2517.3
1164.49 -211.14 2467.9
1156.04 -208.47 2436.6
1214.00 -217.73 2544.9
1244.86 -219.68 2567.7
1228.41 -215.62 2520.3
1224.91 -213.87 2499.8
1227.05 -213.12 2491.0
1240.66 -214.35 2505.4
1221.88 -210.01 2454.7
1222.52 -209.03 2443.2
1278.77 -215.30 2516.5
1251.30 -209.61 2450.0
1210.80 -201.80 2358.7
1212.21 -200.01 2337.8
1236.80 -203.06 2373.4
1225.45 -200.20 2340.0
1239.96 -201.57 2356.0
1255.00 -203.01 2372.9
1265.42 -203.70 2380.9
1274.56 -203.19 2375.0
1216.39 -192.99 2255.7
1205.72 -190.38 2225.2
1261.68 -198.26 2317.4
1286.78 -200.30 2341.2
1257.59 -192.13 2245.7
1266.42 -192.59 2251.0
1270.85 -192.38 2248.6
1273.30 -191.87 2242.6
1248.55 -187.28 2189.0
1289.02 -192.48 2249.7
1337.69 -198.85 2324.2
1298.29 -192.12 2245.6
1278.62 -188.37 2201.7
1392.43 -204.22 2387.0
1415.39 -203.96 2384.0
1429.16 -205.05 2396.7
1076.94 -228.85 2596.2
1079.23 -227.91 2585.5
1102.15 -228.49 2592.2
1100.78 -226.83 2573.3
1118.64 -229.12 2599.2
1133.04 -230.68 2616.9
1125.21 -227.72 2583.4
1120.44 -225.41 2557.2
1160.58 -232.12 2633.2
1166.29 -231.89 2630.7
1097.70 -216.99 2461.6
1139.07 -222.58 2525.0
1175.81 -228.44 2591.6
1154.90 -223.11 2531.0
1129.15 -216.90 2460.6
1121.89 -214.29 2431.1
1126.66 -214.00 2427.8
1145.75 -216.42 2455.2
1139.12 -213.98 2427.5
1140.45 -211.89 2403.8
1224.94 -223.91 2540.2
1217.24 -221.32 2510.7
1232.12 -222.83 2527.9
1245.31 -224.02 2541.4
1241.65 -219.88 2494.4
1212.49 -213.60 2423.2
1241.70 -217.62 2468.8
1276.49 -222.57 2524.9
1242.87 -215.60 2445.9
1201.65 -207.39 2352.8
1237.69 -210.41 2387.0
1257.77 -212.76 2413.6
1246.97 -209.89 2381.1
1243.21 -206.19 2339.1
1256.89 -206.45 2342.0
1295.68 -211.79 2402.7
1242.25 -196.45 2228.6
1304.14 -205.28 2328.8
1291.63 -202.37 2295.8
1276.52 -199.09 2258.6
1322.32 -205.29 2328.9
1334.79 -206.29 2340.2
1367.53 -207.57 2354.8
1348.49 -203.77 2311.7
1341.74 -200.97 2279.9
1452.68 -216.63 2457.5
1451.30 -215.48 2444.5
1440.16 -212.89 2415.2
1441.19 -212.12 2406.4
1477.13 -216.48 2455.8
1095.53 -236.69 2608.4
1085.37 -233.05 2568.4
1108.56 -236.58 2607.3
1095.08 -232.29 2559.9
1108.97 -233.82 2576.8
1122.12 -235.18 2591.7
1120.22 -233.38 2571.9
1121.43 -232.25 2559.5
1124.18 -231.45 2550.7
1093.77 -223.87 2467.1
1110.99 -223.47 2462.8
1137.70 -227.54 2507.6
1153.85 -229.46 2528.7
1161.77 -229.73 2531.7
1143.81 -224.91 2478.6
1139.88 -222.88 2456.2
1172.93 -228.07 2513.4
1180.82 -228.34 2516.4
1135.13 -218.29 2405.7
1138.53 -217.75 2399.7
1205.83 -229.37 2527.7
1211.60 -229.22 2526.1
1192.68 -224.43 2473.3
1204.40 -225.42 2484.3
1193.46 -222.19 2448.6
1180.17 -218.55 2408.5
1184.32 -218.16 2404.3
1175.19 -215.35 2373.2
1189.90 -216.91 2390.4
1205.13 -218.55 2408.5
1222.21 -220.50 2430.0
1240.73 -222.70 2454.2
1189.81 -212.47 2341.5
1261.37 -221.85 2444.9
1232.21 -214.56 2364.6
1232.18 -211.40 2329.8
1261.23 -215.33 2373.0
1210.62 -205.69 2266.8
1298.88 -215.45 2374.4
1216.23 -200.79 2212.8
1239.43 -203.66 2244.4
1271.76 -206.07 2271.0
1273.80 -205.45 2264.2
1280.72 -203.75 2245.4
1297.35 -203.62 2244.0
1301.21 -203.31 2240.6
1300.03 -202.23 2228.6
1430.51 -220.56 2430.7
1457.87 -219.94 2423.8
1458.88 -219.14 2415.1
1083.99 -239.41 2565.1
1094.86 -238.88 2559.4
1139.49 -244.18 2616.2
1130.40 -240.80 2580.0
1121.55 -237.50 2544.7
1122.63 -236.34 2532.2
1114.32 -233.23 2498.9
1153.95 -237.38 2543.4
1150.26 -232.64 2492.5
1145.95 -230.47 2469.3
1179.02 -235.80 2526.5
1171.70 -233.05 2496.9
1166.98 -228.32 2446.3
1184.64 -230.53 2469.9
1177.30 -227.86 2441.4
1192.00 -229.48 2458.7
1184.94 -226.90 2431.1
1195.00 -224.06 2400.7
1228.09 -229.07 2454.4
1264.07 -234.57 2513.3
1262.08 -233.00 2496.4
1190.49 -218.66 2342.8
1211.51 -220.27 2360.1
1266.61 -229.14 2455.0
1234.02 -222.12 2379.9
1202.50 -215.37 2307.6
1227.29 -214.48 2298.0
1267.75 -220.48 2362.3
1278.18 -221.22 2370.3
1276.02 -216.68 2321.6
1270.52 -214.74 2300.7
1254.03 -208.04 2229.0
1262.83 -208.54 2234.4
1265.75 -208.07 2229.3
1312.09 -214.71 2300.4
1292.81 -210.59 2256.4
1316.50 -211.58 2266.9
1341.99 -214.72 2300.6
1365.09 -217.45 2329.8
1074.76 -248.54 2590.9
1083.94 -249.11 2596.9
1136.48 -250.30 2609.3
1110.98 -243.23 2535.6
1118.91 -243.53 2538.7
1134.51 -245.48 2559.0
1113.68 -239.57 2497.5
1135.19 -240.01 2502.1
1161.74 -237.48 2475.7
1141.06 -231.97 2418.3
1171.82 -236.92 2469.9
1179.62 -237.21 2472.8
1148.22 -229.64 2394.0
1158.89 -230.53 2403.2
1194.81 -236.41 2464.5
1198.23 -235.82 2458.4
1175.77 -230.18 2399.5
1166.26 -227.11 2367.6
1190.65 -230.65 2404.5
1226.29 -236.32 2463.5
1249.69 -239.58 2497.5
1264.98 -240.02 2502.2
1208.76 -228.18 2378.8
1185.57 -222.67 2321.3
1200.81 -224.39 2339.2
1206.98 -224.41 2339.4
1212.23 -224.26 2337.9
1218.39 -224.28 2338.1
1216.23 -222.77 2322.4
1206.05 -214.54 2236.5
1246.98 -217.63 2268.8
1211.52 -210.45 2193.9
1227.48 -212.23 2212.4
1264.86 -217.67 2269.2
1245.49 -213.35 2224.1
1257.21 -214.36 2234.7
1287.60 -218.54 2278.2
1311.27 -221.54 2309.5
1293.00 -215.50 2246.5
1301.87 -216.01 2251.8
1418.99 -229.27 2390.1
1461.86 -235.17 2451.6
1136.24 -257.01 2608.7
1105.15 -248.50 2522.3
1107.42 -247.54 2512.6
1129.83 -251.07 2548.5
1119.54 -247.34 2510.6
1093.58 -240.21 2438.2
1100.48 -240.34 2439.5
1125.08 -244.30 2479.8
1163.08 -251.12 2549.0
1154.50 -238.43 2420.2
1146.26 -235.45 2389.9
1181.15 -241.31 2449.4
1192.39 -242.30 2459.5
1172.24 -236.94 2405.1
1204.90 -242.25 2459.0
1208.88 -238.02 2416.0
1173.16 -229.79 2332.5
1222.48 -238.23 2418.1
1234.70 -239.38 2429.8
1190.77 -229.69 2331.5
1180.55 -226.57 2299.8
1226.38 -234.18 2377.1
1272.06 -241.69 2453.3
1244.85 -235.35 2388.8
1212.29 -228.05 2314.8
1207.72 -226.08 2294.8
1197.01 -222.97 2263.3
1198.79 -222.22 2255.6
1201.48 -221.63 2249.7
1216.86 -223.38 2267.4
1261.62 -230.49 2339.5
1282.93 -233.26 2367.7
1254.81 -227.06 2304.7
1232.64 -221.99 2253.3
1215.55 -217.88 2211.6
1237.40 -219.72 2230.3
1292.27 -228.40 2318.4
1301.24 -228.92 2323.6
1301.43 -227.90 2313.3
1324.13 -230.81 2342.8
1388.90 -236.67 2402.3
1329.32 -223.51 2268.8
1361.25 -225.88 2292.8
1436.07 -236.24 2397.9
1461.20 -239.33 2429.3
1463.77 -238.73 2423.2
1451.83 -235.77 2393.1
1123.30 -259.22 2563.7
1103.57 -253.17 2503.9
1106.59 -252.38 2496.1
1116.05 -253.06 2502.8
1108.02 -249.78 2470.4
1125.23 -252.21 2494.3
1158.58 -258.20 2553.6
1123.97 -249.06 2463.3
1128.27 -247.21 2444.9
1182.09 -256.12 2533.0
1187.91 -255.96 2531.4
1182.13 -250.56 2478.1
1190.81 -251.04 2482.8
1205.13 -252.69 2499.1
1196.92 -249.63 2468.8
1180.29 -244.85 2421.6
1215.60 -250.84 2480.8
1226.90 -247.92 2452.0
1163.97 -233.99 2314.2
1184.94 -236.99 2343.8
1239.41 -246.62 2439.1
1239.00 -245.28 2425.9
1214.88 -239.29 2366.7
1244.40 -243.88 2412.0
1274.56 -248.54 2458.1
1234.48 -239.52 2368.9
1211.12 -233.83 2312.6
1213.51 -233.14 2305.8
1193.51 -228.17 2256.6
1182.66 -224.99 2225.2
1220.48 -231.06 2285.2
1272.19 -239.69 2370.5
1292.57 -242.36 2396.9
1277.93 -238.47 2358.4
1265.99 -235.11 2325.3
1266.34 -234.06 2314.9
1291.59 -237.60 2349.9
1285.00 -234.18 2316.1
1257.10 -228.03 2255.3
1236.74 -223.30 2208.5
1282.21 -229.39 2268.7
1356.46 -239.38 2367.5
1317.36 -231.43 2288.8
1372.68 -240.06 2374.3
1404.11 -242.30 2396.4
1417.43 -240.35 2377.1
1081.32 -268.65 2590.6
1110.66 -266.03 2565.3
1082.87 -257.83 2486.2
1087.09 -257.30 2481.1
1091.28 -256.77 2476.0
1088.19 -254.55 2454.6
1093.10 -254.21 2451.3
1095.55 -253.31 2442.6
1121.30 -257.77 2485.6
1113.08 -254.42 2453.3
1169.33 -262.77 2533.9
1182.67 -262.82 2534.3
1158.47 -256.01 2468.7
1187.93 -261.08 2517.6
1191.74 -259.07 2498.2
1186.68 -256.58 2474.2
1187.58 -255.39 2462.7
1184.07 -253.28 2442.3
1170.88 -249.12 2402.3
1179.86 -249.71 2407.9
1216.57 -256.12 2469.7
1197.43 -250.77 2418.1
1154.54 -240.53 2319.4
1194.56 -247.58 2387.4
1220.55 -251.66 2426.7
1243.54 -255.09 2459.7
1222.89 -248.30 2394.3
1210.58 -242.12 2334.7
1207.53 -240.30 2317.2
1216.88 -240.97 2323.6
1235.06 -243.36 2346.7
1228.19 -240.82 2322.2
1185.69 -231.35 2230.9
1195.83 -232.20 2239.1
1247.44 -241.05 2324.4
1271.51 -244.52 2357.9
1284.31 -245.80 2370.2
1296.68 -246.99 2381.7
1283.29 -243.28 2345.9
1302.85 -245.82 2370.4
1322.91 -247.27 2384.4
1253.93 -233.29 2249.6
1327.04 -243.49 2348.0
1352.31 -247.00 2381.8
1275.07 -231.83 2235.5
1297.63 -232.76 2244.5
1335.51 -238.48 2299.7
1384.64 -246.16 2373.7
1359.97 -239.64 2310.8
1394.79 -243.63 2349.3
1106.99 -275.07 2587.8
1111.59 -272.91 2567.4
1122.37 -273.91 2576.9
1136.80 -274.17 2579.3
1105.29 -265.01 2493.1
1115.56 -265.92 2501.7
1124.23 -266.44 2506.5
1139.05 -268.40 2525.0
1119.00 -262.17 2466.4
1149.88 -264.86 2491.7
1139.71 -261.05 2455.9
1142.00 -260.12 2447.1
1151.02 -260.73 2452.8
1167.70 -263.05 2474.7
1173.81 -262.98 2474.1
1151.19 -256.51 2413.2
1136.06 -251.77 2368.6
1158.35 -255.33 2402.1
1177.30 -258.12 2428.3
1166.70 -254.44 2393.7
1177.41 -255.42 2402.9
1175.84 -253.73 2387.0
1203.73 -254.40 2393.3
1195.91 -248.90 2341.5
1251.57 -256.57 2413.7
1264.47 -255.39 2402.6
1288.24 -257.65 2423.9
1242.95 -247.38 2327.3
1242.95 -246.19 2316.0
1252.81 -246.95 2323.2
1248.47 -244.91 2304.1
1290.23 -251.90 2369.8
1266.13 -244.86 2303.6
1250.98 -240.80 2265.4
1290.27 -247.20 2325.6
1306.03 -249.06 2343.1
1297.54 -246.29 2317.0
1346.62 -252.11 2371.7
1317.24 -245.49 2309.4
1327.21 -246.22 2316.4
1323.29 -244.39 2299.1
1330.76 -244.67 2301.8
1035.30 -266.76 2449.9
1049.65 -268.81 2468.7
1054.18 -266.72 2449.5
1082.08 -272.14 2499.2
1134.13 -280.20 2573.2
1113.91 -273.59 2512.6
1132.73 -276.60 2540.2
1139.04 -276.53 2539.6
1153.93 -278.54 2558.0
1140.16 -272.08 2498.7
1102.36 -261.58 2402.2
1106.35 -259.59 2384.0
1135.85 -265.03 2434.0
1119.05 -259.67 2384.7
1109.26 -255.98 2350.9
1109.56 -254.65 2338.6
1158.52 -261.60 2402.5
1190.93 -267.48 2456.5
1193.04 -266.53 2447.7
1193.35 -265.19 2435.4
1179.53 -260.74 2394.5
1160.24 -255.13 2343.0
1170.89 -256.13 2352.2
1178.45 -256.45 2355.2
1202.12 -260.25 2390.1
1198.09 -258.05 2369.9
1154.29 -247.35 2271.6
1163.05 -247.96 2277.2
1185.01 -251.37 2308.5
1234.48 -260.54 2392.7
1198.34 -249.16 2288.2
1220.16 -252.45 2318.4
1270.45 -257.77 2367.3
1244.51 -251.30 2307.8
1238.24 -248.83 2285.2
1280.43 -256.09 2351.8
1279.88 -254.76 2339.7
1219.35 -241.57 2218.5
1215.11 -239.60 2200.4
1255.71 -246.45 2263.3
1302.36 -254.42 2336.5
1332.77 -259.15 2379.9
1345.28 -260.38 2391.2
1319.14 -254.15 2334.0
1296.20 -248.59 2282.9
1315.48 -251.14 2306.4
1341.28 -254.90 2341.0
1348.34 -255.09 2342.7
1342.94 -252.93 2322.8
1384.64 -257.32 2363.2
1373.05 -254.04 2333.1
1042.80 -275.09 2467.6
1083.38 -282.34 2532.6
1069.27 -276.98 2484.5
1071.55 -275.91 2474.9
1078.94 -276.16 2477.2
1082.74 -275.49 2471.2
1097.75 -277.67 2490.7
1119.69 -281.56 2525.6
1120.30 -280.08 2512.3
1108.64 -275.56 2471.8
1123.80 -277.72 2491.2
1142.73 -280.79 2518.7
1139.48 -278.40 2497.2
1122.02 -272.58 2445.1
1121.00 -270.80 2429.1
1150.49 -276.38 2479.1
1179.35 -281.73 2527.2
1161.48 -275.93 2475.1
1108.58 -261.92 2349.4
1108.00 -257.54 2310.1
1142.26 -264.07 2368.7
1153.76 -265.30 2379.8
1162.25 -265.83 2384.5
1169.87 -266.16 2387.5
1160.36 -262.61 2355.6
1144.08 -257.57 2310.4
1160.43 -259.89 2331.2
1171.95 -261.11 2342.2
1188.44 -263.42 2362.9
1178.97 -259.98 2332.0
1160.80 -254.66 2284.4
1194.93 -260.82 2339.6
1205.65 -261.83 2348.7
1238.31 -267.57 2400.2
1245.98 -267.88 2403.0
1187.44 -251.53 2256.2
1264.61 -266.56 2391.1
1300.08 -267.48 2399.3
1291.10 -264.37 2371.4
1245.69 -253.86 2277.2
1251.20 -250.24 2244.7
1270.72 -252.97 2269.1
1271.30 -251.92 2259.7
1261.56 -248.84 2232.1
1261.03 -247.60 2221.0
1282.16 -250.60 2247.9
1311.31 -255.14 2288.6
1345.57 -260.63 2337.9
1367.07 -263.61 2364.6
1326.18 -254.58 2283.6
1362.66 -258.13 2315.4
1416.77 -267.20 2396.8
1349.22 -253.35 2272.5
1405.58 -262.78 2357.2
1034.40 -280.95 2462.9
1068.64 -284.97 2498.1
1096.18 -288.81 2531.8
1090.99 -285.73 2504.8
1083.28 -282.04 2472.4
1091.87 -282.60 2477.3
1113.37 -286.48 2511.4
1110.72 -284.14 2490.8
1112.87 -279.81 2452.9
1133.42 -283.36 2484.0
1127.56 -280.30 2457.1
1136.57 -280.95 2462.9
1174.08 -288.60 2530.0
1138.03 -275.13 2411.8
1124.39 -270.34 2369.9
1149.96 -274.99 2410.6
1163.23 -276.66 2425.3
1167.92 -276.28 2422.0
1153.05 -271.31 2378.3
1135.39 -265.73 2329.4
1133.27 -263.83 2312.8
1133.22 -261.06 2288.5
1180.55 -270.54 2371.6
1179.70 -268.95 2357.6
1181.46 -267.96 2349.0
1188.57 -268.19 2351.0
1188.47 -266.80 2338.8
1237.19 -276.33 2422.3
1243.50 -274.94 2410.2
1203.10 -264.68 2320.3
1178.37 -255.41 2239.0
1198.74 -258.55 2266.5
1257.97 -270.00 2366.9
1259.06 -267.63 2346.1
1210.90 -256.15 2245.5
1241.96 -261.47 2292.1
1263.21 -264.67 2320.2
1288.87 -268.77 2356.1
1286.39 -266.99 2340.5
1217.46 -251.49 2204.7
1220.88 -251.02 2200.5
1270.31 -259.97 2279.0
1287.46 -262.26 2299.0
1309.57 -265.53 2327.7
1321.99 -266.82 2339.0
1324.14 -266.04 2332.1
1345.48 -269.10 2359.0
1349.61 -268.70 2355.5
1364.14 -270.37 2370.1
1382.21 -272.72 2390.8
1320.90 -259.46 2274.5
1342.80 -261.43 2291.7
1384.07 -268.28 2351.8
1370.38 -264.46 2318.3
1035.59 -289.45 2481.0
1044.13 -284.76 2440.8
1094.29 -293.11 2512.4
1062.26 -282.85 2424.4
1092.00 -289.06 2477.6
1109.32 -288.55 2473.3
1111.68 -284.24 2436.3
1145.95 -291.34 2497.2
1125.46 -284.53 2438.8
1134.45 -285.20 2444.5
1152.18 -284.88 2441.8
1132.21 -278.41 2386.4
1170.24 -286.20 2453.1
1192.63 -290.10 2486.6
1202.63 -290.96 2493.9
1193.13 -287.12 2461.0
1145.57 -274.21 2350.3
1127.29 -266.99 2288.5
1180.18 -278.05 2383.3
1191.46 -276.37 2368.9
1161.81 -268.11 2298.1
1158.90 -266.07 2280.6
