ply
format ascii 1.0
element vertex 2136
property float x
property float y
property float z
end_header
-887.69 1043.20 2499.2
-879.98 1041.74 2495.7
-889.18 1060.43 2540.5
-898.78 1079.88 2587.1
-885.72 1072.19 2568.7
-873.64 1065.58 2552.9
-881.38 1083.22 2595.1
-859.50 1064.46 2550.2
-834.01 1040.89 2493.7
-843.91 1061.48 2543.0
-841.65 1066.98 2556.2
-826.35 1055.89 2529.6
-832.65 1072.45 2569.3
-841.03 1091.99 2616.1
-840.16 1099.72 2634.6
-835.27 1102.28 2640.8
-1057.17 1077.37 2597.2
-1033.07 1059.56 2554.3
-1035.60 1069.01 2577.1
-1029.38 1069.48 2578.2
-1032.43 1079.67 2602.8
-982.74 1048.26 2527.1
-940.38 1016.63 2450.8
-933.73 1016.31 2450.0
-924.44 1013.09 2442.3
-929.62 1025.79 2472.9
-923.24 1025.82 2473.0
-919.45 1028.75 2480.0
-912.72 1028.42 2479.2
-916.23 1039.69 2506.4
-923.11 1054.98 2543.2
-909.91 1047.38 2524.9
-899.30 1042.67 2513.6
-901.52 1052.88 2538.2
-908.58 1068.92 2576.9
-903.77 1071.13 2582.2
-899.84 1074.43 2590.2
-893.44 1074.82 2591.1
-887.94 1076.29 2594.6
-876.28 1078.49 2599.9
-832.94 1033.10 2490.5
-825.86 1032.33 2488.6
-836.84 1054.28 2541.6
-834.84 1060.12 2555.6
-823.89 1054.58 2542.3
-813.56 1049.76 2530.7
-828.44 1077.64 2597.9
-842.14 1104.45 2662.5
-821.64 1104.72 2663.2
-1079.86 1086.69 2636.2
-1030.86 1057.47 2565.3
-1061.03 1095.48 2657.5
-999.21 1052.15 2552.4
-973.05 1031.44 2502.1
-965.62 1030.43 2499.7
-990.29 1063.89 2580.9
-947.99 1032.40 2504.5
-915.84 1011.24 2453.1
-925.06 1028.57 2495.2
-910.89 1019.94 2474.3
-908.02 1023.94 2483.9
-928.64 1054.67 2558.5
-928.99 1062.66 2577.9
-905.07 1042.80 2529.7
-894.47 1038.11 2518.3
-888.26 1038.48 2519.2
-871.27 1026.16 2489.3
-859.91 1020.35 2475.2
-844.68 1009.80 2449.7
-844.03 1016.68 2466.3
-856.49 1039.55 2521.8
-870.17 1064.28 2581.8
-860.81 1061.00 2573.8
-828.31 1028.92 2496.0
-814.82 1020.13 2474.7
-831.50 1049.27 2545.4
-840.08 1068.58 2592.2
-820.23 1051.75 2551.4
-824.89 1066.33 2586.8
-1072.56 1072.56 2618.4
-1069.78 1083.49 2645.1
-1044.59 1064.80 2599.4
-1031.03 1057.81 2582.4
-1051.67 1086.04 2651.3
-1004.49 1044.14 2549.0
-976.51 1021.78 2494.4
-985.35 1037.90 2533.8
-974.82 1033.70 2523.5
-996.45 1063.77 2596.9
-958.41 1044.33 2549.5
-967.20 1061.23 2590.7
-952.10 1051.97 2568.1
-912.93 1015.79 2479.8
-906.20 1015.46 2479.0
-922.08 1040.63 2540.4
-914.88 1039.94 2538.7
-884.75 1012.98 2472.9
-854.50 1007.55 2459.7
-834.11 1006.03 2455.9
-846.77 1029.15 2512.4
-853.84 1045.79 2553.0
-836.93 1033.09 2522.0
-819.58 1019.64 2489.2
-833.93 1045.72 2552.8
-856.87 1083.08 2644.1
-852.28 1085.97 2651.1
-835.77 1073.60 2620.9
-837.38 1084.48 2647.5
-1087.96 1081.07 2656.0
-1077.70 1077.70 2647.7
-1079.05 1085.97 2668.0
-1031.47 1044.78 2566.8
-1005.84 1025.44 2519.3
-1013.20 1039.69 2554.3
-992.27 1024.91 2518.0
-988.21 1027.47 2524.3
-976.65 1022.23 2511.4
-939.33 1003.23 2464.7
-923.06 992.60 2438.6
-930.40 1014.39 2492.1
-934.69 1026.20 2521.1
-914.31 1010.90 2483.5
-924.89 1029.85 2530.1
-917.09 1028.45 2526.7
-886.82 1001.66 2460.9
-893.34 1016.34 2496.9
-890.63 1020.65 2507.5
-857.44 989.83 2431.8
-875.17 1017.79 2500.5
-888.29 1040.76 2556.9
-852.16 1005.93 2471.3
-841.20 1000.52 2458.0
-855.21 1024.94 2518.1
-853.43 1030.68 2532.2
-843.60 1026.70 2522.4
-823.52 1010.10 2481.6
-820.72 1022.64 2512.4
-847.52 1064.48 2615.2
-850.14 1076.39 2644.4
-842.14 1074.92 2640.8
-1105.14 1077.51 2664.2
-1109.83 1088.89 2692.3
-1086.33 1072.58 2652.0
-1073.61 1066.77 2637.6
-1074.64 1074.64 2657.1
-1069.64 1076.54 2661.8
-1063.01 1083.86 2679.9
-1020.17 1047.01 2588.8
-1004.35 1037.60 2565.5
-980.15 1019.35 2520.4
-955.14 1000.01 2472.6
-952.47 1003.95 2482.3
-932.09 989.16 2445.7
-917.41 993.86 2457.4
-942.27 1027.93 2541.6
-942.51 1035.43 2560.1
-923.08 1021.28 2525.1
-886.90 988.26 2443.5
-887.86 996.45 2463.7
-923.66 1044.14 2581.7
-922.63 1050.58 2597.6
-891.07 1022.11 2527.2
-865.08 999.65 2471.7
-845.85 992.13 2453.1
-884.53 1045.35 2584.7
-873.91 1056.82 2613.0
-819.50 998.76 2469.5
-815.69 1001.95 2477.3
-853.28 1056.44 2612.1
-852.83 1064.33 2631.6
-829.42 1043.47 2580.0
-822.71 1043.44 2579.9
-1091.45 1070.73 2664.5
-1056.08 1042.63 2594.6
-1070.92 1064.05 2647.9
-1079.57 1079.57 2686.5
-1069.28 1076.22 2678.1
-1031.04 1044.52 2599.3
-1016.86 1036.93 2580.4
-969.18 1021.92 2543.0
-954.03 1012.84 2520.4
-967.97 1034.73 2574.9
-946.96 1019.29 2536.5
-915.38 992.19 2469.1
-931.31 1016.57 2529.7
-928.00 1020.14 2538.6
-907.09 1004.28 2499.1
-924.41 1030.82 2565.2
-906.79 1025.93 2553.0
-865.74 1008.94 2510.7
-888.88 1043.76 2597.4
-880.85 1058.38 2633.8
-839.00 1015.98 2528.3
-846.45 1033.07 2570.8
-851.08 1046.97 2605.4
-817.25 1013.38 2521.8
-825.82 1032.28 2568.8
-813.85 1033.99 2573.1
-1071.05 1050.59 2631.3
-1059.10 1045.52 2618.7
-1075.17 1068.23 2675.5
-1070.12 1070.12 2680.3
-1056.40 1063.30 2663.2
-962.94 1008.80 2526.7
-946.50 998.37 2500.5
-967.09 1027.12 2572.6
-953.28 1019.48 2553.4
-912.21 982.37 2460.5
-917.82 995.38 2493.1
-930.35 1016.13 2545.0
-925.07 1017.57 2548.7
-923.57 1023.23 2562.8
-915.38 1021.51 2558.5
-907.21 1019.78 2554.2
-873.53 989.15 2477.5
-887.49 1027.62 2573.8
-872.35 1025.51 2568.5
-854.04 1011.71 2534.0
-858.43 1024.79 2566.7
-853.53 1026.91 2572.0
-850.82 1056.66 2646.6
-808.37 1028.83 2576.8
-1091.25 1070.26 2698.1
-1077.76 1063.85 2682.0
-1075.13 1068.15 2692.8
-1062.07 1062.07 2677.5
-1004.36 1010.96 2548.7
-987.58 1007.33 2539.5
-1008.45 1035.52 2610.6
-982.29 1015.47 2560.0
-956.36 995.39 2509.4
-937.30 982.23 2476.2
-954.67 1007.34 2539.5
-960.27 1020.29 2572.1
-936.72 1002.22 2526.6
-924.70 996.33 2511.8
-919.51 997.77 2515.4
-914.62 999.55 2519.9
-913.51 1005.52 2534.9
-896.86 994.35 2506.8
-881.29 984.21 2481.2
-887.94 998.93 2518.3
-887.61 1005.95 2536.0
-873.97 997.89 2515.7
-892.17 1026.33 2587.4
-889.61 1039.01 2619.4
-870.88 1024.95 2583.9
-876.05 1039.04 2619.4
-863.66 1032.34 2602.5
-835.19 1030.52 2598.0
-806.79 1020.16 2571.8
-1103.97 1062.05 2695.1
-1087.59 1052.96 2672.0
-1055.47 1028.40 2609.7
-1018.72 999.00 2535.1
-1006.81 1000.23 2538.2
-970.01 989.54 2511.0
-951.79 977.52 2480.5
-965.13 997.96 2532.4
-960.37 1006.74 2554.7
-926.91 978.40 2482.8
-927.68 986.06 2502.2
-940.34 1006.56 2554.2
-919.92 991.69 2516.5
-898.39 975.39 2475.2
-922.15 1023.12 2596.3
-871.51 974.04 2471.7
-892.65 1005.06 2550.4
-900.51 1021.47 2592.1
-882.20 1008.23 2558.5
-866.47 997.75 2531.9
-875.87 1016.27 2578.9
-888.63 1039.02 2636.6
-871.73 1035.19 2626.9
-849.69 1016.96 2580.6
-839.50 1012.73 2569.9
-818.10 994.80 2524.4
-810.05 1001.04 2540.2
-835.05 1040.39 2640.1
-813.05 1021.36 2591.8
-1053.11 1019.36 2603.8
-1024.22 1010.83 2582.1
-1047.26 1040.37 2657.5
-1029.20 1029.20 2629.0
-1012.28 1019.03 2603.0
-996.15 1009.52 2578.7
-969.36 989.01 2526.3
-971.24 997.67 2548.4
-974.34 1007.71 2574.1
-942.30 981.29 2506.6
-913.84 971.76 2482.3
-892.61 955.92 2441.8
-897.47 996.45 2545.3
-886.24 991.27 2532.1
-896.30 1010.01 2580.0
-879.23 998.23 2549.9
-848.95 971.14 2480.7
-843.40 972.17 2483.3
-861.80 1001.01 2557.0
-867.35 1015.27 2593.4
-858.27 1012.49 2586.3
-843.34 1002.72 2561.3
-843.38 1010.72 2581.8
-831.76 1004.76 2566.6
-808.45 984.48 2514.8
-836.33 1026.72 2622.6
-1044.75 1004.57 2583.2
-1040.98 1007.40 2590.5
-1046.17 1025.65 2637.4
-994.98 981.89 2524.9
-1008.06 1001.38 2575.0
-1020.22 1020.22 2623.4
-976.01 995.93 2561.0
-939.84 965.59 2482.9
-935.43 967.68 2488.3
-926.72 965.33 2482.3
-880.02 956.55 2459.7
-888.11 972.38 2500.4
-868.06 971.71 2498.7
-882.69 995.51 2559.9
-882.44 1002.77 2578.6
-848.00 970.99 2496.8
-839.41 968.55 2490.6
-849.00 987.21 2538.5
-843.29 988.23 2541.2
-836.98 988.56 2542.0
-846.39 1007.60 2591.0
-848.62 1018.34 2618.6
-840.38 1016.59 2614.1
-828.17 1009.97 2597.1
-821.98 1010.63 2598.8
-1046.34 1005.84 2603.8
-1040.72 1013.52 2623.7
-983.67 964.26 2496.2
-990.31 977.20 2529.7
-998.50 991.84 2567.6
-999.05 999.05 2586.2
-995.13 1001.86 2593.5
-957.68 970.71 2512.9
-926.92 945.96 2448.8
-928.88 954.50 2470.9
-949.80 982.78 2544.1
-933.78 972.96 2518.7
-869.36 966.68 2502.4
-890.43 997.55 2582.3
-891.96 1006.83 2606.4
-858.94 976.96 2529.1
-851.48 975.92 2526.4
-862.78 996.55 2579.7
-861.12 1002.39 2594.9
-859.96 1008.93 2611.8
-859.60 1016.51 2631.4
-852.48 1016.16 2630.5
-839.33 1008.55 2610.8
-821.43 995.06 2575.9
-821.08 1019.51 2639.2
-1060.83 1006.43 2622.9
-1033.09 986.44 2570.8
-1028.64 988.56 2576.4
-1024.50 991.02 2582.8
-1007.56 981.04 2556.8
-1006.52 986.52 2571.1
-1006.43 993.02 2588.0
-967.93 961.43 2505.7
-934.95 941.31 2453.2
-949.29 962.30 2507.9
-944.17 963.70 2511.6
-960.09 986.76 2571.7
-943.94 983.83 2564.0
-917.64 963.20 2510.3
-898.65 950.00 2475.9
-907.55 966.32 2518.4
-897.09 976.25 2544.3
-877.47 961.96 2507.1
-874.98 966.40 2518.6
-888.07 988.23 2575.5
-882.32 989.26 2578.2
-857.50 968.78 2524.8
-859.05 978.00 2548.8
-872.11 1000.56 2607.6
-873.64 1010.14 2632.6
-867.40 1010.83 2634.4
-861.74 1012.20 2638.0
-851.71 1008.43 2628.1
-834.83 996.41 2596.8
-832.64 1001.88 2611.1
-818.77 993.26 2588.6
-811.70 1001.10 2609.0
-1066.51 998.58 2620.2
-1042.90 982.73 2578.6
-1037.39 983.85 2581.5
-1044.45 996.98 2616.0
-1051.35 1010.12 2650.5
-1015.93 982.51 2578.0
-997.67 971.24 2548.4
-992.52 972.67 2552.2
-962.17 962.17 2524.7
-971.70 978.35 2567.1
-961.47 974.73 2557.6
-953.25 973.11 2553.4
-936.54 962.74 2526.1
-937.19 970.19 2545.7
-933.55 973.27 2553.8
-912.19 957.80 2513.2
-921.02 974.03 2555.8
-922.96 990.32 2598.5
-902.49 975.48 2559.6
-897.12 976.86 2563.2
-884.00 969.77 2544.6
-886.62 979.94 2571.3
-899.15 1001.33 2627.4
-892.06 1001.01 2626.6
-841.92 974.50 2557.0
-846.66 987.77 2591.8
-847.17 996.27 2614.1
-830.02 983.98 2581.9
-827.31 988.73 2594.3
-831.33 1001.68 2628.3
-824.77 1001.99 2629.1
-812.35 995.12 2611.1
-813.30 1004.67 2636.1
-803.14 1000.52 2625.3
-787.29 989.16 2595.5
-1048.92 969.25 2560.7
-1027.62 967.95 2557.2
-1041.39 987.29 2608.3
-1048.67 1000.69 2643.7
-1014.97 974.91 2575.6
-1004.96 971.68 2567.1
-1007.29 980.43 2590.2
-972.81 953.22 2518.3
-962.97 949.96 2509.7
-958.88 952.36 2516.0
-931.73 931.73 2461.5
-930.69 937.11 2475.7
-931.57 944.51 2495.3
-922.85 942.21 2489.2
-929.78 955.97 2525.5
-932.00 965.05 2549.6
-917.40 956.72 2527.5
-904.49 950.04 2509.9
-902.45 954.76 2522.4
-907.91 967.55 2556.2
-911.33 978.34 2584.7
-919.28 994.18 2626.5
-902.65 990.88 2617.8
-897.11 992.26 2621.4
-901.23 1004.43 2653.6
-860.79 981.84 2593.9
-833.88 966.25 2552.7
-855.38 999.08 2639.5
-833.96 989.91 2615.2
-812.13 971.89 2567.6
-835.84 1008.54 2664.4
-796.90 985.99 2604.9
-1037.49 958.20 2548.9
-1060.04 985.29 2621.0
-1045.63 990.95 2636.0
-1025.77 978.53 2603.0
-1029.46 988.55 2629.6
-1023.44 989.33 2631.7
-981.70 955.35 2541.3
-964.38 944.83 2513.3
-952.89 939.92 2500.3
-975.18 968.50 2576.3
-929.78 942.78 2507.9
-930.49 950.15 2527.5
-927.21 953.52 2536.4
-914.24 946.89 2518.8
-902.31 941.26 2503.8
-890.76 935.94 2489.7
-887.16 938.96 2497.7
-887.27 945.99 2516.4
-890.10 956.03 2543.1
-870.53 942.00 2505.8
-868.52 954.06 2537.9
-892.97 996.00 2649.5
-855.04 961.09 2556.6
-833.66 959.37 2552.0
-851.99 988.31 2629.0
-832.35 989.27 2631.6
-812.37 989.86 2633.1
-812.95 998.96 2657.3
-1043.97 957.52 2564.8
-1044.89 964.51 2583.5
-1071.79 995.73 2667.1
-1059.77 990.95 2654.3
-1051.64 989.77 2651.2
-1045.24 990.23 2652.4
-1045.04 996.59 2669.4
-1032.43 991.13 2654.8
-995.72 962.30 2577.6
-984.73 958.11 2566.4
-983.87 963.79 2581.6
-942.63 949.22 2542.6
-944.24 957.54 2564.8
-932.13 951.96 2549.9
-910.76 936.78 2509.2
-909.08 941.78 2522.6
-908.92 948.44 2540.5
-886.26 931.54 2495.2
-862.47 940.88 2520.2
-904.15 993.87 2662.2
-882.82 977.89 2619.3
-844.26 964.87 2584.5
-844.23 972.55 2605.0
-846.40 982.92 2632.8
-845.86 990.28 2652.5
-831.87 981.88 2630.0
-817.70 973.13 2606.6
-1049.02 955.48 2577.2
-1006.92 934.99 2522.0
-1021.74 954.96 2575.8
-1026.61 965.83 2605.1
-1037.55 982.58 2650.3
-1019.62 978.56 2639.5
-990.88 957.41 2582.4
-974.18 947.67 2556.2
-952.58 933.00 2516.6
-932.15 919.29 2479.6
-927.41 920.97 2484.1
-927.25 927.25 2501.1
-951.48 958.18 2584.5
-962.02 975.67 2631.7
-926.59 946.45 2552.9
-911.37 937.60 2529.0
-920.74 954.10 2573.5
-908.10 947.88 2556.7
-889.26 935.03 2522.1
-889.29 941.98 2540.8
-885.50 944.97 2548.9
-879.52 945.65 2550.7
-866.80 939.04 2532.9
-848.71 926.45 2498.9
-868.43 955.27 2576.7
-863.85 957.60 2582.9
-838.43 936.69 2526.5
-864.02 972.87 2624.1
-867.17 984.17 2654.6
-840.81 961.89 2594.5
-833.21 960.87 2591.8
-822.17 955.86 2578.2
-820.29 961.49 2593.4
-817.21 965.79 2605.0
-809.48 972.73 2623.8
-1059.92 952.59 2587.5
-1049.79 949.49 2579.1
-1045.01 951.23 2583.8
-1026.34 952.55 2587.4
-1050.61 981.49 2666.0
-1012.11 951.79 2585.3
-970.20 918.46 2494.8
-994.48 947.76 2574.4
-1011.95 970.92 2637.3
-978.95 945.65 2568.7
-941.91 916.10 2488.4
-925.46 912.61 2478.9
-931.56 925.05 2512.7
-961.01 961.01 2610.4
-934.06 947.40 2573.4
-895.40 914.72 2484.7
-882.23 914.43 2483.9
-877.69 916.41 2489.2
-922.73 970.57 2636.4
-913.13 974.92 2648.2
-856.15 921.01 2501.7
-864.88 944.71 2566.1
-881.58 970.42 2636.0
-878.92 975.05 2648.5
-870.48 981.01 2664.7
-850.77 966.48 2625.2
-848.87 972.09 2640.5
-830.68 982.97 2670.0
-811.50 968.34 2630.3
-1071.47 956.19 2615.7
-1081.63 971.40 2657.3
-1073.48 970.26 2654.2
-1028.97 936.03 2560.6
-1030.23 949.43 2597.2
-1022.87 955.13 2612.8
-1013.38 965.45 2641.0
-986.83 953.03 2607.1
-974.82 947.93 2593.1
-967.85 947.68 2592.4
-966.79 953.27 2607.7
-938.53 931.92 2549.3
-907.66 914.14 2500.7
-921.40 934.66 2556.8
-898.88 918.42 2512.4
-891.44 917.47 2509.8
-879.29 911.62 2493.8
-919.05 959.90 2625.9
-905.82 960.30 2627.0
-854.66 912.93 2497.4
-848.79 913.58 2499.2
-896.92 972.81 2661.2
-882.27 971.88 2658.6
-836.39 928.59 2540.2
-850.61 951.88 2603.9
-863.65 974.20 2665.0
-1033.96 933.90 2573.0
-997.10 912.38 2513.7
-1008.39 928.78 2558.9
-1007.73 934.32 2574.1
-971.63 906.86 2498.5
-958.14 906.35 2497.1
-1008.05 960.05 2645.0
-985.21 951.24 2620.8
-962.27 935.54 2577.5
-947.76 927.88 2556.4
-913.18 913.18 2515.9
-948.08 954.90 2630.8
-944.82 958.51 2640.8
-933.28 953.72 2627.6
-918.96 945.99 2606.3
-879.12 911.68 2511.8
-862.72 908.12 2502.0
-887.77 941.57 2594.1
-871.94 931.84 2567.3
-837.03 922.71 2542.2
-851.26 945.85 2605.9
-822.50 951.65 2621.9
-830.27 968.65 2668.7
-800.09 949.26 2615.3
-797.38 954.13 2628.7
-1091.42 966.29 2681.4
-1057.34 948.20 2631.2
-994.88 909.79 2524.6
-996.37 917.19 2545.1
-979.22 907.41 2518.0
-960.13 895.69 2485.5
-967.33 908.51 2521.0
-999.01 944.64 2621.3
-1012.44 963.89 2674.7
-990.27 949.29 2634.2
-973.59 939.78 2607.8
-965.92 938.90 2605.4
-957.60 937.37 2601.1
-961.33 947.69 2629.8
-946.17 939.42 2606.8
-929.84 929.84 2580.2
-943.29 950.13 2636.5
-932.56 953.13 2644.9
-889.78 916.15 2542.2
-877.25 916.82 2544.1
-912.03 960.40 2665.0
-902.11 957.21 2656.2
-862.91 922.65 2560.3
-853.81 927.18 2572.9
-847.76 942.71 2616.0
-830.55 931.02 2583.5
-815.40 929.02 2578.0
-833.32 957.28 2656.4
-1073.95 943.99 2638.5
-1060.51 938.14 2622.1
-1065.89 948.98 2652.4
-1044.03 935.56 2614.9
-1012.54 913.27 2552.6
-1010.90 917.79 2565.3
-1024.76 936.54 2617.7
-1019.81 938.23 2622.4
-976.55 904.46 2528.0
-962.94 897.88 2509.6
-994.33 933.46 2609.0
-1006.46 951.31 2659.0
-995.00 946.97 2646.8
-989.89 948.65 2651.5
-946.87 933.35 2608.7
-932.78 926.07 2588.4
-948.14 948.14 2650.1
-947.67 954.59 2668.1
-926.01 939.62 2626.3
-912.36 932.63 2606.7
-902.52 929.46 2597.9
-901.06 934.94 2613.2
-906.58 947.79 2649.1
-902.18 950.39 2656.4
-867.49 920.88 2573.9
-836.19 894.53 2500.2
-874.43 942.74 2635.0
-872.25 955.32 2670.1
-832.64 919.24 2569.3
-816.38 931.08 2602.4
-809.33 930.73 2601.4
-801.72 929.72 2598.6
-1084.93 923.20 2599.2
-1091.20 952.19 2680.8
-1063.05 933.58 2628.4
-1054.61 932.14 2624.4
-1028.94 915.35 2577.1
-994.72 890.69 2507.7
-1004.67 905.52 2549.4
-1032.43 936.70 2637.2
-1019.33 937.24 2638.7
-986.76 913.42 2571.7
-1002.49 934.30 2630.4
-1005.18 943.22 2655.6
-983.37 929.12 2615.9
-961.08 914.36 2574.3
-954.47 914.42 2574.5
-961.63 927.77 2612.1
-941.90 915.18 2576.6
-926.86 907.00 2553.6
-934.43 920.98 2593.0
-943.73 936.89 2637.8
-938.53 938.53 2642.4
-908.40 915.08 2576.4
-886.09 899.22 2531.7
-875.81 895.42 2521.0
-873.30 899.57 2532.7
-886.69 920.28 2591.0
-891.27 932.09 2624.2
-873.59 920.63 2592.0
-857.86 911.06 2565.0
-853.30 913.29 2571.3
-844.25 910.73 2564.1
-845.83 919.68 2589.3
-851.67 933.43 2628.0
-831.22 918.37 2585.6
-815.00 930.46 2619.7
-1081.31 919.11 2606.7
-1071.45 916.46 2599.2
-1060.19 912.57 2588.2
-1052.91 912.07 2586.8
-1036.36 903.50 2562.4
-1031.98 905.48 2568.1
-1010.64 892.52 2531.3
-988.67 884.60 2508.8
-1017.23 916.19 2598.4
-1031.61 935.33 2652.7
-1025.89 936.38 2655.7
-1010.96 928.99 2634.7
-1019.45 943.17 2674.9
-993.44 931.78 2642.6
-970.08 916.18 2598.4
-940.31 894.28 2536.3
-932.81 899.73 2551.7
-946.32 919.28 2607.2
-936.40 916.19 2598.4
-928.11 914.66 2594.1
-924.29 917.55 2602.3
-895.19 895.19 2538.9
-884.86 891.42 2528.2
-887.35 900.60 2554.2
-874.25 893.97 2535.4
-876.90 903.48 2562.4
-870.58 903.80 2563.3
-842.07 916.18 2598.4
-845.48 927.30 2630.0
-821.66 908.51 2576.6
-815.82 909.44 2579.3
-817.90 919.29 2607.2
-1055.17 895.90 2559.7
-1051.56 898.48 2567.1
-1050.43 903.23 2580.7
-1044.59 903.97 2582.8
-1052.21 916.44 2618.4
-1051.56 921.82 2633.8
-1037.51 915.45 2615.6
-1021.45 907.20 2592.0
-1024.55 915.98 2617.1
-1030.63 927.57 2650.2
-1017.37 921.78 2633.7
-981.03 894.86 2556.7
-969.07 889.97 2542.8
-977.99 923.27 2637.9
-956.46 909.31 2598.0
-957.94 917.18 2620.5
-958.35 924.12 2640.3
-935.47 908.55 2595.9
-916.95 897.02 2562.9
-903.03 889.85 2542.4
-893.95 887.37 2535.3
-904.02 904.02 2582.9
-931.00 937.95 2679.9
-912.28 933.01 2665.8
-877.63 904.42 2584.1
-859.72 892.79 2550.8
-847.69 887.12 2534.6
-841.41 887.42 2535.5
-841.05 894.03 2554.4
-834.13 893.71 2553.4
-848.84 916.75 2619.3
-860.92 937.29 2678.0
-838.45 927.79 2650.8
-1083.92 907.78 2613.0
-1058.43 897.66 2583.9
-1051.88 897.78 2584.2
-1041.75 894.84 2575.8
-1065.02 920.73 2650.3
-988.89 895.35 2577.2
-964.68 879.37 2531.2
-1008.36 925.48 2664.0
-950.58 897.02 2582.1
-965.16 917.25 2640.3
-963.21 928.57 2672.8
-952.52 924.91 2662.3
-939.63 919.06 2645.5
-931.88 918.18 2642.9
-924.77 917.92 2642.2
-935.11 935.11 2691.7
-908.03 921.78 2653.3
-881.63 901.82 2595.9
-874.00 900.90 2593.2
-866.99 900.59 2592.3
-863.86 904.36 2603.2
-867.81 915.64 2635.6
-865.70 920.66 2650.1
-860.30 922.24 2654.6
-831.82 906.21 2608.5
-815.02 895.19 2576.8
-830.48 919.70 2647.3
-1098.62 907.55 2632.0
-1072.99 891.92 2586.7
-1074.07 898.44 2605.6
-1064.59 896.14 2598.9
-1040.41 881.36 2556.0
-1061.87 917.07 2659.6
-1041.96 917.75 2661.6
-1019.16 909.72 2638.3
-991.64 891.13 2584.4
-996.22 901.34 2614.0
-966.29 880.25 2552.8
-988.54 906.73 2629.6
-952.24 891.89 2586.6
-959.97 905.51 2626.1
-928.61 921.68 2673.0
-895.38 895.38 2596.7
-878.21 884.86 2566.2
-864.54 877.74 2545.5
-846.83 879.91 2551.8
-871.12 912.27 2645.7
-851.58 898.89 2606.9
-828.41 881.43 2556.2
-836.02 896.69 2600.5
-828.68 896.05 2598.7
-830.52 905.40 2625.8
-1086.07 884.95 2585.9
-1082.48 887.50 2593.3
-1096.61 910.40 2660.3
-1076.89 899.68 2628.9
-1068.44 898.31 2624.9
-1041.78 881.50 2575.8
-1045.65 896.27 2619.0
-992.68 867.77 2535.7
-978.68 867.02 2533.5
-1003.25 894.79 2614.7
-1010.15 907.07 2650.5
-981.13 887.05 2592.0
-966.53 885.98 2588.9
-991.67 915.38 2674.8
-975.29 906.61 2649.2
-950.20 889.55 2599.3
-942.87 888.99 2597.7
-960.40 912.03 2665.0
-960.73 925.67 2704.9
-937.34 909.77 2658.4
-941.19 920.27 2689.1
-924.28 910.49 2660.5
-902.54 895.76 2617.5
-897.63 897.63 2623.0
-881.99 888.72 2596.9
-860.69 873.93 2553.7
-851.05 870.84 2544.7
-876.50 903.89 2641.2
-887.51 922.46 2695.5
-854.56 895.25 2616.0
-822.53 889.95 2600.5
-1088.60 908.32 2674.4
-1088.99 914.47 2692.6
-1076.85 910.11 2679.7
-1036.12 881.37 2595.1
-1011.24 865.83 2549.3
-1022.57 881.29 2594.9
-997.19 865.11 2547.2
-976.52 852.83 2511.1
-1007.54 885.82 2608.2
-1011.81 895.59 2637.0
-998.30 889.64 2619.4
-1005.10 901.84 2655.4
-1001.68 904.96 2664.6
-984.21 895.35 2636.3
-973.49 891.79 2625.8
-976.31 900.68 2651.9
-969.84 901.06 2653.1
-940.29 879.84 2590.6
-935.25 881.42 2595.2
-940.76 893.04 2629.5
-912.65 872.68 2569.5
-908.87 875.46 2577.7
-930.85 903.27 2659.6
-933.07 912.18 2685.8
-928.64 914.67 2693.2
-913.38 906.46 2669.0
-889.36 889.36 2618.6
-881.07 887.85 2614.2
-883.67 897.37 2642.2
-875.04 895.55 2636.8
-849.16 875.91 2579.0
-837.45 870.68 2563.6
-815.79 883.21 2600.5
-1070.41 880.71 2613.1
-1051.20 870.42 2582.6
-1051.09 875.91 2598.8
-1051.97 882.29 2617.8
-1025.15 865.39 2567.6
-997.39 853.03 2531.0
-991.27 853.41 2532.1
-989.64 857.69 2544.8
-1007.20 878.77 2607.3
-999.19 877.66 2604.1
-982.01 868.44 2576.7
-983.18 875.43 2597.4
-978.55 877.32 2603.0
-960.21 866.86 2572.0
-956.93 869.94 2581.1
-965.13 883.57 2621.6
-977.72 901.45 2674.6
-965.67 896.69 2660.5
-930.09 869.87 2580.9
-911.38 864.81 2565.9
-944.06 902.41 2677.5
-949.14 913.99 2711.8
-931.54 903.73 2681.4
-924.95 904.09 2682.5
-907.86 894.11 2652.8
-889.38 882.59 2618.7
-885.96 885.96 2628.7
-875.84 882.63 2618.8
-853.16 866.50 2570.9
-840.42 867.10 2572.7
-846.07 879.91 2610.7
-856.49 897.93 2664.2
-864.33 913.52 2710.5
-854.73 910.78 2702.3
-1081.06 871.60 2606.1
-1051.19 863.72 2582.5
-1032.47 853.77 2552.8
-1016.72 846.17 2530.1
-1030.46 863.18 2580.9
-1036.57 873.97 2613.2
-1045.33 887.16 2652.6
-1044.51 892.33 2668.1
-1007.63 866.56 2591.0
-992.08 858.91 2568.2
-986.88 860.19 2572.0
-971.47 852.51 2549.0
-976.43 862.74 2579.6
-975.20 867.59 2594.1
-970.23 869.16 2598.8
-981.48 885.39 2647.3
-970.42 881.58 2636.0
-963.01 881.05 2634.4
-946.26 884.55 2644.8
-936.28 881.60 2636.0
-956.46 907.23 2712.6
-947.92 905.79 2708.3
-932.82 898.02 2685.1
-928.71 900.78 2693.4
-915.92 895.10 2676.4
-900.74 886.99 2652.1
-914.60 907.56 2713.6
-892.50 899.47 2689.4
-871.54 885.27 2647.0
-874.75 895.58 2677.8
-881.63 909.84 2720.5
-814.97 868.85 2597.9
-1098.63 878.91 2648.5
-1072.80 874.64 2635.6
-1074.02 881.25 2655.5
-1046.99 864.61 2605.4
-1048.88 871.79 2627.1
-1031.52 880.23 2652.5
-1001.36 860.23 2592.2
-983.45 850.55 2563.1
-987.10 859.52 2590.1
-1011.93 887.17 2673.4
-1008.47 890.23 2682.6
-1000.96 889.74 2681.1
-995.10 890.72 2684.1
-967.46 872.08 2627.9
-945.65 858.46 2586.9
-958.22 876.09 2640.0
-933.42 872.10 2628.0
-917.46 863.49 2602.0
-927.46 879.37 2649.9
-932.54 890.78 2684.3
-924.39 889.64 2680.8
-907.29 879.80 2651.2
-891.56 871.14 2625.1
-902.75 888.86 2678.5
-863.21 870.01 2621.7
-839.54 852.87 2570.0
-844.92 865.20 2607.2
-843.12 870.31 2622.6
-839.21 873.32 2631.7
-834.68 875.73 2638.9
-846.09 895.03 2697.1
-858.91 916.17 2760.8
-1100.34 878.89 2669.3
-1058.38 856.14 2600.2
-1087.29 885.17 2688.4
-1066.61 879.60 2671.5
-1012.82 851.85 2587.2
-999.65 846.37 2570.5
-1007.56 858.79 2608.2
-1000.56 858.59 2607.6
-1016.71 878.38 2667.8
-1009.16 883.88 2684.5
-976.24 860.99 2614.9
-944.64 838.94 2548.0
-945.36 845.49 2567.9
-952.54 857.96 2605.7
-928.25 842.05 2557.4
-924.91 845.06 2566.5
-927.31 853.39 2591.9
-916.12 861.83 2617.5
-910.63 863.06 2621.2
-892.66 852.39 2588.8
-897.11 863.13 2621.4
-902.31 874.76 2656.8
-892.71 872.11 2648.7
-892.84 878.99 2669.6
-900.07 893.04 2712.3
-876.36 876.36 2661.6
-836.12 856.35 2600.8
-845.31 872.80 2650.8
-837.86 872.20 2649.0
-845.54 887.47 2695.4
-856.12 906.06 2751.8
-1103.04 868.64 2659.1
-1081.74 857.23 2624.2
-1060.23 845.50 2588.3
-1067.75 856.92 2623.2
-1063.73 876.01 2681.7
-1009.92 837.17 2562.8
-988.53 830.37 2541.9
-1003.07 848.23 2596.6
-1003.30 854.16 2614.8
-989.47 848.12 2596.3
-972.68 839.44 2569.7
-983.26 854.42 2615.6
-977.91 855.67 2619.4
-947.28 834.66 2555.1
-950.63 843.51 2582.2
-966.32 863.52 2643.4
-953.02 857.72 2625.7
-934.94 847.50 2594.4
-922.15 841.97 2577.4
-907.60 847.09 2593.1
-892.66 845.68 2588.8
-919.69 877.89 2687.4
-923.22 887.98 2718.3
-913.17 885.07 2709.4
-893.76 872.98 2672.4
-882.65 868.86 2659.8
-885.63 878.66 2689.8
-871.56 871.56 2668.0
-858.48 865.34 2649.0
-867.10 881.09 2697.2
-867.95 889.12 2721.8
-849.39 877.24 2685.4
-832.14 866.52 2652.6
-817.79 865.90 2650.7
-834.91 891.52 2729.1
-1107.80 865.47 2670.6
-1068.92 845.67 2609.5
-1051.85 837.46 2584.2
-1081.56 866.64 2674.2
-1065.85 870.79 2687.0
-1010.25 830.80 2563.6
-972.43 821.31 2534.3
-960.17 833.48 2571.9
-964.22 842.85 2600.8
-969.45 853.39 2633.3
-986.68 874.72 2699.1
-973.25 868.98 2681.4
-956.01 859.72 2652.9
-949.85 860.37 2654.9
-931.51 849.92 2622.6
-904.09 830.97 2564.1
-897.95 843.94 2604.2
-908.56 860.38 2654.9
-894.03 853.09 2632.4
-881.76 867.88 2678.0
-881.07 874.08 2697.2
-882.35 882.35 2722.7
-858.06 864.98 2669.1
-847.39 868.23 2679.1
-833.77 868.52 2680.0
-827.68 876.78 2705.5
-1085.39 841.18 2616.6
-1108.74 864.68 2689.7
-1078.34 846.30 2632.5
-1076.75 850.43 2645.3
-1069.03 866.40 2695.0
-1022.86 834.44 2595.6
-999.84 821.06 2554.0
-1000.62 827.18 2573.0
-979.56 815.20 2535.8
-967.95 816.50 2539.8
-951.44 819.29 2548.5
-969.86 841.00 2616.0
-991.27 865.62 2692.6
-956.66 853.42 2654.7
-918.57 825.39 2567.4
-938.23 849.20 2641.5
-951.49 867.53 2698.5
-932.23 856.27 2663.5
-932.29 862.72 2683.6
-908.69 887.23 2759.8
-894.75 887.59 2760.9
-860.70 860.70 2677.3
-834.30 841.08 2616.3
-867.59 881.81 2743.0
-835.57 870.67 2708.3
-826.30 868.31 2701.0
-831.77 881.53 2742.1
-1098.96 844.82 2649.3
-1093.74 846.10 2653.3
-1073.23 835.49 2620.0
-1079.98 846.10 2653.3
-1050.95 850.44 2666.9
-1028.46 837.75 2627.1
-1047.14 858.66 2692.7
-1040.65 859.06 2693.9
-1007.37 837.21 2625.4
-995.90 833.30 2613.1
-997.71 840.53 2635.8
-1000.08 848.35 2660.3
-998.99 853.30 2675.9
-1006.48 865.71 2714.8
-984.66 852.91 2674.6
-965.98 842.66 2642.5
-988.29 868.29 2722.9
-967.69 856.30 2685.3
-908.09 815.29 2556.7
-947.67 857.09 2687.7
-903.23 835.32 2619.5
-887.84 840.03 2634.3
-918.08 875.37 2745.1
-898.93 877.52 2751.8
-878.26 864.20 2710.0
-868.03 861.03 2700.1
-867.14 867.14 2719.3
-860.39 867.45 2720.2
-863.37 877.64 2752.2
-1083.02 836.26 2643.9
-1062.82 831.18 2627.9
-1047.78 840.98 2658.8
-1028.44 830.92 2627.0
-1030.71 849.64 2686.2
-1028.66 853.72 2699.1
-959.15 824.06 2605.3
-933.05 807.32 2552.4
-941.86 820.77 2594.9
-934.22 819.96 2592.4
-959.14 860.41 2720.3
-949.32 857.90 2712.3
-929.46 846.23 2675.4
-936.32 858.88 2715.4
-919.42 849.76 2686.6
-896.17 834.60 2638.7
-921.18 864.49 2733.2
-884.97 856.88 2709.1
-887.12 865.83 2737.4
-877.05 869.92 2750.3
-845.10 845.10 2671.9
-833.59 840.48 2657.3
-832.10 845.96 2674.6
-829.95 850.87 2690.1
-828.84 856.94 2709.3
-820.42 855.48 2704.7
-1091.37 835.79 2664.3
-1083.56 835.10 2662.1
-1074.67 833.56 2657.2
-1041.40 823.59 2625.4
-1021.36 813.05 2591.8
-1035.41 829.70 2644.8
-1038.08 837.39 2669.4
-1023.34 831.04 2649.1
-1018.32 832.55 2653.9
-1034.46 851.49 2714.3
-992.14 839.50 2676.1
-966.08 823.21 2624.2
-967.92 830.63 2647.8
-976.52 843.99 2690.4
-966.06 840.96 2680.7
-925.91 811.85 2588.0
-948.14 837.41 2669.4
-926.20 830.15 2646.3
-913.73 825.08 2630.1
-925.39 841.89 2683.7
-883.88 842.12 2684.4
-862.95 828.71 2641.7
-871.77 843.87 2690.0
-885.05 863.63 2753.0
-859.60 845.62 2695.6
-847.13 840.18 2678.3
-854.23 854.23 2723.1
-855.14 862.27 2748.7
-857.91 872.33 2780.7
-831.93 853.08 2719.4
-800.62 842.39 2685.3
-1104.09 838.55 2695.3
-1094.03 836.20 2687.8
-1083.65 833.58 2679.4
-1074.01 831.49 2672.7
-1037.69 808.59 2599.0
-1028.00 811.58 2608.7
-1037.13 824.21 2649.2
-1034.58 827.66 2660.3
-1004.02 819.60 2634.4
-986.18 816.15 2623.3
-957.76 809.38 2601.6
-964.93 821.22 2639.6
-978.80 838.97 2696.7
-978.25 850.65 2734.2
-955.84 837.23 2691.1
-933.62 823.78 2647.9
-905.58 804.96 2587.4
-903.94 809.50 2602.0
-916.00 826.46 2656.5
-927.48 843.17 2710.2
-926.06 848.30 2726.7
-924.56 853.44 2743.2
-895.63 839.66 2698.9
-870.67 822.68 2644.3
-866.51 825.25 2652.6
-855.21 821.00 2638.9
-849.26 821.86 2641.7
-839.79 819.30 2633.5
-841.92 828.11 2661.8
-848.78 841.77 2705.7
-850.03 850.03 2732.2
-841.75 856.02 2751.5
-809.86 830.62 2669.9
-809.54 837.45 2691.8
-815.68 851.14 2735.8
-1092.03 822.48 2665.9
-1077.69 816.85 2647.7
-1075.33 820.28 2658.8
-1070.76 822.06 2664.6
-1046.55 808.70 2621.2
-1036.71 806.33 2613.6
-1045.58 818.58 2653.3
-1049.71 827.25 2681.4
-1045.69 829.58 2688.9
-1001.81 800.11 2593.4
-998.16 808.04 2619.1
-1032.64 841.67 2728.1
-973.97 799.33 2590.9
-963.03 807.05 2615.9
-961.94 811.85 2631.4
-948.31 806.07 2612.7
-935.10 800.55 2594.8
-946.87 816.50 2646.5
-954.22 828.84 2686.5
-943.17 825.28 2675.0
-926.47 816.67 2647.1
-913.36 811.12 2629.1
-911.91 815.92 2644.6
-913.49 823.52 2669.3
-900.75 818.24 2652.1
-890.23 814.90 2641.3
-887.06 818.30 2652.3
-871.75 810.45 2626.9
-860.75 806.53 2614.2
-865.30 817.23 2648.9
-864.95 823.44 2669.0
-850.12 815.84 2644.4
-831.31 804.28 2606.9
-847.69 826.84 2680.0
-872.90 858.47 2782.6
-842.91 835.88 2709.3
-819.20 819.20 2655.3
-834.74 841.82 2728.6
-840.19 854.55 2769.9
-1099.44 815.94 2667.1
-1086.72 816.77 2669.8
-1079.98 816.91 2670.3
-1056.73 804.48 2629.6
-1024.08 800.28 2615.9
-1029.63 809.98 2647.6
-989.06 799.37 2613.0
-984.75 801.38 2619.5
-982.09 804.77 2630.6
-993.41 819.74 2679.5
-1000.18 831.14 2716.8
-996.22 833.72 2725.2
-979.10 825.24 2697.5
-961.12 815.91 2667.0
-968.85 828.44 2708.0
-947.12 815.77 2666.6
-908.01 787.83 2575.2
-905.18 791.19 2586.2
-908.29 799.83 2614.5
-903.74 801.81 2620.9
-902.89 807.13 2638.3
-892.38 803.83 2627.5
-884.68 803.02 2624.9
-882.77 807.50 2639.5
-868.69 800.83 2617.7
-865.52 804.19 2628.7
-880.79 824.86 2696.3
-862.87 814.54 2662.6
-832.45 798.61 2610.5
-874.02 845.36 2763.3
-827.79 813.99 2660.8
-814.53 814.53 2662.5
-1057.39 798.16 2631.3
-1039.67 789.88 2604.0
-1050.80 803.55 2649.1
-1033.85 795.80 2623.5
-1026.84 795.63 2623.0
-1046.33 816.14 2690.6
-1021.82 802.37 2645.2
-982.54 787.38 2595.7
-982.34 792.64 2613.1
-979.02 795.45 2622.4
-989.03 809.21 2667.7
-1009.80 832.02 2742.9
-986.29 824.26 2717.3
-950.65 800.19 2638.0
-975.63 827.17 2726.9
-968.33 826.97 2726.3
-921.38 792.66 2613.2
-911.17 789.68 2603.3
-921.50 804.59 2652.5
-925.32 814.01 2683.5
-906.28 803.30 2648.2
-877.82 784.01 2584.6
-871.45 784.30 2585.6
-869.94 789.02 2601.1
-883.19 807.29 2661.4
-836.84 789.60 2603.1
-855.77 820.70 2705.6
-856.81 828.49 2731.3
-832.62 811.80 2676.3
-832.47 818.48 2698.3
-820.41 813.46 2681.7
-817.05 831.26 2740.4
-1089.70 800.04 2660.2
-1048.98 800.54 2661.9
-1022.22 785.28 2611.2
-1022.21 790.51 2628.5
-1054.04 820.59 2728.6
-1027.85 811.09 2697.0
-1022.01 812.01 2700.0
-1025.98 820.78 2729.2
-1027.79 827.94 2753.0
-1011.75 820.72 2729.0
-1008.12 823.53 2738.3
-1006.75 828.25 2754.0
-960.66 795.97 2646.7
-947.41 796.37 2648.0
-964.77 816.88 2716.2
-938.29 800.31 2661.1
-922.24 792.45 2635.0
-925.56 801.23 2664.2
-918.08 800.73 2662.5
-888.50 780.80 2596.3
-881.84 786.87 2616.5
-888.50 798.96 2656.7
-889.11 818.54 2721.8
-863.87 808.13 2687.1
-848.17 813.12 2703.7
-852.87 824.44 2741.4
-856.25 834.67 2775.4
-1030.80 774.78 2598.6
-1023.84 774.62 2598.1
-1028.83 783.55 2628.0
-1014.12 777.49 2607.7
-1032.13 796.61 2671.9
-1031.18 812.23 2724.2
-1018.83 808.04 2710.2
-1012.08 819.64 2749.1
-970.03 791.16 2653.6
-959.30 787.99 2643.0
-956.44 791.30 2654.0
-950.29 791.90 2656.1
-937.99 787.37 2640.9
-931.85 787.96 2642.9
-935.55 796.95 2673.0
-918.26 788.06 2643.2
-890.75 770.20 2583.3
-893.12 778.10 2609.8
-913.31 801.76 2689.1
-898.58 807.32 2707.8
-858.80 777.65 2608.3
-849.35 775.20 2600.1
-860.41 791.58 2655.0
-850.59 788.86 2645.9
-856.79 814.30 2731.2
-831.34 810.20 2717.4
-1110.06 800.93 2709.9
-1044.59 778.32 2633.4
-1055.94 791.95 2679.5
-1063.91 803.22 2717.7
-1051.79 799.36 2704.6
-1036.25 792.83 2682.5
-1029.09 792.68 2682.0
-1000.99 776.28 2626.5
-991.25 790.23 2673.7
-991.48 801.62 2712.3
-994.42 809.74 2739.7
-982.20 805.54 2725.5
-967.11 798.92 2703.1
-935.36 778.33 2633.5
-910.98 763.62 2583.7
-937.10 791.33 2677.4
-944.45 803.49 2718.6
-930.56 797.62 2698.7
-872.47 777.04 2629.1
-869.87 793.32 2684.2
-850.42 788.20 2666.8
-847.87 792.27 2680.6
-1086.81 782.22 2670.0
-1057.27 765.85 2614.1
-1048.43 774.33 2643.1
-1031.47 766.82 2617.5
-1045.09 787.30 2687.4
-1056.33 806.52 2753.0
-1016.72 781.56 2667.8
-1011.69 805.07 2748.0
-1006.67 806.76 2753.8
-958.95 785.23 2680.3
-915.95 772.40 2636.5
-919.84 781.52 2667.6
-919.84 787.44 2687.8
-901.55 795.90 2716.7
-860.50 765.64 2613.4
-839.84 759.21 2591.5
-863.52 799.81 2730.1
-860.78 803.86 2743.9
-1095.47 781.48 2691.3
-1072.40 769.93 2651.5
-1038.75 760.39 2618.7
-1040.84 777.16 2676.4
-992.44 761.33 2621.9
-995.26 774.09 2665.9
-996.84 780.74 2688.8
-967.98 763.48 2629.3
-966.22 767.49 2643.2
-977.23 781.78 2692.4
-980.15 789.76 2719.8
-944.28 766.37 2639.3
-925.24 756.40 2604.9
-940.99 774.93 2668.8
-931.91 773.14 2662.6
-921.27 770.02 2651.8
-897.79 756.03 2603.7
-876.91 749.73 2582.0
-875.10 765.71 2637.0
-870.99 768.12 2645.3
-876.13 778.78 2682.0
-836.21 749.24 2580.3
-840.43 759.10 2614.2
-852.98 776.69 2674.8
-1097.05 770.71 2678.2
-1079.48 788.30 2739.3
-1051.43 772.90 2685.8
-1047.42 775.09 2693.4
-1055.21 786.09 2731.6
-1049.67 787.25 2735.6
-1009.37 762.18 2648.5
-1003.65 763.05 2651.5
-1031.89 789.93 2744.9
-1024.57 789.77 2744.4
-987.72 766.69 2664.2
-973.58 761.04 2644.5
-984.38 774.94 2692.8
-945.22 749.43 2604.2
-927.96 746.40 2593.7
-974.91 789.89 2744.8
-944.28 776.41 2698.0
-935.78 775.16 2693.6
-913.44 762.35 2649.1
-883.51 742.95 2581.7
-884.60 749.54 2604.6
-897.90 766.67 2664.1
-876.95 754.59 2622.1
-874.13 758.03 2634.1
-856.60 766.80 2664.6
-850.00 767.07 2665.5
-1096.42 768.19 2693.7
-1101.96 777.02 2724.6
-1091.49 774.60 2716.1
-1091.45 779.60 2733.7
-1052.76 766.91 2689.2
-1029.49 754.96 2647.2
-1042.96 769.97 2699.9
-1042.34 774.71 2716.5
-1009.64 755.51 2649.2
-1010.76 761.53 2670.3
-1011.49 778.07 2728.3
-1002.87 776.87 2724.1
-994.60 775.93 2720.8
-940.24 749.47 2628.0
-950.62 763.27 2676.4
-908.12 734.51 2575.5
-908.18 740.00 2594.8
-928.12 761.89 2671.5
-918.10 759.33 2662.6
-900.00 750.00 2629.9
-875.36 746.43 2617.3
-916.32 787.46 2761.2
-913.19 797.23 2795.5
-886.06 779.73 2734.1
-897.02 795.74 2790.3
-1090.28 761.80 2695.7
-1053.00 745.31 2637.4
-1084.48 772.60 2734.0
-1082.19 776.04 2746.1
-1041.05 751.49 2659.3
-1013.63 736.57 2606.5
-1024.77 749.66 2652.8
-1024.71 765.02 2707.2
-1010.68 759.76 2688.5
-1025.48 776.23 2746.8
-1009.75 769.67 2723.6
-987.45 757.97 2682.2
-966.66 747.28 2644.4
-960.23 747.61 2645.5
-974.09 763.86 2703.0
-971.74 767.53 2716.0
-934.71 743.67 2631.6
-907.39 727.24 2573.5
-924.06 746.09 2640.2
-928.37 755.16 2672.3
-904.81 741.53 2624.0
-895.23 739.24 2615.9
-875.44 728.42 2577.6
-877.65 747.37 2644.7
-879.87 755.17 2672.3
-884.37 765.05 2707.2
-894.35 779.87 2759.7
-894.32 786.14 2781.9
-1074.95 744.19 2657.8
-1094.94 762.93 2724.7
-1054.91 759.54 2712.6
-1035.14 750.30 2679.6
-1049.82 766.09 2736.0
-996.31 742.08 2650.3
-973.31 729.98 2607.1
-972.36 734.37 2622.8
-963.65 732.92 2617.6
-945.30 729.23 2604.4
-987.79 767.50 2741.1
-959.70 762.11 2721.8
-926.54 741.23 2647.2
-882.32 721.90 2578.2
-896.14 756.12 2700.4
-888.58 755.64 2698.7
-885.81 759.27 2711.7
-893.41 771.91 2756.8
-887.78 773.22 2761.5
-887.69 779.44 2783.7
-844.31 759.88 2713.9
-1100.00 744.94 2685.3
-1072.99 760.33 2740.8
-1041.49 742.93 2678.1
-1022.84 734.52 2647.8
-1022.70 739.38 2665.3
-1041.09 757.80 2731.7
-1042.04 763.68 2752.9
-1013.59 747.96 2696.3
-979.98 728.18 2625.0
-967.22 723.73 2608.9
-966.57 728.33 2625.5
-957.19 726.38 2618.5
-961.38 734.77 2648.7
-950.95 748.17 2697.0
-911.12 722.14 2603.2
-900.86 724.75 2612.6
-920.75 746.36 2690.5
-917.87 749.71 2702.6
-875.09 720.26 2596.4
-882.49 731.98 2638.7
-918.31 767.65 2767.2
-914.22 770.25 2776.6
-895.66 760.60 2741.8
-888.59 760.63 2741.9
-889.80 767.81 2767.8
-866.76 760.20 2740.4
-1112.39 746.28 2715.6
-1089.12 735.33 2675.7
-1072.01 733.11 2667.7
-1081.79 744.61 2709.5
-1074.50 749.32 2726.6
-1023.46 718.46 2614.3
-1011.22 719.39 2617.7
-1045.50 748.81 2724.8
-1042.39 751.65 2735.1
-1020.36 740.81 2695.7
-999.53 730.69 2658.9
-975.87 723.37 2632.2
-991.89 740.43 2694.3
-983.02 739.01 2689.1
-989.70 749.34 2726.7
-973.49 747.75 2720.9
-937.04 725.01 2638.2
-914.17 712.52 2592.7
-911.02 715.32 2602.9
-924.01 730.94 2659.7
-927.59 739.28 2690.1
-909.32 758.96 2761.7
-877.28 738.03 2685.5
-871.53 739.06 2689.3
-875.24 748.19 2722.5
-885.25 762.90 2776.1
-864.37 751.01 2732.8
-1085.17 730.40 2683.1
-1060.19 732.37 2690.3
-1054.44 733.22 2693.5
-1018.81 713.17 2619.8
-1028.92 725.08 2663.6
-1058.26 750.80 2758.0
-1049.21 749.43 2753.0
-1032.28 742.39 2727.1
-1018.19 737.31 2708.5
-989.27 721.34 2649.8
-994.63 730.32 2682.8
-1020.26 754.42 2771.3
-998.54 748.91 2751.1
-981.67 741.55 2724.1
-950.59 739.35 2716.0
-940.77 737.17 2708.0
-921.82 727.76 2673.4
-915.26 728.05 2674.5
-921.77 738.83 2714.1
-911.38 753.51 2768.0
-888.32 740.27 2719.4
-891.16 748.57 2749.9
-873.10 739.32 2715.9
-860.49 734.57 2698.4
-1084.81 727.87 2699.5
-1058.94 729.33 2704.9
-1073.18 744.07 2759.6
-1037.55 724.20 2685.9
-1021.35 717.71 2661.8
-1042.56 737.59 2735.6
-1016.63 734.23 2723.1
-991.16 720.85 2673.5
-986.35 722.40 2679.2
-955.64 736.19 2730.4
-920.34 714.29 2649.2
-920.47 719.77 2669.5
-933.06 735.14 2726.5
-914.84 726.28 2693.6
-901.72 721.37 2675.4
-892.98 719.92 2670.0
-890.06 723.18 2682.1
-910.71 745.78 2765.9
-876.59 735.20 2726.7
-867.37 751.72 2788.0
-1077.53 720.68 2698.8
-1070.86 730.45 2735.4
-1075.20 738.30 2764.8
-1030.45 712.32 2667.5
-1002.12 697.42 2611.7
-1008.60 706.71 2646.5
-1012.51 714.31 2674.9
-990.69 703.73 2635.3
-971.75 695.07 2602.9
-982.90 712.95 2669.9
-946.65 701.47 2626.9
-940.89 702.26 2629.8
-945.83 711.10 2662.9
-953.51 722.14 2704.3
-947.54 722.94 2707.3
-906.73 723.98 2711.1
-882.76 721.62 2702.3
-871.60 718.20 2689.5
-871.77 724.13 2711.7
-1098.30 727.44 2750.8
-1064.51 709.67 2683.6
-1077.31 722.93 2733.8
-1036.42 700.10 2647.4
-1006.52 693.68 2623.2
-1008.14 699.52 2645.3
-1007.59 703.93 2661.9
-995.01 699.94 2646.8
-986.22 698.57 2641.7
-977.79 697.45 2637.4
-1019.00 731.96 2767.9
-990.34 721.54 2728.5
-942.32 711.98 2692.3
-931.27 708.88 2680.6
-908.39 701.94 2654.4
-873.26 701.36 2652.2
-877.92 722.16 2730.8
-880.00 729.75 2759.6
-862.93 721.47 2728.2
-1038.05 708.40 2705.3
-1001.28 692.67 2645.3
-1008.39 712.22 2719.9
-994.42 707.30 2701.1
-978.86 701.17 2677.7
-959.76 692.40 2644.2
-921.05 689.08 2631.6
-929.90 700.89 2676.7
-903.72 686.28 2620.9
-894.46 684.39 2613.7
-911.75 702.95 2684.5
-923.75 717.68 2740.8
-913.52 726.50 2774.5
-899.45 720.99 2753.4
-1079.97 696.76 2687.5
-1088.70 706.94 2726.8
-1070.17 708.72 2733.6
-1066.79 711.19 2743.2
-1080.51 725.18 2797.1
-1030.39 705.75 2722.2
-1003.55 701.78 2706.9
-986.59 694.78 2679.9
-985.08 698.64 2694.8
-977.87 698.48 2694.1
-930.56 689.30 2658.7
-936.48 698.87 2695.6
-917.85 690.11 2661.9
-916.35 694.20 2677.6
-917.89 700.68 2702.6
-915.60 704.30 2716.6
-880.58 682.62 2633.0
-881.25 693.90 2676.5
-1072.70 689.59 2686.7
-1083.13 700.85 2730.6
-1079.80 703.29 2740.1
-1075.01 704.81 2746.0
-1074.78 709.35 2763.7
-1016.18 693.80 2703.1
-999.10 686.88 2676.2
-991.27 686.26 2673.7
-991.50 691.26 2693.2
-981.42 699.00 2723.4
-937.46 672.53 2620.2
-929.18 676.39 2635.3
-945.53 693.39 2701.5
-958.70 708.29 2759.6
-948.14 705.76 2749.7
-938.58 703.93 2742.6
-932.79 704.93 2746.5
-917.67 698.84 2722.7
-884.19 689.25 2685.4
-874.51 692.62 2698.5
-884.19 705.93 2750.4
-881.82 709.76 2765.3
-845.68 686.25 2673.7
-1109.73 706.19 2779.5
-1109.55 710.69 2797.2
-1095.73 706.46 2780.5
-1079.15 700.37 2756.6
-1065.84 696.35 2740.7
-1059.96 697.15 2743.9
-1073.23 710.65 2797.0
-1062.70 708.46 2788.4
-1007.07 675.98 2660.6
-998.97 679.85 2675.8
-1000.27 685.50 2698.0
-1008.85 696.25 2740.3
-991.52 689.14 2712.4
-964.69 675.28 2657.8
-983.61 693.48 2729.4
-963.48 689.21 2712.6
-948.78 683.68 2690.9
-946.38 687.00 2703.9
-941.04 688.23 2708.8
-930.29 685.48 2697.9
-919.90 682.96 2688.0
-935.19 699.61 2753.6
-917.65 697.13 2743.8
-904.78 692.72 2726.5
-887.12 684.55 2694.3
-861.19 680.62 2678.8
-1105.63 696.40 2769.2
-1081.78 685.84 2727.2
-1092.04 696.89 2771.2
-1094.28 702.95 2795.2
-1067.82 690.53 2745.8
-1049.31 683.10 2716.3
-1050.10 688.24 2736.7
-1027.91 678.28 2697.1
-1025.73 690.94 2747.5
-974.18 674.97 2684.0
-976.56 681.49 2709.9
-981.60 695.00 2763.6
-953.51 680.08 2704.3
-937.26 673.44 2677.9
-921.13 666.79 2651.4
-899.41 655.96 2608.4
-904.03 664.33 2641.6
-931.33 689.61 2742.2
-923.98 689.43 2741.5
-885.77 666.04 2648.5
-881.39 667.93 2656.0
-871.49 665.63 2646.8
-867.97 668.20 2657.1
-896.49 695.67 2766.3
-881.63 695.27 2764.7
-1089.60 679.23 2729.0
-1082.00 678.90 2727.7
-1106.91 699.10 2808.9
-1095.22 696.30 2797.6
-1056.04 675.86 2715.5
-1043.55 672.35 2701.4
-1051.36 681.96 2740.0
-1033.66 675.05 2712.2
-1000.39 666.93 2679.6
-1026.07 688.83 2767.6
-999.21 690.10 2772.7
-979.02 681.06 2736.4
-965.84 676.79 2719.3
-939.14 662.92 2663.5
-928.45 660.23 2652.7
-918.44 657.99 2643.7
-910.69 657.34 2641.1
-930.37 676.63 2718.6
-922.14 675.77 2715.1
-905.78 679.34 2729.5
-880.80 665.80 2675.1
-861.51 656.39 2637.3
-879.46 686.41 2757.9
-1106.07 682.32 2770.3
-1089.04 676.20 2745.5
-1085.92 687.75 2792.4
-1072.55 683.84 2776.5
-1085.08 696.51 2827.9
-1071.35 692.37 2811.1
-1030.78 670.71 2723.2
-1007.06 659.80 2678.9
-987.60 660.72 2682.6
-994.14 679.45 2758.6
-939.52 646.77 2626.0
-919.94 647.37 2628.4
-925.33 656.02 2663.5
-933.09 666.50 2706.1
-937.82 674.94 2740.4
-914.19 662.96 2691.7
-894.82 653.91 2655.0
-917.63 675.77 2743.7
-920.70 683.33 2774.4
-870.98 667.28 2709.3
-857.77 662.50 2689.9
-1071.96 662.92 2720.2
-1106.33 688.71 2826.0
-1098.50 688.40 2824.7
-1075.92 678.77 2785.2
-1080.42 686.21 2815.8
-1072.96 686.11 2815.3
-1037.19 667.78 2740.1
-1023.72 663.65 2723.2
-1012.71 661.08 2712.6
-992.59 652.47 2677.3
-1009.01 667.93 2740.8
-983.76 665.28 2729.9
-923.62 638.39 2619.5
-929.77 647.40 2656.5
-920.07 645.42 2648.4
-924.07 653.10 2679.9
-924.44 658.31 2701.3
-924.71 663.53 2722.7
-930.47 672.80 2760.7
-909.78 662.94 2720.3
-876.97 654.25 2684.6
-864.93 650.43 2668.9
-855.05 648.19 2659.7
-871.55 666.06 2733.1
-1114.46 673.02 2791.3
-1082.45 671.12 2783.5
-1082.73 680.36 2821.8
-1049.89 664.22 2754.8
-1019.09 649.14 2692.3
-1007.78 646.37 2680.8
-1004.37 648.66 2690.3
-991.76 644.99 2675.1
-999.43 654.56 2714.7
-1010.93 666.78 2765.5
-1003.23 666.43 2764.0
-976.68 653.46 2710.2
-977.31 658.62 2731.6
-987.34 675.17 2800.2
-960.22 661.49 2743.5
-956.72 663.99 2753.9
-944.82 665.67 2760.8
-923.63 655.71 2719.5
-932.21 666.89 2765.9
-915.22 659.81 2736.5
-892.83 648.70 2690.4
-906.32 663.68 2752.6
-908.32 670.42 2780.6
-885.23 658.61 2731.6
-882.06 661.55 2743.8
-1119.53 673.18 2822.3
-1116.37 675.70 2832.9
-1107.47 674.75 2828.9
-1039.58 646.22 2709.3
-1035.49 648.06 2717.0
-1030.67 649.46 2722.9
-1020.67 647.60 2715.1
-1017.52 650.08 2725.5
-978.48 652.32 2734.9
-924.75 649.44 2722.8
-911.53 645.08 2704.5
-906.42 646.44 2710.2
-895.46 643.61 2698.4
-893.99 647.62 2715.2
-880.64 643.00 2695.8
-872.48 642.14 2692.2
-886.12 657.44 2756.4
-1109.81 668.83 2834.9
-1082.16 660.92 2801.4
-1033.81 635.65 2694.3
-1047.84 648.66 2749.4
-1054.36 657.17 2785.5
-1055.55 662.45 2807.9
-1046.07 665.68 2821.6
-1003.16 642.87 2724.9
-994.77 655.97 2780.4
-959.62 646.85 2741.8
-961.57 653.01 2767.8
-907.95 635.57 2693.9
-883.17 632.83 2682.3
-882.62 637.45 2701.9
-887.08 645.79 2737.3
-882.11 647.35 2743.9
-1044.83 635.37 2723.0
-1072.38 656.56 2813.8
-1023.25 648.54 2779.5
-1002.77 640.07 2743.1
-1002.12 644.22 2760.9
-992.11 642.37 2753.0
-997.92 650.82 2789.2
-988.56 654.20 2803.7
-920.75 613.84 2630.7
-918.06 621.24 2662.5
-911.90 626.50 2685.0
-915.77 643.90 2759.6
-928.52 658.01 2820.0
-887.35 644.05 2760.2
-1040.80 625.89 2712.5
-1071.34 653.08 2830.4
-1041.98 644.00 2791.0
-998.55 621.48 2693.4
-1002.83 628.54 2724.0
-1030.80 650.64 2819.8
-1009.30 641.62 2780.7
-980.35 627.71 2720.4
-971.76 626.72 2716.1
-975.61 633.79 2746.8
-953.33 623.87 2703.8
-916.62 613.37 2658.3
-956.92 645.19 2796.2
-916.45 622.63 2698.4
-902.27 622.49 2697.8
-939.32 653.12 2830.5
-927.17 649.75 2815.9
-924.48 653.01 2830.1
-906.67 645.55 2797.7
-1027.28 641.14 2810.2
-995.10 629.99 2761.3
-979.17 624.40 2736.8
-982.00 630.77 2764.7
-957.38 619.48 2715.3
-920.70 604.64 2650.2
-922.18 610.16 2674.4
-912.46 608.31 2666.3
-932.84 646.38 2833.1
-896.60 631.20 2766.6
-877.50 622.75 2729.6
-1004.35 606.79 2690.2
-999.89 608.32 2697.0
-984.57 603.22 2674.4
-1014.36 625.88 2774.8
-1005.87 629.58 2791.2
-972.08 612.83 2717.0
-957.93 608.32 2697.0
-960.14 614.21 2723.1
-946.71 610.10 2704.9
-938.82 609.53 2702.4
-924.87 604.99 2682.2
-944.17 631.87 2801.4
-911.82 634.63 2813.6
-1027.53 609.43 2733.3
-1050.03 627.10 2812.6
-1042.57 627.00 2812.1
-1025.97 621.36 2786.8
-997.05 608.13 2727.5
-957.93 592.67 2658.2
-944.67 597.36 2679.2
-933.93 594.95 2668.4
-927.72 595.40 2670.4
-940.65 608.24 2728.0
-931.75 607.05 2722.6
-940.56 627.04 2812.3
-935.62 633.57 2841.6
-920.73 628.43 2818.6
-1053.33 613.24 2782.8
-1024.10 613.02 2781.8
-980.29 603.80 2739.9
-945.21 599.57 2720.7
-932.21 600.29 2724.0
-925.22 600.33 2724.2
-910.38 604.55 2743.3
-908.53 608.07 2759.3
-1056.96 608.11 2792.4
-1062.65 615.60 2826.8
-1042.13 607.91 2791.4
-1035.08 612.30 2811.6
-1016.85 605.78 2781.7
-963.02 603.69 2772.0
-939.32 597.75 2744.8
-959.69 615.37 2825.7
-1020.56 592.35 2752.7
-1010.61 607.83 2824.7
-989.98 599.77 2787.2
-992.97 606.00 2816.2
-973.16 598.32 2780.5
-966.06 598.38 2780.8
-945.03 598.76 2782.5
-951.04 607.20 2821.8
-940.70 605.26 2812.7
-906.33 587.70 2731.1
-901.10 593.58 2758.5
-921.18 611.66 2842.5
-1041.91 589.22 2771.6
-1033.85 588.72 2769.3
-1018.15 592.11 2785.2
-1020.77 597.88 2812.3
-973.60 595.78 2802.5
-954.30 597.35 2809.8
-929.65 590.94 2779.7
-1052.75 588.09 2800.4
-1038.79 584.32 2782.5
-1014.89 587.18 2796.1
-996.80 580.87 2766.0
-973.11 583.87 2780.3
-977.92 591.13 2814.9
-980.32 597.04 2843.0
-925.74 581.28 2768.0
-902.93 575.88 2742.3
-1048.39 578.42 2788.8
-1036.87 576.04 2777.3
-1031.87 577.27 2783.3
-1026.50 578.31 2788.3
-1020.77 579.16 2792.4
-1007.65 575.80 2776.2
-1015.56 584.50 2818.1
-1008.73 584.77 2819.4
-972.97 568.16 2739.3
-968.91 569.95 2748.0
-986.54 593.41 2861.1
-938.25 568.64 2741.6
-936.58 571.96 2757.7
-929.83 572.20 2758.8
-933.02 578.61 2789.7
-941.00 588.13 2835.6
-1032.74 574.55 2805.2
-1016.13 581.70 2840.1
-1014.50 585.00 2856.2
-981.11 569.91 2782.6
-987.31 577.76 2820.9
-975.60 575.17 2808.2
-907.92 556.01 2714.7
-932.47 575.51 2809.9
-1010.23 558.85 2763.5
-1010.63 571.23 2824.8
-1013.31 576.92 2852.9
-979.59 561.83 2778.3
-967.96 559.27 2765.6
-943.11 574.70 2841.9
-1054.77 556.28 2786.6
-1016.68 551.30 2761.6
-1007.67 554.22 2776.2
-981.99 555.98 2785.1
-975.84 560.74 2808.9
-988.84 572.49 2867.8
-974.85 568.66 2848.6
-942.61 554.05 2775.4
-933.01 561.26 2811.5
-932.25 565.22 2831.4
-934.14 570.86 2859.6
-929.83 572.78 2869.2
-1036.83 554.92 2816.3
-1029.01 554.64 2814.9
-983.41 549.55 2789.1
-966.91 548.40 2783.2
-976.78 558.16 2832.8
-959.37 552.36 2803.3
-969.58 562.51 2854.8
-968.88 566.42 2874.7
-927.54 546.46 2773.4
-908.04 539.15 2736.3
-905.62 541.94 2750.5
-905.26 546.03 2771.2
-909.34 552.88 2806.0
-892.50 560.58 2845.1
-1023.83 552.42 2841.0
-1015.64 556.01 2859.5
-997.25 549.95 2828.3
-940.68 534.48 2748.7
-922.69 540.64 2780.4
-918.23 550.94 2833.4
-909.64 554.66 2852.5
-1035.30 543.35 2832.1
-1019.37 550.61 2870.0
-947.17 526.99 2746.9
-937.27 525.44 2738.8
-929.61 525.12 2737.1
-919.00 527.18 2747.8
-909.11 533.92 2783.0
-924.40 547.24 2852.4
-924.30 551.60 2875.1
-1026.88 535.44 2829.1
-1016.48 537.70 2841.1
-1001.02 533.39 2818.3
-988.62 534.58 2824.6
-969.54 536.18 2833.1
-929.98 538.80 2846.9
-906.63 533.74 2820.2
-1038.54 530.32 2841.0
-973.33 526.92 2822.8
-958.92 531.09 2845.1
-952.58 531.67 2848.2
-938.77 528.06 2828.9
-914.58 518.50 2777.7
-936.18 534.96 2865.9
-908.82 527.70 2827.0
-900.36 527.04 2823.4
-1010.19 515.99 2803.2
-1017.33 523.41 2843.5
-1000.21 518.36 2816.0
-959.93 512.44 2783.9
-972.27 522.96 2841.0
-944.73 512.03 2781.7
-930.48 512.12 2782.2
