ply
format ascii 1.0
element vertex 2108
property float x
property float y
property float z
end_header
231.59 -803.75 1751.5
240.32 -818.02 1782.6
240.54 -803.30 1750.5
279.15 -772.03 1682.4
283.11 -770.93 1680.0
307.16 -787.93 1717.0
305.63 -772.82 1684.1
306.91 -765.12 1667.3
312.12 -767.29 1672.1
343.87 -770.44 1678.9
360.30 -797.16 1737.2
359.96 -786.58 1714.1
364.89 -759.83 1655.8
371.99 -765.61 1668.4
378.96 -770.98 1680.1
407.64 -767.58 1672.7
432.09 -805.04 1754.3
436.50 -796.50 1735.7
442.65 -783.49 1707.4
440.74 -764.82 1666.7
461.63 -770.84 1679.8
474.29 -784.57 1709.7
473.40 -768.74 1675.2
482.99 -777.18 1693.6
490.39 -781.98 1704.1
494.47 -767.72 1673.0
511.58 -787.40 1715.9
526.27 -803.02 1749.9
526.77 -796.91 1736.6
498.75 -735.65 1603.1
529.74 -774.90 1688.6
542.62 -787.25 1715.5
536.70 -772.33 1683.0
533.99 -762.23 1661.0
539.65 -764.15 1665.2
552.45 -776.05 1691.2
557.33 -776.75 1692.7
569.25 -769.14 1676.1
589.55 -790.53 1722.7
594.14 -767.61 1672.8
596.52 -765.10 1667.3
615.36 -783.59 1707.6
628.76 -794.93 1732.3
623.03 -760.53 1657.3
659.89 -783.90 1708.2
678.49 -800.62 1744.7
667.76 -782.74 1705.7
660.21 -768.80 1675.4
671.03 -756.51 1648.6
670.94 -751.63 1637.9
728.00 -780.95 1701.8
742.04 -781.79 1703.7
761.18 -792.53 1727.1
754.43 -763.06 1662.8
799.52 -781.85 1703.8
802.03 -763.22 1663.2
831.05 -786.61 1714.2
796.29 -749.70 1633.7
856.12 -750.16 1634.7
869.05 -750.35 1635.2
871.18 -748.53 1631.2
903.86 -761.83 1660.2
917.11 -769.33 1676.5
891.09 -743.98 1621.3
927.61 -760.12 1656.4
906.61 -732.74 1596.8
958.66 -771.29 1680.8
970.40 -777.20 1693.7
946.50 -754.65 1644.5
941.98 -744.33 1622.0
957.44 -753.19 1641.3
954.87 -734.83 1601.3
960.46 -735.94 1603.7
988.87 -747.99 1630.0
1022.63 -770.24 1678.5
988.55 -735.18 1602.1
984.84 -729.36 1589.4
1027.86 -751.79 1638.3
1000.75 -728.94 1588.5
1014.64 -721.25 1571.7
1098.74 -771.74 1681.8
1115.28 -780.25 1700.3
1056.38 -736.14 1604.2
1068.17 -738.54 1609.4
1115.25 -753.43 1641.9
1134.13 -763.27 1663.3
1131.21 -752.73 1640.3
1105.53 -727.43 1585.2
1158.38 -759.38 1654.8
1150.15 -740.28 1613.2
1167.26 -748.57 1631.3
1168.04 -746.37 1626.5
1151.82 -733.35 1598.1
1146.47 -727.33 1585.0
1150.44 -727.24 1584.8
1157.71 -729.23 1589.1
1158.91 -727.40 1585.1
1170.63 -732.16 1595.5
1220.76 -760.83 1658.0
1242.68 -771.77 1681.8
1192.63 -722.93 1575.4
1153.92 -697.08 1519.1
1192.80 -706.11 1538.7
1173.53 -692.38 1508.8
1321.44 -756.94 1649.5
1411.53 -805.94 1756.3
1389.01 -788.00 1717.2
1321.26 -747.17 1628.2
1393.58 -785.56 1711.9
1425.65 -801.08 1745.7
1375.41 -770.40 1678.8
1386.39 -771.67 1681.6
1416.82 -786.13 1713.1
-1617.98 -917.20 1987.5
-1662.20 -948.31 2054.9
-1657.55 -948.69 2055.8
-1601.99 -928.84 2012.7
-1667.52 -970.00 2101.9
-1633.38 -962.72 2086.1
-1611.17 -955.96 2071.5
-1527.57 -934.39 2024.8
-1525.68 -936.45 2029.2
-1545.71 -952.03 2063.0
-1511.77 -961.05 2082.5
-1468.19 -943.46 2044.4
-1401.27 -903.72 1958.3
-1386.28 -897.30 1944.4
-1384.35 -899.32 1948.8
-1346.72 -878.08 1902.7
-1352.39 -885.02 1917.8
-1300.31 -863.64 1871.4
-1350.05 -900.03 1950.3
-1318.29 -882.16 1911.6
-1241.76 -840.43 1821.2
-1282.96 -871.63 1888.8
-1239.62 -845.41 1832.0
-1223.12 -837.36 1814.5
-1257.69 -864.36 1873.0
-1224.56 -844.85 1830.7
-1128.43 -781.56 1693.6
-1122.11 -780.22 1690.7
-1223.94 -857.72 1858.6
-1186.10 -834.49 1808.3
-1140.17 -811.80 1759.1
-1131.21 -808.66 1752.3
-1086.99 -780.18 1690.6
-1088.24 -784.24 1699.4
-1094.96 -792.29 1716.8
-1104.81 -812.63 1760.9
-1117.65 -825.48 1788.8
-1098.88 -815.01 1766.1
-1085.11 -808.16 1751.2
-1086.72 -823.13 1783.7
-1083.47 -827.71 1793.6
-1041.42 -802.48 1738.9
-1038.41 -803.64 1741.4
-1001.50 -785.32 1701.7
-1004.45 -794.63 1721.9
-1038.27 -825.05 1787.8
-1049.05 -837.36 1814.5
-1007.84 -808.09 1751.1
-998.43 -826.60 1791.2
-965.03 -802.69 1739.4
-953.36 -796.71 1726.4
-957.82 -804.21 1742.7
-966.65 -815.47 1767.1
-984.24 -834.26 1807.8
-998.57 -850.46 1842.9
-950.30 -813.24 1762.2
-926.77 -800.80 1735.3
-927.90 -805.69 1745.9
-902.15 -787.17 1705.7
-913.64 -801.12 1736.0
-953.34 -840.08 1820.4
-937.94 -830.61 1799.9
-893.66 -795.36 1723.5
-909.93 -813.91 1763.7
-929.84 -835.91 1811.4
-896.10 -809.68 1754.5
-873.05 -813.63 1763.1
-883.12 -827.35 1792.8
-854.45 -804.72 1743.8
-817.01 -781.87 1694.3
-832.49 -800.99 1735.7
-838.24 -810.90 1757.2
-843.50 -820.45 1777.9
-854.57 -835.79 1811.1
-839.23 -825.32 1788.4
-818.52 -818.52 1773.7
-791.15 -795.62 1724.0
-782.36 -791.25 1714.6
-788.08 -801.59 1737.0
-786.88 -804.97 1744.3
-795.07 -818.05 1772.7
-795.25 -822.99 1783.4
-754.14 -808.65 1752.3
-761.41 -821.40 1779.9
-753.44 -817.76 1772.0
-750.51 -819.58 1776.0
-730.81 -802.99 1740.0
-718.61 -804.48 1743.3
-745.31 -839.66 1819.5
-723.14 -819.87 1776.6
-693.92 -791.78 1715.7
-680.95 -787.07 1705.5
-702.45 -817.23 1770.9
-717.25 -839.93 1820.1
-698.70 -834.69 1808.7
-652.33 -795.30 1723.4
-642.84 -789.14 1710.0
-643.57 -806.72 1748.1
-623.42 -787.01 1705.4
-627.88 -798.31 1729.9
-642.49 -822.76 1782.9
-626.15 -813.53 1762.9
-632.06 -827.26 1792.6
-625.42 -824.63 1786.9
-625.42 -830.78 1800.2
-612.21 -819.34 1775.5
-611.27 -824.29 1786.2
-607.34 -825.24 1788.2
-618.91 -847.43 1836.3
-614.80 -854.95 1852.6
-581.17 -814.56 1765.1
-531.72 -782.20 1695.0
-540.70 -802.04 1738.0
-536.52 -802.53 1739.0
-540.09 -821.68 1780.5
-528.42 -810.86 1757.1
-509.29 -788.29 1708.2
-506.71 -791.18 1714.4
-489.37 -799.15 1731.7
-495.26 -816.25 1768.8
-504.13 -838.65 1817.3
-504.54 -847.25 1835.9
-472.46 -800.94 1735.6
-453.64 -791.65 1715.4
-455.52 -819.02 1774.8
-458.12 -832.10 1803.1
-459.91 -843.96 1828.8
-451.88 -837.85 1815.6
-439.54 -823.55 1784.6
-440.31 -833.78 1806.8
-441.19 -844.43 1829.8
-429.89 -831.74 1802.3
-412.64 -807.15 1749.0
-362.19 -816.08 1768.4
-340.60 -808.35 1751.6
-335.68 -807.44 1749.7
-325.85 -794.54 1721.7
-309.75 -799.07 1731.5
-309.01 -808.88 1752.8
-298.03 -791.79 1715.8
-290.47 -783.38 1697.5
-299.93 -821.35 1779.8
-299.89 -834.07 1807.4
-282.84 -799.12 1731.6
-272.05 -793.85 1720.2
-278.31 -825.65 1789.1
-276.65 -834.63 1808.6
-267.85 -822.02 1781.3
-267.04 -833.91 1807.0
-264.66 -841.23 1822.9
-250.89 -811.98 1759.5
-240.43 -807.47 1749.7
-236.56 -809.78 1754.7
-233.27 -814.17 1764.2
-223.85 -796.91 1726.9
-206.08 -780.47 1691.2
-201.72 -816.07 1768.4
-198.80 -822.93 1783.2
-189.60 -803.53 1741.2
-179.52 -798.88 1731.1
-173.61 -792.38 1717.0
-149.83 -784.40 1699.7
-153.66 -828.83 1796.0
-148.28 -824.80 1787.3
-138.65 -796.11 1725.1
-133.00 -789.14 1710.0
-120.77 -796.20 1725.3
-98.73 -798.83 1731.0
-92.97 -788.04 1707.6
-86.46 -809.99 1755.2
-82.98 -820.53 1778.0
-73.17 -813.99 1763.9
-68.99 -818.67 1774.0
-63.18 -803.24 1740.6
-59.40 -813.35 1762.5
-56.56 -838.95 1818.0
-50.50 -817.23 1770.9
-45.30 -806.38 1747.4
-40.75 -806.00 1746.6
-35.23 -783.84 1698.5
-31.21 -793.51 1719.5
9.06 -806.18 1746.9
18.83 -837.99 1815.9
22.75 -809.90 1755.0
26.96 -799.82 1733.2
31.70 -806.08 1746.7
36.60 -814.42 1764.8
48.48 -784.55 1700.1
54.36 -806.28 1747.2
59.59 -815.86 1767.9
63.60 -808.68 1752.4
65.78 -780.56 1691.4
85.43 -800.36 1734.3
89.40 -795.67 1724.2
93.27 -790.55 1713.1
95.73 -774.56 1678.4
103.22 -765.58 1659.0
108.74 -774.26 1677.8
137.63 -790.26 1712.4
143.32 -797.22 1727.5
146.92 -792.48 1717.3
150.55 -788.16 1707.9
162.61 -782.27 1695.1
164.65 -771.26 1671.3
193.53 -820.20 1777.3
201.11 -813.57 1762.9
204.89 -810.45 1756.2
208.64 -807.33 1749.4
253.87 -792.80 1717.9
266.36 -817.46 1771.4
271.01 -817.61 1771.7
271.73 -806.15 1746.9
266.37 -777.26 1684.3
271.83 -768.04 1664.3
286.18 -795.95 1724.8
289.95 -794.01 1720.6
304.74 -797.71 1728.6
309.91 -799.48 1732.4
306.15 -778.51 1687.0
306.12 -767.47 1663.0
310.15 -766.76 1661.5
331.38 -786.48 1704.3
350.31 -789.30 1710.4
351.44 -781.97 1694.5
371.41 -777.78 1685.4
382.16 -790.98 1714.0
391.84 -801.70 1737.2
384.40 -777.53 1684.8
416.76 -789.19 1710.1
424.04 -794.52 1721.7
426.31 -790.44 1712.8
421.62 -773.70 1676.6
432.86 -755.38 1636.9
435.46 -752.54 1630.7
470.98 -769.12 1666.6
484.80 -784.50 1700.0
490.95 -787.30 1706.0
489.99 -778.74 1687.5
475.06 -748.32 1621.6
492.04 -761.59 1650.3
506.82 -777.71 1685.3
520.98 -792.60 1717.5
509.32 -768.30 1664.8
518.84 -763.26 1653.9
516.46 -753.52 1632.8
526.20 -761.50 1650.1
542.56 -766.48 1660.9
540.21 -757.15 1640.7
592.08 -769.27 1666.9
590.73 -761.96 1651.1
605.80 -775.77 1681.0
616.93 -784.38 1699.7
615.23 -776.67 1683.0
670.94 -780.57 1691.4
684.70 -791.40 1714.9
683.48 -784.90 1700.8
694.61 -792.56 1717.4
687.09 -778.99 1688.0
704.21 -759.69 1646.2
719.20 -771.19 1671.1
764.66 -815.03 1766.1
753.17 -798.01 1729.2
749.45 -780.13 1690.5
757.35 -783.77 1698.4
749.06 -770.71 1670.1
754.66 -772.01 1672.9
791.89 -805.46 1745.4
811.83 -821.05 1779.2
779.33 -774.97 1679.3
795.51 -786.67 1704.7
797.29 -784.07 1699.0
790.38 -773.01 1675.1
786.13 -752.32 1630.2
825.59 -777.54 1684.9
844.34 -791.01 1714.1
868.89 -789.10 1709.9
858.36 -745.31 1615.0
892.30 -771.01 1670.7
915.07 -743.76 1611.7
946.42 -765.74 1659.3
965.50 -777.64 1685.1
950.40 -762.04 1651.3
977.30 -773.15 1675.4
974.11 -767.22 1662.5
976.99 -766.10 1660.1
985.54 -769.41 1667.3
1018.95 -771.80 1672.4
1020.33 -769.57 1667.6
1024.31 -762.87 1653.1
1033.46 -766.48 1660.9
1009.09 -745.30 1615.0
1015.22 -746.73 1618.1
1012.92 -741.98 1607.8
1026.54 -733.83 1590.2
1097.94 -775.53 1680.5
1074.09 -752.71 1631.1
1119.18 -760.36 1647.6
1116.48 -755.64 1637.4
1136.96 -766.59 1661.1
1169.70 -785.69 1702.5
1145.28 -766.39 1660.7
1178.90 -774.33 1677.9
1173.36 -767.86 1663.9
1175.98 -761.18 1649.4
1185.52 -764.58 1656.8
1184.71 -761.30 1649.7
1166.90 -747.15 1619.0
1161.60 -741.09 1605.9
1167.26 -742.04 1608.0
1175.12 -744.38 1613.0
1176.92 -742.88 1609.8
1157.64 -728.13 1577.8
1233.14 -741.55 1606.9
1202.71 -720.82 1562.0
1174.17 -699.01 1514.7
1218.90 -723.22 1567.2
1247.35 -720.87 1562.1
1280.59 -737.68 1598.5
1337.52 -768.00 1664.2
1413.58 -809.06 1753.2
1344.91 -767.29 1662.7
1332.66 -755.46 1637.0
1396.16 -788.94 1709.6
1376.33 -775.27 1680.0
1376.89 -768.30 1664.9
-1681.78 -961.78 2072.5
-1701.95 -976.44 2104.1
-1639.95 -943.90 2033.9
-1632.88 -967.84 2085.5
-1617.73 -962.04 2073.0
-1589.96 -961.50 2071.9
-1558.25 -948.73 2044.4
-1538.18 -949.43 2045.9
-1524.99 -944.55 2035.3
-1546.61 -961.26 2071.4
-1506.00 -939.28 2024.0
-1521.37 -952.18 2051.8
-1571.15 -986.79 2126.4
-1532.35 -965.81 2081.2
-1510.88 -955.64 2059.3
-1544.81 -984.06 2120.5
-1367.09 -886.62 1910.5
-1416.27 -921.86 1986.5
-1409.38 -920.73 1984.0
-1370.63 -898.69 1936.5
-1401.55 -922.34 1987.5
-1396.28 -922.26 1987.3
-1320.53 -888.63 1914.8
-1321.19 -892.43 1923.0
-1242.17 -842.23 1814.9
-1263.49 -859.94 1853.0
-1285.71 -878.41 1892.8
-1230.88 -844.17 1819.0
-1242.22 -858.52 1850.0
-1238.20 -859.06 1851.1
-1104.87 -791.09 1704.7
-1094.00 -786.45 1694.7
-1119.58 -811.36 1748.3
-1128.71 -821.29 1769.7
-1106.29 -808.27 1741.7
-1092.45 -801.43 1726.9
-1092.55 -804.80 1734.2
-1094.10 -809.27 1743.8
-1065.62 -794.77 1712.6
-1050.98 -787.13 1696.1
-1066.19 -801.88 1727.9
-1095.88 -827.69 1783.5
-1099.14 -833.67 1796.4
-1114.92 -849.24 1830.0
-1076.88 -827.30 1782.7
-1040.75 -802.99 1730.3
-1062.59 -823.39 1774.3
-1057.60 -823.09 1773.6
-1018.95 -796.47 1716.3
-986.20 -788.08 1698.2
-1002.89 -808.64 1742.5
-991.49 -803.07 1730.5
-949.37 -779.53 1679.8
-954.10 -787.02 1695.9
-996.35 -825.68 1779.2
-946.29 -791.52 1705.6
-926.63 -778.72 1678.0
-940.11 -793.77 1710.4
-958.33 -812.99 1751.9
-940.07 -801.29 1726.7
-966.43 -835.70 1800.8
-966.14 -839.51 1809.0
-943.23 -823.60 1774.7
-906.01 -798.90 1721.5
-941.42 -834.23 1797.6
-925.22 -823.95 1775.5
-891.23 -797.65 1718.8
-914.28 -822.39 1772.1
-932.46 -842.98 1816.5
-895.79 -813.95 1753.9
-848.56 -791.10 1704.7
-841.60 -788.73 1699.6
-853.43 -804.02 1732.5
-845.78 -809.60 1744.5
-855.61 -823.41 1774.3
-855.73 -827.98 1784.2
-860.18 -836.80 1803.2
-864.93 -846.03 1823.0
-850.31 -836.30 1802.1
-796.24 -805.24 1735.2
-784.76 -798.13 1719.8
-787.80 -805.80 1736.4
-786.59 -809.19 1743.7
-794.40 -821.95 1771.2
-796.45 -828.87 1786.1
-745.36 -798.92 1721.5
-777.49 -838.38 1806.6
-783.55 -850.03 1831.7
-758.55 -827.93 1784.0
-738.77 -811.29 1748.2
-751.19 -830.02 1788.5
-768.38 -854.29 1840.8
-742.37 -830.52 1789.6
-735.15 -827.62 1783.4
-755.47 -855.88 1844.3
-729.09 -831.26 1791.2
-706.06 -810.16 1745.7
-711.99 -832.99 1794.9
-717.63 -845.10 1821.1
-722.81 -856.84 1846.3
-713.96 -857.71 1848.2
-679.77 -822.16 1771.6
-669.46 -815.20 1756.6
-675.13 -827.73 1783.6
-651.63 -804.42 1733.4
-640.37 -801.58 1727.3
-660.42 -832.50 1793.9
-640.80 -813.50 1753.0
-622.01 -795.28 1713.7
-609.26 -801.89 1727.9
-621.85 -830.68 1790.0
-631.96 -850.53 1832.7
-613.69 -832.20 1793.2
-592.96 -810.22 1745.9
-592.03 -815.19 1756.6
-601.51 -834.65 1798.5
-603.87 -844.47 1819.7
-597.53 -842.19 1814.8
-524.78 -809.79 1745.0
-518.22 -806.61 1738.1
-508.32 -798.15 1719.9
-489.38 -811.10 1747.8
-500.49 -837.27 1804.2
-495.37 -836.51 1802.5
-454.62 -797.81 1719.1
-461.49 -817.89 1762.4
-453.73 -812.17 1750.1
-451.69 -816.70 1759.8
-450.95 -823.68 1774.9
-448.81 -828.21 1784.6
-449.47 -838.07 1805.9
-445.67 -839.73 1809.5
-442.06 -841.79 1813.9
-438.64 -844.26 1819.2
-403.58 -811.69 1749.1
-386.94 -814.84 1755.8
-382.94 -816.03 1758.4
-382.19 -824.25 1776.1
-362.57 -811.26 1748.1
-365.68 -828.57 1785.4
-361.57 -829.75 1788.0
-349.24 -811.87 1749.4
-337.14 -804.65 1733.9
-334.32 -808.70 1742.6
-327.23 -802.39 1729.0
-324.88 -807.68 1740.4
-321.64 -810.90 1747.3
-315.28 -806.22 1737.3
-311.85 -809.01 1743.3
-309.50 -814.72 1755.6
-296.81 -792.98 1708.7
-286.66 -777.45 1675.3
-293.45 -808.10 1741.3
-293.65 -821.29 1769.7
-272.31 -812.39 1750.6
-265.80 -806.40 1737.7
-261.10 -805.82 1736.4
-231.60 -797.24 1717.9
-228.76 -802.90 1730.1
-223.75 -801.03 1726.1
-219.91 -803.34 1731.1
-192.57 -783.42 1688.1
-186.19 -812.88 1751.6
-180.38 -807.19 1739.4
-147.93 -778.80 1678.2
-148.56 -805.81 1736.4
-145.28 -812.67 1751.2
-137.42 -793.50 1709.8
-114.80 -790.34 1703.0
-113.04 -809.36 1744.0
-105.71 -788.45 1699.0
-99.15 -806.73 1738.4
-94.21 -803.04 1730.4
-85.08 -801.54 1727.2
-81.24 -807.93 1740.9
-57.57 -792.71 1708.1
-55.21 -823.48 1774.5
-49.75 -809.64 1744.6
-43.59 -780.23 1681.3
0.00 -816.65 1759.7
4.56 -815.81 1757.9
8.85 -792.23 1707.1
13.16 -785.48 1692.6
17.96 -803.56 1731.5
22.46 -803.97 1732.4
27.02 -806.05 1736.9
32.21 -823.69 1774.9
36.76 -822.40 1772.1
39.72 -789.95 1702.2
53.46 -797.39 1718.2
63.87 -816.63 1759.7
68.67 -819.51 1765.9
73.13 -818.18 1763.0
78.42 -825.67 1779.2
80.36 -799.10 1721.9
82.36 -775.88 1671.9
86.40 -773.28 1666.3
97.55 -793.70 1710.3
104.83 -815.88 1758.1
107.12 -798.96 1721.6
108.93 -779.94 1680.6
111.87 -770.17 1659.6
143.53 -778.53 1677.6
148.33 -780.90 1682.7
171.98 -789.34 1700.9
178.97 -800.91 1725.8
187.73 -819.58 1766.1
194.72 -829.87 1788.2
194.08 -807.90 1740.9
194.43 -790.96 1704.4
202.37 -805.00 1734.6
211.12 -821.54 1770.3
215.77 -821.75 1770.7
219.18 -817.35 1761.3
221.40 -808.77 1742.8
219.31 -785.14 1691.8
247.56 -791.30 1705.1
260.93 -819.42 1765.7
264.75 -817.08 1760.7
260.44 -790.14 1702.6
267.84 -799.05 1721.8
268.66 -788.37 1698.8
264.32 -763.12 1644.4
293.85 -785.07 1691.7
301.76 -794.35 1711.7
304.17 -789.07 1700.3
300.01 -767.18 1653.1
299.90 -756.09 1629.2
312.19 -776.14 1672.4
325.20 -797.41 1718.3
323.01 -781.33 1683.6
327.42 -781.44 1683.9
336.93 -793.55 1710.0
338.19 -786.18 1694.1
373.87 -778.16 1676.8
388.46 -799.25 1722.2
394.77 -803.00 1730.3
394.36 -793.15 1709.1
406.80 -782.99 1687.2
418.31 -796.58 1716.5
413.61 -779.34 1679.3
412.03 -768.27 1655.5
442.95 -777.34 1675.0
446.11 -775.29 1670.6
465.08 -763.75 1645.8
483.10 -786.14 1694.0
493.53 -795.87 1715.0
485.46 -775.88 1671.9
478.28 -750.98 1618.2
514.30 -800.52 1725.0
509.25 -785.83 1693.3
503.25 -769.94 1659.1
500.56 -759.33 1636.2
539.52 -772.59 1664.8
544.06 -772.91 1665.5
603.56 -771.69 1662.9
626.96 -795.92 1715.1
662.99 -770.62 1660.5
695.90 -803.65 1731.7
701.24 -804.62 1733.8
688.22 -784.66 1690.8
686.37 -767.88 1654.6
747.02 -795.93 1715.1
784.02 -825.53 1778.9
768.96 -804.94 1734.5
783.18 -805.69 1736.1
790.08 -808.14 1741.4
778.57 -787.36 1696.6
769.26 -756.58 1630.3
773.62 -756.71 1630.6
774.80 -753.74 1624.2
785.92 -760.43 1638.6
829.35 -789.64 1701.5
848.87 -803.96 1732.4
847.31 -798.26 1720.1
871.61 -800.10 1724.1
823.81 -752.36 1621.2
878.87 -774.96 1669.9
864.55 -751.24 1618.8
906.46 -783.85 1689.1
903.38 -773.71 1667.2
869.42 -727.22 1567.0
936.49 -761.96 1641.9
951.83 -770.94 1661.3
945.50 -762.36 1642.8
995.28 -771.23 1661.9
994.23 -763.80 1645.9
978.70 -748.66 1613.2
1008.99 -768.55 1656.1
1003.06 -760.79 1639.4
1003.94 -751.91 1620.2
1040.06 -775.71 1671.5
1040.88 -773.10 1665.9
1011.00 -747.81 1611.4
1014.61 -735.28 1584.4
1054.95 -761.44 1640.8
1085.41 -780.27 1681.4
1079.02 -772.58 1664.8
1067.99 -761.63 1641.2
1067.06 -757.95 1633.3
1042.58 -737.64 1589.5
1105.89 -770.25 1659.8
1140.26 -788.06 1698.1
1118.95 -770.35 1660.0
1147.19 -786.77 1695.3
1122.57 -766.95 1652.6
1093.59 -744.30 1603.8
1124.54 -762.47 1643.0
1163.58 -785.96 1693.6
1164.57 -780.74 1682.4
1139.96 -761.39 1640.7
1187.31 -775.65 1671.4
1183.85 -770.58 1660.5
1189.05 -771.16 1661.7
1184.44 -765.40 1649.3
1162.26 -748.36 1612.6
1155.31 -741.22 1597.2
1172.25 -744.09 1603.4
1198.95 -758.35 1634.1
1183.00 -745.62 1606.7
1196.17 -738.33 1591.0
1232.30 -758.01 1633.4
1247.07 -764.47 1647.3
1209.12 -738.67 1591.7
1246.61 -756.42 1630.0
1238.04 -748.68 1613.3
1217.11 -728.64 1570.1
1266.52 -755.69 1628.4
1256.63 -747.30 1610.3
1213.08 -719.01 1549.3
1249.23 -735.57 1585.0
1270.01 -745.35 1606.1
1234.21 -721.97 1555.7
1232.76 -718.78 1548.8
1245.95 -724.11 1560.3
1255.66 -727.39 1567.4
1283.12 -736.15 1586.3
1361.66 -778.72 1678.0
1327.65 -756.85 1630.9
1327.14 -751.77 1619.9
1375.27 -776.57 1673.4
1388.23 -781.43 1683.8
1334.62 -748.89 1613.7
-1686.07 -972.73 2084.4
-1630.83 -965.63 2069.2
-1639.45 -973.93 2087.0
-1577.41 -940.18 2014.7
-1522.67 -925.95 1984.2
-1609.49 -985.40 2111.6
-1581.95 -978.53 2096.8
-1552.90 -963.87 2065.4
-1531.82 -954.08 2044.5
-1547.24 -967.03 2072.2
-1522.31 -954.76 2045.9
-1554.35 -978.26 2096.3
-1580.69 -1001.85 2146.8
-1513.16 -962.44 2062.4
-1486.27 -962.33 2062.1
-1461.79 -949.90 2035.5
-1484.74 -968.31 2074.9
-1473.35 -964.37 2066.5
-1404.61 -922.73 1977.3
-1298.96 -865.97 1855.7
-1330.24 -890.13 1907.4
-1407.16 -945.11 2025.2
-1293.40 -871.95 1868.5
-1310.73 -890.31 1907.8
-1307.69 -891.61 1910.6
-1235.77 -845.78 1812.4
-1220.31 -844.83 1810.4
-1221.05 -848.60 1818.4
-1158.84 -811.64 1739.2
-1166.35 -820.09 1757.3
-1203.60 -849.60 1820.6
-1164.76 -825.42 1768.8
-1106.83 -793.74 1700.9
-1182.55 -851.44 1824.5
-1117.43 -807.78 1731.0
-1091.84 -798.91 1711.9
-1066.06 -783.23 1678.3
-1045.88 -771.55 1653.3
-1071.90 -794.00 1701.4
-1102.17 -819.80 1756.7
-1066.83 -803.47 1721.7
-1095.16 -828.27 1774.9
-1099.92 -835.38 1790.1
-1078.91 -822.90 1763.4
-1032.84 -797.90 1709.8
-1062.93 -824.68 1767.2
-1034.59 -806.17 1727.5
-1035.72 -821.28 1759.9
-973.90 -789.65 1692.1
-1005.93 -819.31 1755.7
-1006.01 -823.10 1763.8
-1006.06 -826.90 1771.9
-988.29 -816.02 1748.6
-966.98 -802.10 1718.8
-979.73 -816.44 1749.5
-948.24 -808.92 1733.4
-919.73 -799.77 1713.8
-921.36 -805.07 1725.2
-919.47 -807.34 1730.0
-898.97 -793.21 1699.7
-884.62 -784.39 1680.8
-904.21 -805.74 1726.6
-915.50 -819.85 1756.8
-909.65 -818.68 1754.3
-912.69 -825.55 1769.0
-910.61 -827.83 1773.9
-875.52 -838.27 1796.3
-857.89 -843.82 1808.2
-822.47 -813.44 1743.1
-797.47 -806.43 1728.1
-811.31 -825.06 1768.0
-834.15 -853.11 1828.1
-808.42 -831.52 1781.8
-776.84 -803.63 1722.1
-773.77 -805.07 1725.2
-746.55 -804.66 1724.3
-768.10 -832.88 1784.7
-783.96 -855.23 1832.6
-768.68 -843.67 1807.9
-753.51 -832.09 1783.1
-769.75 -855.27 1832.7
-763.11 -853.17 1828.2
-716.39 -805.94 1727.0
-700.17 -797.66 1709.3
-681.39 -781.21 1674.0
-702.21 -820.77 1758.8
-701.90 -825.76 1769.5
-688.41 -815.23 1746.9
-669.68 -798.29 1710.6
-676.65 -817.43 1751.6
-683.11 -830.81 1780.3
-662.85 -817.22 1751.2
-668.14 -829.41 1777.3
-662.72 -828.40 1775.2
-654.77 -824.18 1766.1
-644.32 -816.74 1750.2
-638.03 -814.51 1745.4
-632.07 -812.67 1741.4
-621.48 -804.79 1724.6
-606.33 -820.60 1758.4
-601.29 -819.93 1757.0
-592.42 -814.01 1744.3
-602.60 -834.37 1787.9
-598.64 -835.32 1790.0
-588.63 -827.76 1773.8
-601.28 -852.20 1826.2
-590.11 -843.02 1806.5
-539.40 -789.37 1691.5
-536.88 -812.09 1740.2
-540.18 -824.00 1765.7
-539.37 -829.79 1778.1
-536.13 -831.92 1782.7
-515.65 -807.11 1729.5
-495.22 -788.84 1690.4
-482.23 -811.23 1738.3
-489.59 -831.37 1781.5
-481.40 -825.26 1768.4
-476.13 -824.07 1765.9
-455.81 -796.56 1706.9
-453.02 -799.46 1713.1
-461.98 -823.33 1764.3
-455.82 -820.47 1758.2
-446.06 -811.01 1737.9
-430.56 -807.31 1729.9
-429.56 -813.90 1744.1
-428.70 -820.92 1759.1
-432.03 -836.19 1791.8
-413.86 -809.73 1735.1
-392.17 -802.17 1718.9
-390.90 -808.75 1733.0
-400.84 -838.97 1797.8
-399.49 -845.98 1812.8
-390.32 -836.41 1792.3
-381.06 -826.40 1770.9
-364.34 -799.77 1713.8
-357.85 -815.35 1747.2
-361.04 -833.17 1785.4
-356.02 -832.26 1783.4
-351.02 -831.35 1781.5
-320.39 -800.98 1716.4
-314.58 -797.54 1709.0
-300.35 -783.53 1679.0
-295.95 -783.40 1678.7
-303.52 -815.43 1747.4
-312.58 -852.50 1826.8
-306.90 -849.87 1821.2
-295.59 -831.35 1781.5
-282.87 -808.21 1731.9
-276.89 -803.88 1722.6
-276.91 -817.12 1751.0
-274.28 -822.84 1763.2
-260.59 -795.04 1703.6
-248.87 -814.47 1745.3
-245.30 -817.65 1752.1
-238.23 -809.08 1733.7
-231.98 -803.01 1720.7
-232.46 -820.45 1758.1
-230.30 -829.08 1776.6
-220.61 -810.39 1736.6
-194.44 -795.44 1704.5
-187.36 -802.97 1720.6
-182.94 -803.15 1721.0
-152.92 -786.45 1685.3
-150.01 -794.19 1701.8
-150.65 -821.74 1760.9
-147.16 -827.79 1773.8
-139.83 -811.90 1739.8
-134.50 -806.98 1729.2
-130.85 -812.17 1740.4
-126.49 -813.14 1742.4
-120.22 -801.45 1717.4
-116.76 -808.32 1732.1
-114.86 -827.01 1772.2
-107.24 -804.32 1723.5
-95.34 -780.03 1671.5
-95.05 -814.76 1745.9
-92.09 -828.79 1776.0
-85.80 -812.82 1741.8
-51.85 -777.80 1666.7
-48.31 -790.53 1694.0
-43.80 -788.46 1689.6
-38.90 -777.94 1667.0
-17.90 -805.56 1726.2
-13.64 -818.26 1753.4
4.46 -803.48 1721.7
8.91 -801.78 1718.1
27.64 -829.20 1776.8
32.66 -839.74 1799.4
37.00 -832.51 1784.0
39.89 -797.81 1709.6
48.36 -791.38 1695.8
78.02 -826.08 1770.2
80.23 -802.34 1719.3
82.45 -781.14 1673.9
104.89 -820.89 1759.1
109.49 -821.21 1759.7
110.35 -794.50 1702.5
117.62 -784.15 1680.3
125.37 -805.97 1727.1
130.78 -811.75 1739.5
134.43 -806.56 1728.3
151.69 -780.13 1671.7
154.14 -770.71 1651.5
172.27 -795.08 1703.7
174.12 -783.54 1679.0
180.73 -793.47 1700.3
185.69 -795.81 1705.3
190.67 -798.15 1710.3
196.19 -802.59 1719.8
200.07 -800.29 1714.9
204.47 -800.09 1714.5
209.74 -803.25 1721.3
213.58 -800.94 1716.3
216.49 -795.27 1704.1
241.02 -803.39 1721.5
246.69 -807.34 1730.0
255.92 -822.61 1762.7
263.95 -791.85 1696.8
271.38 -800.80 1716.0
273.43 -793.84 1701.1
283.05 -783.82 1679.6
302.78 -825.75 1769.5
301.03 -808.75 1733.0
302.26 -800.10 1714.5
307.71 -802.73 1720.1
306.05 -786.99 1686.4
302.57 -767.09 1643.8
325.22 -801.92 1718.4
324.93 -790.36 1693.6
316.69 -760.06 1628.7
385.19 -806.22 1727.6
396.30 -819.94 1757.0
399.86 -817.90 1752.6
393.78 -796.41 1706.6
392.95 -768.81 1647.5
403.86 -781.66 1675.0
412.74 -773.89 1658.3
469.50 -782.49 1676.8
475.56 -785.33 1682.9
481.15 -787.34 1687.2
491.81 -797.53 1709.0
484.76 -779.08 1669.5
508.88 -803.50 1721.8
514.04 -797.65 1709.3
530.29 -763.62 1636.3
540.72 -772.46 1655.3
539.52 -764.67 1638.6
582.44 -806.46 1728.1
580.36 -797.44 1708.8
598.47 -803.91 1722.7
599.51 -799.34 1712.9
626.71 -800.06 1714.4
621.38 -776.73 1664.4
624.57 -770.02 1650.0
631.98 -773.86 1658.3
640.42 -778.89 1669.0
653.86 -789.89 1692.6
650.45 -780.54 1672.6
653.97 -779.56 1670.5
713.19 -792.43 1698.1
708.09 -781.94 1675.6
747.48 -800.87 1716.2
754.51 -794.22 1701.9
754.94 -790.05 1693.0
794.47 -826.62 1771.3
799.92 -827.51 1773.2
763.93 -785.76 1683.8
794.78 -777.50 1666.1
805.99 -784.21 1680.4
766.80 -742.07 1590.1
805.04 -762.67 1634.3
825.76 -778.20 1667.6
851.86 -790.38 1693.7
836.75 -772.38 1655.1
803.06 -737.51 1580.4
859.33 -777.28 1665.6
859.66 -743.94 1594.1
864.75 -744.76 1595.9
857.91 -735.35 1575.7
924.74 -767.06 1643.7
905.45 -740.83 1587.5
943.72 -768.64 1647.1
957.25 -776.15 1663.2
938.36 -757.42 1623.0
961.30 -769.04 1647.9
976.36 -777.63 1666.4
961.37 -762.32 1633.5
974.48 -759.34 1627.2
969.60 -752.28 1612.0
989.52 -761.17 1631.1
992.76 -760.41 1629.5
995.57 -746.67 1600.0
1036.65 -774.26 1659.1
1044.35 -776.79 1664.5
997.53 -738.91 1583.4
1076.83 -781.57 1674.8
1092.91 -786.90 1686.2
1043.84 -748.57 1604.1
1038.12 -732.79 1570.3
1101.46 -762.55 1634.0
1118.66 -771.49 1653.2
1086.64 -746.55 1599.7
1084.21 -739.23 1584.1
1145.31 -777.94 1667.0
1171.71 -789.92 1692.7
1164.57 -762.26 1633.4
1209.99 -789.12 1691.0
1201.61 -780.83 1673.2
1174.03 -760.17 1628.9
1173.65 -749.14 1605.3
1209.20 -769.10 1648.1
1204.39 -763.35 1635.7
1212.88 -766.03 1641.5
1212.47 -763.09 1635.2
1210.36 -759.11 1626.7
1204.28 -752.68 1612.9
1234.11 -768.65 1647.1
1261.95 -780.59 1672.7
1201.50 -738.12 1581.7
1229.85 -752.97 1613.5
1210.55 -728.76 1561.6
1250.13 -750.08 1607.3
1253.49 -749.59 1606.3
1250.73 -740.57 1586.9
1286.65 -759.34 1627.1
1266.09 -744.76 1595.9
1266.47 -742.56 1591.2
1256.87 -725.12 1553.8
1293.85 -744.06 1594.4
1225.88 -702.73 1505.9
1248.21 -711.00 1523.6
1298.53 -737.34 1580.0
1314.93 -744.30 1594.9
1320.58 -745.15 1596.8
-1616.85 -934.99 1992.5
-1660.28 -969.39 2065.8
-1587.05 -932.65 1987.5
-1612.30 -950.58 2025.7
-1619.34 -957.85 2041.2
-1578.68 -946.16 2016.3
-1502.04 -931.06 1984.1
-1521.46 -949.60 2023.6
-1574.00 -985.79 2100.7
-1462.44 -925.53 1972.3
-1492.16 -964.57 2055.5
-1435.84 -931.49 1985.0
-1367.75 -890.51 1897.7
-1422.96 -936.57 1995.8
-1404.70 -927.92 1977.4
-1282.51 -859.76 1832.2
-1377.88 -927.12 1975.7
-1319.55 -894.53 1906.3
-1260.40 -864.14 1841.5
-1256.79 -871.57 1857.3
-1230.89 -856.89 1826.0
-1172.37 -819.30 1745.9
-1163.95 -822.95 1753.7
-1201.69 -852.97 1817.7
-1192.58 -849.83 1811.0
-1138.06 -814.18 1735.0
-1110.07 -800.49 1705.9
-1188.76 -860.67 1834.1
-1132.24 -823.04 1753.9
-1067.26 -782.08 1666.6
-1085.03 -798.33 1701.3
-1087.52 -813.39 1733.4
-1077.71 -809.40 1724.9
-1078.25 -813.18 1732.9
-1101.74 -834.37 1778.1
-1105.05 -840.40 1790.9
-1084.50 -828.24 1765.0
-1063.07 -815.32 1737.5
-1029.17 -799.49 1703.7
-1064.02 -830.12 1769.0
-1037.60 -813.01 1732.5
-1008.48 -793.63 1691.2
-1025.43 -810.49 1727.2
-993.27 -806.20 1718.0
-982.38 -800.95 1706.8
-976.59 -799.83 1704.5
-985.49 -810.79 1727.8
-995.21 -822.52 1752.8
-998.90 -829.36 1767.4
-997.53 -832.04 1773.1
-996.13 -834.72 1778.8
-969.48 -816.17 1739.3
-954.22 -807.07 1719.9
-966.30 -821.13 1749.8
-951.97 -812.77 1732.0
-941.27 -807.44 1720.7
-949.62 -818.48 1744.2
-932.76 -807.80 1721.4
-941.51 -827.25 1762.9
-929.77 -824.94 1758.0
-882.61 -786.96 1677.0
-886.34 -794.20 1692.5
-883.18 -795.30 1694.8
-885.53 -801.41 1707.8
-897.13 -815.99 1738.9
-901.86 -824.43 1756.9
-889.29 -817.07 1741.2
-855.06 -789.62 1682.7
-887.95 -832.74 1774.6
-877.56 -827.28 1763.0
-844.92 -813.46 1733.5
-876.92 -848.79 1808.8
-866.65 -847.91 1806.9
-841.29 -827.58 1763.6
-812.97 -804.08 1713.5
-802.93 -798.52 1701.7
-804.27 -804.27 1713.9
-792.17 -805.52 1716.6
-817.53 -836.01 1781.5
-823.69 -851.93 1815.5
-775.80 -807.01 1719.8
-764.30 -808.99 1724.0
-790.09 -841.21 1792.6
-766.71 -835.99 1781.5
-786.53 -862.80 1838.6
-792.80 -874.98 1864.6
-767.30 -857.29 1826.9
-717.56 -806.70 1719.1
-705.20 -802.77 1710.7
-710.34 -813.74 1734.1
-690.13 -795.63 1695.5
-686.82 -802.02 1709.1
-691.40 -812.62 1731.7
-679.74 -809.43 1724.9
-673.43 -807.23 1720.2
-651.43 -813.17 1732.9
-640.04 -804.49 1714.4
-626.50 -792.98 1689.9
-636.79 -811.68 1729.7
-651.60 -836.45 1782.5
-640.56 -828.15 1764.8
-598.33 -814.27 1735.2
-592.45 -812.38 1731.2
-583.36 -806.01 1717.6
-593.88 -826.86 1762.1
-590.85 -829.03 1766.7
-573.71 -811.26 1728.8
-579.02 -825.21 1758.5
-578.51 -831.04 1771.0
-544.74 -814.85 1736.5
-551.41 -831.71 1772.4
-549.57 -835.90 1781.3
-545.82 -837.23 1784.1
-538.60 -833.22 1775.6
-533.53 -832.49 1774.1
-512.57 -806.74 1719.2
-508.50 -829.17 1767.0
-485.68 -821.56 1750.8
-491.06 -838.51 1786.9
-481.67 -830.30 1769.4
-473.55 -824.15 1756.3
-450.68 -791.98 1687.7
-454.16 -813.90 1734.4
-447.16 -809.36 1724.8
-436.81 -798.61 1701.9
-428.18 -807.30 1720.4
-427.20 -813.92 1734.5
-417.90 -822.18 1752.1
-406.88 -809.28 1724.6
-396.65 -815.84 1738.6
-395.12 -822.04 1751.8
-404.41 -851.15 1813.8
-402.63 -857.37 1827.1
-342.86 -795.62 1695.5
-336.30 -790.51 1684.6
-325.08 -806.02 1717.6
-322.08 -809.68 1725.4
-316.09 -805.80 1717.2
-296.38 -777.47 1656.8
-299.34 -808.67 1723.3
-306.46 -840.45 1791.0
-298.76 -831.93 1772.9
-302.14 -854.48 1820.9
-281.23 -821.01 1749.6
-266.90 -805.15 1715.8
-255.28 -825.11 1758.3
-251.82 -828.73 1766.0
-254.61 -853.42 1818.6
-236.96 -824.81 1757.7
-226.88 -805.22 1715.9
-233.22 -844.26 1799.1
-231.47 -855.03 1822.1
-222.78 -840.06 1790.2
-220.94 -850.83 1813.1
-196.71 -809.21 1724.4
-192.69 -811.09 1728.5
-188.74 -813.40 1733.4
-182.95 -807.66 1721.1
-173.85 -786.69 1676.5
-163.77 -801.15 1707.3
-159.55 -802.16 1709.4
-147.18 -807.27 1720.3
-144.10 -815.04 1736.9
-137.37 -802.05 1709.2
-130.92 -789.89 1683.3
-118.01 -791.11 1685.9
-106.12 -800.35 1705.6
-103.06 -811.06 1728.4
-96.84 -796.74 1697.9
-93.58 -806.59 1718.9
-88.85 -804.13 1713.6
-42.63 -771.67 1644.4
-22.03 -797.32 1699.1
-18.09 -818.58 1744.4
-13.61 -821.14 1749.9
-9.16 -829.22 1767.1
-4.49 -812.24 1730.9
0.00 -793.97 1692.0
4.47 -808.84 1723.7
8.97 -811.81 1730.0
22.89 -828.75 1766.1
27.68 -835.10 1779.6
31.84 -823.17 1754.2
36.03 -815.07 1736.9
66.11 -797.73 1700.0
71.04 -803.60 1712.5
74.79 -796.31 1697.0
79.10 -795.39 1695.0
83.75 -797.85 1700.2
90.96 -823.23 1754.3
96.73 -833.74 1776.7
117.38 -786.87 1676.8
124.27 -803.29 1711.8
128.68 -803.16 1711.5
132.26 -797.95 1700.4
134.17 -783.41 1669.5
152.36 -787.92 1679.1
157.27 -790.73 1685.1
163.08 -797.77 1700.1
171.54 -817.07 1741.2
175.47 -814.36 1735.4
175.63 -794.73 1693.6
180.27 -795.82 1695.9
186.19 -802.40 1709.9
191.99 -808.14 1722.2
197.33 -811.75 1729.8
200.82 -807.75 1721.3
198.26 -780.09 1662.4
213.19 -787.51 1678.2
234.02 -830.53 1769.9
235.15 -818.49 1744.2
234.29 -800.13 1705.1
241.66 -810.01 1726.1
249.39 -820.72 1749.0
261.09 -829.07 1766.8
250.07 -780.40 1663.1
261.62 -776.29 1654.3
266.69 -778.55 1659.1
267.97 -769.88 1640.6
288.80 -804.21 1713.8
311.11 -828.10 1764.7
309.65 -812.28 1731.0
307.70 -795.63 1695.5
322.39 -788.54 1680.4
348.04 -787.43 1678.0
361.76 -808.38 1722.7
355.68 -785.09 1673.0
372.31 -792.79 1689.5
381.86 -803.68 1712.7
384.72 -791.29 1686.3
400.19 -795.99 1696.3
412.42 -811.38 1729.1
415.84 -809.33 1724.7
421.75 -803.55 1712.4
415.65 -783.67 1670.0
448.57 -765.95 1632.3
459.13 -776.65 1655.1
475.20 -796.40 1697.1
482.55 -801.30 1707.6
477.20 -785.22 1673.3
486.34 -785.96 1674.9
495.78 -794.13 1692.3
500.65 -794.90 1693.9
497.19 -782.54 1667.6
502.49 -764.30 1628.7
510.75 -770.37 1641.7
516.97 -766.97 1634.4
538.63 -792.62 1689.1
525.90 -767.65 1635.9
588.50 -800.89 1706.7
597.03 -806.43 1718.5
600.60 -776.49 1654.7
633.38 -813.06 1732.6
635.21 -809.66 1725.4
620.77 -785.73 1674.4
623.39 -783.57 1669.8
644.02 -803.92 1713.2
653.51 -810.18 1726.5
647.73 -797.54 1699.6
648.38 -792.95 1689.8
653.28 -793.58 1691.1
641.90 -774.56 1650.6
712.96 -801.53 1708.1
764.15 -813.59 1733.8
779.19 -824.76 1757.6
770.76 -811.09 1728.5
764.04 -790.24 1684.0
756.32 -777.81 1657.5
780.22 -763.35 1626.7
816.18 -777.52 1656.9
836.94 -793.12 1690.2
819.96 -757.20 1613.6
814.59 -748.43 1594.9
828.53 -757.39 1614.0
859.05 -781.35 1665.1
867.69 -785.26 1673.4
866.12 -779.94 1662.1
909.77 -762.35 1624.6
925.82 -772.23 1645.6
952.89 -791.16 1686.0
937.15 -774.54 1650.6
905.20 -744.73 1587.0
916.73 -750.81 1600.0
940.79 -767.04 1634.6
932.53 -756.89 1613.0
936.71 -750.20 1598.7
962.51 -767.46 1635.5
945.05 -750.23 1598.8
985.72 -759.22 1617.9
979.73 -751.40 1601.3
1022.97 -774.72 1650.9
1005.12 -758.03 1615.4
1017.16 -763.92 1627.9
1024.30 -766.11 1632.6
1047.70 -767.75 1636.1
1076.53 -785.69 1674.3
1065.64 -774.62 1650.7
1089.57 -788.85 1681.1
1079.61 -778.53 1659.1
1044.11 -749.94 1598.1
1045.13 -747.71 1593.4
1029.75 -733.80 1563.7
1074.49 -745.14 1587.9
1151.30 -783.40 1669.4
1165.03 -789.78 1683.0
1146.86 -774.56 1650.6
1132.84 -762.25 1624.4
1145.48 -767.90 1636.4
1165.68 -778.55 1659.1
1117.62 -743.71 1584.9
1161.58 -764.53 1629.2
1192.83 -782.25 1667.0
1173.52 -766.81 1634.1
1134.63 -733.46 1563.0
1144.61 -737.28 1571.2
1182.77 -759.15 1617.8
1201.73 -768.60 1637.9
1186.92 -756.45 1612.0
1185.92 -753.16 1605.0
1198.82 -758.69 1616.8
1209.53 -762.80 1625.5
1183.30 -743.67 1584.8
1191.73 -746.38 1590.5
1258.13 -785.25 1673.4
1222.74 -760.54 1620.7
1173.49 -724.92 1544.8
1207.85 -728.74 1552.9
1270.54 -764.01 1628.1
1241.57 -736.80 1570.1
1218.59 -720.80 1536.0
1205.68 -701.70 1495.3
1269.05 -736.21 1568.9
1234.99 -714.16 1521.9
1235.77 -712.34 1518.0
1283.50 -737.50 1571.6
1292.08 -740.09 1577.1
1306.65 -746.07 1589.9
1332.63 -758.51 1616.4
1349.70 -765.82 1632.0
-1659.16 -955.59 2025.2
-1648.46 -961.60 2037.9
-1574.88 -930.61 1972.3
-1652.72 -979.79 2076.5
-1604.31 -957.32 2028.9
-1559.10 -936.49 1984.7
-1635.42 -985.59 2088.8
-1620.85 -980.05 2077.0
-1632.21 -990.21 2098.6
-1598.95 -979.83 2076.6
-1502.95 -924.11 1958.5
-1533.78 -955.99 2026.0
-1500.89 -938.70 1989.4
-1559.46 -982.08 2081.3
-1471.26 -929.75 1970.4
-1475.68 -942.36 1997.2
-1383.37 -902.42 1912.5
-1357.51 -888.73 1883.5
-1425.75 -943.59 1999.8
-1448.03 -961.83 2038.4
-1390.37 -926.91 1964.4
-1298.57 -868.90 1841.5
-1284.27 -865.69 1834.7
-1333.68 -902.34 1912.3
-1354.07 -919.56 1948.8
-1330.81 -907.15 1922.5
-1285.95 -879.86 1864.7
-1280.35 -879.34 1863.6
-1329.49 -916.54 1942.4
-1311.15 -907.34 1922.9
-1277.70 -887.56 1881.0
-1282.50 -894.31 1895.3
-1225.83 -858.08 1818.5
-1136.22 -798.43 1692.1
-1167.22 -829.82 1758.6
-1157.19 -825.92 1750.4
-1142.32 -821.75 1741.5
-1183.23 -854.56 1811.1
-1117.36 -810.20 1717.1
-1097.36 -798.88 1693.1
-1105.69 -808.17 1712.8
-1090.30 -800.14 1695.8
-1088.02 -801.70 1699.0
-1092.21 -808.06 1712.5
-1036.58 -806.23 1708.7
-1041.80 -813.77 1724.6
-1057.47 -829.57 1758.1
-1075.38 -847.27 1795.6
-1071.00 -851.19 1803.9
-1028.70 -821.16 1740.3
-1004.52 -805.38 1706.9
-1054.11 -856.46 1815.1
-1033.78 -847.51 1796.1
-1016.77 -837.34 1774.6
-1015.43 -840.04 1780.3
-976.15 -811.23 1719.2
-962.73 -807.45 1711.2
-992.18 -836.00 1771.7
-962.86 -815.07 1727.4
-943.59 -802.49 1700.7
-946.32 -808.59 1713.6
-924.50 -793.68 1682.1
-911.25 -786.01 1665.8
-919.26 -796.69 1688.4
-928.05 -808.16 1712.7
-924.47 -808.91 1714.3
-953.36 -842.29 1785.1
-950.15 -847.69 1796.5
-909.40 -815.32 1727.9
-922.43 -831.10 1761.4
-893.97 -809.47 1715.5
-879.85 -825.43 1749.3
-871.96 -822.27 1742.6
-843.98 -808.45 1713.4
-838.04 -815.63 1728.6
-841.47 -823.38 1745.0
-832.49 -818.99 1735.7
-817.21 -808.33 1713.1
-816.23 -811.77 1720.4
-832.47 -832.47 1764.3
-811.80 -816.28 1730.0
-810.37 -828.58 1756.0
-800.74 -823.36 1744.9
-793.06 -820.09 1738.0
-805.90 -838.14 1776.3
-789.87 -826.19 1750.9
-774.70 -815.00 1727.2
-780.57 -825.95 1750.5
-758.80 -807.61 1711.6
-756.62 -829.54 1758.1
-784.05 -864.83 1832.8
-753.85 -846.92 1794.9
-682.22 -795.92 1686.8
-681.43 -800.13 1695.7
-672.45 -794.71 1684.2
-679.38 -808.16 1712.7
-701.63 -840.11 1780.5
-698.87 -842.34 1785.2
-672.52 -815.99 1729.3
-652.93 -813.92 1725.0
-651.50 -817.74 1733.0
-626.26 -797.05 1689.2
-641.27 -821.91 1741.9
-650.38 -839.50 1779.2
-634.99 -825.49 1749.5
-608.48 -826.44 1751.5
-606.12 -829.43 1757.8
-591.76 -834.89 1769.4
-591.00 -840.33 1780.9
-578.77 -829.42 1757.8
-560.42 -809.49 1715.6
-505.21 -792.66 1679.9
-505.84 -800.55 1696.6
-509.03 -834.62 1768.8
-497.24 -822.70 1743.6
-498.57 -840.17 1780.6
-491.30 -835.67 1771.1
-469.61 -806.32 1708.8
-475.72 -824.58 1747.5
-483.29 -845.75 1792.4
-431.90 -786.06 1665.9
-434.01 -814.32 1725.8
-451.27 -855.53 1813.1
-428.31 -820.55 1739.0
-402.94 -805.88 1707.9
-408.60 -845.05 1790.9
-401.94 -840.84 1782.0
-405.80 -858.80 1820.1
-401.46 -859.60 1821.8
-382.04 -827.75 1754.3
-321.56 -801.69 1699.0
-314.95 -796.11 1687.2
-308.88 -791.79 1678.0
-299.45 -789.85 1673.9
-304.98 -816.27 1729.9
-301.10 -856.25 1814.7
-242.62 -802.86 1701.5
-249.21 -839.93 1780.1
-231.65 -826.67 1752.0
-229.15 -834.10 1767.7
-231.36 -859.33 1821.2
-227.26 -861.68 1826.2
-216.50 -856.60 1815.4
-190.49 -806.28 1708.8
-191.11 -828.12 1755.0
-185.74 -824.49 1747.3
-163.03 -780.81 1654.8
-163.70 -805.21 1706.5
-158.97 -803.67 1703.2
-153.27 -797.02 1689.1
-151.78 -812.48 1721.9
-126.24 -820.55 1739.0
-118.02 -795.54 1686.0
-105.79 -802.27 1700.3
-105.06 -831.35 1761.9
-101.07 -836.14 1772.0
-95.41 -826.86 1752.4
-88.44 -804.79 1705.6
-79.27 -801.54 1698.7
-69.65 -792.31 1679.2
-66.18 -803.04 1701.9
-61.84 -803.96 1703.8
-56.03 -784.40 1662.4
-44.07 -802.04 1699.8
-39.47 -798.24 1691.7
-26.05 -790.23 1674.7
-22.24 -809.46 1715.5
-17.92 -815.45 1728.2
-13.69 -830.83 1760.8
-4.64 -844.50 1789.8
0.00 -835.97 1771.7
4.56 -829.57 1758.1
22.55 -820.98 1739.9
27.42 -831.62 1762.5
31.23 -811.96 1720.8
35.00 -796.14 1687.3
56.88 -796.34 1687.7
63.12 -820.59 1739.1
69.21 -839.72 1779.6
73.59 -837.09 1774.0
75.00 -802.90 1701.6
76.62 -774.68 1641.8
87.97 -800.52 1696.6
96.44 -835.81 1771.3
116.71 -816.96 1731.4
119.41 -804.91 1705.9
140.06 -796.60 1688.3
155.12 -830.35 1759.8
156.79 -815.31 1727.9
157.79 -797.71 1690.6
161.36 -793.73 1682.2
167.64 -802.92 1701.6
176.12 -821.87 1741.8
180.97 -823.39 1745.0
180.86 -802.82 1701.4
181.60 -786.93 1667.7
191.20 -809.25 1715.0
200.52 -829.43 1757.8
206.18 -833.90 1767.3
206.42 -816.72 1730.9
229.39 -818.61 1734.9
230.56 -806.95 1710.2
249.66 -826.14 1750.8
249.42 -782.68 1658.7
274.48 -805.74 1707.6
278.38 -804.20 1704.3
281.81 -801.39 1698.4
283.40 -793.52 1681.7
287.20 -791.98 1678.4
297.66 -808.56 1713.6
299.63 -801.94 1699.6
306.96 -809.65 1715.9
314.20 -816.93 1731.3
327.20 -804.74 1705.5
337.04 -796.63 1688.3
348.65 -813.51 1724.1
335.12 -772.05 1636.2
341.62 -777.18 1647.1
357.12 -802.42 1700.6
351.49 -770.73 1633.4
362.71 -785.88 1665.5
363.54 -778.41 1649.7
383.63 -784.50 1662.6
402.21 -813.36 1723.8
403.36 -806.72 1709.7
398.95 -789.22 1672.6
402.02 -786.76 1667.4
413.09 -791.40 1677.2
413.50 -783.92 1661.4
425.54 -782.31 1658.0
437.38 -796.03 1687.0
453.67 -793.93 1682.6
478.63 -799.19 1693.7
483.34 -792.50 1679.6
477.25 -775.54 1643.6
502.91 -775.68 1643.9
510.09 -780.14 1653.4
504.59 -765.29 1621.9
521.71 -778.30 1649.4
536.47 -793.80 1682.3
536.25 -768.48 1628.7
558.50 -770.06 1632.0
587.07 -803.36 1702.6
589.59 -800.79 1697.1
583.63 -786.82 1667.5
600.79 -775.49 1643.5
646.02 -810.87 1718.5
730.16 -781.71 1656.7
759.17 -808.01 1712.4
766.73 -811.31 1719.4
777.70 -818.16 1733.9
759.27 -794.18 1683.1
740.61 -770.24 1632.4
751.48 -777.10 1646.9
776.31 -789.32 1672.8
790.88 -799.67 1694.8
780.94 -785.25 1664.2
774.38 -774.38 1641.2
782.36 -773.85 1640.0
777.58 -764.97 1621.2
849.66 -761.76 1614.4
890.18 -794.18 1683.1
888.96 -789.22 1672.6
855.51 -755.83 1601.8
851.26 -744.85 1578.6
856.76 -746.08 1581.2
932.25 -789.16 1672.5
937.96 -790.32 1674.9
921.46 -772.84 1637.9
916.18 -764.89 1621.0
927.73 -770.99 1634.0
922.83 -763.43 1617.9
903.13 -743.75 1576.2
938.27 -752.27 1594.3
953.27 -760.94 1612.7
940.91 -747.79 1584.8
968.08 -749.75 1588.9
981.40 -756.84 1604.0
1008.28 -764.61 1620.5
1005.56 -759.39 1609.4
999.82 -733.74 1555.0
992.75 -725.62 1537.8
1018.98 -741.82 1572.1
1044.32 -757.24 1604.8
1048.94 -757.56 1605.5
1018.34 -732.56 1552.5
1067.07 -746.95 1583.0
1102.42 -768.74 1629.2
1107.58 -769.39 1630.6
1119.09 -762.83 1616.7
1148.17 -779.73 1652.5
1122.43 -759.41 1609.4
1126.48 -759.33 1609.3
1160.56 -779.42 1651.8
1138.23 -739.85 1568.0
1128.96 -731.21 1549.7
1148.86 -741.46 1571.4
1205.32 -775.15 1642.8
1223.24 -783.90 1661.3
1176.21 -751.12 1591.9
1146.08 -711.90 1508.7
1149.30 -711.47 1507.8
1200.77 -738.31 1564.7
1269.79 -778.12 1649.1
1223.98 -747.53 1584.2
1299.68 -785.85 1665.5
1304.29 -786.03 1665.8
1248.31 -744.89 1578.7
1193.36 -702.89 1489.6
1218.82 -715.56 1516.5
1273.82 -745.45 1579.8
1304.83 -761.15 1613.1
1281.52 -745.17 1579.2
1293.07 -749.49 1588.4
1280.88 -740.07 1568.4
1318.94 -757.25 1604.8
-1613.75 -946.53 1995.0
-1650.47 -974.31 2053.6
-1617.14 -960.83 2025.2
-1610.18 -959.81 2023.0
-1640.51 -981.09 2067.9
-1634.33 -990.34 2087.4
-1583.75 -972.57 2049.9
-1548.76 -954.29 2011.4
-1519.60 -939.48 1980.2
-1486.57 -922.17 1943.7
-1471.24 -915.77 1930.2
-1581.29 -991.01 2088.8
-1532.61 -970.47 2045.5
-1506.04 -956.96 2017.0
-1560.46 -995.00 2097.2
-1494.09 -959.36 2022.1
-1448.92 -933.63 1967.8
-1495.10 -966.80 2037.7
-1520.09 -986.44 2079.1
-1498.73 -976.04 2057.2
-1472.52 -962.40 2028.5
-1458.59 -960.15 2023.7
-1460.89 -965.14 2034.2
-1427.86 -946.73 1995.5
-1418.25 -943.78 1989.2
-1303.94 -887.07 1869.7
-1369.05 -934.84 1970.4
-1388.71 -951.81 2006.2
-1277.09 -878.60 1851.8
-1205.06 -832.18 1754.0
-1250.16 -866.59 1826.5
-1233.62 -858.37 1809.2
-1182.09 -825.66 1740.3
-1181.24 -831.41 1752.4
-1160.80 -820.18 1728.7
-1129.08 -800.86 1688.0
-1151.65 -820.05 1728.4
-1156.59 -826.78 1742.6
-1152.69 -833.76 1757.3
-1180.83 -857.51 1807.4
-1102.34 -803.70 1694.0
-1092.50 -799.71 1685.6
-1111.41 -816.82 1721.6
-1079.44 -796.52 1678.9
-1059.66 -785.09 1654.8
-1050.28 -817.87 1723.9
-1045.40 -817.56 1723.2
-1029.02 -808.20 1703.5
-1020.36 -804.86 1696.4
-1027.31 -817.38 1722.8
-1015.33 -811.38 1710.2
-1019.89 -818.60 1725.4
-1036.59 -835.67 1761.4
-1026.48 -831.18 1751.9
-1043.44 -848.66 1788.8
-1032.37 -843.41 1777.7
-988.47 -811.17 1709.7
-995.60 -820.69 1729.8
-1012.75 -838.61 1767.6
-1007.30 -837.89 1766.0
-964.88 -806.27 1699.4
-935.23 -788.69 1662.4
-962.50 -815.45 1718.7
-932.41 -793.63 1672.8
-916.84 -784.03 1652.5
-922.79 -792.82 1671.0
-921.09 -795.09 1675.8
-927.79 -804.67 1696.0
-939.26 -818.50 1725.2
-951.92 -833.50 1756.8
-938.17 -825.41 1739.7
-916.20 -809.97 1707.2
-903.05 -802.22 1690.9
-895.59 -799.48 1685.1
-899.37 -806.78 1700.5
-916.81 -826.49 1742.0
-913.12 -827.24 1743.6
-858.50 -797.49 1680.9
-877.88 -828.10 1745.4
-844.05 -800.32 1686.9
-846.13 -814.95 1717.7
-830.26 -803.90 1694.4
-834.37 -820.92 1730.3
-825.83 -816.90 1721.8
-828.00 -823.50 1735.7
-843.11 -843.11 1777.1
-857.65 -862.36 1817.6
-835.31 -844.54 1780.1
-804.97 -818.39 1724.9
-813.93 -832.12 1753.9
-825.07 -848.24 1787.9
-805.41 -832.71 1755.1
-789.57 -830.41 1750.3
-808.58 -855.32 1802.8
-786.25 -836.53 1763.2
-718.27 -791.83 1669.0
-739.38 -820.04 1728.4
-751.26 -838.29 1766.9
-742.98 -834.14 1758.1
-732.97 -827.98 1745.2
-720.89 -819.40 1727.1
-670.69 -802.19 1690.8
-688.93 -829.44 1748.2
-682.91 -827.63 1744.4
-671.26 -818.93 1726.1
-674.85 -828.84 1747.0
-685.87 -848.07 1787.5
-677.83 -843.82 1778.6
-643.93 -807.12 1701.2
-634.90 -812.50 1712.5
-636.27 -819.98 1728.3
-632.55 -820.97 1730.4
-622.89 -814.21 1716.1
-618.56 -814.36 1716.5
-624.99 -828.79 1746.9
-622.72 -831.80 1753.2
-597.04 -803.37 1693.3
-613.01 -837.17 1764.5
-602.60 -829.14 1747.6
-589.63 -823.68 1736.1
-589.30 -829.55 1748.5
-594.11 -842.81 1776.4
-593.04 -847.87 1787.1
-581.09 -837.32 1764.8
-574.90 -834.98 1759.9
-565.36 -827.69 1744.5
-536.37 -791.58 1668.4
-514.43 -797.80 1681.6
-511.17 -799.52 1685.2
-497.98 -821.00 1730.4
-479.21 -812.00 1711.5
-475.27 -828.32 1745.9
-483.54 -850.84 1793.3
-463.67 -823.80 1736.3
-462.05 -837.19 1764.6
-434.91 -795.89 1677.5
-437.14 -824.70 1738.2
-440.75 -840.17 1770.9
-394.69 -811.56 1710.5
-399.93 -831.67 1752.9
-399.76 -840.87 1772.3
-394.16 -838.73 1767.8
-380.18 -818.51 1725.2
-380.51 -828.97 1747.2
-381.40 -851.17 1794.0
-355.47 -803.10 1692.7
-347.55 -795.02 1675.7
-345.62 -832.21 1754.1
-344.84 -841.41 1773.5
-334.06 -826.12 1741.2
-323.60 -811.23 1709.9
-296.92 -787.49 1659.8
-307.04 -826.30 1741.6
-299.69 -818.56 1725.3
-290.13 -804.45 1695.6
-295.31 -831.42 1752.4
-288.94 -826.20 1741.4
-261.47 -811.01 1709.4
-264.12 -833.35 1756.5
-254.22 -816.19 1720.3
-244.12 -797.74 1681.4
-241.23 -802.65 1691.8
-237.17 -803.74 1694.1
-241.21 -848.88 1789.2
-235.33 -844.43 1779.8
-225.43 -825.08 1739.0
-219.96 -821.47 1731.4
-217.87 -830.63 1750.7
-218.42 -850.44 1792.5
-209.12 -850.44 1792.5
-193.97 -806.73 1700.4
-189.10 -804.79 1696.3
-188.17 -819.90 1728.1
-174.12 -817.03 1722.1
-164.73 -793.29 1672.0
-160.77 -795.16 1676.0
-158.64 -806.42 1699.7
-155.49 -812.99 1713.6
-152.03 -818.27 1724.7
-130.66 -797.03 1679.9
-131.75 -831.37 1752.3
-123.84 -839.33 1769.1
-106.19 -809.72 1706.7
-104.42 -830.80 1751.1
-96.65 -803.93 1694.5
-86.81 -794.27 1674.1
-86.92 -837.18 1764.5
-82.10 -834.69 1759.3
-75.88 -816.78 1721.6
-71.19 -814.29 1716.3
-44.68 -817.63 1723.4
-39.29 -798.82 1683.7
-34.19 -782.14 1648.5
-30.05 -785.60 1655.8
-26.52 -808.78 1704.7
-22.74 -832.38 1754.4
-18.04 -825.54 1740.0
-13.57 -827.70 1744.6
-9.19 -840.57 1771.7
-4.53 -829.00 1747.3
0.00 -810.57 1708.5
4.34 -794.28 1674.1
21.93 -802.80 1692.1
27.33 -833.64 1757.1
31.94 -834.89 1759.7
37.00 -846.43 1784.0
41.58 -845.53 1782.2
44.00 -805.21 1697.2
48.47 -806.45 1699.8
52.43 -799.54 1685.2
61.13 -799.00 1684.1
66.43 -810.50 1708.3
72.21 -825.85 1740.7
75.12 -808.65 1704.4
77.59 -788.87 1662.7
82.83 -797.78 1681.5
97.16 -808.21 1703.5
102.91 -818.81 1725.8
104.23 -794.74 1675.1
115.74 -814.64 1717.0
121.06 -820.51 1729.4
124.15 -811.40 1710.2
140.82 -805.31 1697.4
147.89 -820.13 1728.6
155.20 -835.36 1760.7
156.22 -816.83 1721.7
160.07 -813.69 1715.0
166.73 -824.63 1738.1
167.21 -805.25 1697.2
169.66 -796.11 1678.0
174.63 -798.93 1683.9
174.56 -779.13 1642.2
176.82 -770.42 1623.8
187.90 -799.67 1685.5
197.04 -819.52 1727.3
202.84 -824.86 1738.6
206.76 -822.53 1733.7
202.22 -787.38 1659.6
221.81 -795.91 1677.6
230.57 -811.43 1710.3
238.63 -823.96 1736.7
251.40 -821.54 1731.6
245.62 -788.57 1662.1
277.68 -793.98 1673.5
278.46 -783.96 1652.4
281.27 -779.88 1643.8
290.23 -792.72 1670.8
318.59 -832.89 1755.5
340.97 -810.36 1708.0
342.62 -793.67 1672.8
361.26 -796.52 1678.8
360.82 -786.07 1656.8
386.53 -794.77 1675.2
398.73 -810.76 1708.9
394.01 -792.34 1670.0
426.04 -787.53 1659.9
434.00 -794.22 1674.0
450.64 -792.96 1671.3
464.83 -780.39 1644.9
479.60 -783.63 1651.7
501.91 -778.39 1640.6
510.07 -777.86 1639.5
520.55 -787.28 1659.4
514.36 -771.54 1626.2
539.24 -783.18 1650.7
559.16 -799.42 1685.0
571.98 -781.14 1646.4
564.11 -764.68 1611.7
627.60 -803.15 1692.8
632.58 -798.36 1682.7
656.72 -806.58 1700.1
647.72 -790.22 1665.6
634.89 -769.43 1621.8
639.29 -769.67 1622.3
655.84 -784.44 1653.4
650.47 -772.97 1629.2
667.52 -778.06 1639.9
694.43 -789.32 1663.7
675.23 -753.46 1588.1
698.96 -756.86 1595.3
711.78 -766.21 1615.0
714.27 -764.39 1611.1
713.38 -759.00 1599.8
716.19 -757.59 1596.8
724.65 -762.13 1606.4
734.67 -768.25 1619.3
786.09 -803.66 1693.9
789.43 -802.59 1691.6
763.49 -771.92 1627.0
789.80 -794.14 1673.8
825.38 -825.38 1739.7
813.36 -808.94 1705.0
791.63 -783.08 1650.5
810.81 -797.73 1681.4
836.54 -818.64 1725.5
814.09 -792.44 1670.2
797.74 -768.35 1619.5
795.93 -762.59 1607.3
820.79 -774.25 1631.9
848.51 -772.53 1628.3
842.56 -763.31 1608.8
857.98 -773.45 1630.2
890.31 -798.66 1683.4
877.41 -783.25 1650.9
854.08 -751.42 1583.8
865.75 -758.04 1597.8
883.21 -769.65 1622.2
887.26 -744.81 1569.9
908.28 -758.97 1599.7
912.93 -759.40 1600.6
903.80 -748.39 1577.4
930.10 -753.13 1587.4
969.93 -781.93 1648.1
950.64 -763.02 1608.2
994.48 -755.14 1591.6
988.73 -747.67 1575.9
1069.16 -764.28 1610.9
1039.76 -731.83 1542.5
1091.08 -762.09 1606.3
1099.35 -764.95 1612.3
1102.91 -755.93 1593.3
1142.56 -780.18 1644.4
1128.02 -767.39 1617.4
1111.24 -753.17 1587.5
1123.29 -758.53 1598.8
1133.22 -762.42 1607.0
1116.35 -737.52 1554.5
1141.37 -743.31 1566.7
1161.83 -753.96 1589.1
1216.08 -786.37 1657.5
1197.46 -771.60 1626.3
1166.02 -743.49 1567.1
1193.42 -758.32 1598.3
1187.80 -744.41 1569.0
1258.47 -786.01 1656.7
1197.30 -745.26 1570.8
1175.27 -724.16 1526.3
1223.73 -751.48 1583.9
