ply
format ascii 1.0
element vertex 2197
property float x
property float y
property float z
end_header
165.25 -69.91 2451.4
168.71 -68.73 2410.1
174.27 -68.46 2400.7
182.86 -69.36 2432.1
186.42 -68.35 2396.8
187.39 -66.49 2331.5
191.41 -65.80 2307.1
199.31 -66.44 2329.5
208.46 -67.44 2364.9
211.92 -66.60 2335.5
217.09 -66.33 2325.9
225.26 -66.97 2348.3
229.53 -66.44 2329.8
231.58 -65.32 2290.4
233.34 -64.17 2250.0
242.59 -65.09 2282.2
260.78 -68.30 2394.9
264.03 -67.54 2368.4
251.17 -62.79 2201.8
255.76 -62.52 2192.2
277.70 -66.41 2328.6
295.41 -66.32 2325.4
285.66 -62.85 2203.7
291.41 -62.85 2203.9
316.92 -67.04 2350.8
325.63 -67.58 2369.8
318.07 -64.79 2271.9
325.96 -65.19 2286.0
328.46 -64.52 2262.4
339.20 -64.33 2255.7
365.62 -68.17 2390.2
369.67 -67.77 2376.5
368.97 -66.54 2333.1
366.62 -65.05 2280.8
357.23 -62.37 2187.1
375.24 -63.50 2226.7
400.58 -66.76 2341.0
406.81 -66.79 2342.0
403.68 -65.30 2289.8
405.74 -64.68 2268.1
406.61 -63.90 2240.5
417.48 -64.68 2268.0
432.88 -66.13 2319.0
436.09 -65.71 2304.2
427.16 -63.50 2226.5
463.39 -66.20 2321.3
468.39 -66.05 2316.2
455.10 -63.37 2222.0
464.68 -63.89 2240.4
496.75 -67.46 2365.5
514.46 -69.01 2420.0
512.47 -67.92 2381.5
521.13 -68.24 2393.0
539.53 -69.82 2448.3
527.96 -67.53 2367.9
530.28 -67.05 2351.0
566.98 -70.87 2485.2
569.06 -70.33 2466.2
554.00 -67.71 2374.3
560.98 -67.81 2377.8
576.32 -68.91 2416.3
597.01 -70.61 2476.1
597.39 -69.91 2451.3
587.84 -68.07 2386.7
597.05 -68.41 2398.9
599.49 -67.98 2383.8
608.01 -68.25 2393.0
626.75 -69.64 2441.9
617.13 -67.88 2380.4
619.87 -67.51 2367.3
640.94 -69.12 2423.7
626.18 -66.87 2344.9
620.14 -65.59 2300.0
637.77 -66.81 2342.8
655.07 -67.98 2383.7
656.00 -67.44 2364.8
645.25 -65.72 2304.5
651.87 -65.79 2306.8
680.16 -68.02 2385.0
710.02 -68.51 2402.3
766.91 -72.10 2528.3
776.12 -72.35 2537.0
805.77 -73.25 2568.6
820.87 -74.01 2595.3
823.34 -73.63 2581.9
149.81 -78.16 2512.3
155.06 -77.53 2492.0
159.29 -76.46 2457.7
163.15 -75.30 2420.3
169.46 -75.32 2420.9
178.24 -76.39 2455.4
183.52 -75.94 2440.9
183.77 -73.51 2362.7
186.01 -72.00 2314.4
191.39 -71.77 2307.0
198.61 -72.22 2321.4
207.13 -73.10 2349.8
212.90 -72.99 2346.2
220.42 -73.47 2361.6
226.96 -73.61 2366.0
229.51 -72.48 2329.6
235.49 -72.46 2329.0
241.26 -72.38 2326.4
242.15 -70.87 2278.1
250.37 -71.53 2299.3
260.80 -72.78 2339.4
255.34 -69.64 2238.4
266.20 -69.44 2232.1
277.83 -70.93 2280.0
282.66 -70.67 2271.4
287.07 -70.30 2259.8
311.99 -70.64 2270.6
317.49 -70.55 2267.8
323.54 -70.59 2269.0
323.99 -69.43 2231.5
322.49 -67.89 2182.3
347.79 -71.96 2312.9
364.11 -72.82 2340.7
363.79 -71.57 2300.3
362.63 -70.19 2256.0
361.56 -68.87 2213.6
366.98 -68.81 2211.7
381.69 -70.47 2265.0
402.74 -73.23 2353.7
414.48 -74.24 2386.1
418.23 -73.80 2372.3
416.79 -72.49 2329.9
414.61 -71.08 2284.6
419.08 -70.83 2276.7
427.53 -71.26 2290.3
433.82 -71.31 2292.2
428.26 -69.45 2232.2
456.51 -71.14 2286.8
457.06 -70.32 2260.2
464.29 -70.52 2266.9
497.13 -74.57 2396.9
507.19 -75.14 2415.2
501.12 -73.34 2357.2
510.54 -73.81 2372.6
532.79 -76.11 2446.5
549.38 -77.56 2493.0
534.88 -74.63 2399.0
559.13 -75.39 2423.2
576.44 -76.86 2470.5
577.69 -76.18 2448.6
587.18 -76.59 2461.8
583.02 -73.64 2367.1
587.99 -72.74 2338.1
609.93 -74.69 2400.6
620.24 -75.18 2416.5
599.28 -71.91 2311.5
604.38 -71.81 2308.1
629.40 -74.05 2380.1
615.04 -71.66 2303.2
628.27 -71.80 2307.9
648.67 -73.43 2360.4
668.78 -75.00 2410.8
677.28 -75.25 2418.8
678.19 -74.66 2399.9
698.20 -76.17 2448.2
705.17 -76.24 2450.4
700.17 -75.02 2411.3
715.48 -75.98 2442.2
747.11 -77.96 2505.8
763.72 -79.01 2539.5
773.53 -79.34 2550.1
775.77 -78.89 2535.8
832.39 -81.21 2610.3
148.79 -84.10 2495.2
153.18 -82.97 2461.8
156.63 -81.45 2416.6
160.72 -80.36 2384.2
167.22 -80.51 2388.8
174.17 -80.87 2399.3
177.44 -79.54 2360.0
183.67 -79.59 2361.5
192.80 -80.85 2398.9
198.81 -80.77 2396.4
207.20 -81.62 2421.8
213.95 -81.81 2427.2
217.40 -80.75 2395.8
220.58 -79.66 2363.4
222.17 -78.06 2316.1
230.47 -78.84 2339.4
243.21 -81.07 2405.4
247.22 -80.35 2383.9
246.88 -78.28 2322.6
253.49 -78.46 2327.9
261.55 -79.07 2346.1
263.14 -77.75 2306.7
268.11 -77.46 2298.1
273.40 -77.26 2292.5
275.39 -76.17 2260.0
278.57 -75.44 2238.5
281.51 -74.69 2215.9
286.00 -74.36 2206.3
291.76 -74.37 2206.6
313.17 -75.39 2236.9
330.14 -78.03 2315.3
336.88 -78.21 2320.4
340.73 -77.71 2305.7
357.87 -80.21 2379.9
357.94 -77.55 2301.0
348.30 -74.23 2202.4
360.85 -75.66 2244.9
372.97 -76.96 2283.5
385.27 -78.26 2322.0
411.54 -79.85 2369.2
414.20 -79.19 2349.5
412.71 -77.76 2307.1
413.69 -76.83 2279.5
420.13 -76.92 2282.4
424.01 -76.56 2271.5
425.61 -75.79 2248.8
440.27 -77.35 2294.9
452.50 -78.43 2327.1
440.53 -75.35 2235.8
454.64 -75.77 2248.2
479.49 -78.90 2341.1
516.46 -81.88 2429.4
526.48 -82.46 2446.6
529.56 -81.96 2431.7
525.68 -80.40 2385.4
535.49 -80.95 2401.7
542.08 -81.00 2403.3
539.11 -79.64 2363.0
554.36 -80.97 2402.5
566.18 -81.78 2426.5
560.66 -80.09 2376.4
567.19 -80.15 2378.0
587.78 -82.16 2437.8
607.82 -82.31 2442.2
618.17 -82.85 2458.1
611.36 -81.10 2406.2
595.10 -78.14 2318.6
600.48 -78.06 2316.2
631.17 -81.24 2410.4
635.37 -80.19 2379.3
628.37 -78.55 2330.5
650.01 -80.48 2387.8
659.21 -80.85 2398.8
667.39 -81.09 2405.8
677.22 -81.52 2418.7
680.86 -81.20 2409.3
684.44 -80.89 2400.0
672.78 -78.79 2337.8
686.12 -78.24 2321.5
725.63 -82.03 2433.8
764.24 -85.65 2541.2
781.56 -86.10 2554.7
147.70 -89.90 2477.0
148.08 -86.38 2379.8
158.49 -88.75 2445.3
172.99 -89.70 2471.3
177.20 -88.60 2441.0
181.32 -87.53 2411.6
188.15 -87.80 2419.1
197.83 -89.34 2461.4
204.08 -89.29 2459.9
217.92 -87.17 2401.6
213.88 -83.17 2291.5
223.01 -84.38 2324.8
244.70 -87.84 2420.1
238.95 -83.63 2304.1
247.92 -84.66 2332.3
270.14 -85.95 2368.1
272.61 -84.81 2336.6
275.62 -83.88 2311.1
278.26 -82.89 2283.6
282.24 -82.32 2268.0
285.89 -81.68 2250.4
290.73 -81.40 2242.8
297.89 -81.77 2252.9
300.69 -80.95 2230.4
299.15 -79.02 2177.1
308.85 -80.07 2206.0
321.93 -81.95 2257.7
324.50 -81.13 2235.1
336.02 -82.53 2273.8
349.46 -81.54 2246.5
354.00 -79.94 2202.3
366.81 -81.51 2245.8
380.49 -83.23 2293.2
400.23 -86.20 2375.0
405.20 -85.95 2368.0
395.08 -82.55 2274.5
389.70 -80.23 2210.5
399.83 -81.12 2235.1
412.40 -82.48 2272.4
423.35 -83.48 2299.9
431.68 -83.94 2312.6
426.69 -81.83 2254.5
434.40 -82.18 2264.2
460.85 -86.03 2370.1
465.41 -85.73 2362.1
452.72 -82.31 2267.8
457.97 -82.20 2264.7
471.23 -83.51 2300.8
490.55 -85.85 2365.1
526.81 -89.94 2478.0
532.74 -89.86 2475.7
531.43 -88.57 2440.2
534.67 -88.06 2426.2
553.49 -90.10 2482.4
620.14 -87.70 2416.1
624.76 -87.47 2409.8
632.38 -87.66 2415.0
631.85 -86.72 2389.3
617.26 -83.90 2311.5
615.05 -82.79 2281.1
643.13 -85.75 2362.5
658.63 -86.99 2396.6
665.47 -87.07 2398.9
673.12 -87.26 2404.0
656.07 -84.27 2321.6
656.14 -82.76 2280.0
665.77 -83.22 2292.8
714.44 -86.98 2396.3
759.86 -91.71 2526.6
766.44 -91.71 2526.7
835.90 -95.14 2621.3
147.45 -96.16 2472.7
156.15 -93.69 2409.1
168.82 -97.39 2504.4
173.81 -96.56 2483.1
179.64 -96.24 2474.6
186.02 -96.22 2474.2
187.44 -93.72 2409.9
191.00 -92.42 2376.5
199.02 -93.29 2399.0
210.22 -95.56 2457.2
215.73 -92.46 2377.4
210.42 -87.68 2254.5
218.60 -88.62 2278.8
233.07 -92.00 2365.8
234.22 -90.08 2316.4
230.88 -86.58 2226.4
242.72 -88.80 2283.4
261.88 -93.53 2405.0
271.81 -92.66 2382.8
281.98 -91.95 2364.5
283.43 -90.46 2326.1
287.89 -89.97 2313.4
291.78 -89.32 2296.8
287.75 -86.32 2219.8
307.87 -88.81 2283.6
324.70 -91.90 2363.0
319.90 -88.86 2285.0
319.50 -87.14 2240.7
325.34 -87.14 2240.8
339.49 -89.34 2297.3
357.50 -92.46 2377.5
358.39 -91.12 2343.0
353.57 -88.39 2273.0
356.83 -87.74 2256.3
357.30 -86.44 2222.8
358.56 -85.37 2195.3
389.49 -88.52 2276.2
395.39 -88.52 2276.2
392.79 -86.64 2228.0
405.77 -88.21 2268.3
414.32 -88.78 2283.0
421.32 -89.01 2288.8
435.49 -90.73 2333.0
437.61 -89.92 2312.2
437.18 -88.62 2278.8
453.56 -90.71 2332.6
470.97 -92.95 2390.3
473.61 -92.26 2372.4
470.80 -90.54 2328.1
473.99 -90.00 2314.2
475.89 -89.23 2294.5
502.03 -91.84 2361.5
516.93 -93.42 2402.2
521.39 -93.10 2394.1
531.82 -93.85 2413.3
555.18 -96.83 2490.0
620.80 -103.47 2660.6
630.52 -95.53 2456.6
620.94 -93.14 2395.1
612.33 -90.94 2338.4
610.59 -89.79 2308.9
640.83 -90.68 2331.8
652.59 -91.48 2352.4
665.25 -92.40 2375.9
650.85 -89.57 2303.1
681.04 -91.21 2345.4
693.67 -92.08 2367.8
696.48 -91.64 2356.5
728.36 -95.00 2443.0
747.99 -96.72 2487.2
726.05 -93.08 2393.6
787.27 -97.60 2509.6
141.27 -102.74 2476.8
146.42 -101.86 2455.5
149.35 -99.57 2400.3
153.87 -98.48 2374.0
161.54 -99.41 2396.5
169.47 -100.43 2421.0
178.61 -102.06 2460.4
185.03 -102.08 2460.9
186.26 -99.34 2394.7
189.94 -98.04 2363.4
198.34 -99.17 2390.7
199.90 -96.92 2336.5
209.21 -95.64 2305.6
220.06 -97.80 2357.7
217.34 -93.98 2265.7
219.63 -92.47 2229.3
227.16 -93.19 2246.6
231.27 -92.51 2230.1
235.51 -91.91 2215.6
246.49 -93.90 2263.7
261.14 -97.17 2342.5
286.55 -97.55 2351.6
286.38 -95.46 2301.3
291.12 -95.06 2291.6
288.10 -92.19 2222.5
303.70 -93.45 2252.7
339.36 -98.72 2379.9
343.96 -98.28 2369.1
344.43 -96.68 2330.7
349.00 -96.28 2320.9
364.25 -98.78 2381.3
374.58 -98.25 2368.6
372.48 -96.12 2317.3
367.54 -93.34 2250.3
373.25 -91.88 2214.9
393.66 -95.43 2300.6
413.13 -98.66 2378.4
421.74 -97.80 2357.6
411.96 -94.16 2270.0
411.51 -92.73 2235.6
417.48 -92.77 2236.5
435.52 -95.46 2301.2
451.63 -97.65 2354.1
455.99 -97.28 2345.1
460.88 -97.03 2339.1
467.30 -97.10 2340.8
468.38 -96.08 2316.2
472.34 -95.66 2306.2
500.11 -97.58 2352.4
522.76 -100.77 2429.3
535.79 -102.06 2460.3
547.47 -103.05 2484.3
622.78 -110.72 2669.1
638.91 -109.92 2649.8
628.47 -99.56 2400.1
617.43 -96.85 2334.8
621.79 -96.59 2328.5
634.96 -97.69 2354.9
641.17 -97.70 2355.3
642.62 -97.00 2338.4
657.40 -94.76 2284.4
698.53 -99.79 2405.6
713.55 -101.03 2435.6
720.77 -101.16 2438.7
718.30 -99.94 2409.2
701.88 -96.81 2333.8
711.48 -97.30 2345.5
733.41 -99.45 2397.4
761.77 -102.42 2469.1
142.74 -110.30 2502.5
144.21 -106.59 2418.4
150.58 -106.66 2420.0
158.57 -107.83 2446.5
163.61 -106.97 2427.1
168.75 -106.25 2410.8
177.86 -107.99 2450.2
183.81 -107.75 2444.7
187.16 -106.06 2406.4
193.04 -105.86 2401.9
198.73 -105.58 2395.5
196.98 -101.47 2302.4
211.17 -102.57 2327.2
224.21 -105.88 2402.2
223.23 -102.56 2327.1
224.70 -100.52 2280.8
231.76 -101.02 2292.1
238.56 -101.39 2300.4
246.47 -102.19 2318.7
247.11 -100.02 2269.4
249.60 -98.68 2239.0
258.39 -99.83 2265.1
264.19 -99.80 2264.5
277.55 -102.57 2327.3
284.58 -102.93 2335.5
287.21 -101.72 2308.0
294.49 -102.17 2318.1
302.20 -102.75 2331.3
310.24 -103.41 2346.3
301.80 -98.66 2238.6
304.23 -97.58 2214.1
325.65 -102.52 2326.1
335.65 -103.75 2353.9
334.02 -101.40 2300.7
329.35 -98.23 2228.7
331.13 -97.06 2202.1
343.06 -98.85 2242.8
362.40 -102.68 2329.7
373.14 -103.99 2359.4
373.87 -102.51 2325.9
372.34 -100.47 2279.6
373.67 -99.26 2252.1
386.82 -101.17 2295.4
403.90 -104.03 2360.4
419.42 -104.85 2379.0
402.88 -99.26 2252.1
406.03 -98.61 2237.3
418.15 -100.12 2271.7
424.03 -100.12 2271.6
442.17 -102.97 2336.3
460.25 -105.73 2399.0
466.24 -105.68 2397.8
464.89 -103.99 2359.4
464.32 -102.51 2325.9
472.09 -102.89 2334.5
482.91 -103.92 2357.8
493.24 -104.81 2378.1
506.75 -106.35 2413.1
616.82 -117.82 2673.2
639.28 -107.60 2441.4
633.96 -105.66 2397.3
641.57 -105.89 2402.6
643.48 -105.18 2386.5
640.06 -103.63 2351.2
636.73 -102.12 2316.9
659.68 -102.89 2334.4
678.44 -104.85 2378.9
702.37 -107.57 2440.7
717.96 -108.98 2472.6
705.61 -106.15 2408.5
707.11 -105.45 2392.5
699.67 -103.43 2346.7
712.45 -104.41 2369.0
748.82 -108.80 2468.6
737.43 -106.24 2410.5
732.24 -104.61 2373.4
140.05 -114.58 2455.3
143.24 -112.10 2402.1
151.49 -113.62 2434.6
159.26 -114.67 2457.2
164.06 -113.58 2433.8
168.04 -112.02 2400.5
176.04 -113.17 2425.0
183.26 -113.75 2437.5
188.07 -112.84 2418.1
193.34 -112.26 2405.6
198.22 -111.50 2389.2
204.02 -111.29 2384.7
212.18 -112.33 2407.1
219.36 -112.81 2417.4
223.44 -111.72 2394.0
219.38 -106.73 2287.0
229.42 -105.89 2269.0
242.14 -108.96 2335.0
253.30 -111.21 2383.0
256.92 -110.11 2359.5
251.68 -105.35 2257.6
252.47 -103.29 2213.3
260.80 -104.32 2235.4
276.33 -108.13 2317.1
282.37 -108.14 2317.4
282.86 -106.07 2273.0
296.60 -108.95 2334.7
314.78 -111.10 2380.7
301.89 -104.50 2239.3
305.01 -103.59 2219.7
327.00 -109.00 2335.7
329.13 -107.71 2308.2
319.06 -102.55 2197.6
343.93 -104.93 2248.4
366.66 -110.00 2357.1
365.92 -107.98 2313.8
356.70 -103.56 2219.1
368.11 -105.17 2253.7
381.32 -107.25 2298.1
396.41 -109.77 2352.3
412.36 -110.78 2373.9
393.87 -104.26 2234.2
407.06 -104.67 2243.0
428.05 -108.52 2325.4
443.78 -110.94 2377.4
455.68 -112.36 2407.7
472.86 -113.49 2431.9
471.01 -111.56 2390.5
475.41 -111.14 2381.5
488.67 -112.77 2416.5
491.48 -111.98 2399.6
492.37 -110.78 2373.9
501.97 -111.55 2390.3
513.71 -112.77 2416.4
599.79 -125.54 2690.1
616.39 -126.08 2701.7
617.65 -124.92 2676.8
660.12 -123.77 2652.3
674.39 -125.14 2681.7
634.30 -115.33 2471.3
626.77 -112.82 2417.5
645.29 -115.00 2464.3
649.23 -113.46 2431.3
631.19 -109.24 2340.9
638.94 -109.53 2347.1
647.25 -109.91 2355.2
647.00 -107.83 2310.7
687.87 -113.59 2434.1
711.14 -115.32 2471.1
703.68 -113.09 2423.4
687.28 -109.48 2345.9
682.68 -107.79 2309.8
693.89 -108.61 2327.3
724.75 -112.46 2409.9
751.01 -113.60 2434.3
147.26 -121.65 2469.6
152.59 -120.80 2452.3
157.56 -119.75 2431.0
163.64 -119.58 2427.6
168.57 -118.63 2408.2
175.22 -118.90 2413.7
181.44 -118.88 2413.3
186.42 -118.07 2396.9
191.72 -117.50 2385.4
197.28 -117.14 2378.0
204.51 -117.75 2390.4
212.59 -118.80 2411.7
219.60 -119.21 2420.1
224.71 -118.60 2407.6
220.79 -113.38 2301.7
220.04 -110.02 2233.5
233.31 -113.66 2307.5
240.57 -114.27 2319.8
245.57 -113.80 2310.2
254.84 -115.28 2340.3
256.07 -113.15 2297.0
261.61 -112.97 2293.4
275.47 -116.31 2361.1
283.28 -117.01 2375.3
280.04 -113.21 2298.2
277.03 -109.66 2226.2
287.50 -111.48 2263.1
296.61 -112.71 2288.1
294.06 -109.55 2224.0
301.06 -110.00 2233.1
324.96 -116.50 2364.9
333.51 -113.16 2297.2
328.25 -109.42 2221.2
341.16 -111.76 2268.8
363.22 -116.97 2374.5
364.31 -113.47 2303.6
359.83 -110.27 2238.6
374.34 -112.90 2291.9
383.07 -113.72 2308.7
393.21 -114.94 2333.3
410.54 -118.19 2399.3
407.69 -115.61 2347.1
400.07 -111.78 2269.3
407.53 -112.22 2278.1
412.89 -112.07 2275.1
423.12 -113.23 2298.6
437.68 -115.50 2344.7
448.19 -116.65 2368.1
461.64 -118.53 2406.3
468.80 -118.76 2411.0
470.38 -117.59 2387.3
477.90 -117.92 2393.9
488.61 -119.02 2416.2
489.82 -117.80 2391.5
490.08 -116.40 2362.9
497.80 -116.77 2370.5
513.86 -119.07 2417.1
614.89 -131.27 2664.8
658.34 -131.67 2673.0
652.77 -120.41 2444.5
632.41 -115.54 2345.5
641.49 -116.08 2356.5
659.35 -118.18 2399.2
655.78 -116.45 2364.0
643.96 -113.29 2299.9
664.70 -115.86 2352.1
694.99 -120.04 2437.0
699.18 -119.68 2429.6
696.91 -118.23 2400.1
687.48 -115.59 2346.6
682.60 -113.77 2309.6
692.67 -114.44 2323.2
721.50 -118.18 2399.1
156.78 -130.65 2519.7
160.38 -128.31 2474.5
164.89 -126.84 2446.2
169.88 -125.83 2426.8
176.50 -126.07 2431.3
181.12 -124.91 2409.0
184.15 -122.77 2367.7
191.13 -123.31 2378.1
198.41 -124.01 2391.6
205.34 -124.45 2400.0
213.18 -125.40 2418.4
218.49 -124.85 2407.9
221.34 -122.97 2371.5
224.29 -121.24 2338.1
231.27 -121.72 2347.5
235.19 -120.61 2326.0
231.68 -115.84 2234.0
235.19 -114.73 2212.6
242.80 -115.62 2229.8
251.28 -116.88 2254.0
265.65 -120.75 2328.8
277.17 -123.19 2375.7
281.11 -122.22 2357.2
275.78 -117.35 2263.2
283.18 -115.58 2229.1
293.87 -117.55 2267.0
296.38 -116.23 2241.5
308.89 -118.80 2291.2
323.42 -122.05 2353.8
340.65 -121.66 2346.3
326.45 -114.54 2209.1
330.57 -113.99 2198.4
346.26 -117.38 2263.7
353.37 -117.79 2271.7
357.56 -117.23 2260.9
366.44 -118.21 2279.7
376.71 -119.59 2306.4
381.55 -119.23 2299.5
382.87 -117.81 2272.0
392.13 -118.83 2291.7
412.25 -123.06 2373.3
428.93 -124.33 2397.8
428.36 -122.39 2360.3
430.84 -121.36 2340.6
437.81 -121.61 2345.4
443.12 -121.40 2341.3
450.67 -121.80 2349.1
461.69 -123.12 2374.4
467.62 -123.06 2373.2
469.43 -121.93 2351.5
473.51 -121.41 2341.5
495.57 -125.46 2419.6
606.06 -139.32 2687.0
610.24 -138.69 2674.8
615.93 -138.41 2669.4
619.55 -137.68 2655.2
638.38 -138.78 2676.4
661.18 -140.68 2713.1
649.90 -136.82 2638.7
649.08 -126.03 2430.7
634.16 -121.95 2352.0
643.77 -122.62 2364.9
663.50 -125.19 2414.4
666.11 -124.51 2401.2
661.66 -122.53 2363.1
656.20 -120.40 2322.1
661.22 -120.22 2318.6
669.81 -120.69 2327.5
668.97 -119.46 2303.9
685.63 -120.29 2319.8
704.86 -122.58 2364.1
742.41 -128.00 2468.6
164.24 -137.96 2533.9
168.49 -136.09 2499.6
173.20 -134.71 2474.3
181.10 -135.83 2494.8
187.08 -135.47 2488.3
191.25 -133.88 2458.9
199.43 -135.09 2481.3
205.65 -134.96 2478.8
211.27 -134.44 2469.3
214.90 -132.73 2438.0
215.49 -129.29 2374.7
215.65 -125.80 2310.6
216.73 -123.01 2259.3
219.10 -121.08 2224.0
235.05 -120.39 2211.3
246.77 -123.39 2266.3
260.10 -127.03 2333.1
266.86 -127.37 2339.4
270.88 -126.41 2321.8
278.00 -126.91 2331.1
274.05 -122.45 2249.1
289.98 -121.79 2237.0
299.22 -123.21 2263.0
312.05 -126.02 2314.7
327.19 -129.64 2381.1
329.92 -128.30 2356.6
330.41 -126.16 2317.2
336.30 -126.11 2316.3
334.44 -123.21 2263.1
353.63 -123.77 2273.3
371.86 -128.02 2351.3
374.00 -126.68 2326.7
378.43 -126.14 2316.9
387.06 -127.00 2332.7
392.27 -126.73 2327.8
394.10 -125.39 2303.2
406.73 -127.48 2341.5
425.10 -131.28 2411.3
429.76 -130.80 2402.4
434.18 -130.25 2392.4
441.99 -130.73 2401.2
445.63 -129.97 2387.3
447.89 -128.85 2366.5
452.31 -128.36 2357.6
459.91 -128.78 2365.3
467.17 -129.09 2371.0
470.15 -128.22 2355.1
486.11 -130.88 2403.9
521.35 -138.59 2545.5
529.28 -137.22 2520.4
593.78 -146.70 2694.5
605.87 -147.94 2717.3
612.14 -147.76 2713.9
634.44 -148.04 2719.0
641.07 -146.33 2687.7
656.98 -145.23 2667.4
662.91 -135.16 2482.5
658.77 -133.02 2443.3
681.46 -136.29 2503.3
689.25 -135.27 2484.6
674.50 -131.15 2408.9
658.83 -126.93 2331.4
667.43 -127.42 2340.4
682.71 -129.16 2372.3
685.83 -126.34 2320.5
725.88 -132.55 2434.6
738.29 -133.66 2454.9
725.69 -129.15 2372.1
168.74 -142.78 2503.3
171.57 -139.80 2451.0
178.04 -139.89 2452.6
187.81 -142.47 2497.9
195.64 -143.47 2515.3
203.24 -144.23 2528.7
209.25 -143.86 2522.2
213.28 -142.19 2492.9
214.96 -139.09 2438.6
211.85 -133.16 2334.6
208.29 -127.29 2231.7
223.27 -125.95 2208.2
235.32 -129.43 2269.2
241.24 -129.45 2269.5
245.44 -128.56 2254.0
253.65 -129.77 2275.2
254.94 -127.47 2234.9
259.50 -126.87 2224.3
266.85 -127.62 2237.5
270.27 -126.51 2218.0
279.45 -125.47 2199.8
293.53 -129.15 2264.4
304.15 -131.20 2300.3
318.94 -134.94 2365.8
321.29 -133.37 2338.3
310.49 -126.50 2217.8
323.18 -129.27 2266.4
341.13 -134.01 2349.6
345.34 -133.29 2336.9
344.58 -130.70 2291.6
342.69 -127.78 2240.3
358.03 -131.28 2301.6
375.08 -135.28 2371.7
376.17 -133.48 2340.2
383.04 -133.76 2345.2
393.37 -135.22 2370.8
394.54 -133.54 2341.2
392.69 -130.90 2295.0
392.66 -128.93 2260.5
398.52 -128.93 2260.5
406.49 -129.60 2272.3
414.69 -130.33 2285.0
430.18 -133.30 2337.0
441.90 -135.03 2367.3
451.73 -136.14 2386.8
464.09 -137.97 2419.0
469.95 -137.85 2416.9
474.63 -137.39 2408.8
482.59 -137.88 2417.4
525.78 -144.59 2535.0
529.00 -143.68 2519.0
585.32 -151.49 2656.1
597.53 -152.86 2679.9
616.45 -155.88 2733.0
635.66 -152.01 2665.0
664.13 -152.20 2668.4
663.54 -145.98 2559.4
693.78 -151.12 2649.5
689.48 -148.71 2607.3
654.32 -139.76 2450.3
667.21 -139.80 2451.0
679.47 -141.02 2472.5
692.90 -142.46 2497.8
695.68 -141.71 2484.6
683.18 -137.89 2417.5
699.11 -139.82 2451.4
708.02 -140.33 2460.3
685.51 -134.65 2360.8
693.66 -133.86 2347.0
734.92 -140.59 2464.9
165.16 -151.94 2548.1
169.05 -149.54 2507.9
175.38 -149.40 2505.4
178.95 -147.00 2465.1
185.91 -147.44 2472.6
194.60 -149.19 2502.0
202.73 -150.41 2522.4
209.55 -150.62 2525.9
214.52 -149.52 2507.4
216.50 -146.46 2456.1
212.54 -139.67 2342.2
213.08 -136.14 2283.0
222.29 -138.18 2317.3
231.66 -140.22 2351.5
241.41 -142.37 2387.6
244.96 -140.85 2362.2
240.68 -135.02 2264.2
247.56 -135.57 2273.5
259.03 -138.55 2323.5
261.47 -136.68 2292.1
266.87 -136.40 2287.4
267.87 -133.94 2246.1
277.25 -132.85 2227.9
296.52 -139.18 2334.1
298.50 -137.31 2302.7
295.60 -133.31 2235.6
314.89 -139.28 2335.8
323.29 -140.29 2352.8
309.89 -131.99 2213.5
320.31 -133.95 2246.3
337.06 -138.43 2321.6
340.62 -137.44 2304.9
350.02 -138.80 2327.7
358.49 -139.75 2343.6
358.74 -137.52 2306.2
361.62 -136.35 2286.6
372.31 -138.11 2316.2
387.98 -141.64 2375.4
394.62 -141.82 2378.3
392.83 -139.00 2331.0
389.44 -135.71 2275.9
401.86 -133.95 2246.4
418.01 -135.41 2270.9
440.92 -140.85 2362.1
462.61 -145.76 2444.3
518.43 -152.87 2563.6
517.20 -150.58 2525.2
526.52 -151.37 2538.6
591.68 -160.10 2684.9
600.27 -160.54 2692.2
615.70 -162.77 2729.7
645.99 -161.50 2708.3
645.61 -159.67 2677.6
664.46 -162.58 2726.5
659.43 -159.65 2677.4
674.65 -161.63 2710.6
670.90 -157.46 2640.6
650.94 -148.23 2485.9
683.00 -154.01 2582.8
686.17 -153.22 2569.6
665.09 -147.09 2466.7
672.62 -147.34 2470.9
697.89 -151.43 2539.5
717.38 -152.78 2562.1
696.66 -147.00 2465.2
711.88 -148.85 2496.2
713.72 -147.89 2480.1
714.64 -146.76 2461.1
720.80 -146.71 2460.4
163.13 -156.60 2516.9
167.34 -154.47 2482.6
175.56 -156.05 2508.0
181.16 -155.28 2495.6
190.67 -157.79 2536.0
211.83 -158.87 2553.3
213.04 -154.94 2490.1
210.69 -148.72 2390.1
212.59 -145.78 2342.9
219.82 -146.55 2355.2
227.87 -147.81 2375.5
236.71 -149.50 2402.7
240.27 -147.86 2376.3
237.51 -142.51 2290.3
240.12 -140.56 2258.9
255.09 -145.76 2342.6
265.07 -147.95 2377.7
265.50 -144.82 2327.4
271.80 -144.96 2329.7
273.27 -142.57 2291.4
269.10 -137.41 2208.4
280.16 -140.08 2251.3
293.96 -143.98 2314.0
289.60 -139.01 2234.0
318.62 -144.28 2318.8
328.67 -146.07 2347.6
330.12 -144.05 2315.1
337.44 -144.62 2324.2
338.52 -142.53 2290.7
345.81 -143.10 2299.7
356.62 -145.07 2331.4
359.61 -143.84 2311.8
358.75 -141.15 2268.5
365.76 -141.58 2275.4
383.89 -146.25 2350.4
393.91 -147.72 2374.0
399.57 -147.53 2371.0
403.18 -146.61 2356.3
402.11 -144.04 2314.9
408.63 -144.22 2317.8
414.63 -144.22 2317.8
417.60 -143.18 2301.0
420.48 -142.13 2284.3
434.81 -144.94 2329.3
457.90 -150.54 2419.5
461.81 -147.78 2375.0
461.76 -145.82 2343.5
517.56 -159.25 2559.3
500.69 -150.21 2414.1
541.74 -158.56 2548.2
589.83 -168.52 2708.4
632.93 -165.11 2653.6
648.79 -167.43 2690.8
658.61 -166.39 2674.1
650.68 -162.67 2614.3
676.29 -167.33 2689.2
674.49 -165.18 2654.7
663.57 -160.87 2585.4
665.85 -159.80 2568.3
690.19 -160.82 2584.6
701.89 -161.98 2603.2
703.46 -160.79 2584.1
699.81 -154.09 2476.4
729.30 -159.12 2557.3
743.43 -160.74 2583.4
728.83 -153.44 2466.0
161.36 -161.36 2489.6
172.95 -160.14 2470.8
180.48 -161.15 2486.3
192.06 -165.57 2554.4
203.38 -164.02 2530.5
208.33 -162.76 2511.1
210.63 -159.56 2461.9
213.89 -157.27 2426.5
223.22 -155.01 2391.6
224.69 -151.82 2342.4
228.75 -150.49 2321.9
227.28 -145.69 2247.8
236.34 -147.71 2279.0
252.10 -153.72 2371.7
257.32 -153.16 2363.1
256.40 -149.07 2300.0
256.75 -145.88 2250.7
263.66 -146.48 2260.0
272.63 -148.17 2286.0
276.42 -147.03 2268.5
279.63 -145.64 2247.0
284.86 -145.33 2242.3
290.32 -145.16 2239.6
317.75 -149.88 2312.5
330.55 -153.03 2361.1
334.44 -152.02 2345.4
339.96 -151.77 2341.6
338.90 -148.64 2293.3
341.01 -146.99 2267.8
347.96 -147.44 2274.8
358.17 -149.24 2302.5
363.53 -148.99 2298.7
362.85 -146.31 2257.3
373.38 -148.16 2286.0
383.23 -149.70 2309.6
388.72 -149.51 2306.7
399.42 -151.29 2334.2
405.63 -151.36 2335.2
409.43 -150.53 2322.4
413.33 -149.76 2310.5
428.04 -152.87 2358.6
442.63 -155.86 2404.6
442.98 -153.81 2373.1
451.71 -154.69 2386.7
463.88 -156.72 2417.9
454.31 -151.44 2336.4
473.39 -153.70 2371.3
505.01 -161.86 2497.3
493.72 -154.29 2380.4
500.46 -154.46 2383.1
538.54 -164.19 2533.2
581.35 -175.10 2701.6
589.74 -175.52 2708.0
584.62 -171.95 2652.9
603.12 -175.33 2705.0
622.67 -174.91 2698.6
632.71 -175.75 2711.6
635.02 -174.46 2691.6
664.32 -173.00 2669.1
677.65 -174.65 2694.6
678.07 -172.98 2668.8
669.18 -168.98 2607.2
683.03 -170.76 2634.5
677.54 -167.71 2587.5
678.14 -163.01 2515.1
693.39 -165.09 2547.2
707.47 -166.86 2574.3
710.20 -165.94 2560.1
725.49 -166.40 2567.3
742.33 -168.71 2603.0
745.53 -167.91 2590.6
754.47 -165.45 2552.7
164.69 -171.28 2540.9
168.97 -168.97 2506.6
198.92 -172.39 2557.5
205.50 -172.36 2557.0
217.73 -171.55 2544.9
221.39 -169.30 2511.6
224.33 -166.65 2472.3
219.28 -158.37 2349.5
223.80 -157.26 2333.0
230.67 -157.83 2341.4
224.53 -149.69 2220.7
247.42 -156.90 2327.6
254.90 -157.79 2340.9
254.48 -153.87 2282.7
256.59 -151.62 2249.3
261.31 -150.98 2239.8
267.15 -151.00 2240.1
275.77 -152.55 2263.2
283.03 -153.31 2274.3
286.19 -151.86 2252.8
290.78 -151.21 2243.2
294.67 -150.22 2228.6
306.08 -153.04 2270.4
324.76 -159.32 2363.5
332.02 -159.86 2371.5
326.63 -154.41 2290.7
323.71 -150.29 2229.6
333.16 -151.97 2254.5
345.40 -154.84 2297.0
353.94 -155.97 2313.9
365.32 -158.31 2348.5
372.20 -158.64 2353.5
373.08 -156.45 2321.0
377.66 -155.86 2312.2
382.19 -155.26 2303.4
386.17 -154.47 2291.6
396.49 -156.19 2317.1
400.27 -155.33 2304.3
401.39 -153.47 2276.8
412.74 -155.52 2307.2
434.74 -161.48 2395.5
448.16 -164.11 2434.7
447.49 -161.59 2397.2
447.18 -159.27 2362.8
449.52 -157.94 2343.0
459.94 -159.45 2365.4
473.76 -162.08 2404.4
478.58 -161.60 2397.4
485.35 -161.78 2400.1
510.14 -167.90 2490.8
522.01 -169.65 2516.8
574.33 -179.91 2669.0
586.67 -181.59 2693.9
599.99 -181.39 2691.0
631.77 -184.56 2738.0
652.10 -180.37 2675.8
654.59 -179.15 2657.7
665.18 -180.15 2672.6
671.94 -180.11 2671.9
686.18 -178.41 2646.7
692.86 -178.36 2646.0
676.31 -172.39 2557.5
705.77 -173.11 2568.2
709.29 -172.35 2556.9
170.48 -177.04 2529.1
191.47 -178.26 2546.6
196.25 -176.63 2523.2
211.23 -178.22 2546.0
208.51 -170.60 2437.2
215.66 -171.26 2446.6
222.40 -171.57 2451.0
221.47 -166.10 2372.9
231.00 -168.57 2408.1
237.54 -164.45 2349.3
244.48 -157.17 2245.3
249.24 -156.50 2235.7
254.96 -156.45 2235.1
262.65 -157.59 2251.3
271.36 -159.27 2275.3
282.48 -162.28 2318.2
285.32 -160.49 2292.7
283.75 -156.35 2233.6
290.60 -156.93 2241.8
297.36 -157.43 2249.0
302.96 -157.31 2247.2
316.01 -160.99 2299.8
330.16 -165.08 2358.3
331.37 -162.67 2323.9
333.97 -161.02 2300.3
348.71 -165.18 2359.7
352.02 -163.87 2341.0
352.37 -161.25 2303.6
357.28 -160.78 2296.8
358.73 -158.78 2268.3
367.79 -160.17 2288.1
379.52 -162.65 2323.6
391.75 -165.27 2361.0
404.84 -168.16 2402.3
412.57 -168.78 2411.1
414.03 -166.85 2383.6
411.89 -163.54 2336.3
420.04 -164.36 2348.1
430.93 -166.21 2374.5
433.45 -164.83 2354.8
436.61 -163.73 2339.0
440.42 -162.90 2327.1
446.43 -162.89 2327.0
461.39 -166.10 2372.9
476.96 -169.45 2420.6
483.19 -169.43 2420.4
486.85 -168.52 2407.5
508.46 -173.78 2482.5
534.53 -178.18 2545.4
583.36 -185.30 2647.2
598.36 -187.86 2683.7
617.50 -191.64 2737.7
659.31 -189.38 2705.4
665.79 -187.25 2675.0
681.36 -185.83 2654.7
702.34 -189.63 2709.0
711.40 -188.31 2690.2
711.99 -186.64 2666.3
695.32 -180.52 2578.8
698.93 -179.73 2567.5
716.49 -182.50 2607.2
715.84 -180.63 2580.5
722.05 -180.51 2578.7
728.52 -180.46 2578.0
748.60 -182.09 2601.3
761.03 -181.84 2597.7
190.16 -183.60 2529.2
193.74 -180.82 2490.9
200.00 -180.64 2488.4
207.21 -170.65 2350.7
219.75 -175.80 2421.7
224.03 -174.24 2400.3
229.91 -173.98 2396.7
236.55 -174.30 2401.1
238.20 -171.02 2355.8
235.29 -164.70 2268.9
234.78 -160.34 2208.8
241.20 -160.80 2215.1
247.98 -161.48 2224.4
256.39 -163.16 2247.5
267.68 -166.56 2294.4
280.40 -170.68 2351.2
292.41 -170.57 2349.7
289.23 -165.28 2276.8
292.60 -163.86 2257.2
302.41 -166.03 2287.1
311.70 -167.84 2312.1
321.79 -170.00 2341.9
332.31 -172.31 2373.7
350.18 -169.05 2328.8
344.01 -163.26 2249.0
361.55 -163.28 2249.3
375.11 -166.72 2296.6
388.91 -170.15 2343.9
403.27 -173.72 2393.0
412.33 -174.93 2409.7
413.79 -172.93 2382.2
411.47 -169.43 2334.0
415.23 -168.50 2321.1
421.94 -168.78 2325.0
427.06 -168.42 2320.0
432.69 -168.27 2318.0
447.02 -171.46 2362.0
464.58 -175.79 2421.6
476.73 -177.98 2451.7
488.83 -180.09 2480.9
501.46 -182.35 2512.0
513.06 -184.17 2537.1
549.18 -192.21 2647.8
562.52 -194.45 2678.7
567.09 -193.64 2667.5
576.65 -194.53 2679.8
593.68 -197.89 2726.1
592.48 -195.17 2688.6
591.96 -192.73 2655.0
607.08 -195.38 2691.5
617.93 -196.61 2708.5
651.64 -196.19 2702.6
657.55 -195.86 2698.1
689.43 -194.99 2686.1
720.30 -192.08 2646.0
726.68 -191.95 2644.3
734.03 -186.84 2573.9
195.64 -189.12 2515.3
202.60 -189.53 2520.8
210.82 -191.05 2541.1
216.51 -190.27 2530.6
213.92 -182.46 2426.8
214.66 -177.86 2365.6
217.96 -175.58 2335.3
222.44 -174.34 2318.8
233.48 -178.18 2369.9
240.96 -179.18 2383.2
238.54 -172.94 2300.2
237.59 -168.05 2235.1
244.18 -168.60 2242.5
252.02 -169.97 2260.7
260.63 -171.78 2284.8
272.26 -175.45 2333.6
277.51 -174.96 2327.0
279.60 -172.52 2294.6
287.68 -173.81 2311.7
289.56 -171.37 2279.3
293.32 -170.12 2262.7
303.66 -172.67 2296.6
313.51 -174.84 2325.5
323.50 -177.01 2354.3
324.92 -174.50 2320.9
328.85 -173.39 2306.2
347.03 -179.71 2390.3
353.39 -179.79 2391.4
349.81 -174.91 2326.4
347.72 -170.91 2273.2
357.31 -172.70 2297.0
372.00 -176.85 2352.2
373.99 -174.93 2326.7
376.81 -173.45 2307.0
385.57 -174.71 2323.8
395.24 -176.34 2345.4
400.65 -176.04 2341.5
398.35 -172.42 2293.3
404.64 -172.57 2295.2
417.08 -175.30 2331.5
428.10 -177.36 2358.9
437.99 -178.90 2379.4
441.03 -177.64 2362.6
452.69 -179.84 2391.9
468.63 -183.65 2442.7
478.54 -185.04 2461.1
495.87 -189.21 2516.6
547.66 -198.53 2640.5
561.39 -200.99 2673.3
566.16 -200.23 2663.1
576.33 -201.37 2678.3
594.95 -202.98 2699.8
590.99 -199.29 2650.6
602.80 -200.93 2672.5
619.15 -204.04 2713.8
724.41 -205.96 2739.4
702.22 -197.71 2629.7
688.59 -192.01 2553.8
716.24 -195.95 2606.3
751.13 -198.03 2633.8
212.76 -199.46 2564.5
228.77 -185.49 2384.9
236.75 -186.91 2403.1
241.92 -186.09 2392.6
236.85 -177.64 2283.9
242.70 -177.59 2283.3
256.65 -183.32 2357.0
262.91 -183.42 2358.3
269.62 -183.83 2363.6
267.70 -178.47 2294.6
275.56 -172.22 2214.3
283.09 -173.32 2228.4
292.62 -175.57 2257.4
302.56 -177.97 2288.2
312.25 -180.14 2316.1
314.88 -178.24 2291.6
319.22 -174.12 2238.7
342.81 -183.65 2361.2
352.45 -185.50 2385.0
350.78 -181.44 2332.8
352.78 -179.38 2306.3
366.74 -183.37 2357.6
381.89 -187.82 2414.8
384.04 -185.83 2389.2
383.17 -182.46 2345.9
388.44 -182.08 2341.0
396.00 -182.77 2349.9
399.73 -181.70 2336.1
398.28 -178.33 2292.8
405.95 -179.09 2302.6
418.41 -181.92 2338.9
429.26 -183.97 2365.3
444.04 -187.62 2412.3
452.83 -188.68 2425.9
453.72 -186.46 2397.3
458.21 -185.76 2388.4
476.17 -190.47 2448.9
504.07 -198.97 2558.2
507.73 -195.28 2510.7
510.58 -193.89 2492.9
520.02 -195.01 2507.2
596.34 -210.47 2706.1
657.01 -211.94 2724.9
683.38 -211.36 2717.4
699.58 -214.16 2753.5
713.06 -209.72 2696.4
706.47 -205.77 2645.6
744.65 -210.75 2709.6
771.78 -210.49 2706.2
789.30 -213.32 2742.7
796.69 -213.40 2743.7
238.07 -194.22 2416.5
236.05 -187.63 2334.6
236.08 -182.96 2276.5
247.19 -186.90 2325.4
258.11 -190.51 2370.4
262.74 -189.42 2356.8
271.83 -191.52 2382.9
271.92 -187.32 2330.7
280.18 -180.95 2251.4
294.59 -186.37 2318.9
300.25 -186.15 2316.2
306.55 -186.33 2318.4
313.65 -186.98 2326.5
313.33 -183.27 2280.3
317.75 -182.41 2269.6
336.04 -189.40 2356.6
341.88 -189.26 2354.8
335.03 -182.21 2267.1
339.75 -181.59 2259.4
347.58 -182.63 2272.3
366.51 -189.37 2356.2
395.46 -194.59 2421.2
390.48 -189.14 2353.3
388.30 -185.19 2304.2
401.33 -188.51 2345.5
408.94 -189.21 2354.3
412.62 -188.10 2340.5
422.19 -189.68 2360.0
426.15 -188.73 2348.2
433.85 -189.43 2356.9
443.42 -190.91 2375.4
444.36 -188.70 2347.9
450.61 -188.77 2348.7
470.75 -194.58 2421.0
497.22 -202.81 2523.5
505.08 -203.34 2530.1
508.02 -201.91 2512.2
519.28 -203.77 2535.4
528.42 -204.76 2547.7
566.77 -214.27 2666.0
578.42 -216.04 2688.0
581.26 -214.51 2669.0
593.65 -216.51 2693.9
694.25 -217.39 2704.9
707.64 -217.20 2702.5
711.39 -216.21 2690.1
721.51 -217.15 2701.9
739.72 -220.49 2743.5
753.21 -214.21 2665.3
790.25 -220.70 2746.0
238.90 -201.18 2425.0
240.22 -197.10 2375.8
242.82 -194.25 2341.4
247.35 -193.05 2326.9
251.69 -191.76 2311.4
260.92 -194.18 2340.5
275.94 -187.87 2264.5
276.80 -184.53 2224.3
292.77 -191.20 2304.6
300.96 -192.61 2321.7
316.15 -198.37 2391.0
328.05 -198.07 2387.4
329.01 -194.97 2350.1
340.89 -198.34 2390.7
340.52 -194.58 2345.4
333.07 -186.99 2253.9
347.51 -188.48 2271.9
370.11 -197.39 2379.3
384.07 -201.48 2428.6
382.15 -197.24 2377.4
392.97 -199.61 2406.0
395.95 -197.97 2386.3
393.19 -193.57 2333.2
406.29 -196.99 2374.4
415.68 -198.54 2393.1
421.36 -198.29 2390.1
426.84 -197.95 2386.1
426.60 -195.02 2350.7
432.50 -194.93 2349.6
439.12 -195.16 2352.4
440.75 -193.20 2328.8
446.95 -193.27 2329.7
458.67 -195.70 2358.9
475.93 -200.39 2415.4
497.95 -206.94 2494.4
516.61 -211.94 2554.7
552.00 -220.80 2661.4
565.16 -223.27 2691.2
577.65 -225.42 2717.1
623.98 -221.86 2674.2
635.82 -223.59 2695.0
693.17 -226.34 2728.2
683.21 -220.84 2661.9
690.84 -218.88 2638.3
717.52 -220.78 2661.1
737.83 -224.86 2710.4
761.28 -227.67 2744.3
763.28 -222.05 2676.4
794.51 -229.05 2760.8
239.86 -202.96 2372.3
239.58 -197.65 2310.2
240.66 -193.70 2264.0
244.19 -191.87 2242.6
252.59 -193.85 2265.7
264.94 -198.70 2322.5
277.00 -203.13 2374.3
286.61 -205.61 2403.3
281.42 -197.59 2309.5
278.95 -191.78 2241.6
291.83 -196.54 2297.2
299.10 -197.41 2307.3
313.08 -202.58 2367.8
327.01 -199.84 2335.8
334.91 -200.95 2348.7
341.74 -201.38 2353.8
340.72 -197.26 2305.6
347.61 -197.78 2311.7
362.05 -202.50 2366.9
373.87 -205.63 2403.4
377.14 -204.03 2384.8
376.37 -200.33 2341.5
388.55 -203.53 2378.9
404.18 -208.41 2435.9
413.47 -209.92 2453.6
414.11 -207.05 2420.1
410.99 -202.43 2366.1
416.43 -202.09 2362.1
422.01 -201.83 2359.1
419.04 -197.55 2309.0
444.88 -203.90 2383.3
462.33 -209.00 2442.9
460.94 -205.55 2402.6
463.90 -204.12 2385.8
473.71 -205.69 2404.2
487.70 -209.02 2443.0
499.52 -211.34 2470.2
568.12 -231.46 2705.3
567.37 -228.33 2668.8
609.17 -233.75 2732.2
611.31 -231.88 2710.3
675.93 -229.96 2687.8
673.40 -226.76 2650.4
708.82 -229.32 2680.4
733.05 -234.86 2745.1
724.64 -229.93 2687.5
721.71 -226.82 2651.2
752.93 -234.40 2739.8
756.07 -233.18 2725.5
750.80 -229.41 2681.4
774.59 -234.51 2741.0
772.15 -231.64 2707.5
800.12 -235.75 2755.5
241.01 -210.11 2383.7
241.48 -205.26 2328.5
245.34 -203.45 2308.1
251.47 -203.57 2309.4
251.32 -198.72 2254.3
254.94 -197.00 2234.9
259.97 -196.42 2228.3
263.19 -194.53 2206.9
277.87 -201.01 2280.4
295.25 -209.14 2372.6
298.80 -207.33 2352.0
296.86 -201.86 2290.0
306.09 -204.06 2315.0
319.57 -208.95 2370.4
320.72 -205.75 2334.1
318.65 -200.63 2276.1
326.68 -201.95 2291.0
334.08 -202.83 2301.0
341.81 -203.89 2313.0
357.60 -209.63 2378.1
367.40 -211.72 2401.9
373.63 -211.72 2401.9
387.33 -215.89 2449.2
398.43 -215.02 2439.3
404.91 -215.11 2440.3
423.09 -217.96 2472.6
408.18 -207.13 2349.8
424.55 -209.20 2373.3
439.58 -213.51 2422.2
434.66 -208.15 2361.3
449.53 -212.28 2408.2
464.46 -216.32 2454.1
459.34 -211.05 2394.2
471.21 -213.62 2423.4
490.94 -219.63 2491.6
504.18 -222.62 2525.6
514.03 -224.06 2541.9
518.55 -223.18 2531.8
567.18 -238.07 2700.8
561.03 -232.62 2639.0
591.07 -239.24 2714.1
602.85 -235.60 2672.7
675.00 -239.06 2712.1
670.44 -235.00 2666.0
683.32 -237.07 2689.4
687.88 -236.24 2680.1
693.15 -235.67 2673.6
736.68 -240.84 2732.2
721.82 -233.73 2651.6
740.89 -237.64 2696.0
779.85 -238.87 2709.9
249.64 -218.44 2407.3
254.55 -217.30 2394.7
263.28 -219.40 2417.8
265.39 -216.01 2380.5
260.42 -207.15 2282.9
279.61 -208.22 2294.7
295.56 -215.51 2375.0
297.98 -212.84 2345.6
297.17 -208.02 2292.5
307.98 -211.36 2329.2
315.37 -212.27 2339.3
311.02 -205.39 2263.5
316.23 -204.96 2258.8
330.13 -210.08 2315.2
338.58 -211.61 2332.1
346.83 -212.97 2347.0
355.15 -214.32 2361.9
357.52 -212.09 2337.3
363.75 -212.19 2338.4
377.91 -216.83 2389.6
385.53 -217.64 2398.5
384.85 -213.81 2356.2
397.48 -217.37 2395.5
418.59 -225.39 2483.9
427.87 -226.90 2500.5
416.27 -217.45 2396.4
427.44 -216.82 2389.4
449.09 -224.54 2474.6
449.71 -221.69 2443.1
456.75 -222.03 2446.9
463.80 -222.37 2450.6
467.12 -220.93 2434.8
490.12 -228.72 2520.6
497.96 -229.32 2527.2
498.02 -226.37 2494.7
522.60 -234.50 2584.3
541.82 -240.05 2645.4
558.32 -244.26 2691.9
570.23 -243.39 2682.3
576.46 -243.09 2678.9
607.09 -241.46 2661.0
630.00 -247.75 2730.3
631.06 -245.41 2704.5
638.39 -245.53 2705.9
646.42 -245.92 2710.1
652.60 -245.60 2706.6
659.93 -245.72 2707.9
659.89 -243.12 2679.2
667.88 -243.50 2683.4
681.71 -245.98 2710.8
729.91 -248.03 2733.4
735.49 -247.52 2727.8
735.53 -245.18 2702.0
253.96 -222.99 2389.2
256.32 -219.70 2353.9
260.47 -218.07 2336.4
257.76 -210.89 2259.6
265.54 -207.82 2226.6
271.11 -207.66 2224.9
276.06 -207.04 2218.3
286.24 -210.30 2253.2
293.78 -211.52 2266.3
309.34 -218.36 2339.6
321.55 -222.61 2385.1
315.02 -213.97 2292.6
317.26 -211.51 2266.1
328.64 -215.11 2304.8
334.64 -215.13 2304.9
341.80 -215.87 2312.9
348.85 -216.53 2319.9
354.58 -216.35 2318.1
364.12 -218.47 2340.8
378.76 -223.53 2395.0
386.87 -224.63 2406.8
392.95 -224.54 2405.8
419.15 -232.15 2487.3
412.82 -225.18 2412.6
419.75 -225.54 2416.5
428.94 -227.09 2433.1
437.16 -228.08 2443.8
445.61 -229.17 2455.4
451.41 -228.88 2452.3
463.95 -231.98 2485.4
477.21 -235.34 2521.5
487.46 -237.14 2540.8
499.70 -239.86 2569.9
494.96 -234.45 2512.0
492.25 -230.14 2465.8
542.10 -247.03 2646.8
569.99 -253.33 2714.3
580.64 -248.84 2666.2
608.02 -257.51 2759.1
610.51 -255.56 2738.1
613.38 -250.93 2688.5
629.41 -254.59 2727.8
622.77 -249.11 2669.0
635.50 -251.41 2693.7
649.28 -254.07 2722.1
646.15 -250.12 2679.9
661.41 -250.64 2685.4
688.61 -255.57 2738.2
715.59 -257.61 2760.1
715.99 -255.20 2734.3
704.03 -248.48 2662.3
747.93 -256.43 2747.5
253.06 -228.37 2380.7
258.19 -227.46 2371.2
265.92 -228.82 2385.3
264.58 -222.49 2319.4
265.44 -218.25 2275.2
271.26 -218.18 2274.5
274.42 -216.03 2252.1
277.34 -213.79 2228.7
285.79 -215.80 2249.7
287.31 -212.61 2216.4
296.48 -215.09 2242.3
320.28 -227.89 2375.7
326.33 -227.81 2374.9
319.53 -218.94 2282.4
322.38 -216.87 2260.9
329.84 -217.93 2271.9
339.25 -220.21 2295.6
354.25 -225.98 2355.8
367.44 -230.43 2402.2
370.92 -228.74 2384.5
380.53 -230.82 2406.2
397.68 -237.32 2474.0
416.24 -236.94 2470.0
415.92 -233.16 2430.7
429.87 -237.39 2474.7
437.31 -237.95 2480.5
443.37 -237.75 2478.5
449.06 -237.36 2474.4
451.48 -235.28 2452.7
460.01 -236.39 2464.3
468.58 -237.50 2475.9
475.90 -237.95 2480.6
484.76 -239.15 2493.1
496.38 -241.66 2519.2
509.29 -244.72 2551.2
519.00 -246.19 2566.5
570.88 -260.77 2718.5
583.89 -257.19 2681.1
622.77 -258.90 2699.0
633.76 -257.68 2686.2
649.36 -261.16 2722.5
648.80 -258.13 2690.9
646.20 -254.35 2651.6
663.16 -258.28 2692.5
681.04 -262.49 2736.3
675.34 -257.60 2685.4
676.98 -255.59 2664.5
685.69 -256.27 2671.5
776.36 -263.53 2747.3
274.10 -236.73 2402.9
271.03 -228.87 2323.1
271.90 -224.61 2279.9
281.70 -227.75 2311.8
292.15 -231.28 2347.6
291.49 -226.05 2294.5
304.24 -222.33 2256.8
319.07 -228.76 2322.0
320.97 -225.87 2292.6
326.38 -225.50 2288.9
336.48 -228.33 2317.6
341.05 -227.37 2307.9
350.76 -229.81 2332.6
366.30 -235.92 2394.7
372.06 -235.64 2391.8
373.76 -232.83 2363.3
383.36 -234.97 2385.0
394.20 -237.77 2413.5
398.01 -236.32 2398.7
413.16 -241.54 2451.7
433.61 -249.65 2534.1
441.52 -250.42 2541.8
443.08 -247.60 2513.3
452.20 -249.04 2527.8
460.33 -249.89 2536.5
460.92 -246.69 2504.0
468.48 -247.25 2509.7
470.69 -245.02 2487.0
471.10 -241.92 2455.5
485.22 -245.84 2495.4
516.96 -255.12 2589.6
528.15 -257.30 2611.7
568.09 -266.51 2705.2
567.97 -263.21 2671.6
567.89 -260.00 2639.1
593.92 -268.68 2727.2
643.66 -268.78 2728.2
642.05 -265.19 2691.8
645.61 -263.80 2677.7
646.75 -261.45 2653.8
657.29 -262.92 2668.7
669.34 -264.95 2689.3
674.21 -264.12 2680.9
685.40 -265.77 2697.6
734.99 -268.55 2725.9
256.24 -256.24 2534.2
264.18 -257.57 2547.4
270.29 -257.10 2542.8
268.30 -232.53 2299.8
274.54 -232.76 2302.0
290.29 -240.88 2382.3
291.34 -236.71 2341.1
280.88 -223.56 2211.0
304.43 -228.33 2258.2
317.50 -233.63 2310.6
327.65 -236.64 2340.4
340.62 -241.53 2388.8
348.69 -242.84 2401.7
351.30 -240.36 2377.2
355.25 -238.88 2362.5
364.25 -240.78 2381.3
373.95 -243.07 2404.0
378.48 -241.98 2393.2
389.90 -245.26 2425.7
401.48 -248.54 2458.1
401.17 -244.46 2417.8
412.73 -247.64 2449.2
432.33 -255.47 2526.6
438.35 -255.16 2523.5
446.25 -255.94 2531.3
482.06 -261.11 2582.4
478.72 -255.75 2529.4
475.30 -250.49 2477.4
486.43 -252.94 2501.6
503.06 -258.15 2553.1
517.61 -262.17 2592.9
532.16 -266.08 2631.6
542.63 -264.53 2616.3
573.83 -272.92 2699.2
584.50 -274.65 2716.3
594.62 -276.07 2730.4
602.02 -276.22 2731.8
631.65 -276.79 2737.5
638.38 -276.63 2735.9
650.82 -278.92 2758.6
644.89 -273.38 2703.7
644.99 -270.48 2675.1
661.20 -274.33 2713.2
699.60 -270.14 2671.7
707.93 -268.05 2651.0
727.55 -272.83 2698.3
255.23 -268.66 2590.6
259.70 -259.70 2504.2
268.96 -262.40 2530.3
278.56 -265.30 2558.2
274.00 -243.55 2348.6
286.95 -249.53 2406.1
286.59 -238.83 2303.0
286.08 -233.53 2251.9
293.74 -234.99 2266.0
296.91 -232.87 2245.5
307.15 -236.27 2278.3
319.58 -241.19 2325.8
327.57 -242.64 2339.8
336.32 -244.60 2358.6
340.88 -243.49 2347.9
342.33 -240.23 2316.6
344.51 -237.59 2291.1
354.23 -240.16 2315.8
364.83 -243.22 2345.4
383.67 -251.58 2426.0
420.61 -262.88 2534.9
424.36 -261.14 2518.2
439.60 -262.45 2530.7
444.06 -261.21 2518.9
481.04 -271.01 2613.3
487.48 -267.11 2575.7
504.34 -268.98 2593.8
518.51 -272.90 2631.6
548.36 -277.65 2677.4
604.87 -284.64 2744.8
617.71 -287.31 2770.5
617.66 -280.75 2707.3
612.47 -275.27 2654.4
643.20 -285.87 2756.6
659.28 -286.64 2764.0
658.12 -283.06 2729.5
683.59 -279.02 2690.5
695.59 -281.05 2710.1
715.06 -283.19 2730.8
707.69 -277.52 2676.1
733.17 -284.73 2745.6
244.90 -271.37 2553.0
251.35 -271.20 2551.3
260.40 -273.76 2575.4
275.02 -256.27 2410.9
272.77 -248.53 2338.1
275.81 -245.83 2312.7
273.54 -238.62 2244.8
278.78 -238.12 2240.2
290.39 -242.98 2285.9
299.41 -245.52 2309.8
302.96 -243.55 2291.3
308.79 -243.47 2290.5
316.52 -244.85 2303.5
323.62 -245.71 2311.6
331.32 -246.98 2323.5
334.36 -244.80 2303.0
334.54 -240.63 2263.8
355.11 -242.66 2282.8
371.60 -249.77 2349.7
392.86 -259.79 2444.0
399.19 -259.79 2444.0
419.69 -268.86 2529.4
445.61 -272.69 2565.3
444.98 -268.30 2524.1
457.63 -271.93 2558.2
486.68 -281.04 2643.9
483.63 -275.40 2590.9
483.83 -271.74 2556.5
505.97 -280.34 2637.3
526.70 -280.45 2638.4
580.99 -290.49 2732.9
593.20 -293.03 2756.7
601.50 -290.13 2729.5
611.49 -291.53 2742.6
606.00 -282.34 2656.2
629.02 -286.55 2695.8
644.10 -290.20 2730.1
657.95 -293.22 2758.5
673.46 -284.66 2678.0
684.53 -283.49 2667.0
714.63 -287.25 2702.4
250.60 -276.98 2543.7
266.63 -279.96 2571.1
279.24 -272.74 2504.8
272.80 -260.40 2391.4
266.25 -248.50 2282.1
265.61 -242.51 2227.1
274.90 -240.54 2209.0
289.43 -248.08 2278.3
299.84 -251.87 2313.1
304.57 -250.82 2303.5
311.23 -251.38 2308.6
322.25 -255.37 2345.2
332.63 -258.71 2375.9
336.00 -256.58 2356.4
335.56 -251.67 2311.2
351.75 -259.18 2380.2
369.07 -262.73 2412.8
364.95 -255.46 2346.1
372.75 -256.65 2356.9
383.28 -259.64 2384.5
390.11 -260.07 2388.4
429.92 -277.79 2551.2
427.46 -272.02 2498.1
436.58 -269.65 2476.4
457.16 -278.27 2555.6
485.42 -291.25 2674.8
491.53 -286.73 2633.2
504.53 -286.35 2629.8
529.09 -288.59 2650.3
541.69 -287.99 2644.8
577.57 -292.26 2684.0
593.32 -296.66 2724.4
596.63 -294.81 2707.4
615.23 -300.46 2759.3
622.24 -287.19 2637.4
643.48 -293.76 2697.8
661.75 -298.85 2744.6
683.23 -295.83 2716.8
681.28 -291.98 2681.4
683.36 -289.91 2662.5
699.57 -293.82 2698.3
703.86 -292.69 2688.0
707.84 -291.46 2676.7
725.61 -295.88 2717.3
734.77 -296.74 2725.1
275.97 -282.54 2534.4
274.98 -268.73 2410.5
275.62 -263.37 2362.4
267.30 -249.87 2241.3
274.70 -246.08 2207.4
291.98 -256.23 2298.4
294.27 -253.07 2270.1
290.93 -245.30 2200.3
305.83 -252.90 2268.5
324.19 -263.02 2359.4
342.50 -267.78 2402.0
335.61 -257.70 2311.6
345.55 -260.67 2338.3
366.70 -271.86 2438.6
368.22 -268.36 2407.3
371.87 -266.51 2390.6
387.39 -273.08 2449.6
400.06 -277.46 2488.8
407.15 -277.89 2492.7
419.78 -282.04 2529.9
430.29 -284.66 2553.4
436.56 -284.43 2551.3
448.43 -287.80 2581.6
459.07 -290.29 2604.0
586.60 -300.28 2693.6
586.84 -296.87 2663.0
598.62 -299.31 2684.8
629.87 -304.32 2729.8
630.62 -294.75 2643.9
643.86 -297.70 2670.4
657.94 -300.97 2699.7
670.01 -303.27 2720.3
677.86 -303.62 2723.5
683.05 -302.80 2716.1
698.24 -306.37 2748.2
712.11 -306.21 2746.7
693.09 -295.08 2646.9
721.38 -298.26 2675.4
235.92 -288.34 2527.7
239.76 -285.12 2499.4
249.97 -289.44 2537.3
278.47 -291.73 2557.4
270.28 -270.28 2369.4
276.35 -270.20 2368.7
274.05 -262.13 2297.9
279.88 -251.32 2203.1
307.47 -260.17 2280.7
320.72 -266.26 2334.1
327.90 -267.17 2342.1
335.95 -268.76 2356.0
331.52 -260.48 2283.4
332.81 -256.91 2252.1
343.84 -260.84 2286.6
358.50 -267.36 2343.7
377.57 -276.89 2427.3
417.28 -291.44 2554.8
483.55 -303.95 2664.5
483.76 -299.80 2628.1
496.19 -303.22 2658.1
505.43 -304.64 2670.6
509.49 -302.94 2655.7
603.43 -308.73 2706.4
644.26 -311.51 2730.8
652.12 -311.88 2734.1
657.43 -311.04 2726.7
664.11 -310.86 2725.1
661.75 -306.49 2686.8
668.81 -303.38 2659.5
692.67 -310.99 2726.2
705.68 -310.50 2721.9
701.22 -305.48 2677.9
713.30 -307.70 2697.4
740.42 -307.35 2694.3
244.14 -296.93 2545.1
246.79 -292.25 2505.0
252.72 -291.60 2499.4
265.89 -299.13 2564.0
270.16 -296.51 2541.5
277.75 -297.58 2550.7
282.41 -295.54 2533.2
272.91 -279.11 2392.4
271.89 -271.89 2330.5
280.32 -274.23 2350.5
281.28 -269.31 2308.4
287.30 -269.34 2308.7
292.57 -268.68 2303.0
284.26 -255.84 2192.9
292.46 -258.05 2211.9
310.17 -268.42 2300.7
314.13 -266.72 2286.2
314.44 -262.03 2246.0
316.36 -258.84 2218.7
343.59 -266.58 2285.0
365.46 -278.74 2389.2
465.01 -312.32 2677.0
462.95 -306.36 2626.0
465.00 -303.26 2599.4
476.50 -306.32 2625.6
491.18 -311.31 2668.4
496.04 -310.03 2657.4
497.53 -306.69 2628.8
510.86 -306.52 2627.3
578.29 -317.35 2720.2
597.90 -320.30 2745.5
605.33 -320.47 2746.9
606.94 -317.58 2722.1
612.55 -309.71 2654.7
638.50 -319.25 2736.4
654.25 -320.01 2743.0
653.75 -316.33 2711.4
674.37 -316.11 2709.5
681.71 -316.26 2710.8
679.75 -312.13 2675.4
727.59 -320.99 2751.4
740.75 -314.47 2695.4
742.99 -312.47 2678.3
235.04 -300.33 2518.3
254.50 -308.08 2583.3
257.54 -303.76 2547.1
267.25 -307.33 2577.0
268.61 -301.36 2527.0
272.83 -298.81 2505.5
283.64 -303.43 2544.3
273.65 -279.73 2345.6
276.24 -276.24 2316.3
282.40 -276.39 2317.6
295.06 -282.77 2371.0
303.87 -285.26 2392.0
299.12 -275.19 2307.5
300.18 -270.75 2270.3
310.21 -274.42 2301.0
312.28 -271.04 2272.7
311.32 -265.20 2223.7
313.47 -262.17 2198.3
340.69 -270.20 2265.7
362.65 -282.74 2370.8
379.03 -290.59 2436.6
383.80 -289.42 2426.9
388.05 -287.91 2414.1
466.06 -319.98 2683.1
459.79 -306.53 2570.3
481.14 -316.18 2651.2
504.10 -322.06 2700.5
504.59 -317.96 2666.1
504.15 -313.39 2627.8
520.57 -319.28 2677.2
613.03 -327.90 2749.5
615.01 -325.18 2726.6
619.53 -323.84 2715.5
616.84 -318.82 2673.3
629.96 -321.98 2699.8
636.37 -321.68 2697.3
632.63 -316.31 2652.3
639.36 -316.24 2651.7
684.21 -321.16 2692.9
681.87 -316.83 2656.6
708.78 -326.04 2733.9
712.65 -321.39 2694.9
728.03 -318.95 2674.4
752.91 -326.73 2739.7
751.28 -322.98 2708.2
242.48 -308.02 2527.8
269.84 -301.96 2478.1
267.94 -292.86 2403.4
268.58 -286.89 2354.4
265.63 -277.44 2276.8
272.28 -278.19 2283.1
283.03 -283.03 2322.8
289.82 -283.79 2328.9
292.64 -280.70 2303.6
290.73 -273.29 2242.8
294.50 -271.40 2227.3
305.21 -275.86 2263.9
308.54 -273.61 2245.4
311.50 -271.12 2225.0
318.00 -271.74 2230.1
345.16 -279.70 2295.4
375.00 -298.73 2451.6
382.89 -299.93 2461.4
476.57 -319.98 2626.0
482.26 -319.24 2619.9
502.68 -328.14 2692.9
639.48 -333.95 2740.6
626.38 -323.52 2655.0
653.20 -326.60 2680.3
679.12 -325.70 2672.9
703.16 -333.82 2739.6
711.56 -334.44 2744.6
704.14 -327.67 2689.1
704.57 -324.66 2664.4
707.96 -323.05 2651.2
712.30 -321.91 2641.8
739.30 -330.92 2715.8
773.03 -330.30 2710.6
769.10 -325.65 2672.5
784.64 -329.27 2702.2
797.80 -331.83 2723.2
803.98 -328.58 2696.6
865.12 -333.28 2735.1
246.29 -319.51 2567.5
254.44 -321.40 2582.7
275.88 -307.96 2474.7
272.88 -297.69 2392.2
270.38 -288.40 2317.5
276.54 -288.56 2318.8
289.67 -295.83 2377.2
298.31 -298.31 2397.2
297.68 -291.60 2343.2
292.43 -280.73 2255.9
293.49 -276.23 2219.7
300.48 -277.36 2228.8
311.82 -282.41 2269.3
325.30 -289.16 2323.6
325.61 -284.16 2283.5
356.71 -295.21 2372.2
374.99 -299.99 2410.6
429.17 -316.92 2546.7
465.98 -328.93 2643.2
585.35 -338.52 2720.2
609.74 -325.19 2613.2
628.34 -327.83 2634.3
