ply
format ascii 1.0
element vertex 2270
property float x
property float y
property float z
end_header
747.55 459.34 1737.0
747.90 456.80 1727.4
752.10 456.63 1726.8
750.04 452.69 1711.9
757.33 454.40 1718.3
769.76 459.16 1736.3
768.41 455.69 1723.2
776.15 457.62 1730.5
783.12 459.07 1736.0
781.68 455.61 1722.9
791.07 458.46 1733.7
802.53 462.48 1748.9
803.05 460.18 1740.2
804.77 458.58 1734.1
816.73 462.81 1750.1
822.14 463.31 1752.0
825.49 462.64 1749.5
840.08 468.24 1770.7
840.52 465.94 1762.0
826.61 455.75 1723.4
831.55 456.01 1724.4
841.58 459.05 1735.9
843.14 457.45 1729.8
844.66 455.85 1723.8
854.33 458.64 1734.3
873.96 466.72 1764.9
873.78 464.19 1755.4
852.21 450.39 1703.2
847.47 445.58 1685.0
862.42 451.11 1705.9
868.19 451.81 1708.5
847.84 438.98 1660.0
841.96 433.74 1640.2
863.22 442.46 1673.2
880.13 448.87 1697.4
884.55 448.87 1697.4
883.08 445.91 1686.2
882.48 443.41 1676.8
878.18 439.09 1660.4
882.05 438.87 1659.6
890.49 440.92 1667.4
898.51 442.74 1674.2
912.55 447.50 1692.2
918.32 448.17 1694.8
911.51 442.74 1674.2
903.22 436.63 1651.1
908.91 437.30 1653.7
915.54 438.43 1657.9
919.83 438.42 1657.9
923.63 438.19 1657.0
925.53 437.06 1652.7
938.39 441.09 1668.0
938.85 439.28 1661.1
933.02 434.56 1643.3
946.91 439.02 1660.2
952.14 439.45 1661.8
947.65 435.41 1646.5
945.54 432.49 1635.5
944.85 430.24 1627.0
940.68 426.44 1612.6
935.97 422.43 1597.4
953.93 428.64 1620.9
984.39 440.38 1665.3
1004.56 447.45 1692.0
1012.85 449.18 1698.6
1018.66 449.80 1700.9
1033.01 454.17 1717.5
1049.95 459.64 1738.1
1049.77 457.59 1730.4
1041.43 452.02 1709.3
1064.06 459.89 1739.1
766.91 526.92 2012.3
768.01 524.12 2001.6
791.12 536.26 2048.0
794.37 534.87 2042.7
771.02 515.71 1969.5
750.54 498.72 1904.6
752.34 496.64 1896.7
751.94 493.15 1883.3
737.70 480.70 1835.8
744.02 481.70 1839.6
754.38 485.30 1853.3
742.32 474.52 1812.2
723.78 459.76 1755.8
729.94 460.78 1759.7
751.84 471.65 1801.2
745.68 464.90 1775.4
730.71 452.77 1729.1
733.40 451.67 1724.9
746.78 457.12 1745.7
758.71 461.63 1762.9
762.99 461.45 1762.3
759.88 456.83 1744.6
749.67 448.03 1711.0
746.76 443.66 1694.3
749.29 442.56 1690.1
756.94 444.48 1697.5
773.78 451.75 1725.2
786.74 456.67 1744.0
791.34 456.72 1744.2
787.86 452.12 1726.6
786.73 448.92 1714.4
792.48 449.66 1717.2
799.87 451.32 1723.6
811.81 455.52 1739.6
818.03 456.47 1743.2
817.62 453.74 1732.8
827.17 456.53 1743.5
844.31 463.45 1769.9
846.83 462.32 1765.6
829.45 450.40 1720.1
817.82 441.71 1686.9
828.65 445.18 1700.1
839.96 448.87 1714.2
844.45 448.89 1714.3
859.73 454.62 1736.2
861.21 453.03 1730.1
840.45 439.82 1679.7
859.29 447.36 1708.4
898.01 465.12 1776.3
896.43 461.93 1764.1
869.54 445.80 1702.5
856.18 436.74 1667.9
869.92 441.51 1686.1
872.51 440.62 1682.7
861.59 432.94 1653.4
863.19 431.60 1648.2
867.04 431.39 1647.4
874.07 432.75 1652.7
889.35 438.17 1673.3
893.70 438.17 1673.4
898.50 438.40 1674.2
917.64 445.58 1701.7
929.46 449.16 1715.3
924.09 444.44 1697.3
918.17 439.50 1678.4
919.69 438.15 1673.3
923.06 437.70 1671.5
928.79 438.36 1674.1
934.53 439.01 1676.6
931.22 435.43 1662.9
938.86 436.98 1668.8
949.86 440.07 1680.6
954.18 440.05 1680.5
960.90 441.14 1684.7
957.94 437.79 1671.9
951.52 432.90 1653.2
946.98 428.90 1637.9
954.62 430.43 1643.8
957.85 429.97 1642.0
947.27 423.34 1616.7
958.35 426.40 1628.4
989.33 438.26 1673.7
1011.02 445.91 1702.9
1010.84 443.89 1695.2
1009.12 441.22 1685.0
1015.40 442.05 1688.2
1021.69 442.88 1691.3
1043.68 450.48 1720.4
1059.18 455.22 1738.5
1084.42 464.10 1772.4
755.56 513.99 1982.5
759.39 513.10 1979.1
780.00 523.49 2019.2
781.07 520.71 2008.5
764.00 505.96 1951.6
747.75 491.94 1897.5
747.74 488.72 1885.1
745.86 484.33 1868.1
740.65 477.84 1843.1
754.27 483.51 1865.0
762.49 485.66 1873.3
748.26 473.58 1826.7
735.67 462.68 1784.6
746.73 466.71 1800.2
757.87 470.72 1815.7
740.82 457.29 1763.8
744.36 456.66 1761.4
765.77 466.93 1801.0
768.23 465.59 1795.9
770.28 464.02 1789.8
781.57 468.00 1805.2
785.54 467.59 1803.5
764.52 452.38 1744.9
749.90 441.12 1701.5
758.76 443.72 1711.5
772.41 449.07 1732.1
770.21 445.21 1717.2
763.95 439.05 1693.5
782.91 447.38 1725.6
794.33 451.33 1740.8
779.84 440.59 1699.4
772.09 433.76 1673.1
785.13 438.62 1691.8
804.00 446.67 1722.9
809.78 447.39 1725.6
808.91 444.46 1714.3
818.84 447.46 1725.9
834.69 453.64 1749.7
843.06 455.71 1757.7
831.15 446.85 1723.6
809.75 433.02 1670.2
809.88 430.79 1661.6
837.82 443.29 1709.8
858.65 451.92 1743.1
867.08 453.97 1751.0
860.79 448.33 1729.3
841.32 435.92 1681.4
861.04 443.83 1711.9
891.43 457.15 1763.3
883.20 450.61 1738.1
876.63 444.99 1716.4
884.65 446.79 1723.3
894.48 449.49 1733.7
892.24 446.12 1720.8
884.54 440.07 1697.4
889.85 440.52 1699.2
887.45 437.17 1686.2
888.64 435.61 1680.2
899.40 438.73 1692.3
899.65 436.72 1684.5
906.32 437.84 1688.8
928.74 446.51 1722.2
933.63 446.71 1723.0
920.81 438.48 1691.3
920.03 436.03 1681.8
926.25 436.91 1685.2
934.83 438.89 1692.9
945.81 441.97 1704.7
946.39 440.18 1697.8
937.88 434.20 1674.8
945.05 435.51 1679.8
955.13 438.13 1689.9
952.71 435.03 1678.0
952.18 432.81 1669.4
954.04 431.69 1665.1
952.47 429.04 1654.9
953.78 427.71 1649.7
966.34 431.40 1664.0
967.16 429.85 1658.0
953.64 421.96 1627.6
957.82 421.95 1627.5
983.35 431.29 1663.6
1011.01 441.49 1702.9
1017.32 442.31 1706.1
1002.07 433.80 1673.2
994.25 428.55 1653.0
996.43 427.65 1649.5
1012.27 432.60 1668.6
1052.57 447.90 1727.6
1107.36 469.22 1809.8
770.95 515.71 2009.2
768.52 510.62 1989.4
766.69 506.02 1971.5
748.11 490.49 1911.0
742.81 483.80 1885.0
752.09 486.65 1896.0
759.26 488.09 1901.7
762.09 486.75 1896.4
765.26 485.65 1892.1
762.90 481.07 1874.3
752.72 471.64 1837.6
743.11 462.69 1802.7
740.43 458.14 1785.0
736.91 453.13 1765.4
738.95 451.58 1759.4
761.80 462.69 1802.7
779.13 470.33 1832.4
778.21 466.93 1819.2
784.15 467.66 1822.0
775.47 454.27 1769.9
765.22 445.63 1736.2
777.70 450.25 1754.2
778.37 448.01 1745.5
762.65 436.43 1700.4
760.35 432.61 1685.5
782.52 442.68 1724.7
801.62 450.91 1756.8
794.46 444.36 1731.3
790.86 439.86 1713.7
808.50 447.16 1742.2
819.25 450.59 1755.5
816.82 446.77 1740.7
813.07 442.27 1723.1
819.27 443.21 1726.8
833.44 448.43 1747.1
839.70 449.35 1750.7
843.85 449.15 1749.9
836.94 443.09 1726.3
822.67 433.22 1687.9
834.82 437.29 1703.7
856.94 446.51 1739.7
866.23 448.99 1749.3
886.41 457.06 1780.7
893.21 458.17 1785.1
882.50 450.35 1754.6
882.65 448.11 1745.9
871.28 440.09 1714.6
862.88 433.63 1689.5
876.19 438.10 1706.9
890.91 443.22 1726.8
894.93 442.99 1725.9
894.00 440.33 1715.6
896.63 439.44 1712.1
892.43 435.23 1695.7
887.26 430.58 1677.6
890.24 429.92 1675.0
892.75 429.04 1671.6
903.08 431.91 1682.8
924.56 440.06 1714.5
927.59 439.38 1711.9
930.13 438.49 1708.4
944.36 443.09 1726.3
930.93 434.73 1693.7
918.78 427.04 1663.8
916.92 424.18 1652.7
904.56 416.52 1622.8
911.63 417.83 1627.9
934.50 426.34 1661.1
952.23 432.43 1684.8
958.47 433.28 1688.1
951.19 428.03 1667.7
946.73 424.10 1652.3
950.00 423.65 1650.6
956.68 424.71 1654.7
970.24 428.81 1670.7
971.06 427.27 1664.7
962.48 421.62 1642.7
973.13 424.40 1653.5
988.78 429.34 1672.7
1007.00 435.34 1696.1
1018.80 438.53 1708.5
1010.07 432.89 1686.6
1000.75 427.05 1663.8
999.93 424.86 1655.3
1008.19 426.54 1661.8
1040.35 438.28 1707.6
1108.38 464.96 1811.5
775.21 513.31 2020.3
772.44 508.05 1999.6
770.99 503.71 1982.5
746.04 484.18 1905.7
735.72 474.35 1867.0
748.55 479.47 1887.1
758.95 482.97 1900.9
750.52 474.52 1867.7
743.77 467.24 1839.0
749.37 467.76 1841.0
746.11 462.78 1821.4
744.99 459.18 1807.3
750.15 459.47 1808.4
748.55 455.64 1793.3
752.17 455.01 1790.9
761.07 457.58 1801.0
764.30 456.72 1797.6
768.28 456.31 1796.0
780.33 460.68 1813.2
790.52 463.90 1825.8
784.04 457.36 1800.1
765.33 443.80 1746.7
761.70 439.10 1728.2
779.30 446.61 1757.8
785.12 447.34 1760.7
772.22 437.44 1721.7
773.16 435.46 1713.9
790.17 442.50 1741.6
803.66 447.49 1761.3
807.88 447.30 1760.5
815.77 449.13 1767.7
818.35 448.04 1763.4
813.91 443.13 1744.1
809.37 438.22 1724.8
801.43 431.54 1698.5
821.36 439.85 1731.2
848.14 451.73 1777.9
840.97 445.49 1753.4
831.58 438.14 1724.5
834.82 437.50 1721.9
829.50 432.40 1701.9
828.38 429.53 1690.6
836.26 431.33 1697.7
848.93 435.58 1714.4
871.65 444.91 1751.1
887.11 450.45 1772.9
884.69 446.91 1759.0
880.89 442.70 1742.4
864.65 432.32 1701.6
873.96 434.76 1711.2
904.69 447.78 1762.4
904.77 445.56 1753.7
894.48 438.30 1725.1
886.78 432.36 1701.7
882.59 428.19 1685.3
886.97 428.19 1685.3
890.89 427.97 1684.4
898.00 429.29 1689.6
904.22 430.16 1693.1
898.91 425.57 1675.0
905.10 426.44 1678.4
928.04 435.16 1712.7
950.65 443.64 1746.1
958.87 445.35 1752.8
939.84 434.46 1710.0
927.72 426.84 1680.0
925.41 423.79 1668.0
907.85 413.81 1628.7
910.16 412.94 1625.3
937.35 423.32 1666.1
960.85 431.94 1700.1
960.38 429.76 1691.5
946.32 421.54 1659.1
942.33 417.86 1644.7
947.04 418.06 1645.4
946.87 416.11 1637.8
953.53 417.17 1641.9
984.81 428.94 1688.2
1006.88 436.61 1718.5
1007.77 435.07 1712.4
1013.10 435.46 1713.9
1023.43 437.97 1723.8
1027.78 437.92 1723.6
1015.56 430.84 1695.7
1002.22 423.35 1666.3
1011.00 425.23 1673.6
1030.45 431.55 1698.5
1042.36 434.69 1710.9
1089.00 452.21 1779.8
795.29 524.78 2086.8
775.28 508.12 2020.5
776.37 505.42 2009.8
786.93 508.88 2023.5
771.64 495.69 1971.1
751.11 479.33 1906.0
754.70 478.47 1902.6
760.80 479.20 1905.5
748.38 468.34 1862.3
730.66 454.32 1806.6
726.64 448.94 1785.2
735.07 451.28 1794.5
745.39 454.73 1808.2
750.55 455.02 1809.4
749.33 451.46 1795.2
746.15 446.77 1776.6
747.06 444.57 1767.8
750.60 443.95 1765.4
756.42 444.69 1768.3
767.26 448.34 1782.8
776.61 451.09 1793.7
783.67 452.48 1799.3
778.63 446.91 1777.1
777.42 443.59 1763.9
797.87 452.59 1799.7
803.00 452.85 1800.7
788.97 442.37 1759.1
774.77 431.91 1717.5
776.89 430.62 1712.3
804.07 443.15 1762.2
822.12 450.54 1791.5
822.31 448.11 1781.9
817.95 443.25 1762.5
812.26 437.72 1740.6
805.23 431.53 1716.0
814.32 434.01 1725.8
850.20 450.65 1792.0
862.85 454.87 1808.8
842.24 441.61 1756.0
824.80 430.14 1710.4
819.07 424.87 1689.4
830.77 428.64 1704.5
845.11 433.73 1724.7
842.28 430.01 1709.9
844.16 428.71 1704.7
854.70 431.80 1717.0
857.43 430.94 1713.6
864.97 432.48 1719.7
870.32 432.93 1721.5
881.87 436.44 1735.5
918.51 449.98 1789.3
888.21 432.95 1721.6
894.02 433.60 1724.2
902.55 435.56 1732.0
897.51 430.98 1713.8
902.40 431.20 1714.6
899.99 427.94 1701.7
901.65 426.63 1696.5
905.58 426.41 1695.6
897.03 420.35 1671.5
908.78 423.81 1685.2
938.26 435.46 1731.6
949.24 438.46 1743.5
946.21 434.99 1729.7
932.30 426.57 1696.2
925.33 421.39 1675.6
939.60 425.89 1693.5
938.72 423.51 1684.1
938.27 421.35 1675.5
961.26 429.69 1708.6
968.51 430.94 1713.6
952.15 421.73 1677.0
939.99 414.45 1648.0
938.40 411.88 1637.8
943.10 412.08 1638.6
943.40 410.36 1631.8
951.03 411.83 1637.6
982.31 423.49 1684.0
1011.31 434.06 1726.0
1018.65 435.28 1730.9
1018.05 433.12 1722.3
1022.90 433.28 1722.9
1030.76 434.71 1728.6
1024.06 430.02 1709.9
1014.78 424.28 1687.1
1031.18 429.29 1707.0
1053.23 436.60 1736.1
1066.74 440.31 1750.9
1104.29 453.88 1804.8
793.98 518.52 2083.3
787.21 510.62 2051.6
785.91 506.36 2034.5
794.76 508.65 2043.7
781.28 496.71 1995.7
760.80 480.50 1930.6
755.46 474.01 1904.5
752.17 468.88 1883.9
748.42 463.54 1862.4
739.08 454.82 1827.4
746.12 456.23 1833.1
765.74 465.26 1869.4
759.15 458.36 1841.6
747.21 448.32 1801.3
741.83 442.34 1777.2
734.09 435.01 1747.8
744.42 438.43 1761.6
758.24 443.85 1783.3
763.72 444.35 1785.3
774.21 447.74 1798.9
776.63 446.45 1793.8
777.07 444.04 1784.1
779.82 442.97 1779.8
786.47 444.13 1784.4
793.15 445.27 1789.1
784.74 438.00 1759.8
786.19 436.26 1752.9
786.39 433.87 1743.2
785.75 431.04 1731.9
810.15 441.90 1775.5
820.50 445.02 1788.0
812.92 438.43 1761.5
820.01 439.78 1767.0
825.46 440.25 1768.8
826.36 438.29 1761.0
843.04 444.68 1786.7
864.85 453.69 1822.9
865.38 451.50 1814.1
850.26 441.22 1772.7
838.35 432.70 1738.5
837.36 429.87 1727.2
852.14 435.13 1748.3
864.85 439.29 1765.0
861.25 435.16 1748.4
846.31 425.37 1709.1
840.33 420.17 1688.2
853.49 424.53 1705.7
871.53 431.27 1732.8
883.97 435.18 1748.5
903.09 442.33 1777.2
918.78 447.73 1798.9
898.00 435.39 1749.3
875.21 422.21 1696.4
888.61 426.53 1713.8
902.53 431.06 1731.9
903.84 429.55 1725.9
918.31 434.27 1744.8
927.82 436.62 1754.3
913.54 427.80 1718.9
901.87 420.29 1688.7
906.70 420.50 1689.5
931.93 430.12 1728.2
951.74 437.16 1756.4
952.03 435.21 1748.6
942.91 429.00 1723.7
924.27 418.54 1681.6
914.90 412.35 1656.8
926.30 415.53 1669.6
942.02 420.62 1690.0
957.34 425.48 1709.5
973.69 430.76 1730.7
973.78 428.82 1722.9
955.97 419.06 1683.7
943.82 411.85 1654.7
927.17 402.75 1618.2
933.56 401.89 1614.7
956.87 410.09 1647.7
974.39 415.74 1670.4
988.05 419.70 1686.3
993.83 420.30 1688.7
991.15 417.33 1676.8
989.92 414.99 1667.4
993.16 414.54 1665.6
1006.95 418.47 1681.4
1023.31 423.44 1701.3
1036.70 427.14 1716.2
1055.74 433.12 1740.2
1053.99 430.57 1730.0
1075.18 437.36 1757.3
792.75 515.83 2094.3
799.15 512.97 2082.7
800.37 510.31 2071.9
778.23 492.88 2001.2
738.70 464.75 1886.9
729.04 455.65 1850.0
733.21 455.26 1848.4
734.13 452.87 1838.7
732.82 449.15 1823.6
742.40 452.10 1835.6
766.73 463.95 1883.7
772.43 464.43 1885.7
752.49 449.60 1825.4
739.75 439.23 1783.3
733.58 432.86 1757.5
729.56 427.83 1737.0
744.42 433.87 1761.6
762.07 441.44 1792.3
771.40 444.14 1803.3
771.53 441.54 1792.7
762.69 433.87 1761.6
755.66 427.31 1734.9
751.25 422.30 1714.6
766.42 428.29 1738.9
780.90 433.83 1761.4
774.81 427.95 1737.5
778.60 427.55 1735.9
791.61 432.20 1754.8
803.88 436.39 1771.8
810.56 437.52 1776.4
803.42 431.21 1750.8
790.84 422.08 1713.7
792.48 420.59 1707.7
806.06 425.42 1727.3
813.92 427.20 1734.5
833.05 434.83 1765.5
859.00 445.93 1810.5
864.13 446.15 1811.5
853.64 438.35 1779.8
845.13 431.65 1752.6
847.14 430.37 1747.4
854.70 431.89 1753.6
860.12 432.34 1755.4
857.36 428.68 1740.5
844.12 419.85 1704.7
841.62 416.42 1690.7
858.27 422.47 1715.3
872.84 427.42 1735.4
882.19 429.79 1745.0
886.28 429.57 1744.1
886.35 427.43 1735.4
885.50 424.86 1725.0
883.25 421.65 1712.0
890.39 422.94 1717.2
899.36 425.07 1725.8
896.57 421.65 1712.0
907.82 424.84 1724.9
931.01 433.56 1760.3
931.86 431.84 1753.3
911.97 420.57 1707.6
909.44 417.38 1694.6
927.74 423.73 1720.4
939.61 427.10 1734.1
947.34 428.56 1740.0
946.17 426.00 1729.6
927.53 415.64 1687.6
918.17 409.51 1662.7
940.48 417.50 1695.1
968.64 428.00 1737.8
954.44 419.78 1704.4
941.07 411.99 1672.7
958.35 417.63 1695.6
958.35 415.72 1687.9
950.07 410.26 1665.7
938.30 403.34 1637.6
928.85 397.48 1613.8
946.23 403.10 1636.7
960.26 407.25 1653.5
967.45 408.48 1658.5
978.11 411.15 1669.3
980.39 410.29 1665.9
979.66 408.19 1657.3
980.38 406.71 1651.3
1004.64 414.96 1684.8
1042.09 428.56 1740.0
1064.11 435.74 1769.2
1084.73 442.27 1795.7
1101.38 447.14 1815.5
1095.71 442.95 1798.4
1090.47 438.96 1782.2
793.52 514.42 2110.8
792.13 510.00 2092.7
791.00 505.81 2075.5
777.21 493.64 2025.6
777.60 490.57 2013.0
754.25 472.66 1939.5
731.63 455.45 1868.9
738.00 456.39 1872.7
745.10 457.78 1878.4
747.53 456.29 1872.3
734.29 445.31 1827.3
732.18 441.18 1810.3
751.31 449.83 1845.8
751.75 447.24 1835.2
739.12 436.96 1793.0
734.52 431.53 1770.7
734.33 428.74 1759.3
737.11 427.71 1755.0
745.19 429.74 1763.4
755.20 432.86 1776.2
763.74 435.10 1785.4
762.28 431.65 1771.2
761.53 428.64 1758.9
761.11 425.86 1747.4
752.41 418.50 1717.3
763.66 422.26 1732.7
775.36 426.22 1748.9
766.06 418.66 1717.9
767.41 416.97 1711.0
778.76 420.71 1726.3
786.14 422.27 1732.7
788.68 421.23 1728.4
801.38 425.59 1746.3
808.42 426.92 1751.8
796.99 418.53 1717.4
796.55 415.98 1706.9
811.83 421.62 1730.0
838.46 433.05 1777.0
857.33 440.38 1807.0
856.15 437.38 1794.7
854.90 434.38 1782.4
855.72 432.46 1774.5
847.13 425.83 1747.3
843.99 421.99 1731.6
856.68 426.07 1748.3
861.23 426.08 1748.4
853.21 419.90 1723.0
856.39 419.28 1720.4
870.93 424.18 1740.6
882.48 427.59 1754.6
887.91 428.02 1756.3
887.15 425.47 1745.8
871.67 415.92 1706.7
855.57 406.18 1666.7
873.82 412.76 1693.7
902.52 424.18 1740.6
910.17 425.65 1746.6
906.97 422.06 1731.8
896.87 415.30 1704.1
898.09 413.82 1698.1
914.41 419.29 1720.5
910.56 415.50 1704.9
898.78 408.14 1674.7
907.76 410.24 1683.3
932.14 419.24 1720.3
952.92 426.55 1750.3
964.91 429.87 1763.9
958.58 425.03 1744.0
939.40 414.57 1701.1
951.83 418.10 1715.6
975.28 426.40 1749.7
956.79 416.38 1708.6
931.43 403.48 1655.6
937.13 404.09 1658.1
949.13 407.39 1671.7
953.41 407.37 1671.6
973.26 413.97 1698.6
996.63 422.00 1731.6
982.90 414.32 1700.1
964.63 404.80 1661.0
987.12 412.40 1692.2
1013.19 421.41 1729.2
1000.68 414.38 1700.3
985.08 406.13 1666.5
997.31 409.38 1679.8
1034.66 422.86 1735.2
1061.16 431.81 1771.9
1070.14 433.59 1779.2
1087.74 438.83 1800.7
1100.86 442.22 1814.6
798.07 508.36 2108.4
788.98 499.15 2070.2
778.67 489.30 2029.3
782.93 488.67 2026.8
781.52 484.54 2009.6
777.18 478.66 1985.2
766.28 468.85 1944.5
758.08 460.80 1911.1
766.01 462.59 1918.6
756.86 454.12 1883.4
738.77 440.42 1826.6
743.61 440.48 1826.9
755.09 444.45 1843.4
753.26 440.59 1827.3
749.86 435.86 1807.7
751.63 434.17 1800.7
748.83 429.88 1782.9
751.26 428.64 1777.8
753.67 427.39 1772.6
753.37 424.63 1761.1
770.00 431.38 1789.1
785.58 437.48 1814.4
793.86 439.46 1822.6
794.33 437.12 1812.9
784.52 429.18 1780.0
775.35 421.68 1748.9
776.78 420.01 1742.0
787.37 423.27 1755.5
787.58 420.95 1745.9
784.51 416.91 1729.1
781.36 412.88 1712.4
789.14 414.63 1719.7
814.14 425.37 1764.2
819.59 425.82 1766.1
822.15 424.78 1761.7
840.46 431.84 1791.0
849.71 434.19 1800.8
851.47 432.72 1794.7
847.31 428.26 1776.2
843.06 423.81 1757.7
854.02 427.01 1771.0
856.07 425.75 1765.8
842.68 416.86 1728.9
845.48 416.03 1725.5
869.42 425.56 1765.0
880.94 428.94 1779.0
869.44 421.13 1746.6
869.60 419.03 1737.9
875.88 419.88 1741.4
875.54 417.57 1731.8
883.14 419.04 1738.0
875.64 413.37 1714.5
866.25 406.88 1687.5
890.37 416.10 1725.8
912.40 424.26 1759.6
914.22 423.00 1754.4
911.94 419.85 1741.3
902.76 413.58 1715.3
899.88 410.24 1701.5
911.63 413.57 1715.3
916.05 413.56 1715.2
911.69 409.60 1698.8
916.54 409.80 1699.6
937.70 417.25 1730.5
941.20 416.82 1728.7
935.78 412.45 1710.6
950.54 416.98 1729.4
952.60 415.93 1725.0
938.03 407.65 1690.7
934.75 404.33 1677.0
950.06 409.05 1696.5
960.16 411.50 1706.7
946.71 403.87 1675.0
939.41 398.93 1654.5
945.12 399.53 1657.0
966.40 406.68 1686.7
999.03 418.51 1735.8
994.61 414.79 1720.3
986.69 409.65 1699.0
1020.61 421.85 1749.6
1032.95 425.06 1762.9
1005.11 411.78 1707.9
1003.95 409.51 1698.4
1031.75 419.01 1737.8
1053.68 426.05 1767.0
1062.14 427.61 1773.5
1068.59 428.36 1776.6
1083.67 432.54 1793.9
1082.04 430.04 1783.6
1103.81 436.83 1811.7
803.67 506.42 2123.2
798.08 499.48 2094.1
790.96 491.68 2061.4
790.37 488.01 2046.0
786.52 482.40 2022.5
772.59 470.72 1973.5
753.79 456.24 1912.8
736.87 443.09 1857.7
738.52 441.20 1849.7
739.41 438.88 1840.0
730.00 430.51 1804.9
731.10 428.41 1796.1
739.93 430.85 1806.3
738.39 427.24 1791.2
736.02 423.21 1774.3
750.50 428.86 1798.0
760.55 431.92 1810.8
758.87 428.32 1795.7
756.73 424.51 1779.8
750.29 418.34 1753.9
760.73 421.61 1767.6
770.05 424.22 1778.6
772.41 422.98 1773.4
791.20 430.71 1805.8
799.88 432.88 1814.9
788.01 423.96 1777.5
786.32 420.59 1763.3
788.96 419.56 1759.0
780.73 412.80 1730.7
776.82 408.39 1712.2
772.42 403.76 1692.8
794.83 413.13 1732.1
833.38 430.73 1805.9
831.10 427.16 1790.9
825.03 421.68 1767.9
839.62 426.77 1789.2
845.12 427.20 1791.1
842.25 423.42 1775.2
833.41 416.70 1747.1
821.06 408.31 1711.9
825.13 408.13 1711.1
844.54 415.50 1742.0
849.09 415.51 1742.0
847.18 412.38 1728.9
865.95 419.30 1757.9
877.89 422.86 1772.9
866.80 415.34 1741.3
870.89 415.14 1740.5
881.56 418.06 1752.7
871.10 410.98 1723.1
868.94 407.87 1710.0
884.51 413.07 1731.8
897.93 417.22 1749.2
899.76 415.97 1744.0
898.86 413.48 1733.5
907.41 415.33 1741.3
911.91 415.32 1741.3
908.65 411.80 1726.5
911.74 411.17 1723.9
924.91 415.08 1740.2
930.31 415.48 1741.9
935.25 415.66 1742.7
949.94 420.17 1761.6
950.25 418.29 1753.7
933.21 408.84 1714.1
918.83 400.63 1679.6
924.57 401.23 1682.2
936.95 404.69 1696.7
933.71 401.41 1682.9
929.93 397.92 1668.3
945.71 402.80 1688.8
978.36 414.79 1739.0
987.13 416.58 1746.6
963.04 404.56 1696.2
951.36 397.84 1668.0
948.82 394.99 1656.0
954.54 395.57 1658.5
983.29 405.66 1700.8
1011.72 415.53 1742.1
1013.17 414.27 1736.9
989.83 402.94 1689.3
974.25 394.85 1655.4
985.45 397.64 1667.1
1025.20 411.87 1726.8
1059.66 423.87 1777.1
1084.25 431.82 1810.4
1107.94 439.36 1842.0
1101.36 434.87 1823.2
1072.85 421.81 1768.4
1097.15 429.52 1800.8
783.68 488.46 2070.4
772.41 478.16 2026.7
760.93 467.87 1983.1
758.04 462.97 1962.3
770.28 467.30 1980.7
769.43 463.69 1965.4
748.45 448.08 1899.3
729.68 433.99 1839.5
729.12 430.84 1826.2
728.86 427.91 1813.7
720.48 420.28 1781.4
722.63 418.85 1775.3
733.64 422.54 1791.0
733.91 420.04 1780.4
738.63 420.10 1780.6
760.29 429.73 1821.5
774.17 434.88 1843.3
775.98 433.22 1836.2
765.52 424.77 1800.4
751.43 414.43 1756.6
759.17 416.17 1764.0
765.00 416.86 1766.9
763.03 413.31 1751.9
777.47 418.64 1774.4
801.46 429.02 1818.4
804.64 428.20 1815.0
783.12 414.33 1756.2
766.95 403.42 1710.0
771.47 403.47 1710.1
779.22 405.19 1717.5
782.53 404.61 1715.0
811.93 417.44 1769.3
852.22 435.68 1846.7
852.08 433.18 1836.1
828.32 418.76 1775.0
824.24 414.40 1756.5
830.92 415.46 1761.0
828.40 411.94 1746.0
828.75 409.87 1737.3
826.53 406.56 1723.3
827.22 404.72 1715.4
844.09 410.76 1741.1
847.35 410.15 1738.5
844.13 406.43 1722.7
864.19 413.90 1754.4
876.14 417.43 1769.3
869.39 412.05 1746.5
877.87 413.92 1754.4
893.85 419.28 1777.2
888.29 414.54 1757.1
870.67 404.24 1713.4
870.68 402.19 1704.7
889.41 408.77 1732.6
896.59 410.00 1737.8
897.48 408.35 1730.9
908.74 411.42 1743.8
913.24 411.41 1743.8
909.53 407.72 1728.2
912.61 407.10 1725.5
925.33 410.76 1741.0
930.27 410.95 1741.8
934.75 410.93 1741.8
938.75 410.71 1740.8
928.76 404.39 1714.0
930.83 403.36 1709.7
935.69 403.54 1710.5
925.93 397.45 1684.7
923.17 394.41 1671.7
933.18 396.82 1682.0
942.75 399.02 1691.3
948.05 399.41 1692.9
968.71 406.24 1721.9
992.39 414.25 1755.9
982.82 408.38 1731.0
961.50 397.71 1685.7
948.27 390.46 1655.0
957.89 392.65 1664.3
989.61 403.83 1711.7
996.92 405.00 1716.6
976.09 394.77 1673.3
974.41 392.35 1663.0
982.63 393.92 1669.7
992.87 396.28 1679.7
1032.66 410.36 1739.3
1071.17 423.81 1796.4
1100.33 433.46 1837.3
1104.84 429.66 1821.2
786.85 485.04 2078.8
786.02 481.24 2062.4
783.71 476.58 2042.5
760.19 459.17 1967.9
754.02 452.41 1938.9
776.58 462.86 1983.7
774.26 458.44 1964.8
745.18 438.34 1878.6
734.92 429.50 1840.7
743.43 431.67 1850.0
743.19 428.76 1837.6
733.31 420.37 1801.6
733.63 417.89 1791.0
738.75 418.16 1792.1
747.24 420.32 1801.4
773.09 432.16 1852.1
790.46 439.14 1882.0
784.74 433.29 1857.0
767.42 421.15 1804.9
760.65 414.90 1778.1
775.01 420.18 1800.8
780.14 420.43 1801.9
775.90 415.66 1781.4
774.31 412.36 1767.2
781.73 413.86 1773.7
795.52 418.69 1794.4
783.90 410.18 1757.9
782.13 406.89 1743.8
801.60 414.62 1777.0
806.27 414.65 1777.1
805.65 411.98 1765.6
812.32 413.05 1770.2
831.31 420.33 1801.4
837.25 420.96 1804.1
820.03 410.01 1757.2
822.55 409.00 1752.9
835.49 413.16 1770.7
825.85 406.16 1740.7
819.04 400.62 1716.9
833.27 405.38 1737.3
850.57 411.56 1763.8
849.61 408.90 1752.4
834.88 399.68 1712.9
838.50 399.29 1711.2
865.90 410.16 1757.8
891.75 420.20 1800.8
899.02 421.42 1806.1
886.60 413.44 1771.9
881.07 408.74 1751.8
882.96 407.52 1746.5
872.41 400.59 1716.8
866.18 395.72 1695.9
878.64 399.38 1711.6
889.37 402.23 1723.8
894.74 402.63 1725.6
913.23 408.91 1752.5
925.92 412.54 1768.0
928.19 411.51 1763.6
936.84 413.31 1771.3
929.89 408.24 1749.6
914.08 399.36 1711.5
929.61 404.18 1732.2
945.22 408.99 1752.8
936.65 403.34 1728.6
939.68 402.72 1725.9
944.10 402.70 1725.9
933.43 396.27 1698.3
926.90 391.65 1678.5
933.60 392.63 1682.7
946.03 396.01 1697.2
953.26 397.19 1702.2
956.65 396.77 1700.4
962.93 397.54 1703.7
960.02 394.53 1690.8
946.38 387.16 1659.2
947.71 385.95 1654.1
972.98 394.45 1690.5
985.63 397.79 1704.8
971.75 390.44 1673.3
980.47 392.19 1680.8
1011.51 402.81 1726.3
1011.40 401.00 1718.6
1013.25 399.97 1714.1
1050.12 412.71 1768.8
1087.20 425.42 1823.3
1109.87 432.42 1853.2
796.16 482.03 2089.1
801.27 481.84 2088.2
784.52 468.61 2030.9
749.09 444.46 1926.2
747.39 440.51 1909.1
758.87 444.34 1925.7
740.87 430.96 1867.7
734.92 424.73 1840.7
748.18 429.60 1861.8
746.49 425.88 1845.7
734.04 416.11 1803.4
729.17 410.74 1780.1
729.42 408.29 1769.5
724.00 402.72 1745.4
736.93 407.37 1765.5
771.91 424.07 1837.9
782.07 427.02 1850.7
777.37 421.86 1828.3
782.95 422.32 1830.3
779.64 418.00 1811.5
766.91 408.71 1771.3
763.77 404.62 1753.6
763.69 402.18 1743.0
764.35 400.16 1734.2
770.52 401.03 1738.0
783.48 405.41 1757.0
806.13 414.71 1797.3
808.02 413.30 1791.2
794.93 404.28 1752.1
806.44 407.80 1767.4
825.36 415.01 1798.6
828.43 414.21 1795.1
819.93 407.67 1766.8
826.21 408.52 1770.5
852.46 419.17 1816.6
851.76 416.52 1805.1
827.92 402.65 1745.0
832.07 402.47 1744.2
857.37 412.47 1787.6
860.74 411.86 1785.0
845.74 402.52 1744.5
845.14 400.09 1733.9
863.02 406.40 1761.3
875.39 410.05 1777.1
886.95 413.29 1791.1
911.11 420.15 1820.9
896.00 411.05 1781.4
888.67 405.60 1757.8
887.89 403.18 1747.3
891.08 402.57 1744.7
886.65 398.54 1727.2
880.34 393.72 1706.3
887.48 394.93 1711.6
907.76 401.94 1742.0
919.07 404.94 1754.9
919.48 403.12 1747.1
929.02 405.31 1756.5
922.03 400.30 1734.8
909.88 393.10 1703.7
929.10 399.47 1731.2
952.62 407.61 1766.5
953.87 406.19 1760.4
951.81 403.39 1748.2
950.17 400.78 1736.9
938.56 394.02 1707.6
930.15 388.65 1684.4
939.72 390.82 1693.7
955.04 395.34 1713.4
967.57 398.67 1727.8
976.30 400.42 1735.4
974.45 397.82 1724.1
963.35 391.50 1696.7
964.28 390.10 1690.6
980.79 394.98 1711.8
978.78 392.40 1700.6
963.48 384.53 1666.5
973.65 386.85 1676.6
1007.58 398.55 1727.3
1034.26 407.30 1765.2
1030.24 403.93 1750.6
1018.18 397.45 1722.5
1039.55 404.02 1751.0
1082.14 418.74 1814.8
1111.35 428.18 1855.7
798.86 475.00 2082.0
800.06 472.52 2071.1
780.65 457.98 2007.4
748.83 436.40 1912.8
733.42 424.61 1861.1
744.48 428.20 1876.8
764.66 436.95 1915.2
761.68 432.44 1895.4
744.29 419.85 1840.3
741.40 415.56 1821.5
745.11 415.00 1819.0
744.69 412.16 1806.5
738.60 406.23 1780.5
736.91 402.78 1765.4
758.26 411.89 1805.4
774.45 418.11 1832.6
776.21 416.50 1825.6
784.86 418.59 1834.7
784.27 415.76 1822.3
775.83 408.82 1791.9
777.82 407.43 1785.8
777.81 405.01 1775.2
778.93 403.21 1767.3
790.33 406.72 1782.7
807.78 413.28 1811.5
830.15 422.27 1850.9
832.56 421.07 1845.6
816.74 410.71 1800.2
825.52 412.76 1809.2
830.25 412.78 1809.3
818.15 404.48 1772.9
828.15 407.13 1784.5
854.76 417.88 1831.6
867.42 421.73 1848.5
853.41 412.64 1808.6
839.64 403.76 1769.7
854.38 408.62 1791.0
858.19 408.22 1789.3
839.87 397.36 1741.7
842.71 396.57 1738.2
859.26 402.21 1762.9
866.86 403.62 1769.1
869.73 402.82 1765.6
881.27 406.03 1779.7
902.90 413.83 1813.9
907.58 413.82 1813.8
895.08 406.02 1779.6
897.91 405.21 1776.1
906.05 406.80 1783.0
900.84 402.41 1763.8
888.39 394.84 1730.6
890.63 393.84 1726.3
906.37 398.80 1748.0
903.18 395.42 1733.2
890.83 388.09 1701.0
888.39 385.12 1688.0
894.60 385.91 1691.5
914.62 392.62 1720.9
929.22 396.95 1739.9
931.37 395.94 1735.5
938.15 396.91 1739.7
939.35 395.51 1733.6
937.70 392.94 1722.3
937.88 391.15 1714.5
926.69 384.67 1686.0
930.09 384.26 1684.3
950.59 390.90 1713.4
975.99 399.47 1750.9
997.70 406.47 1781.6
981.05 397.85 1743.8
953.15 384.76 1686.4
960.38 385.90 1691.5
979.76 391.91 1717.8
995.84 396.53 1738.1
993.40 393.78 1726.0
977.15 385.60 1690.1
986.39 387.51 1698.5
999.60 390.96 1713.6
1003.95 390.92 1713.4
1013.76 393.00 1722.6
1017.61 392.76 1721.5
1021.46 392.53 1720.5
1043.89 399.40 1750.6
1077.03 410.30 1798.4
1094.66 415.22 1819.9
812.92 477.87 2118.6
797.00 462.26 2049.4
761.32 438.64 1944.7
750.65 429.65 1904.8
765.05 435.03 1928.7
786.09 444.09 1968.9
782.12 439.00 1946.3
756.03 421.63 1869.3
746.19 413.49 1833.2
746.21 410.89 1821.7
741.69 405.83 1799.3
752.08 408.94 1813.1
765.92 413.88 1834.9
756.35 406.19 1800.8
744.33 397.28 1761.3
753.59 399.77 1772.4
770.22 406.11 1800.5
778.06 407.78 1807.9
778.93 405.79 1799.1
784.44 406.23 1801.0
788.00 405.66 1798.5
786.80 402.66 1785.2
796.26 405.11 1796.1
813.74 411.60 1824.8
836.96 416.09 1844.7
833.22 411.88 1826.1
825.32 405.67 1798.5
815.65 398.66 1767.5
828.12 402.49 1784.5
836.10 404.11 1791.6
831.20 399.53 1771.3
846.70 404.74 1794.4
862.71 410.14 1818.4
868.28 410.54 1820.1
862.83 405.76 1798.9
844.51 395.01 1751.3
846.51 393.83 1746.1
866.95 401.20 1778.7
879.33 404.77 1794.6
877.05 401.60 1780.5
883.41 402.39 1784.0
901.66 404.35 1792.7
898.32 400.79 1776.9
901.57 400.19 1774.2
891.44 393.68 1745.4
888.34 390.33 1730.5
900.01 393.47 1744.5
909.03 395.43 1753.1
898.60 388.95 1724.4
898.05 386.79 1714.8
907.05 388.74 1723.5
890.41 379.73 1683.5
887.41 376.61 1669.7
918.54 387.93 1719.9
936.88 393.76 1745.7
946.95 396.08 1756.0
951.44 396.05 1755.9
945.61 391.75 1736.8
942.06 388.43 1722.1
939.86 385.70 1710.0
951.83 388.78 1723.6
955.29 388.36 1721.8
963.99 390.08 1729.4
986.62 397.39 1761.8
970.41 389.06 1724.9
951.63 379.78 1683.7
969.02 384.95 1706.7
967.54 382.62 1696.3
963.09 379.13 1680.9
983.54 385.44 1708.9
990.34 386.37 1713.0
992.72 385.56 1709.4
999.53 386.48 1713.5
996.93 383.77 1701.5
1000.24 383.35 1699.6
1016.04 387.70 1718.9
1034.42 392.99 1742.3
1025.22 387.80 1719.3
1017.95 383.39 1699.7
1051.60 394.35 1748.3
1100.15 410.78 1821.2
804.20 467.30 2095.9
802.26 463.05 2076.8
773.25 443.33 1988.4
752.77 428.73 1922.9
756.39 427.96 1919.4
747.00 419.88 1883.2
745.43 416.28 1867.0
759.49 421.39 1890.0
749.78 413.34 1853.8
746.55 408.94 1834.1
752.50 409.59 1837.0
748.39 404.79 1815.5
759.19 408.07 1830.2
770.06 411.33 1844.9
757.46 402.11 1803.5
745.83 393.50 1764.9
755.87 396.37 1777.7
763.65 398.02 1785.1
763.71 395.66 1774.5
770.34 396.70 1779.2
781.29 399.95 1793.8
795.84 404.98 1816.4
804.95 407.21 1826.4
807.35 406.04 1821.1
817.31 408.66 1832.8
820.50 407.88 1829.4
810.77 400.73 1797.3
823.58 404.73 1815.2
841.34 411.11 1843.8
832.65 404.56 1814.5
822.19 397.24 1781.6
820.25 394.09 1767.5
814.10 388.96 1744.5
821.17 390.17 1749.9
849.18 401.26 1799.7
861.84 405.02 1816.5
864.03 403.84 1811.2
872.54 405.62 1819.2
867.89 401.28 1799.8
856.31 393.81 1766.3
863.48 395.00 1771.6
882.75 401.68 1801.5
888.28 402.06 1803.3
877.71 395.20 1772.5
886.68 397.16 1781.3
900.94 401.45 1800.5
886.63 393.04 1762.8
883.67 389.72 1747.9
888.65 389.92 1748.8
896.29 391.28 1754.9
910.68 395.55 1774.1
905.81 391.46 1755.7
897.69 386.01 1731.3
900.36 385.23 1727.8
911.65 388.13 1740.8
927.56 392.95 1762.4
918.78 387.33 1737.2
900.23 377.66 1693.8
915.24 382.09 1713.7
930.33 386.51 1733.5
937.57 387.65 1738.6
940.16 386.86 1735.1
932.41 381.84 1712.6
942.46 384.13 1722.8
954.44 387.18 1736.5
957.46 386.58 1733.8
952.84 382.92 1717.4
946.72 378.69 1698.4
954.91 380.19 1705.2
974.67 386.28 1732.5
992.61 391.58 1756.3
990.28 388.88 1744.1
969.41 378.95 1699.6
969.35 377.21 1691.8
993.26 384.78 1725.7
1007.96 388.72 1743.4
1018.28 390.95 1753.4
1032.60 394.68 1770.2
1040.53 395.95 1775.9
1046.49 396.47 1778.2
1065.94 402.06 1803.3
1067.43 400.87 1797.9
1037.22 387.83 1739.4
1042.60 388.15 1740.9
1090.00 404.05 1812.2
1123.46 414.67 1859.8
789.70 456.63 2072.1
781.08 448.59 2035.6
779.70 444.79 2018.4
763.68 432.75 1963.8
755.27 425.15 1929.3
760.35 425.19 1929.4
752.05 417.81 1895.9
731.62 403.82 1832.4
729.53 400.06 1815.4
737.64 401.92 1823.8
749.85 405.97 1842.2
770.32 414.41 1880.5
779.37 416.64 1890.7
771.19 409.70 1859.1
764.38 403.55 1831.3
767.69 402.80 1827.8
769.83 401.44 1821.7
768.11 398.10 1806.5
764.77 393.97 1787.8
772.20 395.40 1794.3
786.27 400.20 1816.0
782.04 395.68 1795.5
781.26 392.94 1783.1
799.00 399.50 1812.9
809.32 402.29 1825.5
809.30 399.95 1814.9
802.82 394.45 1789.9
805.10 393.29 1784.7
829.63 402.96 1828.6
841.32 406.32 1843.8
826.49 396.90 1801.1
822.98 392.99 1783.3
828.05 393.21 1784.3
825.66 389.90 1769.3
836.54 392.85 1782.7
850.40 397.16 1802.3
849.62 394.63 1790.8
832.74 384.69 1745.7
822.88 378.08 1715.7
846.13 386.67 1754.6
862.68 392.13 1779.4
857.85 387.86 1760.0
865.88 389.42 1767.1
876.10 391.94 1778.6
870.27 387.29 1757.5
872.20 386.13 1752.2
878.51 386.91 1755.7
877.33 384.40 1744.3
888.05 387.10 1756.6
884.59 383.62 1740.8
884.19 381.50 1731.2
909.74 390.54 1772.2
915.65 391.11 1774.8
915.25 388.98 1765.1
925.69 391.46 1776.4
921.60 387.80 1759.8
921.10 385.68 1750.2
931.57 388.15 1761.4
933.79 387.18 1756.9
926.73 382.39 1735.2
919.12 377.42 1712.7
924.00 377.60 1713.5
925.13 376.25 1707.4
916.38 370.92 1683.1
924.96 372.61 1690.9
951.54 381.51 1731.2
968.31 386.41 1753.5
962.77 382.41 1735.3
956.20 378.03 1715.4
956.75 376.50 1708.5
968.82 379.49 1722.1
997.86 389.07 1765.5
1006.69 390.73 1773.0
991.23 382.97 1737.9
996.61 383.31 1739.4
1008.37 386.09 1752.0
1008.38 384.36 1744.1
1011.80 383.94 1742.3
1018.18 384.65 1745.5
1029.04 387.03 1756.3
1038.45 388.85 1764.5
1063.88 396.62 1799.8
1072.89 398.23 1807.1
1045.69 386.45 1753.6
1057.16 389.00 1765.2
779.26 445.29 2044.7
782.50 444.12 2039.3
781.48 440.57 2023.0
765.11 428.46 1967.4
756.34 420.75 1932.0
761.42 420.79 1932.2
773.37 424.60 1949.7
772.31 421.26 1934.3
766.05 415.15 1906.3
770.33 414.79 1904.7
757.23 405.14 1860.3
753.95 400.84 1840.6
773.38 408.58 1876.1
775.31 407.04 1869.0
762.85 398.01 1827.6
760.07 394.11 1809.7
760.64 391.99 1799.9
755.42 386.92 1776.7
768.60 391.29 1796.7
791.94 400.74 1840.1
776.51 390.58 1793.5
757.61 376.56 1729.1
790.27 390.48 1793.0
788.22 387.20 1777.9
776.92 379.42 1742.3
795.16 386.09 1772.9
823.21 397.41 1824.8
823.52 395.29 1815.1
810.34 386.75 1775.9
815.41 386.97 1776.9
832.80 393.01 1804.6
842.46 395.35 1815.4
844.29 394.00 1809.2
839.83 389.76 1789.7
837.38 386.48 1774.7
838.64 384.95 1767.6
823.40 375.90 1726.1
837.12 378.06 1736.0
865.63 388.84 1785.5
872.85 390.00 1790.8
871.44 387.31 1778.5
873.45 386.16 1773.2
875.87 385.20 1768.8
885.27 387.31 1778.4
892.07 388.26 1782.8
890.50 385.58 1770.5
891.98 384.24 1764.4
879.64 376.99 1731.1
875.20 373.18 1713.6
896.23 380.22 1745.9
912.00 384.96 1767.7
921.97 387.23 1778.1
934.71 390.63 1793.7
932.02 387.57 1779.7
922.87 381.88 1753.5
925.08 380.92 1749.1
914.37 374.67 1720.4
893.82 364.47 1673.6
908.83 368.80 1693.5
935.58 377.83 1734.9
933.95 375.37 1723.6
922.87 369.15 1695.1
935.72 372.51 1710.5
965.66 382.62 1756.9
980.11 386.52 1774.8
972.71 381.81 1753.2
952.78 372.25 1709.3
937.47 364.57 1674.1
939.36 363.62 1669.7
958.63 369.38 1696.1
992.56 380.71 1748.1
1001.86 382.53 1756.5
999.95 380.07 1745.2
1003.39 379.66 1743.3
991.08 373.32 1714.2
980.63 367.74 1688.6
993.34 370.85 1702.9
1011.57 375.98 1726.5
1019.93 377.42 1733.0
1045.30 385.11 1768.4
1082.86 397.21 1823.9
1091.42 398.61 1830.3
1082.33 393.58 1807.2
1125.34 407.45 1870.9
798.67 447.90 2081.5
786.44 438.08 2035.8
770.09 426.11 1980.2
761.34 418.49 1944.8
759.26 414.60 1926.7
766.14 415.62 1931.4
770.48 415.26 1929.8
770.43 412.55 1917.2
762.60 405.74 1885.5
738.72 390.53 1814.9
736.46 386.87 1797.9
757.29 395.32 1837.1
770.40 399.65 1857.2
768.49 396.18 1841.1
769.53 394.27 1832.2
772.83 393.53 1828.8
761.52 385.40 1791.0
768.18 386.42 1795.7
791.91 395.96 1840.1
776.08 385.72 1792.5
751.81 371.43 1726.1
775.28 380.76 1769.4
794.58 387.94 1802.8
779.83 378.51 1759.0
771.27 372.18 1729.6
792.30 380.12 1766.5
812.68 387.66 1801.5
804.42 381.53 1773.0
797.26 375.98 1747.2
807.99 378.89 1760.8
821.66 383.13 1780.5
827.14 383.53 1782.3
847.15 390.63 1815.3
859.38 394.08 1831.4
845.71 385.68 1792.3
835.23 378.82 1760.4
837.29 377.69 1755.2
843.57 378.46 1758.8
851.14 379.81 1765.0
864.73 383.81 1783.6
882.26 389.51 1810.1
891.26 391.40 1818.9
880.78 384.76 1788.0
871.03 378.51 1759.0
866.84 374.73 1741.4
859.50 369.63 1717.7
866.17 370.58 1722.1
874.64 372.28 1730.1
874.23 370.21 1720.4
882.27 371.72 1727.4
893.48 374.54 1740.5
897.08 374.16 1738.8
901.57 374.15 1738.7
907.42 374.71 1741.3
918.29 377.32 1753.5
922.80 377.30 1753.4
933.74 379.90 1765.5
931.35 377.08 1752.4
900.67 362.89 1686.4
903.64 362.33 1683.8
945.76 377.40 1753.8
959.15 380.91 1770.1
945.81 373.82 1737.2
956.39 376.21 1748.3
964.64 377.67 1755.1
958.66 373.56 1736.0
962.62 373.35 1735.0
952.21 367.60 1708.3
930.65 357.61 1661.9
926.25 354.28 1646.4
963.80 363.61 1689.8
986.19 370.38 1721.2
1003.31 375.11 1743.2
1004.28 373.79 1737.1
1001.27 371.01 1724.1
1023.47 377.55 1754.5
1039.82 381.88 1774.7
1046.77 382.74 1778.6
1059.23 385.60 1791.9
1082.79 392.45 1823.8
1092.87 394.38 1832.8
1084.79 389.77 1811.3
1118.18 400.04 1859.1
798.82 439.62 2067.9
781.47 427.20 2009.5
773.49 420.04 1975.8
773.64 417.36 1963.2
766.85 410.99 1933.2
758.47 403.86 1899.7
755.06 399.45 1878.9
744.92 391.56 1841.8
733.88 383.30 1803.0
744.23 386.25 1816.8
753.15 388.42 1827.0
755.34 387.11 1820.9
766.57 390.43 1836.5
780.14 394.89 1857.5
781.58 393.19 1849.5
768.39 384.20 1807.2
756.94 376.18 1769.5
763.56 377.18 1774.2
782.28 384.11 1806.8
792.12 386.63 1818.7
794.14 385.32 1812.5
792.56 382.29 1798.2
790.12 378.89 1782.2
793.61 378.35 1779.7
796.27 377.42 1775.3
797.70 375.93 1768.3
797.48 373.68 1757.7
797.21 371.43 1747.1
805.89 373.35 1756.2
816.67 376.22 1769.7
817.17 374.35 1760.9
832.58 379.28 1784.1
853.92 386.86 1819.7
847.75 381.95 1796.7
852.01 381.77 1795.8
869.36 387.43 1822.4
858.80 380.66 1790.5
850.65 375.02 1764.0
858.67 376.53 1771.1
871.45 380.10 1787.9
883.00 383.10 1802.1
875.95 378.04 1778.2
865.73 371.68 1748.3
861.96 368.13 1731.6
862.06 366.27 1722.9
877.58 370.94 1744.8
889.64 374.10 1759.7
891.96 373.17 1755.3
888.46 369.81 1739.5
886.68 367.21 1727.3
892.50 367.76 1729.9
897.88 368.13 1731.6
909.16 370.90 1744.7
925.97 375.89 1768.1
930.97 376.06 1768.9
941.02 378.25 1779.2
955.73 382.29 1798.2
943.18 375.44 1766.0
929.58 368.24 1732.1
955.49 376.68 1771.9
976.40 383.09 1802.0
970.64 379.01 1782.8
962.44 374.03 1759.4
952.73 368.51 1733.4
955.73 367.93 1730.7
968.74 371.20 1746.1
958.83 365.69 1720.2
939.68 356.73 1678.0
940.61 355.44 1671.9
941.03 353.96 1665.0
940.45 352.13 1656.4
964.18 359.38 1690.5
967.52 358.99 1688.6
963.49 355.88 1674.0
992.38 364.91 1716.5
1019.95 373.37 1756.3
1034.78 377.12 1773.9
1043.22 378.51 1780.5
1053.17 380.44 1789.5
1070.67 385.06 1811.3
1079.70 386.62 1818.6
1073.15 382.60 1799.7
1080.67 383.61 1804.5
1133.84 400.75 1885.1
788.51 431.55 2055.0
754.99 410.43 1954.4
766.17 413.73 1970.2
784.94 421.06 2005.0
775.43 413.22 1967.7
760.33 402.53 1916.8
749.35 394.14 1876.9
743.32 388.45 1849.7
757.41 393.27 1872.7
766.78 395.60 1883.8
757.59 388.39 1849.5
748.62 381.37 1816.1
754.93 382.18 1819.9
769.56 387.17 1843.7
774.03 387.02 1842.9
767.03 381.16 1815.1
764.90 377.78 1799.0
763.85 374.98 1785.6
764.29 372.93 1775.9
777.16 376.95 1795.0
790.91 381.33 1815.9
796.46 381.74 1817.8
798.46 380.44 1811.6
799.23 378.58 1802.8
795.16 374.46 1783.2
790.59 370.16 1762.7
800.48 372.64 1774.5
808.38 374.16 1781.7
805.30 370.62 1764.9
811.98 371.58 1769.4
834.31 379.66 1807.9
847.30 383.41 1825.8
836.68 376.50 1792.9
833.00 372.78 1775.1
845.18 376.15 1791.2
867.54 383.99 1828.5
877.78 386.41 1840.1
861.72 377.29 1796.6
849.31 369.86 1761.2
854.33 370.06 1762.2
861.06 370.99 1766.6
867.81 371.92 1771.1
874.15 372.66 1774.6
878.31 372.48 1773.7
875.02 369.15 1757.9
875.62 367.49 1749.9
889.43 371.36 1768.4
901.99 374.67 1784.2
899.91 371.90 1771.0
890.62 366.19 1743.8
889.74 363.99 1733.3
896.93 365.08 1738.5
913.64 370.02 1762.0
937.71 377.88 1799.4
936.85 375.67 1788.9
924.94 369.07 1757.5
932.22 370.15 1762.6
944.58 373.23 1777.3
947.74 372.66 1774.6
950.42 371.90 1771.0
948.41 369.33 1758.7
942.13 365.13 1738.7
951.29 366.93 1747.3
957.64 367.63 1750.6
948.38 362.35 1725.5
951.84 361.97 1723.7
969.13 366.82 1746.8
964.00 363.18 1729.4
957.36 359.01 1709.6
972.34 362.95 1728.3
979.64 364.00 1733.3
987.45 365.22 1739.2
998.69 367.70 1750.9
987.47 361.92 1723.4
970.74 354.19 1686.6
986.86 358.46 1706.9
1015.90 367.36 1749.3
1033.21 371.95 1771.2
1037.16 371.73 1770.1
1042.11 371.85 1770.7
1067.58 379.27 1806.1
1085.15 383.83 1827.8
1094.74 385.54 1835.9
1124.07 394.15 1876.9
768.77 412.76 1990.1
769.72 410.52 1979.3
772.05 409.03 1972.1
747.70 393.53 1897.4
753.79 394.14 1900.3
763.16 396.45 1911.4
764.53 394.59 1902.5
782.42 401.24 1934.5
785.26 400.13 1929.2
770.22 389.98 1880.3
763.18 383.99 1851.4
771.44 385.72 1859.7
762.34 378.80 1826.4
743.95 367.38 1771.3
743.66 364.99 1759.8
747.55 364.66 1758.2
765.34 371.07 1789.1
782.49 377.10 1818.2
788.83 377.88 1821.9
795.18 378.66 1825.7
799.57 378.50 1824.9
799.20 376.10 1813.3
788.43 368.85 1778.4
773.49 359.76 1734.6
776.06 358.87 1730.3
792.74 364.48 1757.3
808.73 369.71 1782.5
814.62 370.28 1785.3
829.13 374.75 1806.8
863.38 385.87 1860.4
842.44 374.42 1805.2
823.76 364.09 1755.4
821.22 360.98 1740.4
849.79 371.49 1791.1
866.30 376.65 1816.0
854.01 369.30 1780.6
846.25 363.98 1754.9
857.69 366.93 1769.1
871.33 370.78 1787.7
873.80 369.86 1783.3
877.12 369.31 1780.6
880.43 368.76 1778.0
875.83 364.93 1759.5
867.19 359.46 1733.1
873.02 360.01 1735.7
894.38 366.92 1769.1
901.17 367.83 1773.4
889.65 361.28 1741.9
887.86 358.73 1729.6
889.18 357.46 1723.5
899.98 359.99 1735.7
930.37 370.30 1785.4
936.32 370.82 1787.9
918.45 361.95 1745.1
919.72 360.68 1739.0
931.58 363.54 1752.8
935.62 363.35 1751.8
925.69 357.75 1724.9
912.38 350.91 1691.9
921.42 352.70 1700.5
945.56 360.21 1736.7
950.95 360.55 1738.4
941.65 355.34 1713.2
950.80 357.11 1721.8
973.34 363.86 1754.3
967.26 359.91 1735.3
959.67 355.43 1713.7
977.07 360.21 1736.7
988.26 362.67 1748.6
995.13 363.52 1752.7
1004.93 365.43 1761.9
1006.94 364.50 1757.4
1002.55 361.28 1741.9
1001.04 359.12 1731.5
1012.35 361.55 1743.2
1034.60 367.86 1773.6
1044.53 369.75 1782.7
1051.50 370.57 1786.7
1077.51 378.07 1822.9
1110.70 388.02 1870.8
1135.50 394.96 1904.2
812.65 430.87 2103.7
798.19 420.38 2052.5
786.00 411.22 2007.8
757.04 393.46 1921.1
758.83 391.82 1913.0
768.60 394.28 1925.1
770.36 392.64 1917.0
780.18 395.09 1929.0
776.35 390.65 1907.3
775.77 387.89 1893.8
781.87 388.47 1896.7
770.28 380.32 1856.9
742.99 364.57 1780.0
737.50 355.26 1734.5
760.65 364.19 1778.1
767.29 365.15 1782.9
763.40 361.13 1763.2
787.67 370.39 1808.4
809.78 378.54 1848.2
795.19 369.53 1804.2
768.85 355.20 1734.2
766.22 351.93 1718.3
782.02 357.11 1743.6
796.72 361.73 1766.1
810.70 365.97 1786.9
819.46 367.83 1795.9
839.33 374.62 1829.0
849.86 377.18 1841.6
831.47 366.96 1791.7
833.23 365.70 1785.5
837.47 365.53 1784.7
818.63 355.34 1734.9
831.60 359.00 1752.8
864.55 371.19 1812.3
868.40 370.83 1810.6
853.44 362.48 1769.8
858.05 362.49 1769.8
861.79 362.13 1768.1
855.56 357.61 1746.0
858.80 357.08 1743.4
861.59 356.36 1739.9
880.14 362.14 1768.1
894.40 366.10 1787.5
877.35 357.27 1744.4
876.55 355.11 1733.8
894.41 360.50 1760.1
894.04 358.52 1750.5
895.87 357.44 1745.2
901.28 357.79 1746.9
901.25 356.00 1738.1
920.74 361.88 1766.9
935.33 365.80 1786.0
927.53 360.96 1762.4
921.93 357.02 1743.2
927.80 357.54 1745.7
931.82 357.35 1744.7
922.80 352.18 1719.5
912.74 346.67 1692.6
926.01 350.02 1709.0
936.52 352.31 1720.1
928.18 347.52 1696.7
934.44 348.21 1700.1
959.26 355.78 1737.1
983.27 362.98 1772.3
979.63 359.96 1757.5
970.14 354.82 1732.4
985.66 358.83 1752.0
993.50 360.03 1757.8
996.98 359.64 1755.9
1001.91 359.78 1756.6
997.55 356.59 1741.0
1010.31 359.52 1755.4
1026.07 363.50 1774.8
1012.24 357.00 1743.0
1005.23 352.95 1723.3
1025.02 358.30 1749.4
1043.41 363.13 1772.9
1071.41 371.24 1812.5
1106.10 381.58 1863.0
1125.84 386.70 1888.1
796.80 422.79 2090.7
805.07 424.29 2098.1
802.74 420.23 2078.1
795.34 413.58 2045.2
800.68 413.60 2045.3
786.92 403.81 1996.9
772.21 393.68 1946.8
766.39 388.17 1919.5
758.60 381.75 1887.8
760.26 380.13 1879.8
764.09 379.61 1877.2
770.15 380.20 1880.1
771.72 378.58 1872.1
755.55 368.33 1821.4
750.13 363.42 1797.1
754.87 363.46 1797.3
750.82 359.29 1776.7
755.13 359.15 1776.0
766.78 362.48 1792.5
763.34 358.68 1773.7
757.47 353.79 1749.5
780.55 362.40 1792.1
798.29 368.44 1822.0
779.27 357.55 1768.1
772.76 352.49 1743.1
789.38 357.97 1770.2
788.39 355.46 1757.8
786.14 352.41 1742.7
806.57 359.50 1777.8
822.67 364.59 1802.9
827.79 364.79 1803.9
824.25 361.19 1786.1
826.85 360.30 1781.7
849.80 368.25 1821.0
856.21 368.97 1824.6
840.38 360.16 1781.0
837.85 357.12 1766.0
855.17 362.52 1792.7
864.50 364.49 1802.4
855.51 358.76 1774.1
855.40 356.80 1764.4
855.24 354.84 1754.7
856.78 353.59 1748.5
867.85 356.27 1761.8
851.90 347.90 1720.4
851.56 345.94 1710.7
893.44 361.08 1785.6
903.36 363.21 1796.1
880.90 352.36 1742.4
878.28 349.52 1728.4
882.76 349.52 1728.4
888.59 350.05 1731.0
913.82 358.18 1771.2
934.69 364.53 1802.6
931.58 361.51 1787.7
924.74 357.08 1765.8
923.32 354.77 1754.4
925.06 353.70 1749.1
934.64 355.62 1758.6
941.93 356.65 1763.7
926.89 349.26 1727.1
912.64 342.24 1692.4
920.28 343.45 1698.4
925.12 343.62 1699.2
921.93 340.81 1685.3
932.91 343.24 1697.3
950.59 348.10 1721.4
967.42 352.61 1743.7
977.13 354.49 1753.0
982.07 354.64 1753.7
990.87 356.17 1761.3
992.43 355.09 1755.9
993.96 354.01 1750.6
995.47 352.94 1745.3
985.20 347.72 1719.5
991.53 348.38 1722.7
1022.03 357.48 1767.8
1024.01 356.57 1763.3
1012.57 351.02 1735.8
1026.91 354.42 1752.6
1033.82 355.23 1756.6
1047.76 358.44 1772.5
1097.46 373.81 1848.5
809.47 418.32 2095.5
798.54 409.92 2053.4
798.88 407.38 2040.7
797.72 404.11 2024.3
795.39 400.29 2005.2
781.30 390.65 1956.9
764.43 379.75 1902.3
766.48 378.33 1895.2
769.98 377.64 1891.7
762.28 371.49 1860.9
751.81 364.09 1823.8
760.77 366.12 1834.0
779.62 372.86 1867.8
776.52 369.09 1848.9
764.15 360.98 1808.3
763.92 358.67 1796.7
770.97 359.79 1802.3
773.39 358.74 1797.0
773.43 356.61 1786.4
785.59 360.06 1803.7
792.70 361.17 1809.2
777.22 352.03 1763.4
774.28 348.65 1746.5
793.31 355.15 1779.0
794.76 353.74 1772.0
779.19 344.81 1727.3
786.99 346.28 1734.6
808.31 353.63 1771.4
817.87 355.80 1782.3
822.53 355.81 1782.4
833.40 358.50 1795.8
846.41 362.08 1813.7
842.77 358.53 1796.0
830.65 351.43 1760.4
832.71 350.38 1755.1
843.23 352.87 1767.6
845.71 352.00 1763.2
839.18 347.40 1740.2
841.58 346.53 1735.9
863.36 353.61 1771.3
887.44 361.55 1811.1
890.82 361.02 1808.4
866.66 349.39 1750.2
860.23 344.99 1728.1
896.89 357.82 1792.4
912.57 362.21 1814.4
895.47 353.60 1771.3
889.78 349.56 1751.0
892.07 348.68 1746.6
899.28 349.72 1751.9
926.83 358.62 1796.4
940.50 362.09 1813.8
931.49 356.84 1787.5
920.09 350.73 1756.9
914.05 346.71 1736.8
928.19 350.35 1755.0
950.26 356.93 1787.9
958.07 358.12 1793.9
944.49 351.33 1759.9
924.68 342.31 1714.7
927.68 341.78 1712.1
931.61 341.59 1711.1
927.49 338.47 1695.5
938.01 340.69 1706.6
955.25 345.32 1729.8
964.44 347.02 1738.3
967.44 346.48 1735.6
963.68 343.53 1720.8
963.72 341.96 1713.0
979.72 346.05 1733.4
996.29 350.29 1754.7
983.16 344.10 1723.7
957.16 333.49 1670.6
958.98 332.62 1666.2
985.43 340.26 1704.5
1019.45 350.44 1755.4
1045.72 357.87 1792.7
1072.63 365.45 1830.7
1092.19 370.48 1855.8
1074.73 362.96 1818.2
1089.32 366.28 1834.8
1137.79 380.91 1908.1
1142.49 380.83 1907.7
822.33 422.28 2143.1
820.81 418.67 2124.8
824.19 417.59 2119.4
812.13 408.76 2074.5
798.78 399.39 2027.0
797.18 395.99 2009.7
784.56 387.18 1965.0
774.30 379.66 1926.8
781.57 380.76 1932.4
782.55 378.81 1922.6
773.42 372.02 1888.1
773.13 369.55 1875.5
791.25 375.84 1907.5
797.76 376.58 1911.2
783.71 367.67 1866.0
771.37 359.66 1825.3
770.78 357.19 1812.8
774.01 356.51 1809.4
772.16 353.52 1794.2
764.37 347.86 1765.4
769.81 348.25 1767.4
794.22 357.16 1812.7
796.19 355.95 1806.5
789.76 351.01 1781.4
806.07 356.17 1807.6
813.62 357.43 1814.0
805.41 351.79 1785.4
803.18 348.81 1770.3
813.54 351.30 1782.9
823.54 353.61 1794.6
828.65 353.80 1795.6
841.21 357.16 1812.7
855.50 361.21 1833.2
844.79 354.72 1800.3
825.10 344.55 1748.7
824.19 342.29 1737.2
832.13 343.70 1744.4
855.42 351.41 1783.5
867.75 354.56 1799.5
853.09 346.71 1759.6
857.66 346.71 1759.6
877.40 352.82 1790.6
875.08 350.03 1776.5
874.00 347.77 1765.0
891.30 352.81 1790.6
913.55 359.74 1825.7
914.70 358.34 1818.6
892.27 347.76 1764.9
881.66 341.87 1735.0
