ply
format ascii 1.0
element vertex 2177
property float x
property float y
property float z
end_header
1156.49 770.99 2186.6
1140.86 756.86 2146.6
1148.90 758.50 2151.2
1144.76 752.11 2133.1
1124.68 735.37 2085.6
1112.13 723.68 2052.5
1106.29 716.46 2032.0
1085.70 699.79 1984.7
1069.97 686.39 1946.7
1085.49 693.08 1965.7
1096.44 696.81 1976.2
1074.40 679.62 1927.5
1058.70 666.59 1890.5
1073.77 672.96 1908.6
1070.57 667.88 1894.2
1068.73 663.68 1882.3
1088.15 672.67 1907.8
1087.22 669.06 1897.5
1084.82 664.58 1884.8
1080.93 659.22 1869.6
1072.17 650.96 1846.2
1082.12 654.08 1855.1
1090.15 656.02 1860.6
1100.64 659.41 1870.2
1108.72 661.34 1875.7
1097.28 651.66 1848.2
1094.55 647.21 1835.6
1088.33 640.75 1817.2
1083.50 635.16 1801.4
1091.98 637.38 1807.7
1099.98 639.31 1813.2
1108.00 641.23 1818.6
1107.54 638.25 1810.2
1114.57 639.58 1813.9
1134.68 648.39 1838.9
1123.10 639.09 1812.5
1098.26 622.35 1765.1
1116.89 630.28 1787.5
1138.65 639.90 1814.9
1123.23 628.64 1782.9
1125.11 627.11 1778.6
1150.08 638.41 1810.6
1145.29 633.17 1795.7
1125.44 619.67 1757.5
1122.55 615.59 1745.9
1132.09 618.33 1753.7
1136.45 618.23 1753.4
1128.24 611.32 1733.8
1119.44 604.14 1713.4
1121.60 602.92 1710.0
1153.29 617.51 1751.3
1186.19 632.63 1794.2
1196.96 635.89 1803.5
1200.32 635.19 1801.5
1199.92 632.52 1793.9
1194.69 627.33 1779.2
1184.56 619.62 1757.3
1187.26 618.65 1754.6
1211.53 628.88 1783.6
1219.67 630.70 1788.8
1202.33 619.38 1756.7
1208.81 620.37 1759.4
1216.92 622.18 1764.6
1196.08 609.24 1727.9
1214.56 616.34 1748.0
1247.40 630.66 1788.6
1234.10 621.62 1763.0
1219.60 612.05 1735.9
1209.99 604.99 1715.8
1209.74 602.65 1709.2
1229.50 610.26 1730.8
1240.96 613.71 1740.6
1244.06 613.01 1738.6
1250.52 613.97 1741.3
1253.61 613.27 1739.3
1251.61 610.11 1730.3
1258.62 611.33 1733.8
1263.38 611.46 1734.2
1269.83 612.40 1736.9
1293.36 621.55 1762.8
1310.14 627.39 1779.4
1317.25 628.58 1782.7
1358.18 645.85 1831.7
1199.09 801.37 2289.6
1159.81 771.30 2203.7
1144.73 757.54 2164.4
1153.70 759.76 2170.7
1162.69 761.96 2177.0
1159.96 756.49 2161.4
1132.20 734.84 2099.6
1113.30 719.12 2054.6
1107.00 711.64 2033.3
1084.56 693.91 1982.6
1077.56 686.18 1960.5
1102.36 698.68 1996.2
1102.24 695.34 1986.7
1067.17 670.08 1914.5
1057.03 660.65 1887.6
1078.20 670.77 1916.5
1080.66 669.22 1912.0
1084.04 668.25 1909.3
1121.54 688.22 1966.3
1137.85 695.07 1985.9
1095.05 665.91 1902.6
1051.91 636.81 1819.4
1067.55 643.39 1838.3
1101.60 660.96 1888.5
1103.41 659.12 1883.2
1109.09 659.59 1884.5
1119.64 662.94 1894.1
1110.67 654.76 1870.7
1103.07 647.46 1849.9
1091.45 637.86 1822.5
1077.75 627.14 1791.8
1077.30 624.18 1783.4
1094.20 631.27 1803.6
1110.17 637.76 1822.2
1116.72 638.80 1825.1
1131.30 644.41 1841.2
1141.91 647.72 1850.6
1121.26 633.35 1809.6
1088.28 612.16 1749.0
1099.78 616.06 1760.2
1128.64 629.61 1798.9
1121.35 622.97 1779.9
1115.53 617.20 1763.4
1131.75 623.61 1781.8
1138.23 624.64 1784.7
1129.73 617.46 1764.2
1124.25 611.99 1748.5
1131.72 613.58 1753.1
1150.16 621.09 1774.5
1155.60 621.54 1775.8
1158.94 620.86 1773.9
1173.32 626.08 1788.8
1166.64 620.06 1771.6
1160.41 614.34 1755.2
1171.12 617.58 1764.5
1174.93 617.18 1763.4
1177.13 615.94 1759.8
1173.43 611.63 1747.5
1175.05 610.12 1743.2
1190.64 615.85 1759.6
1210.06 623.51 1781.4
1214.95 623.65 1781.8
1204.11 615.74 1759.2
1216.03 619.48 1770.0
1225.80 622.11 1777.5
1204.96 609.25 1740.7
1206.47 607.74 1736.4
1222.81 613.68 1753.4
1230.94 615.47 1758.5
1237.42 616.43 1761.2
1230.62 610.78 1745.1
1232.64 609.55 1741.6
1256.91 619.28 1769.4
1274.03 625.43 1787.0
1268.82 620.62 1773.2
1268.04 618.00 1765.7
1264.99 614.29 1755.1
1255.69 607.59 1736.0
1280.23 617.25 1763.6
1303.74 626.35 1789.6
1308.02 626.18 1789.1
1331.08 634.97 1814.2
1347.95 640.75 1830.7
1356.29 642.45 1835.6
1171.93 777.42 2237.8
1151.21 759.91 2187.4
1151.73 756.53 2177.6
1150.86 752.27 2165.4
1150.38 748.30 2154.0
1155.73 748.15 2153.5
1137.92 733.08 2110.2
1127.68 723.01 2081.2
1129.66 720.83 2074.9
1097.18 696.79 2005.7
1080.55 682.99 1966.0
1098.43 691.03 1989.1
1091.80 683.65 1967.9
1087.41 677.74 1950.8
1105.86 686.04 1974.8
1127.22 696.07 2003.6
1129.85 694.49 1999.1
1091.81 668.05 1923.0
1089.99 663.90 1911.0
1118.09 677.94 1951.4
1087.13 656.20 1888.8
1055.92 634.50 1826.4
1083.13 647.94 1865.1
1105.66 658.48 1895.4
1095.86 649.76 1870.3
1097.63 647.94 1865.1
1105.21 649.56 1869.7
1109.88 649.45 1869.4
1114.55 649.34 1869.1
1100.98 638.67 1838.4
1084.34 626.30 1802.8
1101.74 633.62 1823.8
1137.12 651.17 1874.4
1135.79 647.64 1864.2
1124.40 638.43 1837.7
1136.50 642.58 1849.6
1144.11 644.16 1854.2
1131.02 634.13 1825.3
1104.64 616.76 1775.3
1092.30 607.34 1748.2
1097.70 607.82 1749.6
1117.93 616.47 1774.5
1139.27 625.67 1801.0
1136.02 621.33 1788.5
1123.42 611.95 1761.5
1124.18 609.88 1755.5
1128.55 609.78 1755.2
1137.07 611.92 1761.4
1156.06 619.65 1783.6
1151.56 614.78 1769.6
1144.91 608.80 1752.4
1159.25 613.99 1767.4
1153.05 608.30 1751.0
1153.67 606.24 1745.0
1171.26 613.08 1764.7
1179.87 615.18 1770.8
1186.36 616.17 1773.6
1164.46 602.46 1734.2
1146.72 591.00 1701.2
1162.24 596.70 1717.6
1182.13 604.60 1740.3
1199.40 611.10 1759.0
1200.99 609.59 1754.7
1213.99 613.87 1767.0
1222.12 615.66 1772.1
1203.45 603.98 1738.5
1208.25 604.13 1739.0
1220.75 608.11 1750.4
1226.12 608.52 1751.6
1241.44 613.85 1766.9
1243.50 612.61 1763.4
1242.77 610.01 1755.9
1263.74 618.03 1779.0
1277.53 622.51 1791.9
1270.64 616.91 1775.7
1272.11 615.39 1771.4
1271.88 613.06 1764.7
1263.15 606.67 1746.3
1288.85 616.81 1775.5
1316.92 628.00 1807.7
1322.94 628.63 1809.5
1340.92 634.92 1827.6
1352.68 638.24 1837.1
1195.31 787.01 2282.4
1195.16 783.04 2270.9
1164.54 759.24 2201.9
1132.74 734.90 2131.3
1144.80 739.12 2143.5
1160.99 745.95 2163.3
1141.83 730.11 2117.4
1130.68 719.52 2086.7
1150.51 728.66 2113.2
1136.92 716.64 2078.3
1089.99 683.81 1983.1
1080.15 674.46 1956.0
1088.31 676.38 1961.6
1098.82 679.73 1971.3
1100.47 677.60 1965.1
1106.32 678.07 1966.5
1115.95 680.83 1974.5
1082.56 657.44 1906.7
1066.93 645.01 1870.6
1082.59 651.51 1889.5
1090.67 653.42 1895.0
1095.42 653.32 1894.7
1090.53 647.50 1877.8
1081.23 639.13 1853.5
1077.15 633.90 1838.4
1085.17 635.81 1843.9
1094.67 638.56 1851.9
1101.75 639.88 1855.7
1101.47 636.94 1847.2
1081.95 622.94 1806.6
1086.47 622.85 1806.3
1125.22 642.29 1862.7
1141.79 648.97 1882.1
1118.50 633.03 1835.8
1091.53 615.14 1784.0
1088.96 611.10 1772.3
1121.11 626.50 1816.9
1133.72 630.90 1829.7
1108.34 614.21 1781.3
1097.53 605.69 1756.6
1116.20 613.45 1779.1
1149.29 629.04 1824.3
1154.32 629.20 1824.7
1132.57 614.82 1783.1
1134.93 613.60 1779.5
1150.74 619.63 1797.0
1154.66 619.23 1795.8
1165.35 622.45 1805.2
1169.27 622.05 1804.0
1148.56 608.60 1765.0
1117.20 589.63 1710.0
1142.62 598.30 1735.1
1182.96 616.99 1789.3
1198.51 622.66 1805.8
1206.66 624.46 1811.0
1208.95 623.22 1807.4
1181.74 606.84 1759.9
1148.44 587.47 1703.7
1149.96 586.00 1699.5
1178.48 598.24 1735.0
1203.87 608.80 1765.6
1201.67 605.39 1755.7
1210.87 607.72 1762.4
1231.00 615.50 1785.0
1223.84 609.63 1768.0
1232.54 611.67 1773.9
1250.05 618.06 1792.4
1233.42 607.57 1762.0
1226.63 602.00 1745.9
1236.43 604.58 1753.3
1243.46 605.79 1756.9
1253.29 608.35 1764.3
1256.44 607.66 1762.3
1269.66 611.83 1774.4
1293.03 620.84 1800.5
1293.97 619.06 1795.3
1286.98 613.51 1779.2
1283.33 609.58 1767.9
1281.33 606.47 1758.8
1296.93 611.67 1773.9
1325.69 623.03 1806.8
1344.84 629.80 1826.5
1394.98 650.99 1887.9
1181.43 772.02 2255.9
1184.33 770.11 2250.3
1157.23 748.80 2188.0
1142.89 735.91 2150.4
1171.24 750.50 2193.0
1185.72 756.11 2209.4
1164.36 738.92 2159.2
1132.76 715.43 2090.5
1134.75 713.27 2084.2
1133.04 708.82 2071.2
1100.36 685.13 2002.0
1089.62 675.26 1973.2
1098.75 677.73 1980.4
1099.03 674.76 1971.7
1091.32 666.92 1948.8
1092.91 664.81 1942.6
1097.30 664.42 1941.5
1099.32 662.60 1936.2
1118.88 671.33 1961.7
1116.62 666.94 1948.8
1105.21 657.15 1920.3
1121.52 663.86 1939.9
1126.83 664.03 1940.3
1129.73 662.77 1936.7
1136.96 664.07 1940.5
1116.48 649.23 1897.1
1100.70 637.25 1862.1
1092.62 629.81 1840.3
1077.57 618.43 1807.1
1066.82 609.61 1781.3
1079.71 614.32 1795.1
1110.51 629.13 1838.4
1117.58 630.43 1842.2
1109.18 623.03 1820.5
1095.69 612.84 1790.8
1078.55 600.71 1755.3
1098.59 609.30 1780.4
1121.24 619.26 1809.5
1107.99 609.39 1780.7
1121.59 614.31 1795.1
1165.36 635.65 1857.4
1163.79 632.18 1847.3
1132.91 612.89 1790.9
1135.29 611.67 1787.3
1160.91 622.93 1820.2
1181.46 631.39 1845.0
1189.63 633.19 1850.2
1177.49 624.21 1824.0
1160.54 612.77 1790.5
1153.42 606.58 1772.5
1135.72 594.90 1738.3
1118.41 583.52 1705.1
1144.33 594.69 1737.7
1191.59 616.82 1802.4
1214.09 626.01 1829.3
1207.35 620.12 1812.0
1195.20 611.50 1786.8
1203.33 613.28 1792.0
1206.09 612.32 1789.3
1183.50 598.55 1749.0
1189.42 599.25 1751.1
1204.55 604.57 1766.6
1191.47 595.74 1740.8
1200.10 597.78 1746.8
1220.22 605.52 1769.4
1225.07 605.65 1769.8
1245.31 613.36 1792.3
1262.31 619.43 1810.0
1244.60 608.47 1778.0
1230.08 599.15 1750.8
1232.11 597.94 1747.2
1244.70 601.83 1758.6
1260.67 607.33 1774.7
1267.19 608.25 1777.4
1283.81 614.00 1794.1
1302.17 620.53 1813.2
1297.49 616.07 1800.2
1288.81 609.76 1781.8
1284.59 605.59 1769.6
1293.95 607.83 1776.1
1326.07 620.72 1813.8
1419.87 659.94 1928.4
1429.53 662.10 1934.7
1200.39 778.47 2292.1
1174.08 753.95 2219.9
1162.04 742.58 2186.4
1169.27 743.56 2189.3
1163.82 736.52 2168.6
1165.09 733.79 2160.5
1155.84 724.47 2133.1
1145.54 714.60 2104.1
1132.83 703.32 2070.8
1111.20 686.64 2021.7
1112.54 684.24 2014.7
1105.94 677.00 1993.4
1088.98 663.52 1953.7
1103.71 669.38 1970.9
1127.44 680.62 2004.0
1129.12 678.51 1997.8
1128.41 674.98 1987.4
1148.08 683.63 2012.9
1148.77 680.95 2005.0
1112.11 656.24 1932.2
1103.00 647.95 1907.8
1128.96 660.24 1944.0
1151.68 670.54 1974.3
1150.75 667.03 1964.0
1122.02 647.51 1906.5
1111.14 638.42 1879.7
1107.49 633.54 1865.4
1104.77 629.24 1852.7
1105.44 626.90 1845.8
1098.17 620.09 1825.8
1108.20 623.06 1834.5
1125.22 629.93 1854.8
1128.33 628.99 1852.0
1125.91 624.98 1840.2
1120.43 619.31 1823.5
1114.37 613.37 1806.0
1112.79 609.94 1795.9
1126.91 615.11 1811.1
1167.05 634.37 1867.8
1184.94 641.43 1888.6
1156.79 623.62 1836.2
1136.65 610.25 1796.8
1148.84 614.28 1808.7
1161.58 618.57 1821.3
1168.67 619.82 1825.0
1170.56 618.32 1820.6
1152.09 606.12 1784.7
1160.16 607.93 1790.0
1179.79 615.75 1813.0
1158.99 602.49 1774.0
1138.04 589.26 1735.0
1158.74 597.62 1759.6
1201.29 617.13 1817.1
1220.63 624.62 1839.1
1210.17 616.86 1816.3
1206.04 612.37 1803.0
1222.78 618.47 1821.0
1227.22 618.33 1820.6
1205.75 605.18 1781.9
1187.92 593.96 1748.8
1180.28 587.89 1731.0
1180.17 585.62 1724.3
1202.40 594.40 1750.1
1224.17 602.88 1775.1
1230.14 603.55 1777.1
1240.50 606.36 1785.4
1245.93 606.75 1786.5
1225.39 594.54 1750.6
1208.60 584.23 1720.2
1229.46 592.13 1743.5
1260.41 604.81 1780.8
1280.34 612.13 1802.4
1290.26 614.63 1809.7
1287.87 611.27 1799.8
1285.44 607.92 1789.9
1296.50 610.94 1798.8
1303.07 611.83 1801.5
1322.10 618.55 1821.3
1360.51 634.26 1867.5
1402.49 651.51 1918.3
1208.33 781.51 2318.8
1182.44 753.52 2235.7
1159.18 735.09 2181.0
1154.65 728.66 2162.0
1145.96 719.68 2135.3
1145.34 715.84 2123.9
1146.05 712.85 2115.1
1144.88 708.74 2102.8
1156.08 712.28 2113.4
1156.24 709.01 2103.7
1135.02 692.74 2055.4
1106.16 671.96 1993.7
1106.00 668.74 1984.2
1137.20 684.43 2030.7
1121.07 671.61 1992.7
1081.65 645.02 1913.8
1112.04 660.11 1958.6
1137.68 666.21 1976.7
1099.82 641.15 1902.3
1097.34 636.85 1889.6
1121.90 648.21 1923.3
1124.26 646.70 1918.8
1105.16 632.91 1877.9
1102.52 628.63 1865.2
1106.19 627.97 1863.2
1110.84 627.87 1862.9
1113.51 626.65 1859.3
1106.75 620.16 1840.0
1129.22 630.04 1869.3
1158.78 643.77 1910.1
1150.50 636.45 1888.4
1136.11 625.82 1856.8
1130.65 620.19 1840.1
1126.63 615.39 1825.9
1110.41 603.99 1792.1
1109.79 601.14 1783.6
1151.94 621.38 1843.7
1172.34 629.77 1868.5
1159.00 620.04 1839.7
1152.74 614.16 1822.2
1154.14 612.40 1817.0
1154.49 610.10 1810.2
1150.14 605.34 1796.1
1140.01 597.59 1773.1
1146.49 598.57 1776.0
1180.71 613.97 1821.7
1192.54 617.65 1832.6
1162.81 599.86 1779.8
1153.47 592.69 1758.5
1184.81 606.40 1799.2
1209.93 616.83 1830.1
1211.20 615.06 1824.9
1205.51 609.79 1809.3
1205.65 607.50 1802.5
1207.90 606.28 1798.9
1198.30 599.15 1777.7
1195.09 595.25 1766.1
1194.54 592.71 1758.6
1203.72 595.00 1765.4
1219.46 600.49 1781.7
1221.07 599.02 1777.3
1221.02 596.74 1770.5
1230.27 599.01 1777.3
1243.38 603.13 1789.5
1258.74 608.31 1804.9
1247.07 600.44 1781.5
1222.56 586.47 1740.1
1235.68 590.58 1752.3
1237.15 589.12 1747.9
1226.86 582.09 1727.1
1257.93 594.66 1764.4
1278.46 602.17 1786.7
1274.88 598.32 1775.2
1284.79 600.80 1782.6
1304.33 607.75 1803.2
1338.68 621.53 1844.1
1387.37 641.84 1904.4
1212.91 790.23 2362.8
1201.59 778.92 2329.0
1203.81 776.46 2321.6
1165.88 744.54 2226.2
1167.82 742.11 2218.9
1178.25 745.07 2227.8
1182.85 744.33 2225.6
1155.82 723.79 2164.2
1126.26 701.87 2098.6
1122.83 696.37 2082.2
1121.62 692.29 2070.0
1122.65 689.63 2062.0
1134.69 693.72 2074.3
1131.99 688.81 2059.6
1108.35 671.25 2007.1
1103.58 665.24 1989.1
1128.17 676.90 2024.0
1135.08 677.90 2026.9
1093.98 650.34 1944.5
1066.25 630.95 1886.5
1109.39 653.48 1953.9
1142.34 669.82 2002.8
1124.86 656.59 1963.2
1131.18 657.31 1965.4
1129.33 653.29 1953.4
1113.44 641.22 1917.3
1126.93 646.11 1931.9
1134.16 647.37 1935.7
1119.47 636.17 1902.2
1113.44 629.97 1883.6
1114.21 627.65 1876.7
1116.42 626.17 1872.3
1117.13 623.85 1865.3
1116.82 620.99 1856.8
1145.79 634.37 1896.8
1160.46 639.74 1912.8
1135.16 623.13 1863.2
1120.21 612.32 1830.9
1115.20 607.01 1815.0
1115.67 604.71 1808.1
1103.96 595.86 1781.6
1088.58 585.11 1749.5
1117.94 598.40 1789.2
1155.12 615.74 1841.1
1158.64 615.08 1839.1
1155.46 610.88 1826.5
1158.42 609.94 1823.7
1164.99 610.91 1826.6
1165.33 608.62 1819.8
1167.73 607.41 1816.2
1187.35 615.13 1839.3
1180.34 609.05 1821.1
1150.15 591.11 1767.4
1159.25 593.43 1774.4
1188.45 605.97 1811.9
1217.79 618.48 1849.3
1218.81 614.16 1836.4
1190.69 597.66 1787.0
1209.00 604.50 1807.5
1230.06 612.66 1831.9
1208.12 599.41 1792.3
1191.43 588.87 1760.7
1207.11 594.34 1777.1
1231.00 603.80 1805.4
1235.92 603.92 1805.7
1226.11 596.86 1784.6
1229.90 596.46 1783.4
1242.46 600.29 1794.9
1247.91 600.67 1796.0
1255.01 601.85 1799.5
1265.44 604.60 1807.8
1263.15 601.28 1797.8
1259.70 597.43 1786.3
1244.50 588.06 1758.3
1223.61 576.08 1722.5
1245.16 584.09 1746.5
1289.26 602.59 1801.8
1311.03 610.55 1825.6
1312.56 609.07 1821.1
1325.95 613.08 1833.1
1342.22 618.38 1849.0
1409.10 644.59 1927.3
1430.18 651.92 1949.3
1215.16 777.70 2343.5
1198.32 763.11 2299.5
1184.85 750.80 2262.4
1166.31 735.41 2216.1
1157.00 725.96 2187.6
1174.13 733.12 2209.2
1159.70 720.59 2171.4
1129.68 698.54 2105.0
1127.63 693.92 2091.1
1118.65 685.11 2064.5
1113.24 678.55 2044.7
1121.10 680.10 2049.4
1113.72 672.43 2026.3
1089.53 654.74 1973.0
1085.61 649.34 1956.7
1113.89 663.16 1998.3
1124.51 666.37 2008.0
1108.31 653.75 1970.0
1105.66 649.19 1956.3
1112.91 650.47 1960.1
1108.75 645.09 1943.9
1103.56 639.17 1926.1
1120.35 645.97 1946.6
1130.97 649.17 1956.2
1128.59 644.91 1943.4
1127.60 641.48 1933.0
1120.74 634.75 1912.8
1121.11 632.17 1905.0
1128.29 633.43 1908.8
1112.90 622.06 1874.5
1099.35 611.81 1843.6
1116.80 618.83 1864.8
1132.84 625.02 1883.4
1126.57 618.89 1865.0
1106.75 605.40 1824.3
1090.27 593.85 1789.5
1083.70 587.77 1771.2
1105.77 597.21 1799.6
1133.50 609.61 1837.0
1135.01 607.87 1831.8
1131.93 603.69 1819.2
1142.56 606.84 1828.6
1161.92 614.57 1851.9
1164.43 613.36 1848.3
1159.72 608.38 1833.3
1157.01 604.48 1821.5
1157.37 602.21 1814.7
1176.90 609.89 1837.8
1198.09 618.37 1863.4
1180.18 606.68 1828.2
1138.04 582.68 1755.8
1131.97 574.97 1732.6
1183.31 598.67 1804.0
1234.90 622.31 1875.3
1230.95 617.89 1861.9
1185.37 592.69 1786.0
1184.94 590.17 1778.4
1231.11 610.78 1840.5
1245.25 615.41 1854.5
1215.25 598.28 1802.8
1206.13 591.51 1782.5
1227.82 599.85 1807.6
1228.95 598.12 1802.4
1212.09 587.68 1770.9
1225.69 592.03 1784.0
1254.12 603.49 1818.5
1251.92 600.17 1808.6
1242.53 593.45 1788.3
1251.28 595.40 1794.2
1263.36 598.93 1804.8
1269.37 599.56 1806.7
1274.28 599.66 1807.0
1268.03 594.53 1791.6
1256.13 586.81 1768.3
1257.04 585.09 1763.1
1278.14 592.76 1786.2
1314.54 607.44 1830.5
1333.02 613.76 1849.5
1358.35 623.19 1877.9
1388.89 634.92 1913.3
1389.40 632.89 1907.2
1395.59 633.46 1908.9
1426.93 645.39 1944.8
1200.89 766.40 2327.6
1190.29 755.83 2295.6
1174.22 741.92 2253.3
1158.42 728.31 2212.0
1138.42 712.21 2163.1
1111.92 692.23 2102.4
1112.21 689.03 2092.7
1137.34 701.18 2129.6
1145.81 702.99 2135.1
1138.35 695.05 2110.9
1124.37 683.23 2075.1
1094.17 661.71 2009.7
1078.91 649.39 1972.3
1090.33 653.17 1983.8
1085.54 647.25 1965.8
1076.48 638.84 1940.2
1099.12 649.25 1971.9
1112.97 654.39 1987.5
1100.96 644.34 1956.9
1097.33 639.27 1941.5
1102.66 639.44 1942.1
1123.22 648.41 1969.3
1142.94 656.80 1994.8
1135.41 649.54 1972.7
1121.05 638.45 1939.0
1119.11 634.50 1927.0
1119.54 631.92 1919.2
1108.27 622.79 1891.5
1104.69 618.04 1877.1
1109.86 618.21 1877.6
1092.43 605.85 1840.0
1092.60 603.30 1832.3
1123.88 617.89 1876.6
1132.51 619.95 1882.9
1117.27 608.98 1849.6
1113.38 604.27 1835.2
1112.44 601.19 1825.9
1107.44 595.95 1810.0
1131.10 606.12 1840.9
1160.95 619.50 1881.5
1164.07 618.56 1878.7
1158.01 612.78 1861.1
1169.24 616.16 1871.3
1174.87 616.56 1872.6
1162.02 607.31 1844.5
1154.20 600.75 1824.6
1147.85 595.01 1807.1
1139.37 588.21 1786.5
1150.03 591.31 1795.9
1172.18 600.27 1823.1
1155.23 589.21 1789.5
1140.25 579.25 1759.2
1144.60 579.14 1758.9
1142.62 575.85 1748.9
1176.56 590.61 1793.7
1213.32 606.66 1842.5
1194.94 595.13 1807.5
1166.83 578.86 1758.1
1182.92 584.56 1775.4
1214.09 597.63 1815.1
1212.06 594.33 1805.1
1209.45 590.77 1794.2
1226.26 596.68 1812.2
1234.46 598.38 1817.4
1220.38 589.31 1789.8
1210.02 582.09 1767.9
1231.27 590.08 1792.1
1256.99 600.14 1822.7
1251.50 595.28 1807.9
1223.37 579.73 1760.7
1212.74 572.56 1738.9
1215.87 571.91 1737.0
1213.43 568.66 1727.1
1252.70 584.90 1776.4
1281.54 596.17 1810.6
1260.15 584.09 1773.9
1252.66 578.50 1757.0
1289.50 593.36 1802.1
1345.66 616.96 1873.8
1363.09 622.71 1891.2
1387.94 631.79 1918.8
1399.26 634.67 1927.6
1374.19 621.08 1886.3
1414.57 637.06 1934.8
1205.53 767.16 2348.4
1176.54 744.94 2280.4
1164.05 733.35 2245.0
1155.86 724.57 2218.1
1147.54 715.80 2191.2
1135.98 705.09 2158.4
1118.89 691.08 2115.6
1112.89 684.02 2093.9
1131.24 691.93 2118.1
1150.60 700.37 2144.0
1151.35 697.46 2135.1
1130.09 681.30 2085.6
1092.99 655.79 2007.5
1074.02 641.36 1963.3
1080.80 642.36 1966.4
1092.24 646.11 1977.9
1098.58 646.83 1980.1
1113.83 652.76 1998.2
1120.22 653.46 2000.4
1106.80 642.66 1967.3
1101.77 636.80 1949.4
1096.66 630.96 1931.5
1106.73 633.86 1940.4
1134.53 646.84 1980.1
1134.64 643.99 1971.4
1133.27 640.32 1960.2
1142.49 642.65 1967.3
1151.72 644.96 1974.4
1150.28 641.31 1963.2
1133.16 628.98 1925.5
1126.67 622.64 1906.0
1125.51 619.28 1895.7
1144.02 626.73 1918.5
1141.35 622.55 1905.8
1114.80 605.45 1853.4
1126.38 609.12 1864.6
1148.49 618.42 1893.1
1163.70 623.94 1910.0
1171.93 625.69 1915.4
1164.03 618.85 1894.4
1162.12 615.24 1883.4
1159.66 611.37 1871.5
1149.00 603.23 1846.6
1170.93 612.19 1874.0
1188.85 618.99 1894.9
1169.35 606.33 1856.1
1153.31 595.56 1823.1
1154.19 593.58 1817.1
1152.45 590.28 1807.0
1136.63 579.82 1775.0
1132.16 575.21 1760.8
1138.62 576.17 1763.8
1146.13 577.65 1768.3
1175.75 590.22 1806.8
1199.71 599.85 1836.3
1185.68 590.50 1807.6
1175.78 583.26 1785.5
1179.10 582.62 1783.5
1171.21 576.45 1764.7
1181.43 579.22 1773.1
1206.17 589.06 1803.2
1204.65 586.05 1794.0
1201.47 582.25 1782.4
1217.73 587.87 1799.6
1223.73 588.51 1801.6
1218.32 583.68 1786.8
1216.13 580.42 1776.8
1228.65 584.19 1788.3
1244.51 589.50 1804.6
1247.22 588.58 1801.8
1225.13 575.99 1763.2
1206.20 564.99 1729.6
1203.22 561.50 1718.9
1217.41 566.03 1732.7
1273.96 590.15 1806.6
1306.22 602.87 1845.5
1286.00 591.37 1810.3
1296.51 594.04 1818.5
1360.48 621.09 1901.3
1397.67 635.76 1946.2
1392.63 631.19 1932.2
1401.13 632.77 1937.0
1393.75 627.19 1920.0
1423.86 636.19 1947.5
1207.22 758.30 2339.9
1181.58 738.49 2278.8
1160.12 721.47 2226.2
1161.18 718.55 2217.2
1157.72 712.88 2199.7
1162.27 712.18 2197.6
1178.99 718.90 2218.3
1162.28 705.27 2176.3
1147.20 692.76 2137.6
1140.64 685.48 2115.2
1111.99 665.06 2052.2
1102.39 656.18 2024.8
1107.44 656.07 2024.4
1099.06 648.03 1999.6
1093.82 641.91 1980.8
1104.37 645.08 1990.5
1123.39 653.14 2015.4
1134.52 656.55 2025.9
1124.45 647.72 1998.7
1101.00 631.31 1948.0
1079.73 616.28 1901.7
1087.83 618.09 1907.2
1112.22 629.09 1941.2
1122.82 632.22 1950.8
1131.53 634.26 1957.2
1139.77 636.03 1962.6
1147.54 637.52 1967.2
1153.87 638.20 1969.3
1146.03 631.08 1947.3
1141.05 625.58 1930.3
1138.95 621.70 1918.4
1157.51 629.08 1941.2
1155.37 625.20 1929.2
1123.88 605.54 1868.5
1131.01 606.77 1872.3
1140.66 609.32 1880.2
1141.30 607.07 1873.3
1159.51 614.15 1895.1
1161.16 612.43 1889.8
1156.71 607.51 1874.6
1151.18 602.08 1857.8
1126.22 586.57 1810.0
1133.78 588.06 1814.6
1187.47 613.36 1892.7
1202.39 618.52 1908.6
1170.97 599.88 1851.1
1158.45 591.05 1823.8
1171.25 595.15 1836.4
1170.56 592.39 1827.9
1151.57 580.43 1791.0
1143.96 574.28 1772.1
1154.64 577.32 1781.4
1187.45 591.36 1824.8
1213.04 601.70 1856.7
1200.09 592.93 1829.6
1183.33 582.35 1797.0
1180.28 578.57 1785.3
1194.80 583.40 1800.2
1227.04 596.81 1841.6
1227.22 594.58 1834.7
1201.53 579.89 1789.4
1206.44 580.02 1789.8
1229.75 588.96 1817.4
1226.02 584.93 1804.9
1210.81 575.48 1775.8
1220.60 577.93 1783.3
1246.27 587.86 1814.0
1268.21 595.96 1839.0
1274.29 596.58 1840.9
1254.45 585.10 1805.4
1239.46 575.96 1777.2
1238.77 573.51 1769.7
1255.84 579.26 1787.4
1306.39 600.36 1852.5
1328.69 608.37 1877.3
1311.31 598.23 1846.0
1327.50 603.41 1862.0
1377.51 623.87 1925.1
1397.83 630.79 1946.4
1395.61 627.52 1936.4
1407.53 630.61 1945.9
1438.79 642.32 1982.0
1209.65 757.56 2356.5
1188.56 740.61 2303.7
1159.28 718.76 2235.8
1130.60 697.49 2169.6
1125.30 690.78 2148.7
1137.37 694.75 2161.1
1156.23 702.81 2186.1
1161.65 702.65 2185.7
1134.88 683.13 2124.9
1133.34 678.91 2111.8
1139.95 679.59 2113.9
1115.40 661.77 2058.5
1110.87 655.94 2040.4
1128.89 663.42 2063.6
1133.09 662.75 2061.6
1112.15 647.45 2014.0
1105.96 640.84 1993.4
1108.59 639.37 1988.8
1104.14 633.86 1971.7
1111.89 635.37 1976.4
1105.44 628.78 1955.9
1080.36 611.71 1902.8
1085.13 611.62 1902.5
1099.47 616.90 1918.9
1099.93 614.38 1911.1
1121.58 623.66 1939.9
1142.85 632.65 1967.9
1126.85 621.02 1931.7
1110.21 609.14 1894.8
1119.32 611.44 1901.9
1129.94 614.53 1911.5
1132.22 613.08 1907.0
1154.23 622.28 1935.7
1162.47 624.01 1941.1
1140.43 609.54 1896.0
1128.67 600.66 1868.4
1118.80 592.87 1844.2
1110.84 586.14 1823.3
1122.42 589.75 1834.5
1138.09 595.45 1852.2
1147.74 597.98 1860.1
1158.43 601.03 1869.5
1149.28 593.79 1847.1
1139.52 586.31 1823.8
1177.37 603.28 1876.6
1193.81 609.19 1894.9
1162.85 590.96 1838.2
1152.37 583.24 1814.2
1168.78 589.14 1832.6
1181.10 592.94 1844.4
1173.61 586.81 1825.3
1168.67 581.99 1810.3
1184.15 587.34 1827.0
1178.10 582.01 1810.4
1164.58 573.05 1782.5
1175.32 576.05 1791.9
1182.91 577.48 1796.3
1200.63 583.84 1816.1
1237.11 599.23 1864.0
1259.85 607.86 1890.8
1249.91 600.73 1868.6
1225.88 586.91 1825.6
1231.39 587.28 1826.8
1249.91 593.83 1847.2
1240.80 587.25 1826.7
1216.91 573.75 1784.7
1218.52 572.33 1780.3
1245.29 582.70 1812.6
1267.78 591.00 1838.4
1267.26 588.54 1830.7
1242.42 574.85 1788.1
1241.77 572.41 1780.6
1254.95 576.35 1792.8
1248.16 571.11 1776.5
1271.96 579.86 1803.7
1300.88 590.88 1838.0
1290.71 584.12 1816.9
1307.97 589.78 1834.6
1361.33 611.61 1902.5
1401.94 627.58 1952.2
1421.23 633.93 1971.9
1193.69 741.53 2325.4
1194.58 738.36 2315.4
1161.31 714.21 2239.7
1127.29 689.83 2163.2
1117.49 680.45 2133.8
1125.95 682.22 2139.4
1144.77 690.23 2164.5
1149.24 689.55 2162.3
1120.14 668.82 2097.3
1115.35 662.74 2078.3
1142.92 675.86 2119.4
1139.00 670.32 2102.1
1121.66 656.97 2060.2
1127.71 657.38 2061.5
1145.36 664.52 2083.9
1137.49 656.86 2059.8
1120.17 643.83 2019.0
1111.59 635.93 1994.2
1105.73 629.65 1974.5
1112.07 630.34 1976.7
1114.62 628.89 1972.1
1097.17 616.22 1932.4
1083.85 605.97 1900.3
1083.33 602.94 1890.8
1091.91 604.98 1897.1
1121.26 618.45 1939.4
1157.06 635.35 1992.4
1155.67 631.77 1981.1
1134.73 617.57 1936.6
1139.53 617.45 1936.3
1148.25 619.45 1942.5
1149.60 617.47 1936.3
1146.49 613.12 1922.7
1129.43 601.39 1885.9
1122.18 594.95 1865.7
1124.82 593.79 1862.1
1135.44 596.84 1871.6
1149.62 601.71 1886.9
1136.15 592.14 1856.9
1127.61 585.21 1835.2
1148.88 593.75 1861.9
1171.78 603.05 1891.1
1177.45 603.45 1892.3
1182.10 603.31 1891.9
1192.90 606.31 1901.3
1181.09 597.83 1874.7
1159.36 584.43 1832.7
1159.22 581.97 1825.0
1156.96 578.48 1814.1
1151.02 573.18 1797.4
1171.64 581.10 1822.3
1195.51 590.55 1851.9
1201.61 591.19 1853.9
1187.17 581.76 1824.3
1162.04 567.19 1778.6
1163.24 565.53 1773.4
1189.40 575.97 1806.2
1227.39 592.04 1856.6
1227.63 589.84 1849.7
1214.97 581.48 1823.5
1238.75 590.57 1852.0
1247.01 592.21 1857.1
1239.08 586.18 1838.2
1244.61 586.54 1839.3
1236.02 580.27 1819.7
1212.65 567.13 1778.5
1207.14 562.42 1763.7
1225.68 568.90 1784.0
1248.13 577.14 1809.9
1247.55 574.71 1802.2
1243.63 570.77 1789.9
1265.66 578.72 1814.8
1262.26 575.03 1803.2
1237.68 561.75 1761.6
1253.66 566.91 1777.8
1274.16 574.07 1800.2
1286.89 577.69 1811.6
1328.88 594.37 1863.9
1354.14 603.48 1892.4
1362.57 605.04 1897.3
1419.69 628.14 1969.8
1195.25 729.10 2305.1
1160.44 704.35 2226.9
1149.43 694.21 2194.8
1134.69 681.93 2156.0
1131.05 676.41 2138.5
1153.99 686.77 2171.3
1143.04 676.95 2140.2
1123.30 662.04 2093.1
1137.65 667.28 2109.7
1145.64 668.75 2114.3
1137.98 661.11 2090.2
1125.13 650.55 2056.8
1124.68 647.22 2046.2
1120.91 642.03 2029.8
1106.32 630.71 1994.0
1108.95 629.26 1989.5
1113.44 628.89 1988.3
1107.99 622.92 1969.4
1096.77 613.79 1940.5
1094.47 609.71 1927.6
1095.94 607.75 1921.5
1096.42 605.27 1913.6
1106.97 608.34 1923.3
1140.73 624.08 1973.1
1180.98 643.21 2033.6
1178.20 638.85 2019.8
1156.35 624.22 1973.5
1152.90 619.62 1959.0
1153.32 617.13 1951.1
1166.51 621.46 1964.8
1173.82 622.64 1968.5
1146.43 605.48 1914.3
1128.78 593.58 1876.7
1136.43 595.04 1881.3
1153.10 601.19 1900.7
1160.81 602.63 1905.3
1142.83 590.78 1867.8
1121.16 577.14 1824.7
1128.73 578.59 1829.3
1153.11 588.61 1861.0
1160.76 590.05 1865.5
1169.45 592.00 1871.7
1183.80 596.79 1886.8
1170.41 587.61 1857.8
1148.63 574.32 1815.8
1164.51 579.88 1833.3
1178.90 584.66 1848.4
1183.43 584.53 1848.0
1216.71 598.54 1892.3
1216.07 595.83 1883.8
1197.53 584.39 1847.6
1202.04 584.26 1847.2
1196.51 579.26 1831.4
1183.49 570.69 1804.3
1196.95 574.91 1817.6
1200.85 574.53 1816.4
1167.86 556.56 1759.6
1183.98 562.04 1777.0
1236.72 584.81 1848.9
1240.13 584.15 1846.9
1226.21 575.38 1819.1
1243.10 581.07 1837.1
1247.00 580.66 1835.8
1223.10 567.37 1793.8
1217.62 562.69 1779.0
1237.28 569.62 1800.9
1262.52 579.05 1830.7
1262.52 576.88 1823.9
1260.29 573.71 1813.8
1254.14 568.79 1798.3
1220.73 551.59 1743.9
1221.62 549.96 1738.7
1265.46 567.60 1794.5
1293.83 578.20 1828.0
1315.03 585.52 1851.2
1349.23 598.57 1892.4
1362.73 602.36 1904.4
1384.17 609.63 1927.4
1186.33 724.98 2311.0
1178.79 716.75 2284.8
1186.51 714.27 2276.9
1152.80 690.54 2201.2
1116.52 665.51 2121.5
1099.28 652.02 2078.5
1109.90 655.11 2088.3
1116.47 655.79 2090.5
1115.30 651.94 2078.2
1138.78 662.46 2111.7
1154.58 668.44 2130.8
1140.03 656.88 2093.9
1119.78 642.15 2047.0
1127.19 643.35 2050.8
1130.89 642.43 2047.9
1099.95 621.93 1982.6
1087.52 612.05 1951.0
1109.84 621.72 1981.9
1121.87 625.56 1994.1
1105.94 613.85 1956.8
1097.96 606.63 1933.8
1133.85 623.62 1987.9
1169.48 640.31 2041.1
1144.67 623.90 1988.8
1142.35 619.84 1975.9
1178.26 636.47 2028.9
1172.55 630.57 2010.1
1146.75 613.97 1957.2
1140.33 607.84 1937.6
1144.14 607.20 1935.6
1158.30 612.03 1951.0
1155.20 607.73 1937.3
1117.81 585.52 1866.5
1130.41 589.57 1879.4
1167.02 606.05 1931.9
1144.73 591.93 1886.9
1115.22 574.22 1830.4
1136.40 582.65 1857.3
1153.64 588.99 1877.5
1132.91 575.97 1836.0
1130.33 572.26 1824.2
1149.14 579.36 1846.8
1168.55 586.70 1870.2
1185.48 592.74 1889.5
1175.17 585.17 1865.3
1153.39 571.97 1823.3
1167.74 576.72 1838.4
1180.06 580.43 1850.3
1181.46 578.77 1845.0
1214.75 592.68 1889.3
1214.63 590.24 1881.5
1196.07 578.90 1845.4
1198.47 577.75 1841.7
1200.32 576.35 1837.2
1195.79 571.90 1823.1
1201.31 572.28 1824.3
1197.22 568.09 1810.9
1182.92 559.12 1782.3
1217.87 573.39 1827.8
1256.74 589.40 1878.9
1243.48 580.93 1851.8
1231.73 573.23 1827.3
1251.35 580.13 1849.3
1261.25 582.49 1856.8
1242.82 571.79 1822.7
1234.11 565.63 1803.1
1250.54 571.00 1820.2
1263.73 574.85 1832.5
1252.71 567.71 1809.7
1253.76 566.06 1804.4
1251.46 562.92 1794.4
1245.79 558.30 1779.7
1275.71 569.60 1815.7
1328.07 590.80 1883.3
1364.45 604.76 1927.8
1363.95 602.33 1920.1
1372.42 603.86 1924.9
1387.10 608.11 1938.5
1410.87 616.30 1964.6
1173.74 707.78 2275.0
1162.06 697.24 2241.1
1177.86 703.20 2260.3
1165.55 692.41 2225.6
1125.71 665.44 2138.9
1106.24 650.73 2091.6
1115.98 653.26 2099.8
1121.67 653.40 2100.2
1103.64 639.79 2056.5
1111.06 640.99 2060.3
1144.22 656.97 2111.7
1145.77 654.72 2104.5
1129.69 642.48 2065.1
1139.00 644.72 2072.3
1147.40 646.42 2077.8
1122.59 629.49 2023.4
1108.35 618.61 1988.4
1128.87 627.15 2015.8
1150.91 636.45 2045.7
1147.42 631.61 2030.2
1127.18 617.63 1985.3
1149.81 627.17 2015.9
1181.19 641.37 2061.5
1152.54 623.00 2002.5
1121.24 603.36 1939.4
1126.06 603.25 1939.0
1159.10 618.19 1987.0
1173.76 623.24 2003.3
1150.77 608.34 1955.4
1138.40 599.16 1925.9
1150.56 602.91 1937.9
1144.46 597.11 1919.3
1120.91 582.29 1871.6
1146.47 593.00 1906.1
1173.67 604.46 1942.9
1142.35 585.82 1883.0
1120.86 572.35 1839.7
1149.14 584.31 1878.1
1163.89 589.31 1894.2
1140.64 575.11 1848.6
1147.75 576.28 1852.3
1175.82 587.91 1889.7
1182.00 588.55 1891.8
1183.55 586.89 1886.4
1196.94 591.08 1899.9
1197.45 588.91 1892.9
1185.48 580.64 1866.4
1170.29 570.87 1834.9
1152.36 559.85 1799.5
1165.70 564.05 1813.0
1183.80 570.50 1833.8
1183.03 567.85 1825.2
1185.91 566.97 1822.4
1187.73 565.59 1818.0
1193.24 565.96 1819.2
1207.80 570.61 1834.1
1230.42 579.02 1861.1
1241.89 582.14 1871.2
1237.30 577.73 1857.0
1235.87 574.82 1847.7
1230.09 569.93 1831.9
1226.96 566.29 1820.2
1234.63 567.65 1824.6
1231.43 564.02 1812.9
1226.55 559.64 1798.9
1229.27 558.76 1796.0
1240.21 561.60 1805.2
1246.78 562.46 1807.9
1252.80 563.06 1809.8
1273.75 570.34 1833.2
1283.14 572.40 1839.9
1290.33 573.48 1843.3
1327.05 587.63 1888.8
1386.84 611.84 1966.6
1419.46 623.94 2005.5
1413.48 619.04 1989.8
1411.38 615.87 1979.6
1412.06 613.94 1973.4
1433.63 621.07 1996.3
1196.38 726.37 2354.4
1174.43 702.30 2276.4
1165.41 693.42 2247.6
1182.56 700.12 2269.3
1176.53 693.10 2246.6
1141.19 668.98 2168.4
1122.22 654.63 2121.8
1133.39 657.92 2132.5
1125.96 650.43 2108.2
1098.35 631.42 2046.6
1092.46 625.02 2025.9
1113.16 633.81 2054.4
1122.43 636.04 2061.6
1113.66 628.08 2035.8
1139.19 639.45 2072.6
1163.93 650.27 2107.7
1150.40 639.71 2073.5
1146.59 634.63 2057.0
1146.49 631.63 2047.3
1149.19 630.20 2042.7
1138.57 621.51 2014.5
1111.13 603.76 1957.0
1126.05 609.09 1974.2
1148.24 618.28 2004.0
1143.55 612.99 1986.9
1134.93 605.64 1963.0
1131.06 600.88 1947.6
1155.85 611.32 1981.5
1176.37 619.42 2007.7
1159.74 607.97 1970.6
1163.13 607.07 1967.7
1187.71 617.20 2000.5
1182.72 611.93 1983.4
1161.76 598.48 1939.9
1149.10 589.41 1910.4
1138.32 581.37 1884.4
1151.00 585.34 1897.3
1171.79 593.37 1923.3
1166.42 588.15 1906.4
1147.82 576.33 1868.1
1138.21 569.10 1844.6
1157.04 576.10 1867.3
1181.57 585.86 1898.9
1185.20 585.22 1896.9
1188.82 584.58 1894.8
1202.74 589.00 1909.1
1206.89 588.60 1907.8
1198.57 582.16 1887.0
1188.09 574.73 1862.9
1175.42 566.30 1835.5
1162.13 557.63 1807.5
1153.97 551.50 1787.6
1175.75 559.66 1814.0
1200.80 569.30 1845.3
1182.00 558.17 1809.2
1168.38 549.55 1781.3
1202.04 563.16 1825.4
1245.48 581.23 1883.9
1253.79 582.82 1889.1
1244.92 576.44 1868.4
1222.51 563.87 1827.7
1196.17 549.59 1781.4
1194.56 546.74 1772.2
1203.78 548.85 1779.0
1201.58 545.76 1769.0
1196.61 541.43 1754.9
1221.70 550.69 1784.9
1255.12 563.62 1826.9
1265.02 565.93 1834.4
1276.06 568.73 1843.4
1298.18 576.43 1868.4
1307.64 578.47 1875.0
1317.11 580.51 1881.6
1359.50 596.97 1935.0
1398.15 611.69 1982.7
1406.16 612.94 1986.7
1398.46 607.36 1968.6
1396.88 604.47 1959.3
1418.97 611.80 1983.0
1213.87 727.09 2376.7
1176.09 700.90 2291.1
1177.33 698.12 2282.0
1201.63 708.96 2317.4
1172.10 688.10 2249.2
1120.35 654.46 2139.3
1118.93 650.41 2126.0
1131.45 654.46 2139.3
1139.93 656.16 2144.8
1132.52 648.73 2120.5
1105.83 630.38 2060.5
1101.80 625.06 2043.2
1104.60 623.65 2038.6
1098.14 617.05 2017.0
1097.61 613.83 2006.5
1132.39 630.29 2060.3
1155.25 640.00 2092.0
1140.27 628.75 2055.2
1140.66 626.04 2046.4
1145.26 625.65 2045.1
1131.37 615.21 2011.0
1104.50 597.85 1954.2
1089.33 586.94 1918.6
1113.75 597.38 1952.7
1134.47 605.73 1980.0
1129.73 600.49 1962.8
1130.24 598.07 1954.9
1134.12 597.44 1952.9
1137.49 596.55 1950.0
1135.97 593.12 1938.8
1133.90 589.43 1926.7
1150.48 595.43 1946.3
1181.95 609.04 1990.8
1182.38 606.61 1982.9
1160.91 593.02 1938.4
1147.73 583.76 1908.2
1143.94 579.34 1893.7
1162.17 586.05 1915.7
1175.44 590.22 1929.3
1162.51 581.25 1900.0
1142.87 569.02 1860.0
1133.23 561.86 1836.6
1143.90 564.77 1846.1
1160.22 570.44 1864.6
1164.81 570.32 1864.2
1169.91 570.45 1864.7
1189.45 577.59 1888.0
1199.25 579.96 1895.8
1180.00 568.33 1857.7
1159.04 555.96 1817.3
1171.87 559.84 1830.0
1184.74 563.71 1842.6
1179.27 558.85 1826.8
1203.77 568.18 1857.2
1240.53 583.20 1906.3
1232.43 577.09 1886.4
1189.18 554.64 1813.0
1194.68 555.01 1814.2
1226.89 567.74 1855.8
1224.97 564.63 1845.7
1230.52 564.99 1846.8
1223.15 559.42 1828.6
1195.71 544.76 1780.7
1191.93 540.95 1768.2
1200.05 542.55 1773.5
1197.29 539.24 1762.6
1211.97 543.77 1777.5
1257.91 562.25 1837.9
1277.17 568.70 1859.0
1272.82 564.63 1845.7
1280.57 565.94 1849.9
1296.62 570.90 1866.1
1315.51 577.06 1886.3
1333.91 582.97 1905.6
1365.20 594.44 1943.1
1391.59 603.70 1973.4
1420.88 614.15 2007.5
1431.94 614.43 2008.4
1180.75 697.71 2300.2
1167.84 686.62 2263.6
1175.66 687.76 2267.3
1130.83 658.25 2170.0
1113.83 645.14 2126.8
1146.56 660.83 2178.6
1136.16 651.62 2148.2
1122.46 640.62 2111.9
1137.27 645.92 2129.4
1130.22 638.82 2106.0
1127.65 634.30 2091.1
1132.39 633.92 2089.8
1132.03 630.70 2079.2
1137.19 630.57 2078.8
1138.16 628.13 2070.8
1127.87 619.53 2042.4
1116.53 610.44 2012.4
1122.00 610.58 2012.9
1138.34 616.60 2032.8
1136.27 612.64 2019.7
1132.23 607.67 2003.3
1139.11 608.57 2006.3
1124.43 597.99 1971.4
1105.77 585.41 1929.9
1106.72 583.27 1922.9
1111.99 583.42 1923.4
1143.49 597.27 1969.0
1170.78 608.80 2007.0
1162.02 601.58 1983.2
1152.19 593.86 1957.8
1155.54 592.98 1954.9
1173.21 599.41 1976.1
1180.05 600.29 1979.0
1165.02 590.07 1945.3
1176.79 593.47 1956.5
1197.11 601.12 1981.7
1183.88 591.94 1951.5
1163.99 579.52 1910.5
1160.10 575.13 1896.0
1150.07 567.76 1871.7
1140.96 560.89 1849.1
1152.16 564.03 1859.4
1150.60 560.92 1849.2
1137.72 552.33 1820.9
1138.10 550.24 1814.0
1152.39 554.86 1829.2
1163.11 557.72 1838.6
1145.30 546.94 1803.1
1141.94 543.12 1790.5
1172.48 555.39 1830.9
1198.46 565.40 1864.0
1206.17 566.75 1868.4
1215.99 569.08 1876.1
1238.00 577.08 1902.4
1256.39 583.32 1923.0
1237.11 572.10 1886.1
1202.76 554.03 1826.5
1193.85 547.76 1805.8
1205.23 550.83 1815.9
1225.78 558.04 1839.7
1246.42 565.23 1863.4
1247.13 563.38 1857.3
1226.14 551.76 1819.0
1217.51 545.78 1799.3
1227.88 548.33 1807.7
1257.39 559.37 1844.1
1279.92 567.24 1870.0
1275.07 562.95 1855.9
1258.59 553.59 1825.0
1253.05 549.09 1810.2
1295.06 565.38 1863.9
1341.70 583.57 1923.8
1350.71 585.31 1929.6
1373.13 592.83 1954.4
1396.75 600.81 1980.7
1214.23 718.63 2389.5
1217.16 713.09 2371.1
1181.80 688.89 2290.6
1166.55 676.60 2249.8
1157.83 668.20 2221.8
1176.33 675.52 2246.2
1165.22 665.84 2214.0
1109.70 631.01 2098.2
1109.49 627.81 2087.5
1136.09 639.74 2127.2
1114.86 624.75 2077.4
1097.09 611.84 2034.4
1119.21 621.19 2065.5
1133.13 625.92 2081.3
1123.91 617.88 2054.5
1110.85 607.82 2021.1
1116.82 608.22 2022.4
1121.85 608.10 2022.0
1129.22 609.26 2025.8
1148.90 617.00 2051.6
1144.01 611.55 2033.5
1138.10 605.59 2013.7
1146.91 607.49 2020.0
1134.16 598.01 1988.5
1122.25 589.06 1958.7
1128.08 589.45 1960.0
1140.69 593.36 1973.0
1177.65 609.85 2027.8
1186.54 611.73 2034.1
1160.70 595.76 1981.0
1168.53 597.13 1985.5
1188.19 604.52 2010.1
1183.73 599.62 1993.8
1167.80 588.98 1958.4
1171.62 588.34 1956.3
1202.38 601.19 1999.0
1215.78 605.28 2012.6
1195.57 592.68 1970.7
1176.20 580.59 1930.5
1170.83 575.49 1913.6
1178.58 576.86 1918.1
1187.35 578.71 1924.3
1175.22 570.40 1896.7
1149.68 555.68 1847.7
1146.02 551.61 1834.2
1155.69 553.97 1842.0
1157.65 552.62 1837.5
1155.95 549.55 1827.3
1160.45 549.44 1827.0
1180.06 556.45 1850.3
1200.80 563.94 1875.2
1215.34 568.47 1890.2
1219.41 568.08 1888.9
1226.64 569.16 1892.5
1219.07 563.40 1873.4
1207.71 555.93 1848.5
1240.94 568.97 1891.9
1260.98 575.88 1914.9
1235.65 562.10 1869.0
1231.59 558.06 1855.6
1249.00 563.75 1874.5
1267.01 569.66 1894.2
1287.79 576.77 1917.8
1286.42 573.94 1908.4
1264.35 561.93 1868.5
1263.94 559.61 1860.8
1277.71 563.55 1873.9
1282.75 563.63 1874.2
1277.35 559.14 1859.2
1260.32 549.61 1827.5
1263.06 548.75 1824.6
1316.75 569.94 1895.1
1374.58 592.76 1971.0
1394.81 599.25 1992.6
1388.88 594.50 1976.8
1380.65 588.81 1957.9
1208.37 708.99 2378.0
1226.80 708.95 2377.9
1201.04 690.60 2316.3
1182.17 676.36 2268.6
1173.86 668.29 2241.5
1135.71 643.38 2157.9
1117.11 629.74 2112.2
1149.60 644.90 2163.0
1152.68 643.49 2158.3
1108.17 615.65 2064.9
1088.98 602.08 2019.4
1108.78 610.09 2046.3
1132.84 620.36 2080.7
1132.43 617.20 2070.1
1117.99 606.46 2034.1
1123.05 606.34 2033.7
1113.55 598.40 2007.1
1107.23 592.24 1986.4
1139.61 606.73 2035.0
1147.97 608.37 2040.5
1134.91 598.69 2008.0
1135.59 596.31 2000.1
1130.95 591.18 1982.8
1126.72 586.30 1966.5
1148.02 594.69 1994.6
1174.27 605.56 2031.1
1178.78 605.18 2029.8
1157.90 591.82 1985.0
1144.68 582.47 1953.6
1165.23 590.31 1979.9
1189.33 599.88 2012.0
1187.83 596.51 2000.7
1186.78 593.39 1990.3
1204.10 599.45 2010.6
1207.52 598.55 2007.6
1193.38 589.01 1975.6
1182.64 581.21 1949.4
1172.29 573.67 1924.1
1166.39 568.37 1906.3
1172.60 568.98 1908.4
1173.22 566.89 1901.4
1153.89 555.22 1862.2
1153.87 552.89 1854.4
1172.31 559.40 1876.2
1175.88 558.79 1874.2
1172.72 554.99 1861.5
1181.96 557.07 1868.4
1199.53 563.05 1888.5
1209.36 565.35 1896.2
1218.68 567.40 1903.1
1229.08 569.94 1911.6
1230.56 568.33 1906.2
1227.27 564.55 1893.5
1209.11 553.98 1858.1
1199.84 547.55 1836.5
1234.12 560.96 1881.5
1260.56 570.73 1914.2
1243.23 560.67 1880.5
1236.51 555.46 1863.0
1250.70 559.65 1877.1
1267.65 565.04 1895.2
1287.90 571.85 1918.0
1291.41 571.20 1915.8
1274.23 561.44 1883.1
1274.94 559.61 1877.0
1289.29 563.76 1890.9
1297.65 565.27 1895.9
1292.84 561.04 1881.8
1286.86 556.35 1866.0
1302.38 560.95 1881.5
1339.02 574.58 1927.2
1377.48 588.89 1975.1
1394.94 594.14 1992.8
1383.98 587.30 1969.8
1387.49 586.62 1967.5
1224.30 704.90 2385.0
1220.84 699.38 2366.3
1201.72 684.98 2317.6
1175.68 666.81 2256.1
1159.26 654.24 2213.6
1148.52 644.98 2182.3
1154.83 645.35 2183.5
1180.22 656.32 2220.6
1176.57 651.11 2203.0
1135.33 625.25 2115.5
1118.53 613.04 2074.2
1120.00 610.91 2067.0
1125.14 610.79 2066.6
1151.64 622.21 2105.2
1164.31 626.09 2118.4
1150.82 615.93 2084.0
1123.09 598.28 2024.3
1099.83 583.17 1973.1
1114.21 588.06 1989.7
1147.17 602.66 2039.1
1157.93 605.52 2048.8
1174.94 611.61 2069.4
1185.79 614.46 2079.0
1148.52 592.45 2004.5
1136.56 583.64 1974.7
1156.96 591.45 2001.2
1155.09 587.86 1989.0
1156.58 586.00 1982.7
1166.85 588.59 1991.5
1163.89 584.51 1977.7
1164.32 582.16 1969.7
1179.56 587.20 1986.8
1195.85 592.73 2005.5
1195.78 590.12 1996.7
1181.18 580.41 1963.8
1179.98 577.33 1953.4
1182.26 575.97 1948.8
1172.91 568.99 1925.1
1168.02 564.21 1909.0
1162.05 558.96 1891.2
1150.41 551.04 1864.4
1154.49 550.68 1863.2
1178.04 559.57 1893.3
1185.25 560.66 1897.0
1176.49 554.21 1875.2
1177.47 552.39 1869.0
1192.42 557.12 1885.0
1215.24 565.46 1913.2
1230.33 570.15 1929.1
1221.93 563.97 1908.2
1215.54 558.76 1890.5
1219.61 558.38 1889.2
1219.98 556.31 1882.3
1212.38 550.64 1863.1
1213.72 549.07 1857.7
1231.02 554.69 1876.8
1239.84 556.46 1882.8
1252.96 560.15 1895.2
1276.86 568.60 1923.8
1261.56 559.60 1893.4
1248.85 551.82 1867.0
1267.43 557.86 1887.5
1270.34 556.99 1884.6
1261.26 550.89 1863.9
1271.20 553.12 1871.5
1283.91 556.52 1883.0
1287.87 556.13 1881.6
1298.98 558.80 1890.7
1309.01 561.00 1898.1
1321.27 564.14 1908.7
1355.76 576.70 1951.2
1392.61 590.18 1996.8
1409.56 595.15 2013.7
1409.80 593.05 2006.6
1211.73 691.54 2360.5
1204.67 684.06 2335.0
1204.62 680.61 2323.2
1195.58 672.14 2294.3
1168.90 653.89 2232.0
1148.26 639.18 2181.8
1155.02 639.79 2183.9
1180.42 650.67 2221.0
1203.23 660.02 2252.9
1186.33 647.61 2210.5
1148.11 623.73 2129.0
1128.46 610.13 2082.6
1125.30 605.52 2066.9
1142.05 611.62 2087.7
1157.48 616.96 2105.9
1147.70 608.87 2078.3
1139.68 601.79 2054.2
1134.86 596.46 2036.0
1128.07 590.15 2014.4
1139.72 593.49 2025.8
1156.18 599.30 2045.7
1178.45 608.06 2075.5
1195.08 613.83 2095.3
1163.59 594.96 2030.8
1149.26 584.98 1996.8
1167.77 591.74 2019.9
1152.78 581.54 1985.0
1141.07 573.07 1956.1
1160.12 580.06 1980.0
1167.46 581.16 1983.7
1164.94 577.36 1970.8
1177.71 581.14 1983.7
1190.03 584.67 1995.7
1185.95 580.14 1980.2
1181.30 575.38 1964.0
1190.63 577.43 1971.0
1176.84 568.30 1939.8
1151.31 553.61 1889.7
1164.58 557.62 1903.4
1175.86 560.64 1913.7
1165.78 553.50 1889.3
1172.47 554.35 1892.2
1199.16 564.60 1927.2
1209.52 567.12 1935.8
1180.19 551.08 1881.1
1163.07 540.85 1846.1
1195.11 553.47 1889.2
1234.08 569.19 1942.9
1251.32 574.79 1962.0
1244.02 569.13 1942.7
1216.16 554.14 1891.5
1199.69 544.44 1858.4
1214.79 549.08 1874.2
1221.99 550.14 1877.9
1234.52 553.58 1889.6
1266.80 565.80 1931.3
1268.78 564.46 1926.7
1275.02 565.01 1928.6
1292.55 570.54 1947.5
1270.81 558.76 1907.3
1260.27 551.98 1884.1
1281.06 558.92 1907.8
1284.55 558.28 1905.6
1277.68 553.17 1888.2
1264.73 545.48 1861.9
1254.97 539.21 1840.5
1273.68 545.17 1860.9
1297.41 553.24 1888.4
1328.41 564.33 1926.3
1365.63 577.96 1972.8
1400.80 590.63 2016.1
1188.68 686.25 2363.3
1211.54 695.86 2396.5
1230.16 702.95 2420.9
1214.96 690.74 2378.8
1196.94 677.05 2331.7
1191.58 670.64 2309.6
1192.37 667.73 2299.6
1166.71 650.11 2238.9
1125.51 624.05 2149.1
1120.03 617.95 2128.1
1139.81 625.78 2155.1
1154.71 630.86 2172.6
1167.38 634.69 2185.8
1172.78 634.55 2185.3
1155.17 622.02 2142.2
1142.47 612.23 2108.5
1146.30 611.36 2105.4
1151.97 611.47 2105.8
1155.31 610.35 2102.0
1156.76 608.25 2094.7
1159.11 606.64 2089.2
1158.60 603.55 2078.6
1156.15 599.49 2064.6
1154.12 595.67 2051.4
1156.80 594.32 2046.8
1160.89 593.70 2044.6
1160.17 590.63 2034.1
1152.16 583.90 2010.9
1161.00 585.73 2017.2
1167.91 586.57 2020.1
1139.76 569.88 1962.6
1140.21 567.57 1954.7
1171.04 580.34 1998.6
1170.54 577.53 1989.0
1160.62 570.13 1963.4
1175.36 574.85 1979.7
1188.67 578.83 1993.4
1182.08 573.13 1973.8
1175.42 567.44 1954.2
1204.30 578.89 1993.6
1208.66 578.51 1992.3
1165.55 555.50 1913.1
1161.13 551.05 1897.7
1175.45 555.49 1913.0
1169.44 550.33 1895.3
1170.52 548.53 1889.1
1192.08 556.30 1915.8
1213.74 564.06 1942.6
1195.25 553.17 1905.1
1179.71 543.74 1872.6
1214.41 557.43 1919.7
1224.81 559.91 1928.3
1211.21 551.45 1899.1
1226.31 556.06 1915.0
1220.98 551.41 1899.0
1187.12 533.97 1838.9
1183.69 530.29 1826.3
1217.84 543.42 1871.5
1258.52 559.34 1926.3
1264.77 559.90 1928.2
1240.55 547.01 1883.8
1251.00 549.46 1892.3
1271.15 556.13 1915.2
1261.74 549.86 1893.7
1261.43 547.60 1885.9
1286.02 556.12 1915.2
1293.87 557.36 1919.5
1285.39 551.58 1899.6
1269.72 542.78 1869.3
1274.76 542.86 1869.6
1310.00 555.76 1914.0
1326.68 560.71 1931.0
1351.69 569.13 1960.0
1369.61 574.52 1978.6
1385.38 578.96 1993.9
1176.29 673.03 2338.7
1186.00 675.11 2345.9
1206.27 683.14 2373.9
1192.73 672.05 2335.3
1189.64 666.92 2317.5
1198.91 668.74 2323.8
1193.03 662.13 2300.8
1162.43 641.94 2230.7
1136.92 624.75 2170.9
1144.12 625.60 2173.9
1157.66 629.90 2188.9
1167.62 632.22 2196.9
1145.65 617.31 2145.1
1118.42 599.73 2084.0
1122.22 598.88 2081.0
1131.08 600.72 2087.4
1136.26 600.59 2087.0
1142.36 600.96 2088.3
1131.65 592.52 2058.9
1118.94 583.11 2026.3
1141.39 592.03 2057.2
1160.17 598.97 2081.4
1168.15 600.30 2086.0
1178.04 602.59 2094.0
1164.58 592.97 2060.5
1151.45 583.61 2028.0
1149.73 580.09 2015.8
1141.68 573.42 1992.6
1135.96 567.98 1973.7
1127.25 561.10 1949.8
1130.13 560.02 1946.0
1160.37 572.45 1989.2
1191.77 585.34 2034.0
1191.33 582.55 2024.3
1163.20 566.29 1967.8
1160.11 562.32 1954.0
1181.33 570.12 1981.1
1183.19 568.55 1975.6
1155.51 552.85 1921.1
1164.26 554.65 1927.3
1196.19 567.42 1971.7
1179.79 557.26 1936.4
1143.48 537.82 1868.9
1127.25 527.95 1834.6
1138.93 531.18 1845.8
1157.30 537.49 1867.7
1161.89 537.38 1867.3
1166.48 537.26 1866.9
1196.37 548.75 1906.8
1228.99 561.39 1950.8
1242.04 565.03 1963.4
1228.55 556.61 1934.2
1200.33 541.61 1882.0
1200.20 539.36 1874.2
1212.13 542.52 1885.2
1198.26 534.16 1856.2
1191.68 529.11 1838.6
1222.68 540.71 1878.9
1229.37 541.51 1881.7
1199.80 526.40 1829.2
1199.45 524.17 1821.4
1234.45 537.35 1867.2
1265.86 548.87 1907.3
1266.13 546.85 1900.3
1268.54 545.77 1896.5
1295.87 555.37 1929.9
1297.76 554.05 1925.3
1283.83 546.00 1897.3
1276.35 540.74 1879.0
1289.62 544.29 1891.4
1332.07 560.07 1946.2
1358.72 569.13 1977.7
1374.44 573.54 1993.0
1381.90 574.50 1996.3
1234.85 700.17 2455.2
1212.02 683.70 2397.4
1201.23 674.16 2363.9
1188.98 663.90 2328.0
1189.41 660.78 2317.0
1209.79 668.73 2344.9
1214.21 667.82 2341.7
1206.08 660.04 2314.4
1201.42 654.24 2294.1
1190.35 645.02 2261.8
1186.40 639.72 2243.2
1184.64 635.66 2228.9
1151.30 614.77 2155.7
1123.15 596.84 2092.8
1126.51 595.75 2089.0
1118.75 588.82 2064.7
1107.19 579.95 2033.6
1120.63 584.21 2048.5
1116.84 579.49 2032.0
1107.63 569.34 1996.4
1146.14 586.40 2056.2
1174.46 598.10 2097.2
1185.80 601.10 2107.8
1172.83 591.80 2075.1
1155.42 580.35 2035.0
1149.37 574.69 2015.1
1134.56 564.71 1980.2
1123.48 556.68 1952.0
1140.47 562.56 1972.6
1169.24 574.18 2013.4
1164.40 569.26 1996.1
1161.46 565.31 1982.3
1176.19 569.96 1998.6
1164.79 561.96 1970.5
1149.31 552.07 1935.8
1160.05 554.81 1945.4
1191.79 567.52 1990.0
1196.16 567.14 1988.7
1161.84 548.51 1923.3
1152.46 541.75 1899.7
1168.26 546.85 1917.5
1164.35 542.71 1903.0
1154.78 535.97 1879.4
1174.21 542.70 1903.0
1176.31 541.40 1898.4
1164.54 533.75 1871.6
1169.65 533.86 1872.0
1200.59 545.72 1913.6
1216.66 550.75 1931.2
1211.48 546.16 1915.1
1214.05 545.08 1911.3
1201.97 537.47 1884.6
1214.43 540.84 1896.4
1237.97 549.10 1925.4
1217.84 538.00 1886.5
1206.03 530.65 1860.7
1220.64 534.94 1875.8
1208.70 527.61 1850.0
1198.79 521.21 1827.6
1219.30 528.04 1851.6
1227.55 529.53 1856.8
1232.04 529.39 1856.3
1257.04 538.03 1886.6
1284.30 547.57 1920.1
1301.92 552.94 1938.9
1292.95 547.02 1918.1
1291.54 544.33 1908.7
1298.84 545.31 1912.1
1295.18 541.71 1899.5
1321.71 550.71 1931.1
1357.72 563.58 1976.2
1382.83 571.85 2005.2
1203.06 672.48 2379.7
1206.29 670.84 2373.9
1207.28 667.99 2363.8
1181.65 650.50 2301.9
1177.99 645.23 2283.2
1187.64 647.26 2290.4
1184.32 642.24 2272.7
1197.57 646.21 2286.7
1200.94 644.84 2281.9
1187.49 634.49 2245.3
1176.17 625.38 2213.0
1156.94 612.17 2166.3
1143.48 602.12 2130.7
1134.02 594.27 2102.9
1112.42 580.16 2053.0
1108.71 575.47 2036.4
1127.28 582.34 2060.7
1145.49 588.95 2084.1
1144.54 585.70 2072.6
1128.94 575.02 2034.8
1138.24 577.06 2042.0
1156.10 583.40 2064.5
1156.91 581.12 2056.4
1172.02 586.01 2073.7
1181.91 588.26 2081.6
1167.30 578.34 2046.6
1143.85 564.16 1996.4
1138.60 559.04 1978.3
1161.97 567.96 2009.8
1186.92 577.56 2043.8
1180.18 571.73 2023.2
1148.31 553.83 1959.8
1132.94 544.01 1925.1
1136.71 543.43 1923.0
1137.00 541.19 1915.1
1142.73 541.55 1916.4
1170.43 552.28 1954.3
1205.28 566.28 2003.9
1201.13 561.90 1988.4
1174.73 547.20 1936.4
1173.91 544.50 1926.8
