ply
format ascii 1.0
element vertex 2280
property float x
property float y
property float z
end_header
744.82 556.57 1578.5
757.63 563.05 1596.9
791.02 584.67 1658.2
795.83 585.04 1659.3
786.98 575.42 1632.0
804.20 584.87 1658.8
816.11 590.37 1674.4
809.62 582.58 1652.3
808.93 579.02 1642.2
818.35 582.70 1652.6
827.81 586.37 1663.0
828.78 584.01 1656.3
838.28 587.66 1666.7
857.30 597.91 1695.8
852.23 591.35 1677.1
828.43 571.91 1622.0
826.61 567.77 1610.3
847.48 579.18 1642.6
859.71 584.60 1658.0
874.20 591.50 1677.6
913.57 615.07 1744.4
940.32 629.97 1786.7
956.97 637.98 1809.4
613.18 726.13 2074.7
600.83 705.32 2015.2
593.92 691.20 1974.9
593.43 684.72 1956.4
596.72 682.69 1950.6
585.45 664.17 1897.6
576.46 648.52 1852.9
585.99 653.79 1868.0
585.86 648.28 1852.2
572.10 627.92 1794.1
573.75 624.65 1784.7
590.56 637.81 1822.3
594.29 636.74 1819.3
592.06 629.36 1798.2
595.11 627.66 1793.3
599.95 627.85 1793.9
598.41 621.43 1775.5
588.24 606.20 1732.0
592.00 605.45 1729.9
604.72 613.81 1753.8
607.89 612.43 1749.8
611.36 611.36 1746.7
617.33 612.79 1750.8
621.73 612.65 1750.4
613.97 600.62 1716.1
614.09 596.42 1704.1
633.28 610.66 1744.8
637.65 610.52 1744.3
624.29 593.52 1695.8
620.28 585.58 1673.1
625.47 586.38 1675.4
621.31 578.46 1652.7
628.81 581.43 1661.2
655.98 602.43 1721.2
661.29 603.20 1723.4
650.16 589.07 1683.1
651.94 586.75 1676.4
668.59 597.75 1707.8
675.27 599.75 1713.6
677.41 597.72 1707.8
690.11 604.97 1728.5
696.16 606.33 1732.4
688.66 595.96 1702.7
687.13 590.85 1688.1
702.12 599.91 1714.0
704.17 597.88 1708.2
707.28 596.77 1705.1
717.34 601.50 1718.6
707.93 589.94 1685.5
700.96 580.55 1658.7
703.92 579.44 1655.6
717.34 586.92 1676.9
728.98 592.84 1693.8
718.37 580.72 1659.2
714.83 574.41 1641.2
726.87 580.63 1659.0
727.08 577.39 1649.7
729.56 575.97 1645.6
750.65 589.17 1683.3
769.94 600.82 1716.6
774.10 600.60 1716.0
771.96 595.51 1701.5
771.73 591.95 1691.3
771.84 588.69 1682.0
772.71 586.05 1674.4
781.57 589.46 1684.2
779.19 584.39 1669.7
755.67 563.62 1610.4
758.35 562.51 1607.2
794.51 586.12 1674.6
818.24 600.34 1715.3
814.10 594.07 1697.3
794.55 576.69 1647.7
801.83 578.86 1653.9
819.58 588.53 1681.5
818.55 584.68 1670.5
817.06 580.54 1658.7
825.67 583.59 1667.4
839.84 590.51 1687.2
844.70 590.85 1688.2
842.27 586.12 1674.6
849.25 587.95 1679.8
861.88 593.64 1696.1
856.76 587.12 1677.5
846.77 577.34 1649.6
859.86 583.32 1666.6
863.35 582.76 1665.0
868.59 583.38 1666.8
913.72 610.65 1744.7
946.27 629.29 1798.0
952.68 630.45 1801.3
617.44 732.19 2107.6
612.29 719.71 2071.7
608.33 708.83 2040.4
608.85 703.33 2024.5
594.97 681.42 1961.4
587.17 666.79 1919.3
583.09 656.59 1890.0
580.55 648.28 1866.1
586.14 649.11 1868.4
581.42 638.61 1838.2
570.80 621.84 1790.0
575.92 622.36 1791.5
594.80 637.63 1835.4
600.03 638.13 1836.8
593.98 626.72 1804.0
593.76 621.59 1789.2
587.73 610.51 1757.3
574.58 592.26 1704.8
576.14 589.34 1696.4
592.74 601.72 1732.0
602.68 607.22 1747.8
603.66 603.66 1737.6
616.20 611.63 1760.6
631.05 621.77 1789.7
633.95 620.07 1784.8
624.02 605.93 1744.1
614.21 592.12 1704.4
623.36 596.64 1717.4
634.52 603.02 1735.8
627.37 592.02 1704.1
627.67 588.17 1693.0
637.89 593.60 1708.6
631.12 583.24 1678.8
636.33 584.03 1681.1
656.11 598.08 1721.6
654.26 592.37 1705.1
651.99 586.36 1687.8
663.09 592.36 1705.1
668.37 593.12 1707.3
663.54 584.96 1683.8
665.26 582.65 1677.1
677.54 589.55 1697.0
683.52 590.91 1700.9
675.59 580.31 1670.4
672.90 574.32 1653.2
686.01 581.81 1674.7
705.39 594.48 1711.2
726.38 608.35 1751.1
726.49 600.92 1729.7
712.94 586.09 1687.1
708.88 579.20 1667.2
720.84 585.41 1685.1
729.86 589.16 1695.9
718.11 576.21 1658.6
713.80 569.34 1638.8
731.19 579.76 1668.8
736.80 580.77 1671.7
741.65 581.18 1672.9
764.75 595.79 1715.0
769.69 596.17 1716.1
760.52 585.69 1685.9
755.55 578.53 1665.3
752.86 573.20 1649.9
763.62 578.11 1664.1
775.24 583.60 1679.9
778.09 582.48 1676.6
770.84 573.85 1651.8
757.40 560.73 1614.0
769.85 566.81 1631.5
793.41 580.97 1672.3
803.18 584.92 1683.7
820.83 594.55 1711.4
824.10 593.70 1709.0
814.02 583.31 1679.0
814.27 580.38 1670.6
814.06 577.16 1661.3
813.80 573.94 1652.1
827.06 580.24 1670.2
845.50 590.09 1698.6
843.12 585.38 1685.0
832.53 575.04 1655.2
829.56 570.05 1640.9
833.88 570.10 1641.0
853.41 580.49 1670.9
868.70 587.91 1692.3
874.88 589.11 1695.7
872.71 584.71 1683.1
873.57 582.38 1676.4
914.75 606.82 1746.7
968.69 639.43 1840.6
602.76 715.78 2075.8
605.89 713.13 2068.1
604.14 704.83 2044.1
603.08 697.48 2022.8
613.40 703.30 2039.6
608.37 691.56 2005.6
596.22 672.01 1948.9
588.56 657.80 1907.7
570.26 632.04 1833.0
560.41 615.99 1786.4
562.37 613.08 1778.0
557.94 603.30 1749.6
567.62 608.82 1765.6
590.55 628.35 1822.3
604.90 638.50 1851.7
606.90 635.57 1843.2
597.48 620.82 1800.4
580.93 598.94 1737.0
571.96 585.16 1697.0
578.09 586.92 1702.1
591.01 595.49 1727.0
597.23 597.23 1732.0
601.60 597.11 1731.7
617.58 608.43 1764.5
633.09 619.12 1795.5
636.32 617.74 1791.5
627.35 604.62 1753.5
618.20 591.52 1715.5
623.48 592.31 1717.8
630.40 594.63 1724.5
630.45 590.49 1712.5
638.37 593.73 1721.9
649.00 599.42 1738.4
643.29 590.05 1711.2
637.12 580.39 1683.2
645.39 583.92 1693.4
659.50 592.66 1718.8
673.38 601.07 1743.2
662.18 587.13 1702.7
645.59 568.63 1649.1
662.96 580.09 1682.3
686.09 596.41 1729.6
688.26 594.40 1723.8
683.99 586.91 1702.1
680.35 580.04 1682.2
681.27 577.13 1673.7
690.47 581.21 1685.6
705.52 590.15 1711.5
709.00 589.36 1709.2
701.09 579.16 1679.6
702.64 576.86 1672.9
700.07 571.22 1656.6
700.42 568.02 1647.3
715.71 576.91 1673.1
724.71 580.64 1683.9
711.40 566.57 1643.1
710.86 562.76 1632.1
731.31 575.53 1669.1
738.08 577.44 1674.6
743.32 578.14 1676.7
759.05 586.94 1702.2
756.16 581.32 1685.9
744.56 569.12 1650.5
736.35 559.62 1623.0
740.69 559.73 1623.3
758.96 570.29 1653.9
771.36 576.35 1671.5
774.19 575.24 1668.3
780.64 576.81 1672.8
781.83 574.49 1666.1
778.10 568.61 1649.0
784.12 569.88 1652.7
795.08 574.71 1666.7
813.53 584.86 1696.2
813.44 581.66 1686.9
799.14 568.37 1648.3
805.60 569.92 1652.8
812.07 571.46 1657.3
810.12 567.08 1644.6
821.67 572.16 1659.3
840.10 581.94 1687.7
837.26 576.97 1673.3
834.79 572.30 1659.7
840.45 573.23 1662.4
843.95 572.68 1660.8
863.53 582.99 1690.7
877.56 589.47 1709.5
882.46 589.78 1710.4
886.48 589.51 1709.6
893.58 591.27 1714.8
934.42 615.24 1784.3
604.76 719.18 2101.5
604.27 712.17 2081.0
607.41 709.54 2073.3
605.39 700.98 2048.3
601.63 690.56 2017.9
609.20 693.23 2025.7
606.89 684.69 2000.7
596.94 667.76 1951.2
600.76 666.39 1947.2
592.70 651.97 1905.1
572.20 624.22 1824.0
563.93 610.15 1782.9
571.92 613.77 1793.5
593.64 631.94 1846.6
593.91 627.17 1832.6
585.55 613.44 1792.5
598.72 622.29 1818.4
599.11 617.84 1805.4
587.68 601.35 1757.2
583.31 592.29 1730.7
584.32 588.78 1720.5
591.44 591.44 1728.2
605.42 600.86 1755.8
618.58 609.35 1780.6
622.43 608.60 1778.4
626.90 608.46 1778.0
632.31 609.24 1780.2
626.84 599.58 1752.0
611.54 580.75 1697.0
610.93 576.02 1683.2
623.01 583.24 1704.3
628.26 584.02 1706.5
636.18 587.24 1716.0
647.46 593.50 1734.3
649.78 591.52 1728.5
653.08 590.45 1725.3
652.63 586.03 1712.4
657.92 586.79 1714.6
673.51 596.67 1743.5
664.37 584.65 1708.4
650.55 568.70 1661.8
671.11 582.80 1703.0
691.14 596.28 1742.4
689.80 591.25 1727.7
694.42 591.38 1728.1
699.76 592.10 1730.2
692.89 582.55 1702.3
693.47 579.36 1692.9
697.65 579.18 1692.4
689.40 568.75 1661.9
686.88 563.16 1645.6
693.89 565.39 1652.1
712.06 576.64 1685.0
732.99 589.97 1723.9
712.82 570.26 1666.3
703.17 555.80 1624.1
733.06 575.98 1683.0
741.00 578.77 1691.2
734.73 570.49 1667.0
728.35 562.23 1642.9
732.74 562.34 1643.2
739.48 564.23 1648.7
736.03 558.37 1631.6
739.21 557.58 1629.3
755.85 566.89 1656.5
761.86 568.16 1660.2
761.47 564.69 1650.1
769.88 567.74 1659.0
781.56 573.15 1674.8
797.77 581.80 1700.1
809.19 586.89 1714.9
808.80 583.40 1704.7
812.47 582.86 1703.2
805.81 574.95 1680.1
778.70 552.62 1614.8
783.83 553.29 1616.8
809.48 568.36 1660.8
813.44 568.12 1660.1
807.27 560.84 1638.8
816.69 564.42 1649.3
832.98 572.67 1673.4
850.21 581.49 1699.2
867.99 590.59 1725.7
871.63 590.03 1724.1
873.96 588.59 1719.9
876.27 587.15 1715.7
872.45 581.63 1699.6
895.75 594.16 1736.2
920.08 607.25 1774.4
901.67 592.14 1730.3
912.82 596.50 1743.0
614.80 712.74 2098.6
620.39 712.91 2099.1
625.16 712.14 2096.8
617.87 697.76 2054.5
600.43 672.27 1979.4
599.88 665.97 1960.9
613.54 675.41 1988.7
605.00 660.46 1944.6
582.87 631.04 1858.0
580.69 623.53 1835.9
594.88 633.58 1865.5
601.93 635.91 1872.4
587.60 615.80 1813.2
572.68 595.41 1753.1
579.80 598.06 1760.9
596.55 610.53 1797.6
600.79 610.10 1796.4
602.28 606.91 1787.0
608.01 608.01 1790.2
605.43 600.84 1769.1
610.19 601.02 1769.6
615.59 601.80 1771.9
612.49 594.34 1750.0
615.31 592.69 1745.1
620.33 593.16 1746.5
621.51 589.98 1737.1
613.92 578.58 1703.6
607.47 568.42 1673.6
613.96 570.42 1679.5
625.41 576.97 1698.8
639.27 585.63 1724.3
648.25 589.73 1736.4
649.23 586.54 1727.0
652.52 585.48 1723.9
652.74 581.70 1712.7
651.89 577.01 1698.9
661.27 581.39 1711.8
666.56 582.13 1714.0
667.34 578.95 1704.7
671.57 578.79 1704.2
675.45 578.32 1702.8
683.20 581.16 1711.2
697.04 589.11 1734.6
700.60 588.33 1732.3
690.49 576.14 1696.4
692.50 574.16 1690.6
697.76 574.89 1692.7
697.91 571.41 1682.5
704.26 573.03 1687.2
716.91 579.72 1706.9
740.04 594.76 1751.2
745.22 591.66 1742.1
714.00 563.46 1659.0
729.06 571.90 1683.9
747.66 583.00 1716.6
744.18 576.85 1698.5
743.31 572.79 1686.5
743.16 569.32 1676.3
745.29 567.64 1671.3
749.75 567.73 1671.6
758.91 571.37 1682.3
775.62 580.61 1709.5
776.19 577.73 1701.1
765.95 566.89 1669.1
767.18 564.61 1662.4
777.23 568.81 1674.8
776.42 565.06 1663.8
779.22 563.96 1660.5
800.35 576.07 1696.2
808.92 579.07 1705.0
815.07 580.29 1708.6
810.06 573.61 1688.9
778.38 548.21 1614.1
779.75 546.24 1608.3
816.29 568.80 1674.8
830.81 575.85 1695.5
812.86 560.45 1650.2
810.01 555.55 1635.8
835.22 569.86 1677.9
862.32 585.31 1723.4
866.83 585.33 1723.4
858.37 576.65 1697.9
856.31 572.33 1685.2
854.63 568.31 1673.3
855.52 566.03 1666.6
884.91 582.53 1715.2
925.07 605.92 1784.1
924.37 602.45 1773.8
920.51 596.96 1757.7
618.20 711.20 2110.2
623.81 711.36 2110.6
625.62 707.22 2098.3
615.30 689.56 2046.0
603.90 671.00 1990.9
610.06 672.10 1994.1
608.09 664.30 1971.0
584.23 632.92 1877.9
581.30 624.53 1853.0
597.76 636.96 1889.9
599.65 633.78 1880.4
594.79 623.57 1850.2
594.77 618.56 1835.3
593.79 612.64 1817.7
595.41 609.47 1808.3
606.87 616.36 1828.8
615.11 619.88 1839.2
620.35 620.35 1840.6
625.60 620.82 1842.0
623.13 613.69 1820.8
622.74 608.70 1806.0
622.90 604.31 1793.0
611.35 588.71 1746.7
606.24 579.49 1719.4
614.07 582.69 1728.9
618.09 582.26 1727.6
619.52 579.41 1719.1
622.53 578.06 1715.1
623.23 574.61 1704.9
629.15 575.98 1709.0
637.40 579.46 1719.3
640.70 578.41 1716.2
645.65 578.86 1717.5
653.65 582.02 1726.9
656.60 580.66 1722.8
658.83 578.71 1717.0
666.89 581.85 1726.4
670.83 581.38 1725.0
673.37 579.72 1720.1
679.38 581.05 1724.0
687.88 584.47 1734.1
699.95 590.87 1753.1
690.40 579.04 1718.0
669.23 557.69 1654.7
679.44 562.60 1669.2
701.30 577.02 1712.0
704.79 576.24 1709.7
703.51 571.60 1696.0
699.96 565.18 1676.9
701.86 563.22 1671.1
720.47 574.61 1704.9
737.73 584.78 1735.1
747.98 589.32 1748.5
745.82 584.08 1733.0
745.12 580.03 1721.0
748.55 579.23 1718.6
745.83 573.72 1702.2
745.35 569.97 1691.1
745.59 566.83 1681.8
748.52 565.74 1678.6
754.55 567.00 1682.3
765.32 571.79 1696.5
777.32 577.44 1713.3
773.92 571.65 1696.1
765.66 562.35 1668.5
768.49 561.26 1665.3
772.51 561.04 1664.6
766.42 553.52 1642.3
764.69 549.23 1629.6
780.87 557.76 1654.9
797.97 566.87 1681.9
812.72 574.20 1703.7
831.27 584.14 1733.2
824.19 576.05 1709.1
811.57 564.19 1674.0
834.85 577.29 1712.8
848.19 583.41 1731.0
828.19 566.66 1681.3
816.90 556.01 1649.7
834.91 565.30 1677.3
848.74 571.69 1696.2
839.85 562.78 1669.8
844.23 562.82 1669.9
855.56 567.46 1683.7
865.63 571.23 1694.9
879.69 577.57 1713.7
887.67 579.88 1720.5
906.70 589.35 1748.6
610.62 697.07 2084.3
614.82 695.71 2080.2
615.46 690.38 2064.3
603.40 671.03 2006.4
591.07 651.69 1948.6
598.52 654.31 1956.4
597.86 648.10 1937.8
578.99 622.42 1861.0
580.86 619.26 1851.6
591.59 625.53 1870.4
587.06 615.69 1840.9
591.42 615.27 1839.7
600.48 619.70 1852.9
603.09 617.45 1846.2
608.95 618.54 1849.4
611.81 616.59 1843.6
612.22 612.22 1830.6
618.05 613.30 1833.8
623.90 614.37 1837.0
622.65 608.50 1819.4
623.49 604.74 1808.2
629.91 606.41 1813.2
625.33 597.54 1786.7
614.59 582.96 1743.1
616.74 580.72 1736.4
624.31 583.59 1745.0
629.66 584.36 1747.2
632.73 583.02 1743.2
633.16 579.28 1732.1
634.86 576.74 1724.5
639.50 576.90 1724.9
642.48 575.55 1720.9
646.44 575.11 1719.6
647.69 572.27 1711.1
643.45 564.66 1688.4
654.84 570.78 1706.6
672.85 582.53 1741.8
679.94 584.75 1748.4
685.67 585.77 1751.5
694.90 589.75 1763.4
706.66 595.81 1781.5
708.93 593.84 1775.6
688.02 572.61 1712.1
675.42 558.52 1670.0
695.75 571.67 1709.3
702.86 573.86 1715.9
690.70 560.38 1675.6
698.86 563.46 1684.8
703.74 563.87 1686.0
710.48 565.75 1691.6
733.97 580.87 1736.8
726.63 571.56 1709.0
711.64 556.37 1663.6
725.54 563.82 1685.9
741.44 572.73 1712.5
749.81 575.75 1721.5
751.70 573.78 1715.6
750.09 569.19 1701.9
750.35 566.06 1692.5
740.83 555.63 1661.3
734.31 547.55 1637.2
744.19 551.73 1649.7
755.70 557.06 1665.6
776.82 569.37 1702.4
793.30 578.17 1728.7
775.01 561.67 1679.4
757.71 546.06 1632.7
777.44 557.17 1665.9
802.19 571.73 1709.5
800.58 567.44 1696.7
798.90 563.16 1683.9
803.76 563.51 1684.9
811.53 565.87 1692.0
827.22 573.71 1715.4
837.57 577.79 1727.6
839.17 575.81 1721.7
830.20 566.64 1694.3
832.54 565.25 1690.1
845.05 570.74 1706.5
838.00 563.03 1683.5
826.13 552.18 1651.0
837.37 556.81 1664.9
862.50 570.58 1706.0
870.86 573.17 1713.8
878.39 575.19 1719.8
893.37 582.05 1740.3
902.73 585.19 1749.7
915.65 590.60 1765.9
615.60 703.54 2120.0
599.00 678.51 2044.6
596.89 670.20 2019.6
602.56 670.68 2021.0
596.43 658.13 1983.2
585.41 640.45 1929.9
594.21 644.56 1942.3
603.06 648.67 1954.7
593.57 633.14 1907.9
579.85 613.39 1848.4
574.18 602.42 1815.3
578.20 601.71 1813.2
590.39 609.43 1836.5
601.21 615.63 1855.1
606.19 615.81 1855.7
602.82 607.56 1830.8
597.82 597.82 1801.5
604.79 600.10 1808.3
616.97 607.47 1830.6
612.98 598.95 1804.9
601.46 583.24 1757.5
606.51 583.71 1759.0
617.20 589.57 1776.6
632.07 599.30 1805.9
640.41 602.74 1816.3
630.26 588.86 1774.5
625.71 580.37 1748.9
636.24 585.89 1765.5
644.24 589.02 1775.0
643.11 583.82 1759.3
643.55 580.10 1748.1
646.92 579.06 1744.9
648.60 576.53 1737.3
652.60 576.09 1736.0
652.87 572.38 1724.8
641.52 558.60 1683.3
645.03 557.86 1681.1
672.62 577.82 1741.2
688.72 587.71 1771.0
682.65 578.67 1743.8
680.31 572.90 1726.4
693.40 580.10 1748.1
697.72 579.92 1747.5
692.05 571.50 1722.2
695.23 570.44 1719.0
693.34 565.27 1703.4
677.97 549.24 1655.1
676.60 544.68 1641.3
696.40 557.12 1678.8
707.90 562.80 1695.9
720.58 569.35 1715.7
737.82 579.39 1745.9
723.37 564.58 1701.3
711.36 551.84 1662.9
729.43 562.45 1694.9
749.53 574.49 1731.2
762.54 580.98 1750.7
761.03 576.40 1736.9
755.99 569.22 1715.3
753.18 563.78 1698.9
740.93 551.39 1661.6
737.53 545.69 1644.4
751.37 552.73 1665.6
765.30 559.76 1686.8
788.45 573.42 1727.9
802.60 580.41 1749.0
781.94 562.29 1694.4
760.63 543.91 1639.0
776.33 552.06 1663.6
809.63 572.56 1725.3
817.04 574.62 1731.6
813.79 569.21 1715.2
817.89 568.97 1714.5
819.92 567.30 1709.5
829.41 570.78 1720.0
834.35 571.11 1721.0
830.47 565.43 1703.8
826.51 559.75 1686.8
833.91 561.79 1692.9
848.57 568.67 1713.6
844.09 562.72 1695.7
839.95 557.07 1678.7
859.44 567.05 1708.8
873.86 573.61 1728.5
872.28 569.65 1716.6
874.58 568.25 1712.4
883.86 571.39 1721.8
912.09 586.67 1767.9
618.17 700.96 2128.9
602.38 677.01 2056.2
598.67 666.94 2025.6
603.81 666.82 2025.2
596.03 652.55 1981.9
583.61 633.49 1924.0
590.72 635.78 1930.9
597.87 638.06 1937.9
598.24 633.14 1922.9
594.25 623.72 1894.3
591.28 615.51 1869.4
597.17 616.59 1872.6
599.86 614.37 1865.9
602.22 611.85 1858.3
606.32 611.13 1856.1
602.64 602.64 1830.3
604.56 599.83 1821.8
618.54 608.95 1849.4
621.67 607.32 1844.5
608.19 589.62 1790.8
597.86 575.22 1747.0
603.51 576.29 1750.3
608.86 577.05 1752.6
618.63 581.97 1767.5
636.73 594.59 1805.8
635.18 588.81 1788.3
623.25 573.57 1742.0
626.32 572.25 1738.0
642.08 582.46 1769.0
648.80 584.38 1774.8
642.01 574.19 1743.9
638.06 566.67 1721.0
643.70 567.71 1724.2
651.70 570.80 1733.6
662.45 576.24 1750.1
661.70 571.67 1736.2
651.97 559.46 1699.2
665.50 567.24 1722.8
683.99 579.11 1758.8
679.98 571.90 1736.9
669.56 559.43 1699.1
675.18 560.44 1702.1
692.87 571.39 1735.4
701.79 575.01 1746.4
701.79 571.33 1735.2
696.33 563.27 1710.7
687.86 552.90 1679.2
694.55 554.77 1684.9
703.83 558.67 1696.7
705.42 556.45 1690.0
699.20 548.14 1664.8
696.59 542.74 1648.4
708.87 548.95 1667.2
724.63 557.75 1693.9
736.34 563.35 1711.0
750.79 570.96 1734.1
762.66 576.53 1751.0
758.84 570.25 1731.9
754.94 563.99 1712.9
752.12 558.59 1696.5
749.61 553.49 1681.0
755.65 554.73 1684.8
773.13 564.29 1713.8
791.12 574.13 1743.7
789.76 569.89 1730.8
778.35 558.48 1696.2
778.43 555.40 1686.8
777.25 551.46 1674.8
769.13 542.66 1648.1
778.80 546.45 1659.6
802.43 559.94 1700.6
816.37 566.55 1720.7
820.48 566.31 1720.0
824.59 566.07 1719.2
822.45 561.56 1705.5
815.64 553.94 1682.4
816.71 551.72 1675.6
817.33 549.21 1668.0
824.27 550.96 1673.3
838.04 557.23 1692.4
853.17 564.34 1714.0
868.81 571.71 1736.3
878.09 574.83 1745.8
882.20 574.56 1745.0
867.61 562.18 1707.4
855.48 551.51 1675.0
892.30 572.34 1738.3
603.61 673.06 2060.4
593.96 656.48 2009.6
600.69 658.15 2014.7
594.53 645.78 1976.9
580.42 625.07 1913.5
585.56 625.26 1914.0
600.54 635.87 1946.5
608.02 638.42 1954.3
608.96 634.12 1941.2
610.70 630.72 1930.8
608.90 623.75 1909.4
604.37 614.12 1880.0
605.00 609.84 1866.8
607.34 607.34 1859.2
614.71 609.87 1867.0
628.14 618.33 1892.8
637.15 622.33 1905.1
634.61 615.08 1882.9
619.06 595.43 1822.8
606.32 578.76 1771.7
612.03 579.82 1775.0
617.43 580.57 1777.3
615.27 574.25 1757.9
621.91 576.18 1763.8
618.66 568.99 1741.8
604.04 551.51 1688.3
623.64 557.30 1706.0
628.91 558.04 1708.3
626.86 552.34 1690.8
634.77 555.43 1700.3
650.46 565.23 1730.3
669.33 577.64 1768.3
681.22 583.90 1787.5
684.63 582.86 1784.3
681.81 576.56 1765.0
683.76 574.36 1758.2
685.67 572.15 1751.5
681.23 564.71 1728.7
682.69 562.22 1721.1
697.24 570.47 1746.3
702.26 570.87 1747.6
698.67 564.31 1727.5
700.77 562.40 1721.6
700.29 558.46 1709.6
703.77 557.70 1707.3
709.80 558.97 1711.1
711.79 557.05 1705.3
706.34 549.37 1681.8
708.60 547.75 1676.8
726.21 557.94 1708.0
723.98 552.86 1692.4
717.90 544.91 1668.1
725.40 547.31 1675.4
729.49 547.12 1674.9
736.66 549.22 1681.3
743.84 551.32 1687.7
755.72 556.84 1704.6
766.88 561.78 1719.7
769.08 560.14 1714.7
782.69 566.78 1735.0
794.80 572.26 1751.8
787.89 564.05 1726.7
775.26 551.88 1689.4
773.71 547.68 1676.6
781.79 550.31 1684.6
783.01 548.10 1677.9
791.93 551.29 1687.6
814.81 564.10 1726.8
823.47 566.98 1735.6
823.07 563.62 1725.4
819.31 558.02 1708.2
810.47 549.03 1680.7
808.20 544.57 1667.0
813.45 545.18 1668.9
819.54 546.36 1672.5
832.42 552.03 1689.9
837.29 552.35 1690.9
843.44 553.51 1694.4
864.20 564.20 1727.1
877.77 570.10 1745.2
884.05 571.23 1748.7
870.76 559.78 1713.6
878.29 561.75 1719.6
627.57 700.41 2161.3
611.83 676.80 2088.4
584.91 641.35 1979.0
575.47 625.51 1930.1
583.12 628.36 1939.0
582.22 622.03 1919.4
585.97 620.73 1915.4
598.99 629.19 1941.5
609.01 634.39 1957.5
612.24 632.48 1951.7
615.73 630.87 1946.7
615.71 625.72 1930.8
615.61 620.58 1914.9
619.56 619.56 1911.8
619.93 615.01 1897.7
625.30 615.46 1899.1
640.32 625.31 1929.5
651.23 631.04 1947.2
639.02 614.44 1896.0
612.42 584.37 1803.2
612.00 579.55 1788.3
630.84 592.90 1829.5
640.77 597.73 1844.4
643.81 596.12 1839.5
637.29 585.74 1807.4
621.01 566.61 1748.4
613.15 555.39 1713.8
613.56 551.76 1702.6
613.59 547.85 1690.5
625.05 554.13 1709.9
633.96 558.06 1722.0
635.94 555.89 1715.3
636.88 552.84 1705.9
646.86 557.64 1720.7
660.30 565.32 1744.4
665.66 566.04 1746.6
676.17 571.09 1762.2
681.58 571.79 1764.4
676.93 564.11 1740.7
671.82 556.14 1716.1
680.99 560.02 1728.1
695.50 568.22 1753.4
700.90 568.91 1755.5
695.94 561.24 1731.8
692.67 555.03 1712.7
695.81 553.99 1709.5
700.39 554.11 1709.8
709.34 557.66 1720.8
717.61 560.63 1730.0
721.49 560.16 1728.5
724.98 559.40 1726.1
736.30 564.64 1742.3
736.81 561.59 1732.9
717.29 543.40 1676.8
710.79 535.23 1651.6
717.88 537.33 1658.1
721.93 537.15 1657.5
729.82 539.81 1665.7
742.39 545.88 1684.4
760.87 556.19 1716.2
766.59 557.12 1719.1
762.91 551.24 1701.0
761.90 547.34 1688.9
759.26 542.33 1673.5
773.66 549.47 1695.5
783.35 553.22 1707.1
777.02 545.66 1683.7
779.86 544.60 1680.5
784.72 544.95 1681.5
796.51 550.08 1697.4
811.64 557.45 1720.1
812.88 555.25 1713.3
823.59 559.50 1726.5
831.45 561.79 1733.5
822.65 552.86 1706.0
821.28 548.98 1694.0
832.04 553.22 1707.1
843.29 557.73 1721.0
848.22 558.04 1722.0
844.20 552.49 1704.8
844.82 550.01 1697.2
859.58 556.73 1717.9
869.25 560.09 1728.3
870.29 557.88 1721.5
879.57 560.95 1730.9
912.92 579.26 1787.4
622.79 695.73 2164.1
613.62 679.36 2113.2
611.45 670.97 2087.1
598.05 650.51 2023.5
582.15 627.71 1952.6
583.81 624.07 1941.2
591.50 626.89 1950.0
603.44 634.12 1972.5
601.10 626.36 1948.3
595.81 615.67 1915.1
602.08 617.01 1919.3
608.95 618.94 1925.3
612.65 617.63 1921.2
616.04 616.04 1916.3
621.17 616.20 1916.7
623.03 613.14 1907.2
617.06 602.49 1874.1
620.88 601.48 1871.0
628.62 604.26 1879.6
612.88 584.59 1818.4
609.15 576.60 1793.6
631.94 593.64 1846.6
632.52 589.72 1834.4
624.88 578.24 1798.7
643.62 591.17 1838.9
652.36 594.80 1850.2
635.20 574.93 1788.4
627.11 563.49 1752.8
638.96 570.01 1773.1
649.60 575.36 1789.7
649.47 571.16 1776.7
647.62 565.53 1759.1
646.68 560.76 1744.3
644.67 555.14 1726.8
649.65 555.57 1728.1
657.35 558.30 1736.6
658.26 555.27 1727.2
663.93 556.26 1730.3
667.54 555.53 1728.0
661.76 547.05 1701.7
656.55 539.16 1677.1
665.63 543.02 1689.1
684.66 554.89 1726.0
693.55 558.44 1737.1
697.83 558.27 1736.5
703.19 558.95 1738.7
708.20 559.34 1739.9
716.47 562.30 1749.1
723.33 564.10 1754.7
730.20 565.91 1760.3
731.93 563.72 1753.5
732.88 560.97 1745.0
725.95 552.26 1717.9
708.77 535.90 1667.0
708.71 532.60 1656.7
721.86 539.22 1677.3
732.82 544.13 1692.6
741.55 547.33 1702.5
751.85 551.66 1716.0
767.63 559.92 1741.7
764.86 554.63 1725.2
749.50 540.34 1680.8
752.01 539.01 1676.7
756.87 539.38 1677.8
743.88 527.09 1639.6
747.86 526.90 1639.0
774.24 542.41 1687.2
783.95 546.12 1698.8
784.40 543.38 1690.2
786.03 541.49 1684.4
784.78 537.64 1672.4
785.52 535.19 1664.8
799.81 541.95 1685.8
823.28 554.82 1725.8
835.29 559.87 1741.5
831.51 554.34 1724.3
824.31 546.60 1700.2
828.35 546.36 1699.5
848.46 556.66 1731.6
860.64 561.68 1747.2
856.24 555.88 1729.1
856.48 553.14 1720.6
862.27 553.99 1723.3
862.88 551.53 1715.6
880.80 560.10 1742.2
909.72 575.54 1790.3
928.78 584.62 1818.5
623.25 696.90 2185.4
606.57 672.15 2107.8
602.58 661.77 2075.2
605.96 659.59 2068.4
606.06 653.90 2050.6
603.05 645.00 2022.7
604.87 641.37 2011.3
614.13 645.62 2024.6
615.33 641.40 2011.4
602.93 623.19 1954.3
589.68 604.42 1895.4
587.32 597.03 1872.2
595.52 600.41 1882.8
601.16 601.16 1885.2
612.66 607.72 1905.7
626.31 616.29 1932.6
618.40 603.68 1893.1
603.12 584.12 1831.7
608.94 585.16 1835.0
618.73 589.95 1850.0
612.68 579.69 1817.9
619.11 581.30 1822.9
627.72 584.92 1834.2
615.47 569.20 1784.9
601.42 552.05 1731.2
614.32 559.71 1755.2
637.83 576.86 1809.0
634.67 569.81 1786.9
626.88 558.74 1752.2
639.39 565.79 1774.3
644.81 566.51 1776.5
639.05 557.47 1748.2
642.76 556.76 1745.9
647.12 556.61 1745.5
653.82 558.47 1751.3
667.28 566.04 1775.0
674.75 568.45 1782.6
675.08 564.86 1771.3
666.09 553.57 1735.9
653.82 539.73 1692.5
661.85 542.72 1701.9
670.62 546.26 1713.0
674.16 545.54 1710.7
687.59 552.76 1733.4
696.85 556.57 1745.3
701.15 556.40 1744.8
707.97 558.21 1750.5
714.81 560.01 1756.1
712.94 555.01 1740.5
710.27 549.46 1723.0
718.55 552.39 1732.2
722.43 551.92 1730.8
719.61 546.37 1713.4
708.50 534.63 1676.5
707.35 530.51 1663.6
723.88 539.62 1692.2
734.47 544.22 1706.6
743.59 547.67 1717.4
751.61 550.28 1725.6
760.81 553.73 1736.4
760.77 550.44 1726.1
742.00 533.72 1673.7
748.81 535.48 1679.2
772.92 549.53 1723.3
777.49 549.60 1723.5
765.38 537.95 1687.0
763.48 533.57 1673.2
784.75 545.33 1710.1
796.52 550.40 1726.0
799.45 549.34 1722.7
809.68 553.28 1735.0
817.51 555.55 1742.1
804.05 543.40 1704.0
803.19 539.85 1692.9
826.69 552.63 1733.0
837.89 557.08 1747.0
834.54 551.87 1730.6
827.75 544.46 1707.4
833.50 545.32 1710.1
854.06 555.82 1743.0
869.24 562.72 1764.6
868.29 559.16 1753.5
863.00 552.86 1733.7
863.66 550.41 1726.0
857.36 543.58 1704.6
869.63 548.53 1720.1
907.66 569.61 1786.2
606.36 672.51 2126.2
602.76 662.49 2094.5
610.47 664.98 2102.4
613.65 662.52 2094.6
613.53 656.58 2075.8
612.77 650.06 2055.2
617.14 649.06 2052.1
617.05 643.42 2034.2
609.59 630.26 1992.6
599.11 614.21 1941.9
587.81 597.61 1889.4
585.43 590.27 1866.2
593.62 593.62 1876.8
607.68 602.74 1905.6
628.02 617.89 1953.5
626.15 611.12 1932.1
602.77 583.63 1845.2
602.33 578.62 1829.4
622.93 593.73 1877.1
637.38 602.79 1905.8
635.13 596.04 1884.4
628.15 585.00 1849.5
625.04 577.69 1826.4
615.26 564.38 1784.3
604.65 550.51 1740.5
612.52 553.53 1750.0
631.25 566.27 1790.3
635.42 565.85 1789.0
634.41 560.85 1773.2
645.02 566.13 1789.9
648.84 565.42 1787.6
646.06 559.00 1767.3
652.79 560.85 1773.2
657.88 561.27 1774.5
664.65 563.10 1780.3
671.10 564.65 1785.2
671.12 560.80 1773.0
677.92 562.63 1778.8
674.77 556.23 1758.6
662.54 542.49 1715.1
670.97 545.73 1725.4
686.09 554.33 1752.6
695.35 558.11 1764.5
698.29 556.81 1760.4
696.23 551.56 1743.8
701.61 552.23 1745.9
709.87 555.15 1755.2
714.91 555.54 1756.4
710.50 548.61 1734.5
696.47 534.40 1689.5
693.64 528.90 1672.2
705.89 534.90 1691.1
711.15 535.56 1693.2
719.42 538.46 1702.4
737.49 548.62 1734.5
748.14 553.17 1748.9
753.54 553.81 1750.9
755.51 551.93 1745.0
755.54 548.66 1734.7
757.06 546.51 1727.9
748.86 537.41 1699.1
730.40 521.11 1647.5
737.54 523.14 1654.0
766.33 540.42 1708.6
776.40 544.37 1721.1
771.02 537.51 1699.4
777.12 538.69 1703.1
798.87 550.63 1740.9
811.51 556.21 1758.5
804.81 548.53 1734.2
805.31 545.82 1725.7
819.66 552.48 1746.7
813.58 545.37 1724.2
799.16 532.77 1684.4
808.57 536.12 1695.0
823.85 543.30 1717.7
823.77 540.32 1708.3
825.74 538.72 1703.2
841.18 545.87 1725.8
859.67 554.92 1754.4
872.32 560.12 1770.9
879.49 561.77 1776.1
882.40 560.69 1772.7
879.25 555.80 1757.2
869.55 546.83 1728.9
875.36 547.66 1731.5
906.47 564.23 1783.9
609.41 670.35 2136.9
612.71 667.91 2129.1
618.64 668.35 2130.5
620.26 664.18 2117.2
620.19 658.27 2098.4
619.75 652.09 2078.7
621.15 647.92 2065.4
618.31 639.45 2038.4
617.57 633.28 2018.7
613.92 624.24 1989.9
602.16 607.18 1935.5
599.60 599.60 1911.3
605.87 600.91 1915.5
618.28 608.23 1938.9
630.50 615.25 1961.2
620.96 601.09 1916.1
610.32 586.10 1868.3
621.62 592.25 1887.9
622.15 588.12 1874.8
616.53 578.29 1843.4
622.39 579.30 1846.7
624.88 577.17 1839.9
629.81 577.32 1840.3
627.24 570.65 1819.1
622.99 562.55 1793.3
637.95 571.79 1822.7
650.80 579.02 1845.8
649.32 573.49 1828.1
639.35 560.59 1787.0
641.87 558.75 1781.1
651.89 563.42 1796.0
655.38 562.42 1792.8
664.49 566.22 1805.0
671.99 568.60 1812.6
679.51 570.98 1820.1
686.06 572.51 1825.0
682.10 565.30 1802.0
685.20 564.01 1797.9
686.56 561.31 1789.3
678.89 551.31 1757.4
680.46 548.90 1749.7
688.29 551.54 1758.2
698.62 556.14 1772.8
701.93 555.12 1769.6
696.69 547.40 1744.9
699.56 546.11 1740.8
708.89 549.84 1752.7
715.01 551.06 1756.6
705.13 540.00 1721.4
685.20 521.44 1662.2
697.03 527.13 1680.3
723.73 543.92 1733.9
715.70 534.57 1704.1
711.28 528.00 1683.1
746.60 550.85 1755.9
780.43 565.46 1802.5
764.84 550.87 1756.0
750.59 537.41 1713.1
753.21 536.11 1709.0
745.67 527.64 1682.0
734.09 516.43 1646.2
743.60 520.09 1657.9
767.00 533.37 1700.2
775.08 535.91 1708.3
771.22 530.22 1690.2
782.12 534.67 1704.4
802.75 545.69 1739.5
803.28 543.00 1730.9
791.17 531.84 1695.4
791.15 528.89 1686.0
807.92 537.14 1712.2
818.62 541.27 1725.4
823.57 541.59 1726.4
833.93 545.44 1738.7
833.47 542.21 1728.4
834.23 539.79 1720.7
849.28 546.61 1742.4
866.54 554.77 1768.5
863.92 550.18 1753.8
854.82 541.54 1726.3
879.93 554.54 1767.7
900.03 564.27 1798.7
897.34 559.68 1784.1
911.08 565.34 1802.1
945.41 583.64 1860.5
655.02 727.80 2339.4
627.43 684.47 2200.1
620.55 670.86 2156.3
618.26 662.42 2129.2
615.57 653.70 2101.2
611.93 644.13 2070.4
610.59 637.14 2048.0
610.81 631.87 2031.0
611.50 627.17 2015.9
614.35 624.76 2008.2
616.88 622.07 1999.5
611.11 611.11 1964.3
607.75 602.73 1937.3
613.80 603.74 1940.6
625.11 609.86 1960.3
637.09 616.54 1981.7
626.41 601.35 1932.9
614.90 585.62 1882.3
630.74 595.97 1915.6
634.95 595.26 1913.3
626.07 582.39 1872.0
630.16 581.69 1869.7
631.15 578.16 1858.4
634.89 577.17 1855.2
634.22 572.23 1839.3
631.28 565.33 1817.1
639.32 568.29 1826.6
645.49 569.55 1830.7
651.68 570.81 1834.8
650.44 565.60 1818.0
647.18 558.71 1795.9
651.66 558.57 1795.4
656.47 558.70 1795.8
666.92 563.59 1811.5
668.76 561.19 1803.8
670.22 558.52 1795.2
682.45 564.79 1815.4
683.90 562.11 1806.8
681.54 556.36 1788.3
678.06 549.78 1767.1
676.91 545.16 1752.3
684.73 547.78 1760.7
691.89 549.84 1767.4
700.83 553.29 1778.4
709.47 556.45 1788.6
709.96 553.21 1778.2
704.66 545.55 1753.5
705.38 542.60 1744.1
717.64 548.52 1763.1
714.32 542.52 1743.8
703.22 530.73 1705.9
723.62 542.71 1744.4
750.11 559.09 1797.1
742.58 550.06 1768.1
715.84 527.00 1693.9
729.77 533.98 1716.4
766.48 557.44 1791.8
776.72 558.12 1794.0
756.49 540.35 1736.8
749.52 532.20 1710.7
759.50 536.11 1723.2
754.71 529.62 1702.4
745.13 519.86 1671.0
746.43 517.75 1664.2
760.75 524.66 1686.4
779.54 534.54 1718.2
786.48 536.24 1723.6
782.61 530.58 1705.4
788.33 531.46 1708.3
801.35 537.22 1726.8
800.61 533.74 1715.6
813.31 539.21 1733.2
843.34 556.05 1787.3
841.41 551.74 1773.5
831.95 542.58 1744.0
849.85 551.25 1771.9
857.82 553.43 1778.9
850.28 545.63 1753.8
855.71 546.19 1755.6
864.95 549.17 1765.2
853.38 538.98 1732.4
847.22 532.28 1710.9
877.88 548.68 1763.6
907.47 564.23 1813.6
914.76 565.83 1818.7
924.24 568.76 1828.2
955.14 584.78 1879.6
617.34 667.85 2164.7
608.77 652.65 2115.4
613.33 651.67 2112.2
617.61 650.40 2108.1
612.61 639.48 2072.7
609.91 631.13 2045.7
612.33 628.16 2036.1
615.25 625.77 2028.3
615.33 620.54 2011.4
615.60 615.60 1995.3
609.53 604.45 1959.2
606.15 596.13 1932.2
620.58 605.32 1962.0
640.39 619.57 2008.2
644.56 618.57 2005.0
625.05 595.05 1928.7
601.00 567.62 1839.8
605.35 567.21 1838.5
629.02 584.80 1895.5
639.57 589.99 1912.3
642.84 588.45 1907.3
643.30 584.37 1894.1
649.29 585.35 1897.3
649.98 581.56 1885.0
642.41 570.50 1849.2
646.09 569.51 1846.0
645.60 564.90 1831.0
645.68 560.84 1817.9
643.11 554.56 1797.5
638.48 546.62 1771.7
656.35 557.90 1808.3
675.04 569.71 1846.6
667.68 559.54 1813.6
652.50 542.99 1760.0
649.83 537.01 1740.6
656.87 539.08 1747.3
659.51 537.55 1742.4
658.03 532.69 1726.6
664.73 534.48 1732.4
673.88 538.20 1744.5
684.47 543.02 1760.1
695.13 547.82 1775.7
695.29 544.34 1764.4
695.39 540.86 1753.1
703.28 543.45 1761.5
705.11 541.35 1754.7
702.59 535.95 1737.2
712.66 540.17 1750.9
718.42 541.09 1753.8
716.86 536.52 1739.0
713.39 530.58 1719.8
716.50 529.59 1716.5
737.84 541.99 1756.8
739.14 539.61 1749.0
729.85 529.59 1716.6
744.64 537.05 1740.7
752.69 539.58 1748.9
742.80 529.30 1715.6
745.44 528.02 1711.5
760.42 535.44 1735.5
772.78 540.94 1753.4
770.39 536.12 1737.7
758.53 524.79 1701.0
757.53 521.07 1689.0
768.35 525.48 1703.2
782.81 532.31 1725.4
798.96 540.20 1751.0
805.98 541.87 1756.4
799.70 534.63 1732.9
802.24 533.34 1728.7
798.65 528.00 1711.4
807.26 530.74 1720.3
835.63 546.37 1771.0
830.36 539.96 1750.2
827.06 534.89 1733.8
851.61 547.79 1775.6
866.71 554.51 1797.3
868.03 552.38 1790.4
862.13 545.71 1768.8
859.11 540.92 1753.3
859.43 538.27 1744.7
866.97 540.16 1750.8
880.99 546.03 1769.8
895.07 551.89 1788.8
912.27 559.59 1813.8
933.05 569.40 1845.6
655.49 729.69 2385.2
625.65 671.16 2193.9
620.33 659.45 2155.6
628.46 662.13 2164.4
624.23 651.85 2130.7
610.31 631.72 2064.9
614.44 630.46 2060.8
624.90 635.67 2077.9
621.79 627.11 2049.9
616.86 616.86 2016.4
607.52 602.42 1969.2
592.83 582.95 1905.5
592.76 578.07 1889.6
611.15 591.11 1932.2
628.86 603.30 1972.0
630.30 599.80 1960.6
622.51 587.65 1920.9
608.26 569.64 1862.0
608.45 565.33 1847.9
628.53 579.43 1894.0
636.95 582.64 1904.5
638.36 579.43 1894.0
636.00 572.89 1872.6
638.52 570.80 1865.8
641.01 568.72 1859.0
634.63 558.86 1826.8
648.10 566.49 1851.7
657.20 570.22 1863.9
649.96 559.82 1829.9
639.32 546.66 1786.9
631.41 536.01 1752.1
646.28 544.72 1780.6
661.29 553.42 1809.0
650.52 540.57 1767.0
648.91 535.46 1750.3
659.66 540.55 1766.9
667.10 542.88 1774.6
668.45 540.25 1766.0
665.98 534.60 1747.5
670.67 534.72 1747.9
685.05 542.52 1773.4
700.94 551.41 1802.4
701.89 548.50 1792.9
692.91 537.92 1758.3
695.48 536.38 1753.3
706.23 541.14 1768.8
700.90 533.59 1744.2
692.21 523.59 1711.5
694.98 522.34 1707.4
694.44 518.63 1695.3
697.14 517.38 1691.2
698.35 515.04 1683.5
696.56 510.52 1668.8
712.96 519.32 1697.5
733.60 531.07 1736.0
743.49 534.95 1748.6
748.51 535.30 1749.8
746.69 530.78 1735.0
744.79 526.26 1720.2
754.74 530.12 1732.8
767.84 536.13 1752.5
777.92 539.97 1765.0
777.11 536.25 1752.9
766.45 525.82 1718.8
755.63 515.40 1684.7
756.94 513.32 1677.9
776.12 523.33 1710.6
797.84 534.92 1748.5
807.67 538.45 1760.1
805.84 534.21 1746.2
805.57 531.05 1735.9
799.55 524.15 1713.3
795.88 518.86 1696.0
810.64 525.58 1718.0
806.89 520.29 1700.7
804.32 515.81 1686.1
827.94 528.09 1726.2
842.52 534.50 1747.2
862.24 544.09 1778.5
875.74 549.67 1796.7
867.68 541.73 1770.8
862.92 535.92 1751.8
871.77 538.58 1760.5
888.38 545.99 1784.7
905.96 553.91 1810.6
927.98 564.44 1845.0
653.50 714.58 2355.7
627.92 667.88 2201.8
630.57 664.66 2191.2
633.44 661.72 2181.5
624.64 646.76 2132.2
612.62 628.74 2072.8
618.14 628.89 2073.3
623.10 628.48 2071.9
614.12 614.12 2024.6
605.47 600.34 1979.1
593.77 583.79 1924.6
585.80 571.16 1882.9
592.29 572.71 1888.1
607.21 582.32 1919.7
623.15 592.75 1954.1
637.77 601.77 1983.9
641.87 600.79 1980.6
627.16 582.36 1919.9
626.58 577.24 1903.0
636.21 581.54 1917.1
634.32 575.31 1896.6
643.99 579.59 1910.7
649.40 580.00 1912.1
634.27 562.20 1853.4
618.55 544.14 1793.9
620.53 541.81 1786.2
641.85 556.27 1833.9
655.71 564.10 1859.7
653.28 557.91 1839.3
652.36 553.09 1823.4
653.98 550.47 1814.8
650.64 543.75 1792.6
647.18 537.02 1770.4
653.59 538.53 1775.4
669.05 547.41 1804.6
668.16 542.88 1789.7
662.79 534.80 1763.1
680.79 545.57 1798.6
695.19 553.31 1824.1
688.33 544.15 1793.9
690.69 542.35 1788.0
703.83 548.99 1809.9
701.98 543.92 1793.1
702.17 540.49 1781.8
714.02 546.02 1800.1
709.53 539.06 1777.1
688.78 519.92 1714.0
682.18 511.63 1686.7
687.06 512.02 1688.0
697.79 516.72 1703.5
711.16 523.30 1725.2
724.99 530.15 1747.7
735.57 534.55 1762.2
732.05 528.70 1743.0
733.68 526.63 1736.1
739.81 527.79 1740.0
741.40 525.72 1733.1
753.24 530.90 1750.2
765.15 536.07 1767.3
763.29 531.58 1752.4
764.06 528.97 1743.8
781.11 537.59 1772.3
787.35 538.72 1776.0
788.89 536.63 1769.1
789.22 533.75 1759.6
776.02 521.81 1720.3
781.77 522.67 1723.1
781.92 519.80 1713.6
769.97 508.96 1677.9
785.32 516.20 1701.7
803.22 525.01 1730.8
806.96 524.52 1729.2
814.38 526.42 1735.5
828.41 532.55 1755.6
823.91 526.76 1736.6
808.95 514.39 1695.8
819.26 518.13 1708.1
832.97 523.97 1727.4
851.39 532.69 1756.1
886.83 551.91 1819.5
901.74 558.22 1840.3
881.77 542.98 1790.1
875.28 536.17 1767.6
911.27 555.31 1830.7
654.33 716.06 2381.0
653.68 708.66 2356.4
660.42 709.34 2358.6
632.85 661.36 2199.1
629.84 652.33 2169.1
625.33 641.93 2134.5
618.20 629.05 2091.7
605.37 610.64 2030.4
593.08 593.08 1972.0
599.47 594.34 1976.3
605.31 595.05 1978.6
598.98 583.88 1941.5
596.18 576.31 1916.3
594.12 569.57 1893.9
601.23 571.66 1900.8
614.50 579.53 1927.0
627.01 586.56 1950.4
636.66 590.82 1964.6
626.67 576.94 1918.4
624.58 570.49 1896.9
631.78 572.55 1903.8
629.55 566.10 1882.4
638.57 569.81 1894.7
656.01 580.89 1931.5
653.68 574.45 1910.1
644.04 561.72 1867.8
652.19 564.58 1877.3
653.39 561.43 1866.8
647.50 552.28 1836.4
657.88 557.04 1852.2
669.64 562.88 1871.7
662.23 552.65 1837.6
650.72 539.17 1792.8
650.90 535.49 1780.6
660.99 539.97 1795.5
673.49 546.33 1816.6
670.60 540.21 1796.3
664.56 531.65 1767.8
683.27 542.87 1805.1
695.97 549.20 1826.2
688.08 539.30 1793.2
680.02 529.41 1760.4
682.29 527.64 1754.5
691.19 530.98 1765.6
701.56 535.40 1780.3
715.53 542.50 1803.9
712.12 536.40 1783.6
705.73 528.16 1756.2
712.58 529.87 1761.9
710.74 525.13 1746.1
714.66 524.69 1744.7
731.06 533.35 1773.5
747.59 542.00 1802.2
748.28 539.13 1792.7
735.11 526.38 1750.3
729.63 519.25 1726.6
729.33 515.87 1715.3
744.51 523.41 1740.4
769.71 537.87 1788.5
771.37 535.80 1781.6
758.37 523.63 1741.1
762.21 523.17 1739.6
781.98 533.59 1774.2
796.43 540.27 1796.5
806.26 543.76 1808.1
810.61 543.53 1807.3
800.69 533.79 1774.9
799.78 530.14 1762.8
794.01 523.32 1740.1
789.34 517.31 1720.1
812.07 529.21 1759.7
818.32 530.31 1763.3
811.93 523.24 1739.9
825.52 529.06 1759.2
845.78 539.07 1792.5
850.46 539.09 1792.5
845.58 533.09 1772.6
857.31 537.56 1787.4
872.45 544.11 1809.2
867.89 538.37 1790.2
879.74 542.82 1804.9
908.22 557.42 1853.5
902.76 551.16 1832.7
898.07 545.43 1813.6
648.99 710.80 2384.0
638.47 692.68 2323.3
657.20 706.34 2369.1
660.34 703.14 2358.4
630.08 652.79 2189.5
627.84 644.66 2162.2
624.12 635.17 2130.4
609.07 614.41 2060.8
590.93 590.93 1982.0
588.48 583.41 1956.8
604.33 593.99 1992.3
597.55 582.36 1953.2
578.96 559.50 1876.6
587.43 562.95 1888.2
596.24 566.67 1900.6
594.95 560.81 1881.0
600.58 561.52 1883.4
598.27 554.85 1861.0
592.88 545.45 1829.5
604.38 551.61 1850.1
623.18 564.30 1892.7
637.64 572.88 1921.5
641.25 571.65 1917.3
630.38 557.64 1870.4
629.20 552.35 1852.6
642.88 560.09 1878.6
649.79 561.85 1884.4
655.77 562.78 1887.6
654.12 557.22 1868.9
642.47 543.26 1822.1
647.67 543.66 1823.5
661.96 551.63 1850.2
657.43 543.92 1824.3
648.18 532.43 1785.8
650.32 530.41 1779.0
651.76 527.84 1770.4
655.17 526.89 1767.2
662.60 529.16 1774.8
667.02 529.01 1774.3
675.86 532.35 1785.5
679.60 531.66 1783.2
678.15 526.94 1767.4
675.94 521.70 1749.8
674.33 516.99 1734.0
678.98 517.10 1734.4
694.93 525.77 1763.4
713.85 536.55 1799.6
713.63 532.91 1787.4
709.40 526.33 1765.3
715.91 527.76 1770.1
713.36 522.52 1752.6
711.81 518.09 1737.7
723.06 522.97 1754.1
736.59 529.43 1775.7
734.62 524.73 1760.0
723.24 513.41 1722.0
720.70 508.47 1705.4
715.44 501.68 1682.6
724.48 504.94 1693.6
757.59 524.84 1760.3
767.24 528.34 1772.1
765.37 523.92 1757.2
779.70 530.57 1779.5
780.12 527.73 1770.0
774.62 520.94 1747.3
784.35 524.42 1758.9
789.38 524.73 1760.0
792.04 523.47 1755.8
803.84 528.24 1771.7
804.10 525.40 1762.2
805.91 523.62 1756.2
831.56 537.25 1801.9
839.53 539.36 1809.0
830.38 530.52 1779.4
840.78 534.20 1791.7
849.99 537.08 1801.4
842.27 529.30 1775.3
841.93 526.20 1764.9
859.90 534.54 1792.9
883.87 546.48 1832.9
888.63 546.48 1832.9
876.45 536.12 1798.2
879.84 535.35 1795.6
900.30 544.92 1827.7
924.75 556.79 1867.5
646.88 709.08 2399.1
648.41 703.98 2381.9
646.28 695.06 2351.7
654.81 697.64 2360.5
626.20 654.92 2215.9
617.30 639.74 2164.5
617.99 634.69 2147.5
619.14 630.19 2132.2
615.88 621.33 2102.2
601.29 601.29 2034.4
597.09 591.90 2002.7
607.71 597.23 2020.7
613.94 598.20 2024.0
598.78 578.48 1957.3
582.09 552.99 1871.0
599.79 565.09 1912.0
607.82 567.96 1921.7
612.37 567.57 1920.3
608.38 559.32 1892.4
602.76 549.72 1860.0
613.73 555.28 1878.8
629.31 564.89 1911.3
640.48 570.43 1930.0
650.82 575.14 1946.0
646.16 566.63 1917.2
630.53 548.70 1856.5
629.57 543.72 1839.7
639.21 547.90 1853.8
647.33 550.72 1863.3
662.81 559.71 1893.8
668.50 560.36 1896.0
650.66 541.43 1831.9
642.58 530.83 1796.0
659.81 541.14 1830.9
671.27 546.61 1849.4
675.88 546.45 1848.9
678.47 544.69 1842.9
660.94 526.91 1782.8
646.84 512.08 1732.6
654.89 514.88 1742.1
667.75 521.39 1764.1
673.50 522.31 1767.2
674.09 519.23 1756.8
682.96 522.53 1768.0
691.87 525.82 1779.1
689.24 520.35 1760.6
698.19 523.64 1771.7
713.58 531.69 1798.9
709.07 524.89 1776.0
709.84 522.08 1766.4
720.69 526.66 1781.9
727.25 528.07 1786.7
735.65 530.79 1795.9
720.56 516.63 1748.0
707.84 504.34 1706.4
723.55 512.33 1733.4
730.41 513.99 1739.1
729.77 510.39 1726.9
726.44 504.97 1708.5
724.16 500.33 1692.8
746.23 512.47 1733.9
764.63 521.97 1766.0
770.85 523.07 1769.8
780.95 526.79 1782.4
776.69 520.84 1762.2
767.65 511.77 1731.5
774.99 513.65 1737.9
782.35 515.54 1744.3
786.56 515.33 1743.6
796.34 518.76 1755.2
794.55 514.65 1741.3
793.50 511.07 1729.2
815.46 522.26 1767.1
830.67 529.03 1790.0
827.19 523.89 1772.5
828.14 521.59 1764.8
827.40 518.26 1753.5
836.14 520.88 1762.4
854.07 529.15 1790.4
852.47 525.30 1777.3
856.68 525.07 1776.5
879.45 536.13 1814.0
886.69 537.68 1819.2
885.03 533.83 1806.2
899.97 539.98 1827.0
924.85 552.01 1867.7
953.35 566.05 1915.2
652.12 701.80 2395.5
649.51 692.40 2363.5
657.81 694.70 2371.3
653.42 683.67 2333.7
620.87 637.80 2177.1
619.99 631.16 2154.4
612.83 618.30 2110.5
602.47 602.47 2056.5
605.23 599.92 2047.8
617.29 606.55 2070.4
619.47 603.45 2059.8
618.81 597.65 2040.0
618.33 592.12 2021.2
610.37 579.59 1978.4
609.64 574.08 1959.6
621.51 580.42 1981.2
622.15 576.25 1967.0
618.33 568.06 1939.0
621.74 566.59 1934.0
623.34 563.50 1923.5
624.00 559.62 1910.2
628.50 559.22 1908.8
648.78 572.75 1955.0
668.96 585.99 2000.2
656.73 570.85 1948.5
632.79 545.84 1863.2
629.35 538.76 1839.0
637.42 541.57 1848.6
643.31 542.50 1851.8
657.18 550.09 1877.7
667.00 554.20 1891.7
653.33 538.88 1839.4
644.93 528.10 1802.6
661.53 537.79 1835.7
670.71 541.36 1847.9
673.32 539.61 1841.9
678.90 540.25 1844.1
663.70 524.46 1790.2
655.34 514.26 1755.4
670.23 522.31 1782.9
685.24 530.35 1810.3
693.16 532.83 1818.8
694.89 530.56 1811.0
703.89 533.82 1822.1
708.38 533.65 1821.6
700.22 524.00 1788.6
700.38 520.68 1777.3
707.61 522.62 1783.9
713.79 523.76 1787.8
725.75 529.09 1806.0
728.37 527.60 1800.9
727.69 523.75 1787.8
743.78 531.94 1815.7
736.45 523.39 1786.5
715.30 505.18 1724.4
721.38 506.31 1728.3
734.96 512.66 1749.9
740.74 513.52 1752.8
748.79 515.93 1761.1
758.40 519.39 1772.9
758.89 516.59 1763.3
755.50 511.21 1745.0
765.91 515.16 1758.5
779.86 521.45 1779.9
781.83 519.69 1773.9
778.29 514.31 1755.5
785.68 516.17 1761.9
793.88 518.55 1770.0
789.01 512.40 1749.0
788.43 509.10 1737.8
799.43 513.27 1752.0
810.90 517.69 1767.1
820.80 521.07 1778.6
823.84 520.08 1775.2
819.09 514.21 1755.2
818.77 511.16 1744.8
820.46 509.41 1738.8
831.66 513.54 1752.9
850.40 522.26 1782.7
849.62 518.95 1771.4
858.44 521.53 1780.2
886.28 535.56 1828.1
902.88 542.69 1852.4
911.92 545.22 1861.1
917.58 545.72 1862.8
933.54 552.30 1885.2
651.28 694.70 2392.5
649.43 686.19 2363.1
656.69 687.38 2367.2
650.73 674.83 2324.0
620.66 626.25 2156.7
605.97 605.97 2086.9
602.05 596.72 2055.0
610.26 599.55 2064.8
616.86 600.77 2069.0
614.32 593.14 2042.7
617.81 591.40 2036.7
621.54 589.94 2031.7
617.58 581.25 2001.8
620.05 578.72 1993.0
625.66 579.12 1994.4
619.93 569.12 1960.0
618.43 563.12 1939.3
623.61 563.26 1939.8
629.98 564.46 1943.9
635.17 564.59 1944.4
631.61 557.01 1918.3
643.11 562.72 1938.0
667.85 579.84 1996.9
661.15 569.60 1961.6
649.62 555.40 1912.7
658.16 558.44 1923.2
654.48 551.14 1898.1
648.46 542.00 1866.6
651.22 540.27 1860.6
650.74 535.90 1845.6
640.50 523.62 1803.3
634.93 515.31 1774.7
654.74 527.56 1816.9
667.83 534.27 1839.9
671.75 533.59 1837.6
678.65 535.28 1843.4
666.13 521.72 1796.7
660.80 513.96 1770.0
676.75 522.73 1800.2
692.83 531.49 1830.4
694.27 528.97 1821.7
688.75 521.21 1795.0
686.93 516.35 1778.2
680.48 508.09 1749.8
687.62 510.03 1756.5
701.87 517.17 1781.1
705.19 516.22 1777.8
708.50 515.27 1774.5
716.10 517.44 1782.0
715.41 513.63 1768.9
708.47 505.41 1740.6
717.14 508.35 1750.7
727.32 512.33 1764.4
722.39 505.67 1741.5
717.73 499.29 1719.5
719.69 497.56 1713.5
740.05 508.50 1751.2
762.85 520.97 1794.2
753.53 511.49 1761.5
735.28 496.09 1708.5
744.05 499.00 1718.5
765.98 510.65 1758.6
772.57 512.00 1763.3
767.09 505.38 1740.5
778.75 510.06 1756.6
801.49 521.90 1797.4
810.96 525.02 1808.1
806.96 519.42 1788.8
811.26 519.21 1788.1
826.39 525.88 1811.1
833.55 527.44 1816.4
839.11 527.98 1818.3
836.94 523.67 1803.5
826.52 514.28 1771.1
838.55 518.88 1787.0
853.13 525.00 1808.0
853.28 522.23 1798.5
860.47 523.76 1803.8
855.54 517.95 1783.8
860.61 518.22 1784.7
889.74 532.89 1835.2
907.64 540.72 1862.2
909.46 538.94 1856.0
906.98 534.64 1841.2
941.37 552.01 1901.0
653.47 690.81 2400.5
650.87 681.57 2368.4
657.63 682.22 2370.6
651.41 669.51 2326.5
632.24 637.99 2217.0
620.26 620.26 2155.3
612.27 606.81 2108.6
614.09 603.22 2096.1
613.93 597.77 2077.2
613.12 591.80 2056.4
614.16 587.69 2042.2
619.88 588.09 2043.6
619.12 582.39 2023.7
611.15 570.06 1980.9
606.13 560.67 1948.3
604.98 554.99 1928.5
605.49 550.90 1914.3
609.74 550.25 1912.1
625.48 559.91 1945.6
642.27 570.34 1981.9
648.45 571.25 1985.0
646.49 565.04 1963.5
644.43 558.84 1941.9
654.81 563.44 1957.9
668.34 570.66 1983.0
676.40 573.13 1991.6
684.19 575.34 1999.2
679.74 567.30 1971.3
666.29 551.92 1917.9
660.55 543.12 1887.3
663.34 541.40 1881.3
656.40 531.83 1848.1
648.66 521.75 1813.0
665.62 531.54 1847.0
678.12 537.66 1868.3
681.78 536.72 1865.0
691.74 540.73 1879.0
682.64 529.88 1841.3
671.00 517.23 1797.3
680.22 520.72 1809.5
678.21 515.63 1791.8
661.33 499.37 1735.3
669.10 501.83 1743.8
681.08 507.38 1763.1
686.49 508.01 1765.3
704.94 518.20 1800.7
720.71 526.31 1828.9
726.64 527.17 1831.9
724.69 522.34 1815.1
726.98 520.61 1809.1
726.35 516.83 1795.9
719.83 508.92 1768.5
721.60 506.95 1761.6
724.44 505.74 1757.4
723.93 502.23 1745.2
723.37 498.72 1733.0
721.99 494.70 1719.0
740.12 504.01 1751.4
769.35 520.72 1809.4
767.28 516.17 1793.6
753.29 503.71 1750.3
767.92 510.41 1773.6
779.94 515.32 1790.7
776.90 510.27 1773.1
771.44 503.71 1750.3
784.30 509.11 1769.1
803.14 518.31 1801.1
809.06 519.11 1803.9
812.60 518.38 1801.3
824.12 522.73 1816.4
833.70 525.80 1827.1
834.43 523.29 1818.4
828.24 516.49 1794.7
813.39 504.39 1752.7
820.04 505.69 1757.2
848.90 520.60 1809.0
853.21 520.36 1808.2
842.57 511.07 1775.9
859.71 518.63 1802.2
865.24 519.14 1804.0
857.32 511.63 1777.9
873.36 518.41 1801.4
909.00 536.70 1865.0
930.85 546.69 1899.7
929.74 543.17 1887.5
651.07 688.63 2414.7
654.40 685.56 2403.9
661.76 686.73 2408.0
651.87 670.14 2349.9
629.99 641.66 2250.0
611.03 616.64 2162.2
601.44 601.44 2108.9
606.25 600.79 2106.7
613.47 602.52 2112.7
618.82 602.39 2112.3
621.97 600.15 2104.4
612.96 586.31 2055.9
606.49 575.12 2016.7
619.43 582.37 2042.1
624.87 582.51 2042.6
617.79 571.07 2002.4
613.96 562.80 1973.4
612.87 557.16 1953.7
613.44 553.10 1939.4
621.55 555.86 1949.1
641.23 568.83 1994.6
649.52 571.58 2004.2
647.66 565.41 1982.6
646.59 560.04 1963.8
646.05 555.20 1946.8
649.40 553.75 1941.7
655.19 554.39 1944.0
656.33 551.12 1932.5
657.10 547.58 1920.1
662.22 547.70 1920.5
658.78 540.79 1896.3
660.64 538.30 1887.5
670.49 542.31 1901.6
679.43 545.53 1912.9
687.45 547.97 1921.4
688.29 544.69 1910.0
685.46 538.58 1888.5
686.50 535.57 1878.0
693.50 537.22 1883.8
688.77 529.82 1857.8
680.87 520.11 1823.8
684.38 519.18 1820.5
676.57 509.75 1787.4
670.34 501.61 1758.9
687.85 511.24 1792.7
706.91 521.88 1830.0
719.83 527.88 1851.0
718.05 523.08 1834.2
713.70 516.50 1811.1
721.73 518.89 1819.5
722.61 516.15 1809.9
730.30 518.28 1817.3
734.40 517.84 1815.8
728.27 510.26 1789.2
731.19 509.06 1785.0
734.46 508.11 1781.7
734.74 505.13 1771.2
740.56 505.97 1774.2
745.26 506.04 1774.4
755.61 509.92 1788.0
777.75 521.66 1829.2
786.75 524.50 1839.2
785.09 520.24 1824.2
785.28 517.25 1813.7
783.87 513.25 1799.7
778.52 506.73 1776.8
771.11 498.95 1749.6
774.56 498.25 1747.1
785.08 502.09 1760.6
796.46 506.42 1775.8
805.51 509.23 1785.6
808.20 508.01 1781.3
808.86 505.54 1772.7
822.40 511.10 1792.2
828.31 511.88 1794.9
817.93 502.64 1762.5
828.29 506.17 1774.9
850.62 516.95 1812.7
847.08 511.97 1795.2
824.78 495.77 1738.4
829.76 496.05 1739.4
861.96 512.52 1797.1
883.05 522.23 1831.2
894.98 526.46 1846.0
