ply
format ascii 1.0
element vertex 2177
property float x
property float y
property float z
end_header
-472.92 927.88 2309.0
-465.85 925.72 2303.6
-462.44 930.89 2316.5
-450.87 919.55 2288.3
-437.85 904.89 2251.8
-435.17 911.51 2268.3
-429.47 911.89 2269.2
-418.98 901.97 2244.5
-424.44 926.59 2305.8
-430.25 952.70 2370.8
-428.36 962.27 2394.6
-422.64 963.37 2397.3
-423.27 979.20 2436.7
-487.17 926.23 2319.9
-484.21 932.11 2334.6
-485.66 946.73 2371.2
-486.55 960.63 2406.0
-468.86 937.71 2348.6
-443.17 897.99 2249.1
-448.00 919.90 2304.0
-463.62 964.82 2416.5
-450.79 950.98 2381.9
-433.18 926.52 2320.6
-433.91 941.15 2357.2
-435.94 959.08 2402.1
-434.31 969.33 2427.8
-428.02 969.34 2427.8
-424.11 974.83 2441.6
-419.51 978.86 2451.7
-408.82 968.60 2426.0
-401.31 965.65 2418.6
-497.31 951.11 2397.8
-482.52 934.51 2355.9
-486.42 954.12 2405.4
-470.90 935.69 2358.9
-452.74 911.43 2297.7
-465.82 950.28 2395.7
-443.90 930.37 2345.5
-419.19 890.79 2245.7
-412.69 889.33 2242.0
-417.19 911.86 2298.8
-416.31 923.13 2327.2
-418.53 941.68 2374.0
-424.00 968.25 2441.0
-496.79 943.90 2395.2
-470.96 906.14 2299.4
-463.54 903.30 2292.2
-466.92 921.72 2338.9
-466.65 933.29 2368.3
-456.07 924.31 2345.5
-436.83 897.27 2276.9
-427.46 890.06 2258.6
-419.73 886.09 2248.5
-412.06 894.75 2270.5
-422.58 930.91 2362.3
-488.41 933.54 2384.6
-475.96 921.41 2353.6
-474.27 930.05 2375.7
-461.63 917.19 2342.9
-438.83 883.50 2256.8
-425.92 881.01 2250.5
-419.17 917.31 2343.2
-485.83 946.42 2433.6
-459.31 906.54 2331.1
-447.22 894.45 2300.0
-446.90 905.88 2329.4
-441.05 906.26 2330.4
-426.44 888.42 2284.5
-405.71 881.98 2268.0
-411.66 908.07 2335.0
-423.50 948.14 2438.1
-422.85 961.02 2471.2
-418.93 966.75 2485.9
-476.72 922.48 2388.0
-463.14 907.99 2350.5
-464.02 921.85 2386.4
-464.90 936.08 2423.2
-460.37 939.66 2432.5
-449.96 931.17 2410.5
-436.11 915.21 2369.2
-427.47 909.90 2355.4
-422.19 911.68 2360.0
-417.04 913.81 2365.6
-418.90 931.59 2411.6
-419.90 947.96 2454.0
-417.89 957.92 2479.8
-497.39 943.76 2459.6
-482.98 928.33 2419.4
-480.71 936.13 2439.7
-466.91 921.37 2401.3
-453.83 907.66 2365.5
-463.37 939.43 2448.3
-437.32 911.61 2375.8
-416.78 893.96 2329.8
-420.32 914.81 2384.2
-417.50 922.23 2403.5
-414.10 928.60 2420.1
-412.80 939.92 2449.6
-496.69 936.07 2456.2
-478.98 914.42 2399.4
-480.57 929.53 2439.0
-470.34 921.87 2418.9
-446.80 887.56 2328.9
-446.52 899.15 2359.3
-456.73 932.50 2446.8
-435.15 900.94 2364.0
-415.15 897.45 2354.8
-413.20 906.58 2378.8
-407.19 906.93 2379.7
-403.97 913.60 2397.2
-410.93 943.85 2476.6
-506.39 947.87 2504.1
-481.40 912.79 2411.5
-474.99 912.49 2410.7
-467.33 909.75 2403.4
-446.46 880.86 2327.1
-439.57 879.14 2322.6
-443.36 899.03 2375.1
-439.58 903.93 2388.1
-430.89 898.71 2374.3
-416.82 881.96 2330.0
-414.35 902.92 2385.4
-417.65 923.88 2440.8
-409.29 919.34 2428.8
-410.66 936.82 2475.0
-528.49 957.89 2548.1
-484.27 923.94 2457.8
-457.52 884.53 2352.9
-452.84 887.33 2360.4
-462.26 918.19 2442.5
-451.82 909.91 2420.4
-434.69 887.74 2361.5
-434.43 899.89 2393.8
-427.57 898.52 2390.1
-416.10 914.15 2431.7
-421.17 939.52 2499.2
-415.30 940.91 2502.9
-495.57 938.97 2515.1
-473.84 909.78 2436.9
-473.38 921.18 2467.4
-468.06 923.29 2473.1
-444.78 889.57 2382.8
-433.69 879.59 2356.0
-437.47 899.94 2410.6
-438.34 914.79 2450.3
-422.05 893.76 2394.0
-405.05 883.74 2367.2
-413.41 915.85 2453.2
-410.42 923.45 2473.5
-407.79 932.09 2496.7
-526.56 953.14 2570.9
-508.20 931.71 2513.1
-504.85 937.59 2529.0
-498.88 938.68 2531.9
-486.97 928.48 2504.4
-473.42 914.85 2467.6
-455.34 891.96 2405.9
-441.36 876.58 2364.4
-437.79 881.74 2378.3
-436.83 892.37 2407.0
-432.41 896.16 2417.2
-426.80 897.54 2420.9
-416.83 889.66 2399.7
-407.76 883.47 2383.0
-403.76 888.27 2395.9
-402.46 899.25 2425.6
-401.31 910.92 2457.0
-402.84 929.12 2506.1
-531.31 943.08 2561.7
-514.91 925.53 2514.0
-503.40 916.44 2489.3
-495.87 914.47 2484.0
-486.38 908.75 2468.4
-479.64 908.13 2466.7
-470.79 903.42 2453.9
-460.43 895.63 2432.8
-453.79 894.98 2431.0
-441.21 882.42 2396.9
-431.31 874.94 2376.6
-435.91 897.10 2436.8
-438.58 915.86 2487.7
-422.00 894.39 2429.4
-407.30 876.31 2380.3
-400.34 874.60 2375.7
-396.02 878.68 2386.7
-393.16 886.17 2407.1
-393.18 900.50 2446.0
-395.93 921.66 2503.5
-525.62 926.41 2534.3
-503.80 899.19 2459.8
-502.87 909.04 2486.7
-506.41 927.32 2536.8
-487.32 904.10 2473.2
-471.41 886.25 2424.4
-472.42 900.15 2462.4
-471.83 911.34 2493.0
-463.83 908.34 2484.8
-450.26 894.17 2446.1
-436.70 879.64 2406.3
-437.76 894.55 2447.1
-416.20 889.16 2432.3
-401.30 870.50 2381.3
-396.19 872.86 2387.8
-393.18 879.97 2407.2
-386.33 878.59 2403.4
-382.44 884.00 2418.2
-385.27 905.38 2476.7
-520.88 911.54 2511.4
-503.45 892.19 2458.1
-506.64 909.35 2505.3
-507.93 923.50 2544.3
-487.89 898.75 2476.1
-469.45 876.31 2414.3
-467.12 883.74 2434.8
-470.29 901.92 2484.9
-466.80 907.67 2500.7
-451.30 889.89 2451.7
-436.21 872.43 2403.6
-431.15 874.80 2410.2
-435.37 896.35 2469.5
-435.58 910.17 2507.6
-421.30 893.67 2462.2
-403.03 868.07 2391.6
-394.51 863.00 2377.6
-399.27 887.26 2444.5
-399.64 902.42 2486.3
-387.90 890.26 2452.8
-383.70 895.30 2466.6
-385.26 914.18 2518.7
-617.33 986.31 2736.9
-536.29 920.30 2553.8
-525.32 912.74 2532.8
-518.42 912.16 2531.2
-502.00 894.58 2482.4
-483.41 872.66 2421.6
-483.91 885.04 2455.9
-485.49 899.77 2496.8
-472.47 887.47 2462.7
-465.40 886.18 2459.1
-460.95 889.89 2469.4
-444.84 870.88 2416.6
-438.08 869.90 2413.9
-440.46 887.30 2462.2
-438.50 896.35 2487.3
-432.87 898.04 2492.0
-422.60 890.02 2469.7
-408.68 873.95 2425.1
-394.99 857.86 2380.5
-394.27 869.91 2413.9
-399.82 896.37 2487.4
-393.51 896.69 2488.2
-381.98 884.93 2455.6
-376.32 886.58 2460.2
-376.93 903.33 2506.7
-373.03 909.68 2524.3
-360.38 894.53 2482.2
-354.06 894.82 2483.0
-354.53 912.58 2532.3
-603.80 980.29 2739.9
-529.55 891.19 2490.9
-531.67 905.81 2531.8
-500.43 896.87 2506.8
-488.67 887.32 2480.1
-486.77 895.66 2503.4
-470.71 877.82 2453.5
-461.92 873.21 2440.7
-455.61 873.25 2440.8
-445.37 865.64 2419.5
-443.82 874.96 2445.5
-440.31 880.63 2461.4
-432.63 877.99 2454.0
-435.64 897.28 2507.9
-421.55 894.98 2501.5
-409.97 883.99 2470.8
-394.14 863.35 2413.1
-385.03 857.00 2395.3
-389.56 881.30 2463.2
-388.23 892.94 2495.8
-377.62 883.25 2468.7
-373.17 887.88 2481.7
-372.92 902.86 2523.5
-364.06 897.15 2507.6
-354.08 888.43 2483.2
-350.76 896.40 2505.5
-346.43 902.02 2521.2
-340.37 903.30 2524.8
-337.64 913.60 2553.6
-332.81 918.56 2567.4
-626.78 975.78 2747.2
-528.39 882.80 2485.5
-522.39 883.54 2487.6
-533.06 912.86 2570.1
-503.96 896.66 2524.5
-484.31 873.04 2458.0
-473.82 865.52 2436.8
-467.53 865.56 2436.9
-467.73 877.79 2471.4
-453.54 862.99 2429.7
-436.49 842.25 2371.3
-434.57 850.51 2394.6
-430.86 855.47 2408.5
-424.29 854.82 2406.7
-426.94 872.99 2457.9
-423.59 879.28 2475.6
-411.53 867.38 2442.1
-406.13 869.36 2447.6
-396.43 862.08 2427.1
-384.89 850.48 2394.5
-386.63 868.33 2444.7
-388.11 886.19 2495.0
-380.35 883.18 2486.5
-368.56 870.56 2451.0
-360.95 867.54 2442.5
-359.61 879.76 2476.9
-357.03 889.34 2503.9
-353.53 896.92 2525.2
-349.15 902.51 2541.0
-343.80 905.78 2550.2
-332.59 911.31 2565.7
-320.81 896.95 2525.3
-315.63 900.86 2536.3
-627.27 958.52 2718.5
-610.88 954.94 2708.3
-604.98 956.71 2713.4
-529.99 889.85 2523.7
-522.73 888.63 2520.3
-524.20 902.43 2559.4
-509.18 887.81 2517.9
-491.78 868.60 2463.5
-483.60 865.39 2454.4
-481.95 873.94 2478.6
-483.74 889.04 2521.4
-468.27 872.40 2474.2
-429.70 846.95 2402.1
-429.55 859.10 2436.5
-425.18 863.04 2447.7
-414.53 854.19 2422.6
-404.95 847.29 2403.0
-401.81 853.85 2421.6
-395.83 854.49 2423.5
-387.74 850.53 2412.2
-381.18 849.85 2410.3
-375.50 851.14 2413.9
-374.08 862.30 2445.6
-368.15 863.25 2448.3
-357.78 853.66 2421.1
-353.52 858.56 2435.0
-350.52 866.75 2458.2
-346.88 873.62 2477.7
-345.19 885.76 2512.1
-342.81 896.59 2542.9
-337.44 899.83 2552.1
-324.97 883.93 2506.9
-314.28 872.30 2474.0
-309.59 877.17 2487.8
-309.96 896.91 2543.8
-629.88 955.44 2729.8
-609.06 945.09 2700.3
-604.21 948.47 2709.9
-561.10 912.62 2607.5
-540.51 900.85 2573.9
-525.82 887.33 2535.2
-519.11 887.08 2534.5
-512.77 887.49 2535.7
-503.83 883.34 2523.8
-483.25 858.40 2452.6
-469.51 845.13 2414.6
-474.50 865.65 2473.3
-463.37 856.91 2448.3
-422.72 827.05 2363.0
-425.95 845.63 2416.1
-424.22 854.77 2442.2
-419.80 858.69 2453.4
-415.64 863.26 2466.4
-404.45 853.14 2437.5
-390.51 836.80 2390.9
-381.00 829.60 2370.3
-363.09 830.81 2373.7
-366.34 852.68 2436.2
-364.70 863.76 2467.9
-355.84 857.83 2450.9
-348.27 854.84 2442.4
-343.88 859.70 2456.3
-341.48 869.80 2485.1
-337.03 874.98 2499.9
-329.91 873.28 2495.1
-328.39 886.66 2533.3
-328.23 904.30 2583.7
-320.92 902.59 2578.8
-636.26 936.91 2696.9
-636.69 947.97 2728.7
-631.22 950.38 2735.6
-623.18 948.93 2731.5
-609.53 938.82 2702.4
-568.42 906.77 2610.1
-552.17 891.45 2566.0
-539.87 882.22 2539.4
-536.84 888.11 2556.4
-534.31 894.96 2576.1
-519.70 881.52 2537.4
-505.66 868.70 2500.5
-498.48 867.48 2497.0
-480.33 846.90 2437.8
-461.85 836.33 2407.4
-456.86 838.63 2414.0
-425.21 825.78 2377.0
-435.32 857.83 2469.2
-432.81 865.62 2491.6
-427.95 868.87 2501.0
-421.00 867.91 2498.2
-407.71 853.64 2457.2
-391.58 832.88 2397.4
-380.25 821.83 2365.6
-363.95 826.60 2379.3
-367.19 848.33 2441.9
-369.41 868.44 2499.8
-364.41 871.98 2510.0
-352.55 858.93 2472.4
-343.76 853.03 2455.4
-340.20 860.13 2475.9
-334.77 862.68 2483.2
-332.40 873.36 2513.9
-617.30 943.68 2736.8
-562.01 889.84 2580.6
-547.61 877.49 2544.8
-534.18 866.41 2512.7
-529.66 869.69 2522.2
-523.56 870.42 2524.3
-506.04 851.94 2470.7
-494.04 842.40 2443.0
-487.92 842.78 2444.1
-486.93 852.12 2471.2
-484.71 859.55 2492.8
-477.20 857.68 2487.4
-464.44 846.17 2454.0
-447.50 826.63 2397.3
-429.55 827.97 2401.2
-435.16 851.13 2468.4
-429.58 852.75 2473.1
-430.04 866.60 2513.2
-411.90 855.99 2482.5
-393.41 830.53 2408.6
-385.05 826.00 2395.5
-381.49 831.78 2412.3
-375.08 831.43 2411.2
-371.97 838.50 2431.7
-366.35 840.08 2436.3
-360.02 840.04 2436.2
-358.85 852.27 2471.7
-350.69 848.03 2459.4
-342.59 843.78 2447.0
-339.83 852.77 2473.1
-334.53 855.62 2481.4
-332.29 866.56 2513.1
-329.15 875.55 2539.2
-320.16 869.01 2520.2
-313.13 867.64 2516.3
-312.30 883.75 2563.0
-638.97 926.86 2708.3
-633.78 929.55 2716.2
-633.04 938.89 2743.5
-626.66 940.00 2746.7
-565.79 878.64 2567.5
-551.74 867.02 2533.5
-542.84 863.31 2522.7
-535.37 861.82 2518.3
-525.98 857.15 2504.6
-515.10 849.92 2483.5
-504.14 842.36 2461.5
-497.99 842.75 2462.6
-488.48 837.40 2447.0
-483.45 839.68 2453.6
-482.73 849.61 2482.6
-476.68 850.29 2484.6
-473.96 857.03 2504.3
-466.63 855.48 2499.8
-455.19 846.27 2472.9
-447.95 844.70 2468.3
-437.39 836.74 2445.0
-429.58 833.89 2436.7
-424.89 837.09 2446.0
-425.74 851.48 2488.1
-413.93 853.73 2494.7
-399.06 836.13 2443.2
-393.77 838.36 2449.7
-389.63 843.14 2463.7
-382.66 841.84 2459.9
-377.99 845.66 2471.1
-370.30 842.75 2462.6
-359.47 832.45 2432.5
-354.23 834.98 2439.9
-347.75 834.61 2438.8
-341.28 834.24 2437.7
-341.12 849.59 2482.6
-338.21 858.53 2508.7
-332.67 861.04 2516.0
-326.37 861.62 2517.7
-320.89 864.44 2526.0
-317.24 872.41 2549.2
-311.40 874.58 2555.6
-309.35 887.69 2593.9
-295.84 887.53 2593.4
-289.51 888.72 2596.9
-644.25 927.43 2730.7
-624.77 909.39 2677.6
-610.46 908.75 2675.7
-582.93 887.95 2614.5
-569.08 877.05 2582.4
-551.55 860.16 2532.6
-539.46 851.44 2507.0
-535.58 855.63 2519.3
-529.30 856.03 2520.5
-520.89 852.96 2511.4
-511.76 848.62 2498.7
-506.45 850.58 2504.4
-497.96 847.18 2494.4
-483.82 833.96 2455.5
-474.23 828.32 2438.9
-473.65 838.49 2468.8
-476.80 855.62 2519.3
-468.55 852.50 2510.1
-456.23 841.77 2478.5
-453.37 848.46 2498.2
-447.58 849.75 2502.0
-438.80 845.34 2489.0
-433.01 846.62 2492.8
-425.75 845.05 2488.1
-418.67 843.79 2484.4
-410.84 840.93 2476.0
-400.90 833.62 2454.5
-392.72 829.79 2443.2
-385.94 828.82 2440.4
-377.12 823.39 2424.4
-370.54 822.72 2422.4
-373.41 843.38 2483.2
-372.50 856.09 2520.7
-359.82 841.72 2478.3
-345.75 823.51 2424.7
-336.81 817.08 2405.8
-334.29 826.27 2432.9
-334.80 843.44 2483.4
-332.56 854.22 2515.2
-327.23 857.35 2524.4
-322.57 862.39 2539.2
-321.35 877.01 2582.3
-306.78 873.67 2572.4
-294.60 857.60 2525.1
-288.13 857.83 2525.8
-286.17 871.81 2566.9
-635.35 907.64 2693.0
-603.87 882.06 2617.1
-595.92 890.45 2642.0
-576.96 872.15 2587.7
-571.55 874.14 2593.6
-562.48 870.50 2582.8
-542.67 849.96 2521.9
-530.46 840.97 2495.2
-531.07 852.33 2528.9
-528.81 859.31 2549.6
-516.34 849.68 2521.0
-507.22 845.36 2508.2
-498.52 841.66 2497.2
-484.38 828.54 2458.3
-479.30 830.79 2465.0
-482.95 848.43 2517.3
-473.81 843.77 2503.5
-454.28 820.22 2433.6
-448.15 820.57 2434.6
-450.84 837.27 2484.2
-439.90 828.80 2459.1
-426.28 814.95 2418.0
-424.73 824.10 2445.1
-421.43 830.10 2462.9
-409.06 818.12 2427.4
-395.93 804.23 2386.2
-387.90 800.43 2374.9
-381.43 799.78 2373.0
-377.94 805.44 2389.8
-372.60 807.30 2395.3
-366.09 806.64 2393.3
-368.76 826.52 2452.3
-372.65 849.89 2521.7
-364.32 845.75 2509.4
-355.52 840.33 2493.3
-351.80 846.93 2512.9
-337.52 827.88 2456.4
-326.31 815.79 2420.5
-327.35 834.42 2475.7
-325.41 846.08 2510.3
-319.60 847.91 2515.8
-317.26 859.26 2549.5
-314.30 869.34 2579.4
-303.43 857.52 2544.3
-292.52 845.05 2507.3
-287.06 848.14 2516.4
-283.34 856.61 2541.6
-282.47 874.30 2594.1
-630.80 894.21 2673.7
-617.93 885.70 2648.3
-590.72 875.89 2618.9
-567.05 850.57 2543.2
-556.85 845.09 2526.9
-556.83 855.14 2556.9
-545.67 848.09 2535.8
-534.42 840.73 2513.8
-536.35 854.19 2554.1
-532.29 858.32 2566.4
-517.88 845.64 2528.5
-508.35 840.74 2513.8
-499.09 836.13 2500.1
-483.82 821.23 2455.5
-477.12 820.65 2453.8
-474.37 826.94 2472.6
-459.33 811.69 2427.0
-438.01 795.81 2379.5
-440.83 812.40 2429.1
-430.37 804.60 2405.8
-418.03 793.03 2371.2
-417.90 804.61 2405.8
-421.12 823.09 2461.1
-415.05 823.72 2462.9
-396.23 798.65 2388.0
-381.27 793.29 2372.0
-382.08 808.01 2416.0
-375.81 807.98 2415.9
-368.81 806.38 2411.1
-367.49 817.34 2443.9
-367.66 832.07 2487.9
-363.65 837.69 2504.7
-358.88 841.74 2516.8
-345.92 841.96 2517.5
-326.69 810.45 2423.3
-319.64 808.49 2417.4
-321.52 829.51 2480.3
-319.25 840.47 2513.0
-314.23 844.49 2525.0
-308.57 846.93 2532.4
-298.04 835.82 2499.1
-287.58 824.38 2464.9
-286.53 840.06 2511.8
-287.03 861.09 2574.7
-281.76 865.41 2587.6
-641.40 892.38 2689.1
-628.21 883.63 2662.7
-616.01 876.10 2640.0
-609.48 876.55 2641.4
-601.25 874.54 2635.3
-586.97 863.59 2602.3
-566.64 843.37 2541.4
-561.15 845.03 2546.4
-565.75 862.10 2597.8
-553.08 852.95 2570.3
-540.35 843.48 2541.7
-536.56 847.89 2555.0
-526.51 842.42 2538.5
-518.07 839.41 2529.5
-514.20 843.82 2542.7
-504.49 838.63 2527.1
-489.33 824.14 2483.5
-475.31 811.19 2444.4
-464.87 804.10 2423.1
-460.38 807.24 2432.5
-452.87 805.10 2426.1
-440.40 793.96 2392.5
-434.72 794.91 2395.4
-431.53 800.52 2412.3
-426.93 803.63 2421.7
-421.96 806.13 2429.2
-420.63 815.77 2458.2
-418.84 824.80 2485.4
-404.62 809.24 2438.6
-391.10 794.61 2394.5
-388.95 803.00 2419.7
-386.82 811.70 2446.0
-378.14 806.69 2430.9
-369.38 801.37 2414.8
-366.64 809.13 2438.2
-362.10 813.15 2450.3
-353.69 808.43 2436.1
-347.62 809.01 2437.9
-345.10 818.01 2465.0
-344.89 832.95 2510.0
-336.84 829.15 2498.6
-327.35 821.59 2475.8
-326.40 835.59 2518.0
-319.25 833.96 2513.1
-309.31 824.82 2485.5
-308.35 839.76 2530.5
-302.55 841.87 2536.9
-290.88 827.39 2493.2
-288.37 838.88 2527.9
-292.20 869.79 2621.0
-644.49 880.10 2673.0
-633.26 874.17 2655.0
-615.11 858.46 2607.2
-603.70 851.88 2587.3
-597.08 852.02 2587.7
-590.25 851.84 2587.1
-577.77 843.41 2561.5
-558.57 824.86 2505.2
-554.39 828.33 2515.7
-566.57 856.61 2601.6
-562.10 860.09 2612.2
-538.38 833.83 2532.4
-523.26 820.43 2491.7
-523.81 831.55 2525.5
-525.14 844.22 2564.0
-518.17 843.68 2562.4
-505.24 833.31 2530.9
-487.49 814.62 2474.1
-471.48 798.38 2424.8
-464.86 797.80 2423.0
-464.09 807.38 2452.1
-465.78 821.58 2495.3
-461.74 825.93 2508.5
-443.71 805.01 2444.9
-428.50 788.69 2395.4
-423.78 791.48 2403.8
-419.18 794.57 2413.2
-413.41 795.50 2416.0
-407.30 795.81 2417.0
-400.88 795.49 2416.0
-394.61 795.48 2416.0
-391.81 802.58 2437.5
-389.05 809.99 2460.0
-380.32 805.02 2444.9
-371.53 799.73 2428.9
-370.59 811.46 2464.5
-367.80 819.48 2488.9
-357.37 810.47 2461.5
-349.49 807.01 2451.0
-344.04 809.14 2457.4
-341.01 817.15 2481.8
-338.24 826.09 2508.9
-333.71 831.00 2523.8
-326.90 830.32 2521.8
-314.10 814.11 2472.5
-305.44 808.13 2454.4
-305.60 825.76 2507.9
-303.90 839.04 2548.3
-296.61 837.09 2542.4
-289.02 834.21 2533.6
-287.15 848.11 2575.8
-278.66 863.16 2621.5
-634.82 869.43 2661.5
-616.66 853.83 2613.8
-604.79 846.70 2591.9
-597.73 846.23 2590.5
-590.05 844.84 2586.3
-581.13 841.63 2576.4
-566.03 829.29 2538.7
-547.53 821.30 2514.2
-554.70 842.08 2577.8
-542.14 833.05 2550.2
-523.65 814.57 2493.6
-520.52 819.82 2509.7
-518.65 827.22 2532.3
-507.98 820.58 2512.0
-506.17 828.28 2535.5
-498.90 827.12 2532.0
-482.19 810.08 2479.9
-475.25 809.22 2477.2
-466.73 805.59 2466.1
-461.23 807.16 2470.9
-462.43 820.65 2512.2
-449.82 809.67 2478.6
-431.67 788.27 2413.1
-423.93 785.53 2404.7
-420.47 790.74 2420.6
-416.13 794.42 2431.9
-409.98 794.73 2432.9
-403.83 795.04 2433.8
-398.59 797.18 2440.3
-396.49 805.76 2466.6
-389.64 804.83 2463.8
-376.66 790.99 2421.4
-367.78 785.43 2404.4
-366.77 796.77 2439.1
-372.81 824.10 2522.8
-355.94 815.42 2496.2
-343.64 801.83 2454.6
-338.03 803.63 2460.1
-333.03 806.96 2470.3
-323.24 798.58 2444.6
-307.08 806.08 2467.6
-301.34 807.85 2473.0
-293.77 804.68 2463.3
-293.64 822.18 2516.9
-293.33 840.00 2571.4
-283.90 831.88 2546.6
-275.41 826.22 2529.3
-271.43 834.15 2553.5
-269.68 849.50 2600.5
-637.94 866.77 2674.6
-616.67 847.07 2613.8
-598.73 831.56 2566.0
-584.88 821.46 2534.8
-586.45 833.03 2570.5
-587.00 843.40 2602.5
-571.21 830.25 2561.9
-552.54 812.56 2507.3
-551.38 820.51 2531.9
-558.32 840.84 2594.6
-548.88 836.71 2581.9
-533.63 823.51 2541.1
-524.58 819.66 2529.2
-516.36 817.02 2521.1
-503.25 806.50 2488.6
-498.33 808.98 2496.3
-495.95 815.71 2517.0
-483.82 806.37 2488.2
-481.89 814.00 2511.8
-478.06 818.60 2526.0
-461.93 801.95 2474.6
-453.29 798.04 2462.5
-447.60 799.29 2466.4
-436.02 789.89 2437.4
-425.57 782.30 2414.0
-419.48 782.62 2414.9
-419.17 793.88 2449.7
-417.25 802.41 2476.0
-409.27 799.36 2466.6
-401.96 797.53 2461.0
-396.78 799.96 2468.5
-387.10 793.24 2447.7
-374.01 779.19 2404.4
-364.74 772.76 2384.5
-359.30 787.95 2431.4
-359.14 801.65 2473.7
-345.72 785.72 2424.5
-340.20 787.51 2430.0
-341.53 805.49 2485.5
-336.33 808.50 2494.8
-326.22 799.57 2467.2
-308.94 788.11 2431.9
-306.84 799.06 2465.7
-299.03 795.30 2454.1
-293.88 798.59 2464.2
-295.95 822.09 2536.7
-294.42 836.41 2580.9
-284.00 825.59 2547.5
-278.81 829.79 2560.5
-278.18 848.10 2617.0
-269.20 841.25 2595.8
-262.34 840.83 2594.6
-649.24 865.66 2692.7
-628.43 847.02 2634.7
-613.17 835.53 2599.0
-600.68 827.60 2574.3
-584.23 813.98 2532.0
-583.48 822.17 2557.5
-586.17 835.46 2598.8
-572.04 824.80 2565.6
-563.41 821.92 2556.7
-571.68 843.90 2625.0
-552.66 835.72 2599.6
-538.92 825.02 2566.3
-531.55 823.91 2562.8
-526.68 826.69 2571.5
-516.48 821.06 2554.0
-496.08 798.89 2485.0
-472.71 781.55 2431.1
-476.13 797.85 2481.8
-475.93 808.43 2514.7
-463.49 798.23 2483.0
-455.86 796.16 2476.5
-450.82 798.60 2484.1
-441.54 793.50 2468.3
-433.50 790.50 2458.9
-428.28 792.63 2465.6
-429.12 806.23 2507.9
-421.52 804.13 2501.3
-407.70 789.93 2457.1
-395.49 778.43 2421.4
-385.58 771.16 2398.8
-388.28 789.30 2455.2
-387.48 800.78 2490.9
-375.68 789.56 2456.0
-366.89 784.38 2439.9
-358.18 779.19 2423.8
-348.59 771.88 2401.0
-345.30 778.50 2421.6
-349.97 803.63 2499.8
-349.69 818.15 2544.9
-342.70 817.20 2542.0
-337.08 819.57 2549.4
-328.49 814.66 2534.1
-314.93 796.97 2479.1
-304.24 785.96 2444.8
-298.57 787.71 2450.2
-295.23 795.83 2475.5
-294.08 810.35 2520.7
-289.45 815.74 2537.4
-283.06 816.25 2539.0
-282.01 832.60 2589.9
-264.59 820.22 2551.4
-259.37 824.68 2565.2
-652.49 853.80 2677.4
-638.29 844.19 2647.3
-625.78 836.64 2623.6
-618.21 835.61 2620.4
-605.01 826.85 2592.9
-587.65 812.15 2546.8
-576.46 805.74 2526.7
-568.94 804.37 2522.4
-570.79 816.37 2560.0
-577.38 835.50 2620.1
-569.45 833.84 2614.8
-551.50 817.28 2562.9
-539.56 809.34 2538.0
-531.27 806.74 2529.9
-524.38 806.23 2528.2
-519.79 809.29 2537.8
-518.55 817.72 2564.3
-507.65 810.93 2543.0
-489.11 791.59 2482.3
-481.07 788.95 2474.1
-475.22 789.90 2477.0
-466.17 785.46 2463.1
-462.60 790.28 2478.2
-463.45 802.88 2517.8
-463.25 814.00 2552.6
-446.08 806.87 2530.3
-436.75 801.80 2514.4
-429.12 799.72 2507.8
-413.59 782.63 2454.2
-400.82 770.33 2415.7
-387.23 780.80 2448.5
-391.57 802.72 2517.3
-384.89 802.41 2516.3
-378.64 802.99 2518.1
-372.66 804.17 2521.8
-359.12 788.79 2473.6
-352.15 787.55 2469.7
-351.02 799.55 2507.3
-345.15 801.01 2511.9
-340.78 806.08 2527.8
-337.83 814.77 2555.0
-328.74 808.69 2536.0
-314.45 789.32 2475.2
-302.82 775.98 2433.4
-296.14 774.99 2430.3
-293.30 784.27 2459.4
-292.64 799.88 2508.3
-285.24 797.38 2500.5
-276.30 790.34 2478.4
-272.83 799.00 2505.6
-265.69 797.08 2499.6
-258.49 794.86 2492.6
-259.38 818.03 2565.3
-650.92 844.81 2670.9
-637.62 836.45 2644.5
-626.01 830.14 2624.6
-619.53 830.58 2626.0
-607.40 823.36 2603.1
-589.58 808.18 2555.1
-577.09 800.05 2529.4
-565.15 792.50 2505.6
-562.47 797.92 2522.7
-564.84 810.71 2563.1
-552.58 802.55 2537.3
-540.64 794.67 2512.4
-534.38 795.06 2513.6
-531.06 799.87 2528.9
-528.64 806.17 2548.8
-518.05 800.03 2529.4
-511.73 800.40 2530.6
-504.10 798.70 2525.2
-488.36 783.94 2478.5
-482.33 784.59 2480.5
-478.63 789.09 2494.8
-470.59 786.46 2486.5
-468.20 793.33 2508.2
-462.23 794.26 2511.1
-455.57 794.00 2510.3
-454.46 803.54 2540.5
-445.07 798.52 2524.6
-435.44 792.89 2506.8
-427.82 790.82 2500.2
-413.25 775.64 2452.3
-401.58 765.52 2420.3
-392.84 760.74 2405.2
-388.42 764.30 2416.4
-386.32 772.64 2442.8
-383.20 779.18 2463.4
-383.73 793.48 2508.7
-377.26 807.47 2552.9
-361.31 787.13 2488.6
-350.39 777.24 2457.3
-345.85 781.38 2470.4
-339.04 780.43 2467.4
-333.77 783.07 2475.7
-335.71 803.06 2538.9
-331.55 808.99 2557.7
-317.92 791.57 2502.6
-306.93 780.12 2466.4
-297.28 771.66 2439.7
-291.60 773.37 2445.1
-293.74 796.36 2517.8
-289.45 802.57 2537.4
-277.66 787.79 2490.7
-271.07 787.39 2489.4
-268.11 797.79 2522.3
-265.37 809.39 2559.0
-261.39 817.69 2585.2
-257.37 826.29 2612.4
-659.53 848.97 2706.3
-642.11 835.43 2663.1
-634.22 834.13 2659.0
-631.39 839.54 2676.2
-619.35 832.68 2654.3
-602.04 818.50 2609.1
-593.03 815.41 2599.3
-584.06 812.32 2589.4
-572.65 805.70 2568.4
-566.48 806.40 2570.6
-553.78 797.71 2542.9
-541.63 789.60 2517.0
-540.53 797.61 2542.6
-541.27 808.56 2577.5
-539.88 816.58 2603.0
-530.70 812.85 2591.1
-516.84 801.76 2555.8
-502.02 788.90 2514.8
-489.63 779.54 2485.0
-486.69 785.19 2503.0
-485.99 794.66 2533.2
-481.23 797.66 2542.7
-478.35 803.90 2562.6
-471.74 803.94 2562.7
-454.88 786.29 2506.5
-444.19 778.94 2483.1
-442.08 786.64 2507.6
-439.35 793.45 2529.3
-439.09 804.99 2566.1
-431.65 803.53 2561.4
-413.45 781.67 2491.7
-398.98 766.29 2442.7
-392.49 765.99 2441.7
-388.69 771.00 2457.7
-385.24 776.91 2476.6
-385.75 791.11 2521.8
-375.44 796.99 2540.6
-361.71 781.55 2491.4
-353.08 776.77 2476.1
-346.64 776.72 2476.0
-337.73 771.04 2457.9
-330.31 768.61 2450.1
-330.19 783.40 2497.3
-331.06 801.16 2553.9
-322.25 795.76 2536.7
-312.70 788.26 2512.8
-304.66 784.33 2500.2
-293.96 773.24 2464.9
-291.08 782.68 2495.0
-290.75 799.55 2548.8
-282.84 795.89 2537.1
-272.92 786.27 2506.4
-266.39 786.17 2506.1
-262.12 792.92 2527.6
-256.30 795.20 2534.9
-254.47 810.28 2583.0
-251.66 822.99 2623.4
-649.96 838.66 2695.7
-641.32 836.51 2688.8
-630.95 832.03 2674.4
-611.95 815.94 2622.7
-594.07 800.99 2574.6
-584.50 797.05 2561.9
-585.11 807.04 2594.1
-583.25 813.84 2615.9
-576.35 813.67 2615.4
-562.73 803.89 2583.9
-549.46 794.40 2553.4
-547.28 800.90 2574.3
-543.42 805.07 2587.7
-537.35 806.03 2590.8
-528.39 802.62 2579.8
-514.74 791.91 2545.4
-502.19 782.64 2515.6
-491.46 775.99 2494.2
-482.65 772.25 2482.2
-476.43 772.59 2483.3
-475.17 781.11 2510.7
-475.54 792.56 2547.5
-464.77 796.74 2561.0
-451.08 784.48 2521.5
-446.05 787.14 2530.1
-439.83 787.75 2532.1
-436.18 793.05 2549.1
-429.58 793.07 2549.1
-412.18 772.83 2484.1
-403.58 768.72 2470.9
-403.69 781.34 2511.5
-396.28 779.58 2505.8
-389.05 778.10 2501.0
-381.40 775.73 2493.4
-373.36 772.47 2482.9
-367.61 773.92 2487.6
-357.99 767.12 2465.7
-349.96 763.55 2454.3
-344.24 764.97 2458.8
-337.71 764.63 2457.7
-332.72 767.82 2468.0
-326.17 767.47 2466.9
-320.86 770.06 2475.2
-317.91 778.55 2502.5
-314.46 786.15 2526.9
-308.58 787.85 2532.4
-299.83 782.17 2514.1
-289.08 770.87 2477.8
-281.00 766.35 2463.3
-276.59 771.87 2481.0
-269.92 771.19 2478.8
-265.98 778.47 2502.2
-264.38 793.15 2549.4
-252.17 775.89 2493.9
-243.98 770.46 2476.5
-250.56 812.64 2612.1
-661.36 837.25 2713.8
-640.31 819.32 2655.7
-630.21 815.17 2642.2
-618.42 808.70 2621.2
-605.64 800.78 2595.6
-593.19 793.14 2570.8
-587.68 794.71 2575.9
-592.26 810.10 2625.8
-589.08 815.12 2642.1
-580.46 812.65 2634.0
-568.22 804.97 2609.2
-556.29 797.57 2585.2
-551.45 800.27 2593.9
-545.38 801.23 2597.0
-541.82 805.95 2612.3
-535.29 806.33 2613.6
-516.05 787.31 2551.9
-498.05 769.72 2494.9
-474.42 762.92 2472.9
-481.03 784.14 2541.6
-468.32 774.03 2508.9
-455.61 763.62 2475.1
-457.92 778.46 2523.2
-456.28 786.92 2550.7
-448.03 784.05 2541.3
-438.83 779.42 2526.3
-434.07 782.64 2536.8
-426.39 780.62 2530.2
-410.59 763.45 2474.6
-403.71 762.57 2471.7
-402.77 773.06 2505.7
-394.78 770.14 2496.2
-388.30 770.12 2496.2
-381.53 769.52 2494.3
-369.79 758.71 2459.2
-360.60 752.84 2440.2
-359.62 764.19 2477.0
-360.07 779.05 2525.1
-353.77 779.60 2526.9
-346.68 778.39 2523.0
-338.58 774.84 2511.5
-329.04 767.76 2488.6
-322.57 767.71 2488.4
-318.86 774.37 2510.0
-317.29 786.60 2549.6
-313.43 793.57 2572.2
-303.22 784.42 2542.5
-290.95 769.40 2493.8
-266.90 756.22 2451.1
-266.68 774.01 2508.8
-265.66 790.34 2561.7
-254.46 776.44 2516.7
-245.47 768.70 2491.6
-251.20 807.92 2618.7
-652.97 819.68 2679.3
-634.24 804.73 2630.5
-625.98 802.89 2624.5
-621.05 805.31 2632.4
-614.77 806.03 2634.7
-607.82 805.88 2634.2
-607.27 814.30 2661.8
-593.25 813.99 2660.7
-577.57 801.80 2620.9
-559.03 785.30 2567.0
-542.37 771.08 2520.5
-532.91 766.87 2506.7
-538.87 785.02 2566.0
-547.45 807.49 2639.5
-529.51 801.06 2618.5
-507.59 777.87 2542.7
-490.49 761.54 2489.3
-474.40 756.47 2472.7
-488.49 789.62 2581.1
-482.54 790.82 2585.0
-458.70 762.35 2491.9
-450.38 759.21 2481.7
-449.36 768.46 2511.9
-441.20 765.60 2502.6
-435.70 767.36 2508.3
-434.54 776.90 2539.5
-424.94 771.43 2521.6
-407.75 751.79 2457.4
-398.45 746.30 2439.5
-395.31 752.36 2459.3
-388.78 752.06 2458.3
-384.31 755.80 2470.5
-383.39 766.79 2506.4
-377.31 767.63 2509.2
-368.98 763.85 2496.8
-369.09 777.72 2542.2
-358.80 784.04 2562.8
-348.36 775.59 2535.2
-336.78 764.23 2498.1
-329.15 761.57 2489.4
-324.77 766.45 2505.3
-317.40 764.35 2498.5
-312.43 768.06 2510.6
-311.57 782.23 2556.9
-304.23 780.42 2551.0
-291.16 763.48 2495.6
-268.13 753.32 2462.4
-266.06 765.73 2503.0
-263.19 776.40 2537.9
-256.67 776.59 2538.5
-252.02 782.60 2558.1
-252.57 805.50 2633.0
-662.30 815.67 2689.0
-651.60 811.03 2673.7
-650.86 818.83 2699.4
-636.20 809.08 2667.3
-625.00 803.57 2649.1
-614.32 798.61 2632.8
-603.28 793.08 2614.6
-595.32 791.51 2609.4
-584.64 786.24 2592.0
-576.75 784.65 2586.8
-563.73 775.96 2558.1
-550.24 766.40 2526.6
-538.85 778.34 2565.9
-545.88 798.35 2631.9
-526.27 789.41 2602.5
-504.00 765.82 2524.7
-497.87 766.46 2526.8
-492.82 768.80 2534.5
-481.05 760.58 2507.4
-484.91 777.19 2562.2
-472.73 779.00 2568.1
-454.97 760.45 2507.0
-444.95 754.47 2487.3
-436.85 751.64 2477.9
-430.93 752.51 2480.8
-425.47 754.24 2486.5
-412.02 741.64 2445.0
-404.43 739.35 2437.4
-404.90 751.97 2479.0
-400.76 756.27 2493.2
-393.39 754.54 2487.5
-387.97 756.53 2494.1
-386.27 766.00 2525.3
-381.99 770.58 2540.4
-375.40 770.56 2540.3
-362.88 758.17 2499.5
-349.22 742.89 2449.1
-347.23 752.34 2480.2
-343.39 758.05 2499.1
-338.43 761.46 2510.3
-337.04 773.22 2549.1
-327.34 765.97 2525.2
-315.09 752.36 2480.3
-310.29 756.33 2493.4
-309.70 770.97 2541.6
-303.65 772.34 2546.2
-292.25 759.86 2505.0
-282.69 751.70 2478.1
-278.35 757.38 2496.9
-274.02 763.35 2516.5
-269.49 769.03 2535.3
-268.41 785.11 2588.3
-263.59 790.78 2607.0
-254.93 784.90 2587.6
-251.02 793.75 2616.8
-659.99 805.88 2679.7
-654.77 808.01 2686.7
-650.41 811.26 2697.5
-632.85 797.94 2653.3
-623.00 794.16 2640.7
-613.65 790.92 2629.9
-600.24 782.34 2601.4
-589.75 777.40 2585.0
-576.81 769.08 2557.3
-565.46 762.71 2536.1
-555.86 758.58 2522.4
-547.15 764.70 2542.7
-552.40 781.44 2598.4
-539.42 772.50 2568.7
-526.19 762.98 2537.0
-529.10 776.91 2583.3
-520.36 773.87 2573.2
-507.92 765.18 2544.3
-510.08 778.55 2588.8
-502.32 776.91 2583.3
-487.53 764.23 2541.2
-483.11 767.68 2552.6
-478.46 770.85 2563.2
-472.01 771.18 2564.3
-462.82 766.96 2550.2
-448.47 753.94 2506.9
-436.15 744.03 2474.0
-429.75 744.04 2474.0
-423.34 744.06 2474.1
-412.63 736.39 2448.6
-407.85 739.23 2458.0
-409.98 754.88 2510.1
-407.88 763.14 2537.5
-400.11 760.86 2529.9
-394.43 762.56 2535.6
-393.06 772.81 2569.7
-378.04 769.35 2558.2
-361.49 748.79 2489.8
-344.02 739.02 2457.3
-345.46 756.10 2514.1
-345.96 771.77 2566.2
-333.60 773.96 2573.5
-322.32 763.04 2537.2
-318.56 769.84 2559.8
-313.05 772.64 2569.1
-302.39 762.56 2535.6
-291.68 751.89 2500.1
-283.00 746.09 2480.8
-277.91 749.72 2492.9
-272.77 753.35 2505.0
-265.02 749.82 2493.2
-260.99 756.88 2516.7
-260.70 775.41 2578.3
-256.42 782.76 2602.8
-249.27 781.51 2598.6
-243.39 784.26 2607.8
-238.93 791.89 2633.1
-659.08 806.32 2704.4
-648.60 802.03 2690.0
-637.74 797.17 2673.7
-634.67 802.06 2690.1
-619.30 791.33 2654.1
-600.22 775.57 2601.3
-594.64 777.09 2606.4
-586.71 775.53 2601.2
-567.10 758.33 2543.5
-558.03 773.17 2593.3
-556.37 780.27 2617.1
-536.43 761.60 2554.4
-522.46 751.04 2519.0
-525.23 764.57 2564.4
-524.34 773.06 2592.9
-519.54 775.94 2602.5
-518.04 783.88 2629.2
-506.51 776.65 2604.9
-485.69 754.79 2531.6
-475.59 749.22 2512.9
-475.27 759.11 2546.1
-473.04 766.18 2569.8
-462.29 759.47 2547.3
-446.41 744.02 2495.5
-439.79 743.76 2494.6
-438.91 753.36 2526.8
-433.35 755.07 2532.5
-423.12 748.60 2510.8
-413.16 742.40 2490.0
-410.42 749.18 2512.8
-406.80 754.54 2530.8
-397.69 749.74 2514.6
-393.52 754.25 2529.8
-393.63 767.24 2573.4
-387.52 768.36 2577.1
-374.66 755.90 2535.3
-363.39 746.25 2503.0
-354.32 740.84 2484.8
-348.12 741.37 2486.6
-346.36 751.53 2520.6
-340.70 753.47 2527.2
-332.87 750.58 2517.5
-329.65 758.19 2543.0
-325.45 763.80 2561.8
-314.04 752.40 2523.6
-301.21 737.01 2471.9
-296.02 740.05 2482.2
-290.67 742.81 2491.4
-283.41 740.74 2484.5
-280.02 748.89 2511.8
-273.48 748.80 2511.5
-264.40 741.60 2487.4
-259.00 744.63 2497.5
-257.41 759.03 2545.8
-255.57 773.43 2594.1
-250.55 778.73 2611.9
-244.45 780.90 2619.2
-239.88 788.18 2643.6
-660.88 801.50 2711.8
-633.11 793.13 2683.5
-603.12 763.96 2584.8
-592.63 759.10 2568.4
-596.32 772.51 2613.8
-589.64 772.63 2614.2
-572.08 758.34 2565.8
-558.06 748.46 2532.4
-560.16 760.21 2572.1
-563.06 773.36 2616.6
-554.55 770.96 2608.5
-543.11 764.38 2586.3
-537.25 765.58 2590.3
-530.79 765.95 2591.5
-521.46 762.13 2578.6
-510.69 756.08 2558.2
-503.73 755.59 2556.5
-502.82 764.29 2585.9
-492.18 758.22 2565.4
-481.63 752.14 2544.8
-481.06 761.67 2577.1
-474.23 761.44 2576.3
-459.35 748.08 2531.1
-448.41 740.85 2506.6
-446.59 748.70 2533.2
-445.30 757.67 2563.5
-439.80 759.65 2570.2
-435.38 763.59 2583.6
-415.81 752.42 2545.8
-399.46 734.49 2485.1
-396.46 740.93 2506.9
-398.52 757.18 2561.9
-389.55 752.69 2546.7
-374.66 736.40 2491.6
-368.19 736.38 2491.5
-363.37 739.72 2502.8
-353.61 732.94 2479.9
-346.77 732.06 2476.9
-346.20 744.67 2519.5
-341.83 749.40 2535.6
-335.74 750.48 2539.2
-333.95 761.40 2576.2
-325.43 757.13 2561.7
-309.88 735.96 2490.1
-300.72 729.42 2468.0
-299.07 741.17 2507.7
-293.20 742.78 2513.2
-285.57 739.89 2503.4
-281.39 746.00 2524.1
-274.08 743.94 2517.1
-265.90 739.34 2501.5
-261.36 744.88 2520.3
-259.62 758.88 2567.6
-257.25 771.76 2611.2
-252.92 779.27 2636.6
-247.57 783.97 2652.5
-241.18 785.55 2657.9
-625.59 776.83 2651.6
-597.41 750.08 2560.3
-592.23 760.48 2595.8
-585.59 760.60 2596.2
-582.30 765.11 2611.6
-581.82 773.48 2640.2
-569.94 766.71 2617.1
-559.19 761.31 2598.6
-558.32 769.39 2626.2
-554.35 773.35 2639.7
-544.06 768.48 2623.1
-533.27 762.77 2603.7
-517.62 749.88 2559.7
-501.06 735.32 2509.9
-496.26 737.87 2518.6
-497.48 749.53 2558.4
-491.97 751.25 2564.3
-486.25 752.69 2569.2
-479.62 752.74 2569.4
-467.59 744.20 2540.2
-453.31 731.77 2497.8
-442.79 725.15 2475.2
-444.90 739.31 2523.6
-447.41 754.59 2575.7
-436.86 747.95 2553.1
-428.17 744.36 2540.8
-428.83 757.15 2584.4
-417.80 749.38 2557.9
-402.17 732.99 2502.0
-400.34 741.61 2531.4
-398.20 749.94 2559.9
-385.31 737.97 2519.0
-373.20 727.10 2481.9
-369.00 731.53 2497.0
-366.66 739.86 2525.4
-359.28 738.16 2519.6
-347.94 728.09 2485.3
-342.65 730.56 2493.7
-346.05 751.98 2566.8
-326.75 753.52 2572.1
-311.04 732.24 2499.4
-301.40 724.64 2473.5
-297.91 731.83 2498.0
-290.18 728.68 2487.3
-280.44 720.21 2458.4
-273.92 719.84 2457.1
-273.55 735.97 2512.2
-272.89 752.10 2567.2
-262.43 741.38 2530.6
-254.68 737.92 2518.8
-251.97 749.29 2557.6
-247.05 754.50 2575.4
-245.33 770.07 2628.6
-242.91 784.24 2676.9
-235.26 781.89 2668.9
-642.59 782.28 2694.1
-626.66 771.28 2656.2
-605.89 754.00 2596.7
-601.86 757.40 2608.4
-608.68 774.68 2667.9
-593.39 763.91 2630.8
-581.43 757.21 2607.7
-580.55 764.96 2634.4
-568.07 757.43 2608.5
-556.53 750.98 2586.3
-554.49 757.36 2608.2
-547.40 756.90 2606.7
-534.26 747.97 2575.9
-528.41 749.14 2580.0
-517.39 742.93 2558.5
-501.77 729.85 2513.5
-497.90 733.75 2526.9
-499.83 746.41 2570.6
-494.84 748.94 2579.3
-483.54 741.86 2554.9
-471.65 733.68 2526.7
-457.29 721.36 2484.3
-440.86 726.12 2500.7
-441.30 737.69 2540.5
-428.72 727.53 2505.5
-417.28 719.01 2476.2
-415.27 726.72 2502.7
-411.11 730.86 2517.0
-402.30 726.73 2502.8
-393.55 722.59 2488.5
-384.58 717.89 2472.3
-385.72 732.22 2521.7
-386.61 746.55 2571.0
-373.47 733.84 2527.2
-362.76 725.53 2498.6
-360.07 733.23 2525.2
-352.84 731.82 2520.3
-343.41 725.70 2499.2
-342.56 737.82 2541.0
-327.58 748.74 2578.6
-312.92 730.14 2514.5
-301.37 718.16 2473.3
-295.61 719.75 2478.7
-291.83 726.33 2501.4
-285.42 726.53 2502.1
-276.45 720.07 2479.8
-273.63 729.68 2512.9
-272.57 744.57 2564.2
-261.82 733.10 2524.7
-254.57 731.06 2517.7
-252.24 743.45 2560.3
-244.83 741.12 2552.3
-240.50 748.23 2576.8
-242.29 775.34 2670.2
-648.06 773.49 2687.8
-626.92 756.39 2628.4
-612.26 746.82 2595.1
-604.11 745.06 2589.0
-612.21 763.55 2653.3
-598.23 763.26 2652.3
-582.02 751.22 2610.4
-576.79 753.22 2617.4
-566.60 748.73 2601.8
-557.10 745.04 2588.9
-551.66 746.76 2594.9
-541.44 741.97 2578.3
-530.32 735.82 2556.9
-526.45 739.69 2570.4
-519.46 739.23 2568.7
-507.76 731.97 2543.5
-502.51 733.93 2550.3
-503.29 744.87 2588.3
-493.90 740.85 2574.4
-478.49 727.57 2528.2
-468.26 721.90 2508.5
-455.16 711.59 2472.7
-442.03 711.10 2471.0
-438.31 715.48 2486.2
-429.08 710.86 2470.2
-426.74 717.70 2493.9
-425.56 726.72 2525.3
-417.91 724.82 2518.7
-408.13 719.09 2498.8
-401.50 718.81 2497.8
-394.42 717.71 2494.0
-384.40 711.14 2471.1
-384.53 723.43 2513.9
-388.01 742.58 2580.4
-377.24 734.62 2552.7
-365.77 725.02 2519.4
-362.35 731.29 2541.2
-355.88 731.53 2542.0
-347.05 726.84 2525.7
-341.38 728.71 2532.2
-339.71 739.37 2569.2
-315.86 730.43 2538.2
-305.77 722.13 2509.3
-293.77 708.87 2463.3
-283.76 715.86 2487.5
-280.90 725.12 2519.7
-273.09 721.74 2508.0
-267.16 723.30 2513.4
-262.79 729.26 2534.1
-262.19 746.22 2593.1
-256.84 750.25 2607.1
-246.29 738.86 2567.5
-239.33 737.93 2564.2
-238.38 756.00 2627.0
-672.53 778.72 2730.6
-656.47 768.20 2693.7
-637.64 754.20 2644.6
-624.42 746.59 2617.9
-613.55 741.65 2600.6
-609.54 744.99 2612.3
-603.08 745.38 2613.7
-593.19 741.49 2600.0
-586.12 741.07 2598.6
-580.10 741.99 2601.8
-576.13 745.58 2614.4
-566.77 742.20 2602.5
-562.94 746.06 2616.1
-563.44 755.83 2650.3
-552.88 750.82 2632.8
-541.62 744.73 2611.4
-530.47 738.63 2590.0
-516.17 727.94 2552.5
-508.47 726.39 2547.1
-507.31 734.27 2574.7
-503.44 738.37 2589.1
-489.69 727.92 2552.4
-472.90 712.59 2498.7
-458.43 710.24 2490.4
-456.29 717.02 2514.2
-447.92 714.08 2503.9
-437.44 707.62 2481.3
-432.00 709.26 2487.0
-433.68 722.80 2534.5
-428.88 725.80 2545.0
-417.40 717.41 2515.6
-416.32 726.90 2548.9
-418.27 742.08 2602.1
-405.51 731.25 2564.1
-389.84 714.70 2506.1
-384.50 716.86 2513.7
-382.55 725.53 2544.1
-382.14 737.46 2585.9
-370.34 740.68 2597.2
-356.92 727.06 2549.4
-345.05 716.15 2511.2
-336.60 712.03 2496.7
-333.88 720.14 2525.2
-331.52 729.35 2557.4
-308.53 722.10 2532.0
-293.96 702.96 2464.9
-286.03 715.07 2507.4
-280.88 718.53 2519.5
-271.19 710.27 2490.5
-267.85 718.63 2519.9
-266.05 731.64 2565.5
-264.69 746.55 2617.8
-259.00 749.74 2628.9
-249.76 742.53 2603.7
-244.32 746.53 2617.7
-240.36 755.43 2648.9
-237.77 769.26 2697.4
-671.98 762.98 2699.9
-659.59 756.79 2678.0
-645.93 749.00 2650.5
-628.34 736.44 2606.0
-623.04 738.17 2612.1
-619.92 742.54 2627.6
-617.60 747.98 2646.9
-612.58 750.24 2654.8
-597.87 740.54 2620.5
-585.65 733.75 2596.5
-584.67 741.04 2622.3
-585.43 750.73 2656.6
-571.24 741.26 2623.1
-563.31 739.76 2617.8
-562.40 747.59 2645.5
-549.87 739.95 2618.5
-538.65 733.91 2597.1
-527.34 727.59 2574.7
-520.91 727.93 2575.9
-520.32 736.55 2606.4
-508.20 728.87 2579.2
-493.47 717.18 2537.8
-483.66 712.42 2521.0
-470.70 702.83 2487.1
-471.71 714.11 2527.0
-480.36 737.45 2609.6
-466.57 726.51 2570.9
-447.37 706.72 2500.8
-445.59 714.25 2527.5
-449.11 730.63 2585.5
-443.07 731.73 2589.4
-430.29 721.56 2553.3
-424.62 723.18 2559.1
-402.17 718.63 2543.0
-390.39 709.21 2509.7
-389.12 718.88 2543.9
-380.23 714.57 2528.6
-372.96 713.20 2523.8
-372.08 724.22 2562.8
-362.43 718.27 2541.7
-355.42 717.43 2538.7
-349.74 719.28 2545.3
-338.24 709.00 2508.9
-332.97 711.65 2518.3
-324.81 708.09 2505.7
-317.20 705.61 2496.9
-317.24 720.40 2549.2
-311.07 721.42 2552.8
-300.43 711.90 2519.2
-295.43 715.61 2532.3
-291.13 721.21 2552.1
-280.75 711.67 2518.4
-271.58 704.82 2494.1
-268.44 713.66 2525.4
-262.95 716.54 2535.6
-257.60 719.97 2547.7
-258.14 740.44 2620.2
-255.35 752.26 2662.0
-248.60 752.70 2663.5
-243.40 758.01 2682.3
-683.60 769.05 2746.6
-667.86 759.25 2711.6
-650.91 747.86 2670.9
-635.52 738.03 2635.8
-632.62 742.64 2652.3
-627.41 744.62 2659.3
-622.38 746.86 2667.4
-616.44 748.04 2671.6
-601.47 738.17 2636.3
-593.03 736.18 2629.2
-596.39 748.95 2674.8
-581.06 747.07 2668.1
-559.00 727.38 2597.8
-544.52 717.17 2561.3
-538.93 718.58 2566.4
-533.32 719.98 2571.4
-525.36 718.21 2565.0
-521.63 722.25 2579.5
-523.11 733.71 2620.4
-513.01 729.01 2603.6
-496.74 715.30 2554.6
-485.61 708.73 2531.2
-481.41 712.22 2543.7
-490.77 736.15 2629.1
-463.43 715.01 2553.6
-451.57 706.81 2524.3
-456.59 725.17 2589.9
-453.36 730.79 2610.0
-441.25 722.04 2578.7
-436.82 725.79 2592.1
-401.53 710.91 2539.0
-390.20 702.37 2508.5
-386.32 707.16 2525.6
-374.89 698.07 2493.1
-365.03 691.64 2470.2
-361.52 697.22 2490.1
-355.19 697.46 2490.9
-351.65 703.30 2511.8
-351.68 716.63 2559.4
-345.93 718.47 2566.0
-335.34 710.13 2536.2
-322.30 696.17 2486.3
-313.77 691.57 2469.9
-313.05 704.36 2515.6
-308.48 708.85 2531.6
-299.49 703.16 2511.3
-294.07 705.77 2520.6
-289.58 710.78 2538.5
-280.83 705.34 2519.1
-273.12 702.31 2508.3
-270.56 712.68 2545.3
-265.41 716.62 2559.3
-257.68 713.57 2548.5
-255.38 725.82 2592.2
-254.42 742.63 2652.3
-249.66 748.98 2674.9
-243.47 751.29 2683.2
-238.51 757.63 2705.8
-682.40 760.59 2741.8
-660.43 743.85 2681.4
-665.50 757.54 2730.8
-628.25 738.71 2662.9
-621.68 739.11 2664.4
-613.80 737.94 2660.1
-602.28 732.32 2639.9
-597.45 734.79 2648.8
-590.05 734.13 2646.4
-579.74 729.80 2630.8
-570.75 727.03 2620.8
-554.69 715.09 2577.7
-546.07 712.56 2568.6
-545.83 721.03 2599.2
-534.64 715.09 2577.7
-521.44 706.25 2545.9
-517.37 709.73 2558.4
-518.16 720.04 2595.6
-507.75 714.85 2576.9
-490.80 700.20 2524.1
-480.29 694.47 2503.4
-477.06 699.25 2520.7
-477.63 709.82 2558.8
-466.66 703.28 2535.2
-459.77 702.79 2533.4
-464.77 720.74 2598.1
-460.07 723.94 2609.6
-447.05 713.95 2573.7
-440.40 713.97 2573.7
-441.27 726.40 2618.5
-432.12 722.46 2604.3
-417.76 709.53 2557.7
-412.05 711.13 2563.5
-399.84 701.35 2528.2
-388.98 693.68 2500.6
-384.82 697.90 2515.8
-378.00 697.35 2513.8
-372.46 699.19 2520.4
-369.80 706.58 2547.1
-364.54 709.20 2556.5
-354.56 702.55 2532.6
-348.24 703.04 2534.3
-343.19 706.19 2545.7
-333.16 698.99 2519.7
-323.38 692.04 2494.7
-317.86 694.11 2502.1
-316.35 705.20 2542.1
-311.25 708.59 2554.3
-300.95 700.03 2523.5
-294.38 699.96 2523.2
-289.99 705.20 2542.1
-281.55 700.60 2525.5
-271.63 692.02 2494.6
-266.66 695.92 2508.6
-264.89 708.59 2554.3
-260.57 714.88 2577.0
-256.59 722.51 2604.5
-253.85 734.12 2646.4
-248.57 738.81 2663.3
-241.98 739.77 2666.7
-238.00 748.99 2699.9
-673.72 743.90 2706.9
-659.69 736.07 2678.4
-647.99 746.60 2716.7
-616.67 718.32 2613.8
-600.56 707.33 2573.8
-605.28 720.90 2623.2
-605.24 729.04 2652.9
-592.73 722.18 2627.9
-577.60 711.93 2590.6
-570.55 711.51 2589.1
-564.33 712.13 2591.3
-554.03 707.56 2574.7
-551.44 712.84 2593.9
-557.09 729.03 2652.8
-552.05 731.46 2661.7
-537.08 720.63 2622.3
-531.87 722.80 2630.1
-528.70 727.82 2648.4
-514.61 717.74 2611.7
-500.51 707.39 2574.1
-492.60 705.62 2567.6
-487.60 708.02 2576.4
-486.80 716.68 2607.9
-476.23 710.99 2587.1
-470.06 711.81 2590.2
-468.30 719.42 2617.9
-457.02 712.41 2592.3
-445.69 705.12 2565.8
-440.36 707.24 2573.5
-435.94 710.92 2586.9
-421.50 698.12 2540.3
-411.34 692.10 2518.4
-410.33 701.53 2552.7
-401.15 697.08 2536.5
-392.64 693.67 2524.1
-387.26 695.76 2531.7
-379.40 693.38 2523.1
-372.71 693.10 2522.1
-369.07 698.59 2542.0
-366.69 706.71 2571.6
-359.87 706.42 2570.5
-349.91 699.82 2546.5
-341.23 695.58 2531.1
-327.94 681.60 2480.2
-312.63 690.38 2512.2
-308.65 696.11 2533.0
-299.55 690.26 2511.7
-293.00 690.19 2511.5
-288.76 695.64 2531.3
-279.92 690.03 2510.9
-269.83 680.99 2478.0
-259.30 687.14 2500.4
-256.95 698.38 2541.3
-255.25 712.00 2590.8
-253.19 725.36 2639.5
-248.65 732.12 2664.1
-239.35 724.89 2637.8
-232.39 724.52 2636.4
-229.80 738.14 2686.0
-224.40 743.31 2704.8
-676.05 747.22 2744.9
-669.08 747.38 2745.5
-652.59 736.80 2706.6
-638.75 729.01 2678.0
-616.17 710.97 2611.7
-591.87 706.20 2594.2
-582.47 702.98 2582.4
-575.65 702.83 2581.8
-576.32 711.93 2615.2
-569.01 711.26 2612.8
-557.23 704.93 2589.5
-549.98 704.25 2587.0
-551.68 715.15 2627.1
-553.58 726.57 2669.0
-545.56 725.11 2663.7
-534.50 719.53 2643.2
-525.82 717.02 2634.0
-517.55 715.03 2626.7
-509.50 713.29 2620.3
-499.29 708.45 2602.5
-492.40 708.25 2601.7
-476.40 714.60 2625.1
-469.11 713.87 2622.4
-455.80 703.81 2585.4
-442.84 694.00 2549.4
-433.63 689.87 2534.2
-425.79 687.81 2526.7
-417.35 684.71 2515.3
-413.01 688.35 2528.6
-414.27 701.59 2577.3
-407.90 702.12 2579.2
-395.27 691.73 2541.0
-385.47 686.00 2520.0
-377.35 683.13 2509.4
-370.97 683.37 2510.3
-367.64 689.33 2532.2
-365.83 698.41 2565.6
-356.22 692.66 2544.5
-343.83 681.17 2502.2
-337.97 682.43 2506.9
-327.90 675.09 2479.9
-317.67 680.72 2500.6
-316.29 691.88 2541.6
-310.37 693.38 2547.1
-300.65 686.28 2521.0
-293.75 685.43 2517.9
-287.63 686.40 2521.5
-277.00 676.40 2484.7
-263.74 675.44 2481.2
-262.85 689.99 2534.6
-263.43 709.24 2605.4
-259.20 716.21 2631.0
-254.74 722.91 2655.6
-251.23 732.76 2691.8
-243.00 728.99 2677.9
-231.27 714.23 2623.7
-222.39 729.71 2680.6
-670.92 734.48 2724.0
-657.36 727.29 2697.4
-646.42 722.88 2681.0
-637.58 720.74 2673.1
-624.55 713.77 2647.2
-609.45 704.25 2611.9
-578.36 691.38 2564.2
-581.27 702.93 2607.0
-585.42 716.28 2656.5
-581.50 719.96 2670.2
-565.10 708.08 2626.1
-553.14 701.55 2601.9
-552.23 709.04 2629.7
-551.76 717.29 2660.3
-542.22 713.81 2647.4
-530.05 706.73 2621.1
-518.96 700.93 2599.6
-508.16 695.37 2579.0
-503.54 698.25 2589.7
-496.69 698.05 2588.9
-477.79 680.69 2524.5
-468.44 676.64 2509.5
-475.26 696.15 2581.9
-477.05 708.76 2628.6
-464.31 699.83 2595.5
-445.69 681.64 2528.1
-439.64 682.43 2531.0
-437.50 689.39 2556.8
-429.75 687.61 2550.2
-421.73 685.31 2541.7
-408.60 674.52 2501.6
-401.66 673.75 2498.8
-401.82 685.06 2540.8
-395.67 685.83 2543.6
-383.08 675.27 2504.4
-371.21 677.29 2511.9
-373.43 693.51 2572.1
-371.93 703.29 2608.4
-362.48 698.11 2589.1
-348.13 683.11 2533.5
-340.64 681.27 2526.7
-331.66 676.32 2508.3
-323.27 672.40 2493.8
-321.40 682.17 2530.0
-318.52 690.12 2559.5
-312.79 692.14 2567.0
-303.48 686.13 2544.7
-298.98 690.98 2562.7
-295.59 698.67 2591.2
-284.14 687.21 2548.7
-274.67 680.14 2522.5
-268.31 680.58 2524.1
-266.01 691.63 2565.1
-262.34 699.57 2594.6
-253.69 694.30 2575.0
-251.40 706.64 2620.8
-250.14 722.62 2680.0
-246.38 732.11 2715.3
-239.82 733.57 2720.7
-229.44 723.08 2681.8
-688.49 723.61 2709.8
-685.87 728.29 2727.3
-683.39 733.22 2745.8
-676.43 733.39 2746.4
-660.51 723.76 2710.3
-647.73 717.37 2686.4
-635.05 710.98 2662.5
-618.71 700.30 2622.5
-614.44 703.20 2633.3
-605.55 700.80 2624.4
-589.16 689.58 2582.4
-584.69 692.21 2592.2
-581.42 696.36 2607.7
-579.95 702.77 2631.7
-583.51 715.50 2679.4
-574.41 712.82 2669.4
-556.51 699.03 2617.7
-549.59 698.86 2617.1
-547.98 705.53 2642.1
-537.51 700.80 2624.4
-526.36 695.06 2602.9
-516.44 690.83 2587.0
-505.48 685.06 2565.4
-500.72 687.66 2575.1
-502.11 698.88 2617.2
-490.68 692.34 2592.7
-476.37 681.47 2552.0
-478.53 694.21 2599.7
-473.90 697.31 2611.3
-454.72 678.79 2541.9
-441.94 669.41 2506.8
-441.41 678.59 2541.2
-443.81 692.61 2593.7
-440.95 698.74 2616.6
-428.96 690.36 2585.2
-412.29 674.06 2524.2
-399.45 663.61 2485.1
-393.76 664.88 2489.8
-388.94 667.68 2500.3
-373.00 674.02 2524.1
-372.42 684.98 2565.1
-368.62 690.33 2585.1
-358.61 696.93 2609.8
-352.09 697.41 2611.7
-344.03 694.81 2601.9
-328.82 677.37 2536.6
-320.27 673.22 2521.1
-313.95 673.68 2522.8
-304.81 667.98 2501.5
-299.21 669.97 2508.9
-298.50 683.23 2558.6
-289.24 692.84 2594.6
-279.14 684.56 2563.5
-272.05 683.45 2559.4
-268.67 691.84 2590.8
-263.77 696.63 2608.7
-256.60 695.51 2604.6
-255.53 711.34 2663.8
-251.56 719.73 2695.2
-244.88 720.66 2698.7
-694.63 722.98 2734.0
-680.38 715.45 2705.5
-667.90 709.64 2683.5
-669.19 718.50 2717.0
-661.15 717.41 2712.9
-638.59 700.39 2648.5
-611.08 692.56 2618.9
-615.72 705.65 2668.4
-611.92 709.27 2682.1
-599.75 703.15 2659.0
-588.52 698.02 2639.6
-577.39 692.87 2620.1
-571.51 693.98 2624.3
-563.56 692.57 2619.0
-547.19 680.65 2573.9
-538.79 678.48 2565.7
-535.35 682.57 2581.1
-528.52 682.39 2580.5
-520.54 680.71 2574.1
-516.19 683.79 2585.8
-510.29 684.86 2589.8
-504.91 686.68 2596.7
-505.52 696.80 2634.9
-496.93 694.34 2625.7
-485.37 687.60 2600.2
-476.21 684.13 2587.0
-460.89 671.58 2539.6
-450.58 666.07 2518.7
-446.08 669.12 2530.3
-441.85 672.67 2543.7
-440.82 681.27 2576.2
-440.43 691.13 2613.5
-430.97 686.86 2597.4
-416.14 673.74 2547.8
-405.08 666.42 2520.1
-397.49 664.65 2513.4
-390.52 663.89 2510.5
-387.37 669.70 2532.5
-388.14 682.59 2581.2
-383.14 685.61 2592.6
-375.02 683.07 2583.0
-367.22 681.02 2575.3
-361.33 682.52 2580.9
-350.94 675.39 2554.0
-341.33 669.53 2531.8
-340.19 680.39 2572.9
-331.27 675.78 2555.5
-323.03 672.44 2542.8
-317.25 674.16 2549.4
-308.39 669.28 2530.9
-302.72 671.25 2538.4
-295.22 669.16 2530.4
-288.41 668.58 2528.2
-281.93 668.76 2528.9
-273.87 665.12 2515.2
-267.32 665.04 2514.9
-264.46 674.36 2550.1
-262.58 686.74 2596.9
-258.47 693.78 2623.5
-258.37 712.27 2693.5
-244.69 713.10 2696.6
-238.43 715.29 2704.9
-675.09 710.25 2712.4
-662.65 704.50 2690.4
-656.04 704.89 2692.0
-633.52 688.02 2627.5
-607.71 681.98 2604.5
-608.03 690.01 2635.1
-615.53 706.46 2697.9
-598.58 702.98 2684.7
-582.75 692.45 2644.4
-568.15 683.13 2608.8
-551.48 671.08 2562.8
-543.90 669.92 2558.4
-543.50 677.70 2588.1
-544.13 686.97 2623.5
-541.09 691.77 2641.8
-526.05 681.16 2601.3
-514.81 675.26 2578.8
-509.85 677.57 2587.6
-505.96 681.36 2602.1
-503.46 687.15 2624.2
-491.65 680.23 2597.8
-480.51 674.05 2574.2
-471.77 671.10 2562.9
-464.46 670.15 2559.3
-461.60 675.67 2580.4
-449.21 667.21 2548.1
-437.65 659.75 2519.5
