ply
format ascii 1.0
element vertex 2305
property float x
property float y
property float z
end_header
-6.61 555.59 2551.2
0.00 553.47 2541.4
6.60 554.32 2545.3
12.93 543.03 2493.5
18.77 525.58 2413.4
24.75 519.82 2386.9
31.46 528.53 2426.9
38.36 537.02 2465.9
44.93 539.13 2475.6
51.50 540.80 2483.3
57.69 538.43 2472.4
62.65 526.27 2416.6
67.46 515.18 2365.6
73.32 513.23 2356.6
81.17 524.46 2408.2
89.21 535.26 2457.8
96.56 540.74 2483.0
104.36 547.91 2515.9
108.59 536.59 2463.9
111.42 519.94 2387.5
119.37 527.75 2423.3
127.36 534.91 2456.2
133.66 534.62 2454.9
139.72 533.49 2449.7
146.40 534.69 2455.2
154.38 540.34 2481.2
157.69 529.85 2433.0
161.02 520.21 2388.7
171.28 532.86 2446.8
180.56 541.68 2487.3
186.61 540.52 2482.0
192.25 538.30 2471.8
196.19 531.62 2441.1
199.81 524.51 2408.5
206.68 526.10 2415.8
217.10 536.37 2462.9
225.21 540.49 2481.9
231.13 539.31 2476.4
240.39 545.76 2506.0
247.60 547.32 2513.2
251.40 541.47 2486.3
255.66 536.89 2465.3
258.37 529.34 2430.6
264.39 528.78 2428.1
275.59 538.37 2472.1
286.24 546.47 2509.3
294.93 550.54 2528.0
297.00 542.35 2490.4
298.40 533.32 2448.9
309.73 542.03 2488.9
322.12 552.21 2535.7
330.10 554.57 2546.5
340.82 561.36 2577.7
353.53 571.09 2622.4
357.82 567.10 2604.1
361.06 561.64 2579.0
372.45 568.83 2612.0
377.54 566.31 2600.4
380.00 560.00 2571.4
396.85 574.75 2639.1
410.05 583.80 2680.7
415.04 581.05 2668.1
429.43 591.35 2715.4
448.26 588.34 2701.6
-113.14 626.03 2909.3
-106.49 631.34 2934.0
-98.56 629.30 2924.4
-90.23 624.09 2900.2
-82.77 624.56 2902.4
-73.50 610.09 2835.2
-65.31 602.34 2799.2
-49.08 582.00 2704.7
-41.53 574.45 2669.6
-34.99 580.78 2699.0
-27.90 578.91 2690.3
-20.61 570.30 2650.3
-13.47 558.95 2597.5
-6.58 546.12 2537.9
0.00 540.23 2510.5
6.48 538.12 2500.7
12.98 538.54 2502.7
19.22 531.80 2471.4
25.05 519.80 2415.6
31.43 521.68 2424.3
37.95 525.02 2439.9
44.05 522.27 2427.1
50.80 527.08 2449.4
57.29 528.31 2455.1
63.95 530.80 2466.7
70.65 533.08 2477.3
76.88 531.78 2471.3
84.96 542.46 2520.9
92.02 545.57 2535.3
98.28 543.83 2527.3
104.99 544.62 2530.9
108.01 527.33 2450.6
112.71 519.70 2415.1
122.51 535.19 2487.1
129.35 536.81 2494.6
134.52 531.69 2470.9
141.75 534.77 2485.2
149.62 539.94 2509.2
157.20 543.64 2526.4
160.05 531.38 2469.4
168.64 518.40 2409.1
180.66 535.52 2488.6
189.71 542.97 2523.3
194.63 538.46 2502.3
197.78 529.55 2460.9
203.15 526.93 2448.7
211.79 532.69 2475.5
218.76 534.04 2481.8
223.12 529.11 2458.8
229.44 528.99 2458.3
239.21 536.61 2493.7
251.18 548.63 2549.6
259.43 538.31 2501.6
273.25 527.43 2451.0
282.29 532.51 2474.7
289.42 533.82 2480.8
299.71 540.77 2513.1
309.80 547.09 2542.4
317.99 549.85 2555.2
327.22 554.27 2575.8
333.67 553.89 2574.0
342.29 557.05 2588.7
350.45 559.37 2599.5
349.48 547.30 2543.4
352.03 541.08 2514.5
362.70 547.35 2543.6
370.99 549.86 2555.3
377.05 549.04 2551.5
392.69 561.96 2611.5
404.94 569.66 2647.3
408.34 564.87 2625.0
420.79 572.56 2660.8
435.91 583.56 2711.9
452.18 586.42 2725.2
-119.23 611.06 2874.3
-111.60 610.09 2869.7
-74.33 609.50 2867.0
-55.37 567.57 2669.8
-48.35 566.35 2664.0
-42.05 574.69 2703.3
-35.31 579.08 2723.9
-28.04 574.73 2703.4
-20.77 567.67 2670.2
-6.61 541.70 2548.0
0.00 531.72 2501.1
6.41 525.27 2470.8
12.70 520.90 2450.2
19.22 525.46 2471.7
25.59 524.62 2467.7
31.54 517.33 2433.4
37.47 512.11 2408.9
42.77 501.07 2356.9
56.34 513.28 2414.4
64.49 528.84 2487.6
71.19 530.68 2496.2
77.41 528.98 2488.2
83.72 528.10 2484.1
88.77 519.95 2445.8
93.55 511.38 2405.5
98.60 505.31 2376.9
107.33 517.72 2435.3
118.42 539.47 2537.6
125.66 542.32 2551.0
129.67 531.66 2500.8
135.50 529.10 2488.8
143.27 534.01 2511.9
149.94 534.55 2514.4
156.19 533.64 2510.2
161.15 528.58 2486.3
164.41 518.53 2439.1
174.80 511.92 2408.0
188.93 534.22 2512.9
202.75 536.30 2522.7
208.03 533.08 2507.5
215.16 534.63 2514.8
220.43 531.62 2500.6
226.42 530.46 2495.2
234.56 534.28 2513.2
238.87 529.39 2490.2
245.56 529.89 2492.5
257.47 541.34 2546.4
258.96 530.86 2497.1
260.81 521.63 2453.6
272.08 531.21 2498.7
278.38 530.86 2497.1
282.22 525.96 2474.0
290.25 528.91 2487.9
301.48 537.43 2528.0
312.09 544.50 2561.2
320.69 547.84 2577.0
325.30 544.37 2560.6
326.80 535.95 2521.0
337.72 543.00 2554.2
347.76 548.39 2579.5
347.53 537.69 2529.2
350.58 532.36 2504.1
387.66 548.07 2578.0
403.96 561.44 2640.9
412.01 563.08 2648.6
424.83 571.09 2686.3
439.55 581.34 2734.5
-119.78 606.39 2887.6
-112.91 609.74 2903.5
-106.78 617.81 2941.9
-97.81 609.44 2902.1
-89.62 604.97 2880.8
-81.91 603.16 2872.2
-72.74 589.23 2805.9
-48.59 562.21 2677.2
-42.23 570.04 2714.5
-35.43 573.96 2733.2
-28.19 570.90 2718.6
-20.94 565.36 2692.2
-13.73 555.92 2647.2
-6.67 540.51 2573.9
0.00 527.77 2513.2
6.40 518.52 2469.1
12.81 518.72 2470.1
19.48 525.90 2504.3
25.72 520.75 2479.8
31.46 509.64 2426.9
37.55 506.95 2414.1
43.06 498.30 2372.9
56.32 506.88 2413.7
63.77 516.50 2459.5
69.55 512.16 2438.8
75.44 509.24 2425.0
81.59 508.38 2420.9
86.69 501.56 2388.4
108.25 515.78 2456.1
117.80 530.09 2524.3
123.32 525.72 2503.4
128.12 518.88 2470.9
134.77 519.84 2475.4
142.17 523.46 2492.7
148.44 522.77 2489.4
156.88 529.46 2521.2
164.27 532.25 2534.5
165.29 514.93 2452.1
186.54 521.02 2481.0
197.56 533.42 2540.1
201.52 526.55 2507.4
207.66 525.63 2503.0
215.69 529.41 2521.0
221.06 526.63 2507.8
227.07 525.49 2502.4
235.77 530.49 2526.2
240.96 527.50 2511.9
243.86 519.81 2475.3
251.99 523.36 2492.2
259.70 525.89 2504.2
267.88 529.23 2520.1
276.67 533.58 2540.9
280.47 528.33 2515.9
286.03 526.55 2507.4
295.51 531.92 2532.9
304.31 535.85 2551.6
312.73 538.95 2566.4
320.25 540.42 2573.4
323.37 534.55 2545.5
324.33 525.41 2501.9
334.81 531.76 2532.2
349.90 545.04 2595.4
355.04 542.61 2583.9
357.96 536.93 2556.8
362.52 533.90 2542.4
368.56 533.10 2538.6
383.74 545.32 2596.8
395.14 551.83 2627.8
400.32 549.59 2617.1
410.87 554.67 2641.3
-113.09 603.13 2908.0
-104.31 596.09 2874.0
-95.52 587.81 2834.1
-87.63 584.21 2816.7
-81.59 593.39 2861.0
-73.67 589.37 2841.6
-64.57 573.97 2767.4
-56.93 569.33 2745.0
-49.98 571.19 2753.9
-43.15 575.27 2773.6
-36.03 576.51 2779.6
-28.53 570.64 2751.3
-21.00 559.89 2699.5
-13.65 545.89 2632.0
-6.71 536.55 2586.9
0.00 530.26 2556.6
6.56 524.57 2529.2
13.19 527.41 2542.8
19.94 531.66 2563.4
26.14 522.71 2520.2
31.86 509.70 2457.5
37.88 505.01 2434.9
43.49 497.07 2396.6
49.22 492.18 2373.0
55.80 496.01 2391.5
62.05 496.38 2393.3
69.25 503.66 2428.4
76.88 512.55 2471.2
83.88 516.16 2488.7
90.14 515.11 2483.5
96.42 514.25 2479.4
104.22 521.09 2512.4
110.81 521.44 2514.1
116.35 517.12 2493.3
124.49 524.16 2527.2
132.09 528.36 2547.4
135.11 514.70 2481.6
138.96 505.30 2436.3
147.18 511.92 2468.2
157.99 526.64 2539.2
165.31 528.99 2550.5
166.29 511.68 2467.0
175.13 500.36 2412.4
187.29 516.67 2491.1
196.37 523.66 2524.8
201.55 520.12 2507.7
208.98 522.44 2518.9
219.47 532.05 2565.2
232.58 531.61 2563.1
240.08 533.52 2572.3
245.95 531.77 2563.9
249.56 525.38 2533.1
254.68 522.42 2518.8
259.12 518.25 2498.7
266.88 520.74 2510.7
275.22 524.24 2527.6
278.55 518.24 2498.7
283.51 515.47 2485.3
295.43 525.22 2532.3
307.13 534.14 2575.3
312.77 532.37 2566.8
317.63 529.39 2552.4
325.01 530.63 2558.4
330.41 528.65 2548.9
339.48 532.51 2567.5
353.48 543.82 2622.0
360.96 544.84 2626.9
366.15 542.44 2615.4
370.45 538.84 2598.0
376.21 537.44 2591.2
390.95 548.71 2645.6
402.62 555.34 2677.5
410.75 556.94 2685.3
424.93 566.57 2731.7
-97.61 593.20 2896.3
-88.89 585.22 2857.3
-82.11 589.68 2879.1
-73.94 584.10 2851.9
-64.58 566.89 2767.8
-57.25 565.31 2760.1
-50.52 570.16 2783.8
-42.63 561.35 2740.8
-34.82 550.14 2686.0
-27.58 544.74 2659.6
-20.31 534.92 2611.7
-13.55 535.13 2612.7
0.00 533.93 2606.9
6.68 527.91 2577.5
13.42 529.91 2587.3
26.39 521.26 2545.0
32.05 506.40 2472.5
37.76 497.15 2427.3
55.33 485.65 2371.1
61.47 485.62 2371.0
68.51 492.00 2402.2
76.28 502.19 2451.9
83.46 507.17 2476.2
90.51 510.73 2493.6
97.80 515.09 2514.9
105.29 519.86 2538.2
111.51 518.20 2530.1
116.87 512.93 2504.3
124.79 518.88 2533.4
139.12 523.35 2555.2
140.87 505.85 2469.8
147.08 505.18 2466.5
154.85 509.71 2488.6
159.06 502.62 2454.0
164.07 498.53 2434.1
169.67 496.44 2423.9
175.64 495.56 2419.5
185.85 506.27 2471.9
197.39 519.78 2537.8
205.02 522.48 2551.0
208.03 513.57 2507.5
213.57 511.27 2496.2
227.13 527.75 2576.7
248.32 530.19 2588.6
251.70 523.27 2554.8
256.49 519.55 2536.7
262.29 518.02 2529.2
271.57 523.27 2554.9
277.91 522.74 2552.2
278.91 512.42 2501.9
286.32 514.07 2509.9
300.92 528.28 2579.3
307.17 527.53 2575.6
307.00 516.02 2519.4
313.80 516.46 2521.6
323.20 521.08 2544.2
331.33 523.50 2556.0
343.50 532.09 2597.9
355.10 539.48 2634.0
360.21 536.91 2621.4
364.30 532.95 2602.1
367.46 527.80 2577.0
373.72 527.22 2574.1
389.14 539.34 2633.3
402.24 547.88 2675.0
411.84 551.45 2692.4
-90.28 586.83 2901.9
-81.51 577.95 2858.0
-71.79 559.96 2769.0
-56.58 551.70 2728.2
-49.89 555.89 2748.9
-42.09 547.19 2705.9
-34.61 539.88 2669.7
-27.61 538.31 2662.0
-20.58 534.95 2645.4
-13.87 540.91 2674.8
0.00 519.11 2567.0
6.63 517.13 2557.2
13.39 522.28 2582.7
20.13 523.46 2588.5
26.17 510.36 2523.8
32.02 499.45 2469.8
37.96 493.49 2440.3
43.24 481.77 2382.4
49.23 479.97 2373.5
56.77 492.03 2433.1
64.07 499.72 2471.2
68.65 486.81 2407.3
81.75 490.50 2425.6
90.20 502.54 2485.1
96.67 502.69 2485.8
103.43 504.23 2493.4
110.06 504.96 2497.1
116.01 502.73 2486.0
123.60 507.42 2509.2
132.68 517.45 2558.8
139.94 519.76 2570.2
144.23 511.38 2528.8
147.97 501.80 2481.5
152.92 496.98 2457.6
158.76 495.32 2449.4
165.41 496.23 2453.9
171.47 495.35 2449.5
178.14 496.25 2454.0
184.91 497.35 2459.4
192.85 501.40 2479.5
203.48 511.98 2531.8
209.27 510.09 2522.4
211.84 500.71 2476.0
222.00 509.29 2518.4
232.02 517.07 2556.9
237.23 513.99 2541.7
242.26 510.72 2525.5
246.16 505.27 2498.6
253.56 507.11 2507.7
262.62 512.11 2532.4
270.88 515.33 2548.3
275.71 512.04 2532.1
281.88 511.31 2528.5
294.80 522.59 2584.3
308.60 523.28 2587.6
309.17 513.09 2537.2
316.62 514.51 2544.3
322.25 512.97 2536.7
326.96 510.06 2522.3
337.76 516.58 2554.5
347.81 521.71 2579.9
354.65 521.93 2581.0
360.67 520.97 2576.2
366.67 520.00 2571.4
375.60 523.16 2587.0
387.47 530.23 2622.0
396.46 533.17 2636.6
405.97 536.70 2654.0
417.67 542.97 2685.0
428.45 547.85 2709.2
-98.27 582.09 2915.8
-90.66 581.74 2914.1
-83.14 581.98 2915.3
-73.68 567.34 2842.0
-65.22 557.99 2795.1
-58.36 561.73 2813.9
-51.51 566.66 2838.5
-42.83 549.65 2753.3
-34.64 533.42 2672.1
-28.34 545.57 2732.9
-21.65 555.77 2784.0
-14.15 544.81 2729.1
-6.77 520.93 2609.5
0.00 507.04 2539.9
6.59 507.43 2541.8
13.18 507.42 2541.8
19.59 502.71 2518.2
25.79 496.44 2486.8
31.96 492.12 2465.2
38.65 496.02 2484.7
44.91 494.04 2474.8
50.27 483.84 2423.7
56.98 487.53 2442.2
64.99 500.41 2506.7
70.48 493.34 2471.3
74.65 479.01 2399.5
82.25 487.19 2440.5
91.13 501.24 2510.8
98.09 503.54 2522.4
104.82 504.47 2527.0
111.41 504.61 2527.7
116.62 498.88 2499.0
123.62 500.97 2509.5
132.75 511.07 2560.1
140.38 514.72 2578.4
146.32 512.11 2565.3
151.84 508.32 2546.3
156.89 503.36 2521.5
162.58 500.74 2508.3
171.16 506.91 2539.2
179.29 511.31 2561.3
181.57 499.31 2501.2
183.61 487.51 2442.1
191.96 492.68 2468.0
202.95 504.10 2525.2
212.21 510.63 2557.9
218.63 510.14 2555.4
224.00 507.30 2541.2
228.85 503.48 2522.1
233.79 500.05 2504.9
238.36 496.04 2484.8
243.01 492.41 2466.6
250.92 495.41 2481.6
262.35 505.02 2529.8
273.40 513.46 2572.0
279.36 512.15 2565.5
286.69 513.37 2571.6
294.83 515.96 2584.6
301.33 515.61 2582.9
308.40 516.24 2586.0
313.83 514.15 2575.5
320.05 513.41 2571.8
324.63 510.14 2555.4
326.74 503.18 2520.6
335.23 506.13 2535.3
347.32 514.31 2576.3
356.16 517.43 2592.0
363.57 518.42 2596.9
371.70 520.38 2606.7
377.62 519.22 2600.9
385.51 520.78 2608.7
394.18 523.30 2621.4
404.09 527.37 2641.7
409.12 525.04 2630.1
411.49 519.42 2601.9
-113.70 576.06 2923.6
-104.17 565.49 2870.0
-96.84 566.12 2873.2
-90.80 575.05 2918.5
-73.77 560.64 2845.4
-65.59 553.91 2811.2
-58.88 559.35 2838.8
-43.80 554.76 2815.5
-35.23 535.45 2717.5
-28.65 544.36 2762.7
-14.44 548.64 2784.4
-6.87 522.16 2650.0
0.00 505.34 2564.7
6.65 505.72 2566.6
13.30 505.33 2564.7
19.57 495.85 2516.5
25.54 485.21 2462.5
32.15 488.67 2480.1
39.51 500.45 2539.9
45.74 496.56 2520.1
51.01 484.55 2459.2
56.65 478.34 2427.7
63.29 481.02 2441.3
70.48 486.98 2471.5
76.67 485.59 2464.4
83.62 488.83 2480.9
91.71 497.87 2526.8
98.22 497.63 2525.6
104.35 495.65 2515.5
112.02 500.81 2541.7
118.55 500.56 2540.4
123.39 493.55 2504.9
130.07 494.26 2508.5
138.95 502.88 2552.2
146.39 505.71 2566.6
152.96 505.44 2565.2
159.22 504.21 2558.9
162.91 495.25 2513.5
169.47 495.36 2514.1
179.72 505.89 2567.5
184.14 499.82 2536.7
186.12 487.77 2475.5
194.33 492.31 2498.6
204.54 501.46 2545.0
213.21 506.37 2569.9
218.91 504.15 2558.6
223.51 499.61 2535.6
231.18 502.00 2547.7
239.10 504.77 2561.8
245.87 505.04 2563.2
252.75 505.50 2565.5
259.93 506.53 2570.7
270.27 513.51 2606.2
280.77 508.05 2578.5
286.61 506.57 2570.9
292.86 505.85 2567.3
296.93 501.48 2545.1
301.81 498.65 2530.7
307.93 497.93 2527.1
315.23 499.12 2533.1
323.93 502.42 2549.9
330.69 502.64 2551.0
341.18 508.42 2580.3
355.49 519.57 2636.9
359.80 515.94 2618.5
362.25 509.83 2587.5
372.43 514.63 2611.9
381.04 517.13 2624.5
387.14 516.18 2619.7
393.78 515.99 2618.8
399.68 514.85 2612.9
400.12 506.82 2572.2
-104.40 559.27 2876.3
-96.16 554.75 2853.0
-89.71 560.70 2883.6
-81.85 558.08 2870.1
-73.17 548.76 2822.2
-65.63 546.89 2812.6
-58.05 544.25 2799.0
-50.82 544.46 2800.1
-43.71 546.40 2810.0
-36.17 542.60 2790.5
-28.75 538.99 2771.9
-21.58 539.57 2774.9
-14.35 538.25 2768.1
-6.92 519.35 2671.0
0.00 502.56 2584.6
6.71 503.13 2587.5
13.50 506.37 2604.2
20.01 500.25 2572.7
25.91 485.74 2498.1
32.38 485.72 2498.0
39.51 493.91 2540.1
45.47 487.21 2505.7
50.70 475.36 2444.7
56.24 468.65 2410.2
62.33 467.48 2404.2
68.89 469.74 2415.8
75.52 471.99 2427.4
83.09 479.39 2465.5
90.65 485.65 2497.6
96.55 482.74 2482.7
102.04 478.30 2459.9
109.14 481.50 2476.3
117.19 488.31 2511.3
123.59 487.87 2509.0
129.01 483.80 2488.1
136.41 487.17 2505.4
144.78 493.58 2538.4
152.45 497.13 2556.7
158.69 495.91 2550.4
162.61 487.83 2508.8
170.34 491.37 2527.0
193.50 500.44 2573.7
198.23 495.58 2548.7
204.88 495.68 2549.2
212.01 496.91 2555.5
216.00 490.91 2524.7
220.43 486.24 2500.6
227.66 487.84 2508.9
237.58 494.95 2545.5
246.37 499.40 2568.3
253.83 500.99 2576.5
261.44 502.76 2585.6
265.84 498.46 2563.5
267.13 488.65 2513.0
273.25 487.95 2509.4
282.18 492.18 2531.2
286.77 488.82 2513.9
289.57 482.61 2482.0
320.25 490.17 2520.9
330.72 496.08 2551.3
345.46 508.03 2612.7
355.14 512.22 2634.3
354.63 501.83 2580.9
357.25 496.18 2551.8
367.62 501.30 2578.1
377.98 506.22 2603.4
386.17 508.12 2613.2
394.41 510.01 2622.9
401.95 510.96 2627.8
413.59 516.99 2658.8
-105.98 560.18 2919.9
-97.19 553.26 2883.8
-90.31 556.89 2902.7
-82.45 554.67 2891.1
-73.81 546.23 2847.1
-66.14 543.81 2834.5
-58.47 540.83 2819.0
-50.36 532.38 2774.9
-42.65 526.00 2741.7
-35.20 520.93 2715.3
-27.89 516.04 2689.8
-21.15 521.71 2719.3
-14.19 525.11 2737.0
-6.96 514.94 2684.0
0.00 507.03 2642.8
6.75 499.87 2605.5
13.39 495.34 2581.9
20.03 494.01 2575.0
26.14 483.64 2520.9
32.31 478.16 2492.3
39.03 481.35 2508.9
45.50 480.95 2506.9
51.40 475.46 2478.3
57.27 470.92 2454.6
63.76 471.83 2459.3
69.46 467.28 2435.6
75.04 462.72 2411.9
81.58 464.38 2420.5
88.06 465.47 2426.2
96.17 474.46 2473.1
104.16 481.76 2511.1
108.80 473.61 2468.6
114.18 469.42 2446.8
122.88 478.58 2494.5
130.70 483.60 2520.7
135.46 477.33 2488.0
140.99 474.25 2472.0
148.20 476.82 2485.3
153.77 474.11 2471.2
162.75 481.75 2511.0
187.66 495.97 2585.2
190.65 486.48 2535.7
193.68 477.75 2490.2
199.71 476.72 2484.8
206.11 476.62 2484.3
214.51 481.03 2507.3
223.64 486.74 2537.1
228.21 482.50 2515.0
235.23 483.52 2520.3
243.58 487.16 2539.2
250.49 487.79 2542.5
257.71 488.98 2548.8
261.61 483.99 2522.7
263.83 476.18 2482.0
270.62 476.80 2485.2
280.58 482.85 2516.8
286.35 481.59 2510.2
289.48 476.03 2481.2
316.87 488.51 2546.3
325.97 492.28 2565.9
333.15 493.06 2570.0
339.32 492.34 2566.3
340.21 484.15 2523.6
348.64 486.79 2537.3
360.82 494.46 2577.3
368.07 495.22 2581.3
375.05 495.61 2583.3
386.07 501.21 2612.5
397.96 507.74 2646.5
405.71 508.85 2652.3
-103.57 540.05 2853.5
-96.88 544.00 2874.4
-88.45 538.10 2843.2
-57.82 527.64 2787.9
-50.76 529.34 2796.9
-42.91 522.11 2758.7
-35.34 515.99 2726.4
-28.18 514.33 2717.6
-21.49 522.90 2762.9
-14.36 524.02 2768.8
-7.02 512.13 2706.0
0.00 510.08 2695.2
6.97 508.97 2689.3
13.70 500.22 2643.0
20.33 494.63 2613.5
26.58 485.14 2563.4
32.87 479.92 2535.8
39.23 477.30 2521.9
45.21 471.51 2491.4
51.81 472.79 2498.1
58.63 475.56 2512.7
65.01 474.60 2507.7
70.50 467.87 2472.1
76.57 465.79 2461.1
83.70 470.03 2483.5
89.46 466.46 2464.7
96.68 470.50 2486.0
104.82 478.26 2527.0
109.68 470.96 2488.5
115.20 467.19 2468.5
124.00 476.42 2517.3
131.07 478.41 2527.8
134.99 469.25 2479.4
140.22 465.28 2458.4
147.10 466.88 2466.9
152.98 465.33 2458.7
162.19 473.61 2502.4
170.11 477.61 2523.6
173.19 468.25 2474.1
179.79 468.73 2476.6
185.95 468.08 2473.2
191.56 466.14 2463.0
200.35 471.79 2492.8
207.91 474.29 2506.1
217.54 481.24 2542.7
226.07 485.39 2564.7
229.74 479.17 2531.8
237.07 480.73 2540.1
245.76 484.88 2562.0
249.26 478.84 2530.1
252.89 473.35 2501.1
263.06 480.08 2536.6
272.05 484.39 2559.4
274.47 477.05 2520.6
279.73 474.89 2509.2
288.94 479.37 2532.9
295.76 479.79 2535.1
302.60 480.21 2537.3
315.03 489.29 2585.3
325.15 494.50 2612.8
329.34 490.66 2592.5
332.29 485.15 2563.4
333.94 477.99 2525.6
337.09 473.22 2500.4
347.60 478.78 2529.7
359.08 485.43 2564.9
365.05 484.52 2560.1
372.83 486.01 2568.0
384.81 492.83 2604.0
402.23 506.26 2675.0
419.80 502.38 2654.5
-103.33 531.44 2847.0
-95.93 531.30 2846.2
-79.53 520.56 2788.7
-72.74 523.71 2805.6
-64.99 519.89 2785.1
-58.22 523.96 2806.9
-51.34 528.02 2828.7
-43.54 522.54 2799.3
-36.30 522.74 2800.4
-29.24 526.24 2819.2
-21.83 523.87 2806.4
-14.29 514.52 2756.4
-6.96 501.31 2685.6
0.00 498.19 2668.9
7.02 505.72 2709.2
14.03 505.16 2706.2
20.69 496.53 2660.0
26.89 484.04 2593.1
33.08 476.32 2551.7
39.22 470.62 2521.2
45.13 464.17 2486.6
51.65 464.89 2490.5
58.13 465.04 2491.3
64.18 462.08 2475.4
71.52 468.10 2507.7
86.33 478.11 2561.3
91.07 468.35 2509.0
96.49 463.18 2481.3
102.67 462.03 2475.2
109.64 464.36 2487.7
117.41 469.63 2515.9
125.85 476.90 2554.8
132.61 477.39 2557.4
138.31 474.21 2540.4
145.66 476.71 2553.8
152.38 477.01 2555.4
158.12 474.37 2541.3
165.64 477.04 2555.6
172.04 476.41 2552.2
174.64 465.72 2494.9
180.72 464.72 2489.6
187.59 465.73 2495.0
194.17 466.01 2496.5
202.89 471.22 2524.4
210.36 473.32 2535.6
215.47 470.11 2518.5
219.27 464.34 2487.6
223.98 460.77 2468.4
232.16 464.32 2487.4
240.62 468.23 2508.4
243.88 462.09 2475.5
250.83 463.07 2480.7
264.29 475.73 2548.5
275.71 484.18 2593.8
280.55 480.95 2576.5
278.44 466.23 2497.6
290.89 465.42 2493.3
302.27 473.12 2534.6
310.77 476.07 2550.4
316.80 475.20 2545.7
325.04 477.60 2558.6
332.32 478.54 2563.6
340.41 480.57 2574.5
350.38 485.15 2599.0
353.65 480.44 2573.8
356.80 475.73 2548.5
360.36 471.75 2527.2
376.79 475.95 2549.7
394.52 489.75 2623.7
-122.61 544.09 2955.8
-112.86 534.20 2902.1
-106.09 538.05 2923.0
-98.46 537.73 2921.3
-90.19 533.62 2898.9
-83.44 538.54 2925.7
-75.65 537.13 2918.0
-67.06 529.02 2873.9
-58.94 523.08 2841.7
-51.00 517.31 2810.3
-43.63 516.24 2804.5
-36.68 520.79 2829.2
-28.69 509.22 2766.4
-20.80 492.21 2674.0
-14.04 498.38 2707.5
-7.05 500.73 2720.3
0.00 486.25 2641.6
6.80 482.63 2621.9
13.73 487.33 2647.5
20.43 483.52 2626.8
26.72 474.28 2576.6
33.04 469.20 2549.0
39.22 464.11 2521.3
45.13 457.76 2486.8
51.78 459.55 2496.5
58.36 460.43 2501.3
64.82 460.22 2500.2
72.75 469.60 2551.1
79.52 470.46 2555.8
84.01 458.85 2492.7
89.65 454.65 2469.9
96.16 455.15 2472.6
102.60 455.28 2473.4
109.87 458.85 2492.7
116.59 459.88 2498.4
123.78 462.54 2512.8
131.04 465.19 2527.2
137.57 465.13 2526.9
145.17 468.50 2545.2
152.27 470.06 2553.6
158.50 468.90 2547.4
166.54 472.98 2569.5
174.96 477.78 2595.6
179.67 472.46 2566.7
182.73 463.35 2517.2
186.20 455.86 2476.5
193.27 457.40 2484.9
202.59 463.99 2520.7
210.79 467.68 2540.7
216.82 466.50 2534.3
221.10 461.71 2508.3
226.40 459.26 2495.0
232.36 458.26 2489.5
238.66 457.97 2488.0
246.02 459.66 2497.2
257.08 468.01 2542.5
263.60 467.90 2541.9
267.73 463.63 2518.7
279.51 472.51 2567.0
284.78 470.22 2554.5
298.21 460.29 2500.6
309.84 468.06 2542.8
319.25 472.23 2565.4
330.76 479.27 2603.7
336.52 477.86 2596.0
343.14 477.71 2595.2
349.36 477.01 2591.4
348.99 467.52 2539.9
359.14 472.20 2565.3
370.39 478.14 2597.5
375.72 476.35 2587.8
388.33 483.71 2627.8
395.73 484.42 2631.7
403.29 485.32 2636.5
-121.53 531.68 2929.7
-112.18 523.53 2884.7
-105.71 528.57 2912.5
-99.27 534.51 2945.2
-91.94 536.34 2955.3
-83.73 532.81 2935.9
-74.87 524.10 2887.9
-67.25 523.06 2882.2
-59.86 523.80 2886.2
-51.56 515.61 2841.1
-43.91 512.24 2822.6
-36.23 507.26 2795.1
-13.65 477.65 2632.0
-6.94 485.52 2675.3
0.00 476.95 2628.1
6.72 470.52 2592.6
13.50 472.65 2604.4
20.22 471.75 2599.5
26.58 465.14 2563.0
32.45 454.23 2502.9
45.17 451.70 2488.9
53.56 468.63 2582.3
59.68 464.15 2557.5
65.51 458.58 2526.9
72.09 458.73 2527.7
77.23 450.49 2482.3
82.89 446.35 2459.5
89.97 449.87 2478.9
97.62 455.54 2510.1
105.42 461.21 2541.3
111.39 458.66 2527.3
116.51 453.08 2496.5
122.33 450.70 2483.5
127.99 447.97 2468.4
137.26 457.54 2521.1
148.37 472.10 2601.3
153.45 467.04 2573.5
157.54 459.48 2531.8
162.80 455.84 2511.8
167.90 452.03 2490.8
176.80 458.36 2525.7
184.24 460.60 2538.0
188.50 454.99 2507.1
196.33 458.11 2524.3
203.39 459.26 2530.6
209.26 457.75 2522.3
218.10 462.63 2549.2
225.35 463.96 2556.5
231.30 462.61 2549.1
237.95 462.68 2549.5
245.82 465.06 2562.6
255.00 469.74 2588.4
263.83 473.54 2609.3
268.19 469.33 2586.1
269.31 459.80 2533.6
278.25 463.76 2555.4
296.81 472.20 2601.9
295.48 459.64 2532.7
303.94 462.52 2548.6
313.55 467.00 2573.2
320.98 468.09 2579.3
327.69 468.13 2579.5
328.32 459.65 2532.8
329.62 452.42 2492.9
366.81 475.49 2620.1
382.64 487.00 2683.5
397.22 479.41 2641.6
406.15 481.88 2655.2
-128.56 521.80 2916.9
-104.26 513.87 2872.5
-98.58 523.24 2924.9
-91.43 525.74 2938.9
-83.40 523.14 2924.4
-74.39 513.32 2869.5
-66.64 510.89 2855.9
-60.16 518.84 2900.3
-52.55 517.98 2895.6
-44.26 509.03 2845.5
-36.19 499.36 2791.5
-28.29 487.93 2727.6
-20.85 479.66 2681.4
-13.94 481.08 2689.3
-7.01 483.55 2703.1
0.00 475.63 2658.8
6.81 469.82 2626.3
13.65 471.04 2633.2
20.40 469.10 2622.3
27.01 465.92 2604.5
33.20 458.16 2561.1
38.92 447.58 2502.0
46.35 456.89 2554.0
54.28 468.14 2616.9
59.82 458.60 2563.6
65.75 453.65 2535.9
72.40 454.14 2538.7
77.14 443.55 2479.5
82.40 437.35 2444.8
90.37 445.41 2489.9
99.08 455.75 2547.7
106.40 458.87 2565.1
111.61 453.01 2532.4
117.61 450.85 2520.3
124.23 451.15 2522.0
129.88 448.10 2504.9
139.25 457.54 2557.7
158.40 455.40 2545.7
159.18 439.34 2455.9
165.85 440.15 2460.4
176.67 451.49 2523.9
188.60 464.76 2598.0
201.99 464.58 2597.1
205.45 457.29 2556.3
207.48 447.37 2500.8
211.73 442.72 2474.8
223.55 453.67 2536.1
234.34 461.99 2582.6
239.79 459.61 2569.2
246.68 460.02 2571.6
256.95 466.57 2608.2
276.30 464.99 2599.3
277.10 455.24 2544.8
282.97 454.06 2538.2
298.28 467.76 2614.8
305.48 458.22 2561.5
303.57 445.67 2491.3
311.76 448.15 2505.2
319.15 449.41 2512.2
351.85 458.07 2560.7
367.52 469.61 2625.1
373.91 469.09 2622.3
384.96 474.33 2651.5
391.55 473.99 2649.6
391.98 466.32 2606.8
402.61 470.85 2632.1
-113.05 512.49 2907.0
-105.70 513.41 2912.2
-99.06 518.14 2939.0
-91.08 516.10 2927.5
-83.13 513.88 2914.9
-74.20 504.55 2861.9
-66.30 500.93 2841.4
-59.69 507.38 2878.0
-52.48 509.84 2891.9
-44.51 504.48 2861.5
-36.61 497.90 2824.2
-28.83 490.10 2780.0
-21.42 485.60 2754.4
-14.41 489.77 2778.1
0.00 478.67 2715.1
6.96 473.46 2685.6
13.98 475.19 2695.4
20.99 475.70 2698.3
27.93 474.82 2693.3
33.84 460.23 2610.5
39.07 442.85 2512.0
45.39 440.92 2501.0
51.87 440.90 2500.9
58.86 444.69 2522.4
66.62 453.00 2569.5
73.39 453.66 2573.3
78.31 443.74 2517.0
82.40 431.03 2444.9
89.16 433.08 2456.5
97.78 443.27 2514.4
105.02 446.35 2531.8
112.01 448.04 2541.4
119.96 453.19 2570.6
126.47 452.61 2567.3
132.03 448.91 2546.4
136.48 441.92 2506.7
143.23 442.72 2511.3
154.30 456.18 2587.6
158.84 450.04 2552.8
160.91 437.67 2482.6
169.17 442.45 2509.7
176.27 443.93 2518.1
184.19 447.32 2537.3
195.46 458.31 2599.7
202.24 458.40 2600.2
204.04 447.58 2538.8
210.74 434.24 2463.2
225.46 450.93 2557.8
232.04 450.83 2557.2
233.22 440.52 2498.8
243.21 446.99 2535.4
256.68 459.32 2605.4
276.32 458.28 2599.5
278.50 450.91 2557.7
281.34 444.92 2523.7
293.61 453.76 2573.9
306.25 462.77 2625.0
306.43 452.98 2569.4
307.04 444.23 2519.8
317.98 450.47 2555.2
327.23 454.12 2575.9
332.03 451.56 2561.4
332.62 443.50 2515.6
350.53 449.74 2551.1
360.71 454.23 2576.5
366.29 452.87 2568.8
376.22 456.83 2591.3
389.28 464.40 2634.2
397.13 465.60 2641.0
407.11 469.21 2661.5
-114.33 510.65 2939.8
-107.54 514.63 2962.7
-91.85 512.84 2952.4
-82.74 503.98 2901.4
-74.46 498.88 2872.0
-67.09 499.43 2875.2
-59.78 500.65 2882.2
-51.99 497.60 2864.6
-44.12 492.66 2836.2
-36.29 486.34 2799.8
-29.06 486.70 2801.9
-21.96 490.48 2823.6
-14.53 486.72 2802.0
0.00 470.64 2709.4
6.99 468.24 2695.6
14.07 471.32 2713.3
27.91 467.53 2691.6
33.51 449.04 2585.1
38.89 434.30 2500.3
45.41 434.63 2502.1
52.85 442.65 2548.3
61.07 454.60 2617.1
66.95 448.59 2582.5
71.45 435.21 2505.5
78.40 437.74 2520.1
85.03 438.22 2522.8
90.27 432.03 2487.1
97.13 433.87 2497.7
103.19 432.11 2487.6
108.89 429.16 2470.6
116.89 435.09 2504.8
123.61 435.90 2509.4
131.02 438.92 2526.8
137.50 438.69 2525.5
142.62 434.36 2500.6
151.78 442.15 2545.4
161.36 450.45 2593.2
168.82 452.43 2604.6
173.55 447.23 2574.7
176.69 438.45 2524.1
180.35 431.54 2484.4
186.90 431.80 2485.9
195.60 436.84 2514.9
199.40 430.95 2481.0
216.04 438.62 2525.1
225.56 444.49 2558.9
226.62 433.82 2497.5
239.56 433.79 2497.3
250.61 441.86 2543.8
257.34 442.09 2545.1
264.17 442.49 2547.4
269.87 441.01 2538.9
276.17 440.56 2536.2
283.21 441.29 2540.5
289.38 440.65 2536.8
295.53 440.02 2533.1
302.36 440.40 2535.3
309.92 441.79 2543.4
321.89 449.30 2586.6
332.47 454.60 2617.1
341.30 457.34 2632.9
345.94 454.48 2616.4
341.68 440.24 2534.5
346.93 438.57 2524.8
358.96 445.37 2564.0
366.59 446.57 2570.9
376.52 450.48 2593.4
389.30 457.60 2634.4
399.50 461.49 2656.8
412.20 468.09 2694.8
-130.73 507.52 2966.1
-120.97 498.98 2916.1
-112.50 494.99 2892.8
-107.98 509.03 2974.8
-84.13 504.77 2949.9
-75.80 500.25 2923.5
-66.98 491.18 2870.5
-58.60 483.45 2825.3
-51.28 483.47 2825.5
-43.75 481.30 2812.8
-36.22 478.11 2794.2
-29.20 481.84 2815.9
-22.05 485.05 2834.7
-14.57 480.67 2809.1
6.89 454.71 2657.4
13.52 446.27 2608.1
20.56 452.33 2643.5
27.33 450.97 2635.6
33.17 437.81 2558.6
38.96 428.51 2504.3
46.11 434.74 2540.7
54.39 448.71 2622.3
65.81 434.33 2538.3
70.56 423.34 2474.1
77.79 427.86 2500.5
85.00 431.53 2521.9
90.81 428.12 2502.0
97.14 427.41 2497.8
102.46 422.65 2470.0
107.94 419.06 2449.1
115.47 423.39 2474.4
123.86 430.25 2514.5
133.27 439.80 2570.2
140.72 442.26 2584.7
147.06 441.19 2578.4
153.26 439.78 2570.1
159.59 438.87 2564.8
167.87 443.18 2590.0
173.63 440.75 2575.8
177.38 433.61 2534.1
181.42 427.64 2499.2
187.20 426.05 2489.9
195.07 429.16 2508.1
203.11 432.44 2527.2
212.40 438.07 2560.1
220.08 440.16 2572.4
224.45 435.69 2546.3
229.31 432.40 2527.0
235.62 431.97 2524.5
241.17 430.19 2514.1
246.08 427.40 2497.8
254.08 429.98 2512.8
262.15 432.55 2527.9
270.20 434.95 2541.9
279.06 438.53 2562.8
284.10 436.06 2548.4
288.28 432.42 2527.1
294.06 431.29 2520.5
300.74 431.50 2521.7
309.21 434.21 2537.6
322.03 442.79 2587.7
348.28 442.05 2583.4
357.95 445.75 2605.0
374.97 458.29 2678.3
379.41 455.29 2660.8
385.32 454.13 2654.0
394.22 456.47 2667.7
399.67 454.80 2657.9
-131.61 503.20 2986.0
-122.69 498.44 2957.8
-115.00 498.33 2957.1
-107.84 500.70 2971.2
-100.08 500.41 2969.5
-92.24 499.62 2964.8
-84.00 496.34 2945.3
-76.24 495.54 2940.6
-67.86 490.09 2908.2
-58.77 477.49 2833.4
-50.94 473.03 2807.0
-44.37 480.69 2852.4
-37.46 487.02 2890.0
-29.33 476.57 2828.0
7.03 456.65 2709.8
13.54 440.19 2612.1
20.22 438.03 2599.3
27.32 444.00 2634.7
33.69 438.00 2599.1
39.16 424.20 2517.2
45.91 426.34 2529.9
53.55 435.12 2582.0
59.76 431.61 2561.2
65.09 423.11 2510.8
70.95 419.26 2487.9
76.54 414.58 2460.1
96.80 419.45 2489.0
103.08 418.74 2484.9
109.51 418.70 2484.6
115.29 416.33 2470.5
121.68 416.28 2470.2
131.18 426.35 2530.0
138.74 429.44 2548.3
144.15 425.90 2527.3
149.33 422.02 2504.3
155.00 419.80 2491.1
162.65 422.88 2509.4
172.11 430.28 2553.3
180.01 433.35 2571.5
184.86 429.13 2546.5
191.27 428.72 2544.0
197.83 428.64 2543.6
204.47 428.72 2544.0
212.65 431.94 2563.2
219.33 432.02 2563.6
227.57 435.07 2581.7
236.44 439.11 2605.7
241.95 436.86 2592.3
246.82 433.61 2573.1
253.53 433.67 2573.4
263.11 438.52 2602.2
267.96 435.44 2583.9
272.40 431.85 2562.6
282.28 436.86 2592.3
288.59 436.24 2588.7
287.51 424.72 2520.3
296.55 419.03 2486.6
306.24 423.53 2513.2
316.32 428.34 2541.8
326.41 432.99 2569.4
338.80 440.44 2613.6
345.59 440.46 2613.7
345.27 431.58 2561.0
358.77 440.00 2611.0
374.30 450.55 2673.6
376.78 445.29 2642.4
379.25 440.20 2612.2
383.72 437.57 2596.6
391.18 438.40 2601.5
413.44 455.49 2702.9
-132.79 499.92 3012.9
-122.83 491.31 2961.0
-114.43 488.25 2942.6
-106.78 488.13 2941.9
-99.29 488.83 2946.1
-91.66 488.87 2946.3
-83.44 485.47 2925.8
-75.66 484.19 2918.1
-67.56 480.46 2895.6
-58.69 469.52 2829.7
-51.21 468.24 2822.0
-44.90 478.89 2886.2
-37.41 478.91 2886.3
-28.87 461.90 2783.8
-7.04 450.30 2713.9
0.00 464.06 2796.8
13.73 439.50 2648.8
20.54 438.18 2640.8
27.82 445.04 2682.2
41.60 443.71 2674.1
47.06 430.27 2593.1
53.02 424.19 2556.5
59.58 423.68 2553.4
65.35 418.25 2520.7
71.99 418.88 2524.5
78.53 418.84 2524.3
83.44 410.79 2475.8
90.39 413.21 2490.3
98.22 419.06 2525.6
104.39 417.55 2516.5
110.90 417.50 2516.2
116.72 415.00 2501.1
120.91 407.27 2454.5
127.87 409.18 2466.0
136.55 416.15 2508.0
143.31 416.91 2512.6
151.27 420.93 2536.9
159.97 426.59 2570.9
166.67 426.68 2571.5
175.17 431.18 2598.7
183.05 433.89 2614.9
187.93 429.56 2588.9
193.06 426.06 2567.7
198.22 422.87 2548.6
203.37 419.85 2530.4
210.29 420.58 2534.8
216.98 420.82 2536.2
225.16 423.83 2554.3
235.29 430.25 2593.0
242.42 430.97 2597.4
246.83 426.95 2573.2
252.77 425.71 2565.7
261.04 428.37 2581.7
264.41 423.05 2549.7
270.22 421.80 2542.1
281.54 429.01 2585.6
286.63 426.62 2571.1
284.61 413.97 2494.9
300.76 418.45 2521.9
308.52 420.11 2531.9
316.45 421.93 2542.9
327.29 427.48 2576.3
340.33 435.63 2625.4
349.74 438.89 2645.1
352.53 433.88 2614.9
356.10 430.00 2591.5
361.46 428.40 2581.9
368.44 428.73 2583.9
375.58 429.23 2586.9
383.01 430.05 2591.8
394.13 434.91 2621.1
410.33 445.10 2682.5
-123.65 486.89 2981.0
-114.98 482.91 2956.6
-108.26 487.15 2982.5
-92.38 484.98 2969.2
-83.08 475.83 2913.2
-74.64 470.22 2878.9
-58.96 464.31 2842.7
-52.88 475.94 2913.9
-45.44 477.09 2920.9
-37.07 467.11 2859.9
-29.22 460.19 2817.5
-21.71 455.85 2790.9
-7.30 460.06 2816.7
0.00 458.77 2808.8
6.92 435.71 2667.6
13.56 427.01 2614.3
20.70 434.74 2661.7
27.97 440.53 2697.1
41.63 437.12 2676.2
46.90 422.11 2584.3
53.43 420.80 2576.3
60.69 424.80 2600.8
66.20 417.04 2553.3
72.56 415.56 2544.3
80.07 420.37 2573.7
86.10 417.27 2554.7
91.93 413.69 2532.8
98.41 413.33 2530.6
105.17 414.09 2535.3
112.34 416.30 2548.8
118.24 413.84 2533.7
122.66 406.70 2490.0
129.86 409.07 2504.5
138.75 416.26 2548.5
145.84 417.65 2557.0
154.21 422.41 2586.2
160.53 421.38 2579.9
164.70 415.04 2541.1
171.79 416.26 2548.5
178.23 415.86 2546.1
186.51 419.65 2569.3
195.58 424.88 2601.3
200.45 420.94 2577.2
205.43 417.48 2556.0
212.66 418.68 2563.3
219.93 419.88 2570.7
223.69 414.48 2537.7
228.97 412.14 2523.3
237.75 416.06 2547.3
244.01 415.48 2543.8
248.90 412.65 2526.4
255.98 413.51 2531.7
260.24 409.88 2509.5
267.09 410.41 2512.7
280.27 420.40 2573.9
287.41 421.09 2578.1
285.17 408.31 2499.9
289.74 405.63 2483.5
300.88 412.08 2522.9
307.81 412.59 2526.1
317.31 416.47 2549.8
329.54 423.69 2594.0
337.68 425.48 2605.0
341.99 422.46 2586.5
346.08 419.29 2567.1
350.87 417.07 2553.5
364.48 425.23 2603.4
381.41 436.89 2674.8
391.19 440.09 2694.4
-124.40 482.05 2999.0
-113.91 470.84 2929.2
-105.83 468.67 2915.7
-99.61 475.05 2955.4
-91.06 470.49 2927.0
-82.72 466.24 2900.6
-74.98 464.85 2891.9
-67.28 463.45 2883.2
-60.95 472.36 2938.7
-53.51 473.97 2948.7
-45.03 465.26 2894.5
-37.28 462.27 2875.8
-29.82 462.28 2875.9
-22.38 462.45 2877.0
-7.34 455.16 2831.6
0.00 436.75 2717.1
6.81 422.15 2626.3
13.61 421.99 2625.3
20.59 425.47 2646.9
27.53 426.73 2654.8
34.40 426.56 2653.7
40.51 418.61 2604.3
46.63 413.04 2569.6
54.23 420.32 2614.9
61.33 422.52 2628.6
66.56 412.65 2567.2
73.24 412.78 2568.0
81.12 419.10 2607.3
86.34 411.77 2561.7
91.22 403.96 2513.1
97.38 402.49 2504.0
103.78 402.14 2501.8
110.86 404.31 2515.3
116.72 402.05 2501.2
122.22 398.83 2481.2
130.68 405.12 2520.3
139.08 410.61 2554.5
145.79 410.87 2556.1
151.57 408.59 2541.9
154.95 400.29 2490.3
173.82 399.14 2483.1
183.30 405.87 2525.0
194.25 415.30 2583.6
201.29 416.01 2588.1
205.59 411.18 2558.0
212.18 411.09 2557.5
219.52 412.43 2565.8
223.35 407.28 2533.8
227.90 403.71 2511.6
236.38 407.10 2532.6
246.28 412.69 2567.4
255.30 416.54 2591.3
261.05 415.01 2581.9
263.91 409.06 2544.9
264.80 400.43 2491.2
271.94 401.43 2497.4
284.35 409.99 2550.7
287.97 405.78 2524.4
309.51 399.78 2487.1
323.20 408.95 2544.2
332.87 412.75 2567.8
338.90 411.99 2563.1
345.16 411.54 2560.3
348.19 407.31 2534.0
359.70 412.99 2569.3
379.34 427.62 2660.3
-124.57 474.94 3003.1
-89.44 454.66 2874.9
-82.13 455.47 2880.0
-74.42 453.94 2870.4
-66.75 452.41 2860.7
-60.30 459.78 2907.3
-52.73 459.49 2905.4
-45.03 457.79 2894.7
-37.88 462.18 2922.4
-29.92 456.26 2885.0
-22.18 450.96 2851.5
-7.38 450.03 2845.6
0.00 437.38 2765.6
13.79 420.50 2658.9
20.53 417.37 2639.1
27.15 414.08 2618.3
33.61 410.01 2592.6
40.11 407.81 2578.6
46.78 407.63 2577.5
53.58 408.55 2583.3
59.77 405.09 2561.5
66.12 403.35 2550.5
74.19 411.44 2601.6
86.41 405.44 2563.7
91.36 398.07 2517.1
97.61 396.94 2509.9
105.09 400.65 2533.4
113.30 406.53 2570.6
118.89 402.90 2547.6
124.12 398.48 2519.7
129.87 396.09 2504.5
135.27 392.92 2484.5
143.43 397.70 2514.7
150.87 400.13 2530.1
156.61 398.04 2516.9
162.98 397.67 2514.5
169.54 397.76 2515.1
176.92 399.72 2527.5
187.88 409.30 2588.1
205.43 404.24 2556.1
213.65 407.27 2575.3
222.81 411.86 2604.2
223.96 401.81 2540.7
225.67 393.31 2487.0
238.22 403.65 2552.3
262.45 410.50 2595.7
266.56 406.51 2570.4
268.77 399.88 2528.5
272.69 396.04 2504.3
281.73 399.66 2527.1
295.36 409.48 2589.2
306.34 415.26 2625.8
307.91 408.31 2581.8
309.49 401.68 2539.9
315.24 400.62 2533.2
325.57 405.30 2562.8
335.41 409.20 2587.5
341.23 408.14 2580.7
349.92 410.48 2595.5
356.26 410.03 2592.7
358.61 405.09 2561.5
367.63 407.74 2578.2
383.83 418.11 2643.8
409.18 423.05 2675.0
-115.04 460.17 2958.2
-107.27 459.75 2955.5
-99.62 459.79 2955.8
-91.90 459.52 2954.1
-82.45 449.72 2891.1
-66.59 443.94 2853.9
-61.04 457.80 2943.0
-53.05 454.75 2923.4
-44.95 449.54 2889.9
-38.27 459.24 2952.3
-30.56 458.33 2946.4
-22.32 446.35 2869.4
-14.79 443.59 2851.7
0.00 437.45 2812.2
13.99 419.61 2697.5
20.63 412.69 2653.0
27.05 405.77 2608.5
33.33 399.91 2570.9
39.59 395.90 2545.1
45.76 392.20 2521.3
52.04 390.33 2509.3
59.56 397.07 2552.6
67.56 405.35 2605.8
74.00 403.63 2594.8
79.55 397.76 2557.0
86.11 397.42 2554.8
93.15 399.23 2566.5
99.53 398.11 2559.3
107.05 401.45 2580.8
119.35 397.83 2557.5
123.83 391.03 2513.8
128.74 386.22 2482.8
136.56 390.16 2508.2
147.48 402.23 2585.8
153.69 400.94 2577.5
158.08 395.20 2540.6
165.28 396.67 2550.0
172.86 398.91 2564.4
177.55 394.55 2536.4
185.52 397.54 2555.6
196.55 406.66 2614.3
199.46 398.92 2564.5
204.72 396.24 2547.2
217.33 407.49 2619.6
230.73 407.17 2617.5
231.65 397.12 2552.9
243.18 405.30 2605.5
254.43 401.74 2582.6
257.58 396.28 2547.5
261.67 392.51 2523.3
269.29 394.09 2533.4
278.57 397.96 2558.3
282.71 394.49 2536.0
291.22 397.12 2552.9
313.30 408.65 2627.0
316.78 404.40 2599.7
324.52 405.65 2607.8
328.44 402.17 2585.4
330.97 397.16 2553.2
339.68 399.62 2569.0
351.77 405.89 2609.3
364.07 412.15 2649.5
373.55 415.05 2668.2
373.63 407.60 2620.3
379.44 406.54 2613.5
397.20 418.11 2687.8
412.33 419.32 2695.6
-129.88 450.77 2946.9
-123.65 455.95 2980.8
-116.28 457.36 2990.0
-109.00 459.37 3003.1
-93.45 459.44 3003.6
-83.64 448.60 2932.7
-74.50 439.56 2873.6
-68.23 447.29 2924.2
-61.86 456.24 2982.7
-53.16 448.10 2929.5
-44.82 440.71 2881.1
-37.87 446.92 2921.8
-30.39 448.30 2930.8
-22.27 438.03 2863.6
-14.58 430.02 2811.3
-7.23 426.85 2790.5
0.00 428.51 2801.4
7.25 427.60 2795.5
20.57 404.61 2645.2
27.11 399.91 2614.5
33.57 396.12 2589.7
39.79 391.27 2557.9
45.86 386.57 2527.2
52.39 386.40 2526.1
60.25 394.99 2582.3
68.22 402.52 2631.5
74.53 399.78 2613.6
80.41 395.36 2584.7
87.31 396.24 2590.4
93.87 395.60 2586.2
99.72 392.24 2564.3
106.32 392.05 2563.0
112.82 391.55 2559.8
118.52 388.48 2539.7
124.12 385.42 2519.7
129.05 380.69 2488.7
136.88 384.56 2514.1
146.98 394.17 2576.9
152.46 391.09 2556.8
158.08 388.62 2540.6
166.69 393.38 2571.8
173.59 393.92 2575.3
177.55 387.97 2536.4
180.65 380.66 2488.6
186.11 378.63 2475.3
194.10 381.72 2495.5
205.12 390.39 2552.2
213.65 393.93 2575.3
219.78 392.94 2568.8
229.34 397.97 2601.8
237.91 401.05 2621.9
243.82 399.60 2612.4
247.52 394.69 2580.3
251.72 390.83 2555.1
257.38 389.38 2545.6
260.76 384.61 2514.4
267.73 385.26 2518.7
277.07 389.22 2544.5
281.07 385.66 2521.2
287.19 385.10 2517.6
299.82 393.10 2569.9
312.95 401.39 2624.1
326.48 401.30 2623.5
325.82 392.32 2564.8
330.33 389.79 2548.3
341.11 394.61 2579.8
351.91 399.28 2610.3
362.46 403.49 2637.8
370.81 405.15 2648.7
369.87 396.77 2593.9
372.06 391.99 2562.6
385.07 398.58 2605.7
405.20 412.19 2694.7
-130.89 446.56 2969.8
-115.28 445.77 2964.5
-100.03 446.29 2968.0
-90.22 436.08 2900.0
-82.40 434.47 2889.4
-74.71 433.31 2881.6
-67.66 436.02 2899.6
-60.70 440.06 2926.5
-53.35 442.01 2939.5
-45.99 444.56 2956.4
-38.36 445.02 2959.5
-30.38 440.57 2929.9
-22.31 431.36 2868.7
-14.64 424.53 2823.2
-7.25 420.67 2797.5
0.00 422.01 2806.4
7.34 425.87 2832.2
14.42 418.28 2781.7
20.88 403.70 2684.7
27.31 395.96 2633.3
34.45 399.67 2657.9
41.56 401.74 2671.6
47.64 394.73 2625.1
54.11 392.33 2609.1
60.60 390.53 2597.1
66.92 388.12 2581.1
73.41 387.06 2574.0
79.40 383.76 2552.1
85.94 383.43 2549.9
92.08 381.46 2536.8
98.76 381.87 2539.6
106.36 385.55 2564.0
112.65 384.32 2555.8
118.06 380.41 2529.8
124.07 378.73 2518.7
129.51 375.57 2497.6
135.26 373.58 2484.4
142.92 376.80 2505.8
150.75 380.16 2528.1
158.88 383.96 2553.4
168.22 390.28 2595.4
175.92 392.44 2609.8
180.17 387.03 2573.8
183.30 379.69 2525.0
189.81 379.62 2524.6
199.16 385.03 2560.6
205.20 383.92 2553.2
208.09 377.17 2508.3
218.68 384.35 2556.0
237.64 393.81 2618.9
239.87 386.46 2570.1
246.00 385.63 2564.5
252.49 385.39 2562.9
265.14 394.32 2622.3
270.13 382.13 2541.3
276.25 372.61 2478.0
288.42 380.19 2528.4
296.27 381.85 2539.4
304.75 384.25 2555.4
317.26 391.52 2603.7
322.57 389.77 2592.1
324.58 384.19 2555.0
331.98 385.10 2561.0
342.40 389.40 2589.6
352.30 392.95 2613.2
357.21 390.91 2599.6
359.16 385.76 2565.4
367.91 387.98 2580.2
381.58 395.20 2628.2
386.80 393.59 2617.5
396.83 396.83 2639.0
-122.18 435.28 2945.5
-116.44 442.48 2994.2
-100.84 442.13 2991.8
-91.55 434.86 2942.6
-84.04 435.47 2946.8
-75.69 431.41 2919.3
-68.12 431.44 2919.5
-61.17 435.85 2949.3
-53.83 438.35 2966.3
-46.11 438.08 2964.5
-38.25 436.05 2950.7
-30.55 435.33 2945.9
-22.64 430.08 2910.3
-14.76 420.58 2846.1
-7.27 414.30 2803.5
0.00 410.06 2774.9
20.76 394.41 2668.9
27.14 386.80 2617.4
34.25 390.44 2642.1
41.73 396.42 2682.5
48.25 392.90 2658.7
54.09 385.42 2608.1
59.81 378.82 2563.5
65.74 374.71 2535.6
71.71 371.61 2514.7
78.75 374.07 2531.3
86.54 379.44 2567.7
91.83 373.86 2529.9
97.49 370.46 2506.9
105.41 375.54 2541.2
111.99 375.50 2541.0
117.73 372.83 2522.9
124.02 372.05 2517.6
128.58 366.46 2479.8
141.34 366.21 2478.1
149.57 370.68 2508.4
159.00 377.63 2555.4
174.79 383.19 2593.0
176.30 372.19 2518.6
183.37 373.29 2526.0
194.26 381.82 2583.7
200.38 380.72 2576.3
202.98 373.22 2525.5
208.09 370.66 2508.2
221.29 382.24 2586.6
237.73 387.16 2619.9
237.02 375.28 2539.5
240.24 370.10 2504.4
249.78 374.66 2535.3
265.34 387.81 2624.3
273.58 380.34 2573.7
270.85 367.59 2487.4
281.61 373.30 2526.1
289.54 375.08 2538.2
293.28 371.49 2513.8
305.80 378.93 2564.2
322.77 391.44 2648.8
327.58 389.00 2632.3
329.31 383.07 2592.2
336.81 383.97 2598.3
347.33 388.19 2626.9
358.78 393.28 2661.3
365.42 393.00 2659.4
369.17 389.68 2636.9
380.76 394.61 2670.3
388.54 395.48 2676.2
385.35 385.35 2607.7
395.35 388.54 2629.2
414.44 400.39 2709.4
-115.79 432.30 2977.6
-106.72 426.88 2940.3
-100.41 432.52 2979.1
-93.68 437.15 3011.0
-69.58 432.93 2981.9
-61.05 427.35 2943.5
-54.07 432.55 2979.3
-38.26 428.56 2951.8
-30.26 423.69 2918.2
-22.42 418.52 2882.7
-14.59 408.47 2813.5
-7.20 403.02 2775.9
7.16 401.15 2763.0
20.83 388.78 2677.8
27.03 378.43 2606.5
33.45 374.68 2580.7
40.00 373.38 2571.7
46.35 370.78 2553.8
59.42 369.73 2546.6
67.35 377.18 2597.9
72.76 370.40 2551.2
79.27 369.94 2548.1
86.64 373.21 2570.6
91.43 365.71 2518.9
96.64 360.80 2485.1
103.98 363.92 2506.6
111.55 367.47 2531.0
118.47 368.57 2538.6
124.70 367.52 2531.4
129.19 361.74 2491.6
140.04 356.47 2455.3
149.80 364.74 2512.2
160.96 375.58 2586.9
168.54 377.53 2600.3
169.86 365.86 2519.9
176.09 365.22 2515.5
188.45 376.90 2596.0
196.85 380.13 2618.2
200.45 374.18 2577.3
204.08 368.66 2539.3
210.46 368.30 2536.8
219.35 372.23 2563.9
228.03 375.59 2587.0
234.69 375.50 2586.4
237.66 369.69 2546.4
253.39 363.85 2506.1
260.84 365.18 2515.3
267.40 365.23 2515.6
275.56 367.41 2530.7
286.43 373.03 2569.3
294.13 374.35 2578.4
295.11 367.25 2529.5
304.98 371.28 2557.3
324.32 386.43 2661.6
331.98 387.31 2667.7
337.91 386.19 2660.0
352.39 386.93 2665.1
354.41 381.68 2628.9
364.21 384.82 2650.6
371.64 385.40 2654.5
377.41 384.27 2646.8
377.87 377.87 2602.7
381.30 374.61 2580.2
399.32 385.55 2655.6
-107.01 420.40 2948.3
-98.71 417.62 2928.7
-92.35 423.29 2968.6
-85.94 429.68 3013.3
-62.30 428.34 3004.0
-38.20 420.21 2946.9
-30.07 413.45 2899.5
-22.18 406.68 2852.1
-14.55 400.06 2805.6
-7.22 397.24 2785.8
0.00 399.21 2799.7
7.40 407.12 2855.1
14.55 400.06 2805.6
20.70 379.44 2661.0
27.09 372.51 2612.4
33.88 372.64 2613.3
40.77 373.76 2621.2
47.50 373.18 2617.1
53.13 365.26 2561.5
60.57 370.18 2596.0
67.71 372.41 2611.7
72.16 360.81 2530.4
78.16 358.25 2512.4
84.97 359.49 2521.1
91.21 358.33 2512.9
98.02 359.42 2520.6
104.51 359.24 2519.4
111.11 359.49 2521.1
117.82 360.01 2524.7
124.01 358.98 2517.5
131.08 360.48 2528.1
137.84 361.00 2531.7
141.73 354.32 2484.9
148.03 353.99 2482.5
159.06 364.50 2556.2
166.30 365.85 2565.7
168.59 356.64 2501.1
175.87 358.26 2512.5
186.66 366.65 2571.3
193.29 366.58 2570.8
199.07 364.96 2559.5
205.35 364.32 2555.0
211.68 363.83 2551.5
220.11 366.84 2572.7
228.64 369.86 2593.8
235.22 369.63 2592.2
236.83 361.82 2537.4
252.69 356.35 2499.1
258.79 355.84 2495.5
263.73 353.78 2481.1
273.95 358.74 2515.8
286.53 366.50 2570.2
296.48 370.60 2599.0
299.69 366.29 2568.8
300.40 359.17 2518.8
310.19 362.99 2545.6
318.89 365.39 2562.5
325.81 365.70 2564.7
342.28 376.50 2640.4
348.23 375.54 2633.7
350.97 371.22 2603.3
361.51 375.15 2630.9
363.26 369.99 2594.7
362.31 362.31 2540.9
372.18 365.53 2563.5
386.94 373.36 2618.4
402.41 381.60 2676.1
-107.59 414.98 2964.2
-82.97 407.32 2909.5
-76.77 414.56 2961.1
-54.41 419.76 2998.3
-46.12 415.06 2964.7
-37.41 403.99 2885.6
-29.30 395.54 2825.3
-22.15 398.74 2848.1
-14.93 403.04 2878.9
-7.35 397.09 2836.3
0.00 395.56 2825.4
7.40 399.44 2853.2
14.40 388.90 2777.9
68.17 368.13 2629.5
71.93 353.13 2522.4
77.21 347.43 2481.6
85.37 354.60 2532.9
93.15 359.28 2566.3
98.75 355.51 2539.3
103.93 350.76 2505.4
109.98 349.34 2495.3
116.06 348.19 2487.1
124.15 352.86 2520.4
133.44 360.29 2573.5
138.64 356.50 2546.4
140.99 346.07 2471.9
147.91 347.26 2480.4
159.67 359.25 2566.1
165.46 357.39 2552.8
166.32 345.43 2467.4
173.59 347.17 2479.8
184.57 355.96 2542.6
190.09 353.96 2528.3
194.99 350.99 2507.1
204.07 355.48 2539.1
213.15 359.69 2569.2
216.64 354.50 2532.1
219.76 349.04 2493.1
231.46 357.10 2550.7
238.38 357.57 2554.1
239.84 350.03 2500.3
249.85 355.05 2536.1
259.95 359.93 2570.9
263.79 356.12 2543.7
271.78 357.95 2556.8
285.19 366.68 2619.1
289.38 363.41 2595.8
290.41 356.41 2545.8
303.47 364.16 2601.2
314.46 369.15 2636.8
315.81 362.84 2591.7
315.46 354.89 2534.9
330.30 356.72 2548.0
338.35 358.26 2559.0
343.29 356.49 2546.4
358.53 365.30 2609.3
366.00 366.00 2614.3
361.60 355.02 2535.9
382.29 362.17 2586.9
397.55 370.13 2643.8
410.09 375.34 2681.0
416.27 374.64 2676.0
423.51 374.91 2677.9
-117.03 413.52 3009.5
-76.10 403.35 2935.4
-70.12 412.90 3005.0
-45.56 402.48 2929.1
-28.90 382.91 2786.7
-22.21 392.31 2855.1
-14.98 397.08 2889.8
-7.38 391.10 2846.2
0.00 386.47 2812.6
7.30 387.01 2816.5
14.64 387.96 2823.4
21.91 387.00 2816.5
41.45 366.14 2664.6
48.57 367.76 2676.4
55.61 368.42 2681.2
62.35 367.18 2672.2
68.17 361.30 2629.4
71.99 346.85 2524.3
77.05 340.30 2476.5
85.20 347.34 2527.8
93.90 355.47 2587.0
100.44 354.90 2582.8
104.87 347.38 2528.1
110.19 343.53 2500.1
115.18 339.14 2468.1
122.15 340.73 2479.7
131.13 347.49 2528.9
136.05 343.36 2498.9
141.04 339.78 2472.8
150.91 347.75 2530.8
160.71 354.89 2582.8
164.17 348.04 2532.9
169.91 346.36 2520.6
182.78 358.79 2611.1
188.73 357.23 2599.8
188.82 345.08 2511.4
192.99 340.94 2481.3
201.44 344.40 2506.4
211.50 350.30 2549.4
215.95 346.84 2524.1
228.49 346.00 2518.1
242.52 357.04 2598.4
251.28 359.94 2619.5
256.64 357.95 2605.0
261.64 355.56 2587.6
264.80 350.86 2553.4
272.08 351.72 2559.7
284.65 359.20 2614.1
287.94 354.91 2582.9
290.06 349.40 2542.8
304.15 358.22 2607.0
319.87 360.71 2625.1
320.22 353.57 2573.2
323.91 350.35 2549.7
333.09 353.08 2569.6
338.34 351.61 2558.9
341.42 347.98 2532.5
355.02 355.02 2583.7
361.18 354.49 2579.8
383.58 356.67 2595.7
396.50 362.32 2636.9
406.63 365.28 2658.4
417.18 368.51 2681.8
-109.96 408.44 3029.6
-99.98 399.93 2966.5
-91.74 397.56 2948.9
-83.88 396.52 2941.2
-77.18 401.35 2977.1
-53.19 395.14 2931.0
-22.07 382.50 2837.2
-14.91 387.72 2875.9
-7.37 383.05 2841.3
0.00 379.31 2813.5
7.25 377.17 2797.7
14.43 375.29 2783.8
21.71 376.36 2791.7
34.82 362.18 2686.5
41.19 356.95 2647.7
47.91 355.87 2639.7
54.44 353.85 2624.7
60.36 348.75 2586.9
65.39 340.05 2522.3
83.42 333.70 2475.2
91.45 339.67 2519.6
98.51 341.51 2533.2
103.55 336.54 2496.3
110.93 339.30 2516.8
118.18 341.40 2532.4
121.85 333.48 2473.6
127.32 331.04 2455.5
134.21 332.33 2465.1
141.31 334.02 2477.6
150.31 339.84 2520.8
159.04 344.58 2556.0
166.28 345.86 2565.5
176.10 352.20 2612.5
193.56 347.08 2574.5
201.58 349.41 2591.8
206.28 346.01 2566.6
212.31 345.01 2559.1
221.27 348.66 2586.2
228.44 349.39 2591.6
233.68 347.18 2575.2
241.68 349.09 2589.4
263.32 351.10 2604.3
264.69 344.09 2552.3
270.50 343.07 2544.8
281.64 348.69 2586.4
286.50 346.47 2570.0
290.39 343.19 2545.6
301.38 348.26 2583.3
310.69 351.21 2605.1
318.30 352.17 2612.2
323.26 350.20 2597.6
329.64 349.83 2594.9
342.00 355.68 2638.3
346.90 353.70 2623.6
349.88 349.88 2595.3
357.97 351.22 2605.2
357.59 344.34 2554.2
384.87 351.11 2604.4
403.27 361.55 2681.9
410.07 361.42 2680.8
416.10 360.62 2674.9
418.84 357.05 2648.4
426.01 357.30 2650.3
-115.65 393.21 2973.9
-108.56 395.48 2991.0
-99.68 391.06 2957.6
-91.84 390.31 2951.9
-84.25 390.60 2954.1
-76.80 391.67 2962.2
-69.59 394.32 2982.2
-61.90 394.60 2984.4
-52.78 384.53 2908.2
-29.10 371.07 2806.4
-22.09 375.54 2840.2
-14.99 382.23 2890.8
-7.44 379.35 2869.0
0.00 376.33 2846.2
7.35 374.89 2835.3
14.32 365.19 2761.9
27.95 356.39 2695.4
34.14 348.25 2633.9
40.45 343.79 2600.1
47.06 342.85 2593.0
54.21 345.59 2613.7
60.80 344.52 2605.6
66.29 338.08 2556.9
71.44 331.24 2505.2
89.72 326.84 2471.9
96.39 327.72 2478.6
102.48 326.64 2470.4
111.05 333.15 2519.6
119.88 339.66 2568.9
125.11 335.82 2539.8
129.27 329.63 2493.0
134.85 327.49 2476.8
141.59 328.23 2482.4
150.24 333.15 2519.6
157.98 335.72 2539.0
164.22 335.01 2533.7
