ply
format ascii 1.0
element vertex 2312
property float x
property float y
property float z
end_header
238.22 311.52 1413.6
248.21 319.67 1450.6
253.71 321.87 1460.6
257.39 321.74 1460.0
266.91 328.81 1492.1
269.62 327.39 1485.6
269.10 322.17 1461.9
272.95 322.23 1462.2
279.34 325.26 1476.0
284.88 327.23 1484.9
288.23 326.66 1482.3
296.28 331.37 1503.7
311.33 343.67 1559.5
324.32 353.43 1603.8
329.11 354.10 1606.9
335.89 356.88 1619.5
346.15 363.24 1648.3
354.51 367.48 1667.6
367.50 376.35 1707.8
380.68 385.21 1748.0
384.17 384.17 1743.3
-73.67 386.75 1775.9
-67.55 378.28 1737.0
-62.80 376.83 1730.3
-57.70 372.82 1711.9
-52.96 370.72 1702.3
-47.88 365.64 1679.0
-42.90 360.35 1654.7
-38.02 354.84 1629.4
-32.95 345.93 1588.4
-28.49 341.90 1569.9
-24.65 345.11 1584.7
-20.44 343.42 1576.9
-15.89 333.64 1532.0
-11.63 325.77 1495.9
-7.61 319.82 1468.6
-3.78 317.69 1458.8
0.00 325.14 1493.0
3.95 331.74 1523.3
7.82 328.54 1508.6
11.69 327.26 1502.7
15.63 328.32 1507.6
19.43 326.39 1498.7
23.12 323.62 1486.0
26.91 322.96 1483.0
31.24 328.06 1506.4
34.83 325.06 1492.6
37.68 316.53 1453.5
41.39 316.08 1451.4
45.58 319.04 1465.0
49.17 317.74 1459.0
52.49 314.94 1446.2
56.65 317.25 1456.8
61.07 320.62 1472.3
65.10 321.65 1477.0
69.42 323.96 1487.6
74.32 328.59 1508.8
79.64 334.50 1536.0
84.31 337.22 1548.5
86.30 329.53 1513.1
86.38 315.46 1448.5
89.03 311.59 1430.8
93.04 312.60 1435.4
97.60 315.31 1447.9
103.93 323.32 1484.7
104.50 313.50 1439.6
104.18 301.77 1385.7
111.62 312.54 1435.1
117.35 317.99 1460.2
116.35 305.42 1402.4
116.21 295.81 1358.3
120.22 297.02 1363.9
126.20 302.89 1390.8
133.05 310.45 1425.5
138.67 314.83 1445.6
141.72 313.27 1438.5
143.54 309.17 1419.7
148.09 311.00 1428.0
149.59 306.47 1407.3
145.15 290.31 1333.1
144.56 282.40 1296.8
146.33 279.37 1282.8
145.88 272.31 1250.4
150.12 274.13 1258.8
157.71 281.87 1294.3
163.92 286.86 1317.2
165.68 284.02 1304.2
163.86 275.28 1264.0
167.46 275.82 1266.5
175.66 283.75 1302.9
183.63 291.04 1336.4
193.81 301.48 1384.4
197.88 302.22 1387.8
195.93 293.90 1349.5
197.50 291.06 1336.5
205.55 297.69 1366.9
216.85 308.73 1417.7
219.54 307.36 1411.3
218.99 301.56 1384.7
225.60 305.65 1403.5
234.66 312.89 1436.7
235.89 309.61 1421.7
238.02 307.60 1412.4
249.00 316.91 1455.2
257.36 322.66 1481.6
263.80 325.88 1496.4
264.30 321.75 1477.4
258.76 310.51 1425.8
261.46 309.33 1420.4
268.97 313.80 1440.9
277.13 318.89 1464.3
284.66 323.13 1483.8
292.67 327.79 1505.2
305.13 337.25 1548.6
310.72 338.97 1556.5
313.64 337.76 1551.0
324.77 345.32 1585.7
338.45 355.37 1631.8
348.54 361.45 1659.7
357.14 365.85 1679.9
363.78 368.16 1690.5
370.06 370.06 1699.2
378.27 373.82 1716.5
393.59 384.43 1765.2
-72.73 377.30 1753.4
-66.71 369.14 1715.5
-62.31 369.39 1716.6
-57.50 367.11 1706.0
-52.62 363.98 1691.5
-47.46 358.12 1664.2
-42.39 351.84 1635.0
-37.40 344.92 1602.9
-32.90 341.36 1586.4
-28.83 341.80 1588.4
-24.41 337.60 1568.9
-19.86 329.62 1531.8
-15.99 331.74 1541.6
-12.13 335.53 1559.3
-7.91 328.38 1526.0
-3.91 324.81 1509.4
0.00 327.55 1522.2
3.97 329.65 1531.9
7.87 326.70 1518.2
11.76 325.22 1511.4
15.58 323.32 1502.5
19.22 319.11 1482.9
23.28 322.04 1496.6
27.64 327.70 1522.9
31.46 326.43 1517.0
34.48 318.00 1477.8
37.65 312.51 1452.3
41.69 314.59 1462.0
46.06 318.56 1480.4
49.92 318.75 1481.3
53.69 318.30 1479.2
58.35 322.89 1500.5
60.94 316.14 1469.1
62.81 306.64 1425.0
66.81 308.08 1431.7
71.38 311.83 1449.1
77.71 322.50 1498.7
83.66 330.65 1536.6
85.63 323.05 1501.3
85.90 309.98 1440.5
86.83 300.27 1395.4
88.79 294.77 1369.8
92.91 296.61 1378.4
98.72 303.48 1410.3
103.14 305.74 1420.8
107.32 307.15 1427.4
111.68 308.98 1435.9
113.81 304.73 1416.1
117.06 303.62 1411.0
121.19 304.81 1416.5
121.83 297.41 1382.1
123.80 293.58 1364.3
129.03 297.49 1382.5
133.05 298.47 1387.0
138.82 303.21 1409.1
143.82 306.07 1422.4
145.65 302.22 1404.5
144.60 292.73 1360.4
143.75 284.08 1320.2
147.13 284.00 1319.8
152.51 287.69 1336.9
155.48 286.77 1332.7
152.63 275.40 1279.8
152.83 269.89 1254.2
158.57 274.19 1274.2
159.85 270.77 1258.3
168.72 280.08 1301.6
184.09 299.60 1392.3
181.63 289.91 1347.2
178.14 278.97 1296.4
188.08 289.09 1343.4
192.05 289.82 1346.8
199.97 296.39 1377.4
210.76 306.90 1426.2
206.53 295.55 1373.5
206.02 289.82 1346.9
210.94 291.79 1356.0
213.15 290.02 1347.8
221.99 297.18 1381.1
232.89 306.83 1425.9
240.18 311.48 1447.5
248.22 316.96 1473.0
254.58 320.15 1487.8
258.66 320.43 1489.1
261.22 318.85 1481.7
258.23 310.63 1443.5
258.02 305.94 1421.7
265.66 310.57 1443.3
271.80 313.33 1456.1
278.91 317.11 1473.7
288.50 323.59 1503.8
298.80 330.67 1536.7
306.80 335.06 1557.1
308.20 332.22 1543.9
309.34 329.17 1529.7
318.06 334.17 1552.9
330.87 343.28 1595.3
340.67 349.09 1622.3
349.79 354.06 1645.4
357.59 357.59 1661.8
366.50 362.13 1682.9
377.41 368.53 1712.6
389.10 375.53 1745.1
-66.82 365.30 1718.3
-60.71 355.57 1672.5
-56.38 355.60 1672.7
-51.92 354.80 1668.9
-46.68 347.97 1636.8
-41.58 340.92 1603.6
-36.76 334.91 1575.4
-32.39 332.02 1561.8
-29.20 342.02 1608.8
-25.38 346.81 1631.3
-20.25 332.06 1562.0
-15.98 327.50 1540.5
-12.11 331.04 1557.2
-7.90 323.97 1523.9
-3.92 321.07 1510.2
0.00 324.39 1525.9
3.97 325.23 1529.8
7.83 321.06 1510.2
11.57 316.28 1487.7
15.15 310.65 1461.3
19.08 312.93 1472.0
23.58 322.28 1515.9
27.58 323.10 1519.8
30.95 317.26 1492.3
34.57 314.96 1481.5
38.48 315.56 1484.3
42.52 316.99 1491.1
46.78 319.67 1503.7
50.41 317.98 1495.7
54.00 316.29 1487.8
59.26 323.95 1523.8
62.60 320.80 1509.0
64.09 309.14 1454.1
67.81 308.89 1453.0
71.18 307.19 1445.0
76.18 312.35 1469.2
82.53 322.27 1515.9
85.00 316.83 1490.3
84.95 302.88 1424.7
85.60 292.45 1375.7
88.77 291.16 1369.6
94.28 297.34 1398.6
98.91 300.40 1413.0
101.99 298.69 1405.0
104.88 296.56 1395.0
107.87 294.85 1386.9
111.84 295.83 1391.5
116.96 299.70 1409.8
124.17 308.55 1451.4
128.08 308.90 1453.0
126.25 295.78 1391.3
127.10 289.50 1361.8
131.91 292.33 1375.1
138.51 298.89 1405.9
141.63 297.78 1400.7
141.49 290.05 1364.4
143.02 286.05 1345.5
144.78 282.66 1329.6
148.29 282.79 1330.2
153.92 286.85 1349.3
158.51 288.83 1358.6
157.58 280.90 1321.3
155.16 270.70 1273.3
157.69 269.38 1267.1
162.89 272.60 1282.3
176.36 289.22 1360.5
191.75 308.31 1450.2
189.04 298.11 1402.3
179.69 278.02 1307.8
183.57 278.75 1311.2
192.01 286.27 1346.6
204.57 299.56 1409.1
211.59 304.39 1431.8
204.45 289.05 1359.7
207.31 288.12 1355.3
215.71 294.80 1386.7
220.29 296.13 1392.9
230.80 305.26 1435.9
232.70 302.88 1424.7
231.65 296.81 1396.1
243.15 306.74 1442.8
252.40 313.59 1475.1
258.80 316.74 1489.9
263.40 317.63 1494.1
261.81 311.14 1463.6
263.05 308.14 1449.4
272.71 314.96 1481.5
280.92 319.94 1504.9
286.15 321.43 1511.9
293.81 325.57 1531.4
298.95 326.85 1537.5
301.28 325.07 1529.1
305.29 325.12 1529.3
309.69 325.57 1531.4
313.12 325.01 1528.8
320.30 328.31 1544.3
328.57 332.63 1564.6
336.33 336.33 1582.0
351.59 347.35 1633.9
368.98 360.19 1694.3
378.44 365.08 1717.3
389.30 371.19 1746.0
400.94 377.90 1777.6
-73.46 371.89 1770.9
-66.21 357.55 1702.6
-59.92 346.69 1650.9
-55.45 345.49 1645.2
-51.40 346.96 1652.2
-46.45 342.05 1628.8
-41.04 332.42 1583.0
-36.05 324.43 1544.9
-31.84 322.39 1535.2
-28.71 332.27 1582.2
-24.99 337.42 1606.8
-19.98 323.66 1541.3
-15.59 315.66 1503.1
-11.69 315.67 1503.2
-7.80 315.88 1504.2
-3.95 319.99 1523.8
0.00 314.24 1496.4
3.78 306.01 1457.2
7.74 313.41 1492.4
11.84 319.78 1522.7
15.46 312.99 1490.4
19.34 313.39 1492.3
23.55 317.90 1513.8
27.13 313.98 1495.1
30.48 308.62 1469.6
34.04 306.35 1458.8
38.55 312.29 1487.1
43.27 318.63 1517.3
47.66 321.69 1531.9
51.43 320.43 1525.9
53.25 308.08 1467.1
56.48 304.97 1452.2
62.55 316.65 1507.8
67.31 320.72 1527.2
70.35 316.58 1507.5
72.95 311.00 1480.9
75.46 305.62 1455.3
78.91 304.35 1449.3
82.87 305.13 1453.0
84.59 297.90 1418.6
85.58 288.83 1375.4
89.26 289.20 1377.1
95.25 296.74 1413.0
100.40 301.20 1434.3
103.60 299.71 1427.2
106.77 298.22 1420.1
108.38 292.63 1393.5
110.80 289.50 1378.6
116.61 295.18 1405.6
124.82 306.38 1459.0
131.76 313.89 1494.7
133.48 308.91 1471.0
133.53 300.45 1430.7
137.40 300.79 1432.3
139.16 296.62 1412.5
137.37 285.30 1358.6
142.67 288.91 1375.8
149.62 295.58 1407.5
148.35 286.10 1362.4
148.70 280.10 1333.8
154.11 283.70 1351.0
158.25 284.85 1356.4
162.07 285.38 1358.9
164.36 283.25 1348.8
166.71 281.33 1339.7
172.60 285.32 1358.7
173.80 281.56 1340.8
176.07 279.64 1331.6
182.73 284.64 1355.4
183.25 280.07 1333.6
187.73 281.60 1341.0
196.12 288.83 1375.4
200.04 289.34 1377.8
198.81 282.52 1345.4
200.04 279.37 1330.3
210.38 288.82 1375.3
223.34 301.51 1435.8
232.49 308.71 1470.1
238.23 311.23 1482.1
236.29 303.80 1446.7
233.53 295.57 1407.5
242.78 302.54 1440.7
249.89 306.68 1460.4
254.24 307.36 1463.6
261.83 311.89 1485.2
263.84 309.73 1474.9
266.33 308.18 1467.5
276.75 315.73 1503.5
284.48 320.04 1524.0
289.39 321.11 1529.1
296.36 324.39 1544.7
300.97 325.05 1547.9
306.17 326.31 1553.9
312.73 328.98 1566.6
312.37 324.39 1544.7
311.11 318.99 1519.0
322.85 326.89 1556.6
336.19 336.19 1600.9
336.91 332.80 1584.8
343.11 334.84 1594.5
359.78 346.93 1652.1
369.78 352.38 1678.0
382.46 360.22 1715.3
396.62 369.26 1758.4
399.65 367.86 1751.7
408.82 372.07 1771.8
-82.57 367.00 1769.5
-77.22 363.39 1752.0
-71.67 358.35 1727.8
-66.36 353.92 1706.4
-61.48 351.32 1693.9
-56.07 345.06 1663.7
-51.28 341.84 1648.1
-46.39 337.40 1626.7
-41.01 328.08 1581.8
-36.02 320.18 1543.7
-31.78 317.76 1532.1
-27.70 316.56 1526.3
-23.35 311.29 1500.9
-19.47 311.51 1501.9
-15.82 316.39 1525.5
-11.99 319.85 1542.1
-8.09 323.51 1559.8
-4.02 321.89 1552.0
0.00 310.52 1497.1
3.82 305.44 1472.7
7.89 315.59 1521.6
11.93 318.23 1534.3
15.41 308.27 1486.3
19.32 309.07 1490.2
23.55 313.93 1513.6
27.04 309.05 1490.0
30.25 302.53 1458.6
34.01 302.32 1457.6
38.75 310.01 1494.7
43.41 315.67 1522.0
47.74 318.29 1534.6
51.68 318.06 1533.5
53.70 306.87 1479.6
56.92 303.60 1463.8
62.95 314.73 1517.4
67.95 319.76 1541.7
71.25 316.69 1526.9
74.48 313.61 1512.0
77.78 311.13 1500.1
79.48 302.78 1459.8
81.47 296.25 1428.3
85.04 295.80 1426.2
88.36 294.54 1420.1
91.58 293.07 1413.0
96.88 298.09 1437.2
103.12 305.54 1473.1
107.56 307.30 1481.6
109.98 303.40 1462.8
111.10 296.26 1428.4
112.66 290.73 1401.7
117.32 293.30 1414.1
122.88 297.90 1436.3
127.10 299.05 1441.8
129.83 296.76 1430.8
131.24 291.63 1406.1
134.10 289.95 1398.0
134.81 283.81 1368.4
135.27 277.48 1337.8
142.44 284.89 1373.6
147.83 288.45 1390.7
145.67 277.47 1337.8
148.66 276.58 1333.5
156.85 285.19 1375.0
155.83 277.03 1335.7
154.03 267.88 1291.5
159.82 272.03 1311.6
166.56 277.60 1338.4
171.09 279.32 1346.7
171.25 274.00 1321.1
171.02 268.27 1293.4
174.58 268.59 1295.0
178.68 269.70 1300.4
186.33 276.05 1331.0
192.76 280.38 1351.8
194.93 278.47 1342.6
200.06 280.79 1353.8
207.57 286.31 1380.4
214.19 290.42 1400.2
223.61 298.14 1437.5
229.54 301.04 1451.4
232.59 300.12 1447.0
239.25 303.81 1464.8
245.20 306.50 1477.8
247.95 305.17 1471.4
248.85 301.64 1454.3
249.50 297.91 1436.4
253.80 298.59 1439.6
261.73 303.46 1463.1
269.96 308.53 1487.5
276.00 310.99 1499.4
279.05 310.05 1494.9
284.43 311.71 1502.9
291.52 315.16 1519.5
298.50 318.40 1535.2
305.94 322.04 1552.7
305.98 317.90 1532.8
299.12 306.79 1479.2
303.40 307.24 1481.4
320.63 320.63 1545.9
332.33 328.22 1582.5
331.57 323.49 1559.7
334.00 321.93 1552.2
345.15 328.72 1584.9
357.09 336.09 1620.4
372.20 346.23 1669.3
395.52 363.69 1753.5
410.34 368.85 1778.4
-83.67 367.21 1792.9
-79.37 368.85 1800.9
-73.82 364.48 1779.6
-68.37 360.11 1758.2
-61.80 348.71 1702.6
-55.24 335.70 1639.1
-50.60 333.12 1626.5
-45.86 329.34 1608.0
-41.01 323.94 1581.6
-36.40 319.55 1560.2
-32.32 319.17 1558.3
-28.37 320.19 1563.3
-23.85 313.98 1533.0
-19.82 313.19 1529.1
-16.04 316.81 1546.8
-12.10 318.62 1555.7
-8.02 316.82 1546.9
-3.92 309.60 1511.6
0.00 304.59 1487.1
3.88 306.19 1495.0
7.80 307.99 1503.8
11.48 302.37 1476.3
15.16 299.35 1461.6
19.44 307.17 1499.7
23.65 311.37 1520.3
27.13 306.14 1494.7
29.96 295.90 1444.7
33.25 291.87 1425.0
37.83 298.87 1459.2
42.25 303.46 1481.7
46.55 306.45 1496.2
50.52 307.03 1499.0
53.87 303.99 1484.2
58.59 308.58 1506.6
64.32 317.57 1550.5
69.02 320.74 1566.0
71.61 314.29 1534.5
73.94 307.44 1501.1
77.47 306.00 1494.0
79.41 298.74 1458.6
82.57 296.50 1447.6
87.48 300.46 1467.0
91.20 300.22 1465.8
94.74 299.37 1461.7
97.72 296.92 1449.7
101.26 296.27 1446.5
106.76 301.22 1470.7
110.41 300.76 1468.5
111.53 293.70 1434.0
113.34 288.84 1410.3
115.60 285.39 1393.4
118.52 283.73 1385.3
123.20 286.26 1397.7
126.62 285.80 1395.4
127.39 279.54 1364.9
129.40 276.28 1348.9
134.30 279.21 1363.2
139.48 282.54 1379.5
142.01 280.47 1369.4
142.31 274.21 1338.8
145.53 273.74 1336.5
154.38 283.64 1384.8
160.37 287.95 1405.9
157.73 276.90 1352.0
151.90 260.88 1273.7
152.55 256.42 1251.9
160.71 264.50 1291.4
167.22 269.60 1316.3
170.83 269.91 1317.8
174.06 269.63 1316.4
182.39 277.10 1352.9
191.58 285.56 1394.2
192.81 282.08 1377.2
192.58 276.62 1350.6
199.39 281.29 1373.4
208.90 289.53 1413.6
212.93 290.02 1416.0
216.22 289.52 1413.5
223.57 294.37 1437.2
227.67 294.85 1439.6
229.75 292.75 1429.3
235.26 295.01 1440.4
240.03 296.28 1446.6
241.72 293.79 1434.4
244.51 292.68 1429.0
246.94 291.17 1421.6
251.88 292.63 1428.7
260.31 298.04 1455.2
265.54 299.69 1463.2
268.15 298.37 1456.8
275.59 302.38 1476.4
285.30 308.75 1507.5
289.27 308.81 1507.8
293.23 308.86 1508.0
298.51 310.29 1515.0
296.35 304.04 1484.5
296.36 300.16 1465.5
307.49 307.49 1501.3
316.60 312.64 1526.5
319.59 311.70 1521.9
326.03 314.10 1533.6
336.64 320.42 1564.4
350.54 329.67 1609.6
366.34 340.48 1662.4
373.23 342.85 1674.0
386.00 350.51 1711.3
407.90 366.18 1787.9
416.93 365.98 1786.9
-88.40 362.90 1794.5
-78.12 358.43 1772.4
-71.17 346.98 1715.8
-65.59 341.07 1686.6
-59.05 329.02 1627.0
-53.62 321.72 1590.9
-49.86 324.12 1602.8
-45.04 319.39 1579.4
-40.14 313.07 1548.2
-36.61 317.25 1568.8
-33.31 324.80 1606.1
-29.15 324.81 1606.2
-24.48 318.29 1574.0
-19.86 309.78 1531.9
-15.70 306.22 1514.3
-11.85 308.01 1523.1
-7.84 305.83 1512.4
-3.88 302.47 1495.7
0.00 302.07 1493.8
3.91 305.24 1509.4
7.90 308.01 1523.1
11.67 303.45 1500.6
15.46 301.46 1490.7
19.48 303.83 1502.5
23.28 302.63 1496.5
26.78 298.46 1475.9
29.69 289.53 1431.7
32.99 285.94 1414.0
37.57 293.06 1449.2
41.75 296.01 1463.8
45.72 297.18 1469.6
50.78 304.68 1506.7
55.32 308.22 1524.2
58.32 303.24 1499.5
62.12 302.81 1497.4
66.64 305.75 1512.0
69.00 298.98 1478.5
71.13 292.02 1444.1
74.36 290.00 1434.1
76.95 285.81 1413.3
80.82 286.56 1417.1
87.11 295.42 1460.9
92.35 300.13 1484.1
94.97 296.32 1465.3
97.11 291.33 1440.6
99.87 288.51 1426.7
104.33 290.63 1437.2
109.65 294.93 1458.4
112.58 292.70 1447.4
113.32 285.13 1410.0
114.44 278.95 1379.4
116.99 276.52 1367.4
121.28 278.24 1375.9
127.66 284.50 1406.9
131.46 284.83 1408.5
129.84 273.71 1353.5
131.10 269.11 1330.7
137.28 274.56 1357.7
141.17 275.28 1361.3
145.08 276.00 1364.8
151.65 281.64 1392.7
156.09 283.14 1400.2
157.57 279.32 1381.3
158.26 274.32 1356.5
155.58 263.81 1304.5
156.42 259.59 1283.7
164.30 266.99 1320.3
172.86 275.17 1360.7
178.86 279.02 1379.8
179.68 274.80 1358.9
185.37 278.05 1375.0
194.61 286.40 1416.3
195.90 282.97 1399.3
197.38 279.93 1384.3
204.57 284.93 1409.0
210.58 288.16 1425.0
211.57 284.53 1407.0
214.99 284.23 1405.5
222.02 288.63 1427.3
227.47 290.87 1438.4
230.96 290.56 1436.8
234.91 290.84 1438.2
237.90 289.94 1433.8
241.19 289.43 1431.2
245.63 290.29 1435.5
254.45 296.22 1464.8
265.80 304.89 1507.7
267.69 302.61 1496.4
266.38 296.82 1467.8
265.45 291.62 1442.1
269.42 291.88 1443.3
278.70 297.78 1472.6
282.57 297.84 1472.8
282.70 294.01 1453.9
283.68 291.14 1439.7
288.81 292.56 1446.7
296.31 296.31 1465.3
308.42 304.52 1505.9
318.75 310.78 1536.8
324.59 312.57 1545.7
334.14 317.84 1571.7
344.03 323.30 1598.8
358.01 332.44 1643.9
370.53 340.02 1681.4
374.27 339.45 1678.6
378.63 339.46 1678.7
389.54 345.28 1707.4
405.01 354.95 1755.2
417.36 361.71 1788.7
418.16 358.42 1772.4
-88.68 359.40 1800.3
-82.06 351.03 1758.4
-74.23 336.21 1684.2
-67.15 323.14 1618.7
-61.51 315.74 1581.6
-58.52 321.83 1612.1
-55.73 330.08 1653.5
-50.32 322.87 1617.3
-44.31 310.17 1553.7
-39.22 301.97 1512.7
-35.59 304.53 1525.5
-32.35 311.40 1559.9
-28.27 311.02 1558.0
-23.93 307.12 1538.5
-19.56 301.26 1509.1
-15.37 295.79 1481.7
-11.52 295.60 1480.7
-7.68 295.80 1481.7
-3.83 294.63 1475.9
0.00 298.54 1495.5
3.98 306.18 1533.7
7.94 305.59 1530.8
11.59 297.56 1490.5
15.26 293.83 1471.9
19.08 293.82 1471.8
22.96 294.59 1475.7
26.58 292.43 1464.9
29.95 288.30 1444.2
33.88 289.85 1452.0
38.15 293.75 1471.5
41.93 293.54 1470.4
45.53 292.14 1463.4
50.11 296.82 1486.8
54.99 302.46 1515.1
58.38 299.70 1501.3
60.81 292.63 1465.8
63.82 289.07 1448.0
67.34 288.06 1443.0
70.88 287.25 1438.9
75.16 289.36 1449.5
78.96 289.52 1450.3
80.98 283.42 1419.7
85.11 284.94 1427.4
90.81 291.35 1459.4
94.13 289.93 1452.4
95.97 284.22 1423.7
98.69 281.44 1409.8
103.81 285.49 1430.1
109.86 291.68 1461.1
111.26 285.58 1430.5
110.39 274.20 1373.6
115.15 277.07 1387.9
121.56 283.65 1420.9
122.38 277.15 1388.3
124.71 274.36 1374.3
131.80 281.90 1412.1
134.02 278.91 1397.1
135.69 274.95 1377.3
142.28 280.92 1407.2
143.16 275.59 1380.5
143.70 269.87 1351.9
146.63 268.83 1346.6
147.58 264.28 1323.8
154.86 271.01 1357.6
161.86 276.97 1387.4
159.14 266.39 1334.4
160.41 262.81 1316.5
166.81 267.59 1340.4
173.57 272.75 1366.3
178.82 275.38 1379.5
179.64 271.22 1358.6
182.05 269.57 1350.4
187.63 272.59 1365.5
194.09 276.76 1386.4
200.80 281.13 1408.2
202.13 277.93 1392.2
202.22 273.18 1368.4
208.61 276.95 1387.3
217.32 283.63 1420.8
223.94 287.39 1439.6
228.66 288.63 1445.8
232.32 288.52 1445.3
236.13 288.60 1445.7
242.67 291.96 1462.5
249.46 295.52 1480.3
250.05 291.73 1461.3
255.41 293.53 1470.4
264.57 299.58 1500.7
264.89 295.60 1480.7
265.45 292.00 1462.7
266.46 288.98 1447.6
267.57 286.15 1433.4
273.90 288.91 1447.2
278.08 289.36 1449.5
277.78 285.18 1428.6
280.21 283.90 1422.1
286.64 286.64 1435.9
293.73 289.96 1452.5
305.03 297.31 1489.3
312.32 300.61 1505.8
315.46 299.89 1502.2
323.08 303.38 1519.7
330.15 306.29 1534.3
336.88 308.81 1546.9
340.93 308.84 1547.1
358.21 320.72 1606.6
379.25 335.65 1681.4
385.80 337.57 1691.0
395.27 341.97 1713.0
410.86 351.52 1760.8
416.78 352.66 1766.6
425.68 356.27 1784.7
-82.01 346.26 1757.3
-74.14 331.43 1682.1
-67.06 318.52 1616.6
-60.89 308.51 1565.7
-57.44 311.82 1582.6
-54.23 317.06 1609.2
-48.76 308.78 1567.1
-43.32 299.34 1519.2
-38.70 294.14 1492.8
-34.95 295.12 1497.8
-31.62 300.36 1524.4
-27.58 299.41 1519.5
-23.27 294.78 1496.1
-19.50 296.34 1504.0
-15.69 298.08 1512.8
-11.69 296.16 1503.1
-7.75 294.62 1495.2
-3.83 291.14 1477.6
0.00 292.69 1485.4
3.97 301.39 1529.6
7.94 301.77 1531.5
11.69 296.16 1503.1
15.50 294.41 1494.2
19.42 295.18 1498.1
23.41 296.52 1504.9
27.06 293.80 1491.1
30.46 289.34 1468.5
34.26 289.32 1468.4
38.32 291.24 1478.1
41.81 288.90 1466.2
45.06 285.40 1448.5
49.15 287.31 1458.2
53.42 289.99 1471.8
57.99 293.83 1491.2
61.81 293.60 1490.1
64.20 287.01 1456.6
67.10 283.30 1437.8
71.01 284.04 1441.6
75.75 287.87 1461.0
80.81 292.46 1484.3
84.09 290.49 1474.3
86.09 284.47 1443.7
89.27 282.69 1434.7
94.12 286.12 1452.1
97.87 286.07 1451.9
100.79 283.71 1439.9
106.14 288.09 1462.1
110.72 290.16 1472.6
110.86 280.85 1425.4
110.29 270.39 1372.3
115.04 273.22 1386.7
123.55 284.53 1444.1
126.92 283.70 1439.8
127.52 276.90 1405.3
132.59 279.92 1420.6
135.40 278.12 1411.5
137.78 275.55 1398.5
143.04 278.75 1414.7
142.73 271.18 1376.3
143.46 265.92 1349.6
146.49 265.08 1345.3
146.35 258.67 1312.8
151.94 262.44 1331.9
162.85 275.04 1395.9
164.68 272.08 1380.8
163.46 264.32 1341.5
167.25 264.82 1344.0
168.58 261.47 1327.0
168.31 255.83 1298.4
175.35 261.31 1326.2
184.37 269.46 1367.6
189.99 272.44 1382.7
196.50 276.56 1403.6
201.73 278.76 1414.8
201.80 273.88 1390.0
201.46 268.61 1363.3
206.96 271.19 1376.4
214.61 276.44 1403.0
219.67 278.25 1412.2
225.70 281.20 1427.2
230.56 282.62 1434.4
235.13 283.65 1439.6
242.31 287.74 1460.3
250.56 292.96 1486.8
252.82 291.13 1477.5
253.18 287.19 1457.6
257.36 287.64 1459.8
261.56 288.09 1462.1
266.11 288.92 1466.3
271.21 290.31 1473.4
276.35 291.70 1480.4
276.96 288.34 1463.4
275.26 282.70 1434.7
281.28 285.03 1446.6
290.02 290.02 1471.9
292.35 288.56 1464.5
295.23 287.66 1459.9
305.76 294.15 1492.9
311.87 296.28 1503.7
311.18 291.97 1481.8
314.45 291.44 1479.1
318.53 291.67 1480.3
321.37 290.76 1475.7
332.21 297.04 1507.5
356.46 315.01 1598.7
375.10 327.68 1663.0
378.77 327.12 1660.2
390.60 333.54 1692.8
408.38 344.85 1750.2
416.97 348.24 1767.4
-83.70 348.73 1793.5
-75.04 331.04 1702.5
-68.60 321.54 1653.6
-62.86 314.32 1616.5
-57.01 305.39 1570.6
-52.01 300.07 1543.2
-47.34 295.90 1521.8
-42.62 290.58 1494.4
-38.95 292.13 1502.4
-35.86 298.82 1536.8
-31.96 299.60 1540.8
-27.50 294.66 1515.4
-23.36 292.00 1501.7
-19.66 294.87 1516.5
-15.82 296.60 1525.4
-11.79 294.69 1515.6
-7.94 297.75 1531.3
-3.99 298.90 1537.2
0.00 292.98 1506.8
3.92 293.94 1511.7
7.95 297.94 1532.3
11.83 295.84 1521.5
15.48 290.30 1493.0
19.11 286.66 1474.3
23.42 292.76 1505.6
27.48 294.47 1514.4
31.20 292.54 1504.5
35.31 294.24 1513.3
39.15 293.65 1510.2
42.34 288.67 1484.6
45.48 284.26 1461.9
49.37 284.81 1464.8
53.59 287.08 1476.4
58.13 290.67 1494.9
61.64 288.93 1485.9
63.80 281.46 1447.5
66.95 278.95 1434.6
71.24 281.20 1446.2
76.15 285.55 1468.6
81.33 290.47 1493.9
84.69 288.72 1484.8
86.72 282.77 1454.2
89.13 278.53 1432.5
93.21 279.63 1438.1
99.37 286.63 1474.1
104.82 291.15 1497.4
107.97 289.20 1487.3
110.11 284.77 1464.5
111.07 277.67 1428.0
111.44 269.62 1386.6
113.47 265.96 1367.8
118.84 270.08 1389.0
127.41 281.06 1445.4
133.70 286.51 1473.5
134.30 279.79 1438.9
132.56 268.70 1381.9
135.24 266.93 1372.8
140.35 269.90 1388.1
141.18 264.70 1361.3
143.11 261.79 1346.3
149.54 267.03 1373.3
152.84 266.58 1371.0
153.23 261.20 1343.3
157.70 262.83 1351.7
162.20 264.46 1360.1
163.90 261.54 1345.0
167.57 261.84 1346.6
169.03 258.72 1330.6
165.74 248.61 1278.6
169.51 249.28 1282.0
181.31 261.50 1344.9
191.02 270.30 1390.1
197.14 273.81 1408.1
202.11 275.60 1417.4
206.84 277.02 1424.7
211.03 277.67 1428.0
211.15 273.04 1404.2
212.93 270.67 1392.0
220.83 276.04 1419.6
229.34 281.97 1450.1
230.98 279.41 1437.0
232.56 276.85 1423.8
237.76 278.62 1432.9
244.15 281.71 1448.8
252.11 286.49 1473.4
258.01 288.82 1485.3
259.02 285.68 1469.2
260.12 282.74 1454.1
262.02 280.74 1443.8
264.58 279.49 1437.4
273.96 285.37 1467.6
278.73 286.37 1472.7
276.68 280.42 1442.2
282.17 282.17 1451.1
290.54 286.72 1474.5
292.49 284.89 1465.2
294.59 283.26 1456.8
304.13 288.73 1484.9
311.82 292.33 1503.4
312.53 289.38 1488.2
317.46 290.36 1493.3
323.44 292.26 1503.1
326.75 291.74 1500.4
338.07 298.30 1534.1
358.12 312.31 1606.2
371.82 320.53 1648.5
373.49 318.31 1637.0
382.60 322.42 1658.2
399.64 333.03 1712.7
408.14 336.38 1730.0
424.93 346.41 1781.6
-74.86 325.84 1698.4
-67.53 312.32 1627.9
-62.74 309.53 1613.4
-57.57 304.29 1586.0
-52.40 298.29 1554.8
-47.52 293.04 1527.4
-43.14 290.23 1512.8
-39.71 293.83 1531.6
-36.04 296.30 1544.4
-31.73 293.49 1529.8
-27.50 290.68 1515.1
-23.49 289.75 1510.3
-19.69 291.46 1519.2
-15.78 291.84 1521.2
-11.69 288.27 1502.6
-7.81 289.03 1506.5
-4.02 297.32 1549.7
0.00 298.07 1553.7
3.90 288.65 1504.6
7.63 282.24 1471.2
11.60 286.20 1491.8
15.49 286.57 1493.7
18.87 279.21 1455.3
22.78 280.89 1464.1
27.09 286.35 1492.5
31.16 288.22 1502.3
35.74 293.85 1531.7
40.14 297.04 1548.3
43.59 293.25 1528.5
46.97 289.65 1509.7
50.65 288.31 1502.8
54.61 288.66 1504.6
58.05 286.37 1492.7
60.28 278.81 1453.3
63.87 278.03 1449.2
68.77 282.70 1473.6
73.11 284.74 1484.2
78.07 288.84 1505.6
81.58 287.49 1498.5
83.16 279.74 1458.1
86.70 278.94 1453.9
90.88 280.22 1460.6
93.38 276.41 1440.8
97.70 278.06 1449.3
102.19 280.08 1459.9
104.32 275.71 1437.1
108.10 275.84 1437.8
111.05 273.91 1427.7
113.54 271.04 1412.8
117.75 272.30 1419.3
120.40 269.99 1407.3
125.66 273.50 1425.6
129.60 274.00 1428.2
127.97 263.06 1371.1
131.59 263.18 1371.8
139.64 271.93 1417.4
143.38 272.05 1418.0
142.86 264.30 1377.6
144.94 261.61 1363.6
151.20 266.41 1388.6
155.31 267.27 1393.1
156.54 263.27 1372.2
157.89 259.63 1353.3
159.25 256.19 1335.4
162.90 256.49 1336.9
168.87 260.34 1357.0
176.42 266.43 1388.7
179.96 266.34 1388.3
178.35 258.78 1348.9
184.94 263.18 1371.8
191.51 267.39 1393.7
195.19 267.48 1394.2
198.18 266.64 1389.8
200.87 265.43 1383.5
211.99 275.22 1434.5
219.29 279.78 1458.3
217.78 273.15 1423.8
222.15 273.98 1428.1
232.82 282.44 1472.2
237.01 282.89 1474.5
236.47 277.75 1447.8
239.64 277.08 1444.3
244.43 278.27 1450.5
250.74 281.13 1465.4
254.60 281.20 1465.7
253.68 276.07 1439.0
253.15 271.49 1415.1
253.55 268.04 1397.1
258.30 269.22 1403.2
269.40 276.88 1443.2
279.77 283.61 1478.3
283.66 283.66 1478.5
286.05 282.23 1471.1
291.05 283.40 1477.2
296.48 284.92 1485.1
301.35 285.90 1490.2
305.65 286.31 1492.3
307.97 284.88 1484.9
310.86 283.99 1480.3
317.81 286.80 1494.9
322.97 287.95 1500.9
325.22 286.51 1493.4
330.40 287.65 1499.3
343.53 295.59 1540.7
368.53 313.46 1633.9
385.25 323.96 1688.6
382.12 317.72 1656.0
383.52 315.34 1643.6
397.04 322.87 1682.9
421.93 339.38 1769.0
-92.30 336.89 1780.1
-84.75 325.60 1720.4
-80.34 325.83 1721.6
-72.94 313.23 1655.0
-65.77 300.07 1585.5
-61.02 296.94 1569.0
-56.24 293.26 1549.5
-51.33 288.26 1523.1
-47.42 288.47 1524.2
-43.78 290.54 1535.1
-39.93 291.49 1540.2
-35.94 291.51 1540.2
-31.66 288.92 1526.6
-27.47 286.52 1513.9
-23.34 283.92 1500.2
-19.46 284.12 1501.2
-15.68 286.17 1512.1
-11.67 283.95 1500.3
-7.66 279.49 1476.8
-3.86 281.91 1489.6
0.00 289.35 1528.9
3.92 286.19 1512.2
7.63 278.56 1471.9
11.56 281.35 1486.6
15.71 286.73 1515.0
19.47 284.31 1502.2
22.91 278.72 1472.7
26.60 277.41 1465.7
30.44 277.76 1467.6
34.75 281.84 1489.2
39.29 286.84 1515.6
42.94 284.96 1505.7
46.99 285.87 1510.5
51.37 288.45 1524.1
54.71 285.26 1507.3
57.43 279.48 1476.7
60.03 273.87 1447.1
63.99 274.77 1451.8
69.94 283.66 1498.8
75.56 290.31 1533.9
78.87 287.86 1521.0
80.66 280.40 1481.5
83.09 275.72 1456.8
87.62 278.09 1469.4
91.78 279.16 1475.0
94.38 275.59 1456.1
97.15 272.76 1441.2
99.91 270.12 1427.2
104.01 271.18 1432.9
109.77 276.32 1460.0
112.77 274.42 1450.0
115.41 271.77 1436.0
120.57 275.05 1453.3
124.23 274.81 1452.0
124.86 268.08 1416.5
123.97 258.57 1366.2
125.39 254.25 1343.4
131.93 260.30 1375.4
139.03 267.09 1411.2
142.06 265.91 1405.0
144.65 264.00 1394.9
149.89 266.89 1410.2
151.60 263.49 1392.2
150.92 256.21 1353.7
155.16 257.43 1360.2
159.90 259.39 1370.5
162.12 257.28 1359.4
166.90 259.23 1369.7
170.40 259.16 1369.3
175.63 261.66 1382.5
182.57 266.56 1408.4
184.62 264.26 1396.3
188.31 264.35 1396.8
192.27 264.82 1399.2
192.28 259.94 1373.5
192.17 255.06 1347.7
197.85 257.92 1362.8
211.66 271.07 1432.3
221.14 278.33 1470.6
222.05 274.74 1451.6
222.40 270.59 1429.7
228.94 273.98 1447.6
237.13 279.20 1475.2
241.33 279.64 1477.5
240.56 274.38 1449.8
241.60 271.34 1433.7
248.37 274.71 1451.5
252.53 275.14 1453.8
254.31 273.01 1442.5
256.38 271.25 1433.2
258.41 269.48 1423.9
264.12 271.56 1434.8
269.16 272.90 1441.9
273.32 273.32 1444.2
283.24 279.41 1476.3
292.00 284.21 1501.7
291.76 280.24 1480.7
291.99 276.82 1462.7
300.71 281.43 1487.0
308.36 284.94 1505.6
308.51 281.52 1487.5
309.38 278.83 1473.3
311.41 277.23 1464.8
310.70 273.27 1443.9
319.72 277.85 1468.1
331.82 284.98 1505.8
340.69 289.19 1528.0
360.47 302.47 1598.2
377.76 313.37 1655.8
376.10 308.49 1630.0
383.91 311.40 1645.3
-92.04 331.33 1775.0
-80.15 320.60 1717.5
-73.50 311.29 1667.6
-66.78 300.50 1609.8
-62.23 298.70 1600.2
-57.52 295.79 1584.6
-52.02 288.12 1543.5
-47.53 285.20 1527.9
-43.94 287.61 1540.8
-40.10 288.73 1546.8
-36.14 289.12 1548.8
-31.90 287.11 1538.1
-27.17 279.42 1496.9
-22.67 272.09 1457.6
-19.14 275.59 1476.4
-15.59 280.55 1503.0
-11.64 279.46 1497.1
-7.66 275.79 1477.5
-3.84 276.71 1482.4
0.00 282.04 1510.9
3.96 285.34 1528.6
7.88 283.68 1519.7
11.67 280.01 1500.0
15.49 278.90 1494.1
19.37 278.89 1494.1
23.00 275.95 1478.3
26.84 276.12 1479.2
30.94 278.49 1491.9
34.81 278.48 1491.8
38.80 279.38 1496.7
42.40 277.52 1486.7
46.40 278.42 1491.5
51.36 284.45 1523.8
55.38 284.79 1525.7
57.80 277.43 1486.2
60.06 270.25 1447.8
63.50 268.94 1440.7
68.74 274.96 1473.0
74.19 281.16 1506.2
77.43 278.74 1493.2
80.65 276.50 1481.3
84.64 277.01 1484.0
87.31 273.31 1464.2
89.44 268.32 1437.4
91.75 264.25 1415.6
94.22 260.91 1397.7
98.92 263.80 1413.2
104.99 269.97 1446.3
109.97 273.03 1462.7
111.99 268.77 1439.9
113.89 264.51 1417.0
118.11 265.74 1423.6
122.02 266.23 1426.2
123.02 260.51 1395.6
125.90 258.99 1387.4
131.20 262.40 1405.7
135.19 263.07 1409.3
139.77 264.83 1418.7
144.90 267.51 1433.1
149.69 269.45 1443.5
153.08 268.83 1440.1
153.16 262.55 1406.5
151.64 253.91 1360.2
154.79 253.29 1356.9
161.45 258.32 1383.9
166.04 259.89 1392.3
166.86 255.62 1369.4
166.48 249.71 1337.7
171.01 251.27 1346.1
177.22 255.20 1367.1
178.90 252.57 1353.1
182.22 252.30 1351.6
188.21 255.68 1369.7
190.74 254.32 1362.4
192.12 251.50 1347.3
199.22 256.14 1372.2
209.03 264.03 1414.5
214.81 266.66 1428.5
220.22 268.74 1439.7
225.07 270.09 1446.9
229.66 271.07 1452.2
235.99 274.05 1468.1
241.12 275.57 1476.3
241.47 271.66 1455.3
241.71 267.74 1434.3
247.65 270.17 1447.3
251.30 270.05 1446.7
252.38 267.23 1431.6
257.02 268.19 1436.8
261.68 269.16 1441.9
268.87 272.65 1460.6
275.24 275.24 1474.5
276.37 272.59 1460.3
283.37 275.71 1477.0
287.81 276.30 1480.2
283.52 268.60 1438.9
288.85 270.09 1446.9
302.60 279.32 1496.4
308.30 280.98 1505.3
306.26 275.63 1476.6
306.29 272.26 1458.5
307.25 269.78 1445.3
311.05 269.83 1445.5
324.26 277.94 1489.0
339.81 287.84 1542.0
353.26 295.75 1584.4
364.75 301.86 1617.1
371.59 304.03 1628.7
376.05 304.22 1629.7
391.02 312.81 1675.8
408.24 323.01 1730.4
426.88 334.08 1789.7
-93.30 331.22 1799.4
-86.81 324.39 1762.3
-81.06 319.73 1737.0
-73.45 306.74 1666.4
-67.14 297.91 1618.4
-62.83 297.40 1615.7
-58.26 295.44 1605.0
-52.84 288.59 1567.8
-47.95 283.73 1541.4
-43.99 283.93 1542.5
-39.74 282.14 1532.7
-35.47 279.80 1520.1
-31.53 279.82 1520.1
-26.98 273.68 1486.8
-22.67 268.26 1457.3
-19.27 273.70 1486.9
-15.44 274.07 1488.9
-11.34 268.28 1457.5
-7.68 272.81 1482.1
-3.96 281.50 1529.3
0.00 284.40 1545.0
4.01 284.58 1546.0
7.91 280.96 1526.3
11.64 275.52 1496.8
15.29 271.35 1474.2
18.87 267.91 1455.4
22.72 268.80 1460.3
26.89 272.77 1481.9
31.51 279.64 1519.2
36.04 284.33 1544.6
39.53 280.69 1524.9
42.50 274.34 1490.4
45.94 271.78 1476.5
50.26 274.48 1491.1
54.94 278.61 1513.6
58.13 275.15 1494.8
60.65 269.15 1462.2
64.35 268.76 1460.1
68.91 271.81 1476.6
73.55 274.85 1493.1
77.06 273.55 1486.1
80.42 271.88 1477.0
85.58 276.18 1500.4
89.45 276.14 1500.2
90.83 268.69 1459.7
92.18 261.78 1422.2
94.46 257.95 1401.3
98.90 260.07 1412.9
103.68 262.91 1428.3
107.22 262.50 1426.1
110.06 260.47 1415.0
112.92 258.61 1404.9
117.59 260.91 1417.4
121.91 262.29 1424.9
123.16 257.19 1397.2
126.13 255.87 1390.0
133.18 262.66 1426.9
139.48 267.65 1454.0
142.15 265.60 1442.9
145.26 264.45 1436.7
149.35 265.10 1440.2
152.32 263.78 1433.0
157.80 266.77 1449.2
162.17 267.77 1454.7
161.21 260.14 1413.2
163.46 257.91 1401.1
166.58 257.11 1396.8
165.63 250.21 1359.3
168.98 249.95 1357.9
177.78 257.60 1399.4
182.49 259.13 1407.8
182.72 254.38 1382.0
183.75 250.89 1363.0
187.22 250.80 1362.5
192.46 253.05 1374.7
196.37 253.50 1377.2
200.72 254.49 1382.5
207.40 258.33 1403.4
213.44 261.28 1419.5
219.13 263.69 1432.5
225.63 266.99 1450.5
231.91 269.93 1466.4
236.72 271.08 1472.7
240.12 270.61 1470.1
241.90 268.36 1457.9
242.97 265.39 1441.8
245.11 263.68 1432.5
245.18 259.82 1411.5
247.54 258.46 1404.1
253.50 260.84 1417.1
258.99 262.69 1427.1
267.21 267.21 1451.6
277.71 273.85 1487.7
283.27 275.51 1496.7
283.86 272.36 1479.6
281.93 266.89 1449.9
284.98 266.23 1446.3
298.03 274.81 1492.9
303.90 276.63 1502.8
300.94 270.46 1469.3
303.59 269.44 1463.8
308.45 270.37 1468.8
315.58 273.24 1484.4
326.09 278.95 1515.4
327.34 276.68 1503.1
329.58 275.30 1495.6
338.21 279.22 1516.9
345.42 281.89 1531.4
363.43 293.22 1593.0
381.75 304.54 1654.4
385.15 303.84 1650.6
388.31 302.97 1645.9
429.16 327.64 1779.9
-77.38 300.92 1658.1
-72.40 298.10 1642.6
-67.90 297.06 1636.9
-62.67 292.45 1611.5
-57.32 286.59 1579.2
-53.13 286.08 1576.4
-49.23 287.18 1582.4
-44.71 284.52 1567.8
-40.04 280.26 1544.3
-35.90 279.20 1538.5
-32.05 280.47 1545.4
-27.58 275.84 1519.9
-23.32 272.10 1499.3
-19.36 271.04 1493.5
-15.13 264.80 1459.1
-11.50 268.37 1478.8
-8.07 282.31 1555.6
-4.03 281.95 1553.6
0.00 275.88 1520.2
3.97 278.02 1532.0
7.90 276.59 1524.1
11.54 269.27 1483.7
15.05 263.37 1451.2
18.67 261.40 1440.4
22.54 263.00 1449.2
26.23 262.27 1445.2
30.24 264.58 1457.9
34.77 270.45 1490.3
38.35 268.47 1479.3
41.77 265.78 1464.5
45.71 266.65 1469.3
49.15 264.67 1458.4
52.79 263.93 1454.3
57.47 268.19 1477.8
61.70 269.94 1487.4
64.25 264.56 1457.8
67.52 262.57 1446.8
72.91 268.60 1480.1
77.14 270.00 1487.7
80.61 268.71 1480.7
85.73 272.77 1503.0
90.37 275.05 1515.6
92.58 270.02 1487.9
95.27 266.77 1470.0
98.80 266.01 1465.8
102.31 265.25 1461.6
106.08 265.21 1461.3
106.83 257.86 1420.8
106.83 249.26 1373.5
111.78 252.42 1390.9
118.70 259.66 1430.8
123.73 262.45 1446.2
125.81 259.02 1427.2
125.92 251.85 1387.7
129.67 252.14 1389.4
135.97 257.24 1417.4
138.94 255.93 1410.2
141.57 254.09 1400.1
145.26 254.21 1400.7
149.58 255.38 1407.2
156.49 260.82 1437.2
160.39 261.10 1438.7
159.28 253.40 1396.3
162.40 252.62 1392.0
166.42 253.25 1395.5
168.80 251.40 1385.3
175.38 255.76 1409.3
180.59 257.98 1421.5
181.68 254.36 1401.6
183.58 251.97 1388.4
186.33 250.83 1382.1
189.98 250.92 1382.6
195.41 253.31 1395.8
200.07 254.64 1403.1
205.05 256.32 1412.4
212.24 260.64 1436.2
218.81 264.08 1455.1
223.69 265.39 1462.4
229.06 267.24 1472.5
233.40 267.84 1475.8
236.04 266.50 1468.5
241.02 267.80 1475.7
244.43 267.34 1473.1
247.00 266.00 1465.7
250.36 265.54 1463.2
253.04 264.37 1456.7
257.90 265.49 1462.9
261.41 265.20 1461.3
264.73 264.73 1458.7
265.54 261.80 1442.6
268.62 261.16 1439.0
276.80 265.43 1462.6
279.72 264.60 1458.0
280.74 262.02 1443.8
286.82 264.18 1455.7
293.93 267.21 1472.4
293.50 263.40 1451.4
292.97 259.59 1430.4
297.93 260.69 1436.4
306.97 265.28 1461.7
317.97 271.44 1495.7
325.20 274.27 1511.3
323.08 269.24 1483.5
327.39 269.62 1485.6
339.00 275.93 1520.4
343.40 276.30 1522.5
358.11 284.86 1569.7
375.05 294.98 1625.4
377.26 293.43 1616.8
380.34 292.57 1612.1
398.46 303.18 1670.6
-87.57 318.00 1777.7
-77.92 298.69 1669.7
-71.65 290.81 1625.6
-68.22 294.18 1644.5
-63.81 293.51 1640.7
-57.59 283.86 1586.8
-52.72 279.83 1564.3
-49.01 281.79 1575.2
-44.59 279.70 1563.6
-40.28 277.96 1553.8
-36.44 279.39 1561.8
-32.52 280.46 1567.8
-27.97 275.72 1541.3
-23.38 268.86 1503.0
-19.18 264.65 1479.4
-15.17 261.66 1462.7
-11.65 268.01 1498.2
-7.98 275.41 1539.5
-3.90 269.07 1504.1
0.00 266.43 1489.4
3.95 272.42 1522.8
7.85 270.83 1513.9
11.45 263.43 1472.6
15.21 262.37 1466.6
19.22 265.18 1482.3
22.90 263.40 1472.5
26.29 259.17 1448.8
30.29 261.27 1460.5
34.81 266.89 1491.9
39.09 269.69 1507.6
43.33 271.78 1519.3
46.65 268.24 1499.5
49.31 261.71 1463.0
52.02 256.40 1433.3
55.62 255.85 1430.2
60.42 260.58 1456.6
63.63 258.26 1443.7
66.17 253.66 1418.0
70.76 256.97 1436.5
76.97 265.56 1484.5
82.63 271.50 1517.7
86.89 272.52 1523.4
90.47 271.42 1517.3
93.84 269.80 1508.2
97.86 270.11 1509.9
100.64 267.07 1493.0
103.25 263.87 1475.0
107.13 264.00 1475.8
107.91 256.75 1435.2
107.49 247.22 1382.0
111.76 248.75 1390.5
118.92 256.42 1433.4
124.29 259.87 1452.7
128.20 260.17 1454.4
130.16 256.60 1434.4
131.20 251.46 1405.7
134.24 250.35 1399.5
137.07 248.89 1391.3
139.85 247.42 1383.1
142.48 245.78 1373.9
145.49 244.84 1368.7
150.91 247.93 1385.9
153.48 246.28 1376.7
156.67 245.69 1373.4
164.75 252.62 1412.2
169.53 254.29 1421.5
173.04 254.04 1420.1
176.55 253.79 1418.7
178.68 251.61 1406.5
180.12 248.57 1389.5
181.99 246.22 1376.4
186.41 247.36 1382.7
192.08 250.06 1397.9
199.46 254.86 1424.7
206.42 258.96 1447.6
207.13 255.21 1426.6
209.88 254.07 1420.3
217.88 259.20 1449.0
224.23 262.24 1465.9
227.49 261.62 1462.5
229.51 259.60 1451.2
230.36 256.37 1433.1
233.67 255.92 1430.6
243.89 262.95 1469.9
253.49 269.09 1504.2
254.96 266.55 1490.0
255.51 263.14 1471.0
259.39 263.20 1471.3
262.05 262.05 1464.8
266.08 262.28 1466.1
267.80 260.25 1454.8
264.58 253.56 1417.4
266.12 251.54 1406.1
272.98 254.53 1422.9
278.42 256.14 1431.9
281.62 255.68 1429.3
285.38 255.73 1429.5
287.58 254.39 1422.1
290.33 253.58 1417.5
296.46 255.70 1429.4
306.09 260.74 1457.6
315.03 265.09 1481.9
319.54 265.64 1485.0
330.14 271.19 1515.9
348.73 283.09 1582.5
348.79 279.84 1564.3
339.87 269.55 1506.8
354.98 278.34 1555.9
371.67 288.15 1610.8
378.99 290.56 1624.3
388.19 294.34 1645.4
402.52 301.89 1687.6
-97.07 314.32 1782.9
-91.13 309.85 1757.6
-84.50 302.44 1715.5
-75.61 285.65 1620.3
-69.99 279.96 1588.0
-67.19 285.54 1619.7
-62.61 283.83 1610.0
-56.33 273.62 1552.1
-52.12 272.61 1546.3
-48.91 277.14 1572.0
-44.22 273.34 1550.5
-39.66 269.72 1529.9
-35.77 270.25 1532.9
-31.80 270.27 1533.0
-27.75 269.59 1529.2
-23.50 266.30 1510.5
-19.33 262.84 1490.9
-15.33 260.59 1478.1
-11.37 257.82 1462.4
-7.54 256.43 1454.5
-3.71 252.27 1430.9
0.00 251.57 1427.0
3.85 261.82 1485.1
7.80 265.11 1503.8
11.46 259.73 1473.2
15.31 260.24 1476.2
19.35 263.18 1492.9
23.10 261.79 1484.9
26.61 258.48 1466.2
30.73 261.24 1481.8
35.01 264.53 1500.5
38.95 264.86 1502.3
43.32 267.79 1519.0
46.79 265.17 1504.1
49.69 259.94 1474.4
52.69 255.92 1451.7
55.72 252.60 1432.8
59.80 254.14 1441.5
64.66 258.62 1467.0
69.14 261.19 1481.6
72.58 259.78 1473.5
77.57 263.73 1496.0
82.18 266.12 1509.5
85.36 263.83 1496.5
89.05 263.27 1493.4
92.72 262.71 1490.2
97.65 265.62 1506.7
101.41 265.23 1504.4
103.64 261.02 1480.6
106.96 259.77 1473.5
108.40 254.18 1441.8
108.60 246.16 1396.3
112.28 246.29 1397.0
118.81 252.47 1432.1
122.41 252.24 1430.8
124.62 249.25 1413.8
127.99 248.67 1410.5
130.43 246.37 1397.5
132.80 244.06 1384.4
134.91 241.41 1369.4
141.20 246.19 1396.5
147.83 251.31 1425.5
150.34 249.34 1414.3
155.24 251.35 1425.7
157.81 249.55 1415.5
161.10 248.97 1412.2
167.11 252.52 1432.3
169.95 251.24 1425.1
172.17 249.09 1412.9
174.56 247.29 1402.7
180.50 250.49 1420.8
186.02 252.99 1435.0
186.84 249.12 1413.1
190.05 248.52 1409.7
196.32 251.88 1428.7
204.87 257.99 1463.4
210.54 260.30 1476.5
210.05 255.06 1446.7
209.54 249.98 1418.0
214.02 250.92 1423.3
220.01 253.57 1438.3
223.05 252.79 1433.9
226.68 252.69 1433.3
229.06 251.22 1425.0
229.48 247.70 1405.0
236.74 251.54 1426.8
246.89 258.28 1465.1
249.09 256.64 1455.7
250.90 254.65 1444.4
256.08 256.08 1452.5
256.26 252.55 1432.5
258.28 250.90 1423.2
263.63 252.49 1432.2
263.79 249.14 1413.2
268.80 250.39 1420.3
279.59 256.92 1457.3
283.24 256.80 1456.7
284.59 254.64 1444.4
289.74 255.88 1451.4
293.56 255.92 1451.7
293.62 252.73 1433.6
297.39 252.78 1433.8
304.80 255.88 1451.4
311.07 257.96 1463.2
319.47 261.73 1484.6
333.85 270.26 1533.0
347.19 277.75 1575.5
341.22 269.80 1530.4
332.42 259.82 1473.8
348.12 269.00 1525.8
367.84 281.04 1594.1
378.48 285.96 1622.1
396.73 296.46 1681.6
-97.49 311.03 1790.6
-89.59 300.13 1727.8
-81.58 287.69 1656.2
-74.82 278.49 1603.3
-70.71 278.70 1604.4
-66.40 278.04 1600.7
-60.76 271.40 1562.4
-56.00 268.01 1542.9
-52.94 272.82 1570.6
-49.69 277.46 1597.3
-44.94 273.72 1575.8
-39.22 262.79 1512.8
-34.43 256.30 1475.5
-31.03 259.91 1496.3
-27.44 262.66 1512.1
-23.49 262.33 1510.2
-19.55 262.00 1508.3
-15.52 259.95 1496.5
-11.52 257.39 1481.8
-7.51 251.57 1448.3
3.82 256.03 1473.9
7.81 261.67 1506.4
11.58 258.59 1488.7
15.27 255.84 1472.9
19.04 255.15 1468.9
23.45 261.81 1507.3
27.85 266.60 1534.8
30.87 258.54 1488.4
33.72 251.00 1445.0
38.10 255.26 1469.5
43.03 262.08 1508.8
46.94 262.06 1508.7
50.38 259.65 1494.8
53.71 257.06 1479.9
57.20 255.50 1470.9
61.09 255.81 1472.7
65.73 259.03 1491.2
71.24 265.16 1526.5
75.77 267.18 1538.1
78.67 263.56 1517.3
81.04 258.56 1488.5
83.15 253.23 1457.8
85.74 249.78 1438.0
90.19 251.79 1449.5
96.17 257.73 1483.7
100.26 258.37 1487.4
102.79 255.08 1468.5
105.37 252.13 1451.5
106.08 245.09 1410.9
108.73 242.82 1397.9
115.09 248.74 1432.0
118.05 247.16 1422.9
118.10 239.77 1380.4
122.08 240.57 1385.0
127.43 243.93 1404.3
129.48 240.98 1387.3
131.63 238.36 1372.2
134.00 236.26 1360.1
140.66 241.65 1391.2
148.60 248.91 1433.0
152.49 249.19 1434.6
158.19 252.35 1452.8
161.37 251.43 1447.5
162.06 246.77 1420.6
165.12 245.85 1415.3
167.23 243.57 1402.2
168.31 239.93 1381.2
171.35 239.18 1376.9
178.09 243.52 1401.9
186.48 249.89 1438.6
190.41 250.15 1440.1
193.95 249.90 1438.6
200.97 254.05 1462.6
205.51 254.98 1467.9
207.15 252.35 1452.8
209.15 250.23 1440.5
211.22 248.27 1429.3
214.85 248.18 1428.8
220.11 249.95 1439.0
222.39 248.34 1429.6
225.39 247.56 1425.2
230.09 248.65 1431.5
232.60 247.37 1424.1
235.87 246.93 1421.6
242.25 249.70 1437.5
251.02 254.83 1467.0
259.61 259.61 1494.6
261.15 257.31 1481.3
257.41 249.95 1438.9
260.85 249.67 1437.3
268.03 252.93 1456.1
271.14 252.31 1452.5
278.99 256.06 1474.1
286.96 259.81 1495.7
287.50 256.83 1478.6
288.53 254.36 1464.3
293.73 255.58 1471.4
295.05 253.44 1459.0
293.15 248.62 1431.3
298.11 249.67 1437.3
307.16 254.07 1462.7
312.02 254.94 1467.7
318.77 257.32 1481.4
325.59 259.70 1495.1
329.93 260.06 1497.2
339.00 264.11 1520.4
348.40 268.31 1544.6
356.16 271.17 1561.1
365.77 275.36 1585.2
380.43 283.21 1630.4
403.91 297.39 1712.0
413.02 297.55 1713.0
-90.96 300.16 1754.2
-82.78 287.56 1680.6
-76.00 278.67 1628.6
-70.22 272.63 1593.3
-64.67 266.77 1559.0
-60.60 266.62 1558.2
-57.10 269.18 1573.1
-52.96 268.86 1571.3
-48.86 268.72 1570.4
-44.42 266.55 1557.7
-38.96 257.12 1502.7
-33.87 248.37 1451.5
-30.29 249.90 1460.5
-27.20 256.49 1499.0
-23.69 260.55 1522.7
-19.66 259.55 1516.8
-15.57 256.86 1501.1
-11.60 255.17 1491.3
-7.58 250.29 1462.7
-3.76 248.44 1451.9
0.00 255.86 1495.3
3.87 255.69 1494.3
7.55 249.28 1456.8
11.44 251.63 1470.6
15.43 254.66 1488.3
19.15 252.80 1477.4
23.47 258.19 1508.9
27.85 262.56 1534.4
30.84 254.45 1487.1
34.12 250.23 1462.4
39.06 257.80 1506.6
43.53 261.15 1526.2
46.83 257.59 1505.4
50.14 254.54 1487.5
53.38 251.65 1470.7
56.69 249.43 1457.7
60.46 249.41 1457.6
65.84 255.62 1493.9
72.09 264.35 1544.9
76.53 265.83 1553.6
79.32 261.76 1529.7
81.77 257.01 1502.0
84.08 252.25 1474.2
86.25 247.50 1446.4
90.42 248.64 1453.1
95.38 251.80 1471.6
98.38 249.74 1459.5
101.67 248.52 1452.4
105.20 247.97 1449.2
107.53 244.73 1430.2
111.98 246.36 1439.8
116.40 247.83 1448.3
117.28 241.89 1413.7
119.24 238.48 1393.7
125.25 243.13 1420.9
130.69 246.44 1440.2
133.20 244.20 1427.1
135.64 241.96 1414.1
138.60 240.73 1406.8
142.01 240.33 1404.5
146.53 241.78 1413.0
150.26 241.88 1413.6
155.81 244.84 1430.9
161.11 247.28 1445.2
164.03 246.04 1437.9
167.37 245.47 1434.6
169.75 243.55 1423.4
172.67 242.48 1417.1
177.51 244.08 1426.4
178.42 240.32 1404.5
180.61 238.40 1393.3
187.00 242.00 1414.3
193.24 245.27 1433.4
196.76 245.02 1431.9
197.67 241.59 1411.9
201.54 241.84 1413.4
205.98 242.76 1418.7
207.99 240.83 1407.5
211.42 240.58 1406.0
219.90 245.99 1437.6
225.82 248.40 1451.7
228.11 246.80 1442.4
231.91 246.87 1442.8
232.22 243.28 1421.8
233.55 240.85 1407.6
242.02 245.74 1436.2
253.13 253.13 1479.3
256.51 252.69 1476.7
252.19 244.77 1430.5
257.35 246.16 1438.6
269.59 254.18 1485.5
275.28 255.90 1495.5
276.68 253.62 1482.2
282.23 255.17 1491.2
287.26 256.21 1497.3
287.24 252.77 1477.3
287.88 250.00 1461.1
290.18 248.73 1453.6
288.72 244.30 1427.8
292.87 244.68 1429.9
305.05 251.66 1470.8
316.61 257.98 1507.7
324.25 260.98 1525.2
324.51 258.04 1508.0
324.68 255.11 1490.9
329.86 256.12 1496.8
339.57 260.60 1523.0
353.32 268.03 1566.4
365.96 274.47 1604.0
366.81 272.02 1589.7
370.73 271.87 1588.8
387.55 281.08 1642.7
394.10 282.72 1652.3
413.18 293.23 1713.7
-92.07 299.22 1775.6
-85.58 292.79 1737.4
-76.91 277.72 1648.0
-69.69 266.46 1581.2
-66.41 269.81 1601.1
-63.88 276.81 1642.6
-59.13 274.51 1629.0
-54.01 270.05 1602.5
-49.22 266.59 1581.9
-44.25 261.46 1551.5
-39.72 258.15 1531.9
-35.36 255.34 1515.2
-30.69 249.38 1479.8
-26.82 249.06 1477.9
-23.88 258.70 1535.2
-20.28 263.70 1564.8
-15.75 255.90 1518.5
-11.49 248.92 1477.1
-7.63 247.93 1471.2
-3.84 249.59 1481.1
0.00 254.58 1510.7
3.88 251.92 1494.9
7.59 246.77 1464.3
11.54 250.09 1484.0
15.55 252.74 1499.8
19.31 251.07 1489.9
23.28 252.22 1496.7
27.20 252.55 1498.6
30.51 247.88 1470.9
34.27 247.54 1468.9
39.13 254.33 1509.2
43.43 256.64 1522.9
46.27 250.64 1487.3
48.99 244.97 1453.7
53.40 247.94 1471.3
58.05 251.57 1492.8
62.00 251.88 1494.7
67.52 258.16 1531.9
71.44 257.96 1530.8
73.26 250.63 1487.3
76.95 250.10 1484.1
80.42 248.90 1477.0
84.79 250.53 1486.7
89.52 252.98 1501.2
91.37 247.47 1468.5
93.89 244.11 1448.6
96.63 241.58 1433.6
99.44 239.39 1420.5
104.67 242.99 1441.9
108.91 244.11 1448.5
113.71 246.38 1462.0
118.51 248.48 1474.5
121.49 246.78 1464.4
125.43 247.06 1466.0
128.94 246.51 1462.8
132.17 245.46 1456.6
134.81 243.42 1444.4
137.49 241.54 1433.3
139.24 238.17 1413.3
141.28 235.47 1397.3
148.02 240.53 1427.3
154.39 244.76 1452.5
157.58 243.87 1447.2
160.74 242.98 1441.9
165.33 244.23 1449.3
170.52 246.31 1461.6
170.17 240.46 1426.9
170.24 235.44 1397.1
175.88 238.17 1413.3
177.75 235.79 1399.2
181.06 235.38 1396.8
188.25 239.92 1423.7
194.51 243.14 1442.8
197.65 242.40 1438.4
196.66 236.72 1404.7
198.42 234.49 1391.5
206.91 240.17 1425.2
213.13 243.04 1442.2
211.07 236.54 1403.6
214.18 235.96 1400.2
222.43 240.96 1429.9
226.66 241.52 1433.2
232.32 243.56 1445.3
234.54 241.99 1436.0
236.72 240.42 1426.6
246.22 246.22 1461.1
254.73 250.87 1488.7
255.27 247.65 1469.6
254.17 242.96 1441.7
262.49 247.27 1467.3
274.28 254.69 1511.3
279.32 255.72 1517.5
275.89 249.07 1478.0
276.11 245.85 1458.9
286.27 251.45 1492.1
292.07 253.13 1502.1
286.48 245.01 1453.9
281.80 237.88 1411.6
286.89 239.07 1418.7
298.14 245.31 1455.7
307.38 249.74 1482.0
315.93 253.52 1504.4
326.23 258.60 1534.5
329.83 258.30 1532.8
323.76 250.53 1486.7
321.71 246.01 1459.9
336.92 254.65 1511.1
356.94 266.68 1582.5
368.96 272.53 1617.2
368.96 269.46 1599.0
370.43 267.53 1587.5
384.30 274.50 1628.9
399.75 282.44 1676.0
-96.86 295.19 1779.1
-90.22 288.70 1739.9
-85.91 289.39 1744.1
-78.64 279.61 1685.2
-71.37 268.69 1619.3
-67.87 271.49 1636.2
-64.17 273.81 1650.2
-58.51 267.46 1611.9
-53.53 263.56 1588.4
-48.81 260.30 1568.8
-44.52 259.02 1561.0
-40.55 259.52 1564.1
-36.27 257.90 1554.3
-31.63 253.01 1524.8
-26.89 245.82 1481.5
-23.35 249.10 1501.3
-20.08 256.97 1548.7
-15.72 251.58 1516.2
-11.46 244.38 1472.8
-7.60 243.07 1465.0
-3.79 242.26 1460.0
0.00 244.55 1473.8
3.87 247.82 1493.6
7.78 248.80 1499.5
11.70 249.62 1504.4
15.57 249.12 1501.4
19.17 245.35 1478.7
22.91 244.36 1472.7
27.07 247.46 1491.4
30.73 245.81 1481.4
34.47 245.14 1477.4
39.32 251.67 1516.8
43.62 253.78 1529.5
46.41 247.54 1491.9
49.51 243.76 1469.1
54.36 248.48 1497.6
59.34 253.20 1526.0
63.66 254.65 1534.7
68.11 256.42 1545.4
70.78 251.65 1516.6
72.85 245.41 1479.0
76.78 245.70 1480.8
80.61 245.67 1480.6
85.39 248.41 1497.1
89.50 249.03 1500.9
90.68 241.80 1457.3
92.65 237.19 1429.5
94.82 233.39 1406.6
98.10 232.54 1401.5
103.72 237.07 1428.8
109.03 240.62 1450.1
114.83 244.98 1476.4
121.48 250.80 1511.5
126.35 252.71 1523.0
128.00 248.25 1496.2
129.00 242.81 1463.4
131.33 240.15 1447.3
133.22 236.84 1427.4
136.14 235.48 1419.2
138.14 232.65 1402.1
140.84 231.13 1392.9
147.98 236.77 1426.9
154.45 241.10 1453.1
157.97 240.71 1450.7
161.79 240.81 1451.3
167.30 243.34 1466.6
169.45 240.99 1452.4
166.04 231.01 1392.2
168.76 229.80 1385.0
177.05 236.07 1422.7
178.44 233.07 1404.7
180.89 231.53 1395.4
187.42 235.19 1417.4
193.01 237.55 1431.6
200.55 242.17 1459.5
203.85 241.60 1456.1
201.56 234.55 1413.6
205.58 234.95 1416.0
214.66 241.02 1452.6
215.85 238.18 1435.5
214.27 232.42 1400.8
217.66 232.17 1399.3
221.98 232.89 1403.6
227.41 234.74 1414.7
232.89 236.59 1425.9
238.27 238.27 1436.0
248.78 244.95 1476.3
258.00 250.18 1507.8
263.65 251.85 1517.8
267.81 252.06 1519.1
269.03 249.53 1503.9
273.69 250.23 1508.1
274.79 247.70 1492.8
266.95 237.29 1430.1
267.96 234.92 1415.8
279.32 241.57 1455.9
288.80 246.44 1485.2
