ply
format ascii 1.0
element vertex 1959
property float x
property float y
property float z
end_header
-1615.21 -819.66 2324.7
-1605.87 -817.86 2302.6
-1598.95 -817.37 2301.3
-1580.11 -826.24 2326.2
-1592.87 -817.16 2284.0
-1596.20 -830.98 2305.9
-1585.47 -828.50 2299.0
-1640.71 -823.29 2268.3
-1071.67 -874.58 2375.6
-1061.79 -871.53 2367.3
-1565.76 -848.12 2287.6
-1563.17 -849.94 2292.5
-1581.71 -853.06 2285.0
-1569.56 -852.89 2284.5
-1091.99 -873.59 2340.0
-1094.91 -900.95 2413.3
-1087.27 -899.81 2410.2
-1589.06 -866.22 2304.2
-1538.28 -851.34 2264.6
-1552.82 -862.68 2294.8
-1097.84 -904.47 2406.0
-1076.53 -891.98 2372.8
-1072.48 -893.73 2377.4
-1064.77 -902.88 2401.7
-1054.50 -899.42 2392.6
-1541.22 -865.45 2286.4
-1539.10 -867.60 2292.1
-1107.84 -888.71 2347.9
-1085.66 -900.60 2379.3
-1067.54 -890.64 2353.0
-1065.87 -894.35 2362.8
-1099.23 -907.79 2382.0
-1554.23 -884.72 2305.7
-1541.97 -881.13 2296.4
-1531.34 -878.44 2289.4
-1558.05 -892.88 2311.4
-1499.46 -883.08 2286.0
-1089.71 -907.08 2348.1
-1077.07 -901.59 2333.9
-1574.87 -884.76 2275.1
-1508.78 -877.20 2255.7
-1543.60 -900.94 2316.7
-1083.66 -903.05 2322.1
-1105.02 -916.80 2341.9
-1560.24 -878.36 2228.9
-1578.46 -901.98 2288.9
-1557.79 -903.76 2293.4
-1537.56 -895.43 2272.2
-1556.71 -910.07 2309.4
-1508.99 -889.01 2256.0
-1512.67 -894.65 2270.3
-1572.47 -901.08 2271.6
-1568.29 -902.06 2274.1
-1588.33 -917.03 2311.9
-1550.93 -905.70 2283.3
-1520.07 -891.08 2246.4
-1530.23 -900.48 2270.1
-1528.64 -903.02 2276.5
-1554.17 -896.41 2245.2
-1536.56 -889.59 2228.1
-1570.65 -912.75 2286.1
-1561.13 -914.12 2289.5
-1528.15 -901.67 2258.3
-1504.29 -908.47 2275.4
-1505.74 -912.93 2286.6
-1086.28 -924.24 2314.9
-1611.95 -911.87 2269.2
-1558.05 -904.49 2250.8
-1540.98 -897.94 2234.5
-1545.16 -910.65 2266.1
-1520.16 -899.33 2238.0
-1490.68 -909.67 2263.7
-1134.03 -934.97 2326.7
-1612.41 -898.34 2221.2
-1609.29 -916.24 2265.4
-1575.96 -920.79 2276.7
-1521.38 -923.48 2283.3
-1522.85 -927.99 2294.5
-1492.92 -913.32 2258.2
-1080.40 -936.34 2315.1
-1063.08 -926.49 2290.8
-1585.69 -895.52 2200.1
-1578.97 -894.94 2198.7
-1594.84 -923.95 2269.9
-1586.34 -922.43 2266.2
-1561.04 -911.09 2238.3
-1561.73 -925.25 2273.1
-1548.43 -920.85 2262.3
-1531.42 -914.20 2246.0
-1489.33 -916.96 2252.8
-1107.66 -929.96 2284.7
-1100.49 -939.01 2306.9
-1574.66 -898.18 2192.7
-1576.78 -902.65 2203.6
-1580.19 -921.29 2249.1
-1587.51 -928.98 2267.9
-1548.65 -909.62 2220.6
-1541.10 -925.83 2260.2
-1547.55 -933.25 2278.3
-1141.41 -929.60 2269.4
-1129.04 -943.85 2304.2
-1113.98 -951.40 2322.6
-1100.87 -945.31 2307.7
-1025.16 -947.23 2312.4
-1603.26 -910.42 2208.6
-1547.59 -907.99 2202.7
-1549.54 -912.51 2213.6
-1522.61 -924.02 2241.6
-1498.81 -913.07 2215.0
-1126.09 -942.36 2286.0
-1119.52 -941.82 2284.7
-1126.92 -953.09 2312.1
-1105.43 -950.07 2304.8
-1089.94 -941.85 2284.8
-1033.95 -939.41 2278.9
-1541.51 -920.30 2218.6
-1506.19 -919.81 2217.4
-1508.42 -924.70 2229.2
-1116.61 -945.28 2278.8
-1101.85 -937.74 2260.6
-1118.63 -957.11 2307.3
-1079.43 -938.63 2262.8
-1082.53 -946.48 2281.7
-1062.44 -944.39 2276.7
-1061.00 -948.38 2286.3
-1031.19 -948.22 2285.9
-1539.96 -925.13 2216.4
-1541.81 -929.70 2227.3
-1512.63 -929.52 2226.9
-1476.45 -935.86 2242.1
-1017.68 -947.09 2269.0
-1592.99 -915.12 2178.9
-1514.43 -918.87 2187.8
-1539.76 -952.07 2266.8
-1111.38 -973.21 2317.2
-1586.29 -930.09 2200.9
-1560.26 -918.13 2172.6
-1560.73 -921.74 2181.1
-1532.55 -932.11 2205.7
-1517.95 -940.78 2226.2
-1501.61 -934.21 2210.7
-1515.49 -953.77 2256.9
-1502.34 -949.15 2246.0
-1503.86 -953.81 2257.0
-1135.05 -973.75 2304.2
-1127.62 -972.50 2301.3
-1125.93 -976.21 2310.0
-1116.46 -973.17 2302.8
-1087.52 -953.04 2255.2
-1084.83 -966.27 2286.5
-1601.00 -931.08 2189.8
-1605.44 -936.98 2203.7
-1587.48 -936.50 2202.6
-1564.76 -926.43 2178.9
-1565.48 -957.98 2253.1
-1541.45 -946.81 2226.8
-1498.87 -934.65 2198.2
-1451.25 -952.02 2239.1
-1460.75 -962.10 2262.8
-1124.67 -970.77 2283.2
-1111.13 -964.15 2267.6
-1104.19 -963.23 2265.4
-1097.54 -972.95 2288.3
-1587.71 -932.28 2179.4
-1596.49 -944.16 2207.1
-1614.06 -957.99 2239.5
-1555.45 -961.23 2247.0
-1510.26 -954.76 2231.9
-1124.63 -976.65 2283.1
-1576.67 -934.74 2171.9
-1579.96 -940.05 2184.3
-1532.41 -952.74 2213.8
-1549.19 -966.79 2246.4
-1524.88 -958.83 2227.9
-1499.11 -949.82 2207.0
-1520.85 -967.28 2247.6
-1068.77 -964.22 2240.4
-1037.47 -951.49 2210.9
-1582.60 -954.13 2203.7
-1538.21 -973.04 2247.4
-1483.06 -956.26 2208.6
-1449.77 -968.44 2236.8
-1053.45 -950.96 2196.4
-1613.59 -954.52 2191.5
-1595.17 -946.96 2174.1
-1597.41 -951.65 2184.9
-1548.73 -967.24 2220.7
-1491.47 -967.44 2221.2
-1464.81 -980.43 2251.0
-1441.41 -972.51 2232.8
-1407.67 -981.28 2252.9
-1111.34 -987.86 2268.0
-1115.82 -997.12 2289.3
-1088.92 -983.54 2258.1
-1618.11 -966.29 2205.4
-1594.69 -955.68 2181.2
-1605.77 -965.75 2204.2
-1602.91 -967.47 2208.1
-1576.85 -955.15 2180.0
-1604.31 -975.28 2225.9
-1395.83 -982.89 2243.3
-1081.39 -966.96 2206.9
-1048.02 -978.54 2233.3
-1028.44 -970.98 2216.1
-1629.94 -972.24 2205.9
-1591.92 -952.91 2162.1
-1584.08 -965.21 2190.0
-1601.60 -979.39 2222.2
-1575.08 -977.24 2217.3
-1523.73 -948.85 2152.8
-1495.06 -959.10 2176.1
-1141.14 -979.77 2223.0
-1122.99 -984.06 2232.7
-1118.62 -985.31 2235.6
-1099.76 -989.20 2244.4
-1067.77 -986.53 2238.3
-1571.89 -946.45 2134.9
-1596.48 -964.66 2175.9
-1546.61 -968.75 2185.2
-1520.28 -973.66 2196.2
-1482.44 -994.10 2242.3
-1473.38 -995.84 2246.3
-1445.69 -988.85 2230.5
-1436.32 -986.39 2224.9
-1440.36 -997.17 2249.3
-1130.22 -991.12 2235.6
-1117.50 -985.01 2221.8
-1097.65 -993.12 2240.1
-1076.53 -979.18 2208.7
-1067.31 -991.90 2237.4
-1034.89 -977.72 2205.4
-1034.38 -982.66 2216.5
-1035.37 -989.09 2231.0
-867.45 -1022.99 2307.5
-1630.11 -963.50 2160.7
-1605.93 -952.48 2136.0
-1607.81 -956.90 2145.9
-1560.47 -955.16 2142.0
-1573.75 -966.73 2167.9
-1514.72 -972.13 2180.0
-1538.47 -991.07 2222.5
-1524.47 -993.21 2227.3
-1489.65 -974.22 2184.7
-1503.49 -987.02 2213.4
-1461.80 -982.15 2202.5
-1472.85 -1001.31 2245.5
-1428.22 -994.55 2230.3
-1408.01 -1000.73 2244.2
-1384.29 -987.96 2215.5
-1382.91 -991.09 2222.5
-1146.72 -1006.31 2256.7
-1138.97 -1004.63 2252.9
-1084.61 -992.31 2225.3
-1062.38 -977.16 2191.3
-1059.64 -979.88 2197.4
-1020.20 -974.86 2186.1
-909.44 -1022.38 2292.7
-908.59 -1028.14 2305.6
-895.30 -1026.61 2302.2
-861.83 -1022.31 2292.6
-1634.54 -968.41 2159.1
-1613.73 -959.37 2139.0
-1636.78 -986.63 2199.8
-1574.37 -969.28 2161.1
-1579.87 -976.13 2176.4
-1551.06 -968.71 2159.8
-1546.04 -969.07 2160.6
-1510.87 -957.44 2134.7
-1539.42 -979.12 2183.0
-1524.47 -998.99 2227.3
-1505.60 -994.15 2216.5
-1475.32 -993.12 2214.2
-1458.17 -985.41 2197.0
-1406.87 -1001.60 2233.1
-1395.06 -997.29 2223.5
-1386.25 -995.11 2218.7
-1376.97 -992.56 2213.0
-1383.94 -1001.77 2233.5
-1165.82 -998.45 2226.1
-1119.73 -988.33 2203.6
-1117.95 -991.83 2211.3
-1047.91 -974.67 2173.1
-1053.21 -984.89 2195.9
-1042.38 -990.83 2209.1
-935.38 -1017.74 2269.1
-890.89 -1013.97 2260.7
-890.40 -1020.13 2274.4
-889.18 -1025.52 2286.5
-1634.53 -987.53 2189.1
-1614.97 -992.95 2201.1
-1594.39 -983.77 2180.8
-1576.08 -975.94 2163.4
-1563.80 -978.78 2169.7
-1532.48 -962.64 2133.9
-1547.17 -975.39 2162.2
-1515.80 -966.11 2141.6
-1539.99 -985.14 2183.8
-1540.29 -988.97 2192.3
-1524.42 -982.41 2177.7
-1479.40 -1005.53 2229.0
-1441.08 -1011.08 2241.3
-1377.81 -994.77 2205.2
-1165.31 -1013.82 2247.4
-1137.57 -1015.06 2250.1
-1073.39 -988.20 2190.6
-1066.37 -1002.97 2223.3
-928.03 -1022.01 2265.5
-883.59 -1018.18 2257.0
-858.72 -1009.58 2238.0
-878.04 -1046.43 2319.7
-852.24 -1022.68 2267.0
-1623.32 -986.39 2174.1
-1621.70 -988.84 2179.5
-1585.52 -976.99 2153.4
-1604.95 -995.98 2195.2
-1587.97 -999.62 2203.3
-1536.91 -970.97 2140.1
-1534.10 -972.71 2143.9
-1522.34 -975.86 2150.9
-1529.20 -983.86 2168.5
-1514.98 -978.31 2156.3
-1491.11 -966.46 2130.2
-1515.06 -985.63 2172.4
-1542.59 -1007.29 2220.1
-1448.33 -986.22 2173.7
-1464.89 -1001.39 2207.2
-1406.47 -1021.30 2251.0
-1367.22 -1005.31 2215.8
-1357.97 -1002.72 2210.1
-1131.98 -995.46 2194.1
-1112.79 -1019.57 2247.2
-1090.75 -1004.64 2214.3
-943.63 -1038.59 2289.1
-935.98 -1036.68 2284.9
-882.83 -1023.14 2255.1
-865.92 -1030.86 2272.1
-870.76 -1043.72 2300.4
-855.38 -1032.36 2275.4
-854.07 -1045.20 2303.7
-1603.37 -993.64 2177.6
-1561.16 -970.90 2127.8
-1606.63 -1002.72 2197.5
-1568.25 -992.85 2175.9
-1573.59 -999.83 2191.2
-1531.58 -987.39 2163.9
-1518.97 -982.86 2154.0
-1525.79 -998.29 2187.8
-1464.86 -1023.08 2242.1
-1371.60 -1018.57 2232.3
-1155.74 -1006.98 2206.9
-907.34 -1043.74 2287.4
-880.15 -1019.12 2233.5
-889.44 -1036.70 2272.0
-868.87 -1054.63 2311.3
-853.33 -1050.25 2301.7
-842.90 -1052.13 2305.8
-1631.85 -1009.92 2200.8
-1591.72 -992.02 2161.8
-1575.08 -985.12 2146.8
-1573.99 -987.93 2152.9
-1569.46 -995.68 2169.8
-1555.12 -990.13 2157.7
-1581.80 -1010.76 2202.6
-1530.86 -996.19 2170.9
-1531.71 -1000.41 2180.1
-1396.29 -1017.05 2216.3
-1355.94 -1012.67 2206.8
-1347.54 -1023.67 2230.8
-1084.60 -1015.74 2213.5
-1073.79 -1016.37 2214.8
-1056.13 -1005.03 2190.1
-1023.26 -1011.83 2205.0
-1018.40 -1012.68 2206.8
-914.30 -1037.37 2260.6
-885.46 -1031.09 2246.9
-891.35 -1044.83 2276.9
-1618.46 -1007.29 2182.7
-1606.76 -1003.52 2174.6
-1585.64 -993.81 2153.5
-1569.57 -987.22 2139.2
-1570.15 -991.09 2147.6
-1521.19 -974.00 2110.6
-1547.39 -994.35 2154.7
-1579.97 -1018.97 2208.0
-1551.48 -1004.23 2176.1
-1533.95 -996.51 2159.4
-1512.89 -993.71 2153.3
-1476.69 -984.46 2133.3
-1490.44 -1001.13 2169.4
-1511.72 -1019.27 2208.7
-1407.04 -1026.45 2224.2
-1388.80 -1017.31 2204.4
-1377.55 -1013.24 2195.6
-1345.18 -1010.31 2189.3
-1352.99 -1020.47 2211.3
-1060.71 -1004.29 2176.2
-1040.13 -1011.71 2192.3
-1041.10 -1023.84 2218.6
-1015.03 -1009.36 2187.2
-905.23 -1032.89 2238.2
-908.34 -1043.12 2260.4
-910.32 -1052.18 2280.0
-876.17 -1032.84 2238.1
-866.02 -1027.67 2226.9
-1598.42 -1011.01 2178.6
-1588.42 -1008.25 2172.6
-1586.71 -1010.75 2178.0
-1587.72 -1015.01 2187.2
-1557.42 -999.21 2153.1
-1524.51 -981.61 2115.2
-1554.51 -1004.54 2164.6
-1576.15 -1022.21 2202.7
-1542.26 -1003.87 2163.2
-1525.30 -996.45 2147.2
-1531.08 -1003.90 2163.2
-1490.46 -980.86 2113.6
-1493.71 -993.96 2141.8
-1507.36 -1018.18 2194.0
-1521.72 -1031.77 2223.3
-1068.01 -1006.18 2168.1
-923.03 -1032.64 2225.2
-869.04 -1030.19 2219.9
-859.60 -1025.79 2210.4
-1583.32 -1017.85 2181.1
-1558.54 -1005.51 2154.7
-1531.11 -991.37 2124.4
-1528.33 -993.14 2128.2
-1516.84 -989.24 2119.8
-1525.44 -998.47 2139.6
-1552.37 -1019.81 2185.3
-1516.51 -999.90 2142.6
-1527.68 -1018.45 2182.4
-1514.74 -1028.88 2204.7
-1468.46 -1044.75 2238.8
-1019.04 -1036.31 2220.7
-1021.00 -1044.21 2237.6
-1017.94 -1047.03 2243.6
-886.95 -1036.70 2221.5
-894.03 -1051.80 2253.9
-887.17 -1050.59 2251.3
-879.98 -1048.98 2247.8
-1614.86 -1007.90 2147.8
-1620.03 -1014.62 2162.2
-1624.03 -1020.66 2175.0
-1610.66 -1026.51 2187.5
-1536.09 -996.53 2123.6
-1503.27 -985.84 2100.8
-1553.74 -1030.14 2195.2
-1499.12 -997.58 2125.9
-1538.67 -1027.67 2190.0
-1426.36 -1045.23 2227.4
-1369.17 -1028.30 2191.3
-1237.57 -1027.53 2189.7
-1154.52 -1034.49 2204.5
-1104.87 -1047.03 2231.2
-1084.71 -1044.33 2225.5
-1026.22 -1031.92 2199.0
-1012.08 -1023.39 2180.9
-918.33 -1065.50 2270.6
-879.97 -1027.58 2189.8
-872.95 -1039.49 2215.2
-840.55 -1049.24 2235.9
-1600.61 -1015.02 2151.2
-1584.52 -1008.33 2137.0
-1621.25 -1035.32 2194.2
-1552.03 -1008.82 2138.0
-1529.54 -997.76 2114.6
-1561.19 -1022.07 2166.1
-1535.45 -1008.85 2138.1
-1513.62 -998.11 2115.3
-1535.87 -1039.14 2202.3
-1444.08 -1018.70 2158.9
-1408.98 -1042.41 2209.2
-1229.77 -1026.69 2175.9
-1229.82 -1031.46 2186.0
-1062.90 -1045.67 2216.1
-861.76 -1031.85 2186.8
-823.70 -1033.89 2191.1
-821.81 -1038.67 2201.3
-1599.01 -1023.14 2156.5
-1612.35 -1035.30 2182.1
-1597.87 -1033.25 2177.8
-1587.88 -1030.43 2171.9
-1569.11 -1021.87 2153.8
-1529.01 -999.32 2106.3
-1551.44 -1017.61 2144.9
-1512.60 -1032.86 2177.0
-1446.65 -1026.11 2162.8
-1462.06 -1045.15 2202.9
-1451.59 -1045.83 2204.3
-1342.35 -1027.82 2166.4
-1208.51 -1053.13 2219.7
-1061.14 -1032.91 2177.1
-1040.62 -1052.12 2217.6
-908.13 -1045.21 2203.0
-896.51 -1038.37 2188.6
-898.77 -1047.61 2208.1
-889.60 -1043.57 2199.6
-860.97 -1043.42 2199.3
-1633.45 -1036.39 2172.6
-1626.22 -1035.38 2170.4
-1604.54 -1039.56 2179.2
-1596.75 -1038.17 2176.3
-1565.20 -1028.56 2156.1
-1554.45 -1051.54 2204.3
-1509.58 -1040.31 2180.8
-1479.61 -1023.49 2145.5
-1481.15 -1036.24 2172.2
-1483.39 -1049.79 2200.6
-1263.22 -1037.64 2175.2
-1274.98 -1052.00 2205.3
-1212.76 -1052.59 2206.5
-1182.39 -1036.00 2171.7
-1183.12 -1041.60 2183.5
-1096.91 -1067.89 2238.6
-1031.28 -1042.61 2185.6
-1037.40 -1054.59 2210.7
-1009.88 -1038.09 2176.1
-916.74 -1060.88 2223.9
-906.47 -1055.64 2212.9
-860.90 -1042.14 2184.6
-853.54 -1040.07 2180.3
-849.54 -1056.18 2214.0
-1535.62 -1014.60 2115.4
-1528.49 -1013.52 2113.1
-1561.15 -1038.90 2166.0
-1523.41 -1021.13 2129.0
-1530.32 -1029.49 2146.4
-1472.40 -1012.62 2111.3
-1484.12 -1028.33 2144.0
-1456.88 -1013.25 2112.6
-1271.21 -1036.01 2160.0
-1234.36 -1037.99 2164.1
-1182.28 -1061.76 2213.7
-1089.36 -1055.14 2199.9
-1076.99 -1071.20 2233.4
-1084.82 -1084.82 2261.8
-1036.27 -1053.35 2196.2
-1011.25 -1056.95 2203.7
-868.18 -1049.76 2188.7
-865.15 -1052.98 2195.4
-867.08 -1062.32 2214.9
-866.93 -1069.22 2229.3
-844.02 -1047.94 2184.9
-831.07 -1067.69 2226.1
-1644.95 -1044.24 2165.5
-1623.45 -1048.48 2174.3
-1585.60 -1027.60 2131.0
-1568.60 -1030.95 2137.9
-1572.98 -1037.50 2151.5
-1548.79 -1025.17 2125.9
-1523.04 -1015.36 2105.6
-1548.68 -1047.47 2172.2
-1543.07 -1047.49 2172.2
-1535.84 -1046.40 2170.0
-1523.26 -1041.64 2160.1
-1482.51 -1025.08 2125.7
-1457.33 -1011.43 2097.4
-1495.74 -1041.98 2160.8
-1516.50 -1060.41 2199.0
-1349.07 -1054.31 2186.4
-1338.43 -1050.42 2178.3
-1313.83 -1035.48 2147.3
-1267.49 -1047.79 2172.8
-1235.31 -1049.17 2175.7
-1220.84 -1061.10 2200.4
-1170.94 -1047.09 2171.4
-1160.07 -1047.44 2172.1
-1188.31 -1078.17 2235.8
-1079.07 -1050.82 2179.1
-1059.65 -1048.38 2174.1
-1070.93 -1065.20 2208.9
-1046.59 -1046.59 2170.4
-1047.01 -1052.67 2182.9
-1023.40 -1057.51 2193.0
-921.92 -1071.73 2222.5
-884.67 -1048.08 2173.4
-882.43 -1052.13 2181.8
-871.44 -1059.39 2196.9
-847.65 -1037.25 2151.0
-829.35 -1056.58 2191.1
-1605.95 -1035.56 2136.0
-1626.74 -1052.60 2171.1
-1623.43 -1054.10 2174.2
-1607.85 -1047.63 2160.9
-1577.97 -1039.01 2143.1
-1546.55 -1021.92 2107.9
-1561.42 -1035.41 2135.7
-1546.04 -1028.86 2122.2
-1520.31 -1015.35 2094.3
-1554.80 -1053.43 2172.9
-1538.93 -1046.47 2158.5
-1504.80 -1027.00 2118.3
-1489.47 -1024.01 2112.2
-1541.67 -1063.81 2194.3
-1488.50 -1046.43 2158.4
-1481.82 -1045.66 2156.8
-1429.31 -1056.45 2179.1
-1332.86 -1042.87 2151.1
-1336.37 -1050.00 2165.8
-1332.07 -1051.04 2167.9
-1302.33 -1040.75 2146.7
-1300.90 -1044.07 2153.5
-1293.25 -1042.41 2150.1
-1297.95 -1050.72 2167.3
-1237.41 -1076.26 2219.9
-1207.79 -1055.40 2176.9
-1190.74 -1065.40 2197.5
-1119.57 -1084.77 2237.5
-1051.52 -1045.93 2157.4
-1044.82 -1044.82 2155.1
-1040.12 -1045.72 2156.9
-1059.58 -1071.04 2209.2
-922.98 -1072.03 2211.2
-903.96 -1056.50 2179.2
-872.90 -1053.12 2172.2
-861.59 -1059.98 2186.4
-1606.73 -1056.17 2166.9
-1597.30 -1053.66 2161.8
-1566.36 -1036.89 2127.4
-1559.22 -1035.80 2125.1
-1600.41 -1066.94 2189.0
-1583.84 -1059.65 2174.0
-1547.53 -1057.95 2170.6
-1478.41 -1014.38 2081.2
-1477.79 -1017.67 2087.9
-1537.34 -1066.50 2188.1
-1515.18 -1055.01 2164.5
-1474.50 -1030.51 2114.3
-1497.54 -1062.41 2179.7
-1489.78 -1060.90 2176.6
-1475.75 -1054.91 2164.3
-1453.43 -1042.92 2139.7
-1414.01 -1050.72 2155.7
-1352.26 -1063.71 2182.4
-1301.31 -1049.98 2154.2
-1305.55 -1057.95 2170.6
-1269.07 -1069.89 2195.1
-1234.23 -1059.52 2173.8
-1231.11 -1061.69 2178.2
-1212.60 -1065.28 2185.6
-1208.42 -1081.82 2219.5
-1204.65 -1083.61 2223.2
-1183.41 -1069.62 2194.5
-1140.65 -1072.21 2199.8
-1107.78 -1073.52 2202.5
-1108.37 -1079.66 2215.1
-1064.98 -1059.34 2173.4
-1061.06 -1061.06 2176.9
-1083.08 -1088.87 2234.0
-1076.89 -1094.35 2245.2
-1039.26 -1061.85 2178.6
-914.45 -1061.22 2177.3
-911.97 -1064.91 2184.8
-871.83 -1078.31 2212.3
-837.33 -1063.64 2182.2
-1602.27 -1058.84 2160.9
-1591.74 -1055.58 2154.2
-1584.00 -1054.14 2151.3
-1602.67 -1070.33 2184.4
-1556.65 -1069.84 2183.4
-1494.55 -1030.91 2103.9
-1497.83 -1052.38 2147.7
-1450.42 -1022.87 2087.5
-1469.75 -1040.38 2123.2
-1464.73 -1052.60 2148.2
-1445.05 -1042.42 2127.4
-1463.36 -1059.67 2162.6
-1478.41 -1074.69 2193.3
-1443.78 -1053.57 2150.1
-1226.03 -1062.94 2169.3
-1228.77 -1070.22 2184.1
-1215.25 -1068.29 2180.2
-1216.07 -1074.01 2191.9
-1202.59 -1082.33 2208.8
-1157.97 -1083.45 2211.1
-1137.59 -1069.68 2183.0
-1074.10 -1091.43 2227.4
-986.83 -1090.70 2225.9
-915.40 -1067.97 2179.5
-899.57 -1056.01 2155.1
-928.52 -1096.82 2238.4
-1619.44 -1072.10 2176.4
-1585.07 -1060.44 2152.8
-1567.44 -1052.34 2136.3
-1526.84 -1039.78 2110.8
-1558.99 -1073.22 2178.7
-1539.89 -1063.93 2159.9
-1511.73 -1048.28 2128.1
-1527.10 -1070.66 2173.5
-1449.14 -1031.22 2093.5
-1448.85 -1042.73 2116.8
-1418.76 -1024.96 2080.8
-1423.16 -1032.06 2095.2
-1416.89 -1039.42 2110.1
-1395.47 -1069.11 2170.4
-1398.71 -1075.93 2184.2
-1229.57 -1076.58 2185.5
-1207.09 -1061.79 2155.5
-1204.62 -1079.61 2191.7
-1199.60 -1080.21 2192.9
-1176.42 -1069.47 2171.1
-1172.06 -1075.81 2184.0
-1130.72 -1074.19 2180.7
-1061.26 -1084.09 2200.8
-922.60 -1088.79 2210.3
-830.42 -1073.34 2179.0
-816.13 -1069.41 2171.0
-1588.24 -1038.88 2098.0
-1608.70 -1059.53 2139.7
-1604.32 -1060.30 2141.2
-1619.96 -1074.35 2169.6
-1600.53 -1065.16 2151.0
-1555.85 -1046.36 2113.1
-1513.22 -1035.93 2092.0
-1524.92 -1055.29 2131.1
-1501.08 -1042.57 2105.4
-1513.84 -1055.27 2131.1
-1438.05 -1028.72 2077.4
-1480.94 -1063.38 2147.4
-1454.89 -1048.62 2117.6
-1437.83 -1040.25 2100.7
-1445.73 -1066.16 2153.0
-1379.91 -1062.76 2146.2
-1332.45 -1060.41 2141.4
-1338.89 -1069.99 2160.8
-1334.12 -1070.66 2162.1
-1242.40 -1073.75 2168.4
-1221.29 -1084.96 2191.0
-1172.19 -1076.39 2173.7
-1185.39 -1093.76 2208.8
-1148.31 -1096.63 2214.6
-947.14 -1096.38 2214.1
-920.05 -1071.52 2163.9
-888.39 -1073.94 2168.8
-1600.95 -1063.61 2136.7
-1593.24 -1062.16 2133.8
-1583.31 -1059.22 2127.9
-1535.67 -1068.29 2146.1
-1529.57 -1067.92 2145.4
-1474.13 -1056.10 2121.6
-1480.17 -1064.39 2138.3
-1435.29 -1059.91 2129.3
-1422.58 -1066.93 2143.4
-1402.73 -1077.30 2164.2
-1354.10 -1056.86 2123.2
-1359.63 -1087.70 2185.1
-1258.20 -1088.17 2186.1
-1254.62 -1089.99 2189.7
-1233.68 -1101.70 2213.2
-1188.93 -1076.77 2163.2
-1124.17 -1079.21 2168.1
-1143.86 -1103.63 2217.1
-1084.96 -1079.34 2168.3
-949.50 -1104.88 2219.6
-906.37 -1094.49 2198.8
-887.53 -1092.34 2194.4
-1597.76 -1056.05 2110.5
-1451.70 -1073.48 2145.4
-1424.14 -1090.71 2179.8
-1361.02 -1050.71 2099.9
-1379.44 -1069.20 2136.8
-1295.53 -1082.41 2163.2
-1307.16 -1096.88 2192.1
-1282.40 -1095.15 2188.7
-1228.19 -1102.52 2203.4
-1199.17 -1081.49 2161.4
-1183.40 -1103.36 2205.1
-1130.37 -1085.38 2169.1
-1130.79 -1091.21 2180.8
-976.14 -1108.21 2214.8
-971.90 -1109.92 2218.2
-948.25 -1115.92 2230.2
-895.17 -1086.59 2171.6
-909.13 -1110.52 2219.4
-1619.69 -1079.80 2146.9
-1594.67 -1066.78 2121.0
-1469.23 -1055.67 2098.9
-1464.28 -1063.93 2115.3
-1472.89 -1074.21 2135.8
-1459.98 -1068.81 2125.0
-1427.80 -1049.22 2086.1
-1407.21 -1038.02 2063.8
-1439.10 -1065.59 2118.6
-1463.54 -1092.03 2171.2
-1406.94 -1053.84 2095.3
-1406.53 -1057.62 2102.8
-1429.10 -1078.78 2144.8
-1420.91 -1076.78 2140.9
-1425.22 -1092.85 2172.8
-1393.29 -1072.61 2132.6
-1379.58 -1096.88 2180.8
-1353.71 -1080.74 2148.7
-1316.71 -1055.54 2098.7
-1341.32 -1079.74 2146.7
-1352.62 -1093.37 2173.9
-1341.53 -1088.94 2165.0
-1290.82 -1070.17 2127.7
-1299.37 -1081.88 2151.0
-1294.57 -1082.53 2152.3
-1282.69 -1077.24 2141.8
-1312.69 -1107.22 2201.4
-1208.47 -1085.39 2158.0
-1215.14 -1096.45 2180.0
-1206.50 -1098.88 2184.8
-1177.72 -1093.19 2173.5
-1166.20 -1087.71 2162.6
-1171.59 -1098.01 2183.1
-1119.17 -1113.43 2213.7
-1103.74 -1103.74 2194.5
-1087.58 -1093.21 2173.5
-1098.31 -1109.76 2206.4
-957.69 -1105.91 2198.8
-905.21 -1097.56 2182.2
-889.51 -1085.32 2157.9
-905.89 -1112.29 2211.5
-1620.55 -1078.52 2133.3
-1598.10 -1093.44 2162.8
-1591.44 -1092.71 2161.4
-1489.68 -1056.32 2089.4
-1449.19 -1042.78 2062.6
-1417.58 -1043.12 2063.3
-1428.67 -1063.32 2103.3
-1452.12 -1093.30 2162.6
-1435.10 -1093.14 2162.3
-1386.67 -1073.02 2122.5
-1371.00 -1065.12 2106.8
-1358.60 -1081.34 2138.9
-1364.23 -1090.27 2156.6
-1342.83 -1077.58 2131.5
-1328.57 -1074.98 2126.3
-1355.43 -1101.28 2178.4
-1294.06 -1078.39 2133.1
-1283.61 -1074.27 2124.9
-1300.62 -1093.19 2162.4
-1086.54 -1086.54 2149.2
-1015.14 -1093.66 2163.3
-995.68 -1109.47 2194.6
-992.65 -1112.46 2200.5
-953.39 -1100.07 2176.0
-909.01 -1087.46 2151.0
-916.75 -1103.50 2182.7
-904.46 -1095.46 2166.8
-886.77 -1122.86 2221.0
-1616.35 -1096.21 2157.3
-1595.28 -1097.11 2159.0
-1517.92 -1070.19 2106.1
-1525.76 -1083.51 2132.3
-1477.31 -1052.92 2072.1
-1447.04 -1046.57 2059.6
-1458.02 -1058.42 2082.9
-1459.66 -1075.54 2116.6
-1429.56 -1057.34 2080.8
-1442.30 -1070.80 2107.3
-1417.53 -1056.41 2078.9
-1429.13 -1069.12 2104.0
-1456.64 -1093.88 2152.7
-1438.64 -1084.51 2134.2
-1437.14 -1087.56 2140.2
-1429.33 -1098.62 2162.0
-1349.53 -1070.89 2107.4
-1339.97 -1067.62 2101.0
-1342.75 -1074.20 2113.9
-1330.26 -1095.51 2155.9
-1322.12 -1093.40 2151.7
-1335.06 -1108.78 2182.0
-1293.48 -1088.08 2141.3
-1270.22 -1096.76 2158.3
-1185.51 -1080.75 2126.8
-1201.48 -1100.42 2165.6
-1160.33 -1093.39 2151.7
-1106.51 -1089.83 2144.7
-1112.32 -1101.09 2166.9
-1114.15 -1114.15 2192.6
-1052.81 -1091.80 2148.6
-1046.21 -1096.56 2158.0
-1000.09 -1095.07 2155.0
-908.75 -1113.22 2190.7
-904.28 -1136.14 2235.8
-1528.14 -1082.89 2120.2
-1536.45 -1096.67 2147.2
-1471.38 -1054.04 2063.8
-1465.42 -1053.61 2062.9
-1478.66 -1067.02 2089.2
-1469.62 -1072.28 2099.5
-1470.97 -1077.25 2109.2
-1455.44 -1069.86 2094.7
-1442.06 -1063.99 2083.2
-1447.04 -1071.68 2098.3
-1460.31 -1085.59 2125.5
-1425.07 -1075.63 2106.0
-1412.83 -1070.49 2096.0
-1419.09 -1079.38 2113.4
-1406.35 -1073.84 2102.5
-1379.86 -1057.72 2070.9
-1379.96 -1061.92 2079.2
-1315.64 -1112.37 2177.9
-1232.73 -1103.86 2161.3
-1224.21 -1101.23 2156.1
-1207.68 -1101.45 2156.6
-1197.28 -1107.34 2168.1
-1179.94 -1112.19 2177.6
-1154.58 -1093.52 2141.0
-1104.64 -1104.64 2162.8
-1046.01 -1096.08 2146.1
-930.71 -1097.91 2149.6
-923.19 -1115.76 2184.6
-918.65 -1131.09 2214.6
-910.84 -1128.52 2209.6
-1583.48 -1107.88 2158.2
-1553.92 -1091.05 2125.4
-1488.36 -1075.53 2095.2
-1479.14 -1072.79 2089.8
-1474.20 -1073.13 2090.5
-1433.30 -1058.93 2062.9
-1436.77 -1065.47 2075.6
-1457.96 -1085.25 2114.1
-1468.06 -1096.89 2136.8
-1405.56 -1070.39 2085.2
-1435.43 -1097.35 2137.7
-1416.52 -1091.33 2126.0
-1415.49 -1094.79 2132.7
-1401.71 -1092.67 2128.6
-1390.53 -1088.24 2120.0
-1372.86 -1078.68 2101.3
-1382.54 -1108.27 2159.0
-1334.88 -1074.42 2093.0
-1292.73 -1103.28 2149.2
-1306.73 -1120.05 2181.9
-1280.76 -1102.57 2147.9
-1299.29 -1123.41 2188.5
-1242.11 -1117.90 2177.7
-1207.86 -1092.04 2127.3
-1178.07 -1116.06 2174.2
-1163.29 -1112.72 2167.6
-1170.36 -1130.40 2202.1
-1097.06 -1102.63 2148.0
-1104.38 -1115.65 2173.3
-1065.73 -1099.03 2141.0
-1088.90 -1128.81 2199.0
-1015.12 -1110.46 2163.2
-1013.02 -1114.33 2170.8
-937.91 -1132.35 2205.9
-914.93 -1118.25 2178.4
-902.76 -1124.20 2190.0
-1584.11 -1098.39 2129.0
-1563.21 -1087.69 2108.2
-1574.76 -1099.57 2131.3
-1458.33 -1063.03 2060.4
-1478.39 -1081.62 2096.5
-1452.93 -1074.84 2083.3
-1421.70 -1055.67 2046.2
-1443.53 -1075.89 2085.4
-1472.00 -1101.23 2134.5
-1439.15 -1088.94 2110.6
-1410.23 -1083.53 2100.2
-1393.03 -1091.39 2115.4
-1374.71 -1089.91 2112.5
-1378.59 -1097.35 2127.0
-1385.39 -1107.20 2146.0
-1335.44 -1075.92 2085.4
-1325.05 -1103.29 2138.5
-1293.63 -1104.86 2141.5
-1271.40 -1090.55 2113.8
-1262.43 -1087.55 2108.0
-1224.41 -1112.59 2156.5
-1160.85 -1132.40 2194.9
-1141.38 -1124.43 2179.4
-1107.94 -1124.90 2180.4
-1111.03 -1133.82 2197.6
-1073.08 -1106.44 2144.6
-1080.16 -1119.54 2170.0
-1054.47 -1128.17 2186.7
-941.66 -1128.86 2188.0
-928.89 -1120.30 2171.4
-933.86 -1133.16 2196.4
-898.00 -1103.09 2138.1
-899.31 -1118.52 2168.0
-916.37 -1146.91 2223.0
-1538.33 -1102.74 2126.7
-1542.50 -1109.71 2140.2
-1519.94 -1105.41 2131.9
-1454.56 -1065.61 2055.1
-1496.37 -1100.27 2122.0
-1464.16 -1084.56 2091.7
-1438.13 -1069.24 2062.1
-1429.86 -1071.05 2065.6
-1424.92 -1071.37 2066.2
-1410.08 -1064.21 2052.4
-1374.69 -1073.98 2071.2
-1386.39 -1087.37 2097.1
-1387.39 -1092.43 2106.8
-1373.25 -1085.57 2093.6
-1384.24 -1098.60 2118.7
-1332.89 -1079.27 2081.4
-1323.39 -1102.82 2126.9
-1297.95 -1086.15 2094.7
-1313.47 -1103.76 2128.7
-1311.62 -1106.85 2134.6
-1316.89 -1116.01 2152.3
-1308.29 -1113.44 2147.4
-1299.24 -1110.46 2141.6
-1290.67 -1107.88 2136.6
-1272.24 -1096.76 2115.2
-1218.72 -1093.03 2108.0
-1235.08 -1127.93 2175.3
-1148.57 -1115.12 2150.6
-1132.07 -1104.46 2130.0
-1125.63 -1114.49 2149.4
-1142.46 -1136.77 2192.3
-1120.58 -1126.21 2172.0
-1115.50 -1126.77 2173.1
-1066.45 -1105.13 2131.3
-1088.50 -1133.86 2186.7
-1040.05 -1106.43 2133.8
-1018.96 -1101.58 2124.5
-1034.96 -1124.96 2169.6
-1032.52 -1128.44 2176.3
-963.64 -1147.19 2212.4
-946.45 -1133.47 2186.0
-920.09 -1108.54 2137.9
-875.90 -1122.95 2165.7
-862.18 -1149.58 2217.0
-860.29 -1154.75 2227.0
-1566.92 -1108.98 2128.1
-1531.96 -1088.07 2088.0
-1538.49 -1096.58 2104.3
-1561.77 -1117.14 2143.8
-1536.32 -1114.80 2139.3
-1448.04 -1070.06 2053.4
-1355.36 -1094.08 2099.5
-1345.92 -1122.53 2154.1
-1305.40 -1093.28 2098.0
-1299.30 -1092.72 2096.9
-1264.58 -1090.91 2093.4
-1280.99 -1114.62 2138.9
-1212.40 -1087.92 2087.7
-1220.44 -1100.04 2110.9
-1165.02 -1131.25 2170.8
-1130.81 -1114.18 2138.1
-1125.91 -1120.34 2149.9
-1121.15 -1138.14 2184.1
-1104.49 -1126.91 2162.5
-1064.29 -1108.40 2127.0
-1079.87 -1130.48 2169.4
-1026.95 -1103.84 2118.2
-1019.22 -1107.37 2125.0
-1037.22 -1145.50 2198.2
-985.70 -1106.84 2124.0
-1009.39 -1139.81 2187.3
-943.66 -1129.02 2166.6
-921.38 -1115.65 2140.9
-881.40 -1128.42 2165.4
-873.05 -1124.90 2158.7
-851.91 -1141.56 2190.6
-853.64 -1151.55 2209.8
-1564.13 -1104.74 2109.5
-1582.76 -1121.82 2142.1
-1555.37 -1106.29 2112.4
-1534.07 -1098.88 2098.3
-1543.79 -1109.77 2119.1
-1540.17 -1119.12 2136.9
-1509.93 -1101.10 2102.5
-1501.76 -1099.11 2098.7
-1476.51 -1084.57 2071.0
-1209.32 -954.23 1822.1
-1340.62 -1096.38 2093.5
-1334.05 -1095.44 2091.7
-1356.11 -1122.68 2143.7
-1332.71 -1117.05 2133.0
-1304.34 -1097.82 2096.3
-1289.26 -1094.25 2089.4
-1284.47 -1128.10 2154.1
-1234.48 -1108.29 2116.2
-1161.26 -1127.76 2153.4
-1170.02 -1141.76 2180.2
-1146.83 -1141.18 2179.1
-1092.01 -1114.07 2127.3
-1102.69 -1130.68 2159.0
-1063.56 -1142.76 2182.1
-1035.90 -1118.99 2136.7
-1021.78 -1109.68 2118.9
-1036.29 -1131.52 2160.6
-999.25 -1109.06 2117.7
-991.50 -1106.54 2112.9
-1025.79 -1151.17 2198.1
-998.74 -1146.28 2188.8
-968.54 -1130.90 2159.4
-871.57 -1150.70 2197.2
-849.69 -1129.19 2156.2
-843.76 -1143.89 2184.2
-1574.83 -1102.38 2094.6
-1588.23 -1123.38 2134.5
-1554.19 -1103.15 2096.1
-1539.98 -1108.57 2106.4
-1508.36 -1101.43 2092.8
-1474.99 -1080.95 2053.9
-1182.38 -905.75 1721.0
-1167.20 -897.51 1705.3
-1164.99 -899.22 1708.6
-1164.83 -902.52 1714.9
-1140.50 -887.05 1685.5
-1163.40 -908.35 1725.9
-1156.00 -913.10 1735.0
-1153.16 -914.42 1737.5
-1159.40 -922.97 1753.7
-1310.31 -1127.09 2141.6
-1278.05 -1108.74 2106.7
-1240.32 -1119.04 2126.3
-1160.03 -1126.73 2140.9
-1158.10 -1130.26 2147.6
-1084.64 -1129.14 2145.4
-1078.37 -1128.40 2144.0
-1087.09 -1143.42 2172.6
-1083.70 -1157.84 2200.0
-1054.63 -1132.75 2152.3
-1053.10 -1137.12 2160.6
-1019.29 -1112.45 2113.7
-1016.21 -1115.09 2118.7
-993.33 -1145.71 2176.9
-974.29 -1143.24 2172.2
-876.96 -1119.64 2127.4
-885.04 -1137.11 2160.6
-890.59 -1151.52 2188.0
-872.73 -1157.94 2200.2
-1567.81 -1114.40 2107.1
-1288.01 -958.96 1813.2
-1264.85 -948.63 1793.6
-1224.56 -921.81 1742.9
-1210.77 -914.80 1729.7
-1194.60 -916.16 1732.2
-1160.69 -893.51 1689.4
-1144.55 -884.42 1672.2
-1150.66 -892.53 1687.5
-1158.77 -902.25 1705.9
-1132.93 -885.51 1674.3
-1149.18 -901.66 1704.8
-1162.99 -919.58 1738.7
-1124.63 -892.70 1687.9
-1111.76 -885.93 1675.1
-1115.59 -892.47 1687.4
-1136.97 -913.16 1726.6
-1195.21 -971.41 1836.7
-1295.38 -1115.01 2108.2
-1235.60 -1120.28 2118.2
-1191.25 -1104.61 2088.6
-1203.08 -1120.67 2118.9
-1170.83 -1121.36 2120.2
-1166.82 -1122.79 2122.9
-1174.98 -1136.00 2147.9
-1173.01 -1150.45 2175.2
-1096.28 -1129.50 2135.6
-1104.85 -1144.11 2163.2
-1082.56 -1126.75 2130.4
-1089.39 -1139.67 2154.8
-1013.34 -1117.41 2112.8
-1024.00 -1147.78 2170.2
-1016.90 -1146.12 2167.0
-1007.53 -1141.86 2159.0
-981.86 -1118.99 2115.7
-949.74 -1167.15 2206.8
-924.58 -1143.11 2161.4
-887.19 -1131.17 2138.8
-883.96 -1170.96 2214.0
-1565.16 -1102.60 2074.6
-1550.51 -1099.84 2069.4
-1227.99 -922.12 1735.0
-1213.65 -914.70 1721.0
-1181.44 -893.71 1681.5
-1151.47 -874.26 1645.0
-1163.06 -886.35 1667.7
-1201.76 -919.26 1729.6
-1203.71 -924.20 1738.9
-1167.66 -899.89 1693.2
-1146.81 -887.16 1669.2
-1128.13 -876.01 1648.2
-1130.67 -881.32 1658.2
-1149.11 -899.11 1691.7
-1134.08 -890.76 1676.0
-1120.14 -883.18 1661.7
-1124.60 -890.13 1674.8
-1135.11 -901.93 1697.0
-1134.38 -904.86 1702.5
-1119.47 -896.45 1686.7
-1121.25 -901.40 1696.0
-1125.51 -908.38 1709.2
-1145.25 -927.97 1746.0
-1135.53 -931.13 1752.0
-1141.51 -939.80 1768.3
-1170.63 -967.66 1820.7
-1171.49 -972.29 1829.4
-1176.23 -980.19 1844.3
-1196.08 -1000.80 1883.0
-1192.52 -1006.03 1892.9
-1249.60 -1104.18 2077.5
-1190.03 -1103.87 2077.0
-1174.41 -1151.94 2167.4
-1106.52 -1139.88 2144.7
-1081.19 -1130.84 2127.7
-1066.54 -1169.20 2199.9
-1026.30 -1149.68 2163.2
-1017.68 -1146.29 2156.8
-1007.17 -1140.71 2146.3
-1006.60 -1146.41 2157.0
-990.44 -1134.30 2134.2
-974.93 -1129.16 2124.6
-965.13 -1137.08 2139.4
-929.56 -1141.07 2147.0
-943.88 -1165.63 2193.2
-1564.93 -1104.03 2067.2
-1556.23 -1101.66 2062.8
-1253.78 -935.79 1752.2
-1226.04 -918.41 1719.6
-1193.10 -897.01 1679.6
-1177.79 -888.74 1664.1
-1170.46 -886.45 1659.8
-1163.14 -884.15 1655.5
-1155.83 -881.85 1651.2
-1156.91 -885.96 1658.9
-1186.19 -911.77 1707.2
-1177.75 -908.68 1701.4
-1136.60 -880.22 1648.1
-1125.70 -875.07 1638.5
-1115.87 -870.72 1630.3
-1114.83 -873.21 1635.0
-1128.16 -887.02 1660.9
-1124.98 -887.92 1662.5
-1121.29 -888.41 1663.5
-1122.69 -892.95 1672.0
-1130.14 -902.36 1689.6
-1132.46 -907.73 1699.6
-1121.10 -902.13 1689.2
-1123.37 -907.51 1699.2
-1129.63 -916.15 1715.4
-1135.81 -924.81 1731.6
-1150.92 -940.83 1761.6
-1143.00 -938.08 1756.5
-1113.76 -917.74 1718.4
-1110.90 -919.05 1720.8
-1126.76 -935.94 1752.5
-1172.33 -981.71 1838.1
-1178.48 -990.88 1855.3
-1174.33 -991.44 1856.4
-1171.62 -993.23 1859.7
-1186.33 -1009.85 1890.8
-1171.71 -1014.17 1898.9
-1229.71 -1115.95 2089.5
-1191.61 -1120.87 2098.7
-1160.65 -1149.49 2152.3
-1147.69 -1147.69 2148.9
-1146.94 -1152.54 2158.0
-1104.64 -1149.27 2151.9
-1089.73 -1139.52 2133.6
-1102.72 -1158.98 2170.1
-1077.25 -1138.02 2130.8
-1083.36 -1156.33 2165.1
-1056.17 -1157.29 2166.9
-1039.26 -1169.88 2190.5
-1029.04 -1164.74 2180.9
-1023.83 -1165.25 2181.8
-1018.32 -1171.92 2194.3
-976.49 -1130.10 2116.0
-988.67 -1150.65 2154.5
-934.39 -1152.61 2158.1
-898.72 -1142.82 2139.8
-910.08 -1164.45 2180.3
-856.30 -1160.51 2172.9
-865.95 -1181.37 2212.0
-1566.54 -1110.53 2069.3
-1226.68 -920.01 1714.3
-1194.77 -899.34 1675.8
-1170.43 -884.23 1647.6
-1162.06 -881.12 1641.8
-1163.74 -885.64 1650.3
-1166.44 -890.97 1660.2
-1168.05 -895.50 1668.6
-1174.86 -904.07 1684.6
-1173.77 -906.61 1689.3
-1140.38 -884.11 1647.4
-1099.35 -855.51 1594.1
-1085.45 -847.88 1579.9
-1088.65 -853.60 1590.6
-1099.01 -865.00 1611.8
-1111.86 -878.45 1636.9
-1109.75 -880.15 1640.0
-1107.63 -881.84 1643.2
-1110.08 -887.21 1653.2
-1097.76 -880.76 1641.2
-1079.41 -869.41 1620.0
-1077.29 -871.09 1623.1
-1087.24 -882.58 1644.6
-1088.06 -886.73 1652.3
-1088.36 -890.47 1659.3
-1125.54 -924.55 1722.8
-1140.09 -940.23 1752.0
-1110.38 -919.39 1713.2
-1104.06 -917.83 1710.2
-1119.43 -934.37 1741.1
-1139.11 -954.64 1778.8
-1167.45 -982.37 1830.5
-1178.98 -996.12 1856.1
-1173.36 -995.43 1854.8
-1167.74 -994.74 1853.6
-1156.81 -989.50 1843.8
-1154.11 -991.29 1847.1
-1159.08 -999.71 1862.8
-1146.73 -993.20 1850.7
-1145.42 -996.23 1856.3
-1159.32 -1012.57 1886.8
-1142.72 -1002.30 1867.6
-1184.75 -1057.09 1969.7
-1166.53 -1049.87 1956.3
-1170.43 -1057.98 1971.4
-1154.86 -1048.49 1953.7
-1157.77 -1055.77 1967.3
-1155.22 -1072.34 1998.1
-1154.22 -1154.22 2150.7
-1131.66 -1165.45 2171.6
-1100.76 -1150.80 2144.3
-1084.65 -1139.71 2123.7
-1073.29 -1145.22 2133.9
-1064.67 -1172.27 2184.4
-1019.07 -1165.46 2171.7
-986.85 -1180.80 2200.2
-892.67 -1140.63 2125.4
-867.96 -1144.38 2132.4
-861.04 -1142.54 2129.0
-853.88 -1147.75 2138.7
-853.71 -1170.31 2180.7
-855.46 -1180.53 2199.7
-856.15 -1189.41 2216.3
-844.23 -1188.82 2215.2
-1532.57 -1122.45 2081.5
-1315.25 -980.54 1818.3
-1287.78 -963.52 1786.7
-1256.69 -943.65 1749.9
-1215.60 -916.11 1698.8
-1205.00 -911.42 1690.1
-1199.21 -910.35 1688.1
-1181.78 -900.40 1669.7
-1176.02 -899.31 1667.7
-1149.22 -882.06 1635.7
-1123.60 -865.58 1605.1
-1150.39 -889.52 1649.5
-1167.63 -906.22 1680.5
-1151.45 -897.01 1663.4
-1126.50 -880.87 1633.5
-1095.98 -860.24 1595.2
-1082.11 -852.57 1581.0
-1089.39 -861.57 1597.7
-1098.65 -872.21 1617.4
-1075.60 -857.19 1589.6
-1052.66 -842.13 1561.6
-1077.64 -865.44 1604.9
-1087.75 -876.94 1626.2
-1068.93 -865.12 1604.3
-1064.82 -865.17 1604.4
-1064.23 -868.08 1609.8
-1056.59 -865.24 1604.5
-1071.47 -880.90 1633.5
-1119.14 -923.73 1713.0
-1143.63 -947.71 1757.4
-1124.34 -935.45 1734.7
-1107.11 -924.81 1715.0
-1109.16 -930.26 1725.1
-1118.04 -941.51 1745.9
-1133.69 -958.57 1777.6
-1151.17 -977.32 1812.3
-1153.91 -983.66 1824.1
-1157.08 -990.42 1836.6
-1155.85 -993.46 1842.3
-1112.19 -959.90 1780.0
-1073.09 -930.01 1724.6
-1106.52 -962.99 1785.8
-1154.49 -1008.96 1871.0
-1159.77 -1017.86 1887.5
-1136.54 -1001.70 1857.5
-1127.13 -997.63 1850.0
-1142.72 -1015.75 1883.6
-1149.71 -1026.35 1903.3
-1140.71 -1022.70 1896.5
-1171.75 -1064.29 1973.6
-1177.41 -1074.13 1991.9
-1158.63 -1061.65 1968.7
-1169.72 -1076.56 1996.4
-1142.44 -1065.59 1976.0
-1137.91 -1066.15 1977.1
-1140.58 -1073.49 1990.7
-1125.25 -1063.87 1972.8
-1149.32 -1091.59 2024.2
-1049.86 -1155.40 2142.6
-1038.86 -1149.38 2131.4
-1060.49 -1179.58 2187.4
-1046.98 -1177.15 2182.9
-1035.20 -1170.23 2170.1
-1009.73 -1160.35 2151.8
-991.66 -1145.92 2125.0
-993.21 -1173.80 2176.7
-978.71 -1163.26 2157.1
-979.41 -1170.79 2171.1
-973.44 -1170.38 2170.4
-975.14 -1179.24 2186.8
-879.48 -1157.80 2147.0
-860.72 -1140.32 2114.6
-844.77 -1140.99 2115.8
-858.67 -1167.35 2164.7
-848.80 -1177.00 2182.6
-833.43 -1163.44 2157.5
-828.41 -1164.25 2159.0
-838.01 -1185.75 2198.9
-1302.52 -972.24 1794.3
-1256.81 -941.48 1737.5
-1242.36 -934.00 1723.7
-1221.55 -921.67 1701.0
-1190.17 -901.25 1663.3
-1185.48 -900.96 1662.7
-1200.39 -915.63 1689.8
-1201.46 -919.80 1697.5
-1185.64 -911.02 1681.3
-1149.90 -886.82 1636.7
-1102.79 -853.64 1575.4
-1106.62 -859.79 1586.8
-1143.25 -891.56 1645.4
-1146.90 -897.76 1656.8
-1145.83 -900.30 1661.5
-1137.51 -897.13 1655.7
-1112.19 -880.48 1624.9
-1108.57 -880.96 1625.8
-1108.03 -883.89 1631.2
-1075.25 -861.03 1589.0
-1054.87 -847.96 1564.9
-1080.34 -871.78 1608.9
-1098.53 -889.89 1642.3
-1087.78 -884.61 1632.6
-1085.13 -885.90 1635.0
-1085.98 -890.08 1642.7
-1078.78 -887.66 1638.2
-1094.08 -903.81 1668.0
-1120.22 -929.07 1714.6
-1122.34 -934.53 1724.7
-1105.59 -924.28 1705.8
-1089.91 -914.82 1688.3
-1099.88 -926.92 1710.6
-1116.63 -944.84 1743.7
-1110.75 -943.68 1741.6
-1104.87 -942.52 1739.4
-1103.37 -945.10 1744.2
-1102.82 -948.52 1750.5
-1105.62 -954.86 1762.2
-1069.37 -927.38 1711.5
-1047.24 -911.97 1683.1
-1091.24 -954.26 1761.1
-1138.26 -999.57 1844.7
-1145.97 -1010.58 1865.0
-1115.22 -987.63 1822.7
-1095.02 -973.87 1797.3
-1105.04 -986.98 1821.5
-1105.58 -991.70 1830.2
-1100.47 -991.37 1829.6
-1102.82 -997.79 1841.4
-1117.65 -1015.60 1874.3
-1146.22 -1046.12 1930.6
-1143.21 -1047.94 1934.0
-1119.03 -1030.30 1901.4
-1138.95 -1053.28 1943.9
-1168.74 -1085.63 2003.5
-1167.35 -1089.18 2010.1
-1145.53 -1073.62 1981.4
-1142.80 -1075.88 1985.6
-1148.59 -1086.23 2004.7
-1124.72 -1068.48 1971.9
-1137.15 -1085.23 2002.8
-1129.93 -1093.32 2017.7
-1124.84 -1093.45 2018.0
-1109.65 -1083.73 2000.0
-1095.54 -1150.59 2123.4
-1085.16 -1151.26 2124.7
-1030.43 -1145.53 2114.1
-1016.07 -1154.12 2130.0
-1000.20 -1142.31 2108.2
-1012.40 -1162.59 2145.6
-988.96 -1141.95 2107.5
-983.53 -1141.99 2107.6
-997.36 -1164.51 2149.1
-962.55 -1169.61 2158.5
-965.32 -1179.83 2177.4
-926.52 -1166.52 2152.8
-1320.98 -987.21 1813.2
-1274.63 -955.97 1755.9
-1223.13 -920.63 1691.0
-1200.75 -907.04 1666.0
-1214.73 -920.91 1691.5
-1213.71 -923.48 1696.2
-1176.06 -898.08 1649.5
-1160.81 -889.67 1634.1
-1169.37 -899.52 1652.2
-1160.48 -895.96 1645.6
-1139.54 -883.04 1621.9
-1105.07 -859.50 1578.7
-1087.47 -848.95 1559.3
-1102.23 -863.69 1586.4
-1118.45 -879.68 1615.7
-1129.38 -891.61 1637.7
-1126.27 -892.51 1639.3
-1106.15 -879.89 1616.1
-1097.41 -876.26 1609.5
-1090.24 -873.85 1605.0
-1076.95 -866.51 1591.5
-1075.93 -869.02 1596.2
-1088.61 -882.66 1621.2
-1094.10 -890.54 1635.7
-1094.47 -894.32 1642.6
-1102.38 -904.29 1660.9
-1081.08 -890.30 1635.2
-1051.37 -869.24 1596.6
-1051.76 -873.00 1603.5
-1062.07 -885.06 1625.6
-1073.28 -897.97 1649.3
-1066.10 -895.52 1644.8
-1060.90 -894.74 1643.4
-1081.77 -916.01 1682.5
-1098.55 -933.99 1715.5
-1092.72 -932.81 1713.3
-1081.54 -927.04 1702.7
-1074.29 -924.59 1698.2
-1075.28 -929.25 1706.8
-1078.64 -936.01 1719.2
-1065.59 -928.53 1705.5
-1066.03 -932.77 1713.3
-1082.20 -950.89 1746.5
-1098.71 -969.45 1780.6
-1124.58 -996.47 1830.2
-1116.17 -993.20 1824.2
-1095.51 -978.97 1798.1
-1102.70 -989.60 1817.6
-1093.40 -985.46 1810.0
-1078.99 -976.67 1793.9
-1076.28 -978.43 1797.1
-1083.76 -989.52 1817.5
-1111.49 -1019.27 1872.1
-1111.36 -1023.62 1880.1
-1107.97 -1025.00 1882.6
-1143.47 -1062.51 1951.6
-1155.87 -1078.82 1981.5
-1138.62 -1067.46 1960.6
-1112.40 -1047.55 1924.1
-1103.01 -1043.39 1916.4
-1126.02 -1069.98 1965.3
-1125.98 -1074.80 1974.1
-1113.41 -1067.65 1961.0
-1114.22 -1073.33 1971.4
-1112.33 -1076.45 1977.1
-1108.64 -1077.85 1979.7
-1119.45 -1093.42 2008.3
-1097.07 -1081.62 1986.6
-1096.80 -1086.46 1995.5
-1108.17 -1169.43 2147.9
-1038.32 -1147.62 2107.9
-997.18 -1169.88 2148.8
-968.40 -1189.26 2184.4
-959.87 -1185.72 2177.8
-928.49 -1181.71 2170.5
-894.25 -1152.10 2116.1
-839.20 -1167.09 2143.6
-1552.84 -1133.73 2072.5
-1317.89 -986.08 1802.6
-1291.95 -970.11 1773.4
-1264.51 -952.90 1741.9
-1227.00 -927.95 1696.3
-1211.57 -919.57 1681.0
-1230.84 -937.57 1713.9
-1219.15 -932.03 1703.8
-1173.55 -900.43 1646.0
-1165.72 -897.69 1641.0
-1179.53 -911.65 1666.5
-1162.73 -901.97 1648.8
-1135.49 -884.09 1616.1
-1119.89 -875.18 1599.8
-1117.92 -876.88 1603.0
-1104.48 -869.57 1589.6
-1094.72 -865.12 1581.5
-1096.90 -870.10 1590.6
-1086.65 -865.22 1581.6
-1077.98 -861.56 1575.0
-1079.08 -865.72 1582.6
-1079.12 -869.06 1588.7
-1073.53 -867.87 1586.5
-1069.97 -868.32 1587.3
-1080.11 -879.94 1608.6
-1080.56 -883.71 1615.4
-1074.91 -882.52 1613.3
-1101.48 -907.86 1659.6
-1101.27 -911.25 1665.8
-1067.02 -886.38 1620.3
-1061.37 -885.18 1618.1
-1050.26 -879.38 1607.5
-1038.69 -873.16 1596.2
-1048.91 -885.28 1618.3
-1062.49 -900.34 1645.9
-1071.05 -911.25 1665.8
-1074.13 -917.58 1677.4
-1073.75 -920.98 1683.6
-1067.02 -918.94 1679.8
-1087.95 -940.81 1719.8
-1118.40 -971.12 1775.2
-1094.13 -953.97 1743.9
-1052.20 -921.22 1684.0
-1061.78 -933.48 1706.4
-1087.02 -959.67 1754.3
-1067.80 -946.66 1730.5
-1056.73 -940.80 1719.8
-1094.89 -978.90 1789.5
-1124.28 -1009.46 1845.3
-1110.69 -1001.52 1830.8
-1082.16 -979.99 1791.4
-1073.40 -976.24 1784.6
-1075.82 -982.68 1796.4
-1045.75 -959.36 1753.7
-1032.47 -951.31 1739.0
-1082.78 -1002.05 1831.8
-1131.79 -1052.02 1923.1
-1125.11 -1050.43 1920.2
-1097.02 -1028.76 1880.6
-1089.06 -1025.86 1875.3
-1074.34 -1016.53 1858.2
-1063.74 -1011.04 1848.2
-1081.03 -1032.11 1886.7
-1082.49 -1038.20 1897.9
-1075.87 -1036.57 1894.9
-1080.82 -1046.11 1912.3
-1083.03 -1053.08 1925.1
-1083.42 -1058.34 1934.7
-1095.63 -1075.24 1965.6
-1106.39 -1090.88 1994.2
-1095.23 -1084.94 1983.3
-1085.85 -1080.72 1975.6
-1089.91 -1089.91 1992.4
-1056.58 -1066.70 1950.0
-1055.11 -1165.59 2130.7
-1054.09 -1176.78 2151.2
-1008.82 -1176.03 2149.8
-997.23 -1168.98 2136.9
-985.32 -1161.46 2123.2
-976.69 -1177.61 2152.7
-981.44 -1190.14 2175.6
-945.25 -1173.22 2144.7
-952.97 -1189.80 2175.0
-856.17 -1165.49 2130.5
-876.04 -1200.29 2194.2
-822.65 -1164.96 2129.6
-828.86 -1181.68 2160.1
-1315.85 -985.72 1793.4
-1298.52 -976.20 1776.1
-1292.03 -974.77 1773.5
-1281.24 -970.08 1765.0
-1238.89 -941.38 1712.8
-1217.57 -928.50 1689.3
-1234.67 -944.95 1719.2
-1222.44 -938.98 1708.4
-1180.05 -909.71 1655.1
-1173.78 -908.18 1652.4
-1179.13 -915.66 1666.0
-1156.02 -901.02 1639.3
-1133.02 -886.35 1612.6
-1121.10 -880.27 1601.6
-1104.52 -870.47 1583.7
-1077.60 -852.43 1550.9
-1090.74 -866.05 1575.7
-1115.16 -888.78 1617.0
-1088.36 -870.69 1584.1
-1064.76 -855.04 1555.7
-1073.59 -865.40 1574.5
-1082.34 -875.79 1593.4
-1077.25 -875.01 1592.0
-1073.68 -875.46 1592.8
-1072.64 -877.99 1597.4
-1061.98 -872.63 1587.7
-1061.94 -875.99 1593.8
-1092.54 -904.76 1646.1
-1113.41 -925.65 1684.1
-1101.63 -919.47 1672.9
-1089.41 -912.86 1660.9
-1071.26 -901.22 1639.7
-1059.13 -894.57 1627.6
-1068.79 -906.33 1649.0
-1055.70 -898.83 1635.3
-1038.74 -887.96 1615.6
-1050.73 -901.84 1640.8
-1059.20 -912.80 1660.8
-1059.80 -917.05 1668.5
-1085.10 -942.79 1715.3
-1123.26 -979.96 1783.0
-1109.60 -972.04 1768.5
-1078.21 -948.47 1725.7
-1097.27 -969.25 1763.5
-1099.94 -975.68 1775.2
-1059.76 -943.99 1717.5
-1041.14 -931.31 1694.4
-1069.39 -960.64 1747.8
-1088.94 -982.36 1787.3
-1068.90 -968.41 1761.9
-1078.43 -981.24 1785.3
-1107.45 -1011.98 1841.2
-1099.53 -1009.09 1836.0
-1062.45 -979.30 1781.7
-1036.20 -959.27 1745.3
-1068.05 -993.10 1806.9
-1109.27 -1035.97 1884.9
-1098.55 -1030.50 1874.9
-1074.22 -1012.15 1841.5
-1067.71 -1010.51 1838.5
-1084.71 -1031.20 1876.2
-1107.85 -1057.95 1924.8
-1118.68 -1073.12 1952.4
-1114.18 -1073.67 1953.4
-1076.71 -1042.30 1896.4
-1048.80 -1019.93 1855.7
-1066.60 -1042.02 1895.9
-1083.35 -1063.28 1934.5
-1081.05 -1065.97 1939.4
-1076.55 -1066.49 1940.4
-1066.81 -1061.81 1931.9
-1056.68 -1056.68 1922.5
-1053.92 -1058.92 1926.6
-1041.24 -1051.16 1912.5
-1038.48 -1053.39 1916.5
-1047.89 -1078.41 1962.1
-1011.20 -1045.73 1902.6
-1034.06 -1074.61 1955.2
-1028.55 -1084.84 1973.8
-1049.19 -1183.13 2152.6
-960.77 -1191.13 2167.2
-930.19 -1166.87 2123.0
-926.36 -1190.24 2165.5
-910.96 -1177.58 2142.5
-854.38 -1176.16 2139.9
-848.72 -1199.52 2182.4
-850.70 -1210.39 2202.2
-1312.61 -991.44 1795.4
-1297.47 -983.49 1781.0
-1267.37 -964.11 1745.9
-1211.71 -925.07 1675.2
-1188.86 -910.89 1649.5
-1200.70 -923.28 1671.9
-1194.94 -922.18 1669.9
-1161.64 -899.75 1629.3
-1142.76 -888.35 1608.7
-1135.00 -885.55 1603.6
-1120.96 -877.81 1589.6
-1106.97 -870.06 1575.6
-1089.90 -859.81 1557.0
-1068.72 -846.24 1532.4
-1065.82 -847.09 1534.0
-1099.71 -877.30 1588.7
-1115.30 -893.08 1617.2
-1081.81 -869.53 1574.6
-1063.39 -857.96 1553.7
-1076.83 -872.11 1579.3
-1079.42 -877.55 1589.1
-1068.73 -872.18 1579.4
-1073.32 -879.30 1592.3
-1080.39 -888.50 1609.0
-1069.70 -883.13 1599.2
-1068.63 -885.67 1603.8
-1076.07 -895.32 1621.3
-1072.92 -896.20 1622.9
-1060.77 -889.55 1610.9
-1047.18 -881.62 1596.5
-1050.52 -887.94 1607.9
-1059.25 -898.88 1627.8
-1066.91 -909.01 1646.1
-1053.84 -901.48 1632.5
-1039.35 -892.67 1616.5
-1054.25 -909.13 1646.3
-1057.83 -915.92 1658.6
-1054.54 -916.81 1660.2
-1066.75 -931.22 1686.3
-1089.96 -955.40 1730.1
-1100.96 -969.03 1754.8
-1096.02 -968.68 1754.2
-1087.25 -964.94 1747.4
-1062.30 -946.73 1714.4
-1065.99 -954.01 1727.6
-1091.89 -981.31 1777.0
-1072.73 -968.18 1753.2
-1044.25 -946.49 1714.0
-1047.35 -953.36 1726.4
-1079.38 -986.73 1786.8
-1099.05 -1009.04 1827.2
-1084.19 -999.71 1810.3
-1073.10 -993.79 1799.6
-1071.74 -996.85 1805.2
-1065.75 -995.63 1803.0
-1068.01 -1002.14 1814.7
-1085.28 -1022.85 1852.2
-1087.84 -1029.82 1864.9
-1074.03 -1021.29 1849.4
-1083.76 -1035.16 1874.5
-1092.04 -1047.76 1897.4
-1088.11 -1048.72 1899.1
-1102.93 -1067.84 1933.7
-1088.67 -1058.85 1917.4
-1056.30 -1032.08 1868.9
-1065.22 -1045.58 1893.4
-1086.35 -1071.26 1939.9
-1091.06 -1080.91 1957.4
-1080.40 -1075.36 1947.3
-1062.82 -1062.82 1924.6
-1047.93 -1052.88 1906.6
-1038.73 -1048.58 1898.8
-1026.12 -1040.77 1884.7
-1022.99 -1042.56 1887.9
-1045.88 -1071.02 1939.5
-1052.39 -1082.90 1961.0
-1035.52 -1070.70 1938.9
-1017.46 -1057.17 1914.4
-999.51 -1043.61 1889.8
-991.71 -1040.56 1884.3
-977.67 -1030.91 1866.8
-975.74 -1034.00 1872.4
-994.45 -1059.09 1917.9
-1005.55 -1076.30 1949.0
-1034.87 -1172.49 2123.2
-1010.30 -1175.92 2129.4
-954.80 -1155.53 2092.5
-931.27 -1160.01 2100.6
-925.43 -1201.93 2176.5
-900.70 -1176.98 2131.4
-908.25 -1209.11 2189.5
-905.27 -1212.72 2196.1
-870.86 -1174.00 2126.0
-861.61 -1168.93 2116.8
-862.40 -1177.51 2132.3
-867.77 -1192.49 2159.4
-871.69 -1205.66 2183.3
-868.11 -1216.49 2202.9
-832.42 -1182.03 2140.5
-1325.68 -1002.46 1806.8
-1313.74 -996.95 1796.9
-1283.03 -977.11 1761.1
-1239.05 -946.98 1706.8
-1217.18 -933.61 1682.7
-1222.05 -940.72 1695.6
-1200.29 -927.30 1671.4
-1165.88 -903.98 1629.3
-1143.27 -889.67 1603.5
-1132.88 -884.81 1594.8
-1122.00 -879.52 1585.2
-1106.43 -870.50 1569.0
-1101.38 -869.73 1567.6
-1092.68 -866.05 1561.0
-1085.57 -863.61 1556.6
-1095.09 -874.43 1576.1
-1099.35 -881.12 1588.1
-1084.97 -872.87 1573.3
-1062.92 -858.36 1547.1
-1054.32 -854.64 1540.4
-1070.32 -870.91 1569.7
-1074.46 -877.61 1581.8
-1054.62 -864.71 1558.6
-1049.59 -863.90 1557.1
-1065.83 -880.65 1587.3
-1064.28 -882.78 1591.1
-1067.75 -889.10 1602.5
-1078.70 -901.72 1625.3
-1063.53 -892.53 1608.7
-1040.44 -876.59 1580.0
-1026.41 -868.19 1564.8
-1029.80 -874.52 1576.2
-1040.07 -886.75 1598.3
-1048.77 -897.75 1618.1
-1053.95 -905.80 1632.6
-1057.10 -912.18 1644.1
-1063.14 -921.10 1660.2
-1058.40 -920.72 1659.5
-1059.00 -925.00 1667.2
-1076.02 -943.72 1701.0
-1070.71 -942.93 1699.5
-1052.41 -930.65 1677.4
-1044.75 -927.70 1672.1
-1035.19 -923.05 1663.7
-1032.81 -924.78 1666.8
-1057.96 -951.27 1714.6
-1095.22 -988.93 1782.4
-1088.79 -987.30 1779.5
-1067.80 -972.38 1752.6
-1076.91 -984.87 1775.1
-1071.45 -984.08 1773.7
-1053.88 -972.12 1752.1
-1042.90 -966.15 1741.4
-1035.19 -963.18 1736.0
-1063.90 -994.21 1792.0
-1088.70 -1021.85 1841.8
-1075.78 -1014.17 1827.9
-1076.13 -1018.99 1836.6
-1073.26 -1020.79 1839.9
-1054.53 -1007.45 1815.8
-1050.78 -1008.37 1817.5
-1047.02 -1009.29 1819.2
-1048.18 -1014.98 1829.4
-1068.93 -1039.78 1874.1
-1089.05 -1064.19 1918.1
-1093.03 -1072.97 1933.9
-1075.31 -1060.45 1911.3
-1067.80 -1057.91 1906.8
-1068.62 -1063.65 1917.1
-1055.00 -1055.00 1901.5
-1053.18 -1058.12 1907.2
-1053.93 -1063.87 1917.5
-1041.25 -1056.06 1903.4
-1026.06 -1045.60 1884.6
-1006.65 -1030.74 1857.8
-1010.82 -1039.98 1874.5
-1027.23 -1061.97 1914.1
-1023.16 -1062.89 1915.8
-1017.39 -1062.05 1914.3
-1013.30 -1062.97 1915.9
-1008.79 -1063.45 1916.8
-1000.52 -1059.95 1910.5
-984.81 -1048.50 1889.8
-983.22 -1052.05 1896.2
-988.60 -1063.12 1916.2
-1008.22 -1089.69 1964.1
-1052.30 -1185.22 2136.2
-962.22 -1125.21 2028.1
-991.29 -1165.58 2100.8
-1023.45 -1210.05 2181.0
-1010.30 -1201.13 2164.9
-957.27 -1191.02 2146.7
-948.10 -1186.51 2138.6
-940.75 -1184.24 2134.5
-929.49 -1176.99 2121.4
-929.09 -1227.32 2212.1
-900.72 -1197.23 2157.9
-858.65 -1193.18 2150.6
-873.12 -1229.26 2215.6
-829.19 -1190.91 2146.5
-1299.29 -983.62 1764.6
-1294.97 -983.81 1765.0
-1283.65 -978.67 1755.8
-1254.64 -959.96 1722.2
-1247.18 -957.65 1718.0
-1254.14 -966.45 1733.8
-1236.54 -956.32 1715.7
-1197.75 -929.66 1667.8
-1162.84 -905.83 1625.1
-1138.66 -890.22 1597.1
-1119.33 -878.30 1575.7
-1101.65 -867.60 1556.5
-1105.02 -873.45 1567.0
-1117.24 -886.37 1590.2
-1111.11 -884.77 1587.3
-1106.03 -884.00 1585.9
-1089.54 -874.07 1568.1
-1067.93 -859.95 1542.8
-1073.77 -867.90 1557.0
-1070.80 -868.77 1558.6
-1059.62 -862.95 1548.1
-1072.01 -876.36 1572.2
