ply
format ascii 1.0
element vertex 1975
property float x
property float y
property float z
end_header
-1139.33 -965.14 1815.9
-1122.04 -1122.04 2111.1
-1101.54 -1134.76 2135.1
-1029.01 -1152.71 2168.9
-1024.99 -1154.52 2172.3
-980.32 -1148.38 2160.7
-941.97 -1129.26 2124.7
-917.96 -1113.50 2095.1
-892.96 -1137.00 2139.3
-849.20 -1130.43 2126.9
-826.65 -1145.02 2154.4
-755.05 -1129.81 2125.8
-650.30 -1120.26 2107.8
-654.59 -1137.22 2139.7
-644.75 -1139.42 2143.9
-630.37 -1153.80 2170.9
-563.21 -1120.96 2109.1
-1267.97 -953.29 1784.9
-1236.58 -933.09 1747.1
-1225.92 -928.45 1738.4
-1210.55 -920.19 1723.0
-1189.45 -907.51 1699.2
-1163.20 -890.78 1667.9
-1154.31 -887.27 1661.3
-1163.16 -897.42 1680.3
-1154.79 -894.31 1674.5
-1134.51 -881.92 1651.3
-1130.86 -882.41 1652.2
-1121.53 -878.46 1644.8
-1114.28 -876.11 1640.4
-1117.30 -881.85 1651.2
-1111.58 -880.71 1649.0
-1103.32 -877.54 1643.1
-1100.16 -878.42 1644.8
-1107.64 -887.83 1662.4
-1113.52 -896.04 1677.7
-1109.27 -896.12 1677.9
-1084.92 -879.90 1647.5
-1079.72 -879.14 1646.1
-1100.49 -899.60 1684.4
-1096.21 -899.68 1684.6
-1105.33 -910.79 1705.4
-1119.31 -926.01 1733.9
-1124.79 -934.30 1749.4
-1124.79 -938.09 1756.5
-1133.10 -948.86 1776.6
-1135.95 -955.13 1788.4
-1102.70 -930.97 1743.1
-1078.84 -914.58 1712.5
-1107.41 -942.67 1765.0
-1124.32 -1146.58 2146.9
-1109.28 -1136.88 2128.7
-1081.13 -1124.81 2106.1
-1055.35 -1150.27 2153.8
-1011.37 -1144.73 2143.4
-1030.34 -1172.65 2195.7
-1002.17 -1166.37 2183.9
-959.59 -1123.16 2103.0
-945.98 -1113.55 2085.0
-949.14 -1130.19 2116.2
-946.19 -1139.85 2134.3
-925.12 -1141.16 2136.7
-908.84 -1148.59 2150.6
-841.85 -1140.93 2136.3
-819.61 -1156.44 2165.3
-795.04 -1129.51 2114.9
-788.87 -1136.42 2127.8
-753.58 -1158.49 2169.2
-736.92 -1150.04 2153.3
-651.22 -1127.32 2110.8
-578.58 -1135.11 2125.4
-568.73 -1126.53 2109.3
-566.32 -1143.74 2141.5
-1247.43 -938.98 1749.6
-1216.06 -918.70 1711.9
-1202.28 -911.62 1698.7
-1182.74 -900.10 1677.2
-1160.65 -886.55 1652.0
-1158.60 -888.26 1655.1
-1150.25 -885.14 1649.3
-1145.05 -884.43 1648.0
-1156.52 -896.63 1670.7
-1144.53 -890.67 1659.6
-1122.22 -876.60 1633.4
-1107.24 -868.18 1617.7
-1087.17 -855.68 1594.4
-1086.18 -858.16 1599.1
-1095.41 -868.77 1618.8
-1104.57 -879.40 1638.6
-1111.10 -888.02 1654.7
-1090.14 -874.65 1629.8
-1079.41 -869.41 1620.0
-1086.38 -878.44 1636.8
-1082.71 -878.90 1637.7
-1087.56 -886.32 1651.5
-1113.38 -910.94 1697.4
-1126.54 -925.37 1724.3
-1118.70 -922.59 1719.1
-1115.83 -923.91 1721.6
-1117.41 -928.93 1730.9
-1129.78 -943.01 1757.2
-1135.18 -951.34 1772.7
-1123.36 -945.26 1761.4
-1106.69 -935.04 1742.3
-1087.18 -922.32 1718.6
-1079.41 -919.50 1713.4
-1087.62 -930.32 1733.5
-1127.58 -968.50 1804.7
-1104.34 -960.50 1789.8
-1092.19 -953.94 1777.5
-1109.97 -973.58 1814.1
-1127.61 -993.25 1850.8
-1117.06 -1150.41 2143.6
-1095.03 -1139.05 2122.5
-1084.69 -1134.00 2113.0
-1048.44 -1148.29 2139.7
-1028.66 -1163.57 2168.1
-1002.76 -1140.50 2125.2
-1013.12 -1165.08 2171.0
-972.72 -1124.87 2096.0
-964.29 -1121.39 2089.6
-969.25 -1153.07 2148.6
-982.44 -1175.52 2190.4
-931.08 -1120.54 2088.0
-941.00 -1166.39 2173.4
-868.64 -1145.27 2134.0
-878.50 -1165.70 2172.1
-840.36 -1167.48 2175.4
-819.28 -1145.89 2135.2
-799.52 -1133.57 2112.2
-807.48 -1152.74 2148.0
-790.83 -1152.84 2148.1
-662.59 -1133.53 2112.2
-657.91 -1144.43 2132.5
-593.80 -1138.13 2120.7
-1291.08 -962.53 1784.9
-1288.32 -963.92 1787.5
-1265.24 -950.07 1761.8
-1231.06 -927.76 1720.4
-1208.19 -913.83 1694.6
-1188.60 -902.30 1673.2
-1167.50 -889.52 1649.5
-1143.32 -874.30 1621.3
-1150.80 -883.27 1637.9
-1174.48 -904.78 1677.8
-1147.25 -887.10 1645.0
-1124.33 -872.61 1618.2
-1131.67 -881.60 1634.8
-1117.16 -873.57 1619.9
-1095.46 -859.83 1594.5
-1079.01 -850.13 1576.5
-1083.73 -857.09 1589.4
-1105.33 -877.51 1627.3
-1115.01 -888.59 1647.8
-1125.11 -900.09 1669.1
-1132.59 -909.57 1686.7
-1114.63 -898.62 1666.4
-1105.86 -895.01 1659.7
-1113.75 -904.92 1678.1
-1111.00 -906.23 1680.5
-1116.27 -914.11 1695.1
-1107.97 -910.90 1689.2
-1085.24 -895.76 1661.1
-1092.44 -905.29 1678.8
-1104.02 -918.55 1703.3
-1101.18 -919.86 1705.8
-1106.20 -927.78 1720.5
-1125.41 -947.71 1757.4
-1126.84 -952.77 1766.8
-1121.40 -952.05 1765.5
-1112.56 -948.41 1758.7
-1093.55 -936.04 1735.8
-1091.07 -937.78 1739.0
-1120.86 -967.38 1793.9
-1130.94 -984.25 1825.2
-1085.76 -948.90 1759.6
-1089.85 -956.49 1773.7
-1120.90 -987.91 1832.0
-1122.41 -993.45 1842.2
-1135.18 -1009.05 1871.2
-1043.13 -1147.99 2128.8
-1021.91 -1130.63 2096.6
-1025.56 -1140.73 2115.4
-1012.71 -1132.49 2100.1
-1030.26 -1158.34 2148.0
-1015.22 -1173.14 2175.5
-983.84 -1156.15 2144.0
-956.32 -1130.19 2095.8
-941.62 -1119.18 2075.4
-969.82 -1159.32 2149.8
-923.70 -1123.56 2083.5
-926.96 -1134.16 2103.2
-875.90 -1160.43 2151.9
-824.57 -1158.85 2149.0
-813.28 -1158.65 2148.6
-777.36 -1146.75 2126.5
-764.73 -1152.64 2137.5
-766.25 -1163.36 2157.3
-643.78 -1134.80 2104.4
-616.49 -1134.78 2104.3
-609.39 -1131.72 2098.7
-590.63 -1148.13 2129.1
-542.45 -1163.20 2157.0
-1298.75 -969.42 1789.1
-1301.35 -974.85 1799.1
-1279.29 -961.77 1775.0
-1236.50 -932.95 1721.8
-1224.78 -927.46 1711.6
-1221.06 -928.01 1712.7
-1192.44 -909.56 1678.6
-1165.00 -891.89 1646.0
-1148.75 -882.68 1629.0
-1161.99 -896.14 1653.9
-1174.60 -909.23 1678.0
-1139.56 -885.38 1634.0
-1116.14 -870.42 1606.4
-1121.42 -877.82 1620.0
-1111.09 -873.00 1611.1
-1093.04 -862.06 1590.9
-1080.73 -855.58 1579.0
-1089.55 -865.84 1597.9
-1094.19 -872.84 1610.9
-1087.01 -870.44 1606.4
-1095.15 -880.33 1624.7
-1102.20 -889.42 1641.4
-1101.57 -892.36 1646.9
-1109.51 -902.29 1665.2
-1119.90 -914.30 1687.4
-1120.15 -918.09 1694.3
-1116.86 -918.99 1696.0
-1101.08 -909.59 1678.7
-1074.89 -891.48 1645.2
-1076.65 -896.49 1654.5
-1093.22 -913.93 1686.7
-1094.85 -918.97 1696.0
-1092.01 -920.28 1698.4
-1100.93 -931.56 1719.2
-1120.53 -952.00 1756.9
-1134.13 -967.48 1785.5
-1119.41 -958.84 1769.6
-1094.58 -941.43 1737.4
-1082.92 -935.25 1726.0
-1100.67 -954.52 1761.6
-1097.25 -963.55 1778.3
-1097.01 -967.41 1785.4
-1113.80 -986.37 1820.4
-1103.05 -981.01 1810.5
-1118.22 -998.75 1843.2
-1124.25 -1017.18 1877.2
-1103.23 -1020.25 1882.9
-1078.38 -1001.69 1848.6
-1118.91 -1140.75 2105.3
-1107.26 -1134.40 2093.6
-1112.03 -1144.90 2112.9
-1026.49 -1141.15 2106.0
-1029.32 -1150.42 2123.1
-1008.96 -1171.52 2162.1
-981.49 -1165.52 2151.0
-953.19 -1171.86 2162.7
-950.10 -1174.98 2168.5
-782.11 -1159.29 2139.5
-778.90 -1162.79 2145.9
-757.45 -1155.52 2132.5
-755.07 -1160.36 2141.5
-648.06 -1147.84 2118.4
-649.64 -1160.47 2141.7
-636.46 -1156.70 2134.7
-628.26 -1151.82 2125.7
-625.34 -1156.60 2134.5
-609.26 -1136.93 2098.2
-608.85 -1167.44 2154.5
-1306.43 -976.33 1793.3
-1271.40 -953.55 1751.4
-1269.24 -955.34 1754.7
-1242.46 -938.55 1723.9
-1203.53 -912.42 1675.9
-1192.96 -907.69 1667.2
-1196.76 -913.89 1678.6
-1176.69 -901.84 1656.4
-1139.81 -876.77 1610.4
-1114.68 -860.59 1580.7
-1116.44 -865.13 1589.0
-1117.11 -868.87 1595.9
-1102.09 -860.37 1580.3
-1097.55 -860.02 1579.6
-1115.34 -877.23 1611.2
-1120.05 -884.25 1624.1
-1100.44 -872.04 1601.7
-1087.08 -864.72 1588.3
-1080.97 -863.13 1585.3
-1072.31 -859.48 1578.6
-1068.26 -859.52 1578.7
-1079.50 -871.90 1601.4
-1088.10 -882.24 1620.4
-1090.04 -887.24 1629.6
-1085.38 -886.89 1629.0
-1085.76 -890.66 1635.9
-1089.62 -897.33 1648.2
-1088.92 -900.29 1653.6
-1076.72 -893.72 1641.5
-1054.60 -878.84 1614.2
-1051.95 -880.12 1616.5
-1064.62 -894.28 1642.5
-1083.59 -913.87 1678.5
-1097.99 -929.75 1707.7
-1102.96 -937.74 1722.4
-1117.16 -953.67 1751.6
-1118.08 -958.36 1760.2
-1092.74 -940.47 1727.4
-1094.16 -945.57 1736.8
-1109.53 -962.81 1768.4
-1089.17 -949.07 1743.2
-1090.96 -954.59 1753.3
-1114.23 -979.03 1798.2
-1100.62 -971.13 1783.7
-1093.24 -968.69 1779.2
-1102.44 -980.99 1801.8
-1089.85 -973.91 1788.8
-1099.87 -987.07 1813.0
-1122.92 -1012.08 1858.9
-1093.00 -989.35 1817.2
-1066.97 -969.97 1781.6
-1102.31 -1006.46 1848.6
-1106.75 -1019.37 1872.3
-1061.49 -990.72 1819.7
-1056.38 -990.36 1819.0
-1091.05 -1041.45 1912.9
-1081.78 -1076.65 1977.5
-1109.88 -1136.95 2088.3
-1110.06 -1142.71 2098.9
-1090.43 -1150.70 2113.5
-1092.86 -1159.10 2129.0
-1035.54 -1144.54 2102.2
-1034.11 -1149.01 2110.4
-1033.81 -1154.79 2121.0
-957.33 -1135.81 2086.2
-942.25 -1124.28 2065.0
-958.24 -1176.79 2161.4
-924.49 -1142.02 2097.6
-921.91 -1145.57 2104.1
-947.88 -1184.85 2176.3
-751.63 -1152.14 2116.2
-636.11 -1141.73 2097.1
-637.17 -1173.74 2155.8
-1283.87 -964.05 1762.3
-1245.71 -938.73 1716.0
-1240.40 -938.08 1714.8
-1226.53 -930.93 1701.8
-1198.86 -913.21 1669.4
-1176.61 -899.51 1644.3
-1169.84 -897.58 1640.8
-1156.20 -890.36 1627.6
-1124.14 -868.84 1588.3
-1091.17 -846.46 1547.4
-1083.55 -843.65 1542.2
-1088.49 -850.64 1555.0
-1077.73 -845.36 1545.3
-1096.67 -863.43 1578.4
-1139.36 -900.40 1646.0
-1134.69 -900.07 1645.4
-1108.33 -882.48 1613.2
-1088.27 -869.79 1590.0
-1075.48 -862.84 1577.3
-1082.71 -871.95 1594.0
-1094.46 -884.79 1617.4
-1089.31 -884.02 1616.0
-1080.11 -879.94 1608.6
-1095.74 -896.13 1638.1
-1106.20 -908.20 1660.2
-1096.45 -903.71 1652.0
-1088.73 -900.87 1646.8
-1088.53 -904.25 1653.0
-1076.83 -898.07 1641.7
-1054.24 -882.71 1613.6
-1050.09 -882.75 1613.7
-1074.12 -906.56 1657.2
-1104.87 -936.26 1711.5
-1100.52 -936.33 1711.6
-1087.36 -928.88 1698.0
-1090.35 -935.22 1709.6
-1078.70 -929.00 1698.2
-1049.61 -907.66 1659.2
-1046.32 -908.53 1660.8
-1088.83 -949.35 1735.4
-1099.79 -962.89 1760.2
-1081.90 -951.17 1738.8
-1084.16 -957.14 1749.7
-1095.41 -971.14 1775.3
-1112.72 -990.65 1810.9
-1110.97 -993.28 1815.7
-1087.51 -976.45 1785.0
-1067.93 -962.96 1760.3
-1057.35 -957.51 1750.4
-1061.73 -965.63 1765.2
-1071.17 -978.43 1788.6
-1064.29 -976.37 1784.8
-1050.02 -967.49 1768.6
-1065.29 -985.86 1802.2
-1103.35 -1025.58 1874.8
-1070.14 -1003.55 1834.5
-1045.94 -985.24 1801.0
-1064.39 -1007.11 1841.0
-1081.32 -1027.74 1878.7
-1069.80 -1021.39 1867.1
-1073.54 -1029.62 1882.2
-1075.04 -1050.16 1919.7
-1031.93 -1012.73 1851.3
-1052.12 -1037.37 1896.3
-1057.30 -1047.37 1914.6
-1041.98 -1037.06 1895.8
-1050.10 -1050.10 1919.6
-1043.46 -1048.43 1916.6
-1052.29 -1062.36 1942.0
-1098.09 -1152.72 2107.2
-1042.02 -1104.85 2019.7
-1031.42 -1145.41 2093.9
-1008.74 -1144.33 2091.9
-1010.34 -1152.34 2106.5
-977.42 -1171.79 2142.1
-929.32 -1133.45 2072.0
-921.02 -1129.86 2065.4
-939.93 -1159.80 2120.2
-909.19 -1128.46 2062.9
-910.27 -1136.49 2077.5
-865.47 -1178.16 2153.7
-856.54 -1173.57 2145.3
-626.06 -1148.68 2099.8
-540.55 -1175.85 2149.5
-1290.97 -970.52 1765.8
-1255.97 -947.57 1724.0
-1245.81 -943.26 1716.2
-1235.68 -938.94 1708.3
-1217.57 -928.50 1689.3
-1200.05 -918.45 1671.0
-1185.78 -910.82 1657.2
-1156.73 -891.73 1622.4
-1123.58 -869.34 1581.7
-1117.45 -867.77 1578.8
-1107.66 -863.32 1570.7
-1086.88 -850.25 1547.0
-1078.74 -847.01 1541.1
-1085.22 -855.27 1556.1
-1119.20 -885.34 1610.8
-1145.72 -909.71 1655.1
-1128.61 -899.49 1636.5
-1100.74 -880.59 1602.2
-1077.62 -865.36 1574.5
-1072.05 -864.16 1572.3
-1085.41 -878.27 1597.9
-1102.24 -895.31 1628.9
-1102.67 -899.10 1635.8
-1089.38 -891.69 1622.4
-1098.89 -902.97 1642.9
-1100.76 -908.02 1652.1
-1081.98 -896.01 1630.2
-1083.33 -900.65 1638.6
-1093.14 -912.38 1660.0
-1102.36 -923.72 1680.6
-1101.07 -926.30 1685.3
-1082.42 -914.23 1663.4
-1090.02 -924.34 1681.8
-1095.59 -932.79 1697.1
-1067.70 -912.71 1660.6
-1057.58 -907.72 1651.5
-1063.59 -916.59 1667.6
-1076.83 -931.78 1695.3
-1072.98 -932.26 1696.2
-1043.03 -909.97 1655.6
-1057.08 -926.04 1684.8
-1077.73 -948.05 1724.9
-1071.42 -946.42 1721.9
-1064.15 -943.93 1717.4
-1065.94 -949.49 1727.5
-1079.06 -965.24 1756.2
-1073.17 -964.03 1754.0
-1071.51 -966.64 1758.7
-1073.59 -972.66 1769.7
-1048.02 -953.57 1734.9
-1034.71 -945.51 1720.3
-1055.38 -968.58 1762.2
-1062.45 -979.30 1781.7
-1069.43 -990.04 1801.3
-1101.63 -1024.32 1863.7
-1098.73 -1026.13 1866.9
-1067.04 -1000.94 1821.1
-1064.66 -1003.15 1825.1
-1077.69 -1019.95 1855.7
-1067.08 -1014.44 1845.7
-1053.36 -1005.91 1830.2
-1054.06 -1011.13 1839.7
-1069.47 -1030.58 1875.0
-1037.97 -1018.75 1853.5
-1002.49 -988.50 1798.5
-1023.21 -1013.64 1844.2
-1042.86 -1037.96 1888.5
-1045.39 -1045.39 1902.0
-1043.55 -1048.49 1907.6
-1027.89 -1037.68 1888.0
-1047.49 -1062.53 1933.2
-1063.58 -1094.55 1991.4
-1044.54 -1090.85 1984.7
-1031.11 -1082.16 1968.9
-1047.25 -1104.56 2009.6
-1044.59 -1107.26 2014.6
-1039.84 -1107.77 2015.5
-1066.67 -1142.10 2077.9
-1072.40 -1154.06 2099.7
-1051.18 -1160.68 2111.7
-1051.07 -1172.78 2133.8
-1013.28 -1161.16 2112.6
-1021.73 -1177.21 2141.8
-957.71 -1173.61 2135.3
-946.35 -1166.44 2122.2
-906.07 -1171.27 2131.0
-901.22 -1172.13 2132.6
-850.68 -1163.51 2116.9
-852.07 -1172.98 2134.1
-842.54 -1167.44 2124.0
-644.32 -1167.48 2124.1
-594.34 -1166.67 2122.7
-1293.17 -980.23 1775.1
-1256.11 -955.54 1730.3
-1222.41 -933.24 1690.0
-1197.94 -917.84 1662.1
-1174.09 -902.82 1634.9
-1160.43 -895.55 1621.7
-1131.46 -876.37 1587.0
-1119.52 -870.28 1576.0
-1131.32 -882.68 1598.4
-1134.62 -888.51 1609.0
-1127.41 -886.12 1604.6
-1104.53 -871.35 1577.9
-1096.86 -868.52 1572.8
-1092.33 -868.15 1572.1
-1082.09 -863.24 1563.2
-1092.04 -874.46 1583.5
-1091.09 -876.99 1588.1
-1081.38 -872.48 1579.9
-1089.13 -882.07 1597.3
-1075.85 -874.64 1583.9
-1066.18 -870.10 1575.6
-1091.61 -894.28 1619.4
-1104.71 -908.51 1645.2
-1087.39 -897.73 1625.7
-1062.58 -880.66 1594.8
-1054.97 -877.77 1589.5
-1066.91 -891.18 1613.8
-1079.25 -905.04 1638.9
-1091.00 -918.51 1663.3
-1108.10 -936.61 1696.1
-1109.24 -941.31 1704.6
-1088.63 -927.51 1679.6
-1064.67 -910.74 1649.2
-1061.42 -911.62 1650.8
-1076.75 -928.53 1681.4
-1075.37 -931.12 1686.1
-1080.78 -939.62 1701.5
-1089.04 -950.68 1721.5
-1072.09 -939.74 1701.7
-1072.08 -943.60 1708.7
-1078.27 -952.99 1725.7
-1055.20 -936.49 1695.9
-1031.31 -919.11 1664.4
-1049.35 -939.13 1700.6
-1078.15 -968.97 1754.7
-1067.06 -963.07 1744.0
-1060.72 -961.42 1741.0
-1064.70 -969.15 1755.0
-1041.52 -952.12 1724.2
-1039.42 -954.29 1728.1
-1071.19 -987.72 1788.6
-1085.60 -1005.36 1820.6
-1099.41 -1022.59 1851.8
-1102.51 -1029.98 1865.2
-1073.51 -1007.30 1824.1
-1051.05 -990.59 1793.8
-1056.01 -999.68 1810.3
-1063.61 -1011.38 1831.5
-1048.54 -1001.52 1813.6
-1037.14 -995.10 1802.0
-1039.24 -1001.62 1813.8
-1042.18 -1009.02 1827.2
-1056.18 -1027.25 1860.2
-1074.48 -1049.84 1901.1
-1059.92 -1040.38 1884.0
-1041.89 -1027.42 1860.5
-1042.82 -1033.12 1870.8
-1052.44 -1047.53 1896.9
-1060.21 -1060.21 1919.9
-1054.00 -1058.97 1917.7
-1043.91 -1053.81 1908.3
-1039.02 -1053.87 1908.4
-1067.27 -1098.21 1988.7
-1039.75 -1075.08 1946.8
-1038.56 -1079.09 1954.1
-1030.60 -1076.07 1948.6
-998.82 -1048.03 1897.8
-1002.26 -1056.84 1913.8
-1028.87 -1090.29 1974.4
-1045.29 -1113.23 2015.9
-1028.97 -1112.55 2014.7
-1024.62 -1113.49 2016.4
-1045.34 -1141.83 2067.7
-962.22 -1164.51 2108.8
-929.46 -1151.01 2084.3
-914.27 -1187.44 2150.3
-916.66 -1197.84 2169.1
-901.70 -1185.56 2146.9
-891.64 -1179.62 2136.1
-889.99 -1192.25 2159.0
-876.37 -1188.97 2153.1
-851.57 -1177.82 2132.9
-839.51 -1192.10 2158.7
-741.45 -1169.84 2118.4
-1292.20 -977.14 1761.2
-1272.27 -965.48 1740.2
-1281.95 -976.29 1759.7
-1262.63 -965.01 1739.3
-1227.87 -941.81 1697.5
-1203.39 -926.35 1669.7
-1162.00 -897.72 1618.0
-1132.46 -878.07 1582.6
-1129.51 -878.97 1584.3
-1139.21 -889.75 1603.7
-1148.84 -900.55 1623.2
-1149.47 -904.36 1630.0
-1130.70 -892.87 1609.3
-1097.38 -869.78 1567.7
-1071.51 -852.43 1536.4
-1049.39 -837.95 1510.3
-1065.69 -854.15 1539.5
-1100.98 -885.75 1596.5
-1095.88 -884.97 1595.1
-1082.56 -877.53 1581.7
-1089.78 -886.74 1598.3
-1076.51 -879.28 1584.8
-1054.11 -864.29 1557.8
-1067.87 -878.94 1584.2
-1074.95 -888.18 1600.9
-1050.65 -871.47 1570.7
-1046.61 -871.49 1570.8
-1059.62 -885.78 1596.5
-1062.03 -891.27 1606.4
-1063.39 -895.93 1614.8
-1059.25 -895.97 1614.9
-1060.56 -900.63 1623.3
-1078.15 -919.22 1656.8
-1073.92 -919.27 1656.9
-1059.85 -910.87 1641.8
-1066.42 -920.21 1658.6
-1078.29 -934.23 1683.9
-1074.96 -935.13 1685.5
-1070.65 -935.18 1685.6
-1067.79 -936.51 1688.0
-1061.06 -934.43 1684.2
-1070.69 -946.81 1706.5
-1075.92 -955.38 1722.0
-1052.88 -938.82 1692.1
-1038.05 -929.47 1675.3
-1063.18 -955.97 1723.0
-1076.28 -971.83 1751.6
-1050.11 -952.22 1716.3
-1051.35 -957.40 1725.6
-1062.39 -971.58 1751.2
-1056.97 -970.78 1749.7
-1072.50 -989.29 1783.1
-1089.75 -1009.56 1819.6
-1089.74 -1013.94 1827.5
-1083.25 -1012.29 1824.6
-1066.20 -1000.73 1803.7
-1050.15 -990.01 1784.4
-1041.02 -985.74 1776.7
-1051.45 -1000.05 1802.5
-1061.32 -1013.94 1827.5
-1045.82 -1003.61 1808.9
-1033.09 -995.86 1794.9
-1034.30 -1001.54 1805.2
-1036.80 -1008.52 1817.8
-1035.69 -1012.04 1824.1
-1038.98 -1019.91 1838.3
-1047.94 -1033.46 1862.7
-1053.28 -1043.53 1880.9
-1040.58 -1035.74 1866.8
-1035.36 -1035.36 1866.1
-1040.13 -1045.02 1883.5
-1032.70 -1042.45 1878.9
-1036.51 -1051.24 1894.8
-1045.40 -1065.31 1920.1
-1044.33 -1069.32 1927.3
-1041.95 -1072.01 1932.2
-1038.28 -1073.39 1934.7
-1026.12 -1065.97 1921.3
-1013.17 -1057.66 1906.3
-994.41 -1043.16 1880.2
-987.88 -1041.41 1877.0
-1011.76 -1071.86 1931.9
-1013.42 -1078.96 1944.7
-1002.22 -1072.37 1932.8
-1014.09 -1090.53 1965.6
-1004.94 -1086.15 1957.7
-995.00 -1080.86 1948.2
-1012.71 -1105.72 1992.9
-1006.37 -1104.43 1990.6
-1019.13 -1198.32 2159.9
-1009.79 -1193.89 2151.9
-939.76 -1155.79 2083.2
-951.71 -1191.03 2146.7
-920.23 -1179.22 2125.4
-863.92 -1200.51 2163.8
-600.42 -1200.85 2164.4
-559.55 -1185.58 2136.9
-1291.72 -977.89 1754.3
-1264.22 -960.45 1723.1
-1251.36 -954.05 1711.6
-1265.92 -968.58 1737.7
-1232.18 -946.14 1697.4
-1186.31 -914.18 1640.1
-1175.27 -908.93 1630.6
-1147.27 -890.48 1597.5
-1126.27 -877.35 1574.0
-1131.26 -884.44 1586.7
-1125.13 -882.86 1583.9
-1119.53 -881.68 1581.8
-1119.18 -884.65 1587.1
-1099.45 -872.26 1564.9
-1085.03 -864.00 1550.0
-1075.33 -859.47 1541.9
-1062.56 -852.42 1529.3
-1086.04 -874.53 1568.9
-1101.63 -890.42 1597.4
-1076.98 -873.78 1567.6
-1060.13 -863.37 1548.9
-1063.31 -869.25 1559.4
-1080.22 -886.44 1590.3
-1089.38 -897.38 1609.9
-1085.27 -897.43 1610.0
-1072.55 -890.34 1597.3
-1061.39 -884.49 1586.8
-1070.90 -895.89 1607.2
-1057.25 -887.92 1592.9
-1031.65 -869.82 1560.5
-1046.06 -885.44 1588.5
-1054.40 -896.03 1607.5
-1043.82 -890.56 1597.7
-1049.09 -898.62 1612.1
-1057.26 -909.24 1631.2
-1056.01 -911.82 1635.8
-1060.14 -919.07 1648.8
-1070.06 -931.43 1671.0
-1075.52 -939.99 1686.4
-1080.91 -948.55 1701.7
-1091.07 -961.40 1724.8
-1098.25 -971.70 1743.3
-1101.50 -978.61 1755.6
-1100.87 -982.11 1761.9
-1076.81 -964.65 1730.6
-1059.54 -953.14 1710.0
-1071.76 -968.19 1737.0
-1070.63 -971.25 1742.4
-1058.17 -964.01 1729.4
-1071.59 -980.39 1758.8
-1070.37 -983.46 1764.3
-1052.33 -971.03 1742.0
-1064.14 -986.16 1769.2
-1075.83 -1001.32 1796.4
-1080.95 -1010.45 1812.8
-1080.93 -1014.85 1820.7
-1059.77 -999.35 1792.8
-1039.18 -984.25 1765.8
-1025.53 -975.62 1750.3
-1029.65 -983.89 1765.1
-1049.53 -1007.37 1807.2
-1044.90 -1007.42 1807.3
-1040.26 -1007.46 1807.4
-1048.15 -1019.70 1829.4
-1062.64 -1038.49 1863.1
-1074.32 -1054.69 1892.1
-1050.45 -1036.00 1858.6
-1034.66 -1025.13 1839.1
-1040.05 -1035.23 1857.2
-1026.96 -1026.96 1842.4
-1014.37 -1019.11 1828.3
-1012.27 -1021.77 1833.1
-1011.01 -1025.31 1839.4
-1019.63 -1038.96 1863.9
-1028.57 -1053.06 1889.2
-1029.71 -1059.27 1900.3
-1023.12 -1057.55 1897.3
-1016.12 -1055.39 1893.4
-1010.82 -1054.98 1892.7
-1003.41 -1052.36 1888.0
-1012.38 -1066.97 1914.2
-1031.68 -1092.66 1960.3
-1039.12 -1106.00 1984.2
-1025.75 -1097.20 1968.4
-1007.49 -1083.05 1943.0
-1006.59 -1087.52 1951.0
-1004.84 -1091.11 1957.5
-1006.31 -1098.26 1970.3
-1030.44 -1130.33 2027.8
-998.71 -1106.82 1985.7
-985.58 -1097.93 1969.7
-965.79 -1116.36 2002.8
-998.74 -1179.83 2116.6
-971.67 -1154.19 2070.6
-988.58 -1180.81 2118.4
-994.01 -1193.92 2141.9
-954.58 -1172.77 2104.0
-936.66 -1157.37 2076.3
-924.70 -1149.19 2061.7
-930.95 -1163.69 2087.7
-845.95 -1181.03 2118.8
-664.55 -1200.66 2154.0
-652.11 -1188.17 2131.6
-633.63 -1164.36 2088.9
-592.40 -1168.49 2096.3
-584.66 -1163.90 2088.1
-598.86 -1203.31 2158.8
-590.77 -1198.25 2149.7
-569.47 -1188.70 2132.5
-1291.76 -979.02 1748.2
-1263.15 -960.70 1715.5
-1256.22 -958.81 1712.2
-1258.44 -963.91 1721.3
-1236.49 -950.47 1697.3
-1177.17 -908.10 1621.6
-1134.14 -878.04 1567.9
-1121.64 -871.49 1556.2
-1109.72 -865.34 1545.3
-1104.19 -864.15 1543.1
-1116.63 -877.06 1566.2
-1118.44 -881.69 1574.4
-1104.97 -874.26 1561.2
-1097.32 -871.40 1556.1
-1082.37 -862.70 1540.5
-1073.21 -858.57 1533.2
-1077.07 -864.86 1544.4
-1076.73 -867.81 1549.7
-1062.93 -859.90 1535.5
-1040.94 -845.27 1509.4
-1048.34 -854.50 1525.9
-1064.91 -871.29 1555.9
-1070.11 -878.88 1569.4
-1090.05 -898.66 1604.8
-1083.40 -896.61 1601.1
-1063.08 -883.18 1577.1
-1075.21 -896.70 1601.2
-1087.23 -910.24 1625.4
-1081.07 -908.60 1622.5
-1050.36 -886.24 1582.6
-1024.30 -867.64 1549.4
-1039.21 -883.74 1578.1
-1069.91 -913.44 1631.1
-1081.58 -927.07 1655.5
-1071.42 -922.02 1646.5
-1065.73 -920.79 1644.3
-1057.58 -917.42 1638.3
-1054.36 -918.31 1639.8
-1077.46 -942.23 1682.6
-1096.01 -962.35 1718.5
-1096.96 -967.12 1727.0
-1104.16 -977.46 1745.5
-1121.40 -996.80 1780.0
-1130.09 -1012.86 1808.7
-1103.57 -993.21 1773.6
-1077.66 -973.95 1739.2
-1081.28 -981.33 1752.4
-1086.25 -990.00 1767.9
-1078.45 -987.06 1762.6
-1085.69 -997.91 1782.0
-1077.87 -994.95 1776.7
-1037.90 -962.17 1718.2
-1026.97 -956.14 1707.4
-1060.08 -991.24 1770.1
-1086.47 -1020.34 1822.0
-1081.37 -1019.98 1821.4
-1057.01 -1001.38 1788.2
-1057.46 -1006.22 1796.8
-1065.60 -1018.45 1818.7
-1042.35 -1000.66 1786.9
-1034.15 -997.22 1780.7
-1033.17 -1000.74 1787.0
-1030.82 -1002.96 1791.0
-1043.21 -1019.60 1820.7
-1060.81 -1041.52 1859.9
-1062.27 -1047.71 1870.9
-1032.27 -1022.80 1826.4
-1029.78 -1025.03 1830.4
-1048.34 -1048.34 1872.0
-1025.61 -1030.38 1840.0
-1004.75 -1014.14 1811.0
-1014.83 -1029.13 1837.7
-1024.80 -1044.14 1864.5
-1015.70 -1039.76 1856.7
-1006.62 -1035.38 1848.9
-1017.66 -1051.75 1878.1
-1023.05 -1062.39 1897.1
-1020.29 -1064.65 1901.2
-1018.77 -1068.23 1907.5
-1004.19 -1058.07 1889.4
-1003.08 -1062.09 1896.6
-1016.97 -1082.09 1932.3
-1019.47 -1090.13 1946.7
-1028.54 -1105.30 1973.7
-1035.42 -1118.26 1996.9
-1024.55 -1112.08 1985.8
-1011.68 -1103.65 1970.8
-1011.08 -1108.60 1979.6
-976.49 -1087.22 1941.5
-965.06 -1080.07 1928.7
-1021.89 -1186.71 2119.1
-939.17 -1114.62 1990.4
-946.92 -1136.30 2029.1
-973.18 -1174.33 2097.0
-975.60 -1183.87 2114.1
-953.40 -1163.48 2077.6
-948.39 -1163.93 2078.4
-975.75 -1204.36 2150.6
-970.83 -1212.13 2164.5
-960.15 -1205.77 2153.2
-674.68 -1184.81 2115.7
-643.44 -1177.83 2103.3
-634.77 -1171.88 2092.6
-622.02 -1178.56 2104.6
-550.70 -1201.52 2145.6
-1268.55 -965.88 1716.8
-1234.61 -943.35 1676.8
-1220.75 -936.06 1663.8
-1210.70 -931.64 1656.0
-1181.38 -912.31 1621.6
-1155.92 -895.84 1592.3
-1140.70 -887.21 1577.0
-1140.97 -890.61 1583.0
-1140.67 -893.59 1588.4
-1141.41 -897.41 1595.1
-1159.01 -914.57 1625.6
-1128.60 -893.81 1588.7
-1086.76 -863.84 1535.5
-1081.78 -863.04 1534.0
-1070.01 -856.80 1522.9
-1064.01 -855.15 1520.0
-1069.45 -862.71 1533.5
-1074.31 -869.87 1546.2
-1066.20 -866.54 1540.3
-1044.21 -851.86 1514.2
-1052.11 -861.54 1531.4
-1073.26 -882.19 1568.1
-1084.05 -894.45 1589.9
-1070.30 -886.47 1575.7
-1031.21 -857.36 1524.0
-1038.40 -866.67 1540.5
-1077.86 -903.07 1605.2
-1084.83 -912.43 1621.8
-1072.64 -905.70 1609.9
-1059.00 -897.67 1595.6
-1050.91 -894.30 1589.6
-1051.79 -898.58 1597.2
-1070.51 -918.18 1632.1
-1074.24 -925.04 1644.2
-1057.70 -914.42 1625.4
-1059.91 -920.01 1635.3
-1059.15 -923.03 1640.7
-1054.45 -922.64 1640.0
-1074.11 -943.65 1677.3
-1099.94 -970.27 1724.6
-1109.60 -982.79 1746.9
-1090.67 -969.99 1724.1
-1080.98 -965.32 1715.8
-1096.27 -983.02 1747.3
-1095.17 -986.11 1752.8
-1084.03 -980.15 1742.2
-1074.84 -975.90 1734.6
-1075.14 -980.27 1742.4
-1075.88 -985.09 1751.0
-1071.41 -985.15 1751.1
-1080.53 -997.76 1773.5
-1082.55 -1003.90 1784.4
-1053.30 -980.97 1743.7
-1036.76 -969.73 1723.7
-1063.79 -999.32 1776.3
-1084.60 -1023.30 1818.9
-1075.83 -1019.45 1812.1
-1060.21 -1009.06 1793.6
-1070.68 -1023.51 1819.3
-1074.22 -1031.44 1833.4
-1048.24 -1010.97 1797.0
-1046.79 -1014.07 1802.5
-1052.96 -1024.63 1821.3
-1040.67 -1017.23 1808.1
-1042.28 -1023.42 1819.1
-1050.08 -1035.76 1841.0
-1044.03 -1034.49 1838.8
-1038.42 -1033.66 1837.3
-1057.04 -1057.04 1878.9
-1060.56 -1065.47 1893.9
-1026.00 -1035.55 1840.7
-1008.64 -1022.78 1818.0
-1020.86 -1040.03 1848.6
-1025.61 -1049.80 1866.0
-1012.63 -1041.42 1851.1
-990.28 -1023.29 1818.9
-987.28 -1025.07 1822.0
-1000.85 -1044.16 1856.0
-1007.07 -1055.72 1876.5
-1011.09 -1065.08 1893.2
-1002.85 -1061.56 1886.9
-983.75 -1046.44 1860.0
-978.10 -1045.55 1858.5
-985.74 -1058.94 1882.2
-999.06 -1078.59 1917.2
-1007.29 -1092.91 1942.6
-1000.23 -1090.71 1938.7
-990.74 -1085.81 1930.0
-991.44 -1092.10 1941.2
-994.53 -1101.08 1957.2
-976.97 -1087.20 1932.5
-962.74 -1076.87 1914.1
-984.15 -1106.53 1966.8
-1025.23 -1158.73 2059.6
-1030.14 -1208.33 2147.8
-956.54 -1140.49 2027.2
-969.45 -1162.27 2065.9
-980.68 -1182.26 2101.5
-992.12 -1202.74 2137.9
-943.78 -1204.71 2141.4
-907.19 -1164.85 2070.5
-897.24 -1216.88 2163.0
-869.96 -1187.30 2110.4
-876.63 -1211.64 2153.7
-667.57 -1187.40 2110.6
-669.87 -1201.33 2135.3
-636.65 -1190.97 2116.9
-623.51 -1218.94 2166.7
-621.12 -1225.30 2178.0
-580.83 -1211.92 2154.2
-1285.41 -983.22 1739.6
-1267.10 -972.63 1720.9
-1235.94 -952.07 1684.5
-1211.36 -936.44 1656.9
-1195.98 -927.84 1641.7
-1180.65 -919.22 1626.4
-1163.25 -908.92 1608.2
-1160.79 -910.26 1610.5
-1158.32 -911.60 1612.9
-1157.95 -914.61 1618.3
-1150.18 -911.78 1613.2
-1099.29 -874.62 1547.5
-1072.25 -856.23 1515.0
-1079.34 -865.06 1530.6
-1080.63 -869.29 1538.1
-1087.61 -878.14 1553.7
-1083.63 -878.18 1553.8
-1078.61 -877.38 1552.4
-1096.82 -895.53 1584.5
-1103.07 -904.02 1599.5
-1083.59 -891.41 1577.2
-1075.97 -888.49 1572.0
-1064.79 -882.60 1561.6
-1029.21 -856.37 1515.2
-1035.02 -867.82 1535.5
-1076.46 -906.06 1603.1
-1085.94 -917.58 1623.5
-1073.76 -910.82 1611.5
-1060.62 -903.19 1598.0
-1065.49 -910.89 1611.7
-1081.25 -928.00 1641.9
-1069.61 -921.64 1630.7
-1043.68 -902.86 1597.5
-1039.06 -902.45 1596.7
-1053.13 -918.33 1624.8
-1062.66 -930.37 1646.1
-1067.72 -938.56 1660.6
-1068.82 -943.33 1669.1
-1075.22 -952.84 1685.9
-1100.91 -979.59 1733.2
-1098.91 -981.82 1737.2
-1067.08 -957.30 1693.8
-1059.39 -954.32 1688.5
-1067.95 -966.03 1709.2
-1067.86 -969.98 1716.2
-1071.54 -977.39 1729.3
-1083.68 -992.61 1756.3
-1080.61 -993.98 1758.7
-1070.48 -988.83 1749.6
-1065.54 -988.45 1748.9
-1054.52 -982.42 1738.2
-1055.18 -987.25 1746.8
-1068.33 -1003.86 1776.2
-1065.63 -1005.66 1779.4
-1056.47 -1001.35 1771.7
-1072.59 -1021.07 1806.6
-1083.53 -1036.01 1833.0
-1070.65 -1028.20 1819.2
-1050.55 -1013.37 1793.0
-1033.73 -1001.57 1772.1
-1040.90 -1013.02 1792.4
-1045.74 -1022.29 1808.8
-1033.03 -1014.42 1794.8
-1026.18 -1012.25 1791.0
-1027.35 -1018.01 1801.2
-1043.98 -1039.21 1838.7
-1059.13 -1059.13 1874.0
-1066.21 -1071.12 1895.2
-1056.98 -1066.77 1887.5
-1029.88 -1044.26 1847.6
-1019.48 -1038.53 1837.5
-1027.74 -1051.87 1861.1
-1029.00 -1058.12 1872.2
-1015.58 -1049.28 1856.5
-993.24 -1031.08 1824.3
-979.98 -1022.18 1808.6
-983.37 -1030.65 1823.6
-986.26 -1038.67 1837.8
-986.98 -1044.48 1848.0
-995.64 -1058.78 1873.3
-994.14 -1062.37 1879.7
-995.11 -1068.64 1890.8
-1008.07 -1087.91 1924.9
-1008.47 -1093.77 1935.2
-1003.48 -1093.80 1935.3
-1003.00 -1098.76 1944.1
-998.39 -1099.24 1944.9
-983.62 -1088.47 1925.9
-970.14 -1079.03 1909.2
-965.59 -1079.48 1910.0
-965.85 -1085.34 1920.3
-976.84 -1103.38 1952.2
-998.43 -1133.63 2005.8
-1017.61 -1199.13 2121.7
-1014.84 -1202.36 2127.4
-1005.34 -1217.58 2154.3
-924.31 -1199.41 2122.1
-876.78 -1225.24 2167.9
-736.18 -1197.67 2119.1
-649.64 -1180.19 2088.1
-632.41 -1158.52 2049.8
-608.53 -1184.47 2095.7
-602.49 -1216.13 2151.7
-1269.70 -972.25 1712.4
-1248.18 -959.13 1689.3
-1229.97 -948.47 1670.5
-1200.00 -928.63 1635.5
-1202.35 -933.74 1644.6
-1208.41 -941.78 1658.7
-1159.43 -906.84 1597.2
-1112.27 -873.07 1537.7
-1129.59 -889.86 1567.3
-1145.74 -905.84 1595.4
-1132.19 -898.37 1582.3
-1111.84 -885.43 1559.5
-1090.00 -871.20 1534.4
-1088.68 -873.34 1538.2
-1095.20 -881.79 1553.1
-1095.92 -885.63 1559.8
-1095.57 -888.63 1565.1
-1084.31 -882.76 1554.8
-1078.77 -881.53 1552.6
-1096.44 -899.33 1583.9
-1114.00 -917.16 1615.4
-1104.76 -912.99 1608.0
-1082.76 -898.20 1582.0
-1055.24 -878.70 1547.6
-1034.98 -865.12 1523.7
-1031.03 -865.12 1523.7
-1037.70 -874.06 1539.4
-1058.93 -895.39 1577.0
-1075.49 -912.91 1607.9
-1070.36 -912.10 1606.4
-1063.24 -909.57 1602.0
-1073.58 -922.01 1623.9
-1090.78 -940.48 1656.4
-1081.60 -936.24 1649.0
-1054.16 -916.12 1613.5
-1046.56 -913.14 1608.3
-1051.26 -920.90 1621.9
-1051.49 -924.80 1628.8
-1061.45 -937.33 1650.9
-1067.91 -946.85 1667.6
-1051.03 -935.67 1648.0
-1053.56 -941.75 1658.7
-1079.66 -969.04 1706.7
-1075.78 -969.53 1707.6
-1054.17 -953.98 1680.2
-1049.85 -954.01 1680.3
-1061.71 -968.81 1706.3
-1076.78 -986.68 1737.8
-1080.38 -994.13 1750.9
-1066.95 -985.92 1736.5
-1054.05 -978.12 1722.7
-1047.76 -976.42 1719.7
-1048.47 -981.26 1728.2
-1060.31 -996.60 1755.3
-1070.18 -1010.21 1779.2
-1063.78 -1008.52 1776.3
-1045.42 -995.42 1753.2
-1051.01 -1005.11 1770.3
-1050.58 -1009.11 1777.3
-1027.34 -991.13 1745.6
-1027.38 -995.56 1753.4
-1029.20 -1001.75 1764.3
-1035.02 -1011.92 1782.2
-1038.52 -1019.89 1796.3
-1021.82 -1008.01 1775.4
-1011.89 -1002.73 1766.1
-1003.77 -999.21 1759.9
-1010.73 -1010.73 1780.2
-1020.69 -1025.37 1805.9
-1023.06 -1032.49 1818.5
-1031.51 -1045.84 1842.0
-1023.72 -1042.77 1836.6
-1012.48 -1036.13 1824.9
-1019.46 -1048.17 1846.1
-1015.13 -1048.65 1846.9
-997.05 -1034.85 1822.6
-988.91 -1031.29 1816.4
-986.77 -1033.98 1821.1
-992.66 -1045.16 1840.8
-998.90 -1056.80 1861.3
-995.35 -1058.16 1863.7
-998.92 -1067.14 1879.5
-995.74 -1068.95 1882.7
-995.03 -1073.46 1890.6
-1008.80 -1093.69 1926.3
-1011.26 -1101.82 1940.6
-1000.50 -1095.55 1929.5
-991.43 -1091.07 1921.6
-977.49 -1081.17 1904.2
-952.67 -1059.06 1865.3
-957.52 -1069.88 1884.3
-973.14 -1092.92 1924.9
-974.97 -1100.61 1938.4
-986.70 -1119.63 1971.9
-983.59 -1121.91 1976.0
-985.20 -1129.63 1989.6
-991.77 -1149.19 2024.0
-1022.31 -1216.77 2143.0
-1004.63 -1215.55 2140.9
-982.20 -1195.01 2104.7
-998.09 -1221.13 2150.7
-918.10 -1196.81 2107.9
-901.69 -1182.46 2082.6
-924.65 -1219.86 2148.5
-869.28 -1220.33 2149.3
-637.33 -1182.85 2083.3
-620.81 -1162.03 2046.6
-596.13 -1197.74 2109.5
-594.05 -1204.60 2121.6
-1289.20 -988.24 1732.6
-1274.65 -980.50 1719.1
-1214.78 -937.73 1644.1
-1165.42 -902.79 1582.8
-1160.90 -902.46 1582.2
-1181.56 -921.79 1616.1
-1186.59 -929.01 1628.8
-1139.84 -895.59 1570.2
-1101.27 -868.39 1522.5
-1124.97 -890.27 1560.9
-1156.46 -918.49 1610.3
-1158.73 -923.63 1619.3
-1133.59 -906.87 1590.0
-1106.97 -888.81 1558.3
-1091.47 -879.57 1542.1
-1083.34 -876.23 1536.3
-1091.38 -885.99 1553.4
-1099.87 -896.19 1571.2
-1097.93 -897.93 1574.3
-1102.17 -904.77 1586.3
-1097.09 -903.97 1584.9
-1090.99 -902.32 1582.0
-1090.01 -904.92 1586.5
-1074.71 -895.59 1570.2
-1040.10 -870.05 1525.4
-1028.15 -866.64 1519.4
-1055.54 -893.15 1565.9
-1058.55 -899.16 1576.4
-1058.01 -902.18 1581.7
-1075.48 -920.64 1614.1
-1090.32 -936.99 1642.8
-1075.17 -927.60 1626.3
-1065.54 -922.91 1618.1
-1071.28 -931.55 1633.2
-1059.20 -924.70 1621.2
-1055.52 -925.16 1622.0
-1063.61 -935.98 1641.0
-1055.00 -932.13 1634.2
-1055.67 -936.48 1641.9
-1066.52 -949.94 1665.5
-1054.01 -942.61 1652.6
-1042.03 -935.70 1640.5
-1053.69 -950.05 1665.7
-1067.17 -966.17 1693.9
-1062.35 -965.78 1693.2
-1051.81 -960.16 1683.4
-1057.47 -969.35 1699.5
-1080.12 -994.25 1743.2
-1089.84 -1007.41 1766.2
-1082.51 -1004.86 1761.8
-1075.19 -1002.30 1757.3
-1055.27 -987.91 1732.0
-1043.83 -981.38 1720.6
-1049.62 -991.06 1737.6
-1053.50 -999.00 1751.5
-1067.46 -1016.63 1782.4
-1069.34 -1022.85 1793.3
-1043.21 -1002.21 1757.1
-1011.74 -976.24 1711.6
-1006.86 -975.81 1710.8
-1024.20 -997.01 1748.0
-1035.06 -1012.06 1774.4
-1049.86 -1031.12 1807.8
-1040.29 -1026.29 1799.3
-1012.41 -1003.29 1759.0
-1019.45 -1014.84 1779.3
-1028.18 -1028.18 1802.7
-1014.69 -1019.32 1787.1
-1003.91 -1013.12 1776.2
-1005.46 -1019.36 1787.2
-1013.53 -1032.29 1809.9
-1026.29 -1050.15 1841.2
-1035.44 -1064.47 1866.3
-1018.96 -1052.45 1845.2
-992.67 -1030.13 1806.1
-997.86 -1040.42 1824.1
-1011.95 -1060.14 1858.7
-1002.05 -1054.79 1849.3
-1000.24 -1057.95 1854.8
-994.18 -1056.62 1852.5
-978.44 -1044.94 1832.0
-979.56 -1051.24 1843.1
-974.78 -1051.24 1843.1
-970.42 -1051.68 1843.9
-979.29 -1066.56 1869.9
-967.85 -1059.34 1857.3
-944.13 -1038.55 1820.8
-951.25 -1051.63 1843.8
-953.78 -1059.75 1858.0
-941.64 -1051.58 1843.7
-957.03 -1074.21 1883.4
-971.83 -1096.43 1922.3
-974.06 -1104.60 1936.6
-985.38 -1123.23 1969.3
-983.46 -1126.88 1975.7
-978.35 -1126.90 1975.7
-981.50 -1136.47 1992.5
-970.47 -1129.65 1980.5
-976.25 -1142.42 2003.0
-998.77 -1213.97 2128.4
-989.66 -1216.34 2132.5
-976.71 -1207.17 2116.5
-959.76 -1192.92 2091.5
-927.07 -1158.84 2031.7
-928.17 -1201.16 2105.9
-929.09 -1209.47 2120.5
-902.35 -1181.64 2071.7
-890.60 -1173.25 2057.0
-916.39 -1214.49 2129.3
-910.30 -1236.20 2167.4
-855.16 -1205.99 2114.4
-711.79 -1186.32 2079.9
-678.32 -1203.47 2110.0
-657.29 -1185.28 2078.1
-660.16 -1200.30 2104.4
-640.29 -1203.96 2110.8
-634.92 -1204.15 2111.2
-623.02 -1191.86 2089.6
-584.06 -1178.85 2066.8
-599.33 -1220.86 2140.5
-572.23 -1234.22 2163.9
-1282.65 -984.25 1717.8
-1282.76 -987.77 1724.0
-1247.68 -964.11 1682.7
-1172.27 -909.02 1586.5
-1142.97 -889.42 1552.3
-1152.99 -900.39 1571.5
-1154.91 -905.09 1579.7
-1143.97 -899.71 1570.3
-1148.52 -906.51 1582.1
-1155.15 -915.01 1597.0
-1153.23 -916.78 1600.1
-1162.41 -927.41 1618.6
-1154.11 -924.12 1612.9
-1120.57 -900.53 1571.7
-1090.86 -879.85 1535.6
-1071.22 -867.18 1513.5
-1060.54 -861.69 1503.9
-1065.51 -868.92 1516.5
-1090.67 -892.73 1558.1
-1105.83 -908.51 1585.6
-1112.11 -917.08 1600.6
-1109.07 -917.99 1602.2
-1085.98 -902.26 1574.7
-1066.59 -889.49 1552.4
-1071.27 -896.78 1565.2
-1057.07 -888.26 1550.3
-1056.17 -897.75 1566.8
-1075.79 -917.96 1602.1
-1073.69 -919.71 1605.2
-1089.59 -936.97 1635.3
-1086.41 -937.88 1636.9
-1052.87 -912.49 1592.6
-1039.34 -904.31 1578.3
-1041.20 -909.50 1587.4
-1053.37 -923.79 1612.3
-1073.80 -945.46 1650.1
-1089.67 -963.27 1681.2
-1088.80 -966.36 1686.6
-1074.26 -957.30 1670.8
-1068.04 -955.61 1667.8
-1058.43 -950.87 1659.6
-1049.83 -946.99 1652.8
-1059.53 -959.65 1674.9
-1070.57 -973.65 1699.3
-1080.09 -986.36 1721.5
-1082.83 -992.97 1733.0
-1070.33 -985.60 1720.2
-1073.50 -992.65 1732.5
-1097.86 -1019.44 1779.2
-1106.03 -1031.36 1800.1
-1082.23 -1013.44 1768.8
-1046.87 -984.50 1718.3
-1038.72 -981.02 1712.2
-1048.70 -994.69 1736.1
-1052.11 -1002.22 1749.2
-1066.06 -1019.91 1780.1
-1075.29 -1033.21 1803.3
-1056.03 -1019.13 1778.7
-1032.30 -1000.60 1746.4
-1034.62 -1007.27 1758.0
-1052.75 -1029.46 1796.7
-1064.40 -1045.48 1824.7
-1067.83 -1053.53 1838.7
-1047.43 -1038.04 1811.7
-1010.17 -1005.62 1755.1
-1007.41 -1007.41 1758.2
-1034.80 -1039.50 1814.3
-1039.85 -1049.35 1831.4
-1029.42 -1043.59 1821.4
-1030.87 -1049.88 1832.4
-1030.53 -1054.38 1840.2
-1034.50 -1063.37 1855.9
-1042.74 -1076.85 1879.4
-1026.68 -1065.24 1859.2
-996.07 -1038.35 1812.3
-995.24 -1042.40 1819.3
-1007.19 -1059.94 1849.9
-996.88 -1054.12 1839.8
-995.09 -1057.28 1845.3
-988.62 -1055.49 1842.2
-980.07 -1051.43 1835.1
-987.45 -1064.52 1857.9
-983.06 -1064.98 1858.7
-980.32 -1067.24 1862.7
-983.35 -1075.84 1877.7
-968.19 -1064.52 1857.9
-954.34 -1054.54 1840.5
-969.16 -1076.30 1878.5
-975.67 -1089.01 1900.7
-969.13 -1087.19 1897.5
-967.43 -1090.83 1903.8
-964.10 -1092.64 1907.0
-959.14 -1092.63 1907.0
-961.36 -1100.83 1921.3
-970.64 -1117.25 1950.0
-977.82 -1131.41 1974.7
-976.64 -1135.99 1982.7
-961.73 -1124.56 1962.7
-950.79 -1117.68 1950.7
-943.39 -1114.92 1945.9
-947.59 -1125.90 1965.1
-997.61 -1211.38 2114.2
-992.81 -1225.76 2139.3
-935.99 -1162.11 2028.2
-957.88 -1209.67 2111.3
-951.76 -1230.06 2146.8
-912.26 -1185.94 2069.8
-892.98 -1174.69 2050.2
-889.88 -1213.98 2118.8
-885.37 -1215.32 2121.1
-864.51 -1216.92 2123.9
-851.00 -1205.58 2104.1
-736.05 -1196.09 2087.5
-733.93 -1210.44 2112.6
-683.17 -1188.83 2074.9
-672.24 -1198.11 2091.1
-674.41 -1211.74 2114.9
-667.99 -1210.05 2111.9
-653.18 -1192.99 2082.1
-642.67 -1183.59 2065.7
-651.90 -1210.67 2113.0
-619.77 -1201.49 2097.0
-582.02 -1180.06 2059.6
-597.52 -1222.70 2134.0
-569.83 -1234.64 2154.8
-565.19 -1236.69 2158.4
-550.20 -1215.95 2122.2
-1297.84 -996.96 1732.2
-1243.60 -958.61 1665.5
-1213.46 -938.63 1630.8
-1155.86 -897.21 1558.9
-1141.67 -889.30 1545.1
-1160.89 -907.45 1576.7
-1154.22 -905.43 1573.1
-1142.21 -899.19 1562.3
-1124.37 -888.29 1543.4
-1122.04 -889.61 1545.7
-1132.97 -901.50 1566.3
-1133.76 -905.38 1573.0
-1150.37 -921.96 1601.9
-1150.01 -925.01 1607.2
-1119.14 -903.45 1569.7
-1091.55 -884.39 1536.6
-1075.06 -874.22 1518.9
-1067.50 -871.27 1513.8
-1065.68 -872.99 1516.8
-1083.55 -890.92 1547.9
-1088.37 -898.21 1560.6
-1083.86 -897.82 1559.9
-1094.26 -909.84 1580.8
-1085.09 -905.60 1573.4
-1068.26 -894.92 1554.9
-1077.02 -905.67 1573.6
-1082.14 -913.44 1587.1
-1059.30 -897.57 1559.5
-1036.56 -881.67 1531.9
-1055.29 -901.06 1565.5
-1088.98 -933.41 1621.8
-1100.38 -946.84 1645.1
-1091.68 -943.01 1638.4
-1063.06 -921.87 1601.7
-1041.04 -906.32 1574.7
-1039.45 -908.50 1578.5
-1054.15 -924.99 1607.1
-1079.58 -951.06 1652.4
-1081.24 -956.32 1661.6
-1077.97 -957.24 1663.2
-1098.12 -979.05 1701.1
-1103.52 -987.83 1716.3
-1089.45 -979.18 1701.3
-1071.56 -967.01 1680.1
-1058.57 -959.19 1666.6
-1063.90 -967.98 1681.8
-1066.30 -974.15 1692.5
-1066.73 -978.57 1700.2
-1089.52 -1003.62 1743.7
-1095.51 -1013.35 1760.6
-1078.25 -1001.55 1740.1
-1082.29 -1009.53 1754.0
-1092.38 -1023.24 1777.8
-1071.91 -1008.33 1751.9
-1052.49 -994.27 1727.5
-1060.15 -1005.78 1747.5
-1067.26 -1016.88 1766.8
-1066.90 -1020.91 1773.8
-1064.20 -1022.74 1777.0
-1056.43 -1019.69 1771.7
-1056.46 -1024.17 1779.4
-1050.99 -1023.33 1778.0
-1048.24 -1025.15 1781.2
-1061.32 -1042.54 1811.4
-1055.78 -1041.70 1809.9
-1041.70 -1032.40 1793.7
-1039.33 -1034.67 1797.7
-1019.53 -1019.53 1771.4
-997.16 -1001.68 1740.4
-1003.73 -1012.86 1759.8
-1032.73 -1046.88 1818.9
-1047.41 -1066.63 1853.2
-1038.27 -1062.19 1845.5
-1028.29 -1056.85 1836.2
-1020.95 -1054.19 1831.6
-1019.26 -1057.36 1837.1
-1019.27 -1062.34 1845.8
-1004.62 -1052.01 1827.8
-992.19 -1043.91 1813.7
-991.76 -1048.43 1821.6
-994.69 -1056.56 1835.7
-1006.03 -1073.74 1865.6
-1007.96 -1081.00 1878.2
-1008.57 -1086.91 1888.4
-1003.28 -1086.48 1887.7
-986.73 -1073.80 1865.7
-985.22 -1077.43 1872.0
-989.47 -1087.43 1889.4
-988.28 -1091.53 1896.5
-989.52 -1098.37 1908.4
-1002.13 -1117.96 1942.4
-1005.66 -1127.55 1959.1
-983.60 -1108.42 1925.8
-964.91 -1092.91 1898.9
-959.98 -1092.90 1898.9
-954.65 -1092.43 1898.0
-944.94 -1086.92 1888.5
-940.81 -1087.81 1890.0
-959.94 -1115.74 1938.6
-972.18 -1135.92 1973.6
-947.13 -1112.51 1932.9
-923.43 -1090.43 1894.6
-928.55 -1102.34 1915.3
-944.38 -1127.16 1958.4
-958.86 -1150.63 1999.2
-960.31 -1171.37 2035.2
-956.92 -1173.68 2039.2
-959.88 -1183.85 2056.9
-966.48 -1198.65 2082.6
-920.21 -1154.16 2005.3
-960.21 -1211.18 2104.4
-948.33 -1231.16 2139.1
-915.65 -1195.74 2077.5
-907.40 -1191.97 2071.0
-923.33 -1234.81 2145.4
-891.74 -1222.01 2123.2
-857.96 -1183.02 2055.4
-874.76 -1221.36 2122.0
-884.26 -1242.44 2158.7
-867.31 -1226.38 2130.8
-865.70 -1231.95 2140.5
-701.23 -1179.34 2049.0
-661.61 -1184.50 2058.0
-660.39 -1191.92 2070.9
-650.37 -1183.47 2056.2
-644.10 -1181.74 2053.2
-637.17 -1208.99 2100.6
-613.91 -1195.51 2077.1
-588.31 -1176.62 2044.3
-561.04 -1233.18 2142.6
-545.25 -1222.68 2124.4
-520.98 -1230.41 2137.8
-1297.90 -1001.50 1732.2
-1236.11 -957.12 1655.5
-1198.96 -931.59 1611.3
-1184.66 -923.70 1597.7
-1205.43 -943.20 1631.4
-1182.54 -928.54 1606.1
-1141.50 -899.49 1555.8
-1130.07 -893.63 1545.7
-1113.33 -883.53 1528.2
-1108.90 -883.16 1527.6
-1116.67 -892.53 1543.8
-1112.73 -892.58 1543.9
-1126.21 -906.66 1568.2
-1141.18 -922.04 1594.8
-1125.58 -912.74 1578.7
-1088.56 -885.95 1532.4
-1063.73 -868.91 1502.9
-1063.50 -871.91 1508.1
-1070.52 -880.91 1523.7
-1080.59 -892.49 1543.7
-1077.66 -893.38 1545.2
-1069.05 -889.54 1538.6
-1075.88 -898.58 1554.2
-1092.91 -916.23 1584.8
-1104.70 -929.61 1607.9
-1090.40 -921.06 1593.1
-1072.59 -909.46 1573.1
-1072.10 -912.51 1578.3
-1072.09 -916.00 1584.4
-1068.02 -916.03 1584.4
-1079.02 -929.04 1606.9
-1094.94 -946.41 1637.0
-1090.76 -946.46 1637.1
-1070.14 -932.19 1612.4
-1055.07 -922.67 1595.9
-1063.34 -933.56 1614.7
-1089.31 -960.14 1660.7
-1098.85 -972.39 1681.9
-1085.72 -964.61 1668.4
-1079.50 -962.91 1665.5
-1097.19 -982.62 1699.6
-1105.50 -994.06 1719.4
-1094.82 -988.44 1709.7
-1092.87 -990.69 1713.6
-1094.76 -996.46 1723.5
-1083.64 -990.38 1713.0
-1067.29 -979.45 1694.1
-1063.90 -980.37 1695.7
-1081.91 -1001.10 1731.6
-1101.67 -1023.64 1770.5
-1097.64 -1024.15 1771.4
-1084.64 -1016.28 1757.8
-1077.33 -1013.69 1753.3
-1081.27 -1021.71 1767.2
-1085.62 -1030.19 1781.9
-1066.19 -1016.07 1757.5
-1045.93 -1001.04 1731.5
-1056.72 -1015.73 1756.9
-1065.10 -1028.21 1778.5
-1050.91 -1018.93 1762.4
-1043.19 -1015.85 1757.1
-1044.59 -1021.68 1767.2
-1048.67 -1030.19 1781.9
-1054.50 -1040.50 1799.7
-1041.77 -1032.51 1785.9
-1032.68 -1028.07 1778.2
-1034.81 -1034.81 1789.9
-1032.88 -1037.54 1794.6
-1027.37 -1036.67 1793.1
-1009.47 -1023.23 1769.8
-1013.72 -1032.23 1785.4
-1038.55 -1062.37 1837.5
-1040.83 -1069.61 1850.1
-1027.35 -1060.65 1834.6
-1016.98 -1054.82 1824.5
-1018.33 -1061.16 1835.4
-1021.36 -1069.31 1849.5
-1014.44 -1067.08 1845.7
-1008.40 -1065.75 1843.4
-1001.93 -1063.96 1840.3
-999.30 -1066.23 1844.2
-1001.72 -1073.96 1857.6
-995.65 -1072.61 1855.3
-990.85 -1072.62 1855.3
-981.45 -1067.63 1846.6
-972.50 -1063.07 1838.8
-977.26 -1073.54 1856.9
-979.05 -1080.83 1869.5
-975.02 -1081.74 1871.0
-966.89 -1078.08 1864.7
-967.76 -1084.47 1875.8
-991.72 -1116.94 1931.9
-991.57 -1122.44 1941.4
-972.86 -1106.88 1914.5
-967.10 -1105.96 1912.9
-957.74 -1100.91 1904.2
-943.65 -1090.33 1885.9
-933.98 -1084.78 1876.3
-946.03 -1104.53 1910.5
-965.38 -1133.05 1959.8
-950.53 -1121.52 1939.9
-923.32 -1095.22 1894.4
-922.63 -1100.25 1903.1
-938.47 -1125.15 1946.1
-951.42 -1146.85 1983.7
-938.45 -1143.57 1978.0
-955.23 -1170.42 2024.4
-995.14 -1226.06 2120.7
-985.55 -1220.98 2111.9
-947.62 -1207.53 2088.6
-950.20 -1217.78 2106.3
-905.12 -1180.36 2041.6
-923.67 -1211.64 2095.7
-863.13 -1210.55 2093.8
-851.92 -1241.68 2147.7
-685.34 -1193.99 2065.2
-658.58 -1174.90 2032.2
-653.66 -1194.80 2066.6
-640.06 -1219.94 2110.1
-637.21 -1224.97 2118.8
-613.06 -1188.81 2056.2
-603.35 -1180.24 2041.4
-605.35 -1205.29 2084.7
-601.23 -1207.87 2089.2
-573.06 -1194.31 2065.8
-591.83 -1245.07 2153.6
-1297.17 -998.51 1719.4
-1272.78 -983.11 1692.9
-1266.97 -982.01 1691.0
-1253.03 -974.58 1678.2
-1249.95 -975.57 1679.9
-1259.28 -986.29 1698.3
-1227.08 -964.44 1660.7
-1162.25 -916.71 1578.5
-1112.73 -880.75 1516.6
-1092.82 -868.06 1494.7
-1093.78 -871.91 1501.4
-1104.81 -883.85 1521.9
-1106.75 -888.57 1530.1
-1097.55 -884.35 1522.8
-1086.26 -878.42 1512.6
-1078.69 -875.46 1507.5
-1087.93 -886.17 1525.9
-1075.64 -879.35 1514.2
-1056.08 -866.52 1492.1
-1062.63 -875.11 1506.9
-1070.68 -884.99 1523.9
-1082.29 -897.90 1546.1
-1075.74 -895.78 1542.5
-1063.02 -888.49 1529.9
-1078.07 -904.45 1557.4
-1102.76 -928.64 1599.1
-1104.29 -933.44 1607.3
-1080.32 -916.64 1578.4
-1068.65 -910.18 1567.3
-1075.76 -919.74 1583.7
-1088.36 -934.07 1608.4
-1097.84 -945.83 1628.7
-1092.17 -944.58 1626.5
-1091.52 -947.68 1631.8
-1086.85 -947.29 1631.2
-1065.75 -932.53 1605.8
-1072.54 -942.15 1622.3
-1103.01 -972.73 1675.0
-1111.08 -983.72 1693.9
-1102.34 -979.86 1687.3
-1097.06 -979.05 1685.9
-1098.62 -984.36 1695.0
-1094.30 -984.43 1695.1
-1081.22 -976.59 1681.6
-1074.50 -974.44 1677.9
-1075.51 -979.32 1686.3
-1074.08 -982.01 1691.0
-1058.23 -971.49 1672.8
-1066.37 -982.99 1692.6
-1085.39 -1004.66 1730.0
-1088.10 -1011.35 1741.5
-1093.13 -1020.25 1756.8
-1091.01 -1022.54 1760.7
-1079.93 -1016.40 1750.2
-1066.07 -1007.59 1735.0
-1062.09 -1008.08 1735.9
-1077.68 -1027.23 1768.8
-1069.90 -1024.18 1763.6
-1049.64 -1009.10 1737.6
-1059.94 -1023.39 1762.2
-1073.81 -1041.28 1793.0
-1064.19 -1036.43 1784.7
-1055.05 -1032.01 1777.1
-1054.58 -1036.08 1784.1
-1049.55 -1035.68 1783.4
-1047.23 -1037.96 1787.3
-1041.28 -1036.65 1785.1
-1038.04 -1038.04 1787.4
-1041.04 -1045.71 1800.6
-1040.42 -1049.79 1807.7
-1033.11 -1047.13 1803.1
-1013.86 -1032.30 1777.6
-1007.07 -1030.06 1773.7
-1021.80 -1049.92 1807.9
-1032.45 -1065.75 1835.2
-1028.60 -1066.69 1836.8
-1022.56 -1065.37 1834.5
-1027.35 -1075.36 1851.7
-1023.01 -1075.84 1852.5
-1009.65 -1066.80 1837.0
-1004.05 -1065.91 1835.4
-996.75 -1063.20 1830.8
-978.86 -1049.11 1806.5
-967.40 -1041.82 1794.0
-978.73 -1059.11 1823.7
-991.61 -1078.26 1856.7
-990.14 -1081.91 1863.0
-988.23 -1085.12 1868.5
-979.25 -1080.55 1860.6
-966.17 -1071.40 1844.9
-959.73 -1069.55 1841.7
-949.21 -1063.12 1830.6
-939.55 -1057.59 1821.1
-951.43 -1076.37 1853.4
-971.25 -1104.36 1901.6
-974.36 -1113.55 1917.5
-979.40 -1125.06 1937.3
-982.76 -1134.73 1953.9
-963.01 -1117.68 1924.6
-945.75 -1103.37 1899.9
-940.41 -1102.89 1899.1
-940.55 -1108.86 1909.4
-951.18 -1127.33 1941.2
-953.90 -1136.57 1957.1
-926.00 -1109.22 1910.0
-911.01 -1097.13 1889.2
-945.91 -1145.32 1972.2
-955.76 -1169.90 2014.5
-990.80 -1226.18 2111.4
-958.28 -1199.19 2064.9
-974.49 -1233.25 2123.6
-934.73 -1203.33 2072.1
-907.09 -1188.24 2046.1
-904.24 -1191.47 2051.6
-939.99 -1245.90 2145.4
-931.24 -1241.65 2138.0
-922.52 -1237.40 2130.7
-860.61 -1189.98 2049.1
-864.80 -1226.04 2111.2
-841.67 -1200.85 2067.8
-834.25 -1197.90 2062.7
-767.70 -1219.61 2100.1
-751.33 -1219.55 2100.0
-716.08 -1206.03 2076.7
-627.62 -1191.41 2051.5
-594.79 -1200.30 2066.8
-582.56 -1186.30 2042.7
-550.85 -1233.90 2124.7
-1280.85 -990.35 1697.7
-1255.43 -974.04 1669.8
-1251.84 -974.61 1670.8
-1239.02 -967.99 1659.4
-1231.65 -965.58 1655.3
-1226.45 -964.87 1654.1
-1184.67 -935.27 1603.3
-1153.27 -913.68 1566.3
-1131.11 -899.29 1541.6
-1115.43 -889.97 1525.7
-1118.46 -895.57 1535.3
-1109.23 -891.35 1528.0
-1092.08 -880.71 1509.8
-1081.33 -875.18 1500.3
-1067.98 -867.49 1487.1
-1064.67 -867.93 1487.9
-1077.60 -881.67 1511.4
-1067.96 -876.97 1503.4
-1052.08 -867.10 1486.5
-1075.28 -889.48 1524.8
-1099.37 -912.76 1564.7
-1096.92 -914.10 1567.0
-1076.40 -900.33 1543.4
-1066.77 -895.61 1535.3
-1085.90 -915.09 1568.7
-1087.00 -919.45 1576.2
-1063.56 -903.02 1548.0
-1051.94 -896.54 1536.9
-1054.06 -901.76 1545.9
-1066.76 -916.11 1570.5
-1085.43 -935.71 1604.1
-1094.90 -947.51 1624.3
-1089.75 -946.69 1622.9
-1087.60 -948.48 1626.0
-1081.44 -946.78 1623.1
-1074.29 -944.20 1618.6
-1096.92 -967.87 1659.2
-1108.50 -981.94 1683.3
-1096.33 -974.99 1671.4
-1102.38 -984.27 1687.3
-1110.82 -995.75 1707.0
-1092.30 -983.07 1685.3
-1067.06 -964.21 1652.9
-1069.12 -969.97 1662.8
-1076.47 -980.59 1681.0
-1069.75 -978.43 1677.3
-1060.64 -974.06 1669.8
-1055.87 -973.65 1669.1
-1075.00 -995.37 1706.3
-1078.25 -1002.51 1718.6
-1065.30 -994.58 1705.0
-1064.24 -997.73 1710.4
-1057.02 -995.10 1705.9
-1054.52 -996.92 1709.0
-1049.66 -996.51 1708.3
-1049.47 -1000.55 1715.2
-1067.88 -1022.43 1752.7
-1061.53 -1020.70 1749.8
-1043.16 -1007.34 1726.9
-1048.40 -1016.76 1743.0
-1057.24 -1029.78 1765.3
-1067.36 -1044.16 1790.0
-1078.29 -1059.46 1816.2
-1063.64 -1049.65 1799.4
-1044.98 -1035.78 1775.6
-1045.38 -1040.76 1784.2
-1043.50 -1043.50 1788.9
-1042.93 -1047.59 1795.9
-1047.70 -1057.09 1812.2
-1041.70 -1055.78 1809.9
-1029.95 -1048.59 1797.6
-1008.53 -1031.45 1768.2
-999.99 -1027.39 1761.2
-1016.04 -1048.67 1797.7
-1028.45 -1066.36 1828.1
-1026.79 -1069.57 1833.5
-1023.36 -1070.96 1835.9
-1021.65 -1074.17 1841.4
-1010.88 -1067.83 1830.6
-1001.86 -1063.30 1822.8
-1000.56 -1066.95 1829.1
-1007.32 -1079.27 1850.2
-1002.96 -1079.75 1851.0
-988.47 -1069.25 1833.0
-998.43 -1085.26 1860.4
-1004.51 -1097.16 1880.8
-995.90 -1093.06 1873.8
-991.05 -1093.07 1873.8
-978.33 -1084.36 1858.9
-959.50 -1068.75 1832.1
-947.75 -1060.91 1818.7
-952.82 -1071.92 1837.6
-959.02 -1084.32 1858.8
-960.67 -1091.67 1871.4
