ply
format ascii 1.0
element vertex 1977
property float x
property float y
property float z
end_header
-553.60 -1107.21 2178.9
-540.88 -1115.92 2196.1
-528.86 -1102.74 2170.1
-484.67 -1104.59 2173.7
-875.69 -1084.97 2124.3
-864.60 -1084.88 2124.1
-849.40 -1100.86 2155.4
-858.24 -1119.69 2192.3
-828.57 -1095.49 2144.9
-829.41 -1104.01 2161.6
-844.31 -1131.49 2215.4
-835.32 -1127.11 2206.8
-818.40 -1119.62 2192.1
-521.49 -1104.67 2162.9
-523.40 -1120.76 2194.4
-507.47 -1098.58 2151.0
-476.19 -1090.81 2135.7
-453.15 -1102.10 2157.8
-1032.66 -1123.45 2188.5
-1017.45 -1131.77 2204.8
-902.22 -1116.50 2175.0
-894.85 -1114.34 2170.8
-867.54 -1094.09 2131.3
-857.91 -1088.88 2121.2
-836.39 -1096.72 2136.5
-550.07 -1111.37 2165.0
-519.50 -1106.03 2154.6
-518.93 -1116.83 2175.6
-506.96 -1103.05 2148.8
-456.18 -1115.09 2172.3
-1075.85 -1120.92 2172.6
-877.87 -1091.85 2116.3
-856.77 -1092.93 2118.4
-867.42 -1120.88 2172.6
-843.18 -1103.90 2139.6
-840.46 -1115.01 2161.2
-550.18 -1105.92 2143.6
-547.98 -1112.74 2156.8
-518.82 -1122.23 2175.2
-493.56 -1103.57 2139.0
-444.11 -1118.70 2168.3
-439.37 -1120.96 2172.7
-1092.25 -1108.88 2138.6
-1085.36 -1136.51 2191.8
-887.05 -1137.25 2193.3
-858.92 -1145.23 2208.7
-847.31 -1137.33 2193.4
-829.64 -1121.14 2162.2
-838.71 -1141.11 2200.7
-548.53 -1119.45 2158.9
-475.19 -1118.09 2156.3
-879.13 -1132.73 2173.7
-852.56 -1142.43 2192.3
-838.40 -1131.00 2170.4
-831.11 -1128.73 2166.0
-450.80 -1132.62 2173.5
-1252.45 -954.70 1823.0
-1224.33 -940.36 1795.6
-1234.97 -955.80 1825.1
-1231.99 -957.17 1827.7
-1224.48 -958.70 1830.6
-1091.33 -1130.50 2158.7
-1061.18 -1140.20 2177.2
-1013.19 -1137.02 2171.1
-970.91 -1146.93 2190.0
-855.96 -1122.76 2143.9
-843.76 -1143.89 2184.2
-830.64 -1133.71 2164.8
-1236.41 -940.04 1786.1
-1220.01 -931.06 1769.1
-1231.73 -943.55 1792.8
-1235.07 -949.69 1804.5
-1225.96 -946.27 1798.0
-1217.90 -943.64 1793.0
-1196.50 -930.61 1768.2
-1176.21 -918.35 1744.9
-1165.21 -913.27 1735.3
-1162.39 -914.59 1737.8
-1178.35 -930.76 1768.5
-1192.16 -945.34 1796.2
-1199.29 -954.73 1814.1
-1075.92 -1137.57 2161.5
-1060.92 -1133.51 2153.7
-1048.66 -1126.34 2140.1
-994.79 -1140.92 2167.8
-992.57 -1151.38 2187.7
-881.85 -1147.54 2180.4
-662.96 -1140.51 2167.0
-1241.42 -944.96 1786.7
-1208.31 -923.20 1745.5
-1199.28 -919.75 1739.0
-1192.88 -918.29 1736.3
-1179.23 -911.22 1722.9
-1190.41 -923.36 1745.8
-1204.07 -937.52 1772.6
-1182.72 -924.43 1747.9
-1161.97 -911.70 1723.8
-1138.25 -896.54 1695.1
-1120.75 -886.17 1675.5
-1146.96 -910.43 1721.4
-1170.97 -933.11 1764.3
-1175.13 -940.10 1777.5
-1185.27 -951.95 1799.9
-1194.32 -963.01 1820.8
-1182.28 -957.08 1809.6
-1174.77 -954.79 1805.3
-1177.71 -961.01 1817.0
-1159.78 -950.18 1796.6
-1158.74 -953.15 1802.2
-1116.23 -1127.28 2131.4
-1120.66 -1154.62 2183.1
-1113.08 -1152.63 2179.3
-970.10 -1137.36 2150.5
-852.57 -1122.10 2121.6
-874.97 -1159.06 2191.5
-669.03 -1137.34 2150.4
-673.84 -1155.15 2184.1
-636.97 -1160.19 2193.6
-622.75 -1144.52 2164.0
-481.00 -1115.04 2108.3
-484.93 -1137.08 2149.9
-484.40 -1149.05 2172.6
-471.33 -1131.19 2138.8
-440.63 -1152.42 2178.9
-1236.47 -928.49 1747.0
-1249.60 -941.79 1772.0
-1237.85 -936.38 1761.8
-1231.39 -934.94 1759.1
-1215.36 -929.66 1749.2
-1196.41 -918.59 1728.4
-1158.29 -892.67 1679.6
-1123.47 -869.10 1635.2
-1134.34 -880.83 1657.3
-1168.32 -910.67 1713.5
-1177.92 -921.65 1734.1
-1156.65 -908.48 1709.3
-1148.27 -905.36 1703.5
-1138.37 -901.03 1695.3
-1105.62 -878.49 1652.9
-1110.55 -885.85 1666.8
-1172.06 -938.56 1765.9
-1180.80 -953.01 1793.1
-1140.74 -924.31 1739.1
-1154.84 -939.46 1767.6
-1175.81 -960.33 1806.9
-1166.82 -956.79 1800.2
-1137.55 -936.54 1762.1
-1117.31 -923.58 1737.8
-1122.76 -931.84 1753.3
-1159.06 -965.88 1817.3
-1168.19 -977.47 1839.1
-1152.37 -968.18 1821.7
-1099.01 -1052.79 1980.9
-1129.48 -1140.61 2146.1
-1110.67 -1144.15 2152.8
-1089.11 -1127.61 2121.6
-1095.23 -1139.71 2144.4
-1112.71 -1163.81 2189.7
-1112.87 -1169.94 2201.3
-1091.46 -1153.35 2170.1
-1081.91 -1149.18 2162.2
-1034.42 -1158.77 2180.3
-1014.33 -1161.66 2185.7
-853.50 -1151.11 2165.8
-674.93 -1134.11 2133.9
-656.55 -1160.29 2183.1
-477.33 -1137.83 2140.9
-1235.58 -928.94 1739.3
-1189.44 -897.53 1680.5
-1176.27 -890.85 1668.0
-1180.52 -897.37 1680.2
-1187.87 -906.30 1697.0
-1195.69 -915.66 1714.5
-1185.14 -910.97 1705.7
-1165.77 -899.43 1684.1
-1127.76 -873.38 1635.3
-1099.79 -854.93 1600.8
-1115.35 -870.31 1629.6
-1147.81 -899.05 1683.4
-1156.94 -909.66 1703.2
-1152.15 -909.36 1702.7
-1159.62 -918.78 1720.3
-1144.60 -910.38 1704.6
-1109.31 -885.73 1658.4
-1082.81 -867.93 1625.1
-1106.45 -890.34 1667.1
-1159.14 -936.40 1753.3
-1138.67 -923.49 1729.1
-1112.77 -906.05 1696.5
-1136.94 -929.40 1740.2
-1153.95 -947.07 1773.3
-1143.05 -941.87 1763.6
-1143.55 -946.07 1771.4
-1152.41 -957.25 1792.3
-1129.22 -941.78 1763.4
-1133.10 -948.86 1776.6
-1149.64 -966.64 1809.9
-1145.58 -967.17 1810.9
-1156.56 -980.46 1835.8
-1157.96 -989.79 1853.3
-1138.54 -1149.71 2152.7
-1101.40 -1134.44 2124.1
-1117.13 -1156.43 2165.3
-1101.65 -1151.97 2157.0
-1089.22 -1144.79 2143.5
-1046.29 -1146.47 2146.6
-1044.66 -1175.96 2201.9
-1027.50 -1163.00 2177.6
-982.66 -1143.66 2141.4
-998.80 -1169.04 2188.9
-818.56 -1171.00 2192.6
-663.24 -1167.76 2186.5
-522.47 -1144.99 2143.9
-446.97 -1136.73 2128.4
-1257.54 -946.58 1763.8
-1235.16 -933.13 1738.7
-1209.16 -916.83 1708.4
-1181.16 -898.90 1675.0
-1171.70 -894.99 1667.7
-1169.62 -896.71 1670.9
-1167.53 -898.43 1674.1
-1161.76 -897.33 1672.0
-1147.15 -889.36 1657.2
-1126.87 -876.93 1634.0
-1115.49 -871.35 1623.6
-1118.60 -877.09 1634.3
-1139.18 -896.62 1670.7
-1146.26 -905.64 1687.5
-1138.43 -902.89 1682.4
-1143.38 -910.30 1696.2
-1128.41 -901.86 1680.5
-1107.41 -888.50 1655.6
-1095.10 -882.05 1643.6
-1069.72 -864.97 1611.7
-1070.63 -869.10 1619.4
-1106.13 -901.45 1679.7
-1139.90 -932.64 1737.8
-1122.54 -922.09 1718.2
-1095.82 -903.72 1684.0
-1103.93 -914.05 1703.2
-1122.85 -933.45 1739.3
-1156.40 -965.22 1798.6
-1163.19 -974.82 1816.4
-1150.30 -967.94 1803.6
-1147.23 -969.29 1806.1
-1127.11 -956.19 1781.7
-1119.69 -953.81 1777.3
-1137.94 -973.36 1813.7
-1143.01 -981.76 1829.4
-1129.75 -974.41 1815.7
-1140.98 -988.22 1841.4
-1155.22 -1072.34 1998.1
-1122.02 -1161.29 2163.9
-1111.17 -1155.84 2153.7
-1055.57 -1168.46 2177.3
-1024.19 -1139.83 2123.9
-1021.86 -1143.38 2130.5
-1037.32 -1166.98 2174.5
-1028.86 -1170.19 2180.5
-859.50 -1162.85 2166.8
-860.55 -1179.70 2198.2
-856.75 -1182.32 2203.1
-833.06 -1165.15 2171.1
-833.09 -1173.13 2186.0
-662.90 -1153.10 2148.6
-437.75 -1132.69 2110.6
-438.85 -1149.89 2142.7
-431.89 -1146.16 2135.7
-1223.60 -922.13 1710.0
-1189.06 -899.36 1667.8
-1168.46 -887.00 1644.9
-1175.43 -895.57 1660.7
-1176.54 -899.71 1668.4
-1163.42 -892.96 1655.9
-1156.64 -891.04 1652.3
-1162.95 -899.23 1667.5
-1166.59 -905.41 1679.0
-1150.41 -896.20 1661.9
-1128.58 -882.50 1636.5
-1114.61 -874.86 1622.3
-1114.10 -877.78 1627.7
-1130.56 -894.13 1658.1
-1135.09 -901.14 1671.1
-1106.31 -881.65 1634.9
-1090.42 -872.33 1617.7
-1106.14 -888.33 1647.3
-1116.66 -900.26 1669.4
-1105.86 -895.01 1659.7
-1081.97 -879.10 1630.2
-1074.29 -876.28 1625.0
-1099.22 -900.15 1669.2
-1128.47 -927.76 1720.4
-1109.17 -915.51 1697.7
-1074.55 -890.46 1651.3
-1070.82 -890.92 1652.1
-1073.02 -896.34 1662.2
-1088.47 -912.91 1692.9
-1117.55 -941.10 1745.2
-1129.29 -954.84 1770.7
-1135.06 -963.65 1787.0
-1125.69 -959.60 1779.5
-1097.92 -939.78 1742.7
-1092.04 -938.61 1740.6
-1127.61 -973.21 1804.7
-1148.03 -994.96 1845.0
-1121.84 -976.33 1810.5
-1110.58 -970.59 1799.9
-1123.15 -985.71 1827.9
-1128.01 -994.18 1843.6
-1139.89 -1008.93 1870.9
-1116.61 -1065.39 1975.6
-1052.95 -1177.49 2183.5
-1022.09 -1149.16 2131.0
-1010.43 -1142.22 2118.1
-980.15 -1171.67 2172.7
-872.62 -1178.60 2185.6
-867.57 -1179.44 2187.2
-866.44 -1185.66 2198.7
-671.92 -1174.46 2177.9
-660.68 -1164.59 2159.6
-656.49 -1167.09 2164.2
-648.17 -1162.24 2155.3
-630.19 -1170.35 2170.3
-502.40 -1148.35 2129.5
-495.09 -1144.22 2121.8
-477.67 -1142.01 2117.7
-479.32 -1159.28 2149.8
-449.31 -1153.78 2139.6
-449.15 -1167.79 2165.5
-1256.78 -948.26 1750.0
-1199.22 -908.10 1675.9
-1166.36 -886.43 1635.9
-1159.07 -884.11 1631.6
-1175.57 -899.98 1660.9
-1164.03 -894.42 1650.7
-1141.49 -880.34 1624.7
-1145.77 -886.91 1636.8
-1162.56 -903.25 1667.0
-1150.55 -897.26 1655.9
-1120.90 -877.41 1619.3
-1112.13 -873.82 1612.6
-1109.07 -874.70 1614.3
-1090.53 -863.34 1593.3
-1089.03 -865.43 1597.2
-1116.24 -890.43 1643.3
-1113.09 -891.33 1645.0
-1081.38 -869.27 1604.3
-1080.34 -871.78 1608.9
-1092.95 -885.38 1634.0
-1084.75 -882.15 1628.0
-1075.05 -877.67 1619.8
-1079.45 -884.72 1632.8
-1080.29 -888.90 1640.5
-1085.09 -896.38 1654.3
-1104.78 -916.27 1691.0
-1110.42 -924.61 1706.4
-1094.70 -915.17 1689.0
-1084.48 -910.27 1679.9
-1082.17 -911.99 1683.1
-1091.12 -923.25 1703.9
-1095.10 -930.39 1717.1
-1092.19 -931.71 1719.5
-1097.54 -940.11 1735.0
-1085.38 -933.51 1722.8
-1065.05 -919.81 1697.5
-1080.93 -937.40 1730.0
-1129.79 -983.86 1815.7
-1135.73 -993.17 1832.9
-1104.40 -969.83 1789.9
-1094.64 -965.31 1781.5
-1087.26 -962.87 1777.0
-1085.58 -965.47 1781.8
-1108.34 -989.92 1826.9
-1119.18 -1003.90 1852.7
-1119.64 -1008.64 1861.5
-1104.18 -1003.37 1851.7
-1067.09 -973.90 1797.4
-1068.96 -979.88 1808.4
-1101.11 -1013.80 1871.0
-1135.42 -1054.68 1946.4
-1160.98 -1083.23 1999.1
-1142.35 -1075.45 1984.8
-1104.05 -1044.11 1926.9
-1123.82 -1067.63 1970.3
-1135.37 -1083.52 1999.7
-1122.31 -1075.98 1985.7
-1105.27 -1079.44 1992.1
-1111.14 -1090.27 2012.1
-1088.91 -1149.41 2121.3
-1077.00 -1178.50 2174.9
-1045.35 -1174.61 2167.8
-1032.03 -1165.91 2151.7
-690.13 -1144.74 2112.6
-661.31 -1171.31 2161.7
-649.38 -1160.01 2140.8
-639.85 -1152.83 2127.6
-638.75 -1160.85 2142.4
-633.82 -1172.29 2163.5
-615.85 -1180.85 2179.3
-498.00 -1156.46 2134.3
-469.97 -1142.13 2107.8
-458.23 -1167.94 2155.5
-443.57 -1144.52 2112.2
-1230.73 -933.05 1713.8
-1188.71 -904.45 1661.2
-1181.90 -902.54 1657.7
-1195.75 -916.45 1683.3
-1185.74 -912.10 1675.3
-1152.59 -889.86 1634.4
-1119.06 -867.17 1592.8
-1112.92 -865.61 1589.9
-1129.25 -881.57 1619.2
-1118.38 -876.34 1609.6
-1095.60 -861.71 1582.7
-1091.04 -861.35 1582.1
-1097.34 -869.59 1597.2
-1088.63 -865.95 1590.5
-1070.18 -854.52 1569.5
-1079.99 -865.64 1590.0
-1083.59 -871.85 1601.4
-1059.12 -855.44 1571.2
-1053.05 -853.82 1568.2
-1060.16 -862.92 1585.0
-1059.12 -865.43 1589.6
-1057.56 -867.53 1593.4
-1061.00 -873.76 1604.9
-1060.88 -877.11 1611.0
-1074.22 -891.65 1637.7
-1103.88 -919.90 1689.6
-1122.41 -939.07 1724.8
-1119.03 -939.99 1726.5
-1089.01 -918.45 1686.9
-1065.54 -902.27 1657.2
-1082.38 -920.24 1690.2
-1095.66 -935.32 1717.9
-1081.54 -927.04 1702.7
-1074.29 -924.59 1698.2
-1081.57 -934.69 1716.8
-1081.53 -938.52 1723.8
-1080.51 -941.52 1729.3
-1107.27 -968.86 1779.5
-1136.21 -998.35 1833.7
-1133.02 -999.72 1836.2
-1117.93 -990.57 1819.4
-1104.34 -982.67 1804.9
-1097.40 -980.65 1801.2
-1112.10 -998.04 1833.1
-1124.33 -1013.34 1861.2
-1128.50 -1021.49 1876.2
-1117.62 -1020.44 1874.3
-1068.03 -979.42 1798.9
-1054.68 -971.42 1784.2
-1073.99 -993.56 1824.9
-1086.27 -1009.37 1853.9
-1081.10 -1009.02 1853.3
-1089.55 -1021.46 1876.1
-1106.51 -1042.01 1913.9
-1083.16 -1024.61 1881.9
-1068.48 -1015.30 1864.8
-1103.59 -1053.42 1934.9
-1116.98 -1071.07 1967.3
-1108.44 -1067.76 1961.2
-1120.74 -1084.59 1992.1
-1116.15 -1085.14 1993.1
-1112.86 -1086.98 1996.5
-1116.56 -1095.69 2012.5
-1102.01 -1157.11 2125.3
-1112.30 -1173.78 2155.9
-1085.87 -1151.68 2115.3
-1088.27 -1160.08 2130.8
-1055.06 -1172.28 2153.2
-1029.09 -1149.51 2111.4
-1026.02 -1152.22 2116.3
-1017.86 -1149.20 2110.8
-1031.85 -1171.29 2151.4
-956.06 -1174.11 2156.5
-696.42 -1169.99 2149.0
-657.79 -1170.64 2150.2
-650.27 -1167.14 2143.7
-642.01 -1162.26 2134.8
-634.67 -1179.48 2166.4
-1245.76 -948.94 1734.7
-1201.07 -918.21 1678.5
-1193.17 -915.49 1673.5
-1199.04 -923.35 1687.9
-1183.75 -914.91 1672.5
-1146.42 -889.32 1625.7
-1110.83 -864.89 1581.0
-1094.77 -855.55 1564.0
-1101.22 -863.78 1579.0
-1112.29 -875.72 1600.8
-1111.33 -878.25 1605.5
-1096.38 -869.69 1589.8
-1091.30 -868.92 1588.4
-1081.06 -864.03 1579.5
-1061.11 -851.31 1556.2
-1077.07 -867.41 1585.7
-1086.80 -878.60 1606.1
-1054.19 -855.52 1563.9
-1038.49 -846.03 1546.6
-1047.15 -856.39 1565.5
-1048.67 -860.97 1573.9
-1052.17 -867.22 1585.3
-1060.63 -877.62 1604.3
-1061.02 -881.40 1611.2
-1075.84 -897.24 1640.2
-1084.07 -907.70 1659.3
-1080.83 -908.59 1660.9
-1094.39 -923.66 1688.5
-1082.69 -917.46 1677.2
-1049.43 -892.86 1632.2
-1055.03 -901.26 1647.5
-1084.98 -930.61 1701.2
-1089.89 -938.64 1715.9
-1068.54 -924.02 1689.1
-1061.80 -921.98 1685.4
-1079.18 -940.94 1720.1
-1095.94 -959.52 1754.0
-1101.55 -968.44 1770.3
-1109.95 -979.91 1791.3
-1124.45 -996.88 1822.3
-1129.33 -1005.44 1838.0
-1108.13 -990.74 1811.1
-1095.05 -983.22 1797.4
-1113.51 -1004.06 1835.4
-1129.93 -1023.24 1870.5
-1123.01 -1034.74 1891.5
-1080.02 -999.49 1827.1
-1068.02 -992.74 1814.8
-1075.28 -1003.91 1835.2
-1067.41 -1000.99 1829.8
-1084.98 -1022.01 1868.3
-1111.97 -1056.88 1932.0
-1122.35 -1071.56 1958.8
-1124.55 -1078.55 1971.6
-1106.64 -1066.21 1949.1
-1101.25 -1065.89 1948.5
-1114.89 -1084.07 1981.7
-1109.88 -1084.18 1981.9
-1104.41 -1083.87 1981.3
-1095.89 -1080.52 1975.2
-1084.76 -1074.58 1964.4
-1098.88 -1093.69 1999.3
-1090.77 -1090.77 1994.0
-1063.29 -1068.35 1953.0
-1060.02 -1070.16 1956.3
-1067.00 -1082.39 1978.6
-1126.90 -1154.25 2110.0
-1125.37 -1158.30 2117.4
-1120.10 -1164.24 2128.3
-1096.88 -1157.20 2115.4
-1108.30 -1181.06 2159.0
-1023.37 -1199.62 2192.9
-975.46 -1189.72 2174.8
-833.02 -1195.69 2185.8
-669.54 -1157.97 2116.8
-646.31 -1196.24 2186.8
-524.00 -1163.83 2127.5
-485.95 -1165.18 2130.0
-484.71 -1175.57 2149.0
-452.08 -1149.27 2100.9
-442.79 -1139.36 2082.8
-405.77 -1141.56 2086.8
-1260.31 -954.23 1736.1
-1242.11 -943.82 1717.2
-1256.55 -958.23 1743.4
-1232.01 -942.91 1715.5
-1191.63 -915.31 1665.3
-1170.51 -902.36 1641.8
-1165.33 -901.64 1640.5
-1148.03 -891.51 1622.0
-1111.34 -866.19 1576.0
-1108.38 -867.07 1577.6
-1122.66 -881.50 1603.8
-1103.47 -869.65 1582.2
-1089.56 -861.89 1568.1
-1084.00 -860.70 1566.0
-1065.51 -849.20 1545.0
-1063.60 -850.88 1548.1
-1056.02 -848.02 1542.9
-1040.76 -838.94 1526.4
-1061.37 -858.82 1562.5
-1088.47 -884.12 1608.6
-1073.68 -875.46 1592.8
-1051.34 -860.56 1565.7
-1052.37 -864.74 1573.3
-1063.45 -877.24 1596.1
-1076.45 -891.43 1621.9
-1068.29 -888.14 1615.9
-1052.65 -878.59 1598.5
-1071.96 -898.25 1634.3
-1085.67 -913.34 1661.7
-1065.57 -900.01 1637.5
-1063.85 -902.14 1641.4
-1070.97 -911.83 1659.0
-1057.89 -904.32 1645.3
-1057.58 -907.72 1651.5
-1079.69 -930.46 1692.9
-1086.55 -940.20 1710.6
-1069.10 -928.89 1690.0
-1060.91 -925.57 1684.0
-1075.39 -942.08 1714.0
-1085.42 -954.81 1737.2
-1084.34 -957.84 1742.7
-1075.61 -954.09 1735.9
-1073.08 -955.85 1739.1
-1082.86 -968.63 1762.3
-1071.75 -962.76 1751.6
-1055.50 -952.20 1732.4
-1069.84 -969.26 1763.5
-1087.79 -989.75 1800.8
-1090.20 -996.22 1812.5
-1094.88 -1004.83 1828.2
-1105.98 -1019.43 1854.8
-1100.35 -1018.67 1853.4
-1071.27 -996.09 1812.3
-1051.52 -982.03 1786.7
-1051.05 -985.94 1793.8
-1060.11 -998.86 1817.3
-1091.75 -1033.26 1879.9
-1123.12 -1067.72 1942.6
-1133.52 -1082.46 1969.4
-1130.79 -1084.74 1973.6
-1121.78 -1080.99 1966.8
-1111.01 -1075.50 1956.8
-1113.16 -1082.52 1969.5
-1102.86 -1077.45 1960.3
-1073.65 -1053.77 1917.2
-1057.79 -1043.03 1897.7
-1039.82 -1030.10 1874.2
-1038.50 -1033.62 1880.6
-1061.02 -1061.02 1930.4
-1075.10 -1080.20 1965.3
-1073.11 -1083.33 1971.0
-1086.10 -1101.69 2004.4
-1102.91 -1163.27 2116.5
-1062.50 -1155.13 2101.6
-1072.46 -1171.96 2132.3
-1061.00 -1165.45 2120.4
-1063.69 -1180.64 2148.1
-1029.16 -1160.54 2111.5
-871.93 -1184.93 2155.9
-875.60 -1197.59 2178.9
-849.43 -1169.34 2127.5
-841.72 -1197.62 2179.0
-706.40 -1179.19 2145.4
-661.89 -1189.15 2163.6
-657.42 -1191.22 2167.3
-516.49 -1152.58 2097.0
-513.94 -1171.56 2131.5
-492.33 -1172.73 2133.7
-480.93 -1158.60 2108.0
-470.24 -1145.88 2084.8
-475.97 -1173.32 2134.7
-446.97 -1141.66 2077.2
-421.99 -1177.12 2141.7
-409.54 -1157.62 2106.2
-1236.71 -937.44 1697.6
-1214.81 -924.12 1673.5
-1229.90 -938.96 1700.3
-1223.55 -937.47 1697.6
-1183.14 -909.78 1647.5
-1160.96 -895.96 1622.5
-1152.11 -892.36 1616.0
-1141.17 -887.12 1606.4
-1119.20 -873.22 1581.3
-1094.17 -856.84 1551.6
-1101.74 -865.94 1568.1
-1121.25 -884.54 1601.8
-1108.32 -877.59 1589.2
-1093.37 -868.98 1573.6
-1086.24 -866.55 1569.2
-1059.48 -848.38 1536.3
-1048.31 -842.61 1525.8
-1049.52 -846.77 1533.4
-1044.02 -845.54 1531.2
-1048.25 -852.20 1543.2
-1059.05 -864.28 1565.1
-1061.12 -869.30 1574.2
-1055.05 -867.67 1571.2
-1050.50 -867.27 1570.5
-1056.53 -875.65 1585.7
-1060.49 -882.36 1597.8
-1042.37 -870.68 1576.7
-1041.30 -873.21 1581.3
-1075.06 -905.09 1639.0
-1076.83 -910.18 1648.2
-1045.88 -887.54 1607.2
-1053.10 -897.24 1624.8
-1070.57 -915.79 1658.4
-1059.46 -909.94 1647.8
-1060.61 -914.62 1656.2
-1075.86 -931.54 1686.9
-1075.92 -935.40 1693.9
-1069.17 -933.34 1690.1
-1071.13 -938.89 1700.2
-1065.82 -938.10 1698.8
-1054.75 -932.21 1688.1
-1071.95 -951.35 1722.8
-1083.28 -965.43 1748.3
-1071.69 -959.12 1736.8
-1071.99 -963.43 1744.6
-1076.03 -971.16 1758.6
-1074.84 -974.21 1764.2
-1068.46 -972.57 1761.2
-1065.36 -973.91 1763.6
-1062.24 -975.25 1766.0
-1062.37 -979.59 1773.9
-1074.49 -995.07 1801.9
-1070.81 -996.00 1803.6
-1043.69 -975.03 1765.6
-1026.79 -963.47 1744.7
-1039.64 -979.84 1774.4
-1061.92 -1005.28 1820.4
-1069.05 -1016.55 1840.8
-1074.28 -1026.10 1858.1
-1074.49 -1030.93 1866.9
-1064.79 -1026.25 1858.4
-1085.96 -1051.40 1903.9
-1104.25 -1074.00 1944.9
-1085.57 -1060.67 1920.7
-1053.73 -1034.31 1873.0
-1022.97 -1008.76 1826.7
-1007.30 -997.93 1807.1
-1025.79 -1021.00 1848.9
-1059.77 -1059.77 1919.1
-1046.20 -1051.13 1903.5
-1024.05 -1033.75 1872.0
-1042.46 -1057.36 1914.7
-1073.56 -1094.10 1981.3
-1031.39 -1071.63 1940.6
-1015.48 -1060.28 1920.0
-1016.82 -1066.90 1932.0
-1028.93 -1084.96 1964.7
-1041.83 -1155.77 2093.0
-1023.49 -1159.60 2099.9
-1016.06 -1195.69 2165.2
-949.75 -1155.98 2093.3
-877.42 -1198.02 2169.5
-851.84 -1170.60 2119.8
-838.76 -1167.69 2114.5
-720.43 -1171.39 2121.2
-719.34 -1178.60 2134.3
-700.47 -1156.60 2094.4
-659.13 -1179.79 2136.4
-652.67 -1178.13 2133.4
-657.77 -1197.49 2168.5
-484.54 -1172.80 2123.8
-461.80 -1157.22 2095.6
-425.20 -1176.20 2129.9
-410.32 -1149.97 2082.4
-403.56 -1146.12 2075.5
-1260.46 -959.92 1730.2
-1226.18 -937.15 1689.1
-1216.11 -932.79 1681.3
-1189.53 -915.68 1650.4
-1173.70 -906.76 1634.3
-1170.66 -907.68 1636.0
-1164.43 -906.14 1633.2
-1156.10 -902.94 1627.5
-1141.47 -894.78 1612.8
-1123.22 -883.71 1592.8
-1126.51 -889.57 1603.4
-1142.28 -905.36 1631.8
-1103.27 -877.70 1582.0
-1064.97 -850.39 1532.7
-1077.08 -863.28 1556.0
-1069.47 -860.40 1550.8
-1062.40 -857.94 1546.4
-1067.16 -865.04 1559.2
-1062.64 -864.66 1558.5
-1068.85 -873.03 1573.5
-1071.43 -878.49 1583.4
-1065.33 -876.85 1580.4
-1058.74 -874.79 1576.7
-1052.67 -873.15 1573.8
-1053.15 -876.94 1580.6
-1052.09 -879.49 1585.2
-1046.01 -877.83 1582.2
-1056.41 -890.04 1604.2
-1080.15 -913.64 1646.8
-1073.46 -911.59 1643.0
-1056.89 -901.09 1624.1
-1076.38 -921.38 1660.7
-1091.31 -937.91 1690.5
-1079.65 -931.63 1679.2
-1071.45 -928.30 1673.2
-1077.40 -937.25 1689.3
-1082.31 -945.36 1703.9
-1079.41 -946.69 1706.3
-1072.64 -944.63 1702.6
-1057.22 -934.90 1685.1
-1051.94 -934.09 1683.6
-1073.91 -957.57 1725.9
-1079.50 -966.58 1742.2
-1062.23 -955.12 1721.5
-1077.23 -972.69 1753.2
-1096.34 -994.14 1791.8
-1082.85 -986.09 1777.3
-1063.79 -972.87 1753.5
-1049.03 -963.49 1736.6
-1034.33 -954.08 1719.6
-1048.00 -970.87 1749.9
-1073.10 -998.45 1799.6
-1071.27 -1001.10 1804.4
-1046.92 -982.63 1771.1
-1014.00 -955.93 1723.0
-1009.10 -955.52 1722.2
-1037.82 -987.08 1779.1
-1053.62 -1006.59 1814.3
-1054.84 -1012.27 1824.5
-1050.62 -1012.76 1825.4
-1033.85 -1001.10 1804.4
-1046.62 -1018.07 1835.0
-1068.15 -1043.76 1881.3
-1054.04 -1034.70 1864.9
-1060.30 -1045.64 1884.7
-1068.24 -1058.35 1907.6
-1043.21 -1038.36 1871.5
-1049.33 -1049.33 1891.3
-1061.01 -1065.99 1921.3
-1027.50 -1037.20 1869.4
-1014.50 -1028.92 1854.5
-1037.23 -1056.99 1905.1
-1021.21 -1045.64 1884.7
-1001.86 -1030.76 1857.8
-1020.01 -1054.50 1900.6
-1016.39 -1055.86 1903.1
-1018.65 -1063.37 1916.6
-1026.31 -1076.62 1940.5
-1015.06 -1070.06 1928.7
-1012.59 -1072.75 1933.5
-999.73 -1064.39 1918.5
-987.76 -1056.91 1905.0
-1003.40 -1079.04 1944.9
-1010.67 -1092.34 1968.8
-1017.84 -1105.67 1992.9
-1001.21 -1177.24 2121.9
-1020.42 -1206.46 2174.5
-939.39 -1155.34 2082.4
-953.88 -1193.74 2151.6
-651.43 -1171.47 2111.5
-650.45 -1179.64 2126.2
-642.74 -1175.61 2118.9
-640.79 -1192.42 2149.2
-474.28 -1166.62 2102.7
-453.26 -1182.90 2132.1
-425.43 -1138.03 2051.2
-431.91 -1170.00 2108.8
-425.74 -1168.07 2105.3
-406.65 -1160.32 2091.4
-1260.01 -964.07 1729.6
-1201.12 -922.29 1654.6
-1169.75 -901.42 1617.2
-1169.41 -904.40 1622.5
-1175.96 -912.75 1637.5
-1168.67 -910.38 1633.2
-1158.75 -905.93 1625.3
-1153.07 -904.78 1623.2
-1140.56 -898.25 1611.5
-1130.72 -893.77 1603.4
-1140.25 -904.63 1622.9
-1143.45 -910.53 1633.5
-1096.14 -876.10 1571.7
-1043.36 -837.02 1501.6
-1037.92 -835.78 1499.4
-1051.07 -849.55 1524.1
-1064.12 -863.34 1548.8
-1078.09 -877.99 1575.1
-1082.75 -885.14 1588.0
-1074.61 -881.84 1582.0
-1063.43 -876.01 1571.6
-1044.68 -863.87 1549.8
-1025.50 -851.28 1527.2
-1043.23 -869.36 1559.6
-1065.87 -891.68 1599.7
-1071.79 -900.14 1614.9
-1072.15 -903.97 1621.7
-1061.02 -898.11 1611.2
-1064.34 -904.48 1622.6
-1070.58 -913.39 1638.6
-1068.36 -915.13 1641.8
-1078.93 -927.88 1664.6
-1084.01 -935.99 1679.2
-1077.77 -934.35 1676.2
-1075.43 -936.11 1679.4
-1078.44 -942.54 1690.9
-1078.97 -946.85 1698.7
-1076.56 -948.61 1701.8
-1069.80 -946.53 1698.1
-1066.90 -947.87 1700.5
-1073.57 -957.75 1718.2
-1076.81 -964.65 1730.6
-1062.87 -956.14 1715.3
-1041.40 -940.76 1687.7
-1051.72 -954.09 1711.7
-1062.88 -968.30 1737.2
-1043.40 -954.60 1712.6
-1049.30 -964.10 1729.6
-1059.79 -977.92 1754.4
-1054.37 -977.11 1753.0
-1075.37 -1000.89 1795.6
-1077.71 -1007.43 1807.3
-1053.31 -988.91 1774.1
-1053.81 -993.72 1782.8
-1045.12 -989.87 1775.9
-1024.16 -974.32 1747.9
-1034.64 -988.66 1773.7
-1061.75 -1019.09 1828.3
-1076.91 -1038.27 1862.7
-1058.68 -1025.30 1839.4
-1029.36 -1001.41 1796.6
-1044.36 -1020.62 1831.0
-1067.65 -1048.15 1880.4
-1042.93 -1028.57 1845.3
-1038.63 -1029.06 1846.2
-1056.30 -1051.41 1886.3
-1044.04 -1044.04 1873.0
-1049.70 -1054.60 1892.0
-1059.62 -1069.57 1918.8
-1040.87 -1055.60 1893.8
-1039.03 -1058.73 1899.4
-1039.74 -1064.49 1909.7
-1006.18 -1035.06 1856.9
-974.54 -1007.34 1807.2
-975.37 -1013.07 1817.5
-992.64 -1036.01 1858.6
-1016.89 -1066.49 1913.3
-1015.74 -1070.51 1920.5
-997.85 -1056.83 1896.0
-1000.44 -1064.82 1910.3
-995.09 -1064.40 1909.6
-976.14 -1049.35 1882.5
-979.07 -1057.78 1897.7
-991.75 -1076.90 1932.0
-1003.87 -1095.59 1965.5
-981.22 -1152.80 2068.1
-971.49 -1200.40 2153.5
-859.78 -1192.60 2139.6
-853.52 -1191.61 2137.8
-670.28 -1200.91 2154.5
-653.36 -1180.44 2117.7
-657.27 -1197.57 2148.5
-631.16 -1190.34 2135.5
-508.20 -1174.87 2107.7
-508.27 -1187.80 2130.9
-488.44 -1154.00 2070.3
-489.87 -1170.26 2099.5
-450.35 -1166.58 2092.9
-438.90 -1150.78 2064.5
-438.78 -1164.66 2089.4
-435.32 -1169.91 2098.8
-402.93 -1170.69 2100.2
-1254.06 -957.16 1709.2
-1233.17 -944.55 1686.7
-1223.08 -940.16 1678.9
-1202.85 -927.92 1657.0
-1164.02 -901.18 1609.2
-1154.65 -897.14 1602.0
-1156.98 -902.19 1611.1
-1143.91 -895.23 1598.6
-1134.06 -890.75 1590.6
-1128.44 -889.58 1588.5
-1122.84 -888.40 1586.4
-1119.86 -889.30 1588.0
-1097.53 -874.78 1562.1
-1071.65 -857.32 1530.9
-1072.39 -861.10 1537.7
-1065.33 -858.62 1533.3
-1044.32 -844.84 1508.7
-1041.97 -846.11 1510.9
-1071.99 -873.77 1560.3
-1101.83 -901.49 1609.8
-1079.83 -886.85 1583.7
-1044.16 -860.83 1537.2
-1055.95 -873.89 1560.5
-1060.04 -880.65 1572.6
-1027.18 -856.65 1529.7
-1030.78 -862.98 1541.0
-1059.96 -890.86 1590.8
-1069.90 -902.73 1612.0
-1069.27 -905.73 1617.4
-1057.65 -899.42 1606.1
-1057.99 -903.26 1613.0
-1062.26 -910.51 1625.9
-1049.70 -903.32 1613.1
-1050.47 -907.60 1620.7
-1057.09 -917.00 1637.5
-1051.42 -915.75 1635.3
-1045.75 -914.50 1633.0
-1043.49 -916.24 1636.1
-1063.52 -937.63 1674.3
-1081.45 -957.35 1709.6
-1072.27 -953.13 1702.0
-1067.44 -952.75 1701.3
-1053.51 -944.22 1686.1
-1036.77 -933.10 1666.2
-1045.80 -945.16 1687.8
-1050.46 -953.36 1702.4
-1043.26 -950.82 1697.9
-1037.95 -949.99 1696.4
-1046.26 -961.67 1717.3
-1080.67 -997.55 1781.3
-1099.91 -1019.66 1820.8
-1103.18 -1027.10 1834.1
-1084.63 -1014.20 1811.1
-1047.24 -983.50 1756.2
-1046.87 -987.44 1763.3
-1071.68 -1015.28 1813.0
-1069.33 -1017.52 1817.0
-1056.04 -1009.31 1802.3
-1054.60 -1012.42 1807.9
-1070.31 -1032.08 1843.0
-1071.46 -1037.82 1853.3
-1041.14 -1013.00 1808.9
-1021.29 -998.19 1782.5
-1042.54 -1023.59 1827.8
-1059.16 -1044.65 1865.4
-1031.83 -1022.36 1825.6
-1015.68 -1011.00 1805.4
-1020.24 -1020.24 1821.9
-1015.11 -1019.83 1821.1
-1027.85 -1037.45 1852.6
-1061.71 -1076.67 1922.6
-1067.61 -1087.75 1942.4
-1035.51 -1060.05 1892.9
-1006.19 -1034.94 1848.1
-1008.69 -1042.47 1861.6
-1012.83 -1051.78 1878.2
-992.72 -1035.88 1849.8
-988.36 -1036.34 1850.6
-1004.61 -1058.51 1890.2
-998.05 -1056.76 1887.1
-987.76 -1051.01 1876.8
-996.62 -1065.69 1903.0
-983.42 -1056.81 1887.2
-958.34 -1035.01 1848.2
-979.40 -1063.07 1898.3
-1009.64 -1101.42 1966.8
-1005.79 -1102.80 1969.3
-1003.55 -1105.96 1974.9
-1001.69 -1109.56 1981.4
-1005.82 -1119.89 1999.8
-1010.99 -1186.82 2119.3
-1017.78 -1201.31 2145.2
-968.49 -1216.25 2171.9
-931.49 -1176.62 2101.1
-913.82 -1161.09 2073.4
-868.79 -1195.27 2134.4
-862.54 -1194.28 2132.6
-852.87 -1211.97 2164.2
-728.89 -1183.75 2113.8
-730.18 -1203.96 2149.9
-681.12 -1186.47 2118.7
-657.88 -1164.78 2080.0
-648.98 -1208.45 2157.9
-630.40 -1184.06 2114.4
-607.85 -1182.84 2112.2
-618.87 -1215.24 2170.1
-600.66 -1201.33 2145.2
-589.50 -1212.69 2165.5
-573.64 -1202.97 2148.2
-553.34 -1195.22 2134.3
-507.66 -1179.09 2105.5
-504.47 -1184.41 2115.0
-486.31 -1154.31 2061.3
-456.79 -1174.60 2097.5
-445.45 -1159.23 2070.1
-448.65 -1181.81 2110.4
-1247.69 -956.71 1700.5
-1237.03 -951.90 1692.0
-1235.52 -954.12 1695.9
-1198.16 -928.57 1650.5
-1145.50 -890.95 1583.6
-1131.92 -883.55 1570.5
-1129.53 -884.87 1572.8
-1122.36 -882.44 1568.5
-1116.26 -880.83 1565.7
-1112.80 -881.31 1566.5
-1109.86 -882.20 1568.1
-1113.20 -888.10 1578.6
-1098.21 -879.38 1563.1
-1083.28 -870.64 1547.5
-1095.42 -883.66 1570.7
-1088.29 -881.19 1566.3
-1068.27 -868.22 1543.2
-1049.36 -856.06 1521.6
-1063.41 -870.80 1547.8
-1094.78 -899.88 1599.5
-1073.84 -886.02 1574.9
-1049.42 -869.17 1544.9
-1071.85 -891.15 1584.0
-1088.55 -908.52 1614.9
-1070.79 -897.15 1594.7
-1046.05 -879.81 1563.9
-1044.02 -881.53 1566.9
-1047.99 -888.33 1579.0
-1041.92 -886.65 1576.0
-1045.32 -893.05 1587.4
-1061.57 -910.52 1618.4
-1083.64 -933.14 1658.6
-1088.78 -941.29 1673.1
-1065.82 -925.13 1644.4
-1048.36 -913.63 1624.0
-1046.14 -915.37 1627.1
-1043.41 -916.68 1629.4
-1024.64 -903.84 1606.6
-1026.78 -909.43 1616.5
-1064.12 -946.37 1682.2
-1076.17 -961.03 1708.2
-1060.29 -950.76 1690.0
-1035.87 -932.71 1657.9
-1029.21 -930.58 1654.1
-1046.80 -950.44 1689.4
-1040.09 -948.32 1685.6
-1023.01 -936.68 1664.9
-1039.88 -956.16 1699.6
-1069.74 -987.80 1755.8
-1083.01 -1004.33 1785.2
-1081.72 -1007.44 1790.7
-1079.01 -1009.24 1793.9
-1055.00 -991.06 1761.6
-1043.56 -984.58 1750.1
-1067.56 -1011.62 1798.1
-1081.74 -1029.55 1830.0
-1071.59 -1024.39 1820.8
-1052.84 -1010.91 1796.9
-1046.42 -1009.22 1793.9
-1049.50 -1016.70 1807.2
-1038.11 -1010.18 1795.6
-1041.12 -1017.67 1808.9
-1053.45 -1034.38 1838.6
-1039.84 -1025.66 1823.1
-1022.29 -1012.96 1800.5
-1019.86 -1015.19 1804.5
-1026.66 -1026.66 1824.9
-1029.42 -1034.19 1838.3
-1022.51 -1032.02 1834.4
-1014.74 -1028.96 1829.0
-1027.37 -1046.66 1860.4
-1039.00 -1063.50 1890.4
-1014.78 -1043.64 1855.0
-1001.43 -1034.81 1839.4
-1017.60 -1056.55 1878.0
-1007.23 -1050.81 1867.8
-975.30 -1022.41 1817.3
-969.74 -1021.52 1815.7
-983.52 -1041.09 1850.5
-1000.49 -1064.25 1891.7
-1013.95 -1083.88 1926.6
-999.86 -1074.10 1909.2
-965.98 -1042.88 1853.7
-953.76 -1034.83 1839.4
-984.24 -1073.27 1907.7
-1002.99 -1099.24 1953.9
-988.60 -1088.96 1935.6
-986.43 -1092.12 1941.2
-983.42 -1094.38 1945.2
-985.62 -1102.47 1959.6
-1000.14 -1124.51 1998.8
-992.50 -1203.20 2138.7
-956.01 -1165.47 2071.6
-950.23 -1191.91 2118.6
-943.29 -1190.08 2115.4
-925.55 -1174.52 2087.7
-937.68 -1196.93 2127.5
-879.42 -1200.22 2133.4
-874.18 -1200.62 2134.1
-866.36 -1212.90 2155.9
-840.34 -1184.11 2104.7
-833.51 -1182.16 2101.3
-723.19 -1197.96 2129.4
-679.34 -1188.85 2113.2
-661.72 -1177.00 2092.1
-649.83 -1215.63 2160.8
-644.59 -1216.30 2162.0
-514.20 -1174.54 2087.7
-1259.01 -966.42 1709.9
-1259.63 -970.31 1716.8
-1223.83 -949.45 1679.9
-1151.27 -896.34 1585.9
-1118.48 -873.94 1546.3
-1121.46 -879.42 1556.0
-1111.67 -874.88 1548.0
-1097.14 -866.58 1533.3
-1105.88 -876.66 1551.1
-1115.59 -887.59 1570.4
-1106.87 -883.88 1563.9
-1104.45 -885.19 1566.2
-1113.50 -895.73 1584.8
-1122.48 -906.29 1603.5
-1113.73 -902.58 1597.0
-1086.89 -884.11 1564.3
-1089.08 -889.21 1573.3
-1092.78 -895.58 1584.6
-1073.84 -883.38 1563.0
-1072.90 -885.95 1567.5
-1083.68 -898.26 1589.3
-1090.80 -907.62 1605.9
-1077.56 -900.03 1592.5
-1058.30 -887.34 1570.0
-1064.85 -896.29 1585.8
-1065.81 -900.57 1593.4
-1053.69 -893.79 1581.4
-1047.62 -892.11 1578.4
-1033.07 -883.17 1562.6
-1028.53 -882.76 1561.9
-1055.23 -909.25 1608.8
-1087.18 -940.50 1664.1
-1090.82 -947.41 1676.3
-1065.90 -929.47 1644.5
-1050.42 -919.64 1627.2
-1050.14 -923.10 1633.3
-1051.29 -927.86 1641.7
-1036.87 -918.86 1625.8
-1032.68 -918.87 1625.8
-1063.70 -950.35 1681.5
-1067.08 -957.30 1693.8
-1042.13 -938.78 1661.0
-1022.08 -924.54 1635.8
-1018.33 -924.98 1636.6
-1041.63 -950.11 1681.1
-1037.78 -950.57 1681.9
-1032.50 -949.73 1680.4
-1060.14 -979.28 1732.7
-1062.26 -985.41 1743.5
-1046.58 -975.02 1725.1
-1049.13 -981.59 1736.8
-1050.70 -987.30 1746.9
-1057.77 -998.25 1766.2
-1076.75 -1020.57 1805.7
-1098.31 -1045.55 1849.9
-1072.93 -1030.39 1823.1
-1031.01 -994.52 1759.6
-1028.75 -996.74 1763.6
-1035.03 -1007.31 1782.3
-1043.04 -1019.65 1804.1
-1064.39 -1045.21 1849.3
-1069.48 -1054.96 1866.6
-1049.14 -1039.60 1839.4
-1033.35 -1028.63 1820.0
-1031.32 -1031.32 1824.7
-1023.98 -1028.70 1820.1
-1013.16 -1022.54 1809.2
-1009.80 -1023.89 1811.6
-1005.56 -1024.36 1812.4
-1006.94 -1030.58 1823.4
-1007.85 -1036.37 1833.7
-1001.39 -1034.62 1830.6
-1004.80 -1043.08 1845.6
-1001.74 -1044.88 1848.7
-975.29 -1022.18 1808.6
-962.56 -1013.71 1793.6
-973.07 -1029.75 1822.0
-986.82 -1049.40 1856.7
-1003.76 -1072.65 1897.9
-1012.61 -1087.43 1924.0
-995.62 -1074.48 1901.1
-979.55 -1062.40 1879.7
-984.97 -1073.62 1899.6
-993.57 -1088.44 1925.8
-990.23 -1090.25 1929.0
-973.46 -1077.23 1906.0
-965.69 -1074.08 1900.4
-969.62 -1083.99 1917.9
-978.69 -1099.76 1945.8
-983.23 -1110.60 1965.0
-980.93 -1113.77 1970.6
-981.38 -1120.11 1981.8
-974.28 -1117.86 1977.9
-987.99 -1139.59 2016.3
-998.03 -1202.05 2126.8
-987.28 -1195.70 2115.6
-985.93 -1200.75 2124.5
-977.46 -1197.12 2118.1
-952.33 -1172.92 2075.3
-962.78 -1213.21 2146.6
-914.15 -1158.64 2050.0
-916.36 -1175.10 2079.1
-889.01 -1203.76 2129.8
-877.34 -1195.37 2115.0
-880.25 -1206.88 2135.4
-837.25 -1192.95 2110.7
-840.79 -1205.87 2133.6
-805.82 -1219.92 2158.4
-689.97 -1184.36 2095.5
-697.80 -1207.31 2136.1
-669.48 -1176.99 2082.5
-643.66 -1220.16 2158.9
-638.91 -1221.78 2161.7
-633.90 -1222.92 2163.8
-601.30 -1202.60 2127.8
-513.44 -1178.22 2084.7
-467.36 -1157.78 2048.5
-465.33 -1166.00 2063.0
-1256.15 -961.88 1694.1
-1219.53 -937.11 1650.5
-1214.34 -936.41 1649.3
-1234.97 -955.68 1683.2
-1227.57 -953.32 1679.0
-1174.16 -915.09 1611.7
-1155.69 -903.92 1592.0
-1167.64 -916.54 1614.3
-1145.52 -902.41 1589.4
-1114.48 -881.13 1551.9
-1111.06 -881.60 1552.7
-1127.12 -897.60 1580.9
-1124.68 -898.92 1583.2
-1105.98 -887.22 1562.6
-1107.74 -891.90 1570.9
-1119.38 -904.59 1593.2
-1115.33 -904.65 1593.3
-1094.16 -890.78 1568.9
-1057.05 -863.78 1521.3
-1049.00 -860.41 1515.4
-1078.00 -887.52 1563.2
-1085.27 -896.88 1579.6
-1081.22 -896.92 1579.7
-1089.42 -907.16 1597.7
-1106.18 -924.63 1628.5
-1101.02 -923.84 1627.1
-1070.57 -901.75 1588.2
-1065.99 -901.36 1587.5
-1074.98 -912.49 1607.1
-1072.37 -913.81 1609.4
-1074.74 -919.40 1619.3
-1070.09 -919.02 1618.6
-1046.06 -901.92 1588.5
-1053.36 -911.80 1605.9
-1077.87 -936.72 1649.8
-1075.13 -938.06 1652.2
-1071.88 -938.97 1653.8
-1078.90 -948.91 1671.3
-1059.50 -935.60 1647.8
-1042.13 -923.99 1627.4
-1051.51 -936.10 1648.7
-1072.41 -958.61 1688.3
-1083.03 -972.07 1712.1
-1066.17 -960.87 1692.3
-1028.30 -930.57 1639.0
-1027.93 -941.91 1658.9
-1034.04 -951.49 1675.8
-1037.26 -958.48 1688.1
-1060.16 -983.79 1732.7
-1057.59 -985.58 1735.9
-1038.67 -972.09 1712.1
-1037.52 -975.18 1717.5
-1042.37 -983.96 1733.0
-1052.23 -997.57 1757.0
-1052.33 -1002.00 1764.8
-1054.68 -1008.62 1776.4
-1074.81 -1032.38 1818.3
-1049.66 -1012.67 1783.6
-1027.83 -996.00 1754.2
-1044.12 -1016.28 1789.9
-1045.84 -1022.49 1800.9
-1049.30 -1030.48 1814.9
-1063.44 -1049.07 1847.7
-1062.28 -1052.67 1854.0
-1037.99 -1033.27 1819.8
-1017.81 -1017.81 1792.6
-1007.46 -1012.08 1782.5
-993.18 -1002.34 1765.4
-1001.30 -1015.21 1788.0
-1015.44 -1034.33 1821.7
-1005.52 -1029.02 1812.4
-1002.14 -1030.37 1814.7
-998.74 -1031.72 1817.1
-988.46 -1025.94 1806.9
-990.20 -1032.63 1818.7
-985.06 -1032.19 1818.0
-985.87 -1038.01 1828.2
-998.47 -1056.35 1860.5
-998.30 -1061.30 1869.2
-1001.44 -1069.83 1884.2
-1004.93 -1078.82 1900.1
-999.61 -1078.40 1899.3
-994.29 -1077.97 1898.6
-991.03 -1079.78 1901.8
-999.27 -1094.20 1927.2
-1011.49 -1113.14 1960.5
-1003.17 -1109.57 1954.2
-982.71 -1092.45 1924.1
-964.39 -1077.56 1897.8
-955.84 -1073.48 1890.7
-968.16 -1092.92 1924.9
-977.53 -1109.21 1953.6
-956.58 -1091.10 1921.7
-933.00 -1069.77 1884.1
-945.02 -1089.26 1918.5
-976.48 -1131.48 1992.8
-1001.76 -1166.95 2055.3
-1021.71 -1196.55 2107.4
-1012.43 -1192.05 2099.5
-1004.33 -1188.91 2094.0
-994.58 -1196.78 2107.8
-996.70 -1205.95 2124.0
-970.54 -1180.82 2079.7
-955.05 -1168.47 2058.0
-952.69 -1172.13 2064.4
-932.14 -1153.33 2031.3
-907.96 -1169.66 2060.1
-913.98 -1184.38 2086.0
-877.91 -1186.81 2090.3
-865.62 -1184.81 2086.8
-883.77 -1217.27 2143.9
-812.77 -1178.79 2076.1
-724.65 -1193.23 2101.6
-689.81 -1189.52 2095.0
-687.80 -1195.45 2105.5
-672.97 -1179.05 2076.6
-650.15 -1196.49 2107.3
-631.53 -1213.20 2136.7
-475.03 -1182.19 2082.1
-457.78 -1165.74 2053.2
-449.82 -1158.96 2041.2
-419.34 -1208.36 2128.2
-1254.08 -964.68 1691.3
-1230.99 -950.24 1666.0
-1238.16 -959.14 1681.6
-1207.12 -938.39 1645.2
-1159.05 -904.22 1585.3
-1147.56 -898.44 1575.2
-1165.97 -916.12 1606.2
-1173.63 -925.44 1622.5
-1148.32 -908.74 1593.2
-1113.59 -884.44 1550.6
-1107.53 -882.81 1547.8
-1114.10 -891.28 1562.6
-1102.24 -885.01 1551.6
-1091.99 -880.00 1542.8
-1101.10 -890.60 1561.4
-1105.45 -897.41 1573.4
-1093.64 -891.11 1562.3
-1085.49 -887.76 1556.5
-1061.87 -871.68 1528.3
-1035.77 -853.44 1496.3
-1046.79 -865.77 1517.9
-1058.24 -878.54 1540.3
-1058.87 -882.39 1547.1
-1062.53 -888.81 1558.3
-1073.76 -901.63 1580.8
-1095.55 -923.45 1619.0
-1091.92 -923.93 1619.9
-1069.64 -908.57 1593.0
-1062.53 -906.04 1588.5
-1071.97 -917.64 1608.9
-1088.32 -935.28 1639.8
-1090.61 -940.91 1649.7
-1073.98 -930.22 1630.9
-1066.33 -927.25 1625.7
-1078.94 -941.93 1651.4
-1071.76 -939.39 1647.0
-1063.12 -935.55 1640.2
-1085.81 -959.35 1682.0
-1083.95 -961.57 1685.9
-1060.20 -944.31 1655.6
-1063.70 -951.28 1667.8
-1067.63 -958.69 1680.8
-1060.92 -956.57 1677.1
-1063.81 -963.12 1688.6
-1046.08 -950.99 1667.3
-1026.05 -936.64 1642.2
-1044.63 -957.58 1678.9
-1064.48 -979.86 1717.9
-1059.13 -979.03 1716.5
-1038.72 -964.21 1690.5
-1036.71 -966.43 1694.4
-1061.35 -993.60 1742.0
-1069.47 -1005.48 1762.9
-1051.48 -992.82 1740.7
-1038.68 -984.95 1726.9
-1043.46 -993.77 1742.3
-1038.98 -993.81 1742.4
-1022.12 -981.95 1721.6
-1022.25 -986.38 1729.4
-1036.45 -1004.49 1761.1
-1053.23 -1025.27 1797.6
-1050.43 -1027.09 1800.7
-1031.85 -1013.42 1776.8
-1031.31 -1017.44 1783.8
-1041.03 -1031.65 1808.7
-1049.30 -1044.56 1831.4
-1034.39 -1034.39 1813.5
-1004.07 -1008.66 1768.4
-991.41 -1005.12 1762.2
-1019.65 -1038.53 1820.8
-1025.85 -1049.71 1840.4
-1008.96 -1037.24 1818.5
-1010.75 -1043.96 1830.3
-1012.05 -1050.25 1841.3
-996.57 -1039.08 1821.8
-993.14 -1040.44 1824.1
-994.38 -1046.72 1835.2
-1001.09 -1058.84 1856.4
-1011.08 -1074.58 1884.0
-1009.17 -1077.75 1889.6
-1003.03 -1076.43 1887.2
-996.91 -1075.10 1884.9
-988.29 -1071.06 1877.8
-979.71 -1067.01 1870.7
-976.92 -1069.27 1874.7
-986.02 -1084.63 1901.6
-1009.73 -1116.28 1957.1
-1014.87 -1127.63 1977.0
-993.55 -1109.55 1945.3
-973.58 -1092.80 1915.9
-973.44 -1098.24 1925.5
-993.67 -1126.85 1975.6
-985.78 -1123.69 1970.1
-948.54 -1086.87 1905.5
-940.02 -1082.75 1898.3
-964.98 -1117.34 1959.0
-988.67 -1169.40 2050.2
-977.22 -1162.10 2037.5
-991.52 -1218.63 2136.6
-920.91 -1198.82 2101.8
-896.68 -1174.23 2058.7
-862.88 -1201.48 2106.5
-856.70 -1200.47 2104.7
-835.60 -1178.41 2066.0
-834.78 -1184.85 2077.3
-823.38 -1223.95 2145.9
-795.11 -1189.97 2086.3
-679.60 -1196.09 2097.0
-681.01 -1208.24 2118.3
-655.17 -1211.23 2123.6
-644.08 -1232.15 2160.3
-611.00 -1233.22 2162.1
-571.56 -1232.77 2161.3
-490.45 -1198.88 2101.9
-463.95 -1173.20 2056.9
-436.71 -1200.95 2105.6
-359.90 -1199.67 2103.3
-353.12 -1195.16 2095.4
-1231.09 -954.64 1666.1
-1232.34 -958.97 1673.7
-1199.71 -936.88 1635.1
-1182.76 -926.92 1617.8
-1196.87 -941.31 1642.9
-1163.44 -918.29 1602.7
-1126.44 -892.27 1557.3
-1135.73 -902.87 1575.8
-1133.85 -904.62 1578.9
-1100.83 -881.46 1538.4
-1083.74 -870.94 1520.1
-1081.41 -872.24 1522.3
-1079.60 -873.96 1525.3
-1069.41 -868.90 1516.5
-1054.58 -860.01 1501.0
-1065.23 -871.91 1521.8
-1079.43 -886.82 1547.8
-1079.07 -889.83 1553.0
-1077.14 -891.57 1556.1
-1059.28 -880.08 1536.0
-1042.52 -869.42 1517.4
-1051.87 -880.54 1536.8
-1065.21 -895.10 1562.2
-1063.22 -896.84 1565.3
-1070.33 -906.30 1581.8
-1080.41 -918.34 1602.8
-1072.27 -914.95 1596.9
-1059.64 -907.67 1584.2
-1063.57 -914.59 1596.2
-1076.43 -929.26 1621.9
-1075.26 -931.89 1626.4
-1057.70 -920.28 1606.2
-1051.09 -918.14 1602.5
-1070.14 -938.49 1638.0
-1070.36 -942.43 1644.8
-1057.32 -934.67 1631.3
-1074.14 -953.35 1663.9
-1096.18 -976.84 1704.9
-1096.69 -981.25 1712.6
-1068.60 -960.00 1675.5
-1040.66 -938.71 1638.3
-1043.65 -945.27 1649.8
-1056.66 -961.00 1677.2
-1073.39 -980.25 1710.8
-1089.98 -999.53 1744.5
-1082.21 -996.53 1739.3
-1074.45 -993.53 1734.0
-1089.36 -1011.55 1765.5
-1087.68 -1014.25 1770.2
-1064.88 -997.20 1740.4
-1070.23 -1006.48 1756.6
-1082.04 -1021.93 1783.6
-1068.67 -1013.63 1769.1
-1047.02 -997.38 1740.7
-1042.55 -997.41 1740.8
-1046.80 -1005.84 1755.5
-1039.54 -1003.22 1750.9
-1030.47 -998.83 1743.3
-1035.07 -1007.72 1758.8
-1038.25 -1015.28 1772.0
-1022.85 -1004.67 1753.5
-1022.83 -1009.13 1761.3
-1039.36 -1030.04 1797.7
-1040.55 -1035.86 1807.9
-1040.35 -1040.35 1815.7
-1025.04 -1029.70 1797.1
-994.33 -1003.41 1751.3
-1002.12 -1015.91 1773.1
-1035.70 -1054.79 1840.9
-1030.53 -1054.38 1840.2
-1004.46 -1032.49 1802.0
-997.20 -1029.82 1797.4
-1006.37 -1044.17 1822.4
-1015.44 -1058.55 1847.5
-1008.96 -1056.78 1844.4
-992.24 -1044.21 1822.5
-979.86 -1036.12 1808.4
-979.83 -1041.07 1817.0
-981.45 -1047.83 1828.8
-992.26 -1064.51 1857.9
-1000.02 -1078.07 1881.6
-994.32 -1077.18 1880.0
-985.72 -1073.12 1872.9
-973.01 -1064.53 1857.9
-966.54 -1062.71 1854.8
-966.23 -1067.69 1863.5
-980.60 -1089.01 1900.7
-1002.12 -1118.53 1952.2
-999.51 -1121.28 1957.0
-991.64 -1118.12 1951.5
-1003.46 -1137.26 1984.9
-992.34 -1130.45 1973.0
-951.40 -1089.43 1901.4
-946.06 -1088.95 1900.6
-972.30 -1125.01 1963.5
-991.97 -1153.82 2013.8
-999.62 -1181.36 2061.9
-991.98 -1178.64 2057.1
-831.58 -1225.20 2138.4
-803.40 -1191.62 2079.8
-688.67 -1198.39 2091.6
-676.81 -1206.25 2105.3
-684.28 -1229.47 2145.8
-682.02 -1235.45 2156.3
-657.38 -1200.66 2095.5
-667.43 -1229.18 2145.3
-654.99 -1226.72 2141.0
-650.57 -1228.85 2144.7
-625.51 -1245.38 2173.6
-609.09 -1246.37 2175.3
-591.82 -1222.36 2133.4
-583.19 -1227.47 2142.3
-566.03 -1226.40 2140.4
-551.70 -1231.58 2149.5
-490.52 -1204.50 2102.2
-484.69 -1203.56 2100.6
-452.11 -1189.49 2076.0
-420.87 -1207.97 2108.3
-1263.45 -980.72 1704.0
-1201.54 -935.93 1626.1
-1185.63 -926.80 1610.3
-1176.22 -922.69 1603.1
-1178.07 -927.42 1611.3
-1175.62 -928.78 1613.7
-1128.96 -895.10 1555.2
-1105.88 -879.95 1528.9
-1127.40 -900.30 1564.2
-1136.11 -910.53 1582.0
-1114.70 -896.61 1557.8
-1077.61 -869.92 1511.5
-1055.90 -855.51 1486.4
-1064.60 -865.72 1504.1
-1064.89 -869.14 1510.1
-1053.72 -863.19 1499.8
-1069.03 -878.98 1527.2
-1071.30 -884.12 1536.1
-1058.58 -876.88 1523.5
-1073.68 -892.73 1551.1
-1073.29 -895.75 1556.3
-1062.64 -890.21 1546.7
-1079.57 -907.82 1577.3
-1085.70 -916.44 1592.3
-1076.04 -911.76 1584.1
-1078.04 -916.96 1593.2
-1082.03 -923.88 1605.2
-1080.93 -926.51 1609.8
-1075.30 -925.26 1607.6
-1065.18 -920.11 1598.7
-1063.56 -922.31 1602.5
-1082.31 -942.24 1637.1
-1085.06 -948.36 1647.7
-1070.46 -939.30 1632.0
-1083.03 -954.10 1657.7
-1098.93 -971.96 1688.7
-1101.97 -978.55 1700.2
-1090.80 -972.52 1689.7
-1085.03 -971.27 1687.5
-1096.24 -985.29 1711.9
-1077.85 -972.69 1690.0
-1032.05 -935.16 1624.8
-1017.27 -925.55 1608.1
-1039.94 -950.07 1650.7
-1067.69 -979.45 1701.7
-1079.99 -994.85 1728.5
-1066.56 -986.56 1714.1
-1054.59 -979.58 1702.0
-1063.89 -992.37 1724.2
-1081.57 -1013.11 1760.2
-1078.94 -1014.94 1763.4
-1072.57 -1013.23 1760.4
-1074.11 -1019.03 1770.5
-1068.19 -1017.76 1768.3
-1053.49 -1008.09 1751.5
-1037.02 -996.62 1731.6
-1029.35 -993.54 1726.2
-1032.67 -1001.11 1739.4
-1034.12 -1006.90 1749.4
-1050.06 -1026.93 1784.2
-1064.04 -1045.21 1816.0
-1053.07 -1039.03 1805.3
-1057.43 -1047.99 1820.8
-1072.93 -1068.11 1855.8
-1074.43 -1074.43 1866.8
-1058.99 -1063.78 1848.3
-1030.76 -1040.14 1807.2
-1005.36 -1019.13 1770.7
-1016.62 -1035.27 1798.7
-1041.78 -1065.78 1851.7
-1028.72 -1057.30 1837.0
-1017.90 -1051.04 1826.1
-1024.03 -1062.31 1845.7
-1022.73 -1065.94 1852.0
-1022.68 -1070.92 1860.7
-1017.89 -1070.96 1860.7
-1002.00 -1059.25 1840.4
-987.04 -1048.43 1821.6
-982.32 -1048.43 1821.6
-965.78 -1035.77 1799.6
-956.90 -1031.22 1791.7
-970.64 -1051.14 1826.3
-972.57 -1058.38 1838.9
-979.83 -1071.53 1861.7
-981.20 -1078.35 1873.6
-963.17 -1063.80 1848.3
-951.81 -1056.51 1835.6
-977.23 -1090.18 1894.1
-1009.72 -1132.11 1967.0
-993.32 -1119.37 1944.9
-970.55 -1099.30 1910.0
-988.47 -1125.34 1955.2
-985.41 -1127.64 1959.2
-957.27 -1101.11 1913.1
-963.78 -1114.38 1936.2
-973.75 -1131.79 1966.4
-978.07 -1142.80 1985.6
-989.74 -1162.55 2019.9
-977.90 -1154.76 2006.3
-966.51 -1147.41 1993.6
-977.15 -1166.28 2026.4
-979.20 -1175.04 2041.6
-978.02 -1199.56 2084.2
-961.75 -1186.16 2060.9
-939.70 -1234.40 2144.7
-923.54 -1220.39 2120.4
-883.13 -1217.73 2115.8
-863.32 -1205.39 2094.3
-823.84 -1195.37 2076.9
-806.08 -1201.01 2086.7
-787.39 -1197.27 2080.2
-737.03 -1212.00 2105.8
-719.14 -1209.47 2101.4
-709.05 -1201.59 2087.7
-684.11 -1195.85 2077.7
-672.11 -1213.08 2107.7
-651.75 -1247.31 2167.1
-626.82 -1231.45 2139.6
-584.88 -1213.50 2108.4
-595.93 -1248.08 2168.5
-557.51 -1237.67 2150.4
-551.98 -1237.78 2150.6
-445.04 -1204.85 2093.4
-438.89 -1202.88 2089.9
-1263.40 -981.67 1698.0
-1222.47 -953.19 1648.7
-1180.64 -923.80 1597.9
-1184.15 -929.81 1608.2
-1190.83 -938.36 1623.0
-1148.25 -908.01 1570.6
-1105.86 -877.61 1518.0
-1102.51 -878.07 1518.8
-1117.20 -892.96 1544.5
-1123.32 -901.08 1558.6
-1119.35 -901.14 1558.7
-1113.80 -899.91 1556.5
-1091.44 -885.06 1530.9
-1071.80 -872.30 1508.8
-1082.02 -883.85 1528.8
-1082.26 -887.29 1534.7
-1070.52 -880.91 1523.7
-1056.75 -872.80 1509.6
-1030.62 -854.38 1477.8
-1044.31 -868.96 1503.0
-1085.13 -906.31 1567.6
-1088.29 -912.36 1578.1
-1081.69 -910.25 1574.4
-1086.83 -918.04 1587.9
-1081.24 -916.79 1585.7
-1080.72 -919.85 1591.0
-1091.80 -932.84 1613.5
-1090.19 -935.05 1617.3
-1083.54 -932.94 1613.7
-1086.43 -939.04 1624.2
-1083.77 -940.39 1626.6
-1090.06 -949.55 1642.4
-1117.66 -977.40 1690.6
-1121.28 -984.43 1702.7
-1106.59 -975.37 1687.1
-1106.72 -979.36 1694.0
-1110.26 -986.41 1706.2
-1115.71 -995.21 1721.4
-1108.89 -993.11 1717.7
-1077.29 -968.69 1675.5
-1062.33 -959.11 1658.9
-1089.97 -988.06 1709.0
-1088.98 -991.19 1714.4
-1055.30 -964.47 1668.2
-1060.11 -972.86 1682.7
-1058.17 -975.09 1686.6
-1040.52 -962.80 1665.3
-1051.40 -976.93 1689.8
-1063.13 -991.96 1715.7
-1060.61 -993.77 1718.9
-1066.53 -1003.53 1735.8
-1068.64 -1009.77 1746.6
-1066.96 -1012.48 1751.2
-1074.10 -1023.61 1770.5
-1073.28 -1027.21 1776.7
-1050.26 -1009.51 1746.1
-1024.60 -989.11 1710.8
-1028.44 -997.13 1724.7
-1042.73 -1015.41 1756.3
-1059.17 -1035.94 1791.8
-1090.43 -1071.22 1852.8
-1082.09 -1077.26 1863.3
-1080.02 -1080.02 1868.1
-1074.80 -1079.65 1867.4
-1052.70 -1062.23 1837.3
-1047.55 -1061.83 1836.6
-1044.59 -1063.67 1839.8
-1024.49 -1047.98 1812.7
-1018.06 -1046.21 1809.6
-1021.68 -1054.79 1824.4
-1026.97 -1065.19 1842.4
-1030.89 -1074.24 1858.1
-1027.83 -1076.08 1861.3
-1020.03 -1072.96 1855.9
-1008.83 -1066.20 1844.2
-998.95 -1060.79 1834.8
-990.80 -1057.17 1828.5
-986.91 -1058.08 1830.1
-970.79 -1045.83 1808.9
-954.34 -1033.10 1786.9
-960.13 -1044.44 1806.5
-952.10 -1040.77 1800.2
-949.06 -1042.57 1803.3
-967.07 -1067.61 1846.6
-964.33 -1069.88 1850.5
-946.01 -1054.80 1824.4
-963.68 -1079.90 1867.9
-996.59 -1122.42 1941.4
-982.27 -1111.91 1923.2
-947.90 -1078.47 1865.4
-953.06 -1089.91 1885.2
-968.92 -1113.75 1926.4
-962.73 -1112.37 1924.0
-952.19 -1105.93 1912.9
-944.06 -1102.23 1906.5
-946.55 -1110.95 1921.6
-955.22 -1127.05 1949.4
-951.32 -1128.42 1951.8
-948.95 -1131.64 1957.3
-961.97 -1153.33 1994.9
-983.47 -1211.68 2095.8
-980.68 -1214.95 2101.5
-979.13 -1233.59 2133.7
-929.70 -1184.71 2049.1
-935.28 -1198.66 2073.3
-931.16 -1221.46 2112.7
-895.87 -1182.12 2044.7
-917.69 -1218.13 2106.9
-860.84 -1199.80 2075.2
-873.89 -1225.64 2119.9
-842.50 -1227.96 2123.9
-610.95 -1216.45 2104.0
-610.26 -1248.51 2159.5
-541.20 -1219.06 2108.6
-449.26 -1221.77 2113.2
-432.82 -1206.47 2086.8
-430.02 -1213.84 2099.5
-410.52 -1220.61 2111.2
-1254.11 -975.42 1679.6
-1227.23 -957.83 1649.3
-1192.35 -933.87 1608.1
-1158.16 -910.27 1567.4
-1165.48 -919.25 1582.9
-1174.87 -929.94 1601.3
-1135.04 -901.59 1552.5
-1104.97 -880.83 1516.7
-1112.79 -890.23 1532.9
-1116.83 -896.66 1544.0
-1113.94 -897.57 1545.6
-1097.34 -887.38 1528.0
-1081.32 -877.59 1511.2
-1094.23 -891.30 1534.8
-1108.61 -906.31 1560.6
-1109.85 -910.64 1568.1
-1102.20 -907.69 1563.0
-1084.70 -896.58 1543.9
-1064.17 -882.86 1520.2
-1042.69 -868.26 1495.1
-1060.44 -886.34 1526.2
-1087.32 -912.21 1570.8
-1076.63 -906.64 1561.2
-1074.15 -907.96 1563.5
-1084.91 -920.53 1585.1
-1068.65 -910.18 1567.3
-1058.04 -904.58 1557.6
-1081.80 -928.44 1598.7
-1094.32 -942.79 1623.4
-1092.68 -945.02 1627.3
-1100.03 -955.07 1644.6
-1098.33 -957.30 1648.4
-1107.06 -968.68 1668.0
-1104.30 -970.05 1670.4
-1077.28 -950.04 1635.9
-1073.58 -950.52 1636.7
-1083.65 -963.24 1658.6
-1097.55 -979.48 1686.6
-1115.24 -999.26 1720.7
-1113.79 -1001.97 1725.3
-1088.03 -982.73 1692.2
-1075.95 -975.76 1680.2
-1107.38 -1008.35 1736.3
-1104.89 -1010.18 1739.5
-1070.22 -982.50 1691.8
-1077.85 -993.57 1710.9
-1079.19 -998.92 1720.1
-1040.56 -967.16 1665.4
-1031.06 -962.32 1657.1
-1055.11 -988.89 1702.8
-1065.33 -1002.67 1726.5
-1055.27 -997.39 1717.4
-1040.57 -987.66 1700.7
-1052.97 -1003.68 1728.3
-1073.15 -1027.29 1768.9
-1061.22 -1020.23 1756.8
-1026.72 -991.31 1707.0
-1020.01 -989.10 1703.2
-1042.19 -1015.00 1747.8
-1046.37 -1023.52 1762.4
-1052.30 -1033.84 1780.2
-1065.42 -1051.34 1810.3
-1062.59 -1053.19 1813.5
-1071.91 -1067.14 1837.6
-1079.32 -1079.32 1858.5
-1072.34 -1077.15 1854.8
-1061.36 -1070.92 1844.1
-1045.54 -1059.73 1824.8
-1046.16 -1065.18 1834.2
-1048.50 -1072.43 1846.7
-1033.66 -1062.11 1828.9
-1023.26 -1056.27 1818.8
-1022.93 -1060.82 1826.7
-1020.39 -1063.11 1830.6
-1017.40 -1064.94 1833.8
-1012.24 -1064.51 1833.0
-1003.21 -1060.00 1825.3
-1003.62 -1065.46 1834.7
-1005.69 -1072.74 1847.2
-990.31 -1061.39 1827.6
-979.66 -1055.02 1816.7
-982.94 -1063.67 1831.6
