ply
format ascii 1.0
element vertex 2061
property float x
property float y
property float z
end_header
-913.78 -104.26 2365.5
-917.03 -105.33 2389.9
-910.91 -105.34 2390.1
-883.56 -102.88 2334.3
-870.87 -102.10 2316.6
-873.29 -103.10 2339.2
-876.64 -104.22 2364.6
-874.70 -104.72 2375.9
-874.07 -105.38 2391.1
-873.70 -106.09 2407.1
-825.33 -102.41 2323.7
-783.09 -97.89 2221.0
-766.08 -96.47 2188.8
-754.13 -95.67 2170.7
-742.26 -94.88 2152.6
-752.15 -96.87 2197.8
-746.72 -96.90 2198.6
-724.05 -94.68 2148.3
-707.32 -93.21 2114.9
-682.87 -90.69 2057.8
-676.81 -90.60 2055.5
-687.51 -92.76 2104.6
-677.03 -92.08 2089.1
-667.22 -91.47 2075.5
-662.04 -91.50 2076.1
-645.39 -89.93 2040.5
-650.75 -91.43 2074.4
-669.59 -94.86 2152.3
-674.80 -96.40 2187.2
-678.10 -97.69 2216.5
-674.58 -98.02 2223.9
-662.38 -97.07 2202.5
-650.86 -96.21 2183.0
-647.64 -96.58 2191.3
-644.65 -96.98 2200.5
-637.17 -96.71 2194.3
-624.18 -95.59 2169.0
-615.41 -95.11 2157.9
-623.55 -97.25 2206.5
-634.68 -99.90 2266.7
-627.08 -99.63 2260.5
-616.08 -98.80 2241.8
-623.53 -100.95 2290.5
-630.22 -103.02 2337.3
-628.43 -103.72 2353.3
-617.11 -102.85 2333.6
-603.09 -101.51 2303.2
-597.25 -101.53 2303.7
-586.93 -100.79 2286.7
-586.77 -101.79 2309.5
-596.49 -104.54 2371.9
-596.49 -105.63 2396.6
-599.24 -107.23 2433.0
-604.88 -109.39 2482.0
-596.92 -109.11 2475.7
-587.14 -108.49 2461.6
-578.80 -108.13 2453.3
-575.04 -108.62 2464.5
-576.84 -110.18 2499.9
-576.46 -111.36 2526.7
-580.12 -113.36 2572.0
-575.29 -113.72 2580.2
-576.01 -115.20 2613.8
-586.54 -118.71 2693.3
-580.92 -118.98 2699.6
-576.51 -119.52 2711.8
-569.16 -119.45 2710.3
-560.20 -119.04 2700.9
-1241.36 -120.78 2588.2
-1253.96 -122.67 2628.6
-1257.39 -123.68 2650.2
-1266.69 -125.28 2684.5
-1234.68 -122.79 2631.1
-1173.30 -117.33 2514.2
-1154.48 -116.09 2487.7
-1155.86 -116.89 2504.7
-1149.25 -116.87 2504.4
-1132.68 -115.84 2482.3
-1111.24 -114.30 2449.3
-1126.10 -116.49 2496.3
-1126.03 -117.16 2510.5
-1072.58 -112.25 2405.3
-1060.49 -111.63 2392.1
-1086.73 -115.07 2465.7
-1075.35 -114.53 2454.3
-1041.28 -111.57 2390.7
-1030.50 -111.07 2380.1
-1053.34 -114.22 2447.5
-1082.55 -118.10 2530.6
-1071.13 -117.56 2519.2
-1042.26 -115.10 2466.3
-1003.55 -111.51 2389.4
-952.79 -107.19 2296.9
-995.68 -112.72 2415.4
-999.41 -113.86 2439.8
-997.75 -114.39 2451.2
-1001.65 -115.58 2476.6
-980.48 -113.86 2439.9
-953.17 -111.41 2387.3
-940.08 -110.60 2370.0
-931.10 -110.26 2362.8
-907.58 -108.19 2318.3
-892.22 -107.07 2294.3
-898.57 -108.55 2326.1
-914.07 -111.17 2382.2
-916.51 -112.23 2404.8
-897.61 -110.66 2371.4
-884.49 -109.80 2352.8
-886.13 -110.77 2373.6
-875.86 -110.25 2362.5
-859.77 -108.98 2335.4
-848.60 -108.33 2321.4
-836.46 -107.54 2304.5
-834.90 -108.12 2316.8
-830.92 -108.38 2322.5
-807.52 -106.10 2273.5
-772.38 -102.23 2190.6
-750.49 -100.07 2144.3
-733.73 -98.56 2112.0
-732.09 -99.08 2123.1
-753.37 -102.73 2201.4
-732.19 -100.61 2155.8
-693.35 -96.00 2057.2
-692.35 -96.61 2070.2
-683.74 -96.15 2060.4
-679.24 -96.27 2062.9
-690.23 -98.60 2112.9
-686.50 -98.86 2118.3
-682.44 -99.06 2122.8
-686.55 -100.47 2153.0
-678.16 -100.06 2144.1
-661.74 -98.44 2109.4
-659.72 -98.96 2120.5
-665.60 -100.68 2157.4
-670.43 -102.27 2191.5
-659.71 -101.49 2174.9
-641.31 -99.51 2132.4
-640.23 -100.21 2147.4
-646.15 -102.02 2186.2
-639.81 -101.92 2183.9
-629.57 -101.18 2168.2
-632.40 -102.55 2197.5
-638.09 -104.41 2237.5
-623.48 -102.96 2206.3
-612.52 -102.09 2187.6
-618.47 -104.04 2229.5
-622.10 -105.64 2263.7
-620.31 -106.34 2278.7
-617.92 -106.95 2291.7
-617.79 -107.96 2313.5
-608.35 -107.36 2300.5
-596.70 -106.34 2278.8
-593.42 -106.82 2288.9
-594.56 -108.10 2316.5
-604.91 -111.11 2380.8
-602.03 -111.72 2393.9
-588.47 -110.34 2364.4
-597.74 -113.26 2426.9
-608.59 -116.54 2497.3
-600.84 -116.29 2492.0
-589.86 -115.41 2473.0
-585.85 -115.88 2483.2
-587.01 -117.40 2515.8
-571.09 -119.53 2561.4
-574.01 -121.55 2604.7
-586.48 -125.67 2693.0
-592.63 -128.52 2754.0
-1255.36 -128.24 2603.3
-1264.13 -129.83 2635.6
-1254.69 -129.56 2630.2
-1237.57 -128.49 2608.5
-1250.79 -130.58 2650.8
-1224.37 -128.52 2609.1
-1174.03 -123.93 2515.8
-1162.78 -123.42 2505.6
-1163.70 -124.22 2521.7
-1157.05 -124.20 2521.4
-1144.59 -123.56 2508.4
-1127.23 -122.38 2484.5
-1116.54 -121.92 2475.1
-1087.07 -119.39 2423.7
-1070.50 -118.94 2414.7
-1085.00 -121.26 2461.8
-1062.01 -119.40 2423.9
-1031.20 -116.62 2367.5
-1023.25 -116.42 2363.4
-1025.58 -117.39 2383.0
-1034.11 -119.08 2417.4
-1024.90 -118.74 2410.5
-997.04 -116.22 2359.3
-989.52 -116.05 2356.0
-965.08 -113.89 2312.1
-953.10 -114.61 2326.7
-967.14 -117.04 2376.0
-975.33 -118.79 2411.5
-958.77 -117.53 2385.9
-945.66 -116.67 2368.5
-947.72 -117.69 2389.2
-958.84 -119.85 2433.1
-954.10 -120.05 2437.1
-929.78 -117.77 2390.9
-926.91 -118.20 2399.5
-927.93 -119.13 2418.3
-915.70 -118.36 2402.7
-915.20 -119.10 2417.8
-905.60 -119.49 2425.7
-878.54 -116.73 2369.7
-856.57 -114.61 2326.7
-839.58 -113.14 2296.7
-830.92 -112.77 2289.3
-833.11 -113.88 2311.8
-837.22 -115.27 2340.1
-820.47 -113.79 2310.0
-794.88 -111.05 2254.4
-780.44 -109.84 2229.8
-751.02 -106.49 2161.8
-739.82 -105.69 2145.6
-734.85 -105.77 2147.3
-684.88 -99.33 2016.6
-671.71 -99.71 2024.1
-687.28 -102.82 2087.4
-694.80 -104.77 2126.9
-688.27 -104.62 2123.8
-674.11 -103.29 2096.9
-669.18 -103.37 2098.5
-673.87 -104.95 2130.5
-670.34 -105.26 2136.9
-667.07 -105.62 2144.1
-671.42 -107.20 2176.3
-665.97 -107.23 2176.9
-647.75 -105.19 2135.4
-638.65 -104.61 2123.6
-646.72 -106.85 2169.1
-650.33 -108.39 2200.3
-641.98 -107.94 2191.3
-635.63 -107.83 2189.0
-641.72 -109.84 2229.9
-639.38 -110.44 2242.0
-617.70 -107.67 2185.8
-612.72 -107.79 2188.3
-624.81 -110.95 2252.3
-619.11 -110.97 2252.8
-608.69 -110.14 2236.0
-610.05 -111.45 2262.6
-614.37 -113.33 2300.7
-613.90 -114.35 2321.5
-611.31 -115.00 2334.6
-604.88 -114.93 2333.1
-603.93 -115.91 2353.0
-608.53 -117.98 2395.1
-599.28 -117.38 2383.0
-589.12 -116.60 2367.0
-601.97 -120.39 2444.1
-608.29 -122.95 2496.0
-594.68 -121.49 2466.4
-586.78 -121.18 2460.1
-585.78 -122.31 2482.9
-582.17 -122.90 2495.0
-585.02 -124.89 2535.4
-586.19 -131.03 2660.0
-587.68 -132.93 2698.6
-581.00 -133.00 2700.0
-586.14 -135.81 2757.1
-574.16 -134.68 2734.1
-567.57 -134.80 2736.5
-1286.28 -136.84 2639.0
-1288.15 -137.77 2657.0
-1285.60 -138.24 2666.0
-1274.80 -137.82 2657.9
-1246.39 -135.48 2612.8
-1207.26 -133.40 2572.7
-1184.04 -131.56 2537.2
-1161.39 -129.76 2502.6
-1151.02 -129.33 2494.2
-1143.59 -129.22 2492.1
-1131.20 -128.55 2479.1
-1131.23 -129.28 2493.3
-1136.13 -130.59 2518.5
-1120.47 -129.53 2498.2
-1107.75 -128.81 2484.2
-1114.11 -130.30 2513.0
-1094.76 -129.56 2498.6
-1059.40 -126.12 2432.3
-1038.61 -124.38 2398.9
-1027.44 -123.79 2387.3
-1014.75 -123.00 2372.1
-967.01 -122.41 2360.7
-947.07 -120.65 2326.7
-921.29 -118.11 2277.9
-916.58 -118.27 2280.9
-914.81 -118.81 2291.3
-914.47 -119.54 2305.4
-925.77 -121.81 2349.2
-955.81 -126.60 2441.5
-910.61 -123.89 2389.4
-887.87 -121.63 2345.6
-903.28 -124.59 2402.8
-898.51 -124.79 2406.7
-873.23 -122.13 2355.4
-853.02 -120.14 2317.0
-824.06 -116.89 2254.3
-804.24 -114.89 2215.8
-821.84 -118.25 2280.6
-841.84 -122.01 2353.0
-834.75 -121.86 2350.2
-819.37 -120.50 2323.8
-816.97 -121.03 2334.2
-797.80 -119.08 2296.5
-761.55 -114.52 2208.6
-732.82 -111.03 2141.4
-706.24 -110.35 2128.2
-685.33 -107.93 2081.4
-659.67 -104.71 2019.4
-669.41 -107.11 2065.6
-670.36 -108.12 2085.2
-661.21 -107.51 2073.5
-662.65 -108.63 2095.0
-668.76 -110.54 2131.8
-674.41 -112.40 2167.7
-668.69 -112.38 2167.4
-652.74 -110.63 2133.6
-651.15 -111.31 2146.7
-657.55 -113.37 2186.5
-649.78 -113.01 2179.4
-639.49 -112.19 2163.7
-644.15 -114.01 2198.8
-649.76 -116.03 2237.7
-649.10 -116.95 2255.5
-641.50 -116.64 2249.4
-633.38 -116.22 2241.3
-642.81 -119.04 2295.7
-638.61 -119.37 2302.1
-615.33 -116.10 2239.1
-608.36 -115.88 2234.8
-613.10 -117.90 2273.8
-617.64 -119.93 2313.0
-617.15 -121.01 2333.7
-610.22 -120.84 2330.4
-600.30 -120.06 2315.4
-592.43 -119.68 2308.2
-589.27 -120.26 2319.3
-598.72 -123.45 2380.8
-608.35 -126.74 2444.2
-599.74 -126.26 2435.1
-584.33 -124.32 2397.7
-577.75 -124.25 2396.2
-578.13 -125.68 2423.8
-582.27 -127.97 2468.0
-583.01 -129.56 2498.6
-581.13 -130.59 2518.5
-581.66 -138.49 2670.9
-573.78 -138.26 2666.5
-578.18 -141.02 2719.6
-561.57 -138.66 2674.2
-1281.76 -143.18 2629.8
-1267.09 -142.29 2613.6
-1255.09 -141.70 2602.7
-1237.94 -140.52 2581.0
-1235.07 -140.96 2589.0
-1222.31 -140.27 2576.3
-1168.09 -135.52 2489.2
-1144.63 -133.54 2452.8
-1121.74 -131.60 2417.1
-1129.13 -133.21 2446.7
-1139.71 -135.22 2483.6
-1118.63 -133.47 2451.5
-1109.64 -133.16 2445.7
-1121.21 -135.32 2485.5
-1115.03 -135.35 2486.0
-1099.08 -134.19 2464.7
-1102.24 -135.36 2486.3
-1108.52 -136.94 2515.1
-1080.61 -134.28 2466.3
-1061.67 -132.71 2437.5
-1055.95 -132.78 2438.9
-1019.82 -129.01 2369.6
-1002.78 -128.40 2358.5
-1021.70 -131.63 2417.7
-1003.22 -130.05 2388.6
-981.02 -127.96 2350.3
-948.27 -124.46 2286.0
-963.75 -127.29 2337.9
-1005.89 -133.69 2455.6
-992.14 -132.71 2437.5
-955.63 -128.64 2362.8
-938.44 -127.14 2335.3
-917.29 -125.09 2297.5
-900.36 -123.58 2269.8
-899.66 -124.30 2283.0
-917.83 -127.65 2344.5
-939.34 -131.51 2415.4
-942.17 -132.79 2439.0
-906.23 -129.46 2377.9
-857.00 -123.27 2264.1
-851.51 -123.32 2265.1
-878.14 -128.06 2352.2
-882.85 -129.65 2381.3
-842.22 -124.55 2287.7
-787.89 -119.03 2186.3
-810.11 -123.28 2264.3
-804.56 -123.33 2265.2
-801.67 -123.79 2273.6
-813.57 -126.56 2324.5
-813.44 -127.48 2341.5
-795.97 -125.68 2308.4
-765.71 -121.82 2237.5
-705.27 -113.06 2076.6
-698.13 -113.65 2087.4
-725.96 -119.10 2187.6
-693.99 -114.75 2107.7
-676.65 -112.77 2071.4
-692.41 -116.33 2136.6
-696.56 -117.97 2166.7
-690.86 -117.95 2166.5
-681.24 -117.26 2153.8
-678.25 -117.71 2162.1
-674.62 -118.06 2168.4
-660.95 -116.64 2142.3
-657.62 -117.03 2149.6
-666.43 -119.62 2197.0
-667.25 -120.80 2218.7
-655.69 -119.73 2199.2
-636.86 -117.32 2154.8
-633.12 -117.66 2161.1
-644.66 -120.87 2220.1
-649.57 -122.89 2257.2
-642.51 -122.66 2253.0
-634.66 -122.27 2245.8
-631.41 -122.78 2255.1
-615.58 -120.81 2219.0
-608.38 -120.53 2213.8
-616.67 -123.33 2265.3
-612.50 -123.68 2271.6
-606.49 -123.65 2271.2
-619.11 -127.46 2341.2
-625.32 -130.02 2388.1
-605.73 -127.20 2336.4
-587.14 -124.55 2287.6
-590.67 -126.57 2324.8
-607.65 -131.55 2416.3
-609.23 -133.27 2447.8
-593.94 -131.29 2411.5
-585.67 -130.84 2403.2
-585.17 -132.13 2427.0
-583.62 -133.22 2446.8
-585.86 -135.20 2483.2
-590.42 -137.77 2530.4
-592.28 -139.75 2566.9
-587.95 -140.31 2577.1
-601.52 -146.88 2697.9
-592.42 -148.11 2720.3
-563.96 -146.21 2685.5
-557.08 -146.23 2685.9
-1303.93 -152.59 2675.2
-1261.28 -148.39 2601.6
-1235.44 -148.52 2604.0
-1226.51 -148.26 2599.3
-1171.34 -142.37 2496.2
-1119.15 -136.79 2398.2
-1114.46 -136.97 2401.5
-1138.62 -140.73 2467.3
-1149.16 -142.83 2504.2
-1129.69 -141.21 2475.8
-1100.85 -138.39 2426.4
-1093.16 -138.22 2423.3
-1091.19 -138.76 2432.9
-1079.43 -138.07 2420.6
-1073.37 -138.09 2421.1
-1070.93 -138.59 2429.9
-1039.60 -135.33 2372.7
-1017.28 -133.22 2335.6
-1032.42 -136.01 2384.5
-1016.15 -134.67 2361.1
-964.75 -129.42 2269.0
-1019.63 -137.62 2412.8
-1037.12 -140.84 2469.3
-1029.36 -140.66 2466.1
-1010.52 -138.95 2436.1
-978.48 -135.39 2373.7
-973.59 -135.56 2376.7
-975.45 -136.69 2396.5
-954.01 -134.54 2358.8
-948.00 -134.56 2359.1
-938.66 -134.09 2351.0
-925.29 -133.05 2332.7
-929.21 -134.49 2358.0
-929.00 -135.35 2373.0
-932.35 -136.74 2397.5
-923.34 -136.33 2390.2
-909.71 -135.23 2370.9
-891.18 -133.37 2338.4
-857.60 -129.23 2265.7
-866.86 -131.52 2305.9
-910.86 -139.16 2439.8
-877.64 -135.97 2383.9
-822.14 -128.28 2249.0
-782.76 -124.79 2187.8
-805.13 -129.29 2266.8
-830.12 -134.28 2354.3
-806.87 -131.49 2305.3
-773.35 -126.97 2226.1
-776.66 -128.47 2252.4
-767.55 -127.93 2242.8
-734.08 -123.28 2161.4
-720.76 -121.97 2138.5
-716.72 -122.23 2143.0
-708.57 -121.79 2135.2
-700.14 -121.28 2126.4
-702.60 -122.68 2150.8
-707.10 -124.45 2181.9
-701.97 -124.54 2183.6
-709.27 -126.86 2224.2
-713.37 -128.64 2255.4
-689.21 -125.31 2197.0
-668.89 -122.63 2150.0
-660.86 -122.18 2142.0
-661.63 -123.35 2162.7
-673.30 -126.60 2219.7
-677.23 -128.44 2251.9
-667.30 -127.66 2238.2
-651.49 -125.73 2204.3
-632.76 -123.19 2159.9
-629.26 -123.61 2167.1
-622.42 -123.36 2162.8
-609.52 -124.16 2176.9
-608.29 -125.07 2192.8
-615.44 -127.73 2239.5
-626.82 -131.33 2302.6
-626.19 -132.46 2322.4
-612.59 -130.84 2294.0
-616.73 -133.02 2332.2
-629.53 -137.13 2404.2
-617.43 -135.83 2381.5
-600.22 -133.38 2338.5
-605.59 -135.95 2383.5
-602.46 -136.64 2395.6
-583.10 -133.63 2342.8
-595.05 -137.80 2416.0
-614.20 -143.75 2520.3
-601.70 -142.34 2495.5
-587.47 -140.48 2463.0
-591.97 -143.11 2509.1
-598.51 -146.30 2565.0
-582.83 -147.38 2584.0
-591.98 -153.22 2686.3
-577.81 -155.02 2717.9
-1325.39 -159.60 2676.6
-1306.57 -158.16 2652.4
-1284.32 -156.29 2621.1
-1293.71 -158.27 2654.3
-1237.87 -153.07 2567.0
-1163.56 -147.86 2479.6
-1126.61 -143.96 2414.2
-1136.18 -145.99 2448.3
-1152.70 -148.94 2497.8
-1156.51 -150.28 2520.2
-1133.69 -148.15 2484.6
-1102.77 -144.94 2430.6
-1104.11 -145.94 2447.5
-1111.49 -147.77 2478.1
-1079.29 -144.32 2420.3
-1052.19 -141.52 2373.4
-1069.19 -144.65 2425.9
-1059.50 -144.19 2418.1
-995.89 -137.98 2314.0
-977.86 -136.31 2285.9
-976.74 -137.82 2311.3
-1014.57 -144.04 2415.6
-1027.31 -146.76 2461.2
-1003.12 -144.20 2418.2
-965.79 -139.71 2342.9
-922.37 -134.27 2251.7
-910.84 -134.29 2252.1
-956.44 -141.92 2380.1
-947.79 -141.55 2373.9
-934.74 -140.52 2356.5
-930.92 -140.86 2362.3
-921.60 -140.38 2354.1
-932.22 -142.94 2397.1
-928.61 -143.34 2403.9
-901.36 -140.08 2349.1
-870.44 -136.19 2284.0
-861.38 -135.70 2275.7
-897.66 -142.39 2387.9
-883.74 -143.14 2400.5
-839.85 -137.00 2297.5
-832.89 -136.83 2294.7
-846.24 -140.03 2348.2
-827.05 -137.84 2311.6
-834.76 -140.14 2350.2
-814.02 -138.68 2325.8
-759.16 -130.30 2185.2
-742.38 -128.38 2153.0
-764.54 -133.22 2234.0
-759.03 -133.26 2234.9
-735.01 -130.04 2180.8
-722.32 -128.79 2159.8
-705.02 -126.68 2124.5
-688.81 -124.74 2092.0
-686.70 -125.35 2102.1
-687.00 -126.41 2119.9
-683.54 -126.79 2126.2
-692.19 -129.43 2170.6
-707.25 -133.33 2236.0
-694.20 -131.96 2212.9
-676.22 -129.61 2173.6
-671.37 -129.76 2176.1
-665.04 -129.63 2173.9
-669.44 -131.60 2207.0
-673.48 -135.88 2278.7
-650.35 -132.37 2219.9
-631.12 -129.61 2173.5
-611.32 -130.19 2183.3
-614.34 -132.05 2214.6
-627.52 -136.16 2283.4
-644.56 -141.19 2367.8
-633.12 -140.02 2348.1
-608.89 -135.97 2280.2
-599.80 -135.25 2268.1
-599.60 -136.54 2289.9
-615.84 -141.64 2375.4
-627.93 -145.88 2446.5
-616.81 -144.76 2427.7
-596.04 -141.33 2370.1
-579.89 -138.93 2329.9
-595.20 -144.10 2416.6
-615.76 -150.67 2526.7
-602.79 -149.08 2500.0
-593.18 -148.30 2486.9
-603.58 -152.55 2558.3
-581.12 -151.88 2547.1
-571.55 -151.10 2534.0
-591.25 -159.98 2683.0
-1340.13 -167.52 2692.2
-1317.25 -165.52 2660.1
-1301.11 -164.35 2641.3
-1284.60 -163.12 2621.6
-1300.11 -165.97 2667.4
-1235.54 -159.43 2562.2
-1189.12 -154.26 2479.3
-1179.06 -154.63 2485.1
-1164.69 -154.43 2482.0
-1142.09 -152.28 2447.3
-1133.93 -152.03 2443.4
-1132.89 -152.75 2454.9
-1117.64 -151.54 2435.5
-1076.76 -146.83 2359.8
-1073.34 -147.20 2365.7
-1101.09 -151.87 2440.8
-1099.49 -152.53 2451.4
-1058.82 -147.74 2374.4
-1038.70 -145.78 2342.9
-1061.40 -149.84 2408.2
-1063.77 -151.07 2427.9
-1017.81 -145.40 2336.8
-1000.41 -143.77 2310.6
-1026.93 -148.47 2386.2
-1038.19 -151.01 2426.9
-1038.73 -152.01 2443.0
-1031.02 -151.81 2439.7
-1017.90 -152.69 2453.9
-978.98 -147.77 2374.9
-932.84 -141.70 2277.3
-930.18 -143.10 2299.9
-959.29 -148.54 2387.2
-931.37 -145.15 2332.8
-920.26 -144.35 2320.0
-917.61 -144.89 2328.5
-915.65 -145.53 2338.9
-931.73 -149.08 2395.9
-910.50 -146.66 2357.0
-871.20 -141.28 2270.5
-883.83 -144.30 2319.1
-918.51 -150.99 2426.6
-890.16 -147.34 2367.9
-857.19 -142.87 2296.0
-871.04 -146.19 2349.5
-866.37 -146.43 2353.3
-837.34 -142.53 2290.6
-848.10 -145.39 2336.6
-836.99 -146.63 2356.5
-813.63 -143.58 2307.6
-801.37 -142.47 2289.6
-767.24 -137.42 2208.5
-740.32 -133.59 2147.0
-751.18 -136.58 2195.0
-751.54 -137.69 2212.8
-732.67 -135.26 2173.9
-737.74 -137.25 2205.9
-736.99 -138.19 2220.8
-713.37 -134.81 2166.6
-705.82 -134.44 2160.7
-697.98 -134.01 2153.8
-686.81 -132.93 2136.4
-687.54 -134.15 2156.1
-693.90 -136.51 2193.8
-685.14 -135.89 2184.0
-670.78 -134.16 2156.1
-683.34 -137.82 2214.9
-694.15 -141.18 2269.0
-681.23 -139.74 2245.8
-684.22 -141.56 2275.1
-675.64 -142.24 2286.0
-657.55 -139.66 2244.5
-643.28 -137.85 2215.4
-625.28 -135.20 2172.8
-615.96 -134.39 2159.9
-616.48 -135.74 2181.5
-620.12 -137.80 2214.7
-624.39 -140.05 2250.8
-639.33 -144.75 2326.4
-643.94 -147.19 2365.5
-619.00 -142.85 2295.7
-600.82 -140.00 2250.0
-598.18 -140.75 2262.0
-590.92 -140.42 2256.7
-599.97 -143.99 2314.2
-616.92 -149.56 2403.6
-610.33 -149.47 2402.2
-590.35 -146.07 2347.5
-575.94 -143.99 2314.1
-586.28 -148.11 2380.4
-601.26 -153.51 2467.2
-591.47 -152.64 2453.1
-585.22 -152.67 2453.6
-592.95 -156.38 2513.3
-590.40 -157.44 2530.3
-583.27 -157.29 2527.8
-572.60 -156.16 2509.8
-570.14 -157.28 2527.7
-1317.40 -170.65 2632.9
-1316.82 -171.46 2645.4
-1319.46 -173.61 2678.6
-1303.76 -172.45 2660.7
-1290.31 -171.58 2647.3
-1250.35 -167.16 2579.0
-1155.29 -156.12 2408.7
-1138.60 -154.70 2386.8
-1177.19 -160.82 2481.2
-1161.99 -160.50 2476.2
-1141.09 -158.49 2445.2
-1132.93 -158.23 2441.3
-1122.70 -157.68 2432.8
-1099.16 -155.25 2395.3
-1061.29 -150.75 2325.9
-1059.58 -151.37 2335.4
-1084.11 -155.76 2403.2
-1079.74 -156.03 2407.3
-1062.74 -154.47 2383.2
-1066.07 -155.86 2404.7
-1072.52 -157.72 2433.5
-1057.61 -156.45 2413.8
-1024.45 -152.45 2352.1
-1022.09 -153.01 2360.7
-1050.07 -158.14 2439.9
-1046.00 -159.45 2460.1
-1022.33 -156.80 2419.2
-1010.42 -155.93 2405.8
-1006.26 -156.25 2410.7
-1009.73 -157.77 2434.2
-1001.29 -157.44 2429.0
-962.98 -152.37 2350.8
-935.54 -148.97 2298.4
-943.52 -151.21 2332.9
-947.25 -152.78 2357.2
-916.44 -148.77 2295.3
-904.67 -147.82 2280.7
-924.80 -152.11 2346.8
-943.91 -156.28 2411.1
-939.20 -156.53 2415.1
-899.94 -151.00 2329.7
-864.28 -145.99 2252.5
-881.22 -149.87 2312.2
-914.97 -157.75 2433.9
-869.29 -150.92 2328.4
-871.61 -152.38 2351.0
-882.11 -155.30 2396.1
-870.80 -154.40 2382.1
-843.55 -150.63 2324.1
-832.80 -149.78 2311.0
-832.20 -150.76 2326.0
-809.47 -147.71 2279.0
-805.54 -148.08 2284.6
-810.82 -150.15 2316.6
-776.63 -144.89 2235.5
-748.02 -140.61 2169.4
-746.22 -141.33 2180.5
-736.02 -140.46 2167.1
-726.19 -139.65 2154.6
-736.04 -142.64 2200.8
-734.68 -143.49 2213.9
-712.02 -140.16 2162.5
-703.85 -139.65 2154.7
-696.03 -139.21 2147.7
-685.48 -138.20 2132.3
-686.23 -139.48 2151.9
-680.85 -139.52 2152.6
-662.63 -136.91 2112.3
-662.68 -138.06 2130.0
-687.94 -144.53 2229.8
-692.00 -146.61 2262.0
-673.01 -143.81 2218.7
-663.71 -143.04 2206.9
-660.74 -143.64 2216.1
-656.87 -144.05 2222.5
-650.72 -143.96 2221.2
-647.64 -144.56 2230.4
-640.92 -144.35 2227.1
-635.58 -144.45 2228.6
-640.00 -146.79 2264.7
-635.63 -147.14 2270.1
-631.77 -147.61 2277.4
-632.09 -149.08 2300.1
-622.35 -148.18 2286.2
-616.56 -148.21 2286.7
-617.47 -149.87 2312.3
-615.18 -150.78 2326.3
-608.53 -150.63 2323.9
-603.13 -150.78 2326.4
-604.67 -152.69 2355.9
-606.06 -154.61 2385.4
-594.64 -153.26 2364.6
-581.16 -151.34 2335.0
-591.92 -155.77 2403.3
-597.62 -158.94 2452.2
-577.11 -155.14 2393.5
-575.63 -156.42 2413.4
-588.50 -161.68 2494.4
-579.87 -161.08 2485.2
-566.35 -159.09 2454.5
-575.84 -163.59 2524.0
-1313.98 -177.93 2639.7
-1301.39 -177.15 2628.1
-1258.85 -172.26 2555.6
-1290.57 -178.48 2647.8
-1247.13 -173.40 2572.4
-1181.89 -166.10 2464.2
-1177.88 -167.35 2482.7
-1143.23 -163.32 2422.9
-1143.17 -164.21 2436.1
-1153.17 -166.57 2471.1
-1128.99 -163.99 2432.8
-1104.55 -161.34 2393.5
-1122.74 -164.92 2446.6
-1126.60 -166.43 2469.0
-1089.54 -161.87 2401.4
-1078.21 -161.11 2390.1
-1086.53 -163.29 2422.5
-1084.13 -163.88 2431.2
-1063.09 -161.64 2397.9
-1043.79 -159.64 2368.3
-1073.49 -165.15 2450.1
-1040.58 -162.01 2403.4
-1017.17 -159.32 2363.5
-1028.87 -162.13 2405.2
-1017.34 -161.29 2392.7
-996.54 -158.96 2358.2
-988.63 -158.67 2353.9
-984.97 -159.06 2359.7
-988.93 -160.70 2384.0
-992.39 -162.28 2407.4
-967.00 -159.13 2360.7
-948.20 -157.03 2329.5
-963.59 -160.60 2382.5
-964.60 -161.80 2400.4
-933.32 -157.57 2337.6
-913.73 -155.28 2303.5
-924.30 -158.10 2345.5
-917.93 -158.05 2344.8
-889.50 -154.18 2287.3
-892.61 -155.76 2310.7
-897.04 -157.59 2337.9
-870.42 -153.95 2283.9
-874.43 -155.72 2310.1
-916.59 -164.35 2438.2
-891.26 -162.05 2404.0
-875.42 -160.29 2377.9
-879.24 -162.13 2405.2
-867.60 -161.13 2390.3
-835.38 -156.26 2318.1
-813.92 -153.35 2274.9
-811.35 -153.98 2284.3
-824.00 -157.53 2337.0
-828.50 -159.56 2367.1
-796.82 -154.61 2293.6
-767.43 -150.02 2225.6
-762.26 -150.14 2227.4
-753.56 -149.56 2218.8
-746.16 -149.23 2213.9
-740.36 -149.22 2213.7
-724.51 -147.17 2183.2
-705.98 -144.53 2144.1
-700.65 -144.58 2144.8
-697.77 -145.14 2153.1
-691.49 -144.99 2150.9
-688.55 -145.55 2159.2
-680.15 -144.95 2150.3
-676.86 -145.44 2157.7
-690.74 -149.66 2220.2
-687.24 -150.15 2227.6
-664.16 -146.34 2171.0
-663.35 -147.41 2186.9
-670.79 -150.35 2230.5
-661.21 -149.49 2217.7
-649.98 -148.24 2199.2
-647.81 -149.05 2211.2
-647.81 -150.39 2231.0
-646.33 -151.39 2246.0
-646.70 -152.86 2267.6
-661.33 -157.75 2340.2
-647.40 -157.31 2333.8
-632.52 -155.15 2301.6
-633.78 -156.94 2328.2
-639.85 -159.96 2373.1
-633.85 -160.00 2373.6
-624.52 -159.19 2361.6
-630.67 -162.35 2408.5
-638.09 -165.90 2461.2
-624.67 -164.05 2433.8
-610.88 -162.07 2404.3
-607.93 -162.95 2417.4
-602.76 -163.25 2421.8
-599.94 -164.19 2435.8
-590.43 -163.31 2422.8
-574.21 -160.53 2381.5
-576.93 -163.05 2418.8
-587.95 -167.98 2492.1
-576.38 -166.51 2470.2
-563.12 -164.51 2440.5
-573.75 -169.52 2514.8
-1326.86 -185.62 2651.8
-1320.46 -185.69 2652.7
-1262.20 -179.37 2562.4
-1179.54 -171.22 2446.1
-1179.13 -172.09 2458.4
-1174.37 -172.33 2461.8
-1137.93 -167.89 2398.4
-1120.92 -166.29 2375.6
-1135.37 -169.36 2419.5
-1142.03 -171.30 2447.2
-1115.81 -168.31 2404.4
-1079.30 -163.71 2338.8
-1083.45 -165.27 2361.0
-1123.54 -172.36 2462.3
-1124.84 -173.55 2479.2
-1089.54 -169.07 2415.2
-1074.93 -167.76 2396.6
-1071.37 -168.18 2402.6
-1049.18 -165.66 2366.6
-1016.27 -161.41 2305.8
-1029.67 -164.50 2350.1
-1069.58 -171.90 2455.7
-1050.34 -169.82 2425.9
-1011.50 -164.52 2350.3
-1002.81 -164.10 2344.2
-1014.07 -166.95 2385.0
-1020.86 -169.10 2415.7
-996.99 -166.16 2373.8
-976.75 -163.80 2340.0
-960.87 -162.15 2316.4
-943.56 -160.23 2289.0
-940.75 -160.76 2296.6
-944.67 -162.46 2320.8
-942.49 -163.12 2330.3
-925.01 -161.13 2301.9
-908.39 -159.26 2275.2
-902.56 -159.27 2275.4
-894.89 -158.96 2270.9
-868.39 -156.31 2233.0
-897.51 -162.64 2323.4
-921.93 -168.19 2402.7
-917.55 -168.53 2407.6
-899.38 -166.32 2376.0
-916.80 -170.71 2438.8
-907.77 -171.40 2448.5
-880.46 -167.41 2391.6
-872.59 -167.09 2387.0
-866.10 -167.03 2386.2
-838.30 -162.83 2326.2
-826.23 -161.65 2309.3
-833.27 -164.22 2346.0
-820.56 -162.90 2327.2
-801.01 -160.20 2288.6
-778.03 -156.77 2239.5
-756.57 -153.59 2194.1
-764.73 -156.42 2234.6
-768.52 -158.40 2262.8
-755.28 -156.87 2240.9
-745.94 -156.13 2230.4
-739.48 -155.98 2228.3
-729.89 -155.17 2216.8
-722.84 -154.89 2212.8
-717.65 -155.01 2214.5
-708.48 -154.26 2203.8
-703.59 -154.45 2206.4
-695.98 -154.03 2200.4
-692.28 -154.48 2206.8
-704.85 -158.59 2265.6
-699.49 -158.71 2267.2
-675.72 -154.61 2208.8
-675.11 -155.80 2225.6
-681.32 -158.58 2265.5
-671.36 -157.62 2251.8
-657.22 -155.66 2223.7
-651.07 -155.57 2222.4
-647.99 -156.21 2231.6
-642.92 -156.39 2234.1
-647.41 -158.91 2270.1
-666.38 -165.07 2358.1
-655.03 -165.29 2361.3
-638.23 -162.57 2322.4
-638.39 -164.16 2345.1
-632.99 -164.33 2347.6
-615.98 -161.47 2306.7
-616.51 -163.19 2331.3
-633.10 -169.24 2417.8
-619.62 -170.71 2438.7
-607.35 -169.05 2415.1
-606.75 -170.65 2437.8
-609.14 -173.12 2473.2
-606.63 -174.25 2489.2
-597.26 -173.40 2477.1
-585.40 -171.80 2454.3
-580.52 -172.24 2460.6
-579.23 -173.77 2482.4
-576.93 -175.02 2500.3
-581.64 -178.46 2549.4
-1338.44 -193.18 2661.1
-1325.60 -193.32 2663.0
-1322.27 -193.84 2670.2
-1265.00 -187.41 2581.6
-1244.29 -185.32 2552.9
-1208.45 -180.94 2492.6
-1183.70 -178.19 2454.7
-1157.81 -175.24 2414.0
-1127.79 -171.62 2364.2
-1112.95 -170.29 2345.8
-1115.64 -171.64 2364.4
-1114.00 -172.33 2374.0
-1103.88 -171.72 2365.5
-1100.51 -172.15 2371.4
-1086.66 -170.94 2354.7
-1059.15 -167.55 2308.1
-1064.13 -169.29 2332.1
-1081.38 -173.02 2383.4
-1065.57 -171.47 2362.1
-1043.32 -168.86 2326.2
-1031.79 -167.97 2313.8
-1032.43 -169.05 2328.8
-1021.74 -168.29 2318.2
-1006.29 -166.72 2296.7
-1015.23 -169.20 2330.9
-1018.46 -170.76 2352.3
-1003.85 -169.32 2332.5
-979.11 -166.15 2288.8
-971.35 -165.84 2284.5
-974.09 -167.33 2305.0
-948.92 -164.01 2259.3
-934.71 -162.56 2239.3
-924.78 -161.84 2229.4
-904.67 -160.32 2208.5
-910.67 -162.41 2237.3
-910.54 -163.43 2251.3
-881.58 -162.40 2237.1
-870.00 -161.32 2222.3
-880.54 -164.37 2264.3
-903.48 -169.78 2338.8
-921.42 -174.32 2401.4
-925.93 -176.37 2429.6
-915.48 -175.57 2418.6
-919.46 -177.55 2445.9
-890.97 -174.46 2403.2
-855.15 -168.62 2322.9
-845.39 -167.88 2312.6
-837.71 -167.54 2308.0
-834.44 -168.09 2315.5
-845.92 -171.64 2364.4
-828.79 -169.39 2333.4
-793.88 -163.45 2251.6
-783.08 -162.42 2237.4
-768.41 -160.56 2211.8
-755.15 -158.98 2190.0
-770.09 -163.35 2250.3
-771.60 -164.92 2271.9
-757.07 -163.06 2246.2
-736.01 -159.75 2200.7
-717.99 -157.06 2163.6
-722.91 -159.38 2195.6
-730.78 -162.39 2237.1
-738.14 -165.34 2277.7
-741.33 -167.40 2306.0
-733.48 -166.97 2300.1
-722.34 -165.78 2283.8
-693.06 -160.38 2209.3
-680.73 -158.84 2188.1
-703.49 -165.53 2280.2
-706.84 -167.72 2310.5
-675.58 -161.68 2227.2
-652.18 -157.42 2168.6
-644.45 -156.91 2161.5
-633.08 -155.49 2142.0
-646.48 -160.19 2206.7
-662.62 -165.65 2282.0
-653.84 -164.93 2272.0
-654.96 -166.72 2296.6
-657.04 -168.78 2325.1
-647.69 -167.92 2313.2
-639.45 -167.33 2305.1
-632.31 -167.03 2300.9
-627.80 -167.41 2306.2
-617.56 -166.26 2290.4
-605.32 -164.55 2266.8
-610.79 -167.67 2309.7
-621.87 -172.40 2374.9
-630.37 -176.50 2431.4
-637.10 -180.19 2482.2
-629.58 -179.88 2478.0
-609.92 -176.06 2425.3
-600.62 -175.18 2413.2
-608.08 -179.22 2468.9
-611.72 -182.22 2510.1
-610.02 -183.66 2530.0
-606.36 -184.54 2542.2
-601.72 -185.14 2550.4
-1282.66 -194.75 2590.3
-1261.82 -192.59 2561.6
-1261.73 -193.60 2575.0
-1244.97 -192.04 2554.3
-1170.52 -182.50 2427.3
-1127.00 -176.66 2349.7
-1120.31 -176.57 2348.5
-1125.61 -178.37 2372.5
-1117.59 -178.08 2368.5
-1106.62 -177.30 2358.2
-1096.12 -176.60 2348.8
-1092.78 -177.04 2354.8
-1079.80 -175.92 2339.9
-1053.15 -172.55 2295.0
-1058.17 -174.36 2319.0
-1072.14 -177.67 2363.1
-1071.97 -178.66 2376.3
-1065.20 -178.56 2374.9
-1034.47 -174.42 2319.8
-1014.48 -172.05 2288.3
-1019.97 -173.99 2314.2
-1022.54 -175.47 2333.8
-1009.49 -174.26 2317.7
-989.36 -171.81 2285.1
-970.56 -169.56 2255.2
-939.49 -168.18 2236.9
-950.69 -171.24 2277.6
-939.54 -170.29 2265.0
-921.59 -168.09 2235.7
-926.08 -169.98 2260.8
-937.97 -173.26 2304.4
-927.97 -172.51 2294.4
-893.09 -167.09 2222.4
-888.29 -168.37 2239.4
-880.33 -167.96 2233.9
-864.49 -167.13 2223.0
-886.79 -172.60 2295.6
-894.11 -175.20 2330.2
-889.90 -175.56 2335.0
-878.95 -174.59 2322.1
-879.64 -175.93 2339.9
-888.62 -178.96 2380.2
-867.59 -175.95 2340.2
-840.19 -171.59 2282.2
-838.74 -172.51 2294.4
-826.33 -171.17 2276.6
-816.71 -170.39 2266.3
-829.31 -174.28 2318.0
-815.63 -172.65 2296.3
-806.35 -171.94 2286.9
-819.19 -175.97 2340.5
-802.65 -173.71 2310.4
-787.86 -171.79 2284.9
-784.17 -172.28 2291.4
-768.26 -170.07 2262.1
-749.61 -167.22 2224.1
-724.81 -162.94 2167.2
-722.26 -163.64 2176.5
-742.44 -169.53 2254.9
-736.84 -169.59 2255.6
-731.55 -169.72 2257.4
-744.87 -174.20 2317.0
-746.69 -176.05 2341.5
-734.55 -174.61 2322.4
-703.99 -168.72 2244.1
-687.72 -166.20 2210.5
-705.72 -171.98 2287.4
-695.63 -170.96 2273.8
-650.85 -161.32 2145.7
-648.33 -163.49 2174.5
-647.76 -166.24 2211.1
-667.51 -172.84 2298.8
-663.66 -173.39 2306.2
-661.96 -174.52 2321.2
-661.54 -176.01 2341.0
-642.46 -172.51 2294.5
-624.94 -169.38 2252.8
-623.21 -170.50 2267.8
-624.55 -172.49 2294.3
-619.52 -172.75 2297.7
-612.42 -172.43 2293.4
-610.18 -173.48 2307.4
-614.18 -176.35 2345.5
-624.25 -181.03 2407.8
-632.28 -185.21 2463.4
-624.07 -184.67 2456.2
-603.24 -180.35 2398.7
-594.73 -179.66 2389.6
-602.73 -183.99 2447.2
-593.20 -183.01 2434.1
-576.95 -179.91 2392.9
-596.99 -188.18 2502.9
-1336.68 -206.70 2657.6
-1282.51 -200.39 2576.5
-1211.99 -193.40 2486.6
-1189.79 -190.88 2454.1
-1153.86 -186.11 2392.8
-1122.93 -182.10 2341.3
-1126.15 -183.61 2360.7
-1119.01 -183.44 2358.6
-1098.68 -181.10 2328.4
-1110.26 -184.02 2366.0
-1120.83 -186.80 2401.8
-1085.47 -181.92 2339.0
-1063.38 -181.26 2330.5
-1074.85 -184.26 2369.1
-1072.20 -184.86 2376.8
-1067.89 -185.18 2380.9
-1038.77 -181.18 2329.5
-1017.95 -178.59 2296.1
-1021.81 -180.32 2318.4
-1019.17 -180.92 2326.1
-1002.15 -178.96 2300.9
-995.54 -178.84 2299.4
-988.93 -178.72 2297.9
-967.56 -178.08 2289.6
-991.09 -183.54 2359.7
-1001.63 -186.64 2399.7
-989.06 -185.45 2384.3
-955.65 -180.31 2318.3
-944.07 -179.25 2304.7
-941.95 -179.99 2314.2
-916.60 -176.27 2266.3
-907.07 -175.56 2257.2
-911.64 -177.59 2283.3
-907.99 -178.04 2289.1
-882.38 -174.15 2239.1
-872.66 -174.53 2244.0
-883.76 -177.94 2287.8
-881.45 -178.67 2297.2
-865.24 -176.58 2270.3
-854.92 -176.88 2274.2
-875.56 -182.41 2345.3
-875.41 -183.65 2361.3
-866.92 -183.15 2354.8
-873.52 -185.86 2389.6
-868.72 -186.16 2393.4
-826.04 -178.28 2292.2
-806.99 -175.43 2255.6
-803.80 -176.01 2263.0
-805.21 -177.62 2283.7
-805.54 -179.01 2301.5
-777.96 -174.17 2239.3
-760.74 -171.60 2206.2
-754.00 -171.36 2203.3
-768.77 -176.05 2263.5
-777.19 -179.35 2306.0
-745.56 -173.39 2229.2
-737.21 -172.78 2221.5
-744.80 -175.94 2262.0
-727.73 -173.27 2227.8
-704.98 -169.20 2175.4
-701.09 -169.62 2180.8
-731.40 -178.39 2293.6
-724.76 -179.69 2310.3
-715.74 -178.94 2300.6
-716.76 -180.70 2323.2
-690.83 -175.64 2258.2
-672.15 -172.35 2215.9
-686.70 -177.60 2283.4
-690.10 -180.03 2314.6
-676.95 -178.14 2290.4
-660.26 -175.29 2253.7
-651.54 -174.52 2243.8
-659.95 -178.37 2293.3
-670.86 -182.96 2352.4
-669.82 -184.36 2370.3
-650.41 -180.67 2322.9
-626.43 -175.63 2258.2
-619.66 -175.38 2254.8
-628.10 -179.46 2307.3
-629.27 -181.52 2333.8
-622.34 -181.26 2330.5
-621.03 -182.65 2348.4
-615.58 -182.85 2350.9
-616.38 -184.91 2377.4
-633.40 -191.94 2467.8
-634.76 -194.31 2498.3
-606.05 -187.44 2409.9
-587.64 -183.64 2361.1
-599.75 -189.40 2435.1
-595.45 -190.04 2443.3
-583.69 -190.33 2447.2
-1274.71 -204.75 2547.5
-1276.08 -206.03 2563.6
-1258.77 -205.38 2555.4
-1207.42 -199.10 2477.2
-1180.03 -195.62 2434.0
-1185.73 -197.62 2458.9
-1191.76 -199.70 2484.8
-1167.61 -196.72 2447.6
-1134.21 -192.13 2390.6
-1108.71 -188.85 2349.7
-1116.00 -191.14 2378.2
-1116.42 -192.27 2392.3
-1071.01 -185.48 2307.8
-1053.67 -185.59 2309.2
-1057.77 -187.38 2331.4
-1051.52 -187.34 2330.9
-1041.99 -186.72 2323.2
-1039.40 -187.33 2330.9
-1044.86 -189.42 2356.8
-1026.06 -187.11 2328.0
-998.18 -183.10 2278.2
-1007.55 -185.92 2313.3
-1028.65 -190.95 2375.8
-1017.54 -190.02 2364.3
-979.01 -183.94 2288.6
-963.45 -182.12 2266.0
-983.70 -187.08 2327.8
-997.87 -190.95 2375.9
-998.39 -192.24 2391.9
-993.48 -192.49 2395.0
-968.40 -188.81 2349.2
-946.93 -185.79 2311.7
-932.76 -184.18 2291.6
-903.72 -179.59 2234.5
-890.93 -178.19 2217.1
-897.43 -180.65 2247.7
-896.80 -181.71 2260.9
-892.46 -182.01 2264.7
-888.82 -182.47 2270.4
-890.57 -184.05 2290.0
-888.64 -184.88 2300.4
-890.23 -186.47 2320.1
-877.51 -185.05 2302.5
-861.35 -182.89 2275.6
-881.79 -188.52 2345.7
-901.56 -194.09 2414.9
-900.22 -195.15 2428.2
-881.92 -192.53 2395.6
-880.55 -193.60 2408.8
-884.90 -195.94 2438.0
-854.29 -190.52 2370.6
-829.69 -186.38 2319.0
-820.34 -185.63 2309.6
-797.11 -181.69 2260.7
-774.43 -177.83 2212.7
-779.13 -180.25 2242.7
-792.45 -184.71 2298.2
-789.06 -185.31 2305.7
-805.50 -190.61 2371.7
-783.06 -188.18 2341.4
-751.52 -182.01 2264.6
-736.56 -179.79 2237.0
-724.81 -178.33 2218.8
-707.92 -175.57 2184.5
-697.60 -174.40 2170.0
-720.36 -181.56 2259.0
-720.05 -186.01 2314.5
-707.52 -184.31 2293.3
-699.45 -183.75 2286.4
-698.66 -185.11 2303.3
-702.08 -187.62 2334.5
-695.10 -187.37 2331.4
-688.41 -187.20 2329.2
-679.48 -186.41 2319.3
-659.48 -182.53 2271.2
-655.97 -183.20 2279.4
-654.33 -184.40 2294.4
-640.96 -182.29 2268.1
-637.12 -182.88 2275.4
-629.24 -182.30 2268.3
-624.04 -182.50 2270.8
-634.53 -187.34 2330.9
-641.35 -191.17 2378.6
-640.23 -192.69 2397.5
-633.40 -192.50 2395.2
-623.80 -191.46 2382.3
-610.00 -189.10 2352.9
-612.46 -191.78 2386.2
-627.76 -198.58 2470.8
-612.74 -195.82 2436.5
-585.09 -190.93 2375.6
-600.76 -198.12 2465.1
-600.80 -200.27 2491.8
-596.77 -201.08 2502.0
-1273.16 -211.09 2544.4
-1274.09 -212.35 2559.6
-1271.34 -214.12 2580.9
-1225.57 -207.50 2501.2
-1172.70 -199.61 2406.0
-1169.38 -200.11 2412.0
-1196.36 -205.83 2480.9
-1188.45 -206.69 2491.3
-1140.86 -199.49 2404.6
-1101.29 -193.63 2334.0
-1088.70 -192.48 2320.0
-1071.95 -190.57 2297.0
-1073.76 -191.96 2313.8
-1083.44 -194.78 2347.7
-1062.19 -192.03 2314.7
-1056.80 -192.15 2316.0
-1058.82 -193.61 2333.7
-1051.33 -193.35 2330.5
-1040.99 -192.55 2321.0
-1036.38 -192.81 2324.1
-1043.46 -195.27 2353.7
-1026.28 -193.18 2328.5
-1005.61 -190.41 2295.1
-1020.91 -194.46 2343.9
-1031.24 -197.60 2381.8
-1009.87 -194.67 2346.5
-981.98 -190.44 2295.5
-978.50 -190.93 2301.3
-982.74 -192.93 2325.5
-978.78 -193.34 2330.4
-984.38 -195.65 2358.3
-984.13 -196.83 2372.5
-966.71 -194.56 2345.1
-952.05 -192.82 2324.2
-940.11 -191.62 2309.6
-912.53 -187.19 2256.3
-902.66 -186.36 2246.3
-914.64 -190.06 2290.8
-901.05 -188.46 2271.6
-881.70 -185.62 2237.4
-879.21 -186.32 2245.8
-882.46 -188.26 2269.2
-887.40 -190.58 2297.2
-896.49 -193.84 2336.4
-896.88 -195.24 2353.3
-893.66 -195.87 2360.9
-906.89 -200.14 2412.4
-903.17 -202.11 2436.1
-872.46 -196.61 2369.9
-854.37 -193.90 2337.2
-843.92 -192.89 2325.1
-832.49 -191.65 2310.1
-825.17 -191.34 2306.4
-817.19 -190.88 2300.7
-797.29 -187.60 2261.2
-780.54 -185.02 2230.1
-789.12 -188.45 2271.5
-813.75 -195.79 2360.0
-796.96 -196.18 2364.6
-781.64 -193.90 2337.1
-765.19 -191.30 2305.8
-755.12 -190.27 2293.4
-747.27 -189.78 2287.6
-732.99 -187.65 2261.8
-725.54 -187.24 2256.9
-722.95 -188.09 2267.1
-727.83 -190.91 2301.1
-732.24 -193.65 2334.2
-720.80 -192.21 2316.9
-700.92 -188.48 2271.9
-685.90 -186.01 2242.1
-679.42 -185.83 2239.9
-679.55 -187.46 2259.6
-679.01 -188.94 2277.4
-678.38 -190.42 2295.3
-676.55 -191.59 2309.3
-663.24 -189.50 2284.1
-658.32 -189.79 2287.6
-655.57 -190.71 2298.8
-636.23 -186.78 2251.4
-627.05 -185.79 2239.5
-621.92 -186.00 2241.9
-620.22 -187.24 2256.9
-626.03 -190.79 2299.7
-629.55 -193.71 2334.9
-635.21 -197.35 2378.8
-636.33 -199.63 2406.3
-626.45 -198.48 2392.4
-613.63 -196.36 2366.9
-604.41 -195.36 2354.8
-608.24 -198.61 2394.0
-617.48 -203.70 2455.4
-614.13 -204.71 2467.5
-602.86 -203.07 2447.7
-606.31 -206.40 2487.9
-610.26 -209.98 2531.0
-1227.38 -212.06 2478.6
-1220.89 -212.05 2478.5
-1184.11 -206.75 2416.6
-1143.22 -200.67 2345.5
-1148.73 -202.72 2369.4
-1166.27 -206.92 2418.5
-1169.36 -208.59 2438.0
-1167.64 -209.41 2447.7
-1135.10 -204.69 2392.5
-1088.33 -197.33 2306.5
-1070.29 -195.14 2280.8
-1083.56 -198.65 2321.9
-1114.28 -205.43 2401.1
-1092.35 -203.66 2380.4
-1064.48 -199.59 2332.9
-1045.86 -197.22 2305.2
-1040.48 -197.33 2306.5
-1033.46 -197.13 2304.2
-1023.20 -196.31 2294.5
-1025.09 -197.82 2312.2
-1029.31 -199.81 2335.4
-1030.63 -201.25 2352.2
-1013.56 -199.09 2327.1
-990.26 -195.68 2287.2
-991.95 -197.19 2304.9
-988.85 -197.77 2311.6
-964.27 -194.03 2267.9
-947.25 -191.77 2241.5
-941.54 -191.79 2241.8
-946.57 -194.02 2267.7
-968.29 -199.71 2334.3
-972.23 -201.78 2358.5
-962.08 -200.94 2348.6
-954.59 -200.65 2345.2
-935.91 -197.98 2314.1
-934.46 -198.95 2325.4
-930.00 -199.28 2329.3
-900.15 -194.15 2269.3
-888.84 -192.97 2255.5
-893.94 -195.36 2283.5
-900.00 -198.00 2314.3
-910.58 -201.67 2357.2
-894.54 -199.46 2331.3
-870.09 -195.33 2283.0
-879.73 -198.84 2324.1
-906.36 -206.28 2411.0
-902.62 -206.85 2417.7
-869.73 -200.71 2345.9
-844.74 -196.31 2294.6
-831.62 -194.64 2275.0
-831.17 -195.92 2290.0
-828.28 -196.64 2298.4
-808.22 -193.27 2259.0
-789.01 -190.05 2221.4
-784.88 -190.45 2226.0
-781.71 -191.08 2233.4
-775.88 -191.08 2233.4
-785.98 -195.02 2279.4
-786.17 -196.54 2297.3
-769.93 -193.95 2267.0
-775.80 -196.93 2301.8
-780.54 -199.67 2333.8
-773.83 -199.50 2331.9
-772.74 -200.79 2346.9
-763.53 -199.97 2337.3
-747.90 -197.45 2307.8
-726.62 -193.37 2260.2
-709.18 -190.27 2223.9
-718.67 -194.39 2272.1
-729.12 -198.85 2324.2
-719.77 -197.94 2313.5
-700.78 -194.33 2271.4
-690.14 -193.01 2255.9
-688.55 -194.21 2269.9
-673.68 -191.65 2240.1
-659.23 -189.17 2211.1
-660.73 -191.27 2235.6
-661.84 -193.28 2259.1
-658.11 -193.91 2266.4
-662.88 -197.07 2303.4
-662.54 -198.76 2323.2
-646.40 -195.70 2287.4
-629.34 -192.30 2247.6
-616.74 -190.21 2223.2
-618.77 -192.64 2251.6
-628.26 -197.45 2307.9
-626.31 -198.73 2322.9
-626.86 -200.84 2347.5
-630.09 -203.85 2382.7
-622.79 -203.49 2378.4
-619.01 -204.27 2387.6
-621.13 -207.04 2420.0
-615.97 -207.42 2424.4
-616.14 -209.61 2450.0
-620.75 -213.38 2494.1
-618.70 -214.92 2512.0
-612.55 -215.05 2513.5
-604.52 -214.51 2507.2
-601.61 -215.80 2522.3
-1274.97 -225.78 2561.3
-1227.61 -218.53 2479.1
-1228.15 -219.78 2493.2
-1215.48 -218.66 2480.6
-1195.87 -216.27 2453.5
-1170.27 -212.78 2413.9
-1158.69 -211.80 2402.8
-1156.21 -212.49 2410.6
-1149.83 -212.47 2410.4
-1142.59 -212.28 2408.3
-1120.88 -209.40 2375.5
-1101.01 -206.82 2346.3
-1112.87 -210.21 2384.7
-1100.59 -210.22 2384.9
-1072.61 -206.04 2337.4
-1042.35 -201.36 2284.4
-1043.61 -202.76 2300.2
-1058.32 -206.80 2346.0
-1054.07 -207.16 2350.1
-1046.96 -206.96 2347.8
-1045.50 -207.88 2358.3
-1046.01 -209.20 2373.3
-1037.64 -208.76 2368.2
-1009.79 -204.36 2318.4
-996.80 -202.94 2302.3
-1009.89 -206.84 2346.6
-1009.84 -208.09 2360.7
-989.83 -205.21 2328.0
-969.57 -202.24 2294.3
-960.27 -201.54 2286.4
-944.47 -199.45 2262.7
-946.33 -201.10 2281.3
-948.11 -202.74 2300.0
-934.69 -201.14 2281.8
-946.90 -205.06 2326.3
-948.44 -206.71 2345.0
-919.04 -201.60 2287.0
-885.10 -195.41 2216.9
-899.61 -199.91 2267.9
-932.88 -208.67 2367.3
-913.39 -205.66 2333.2
-896.57 -203.22 2305.5
-891.37 -203.40 2307.5
-859.37 -197.42 2239.7
-870.27 -201.29 2283.5
-916.60 -213.45 2421.5
-920.57 -215.86 2448.8
-895.47 -211.43 2398.6
-866.79 -206.09 2338.0
-842.17 -201.65 2287.6
-844.46 -203.63 2310.1
-857.87 -208.34 2363.5
-855.82 -209.34 2374.8
-839.28 -206.78 2345.8
-812.20 -201.57 2286.7
-797.97 -199.49 2263.2
-802.62 -202.14 2293.2
-802.87 -203.71 2311.0
-785.17 -200.72 2277.1
-761.49 -196.14 2225.1
-752.47 -195.30 2215.6
-764.50 -199.95 2268.3
-768.06 -202.43 2296.5
-760.18 -201.92 2290.7
-760.74 -203.66 2310.5
-754.40 -203.57 2309.4
-745.29 -202.72 2299.8
-730.13 -200.20 2271.1
-713.28 -197.17 2236.8
-723.03 -201.50 2285.9
-738.51 -207.52 2354.2
-734.72 -208.17 2361.6
-720.90 -205.97 2336.7
-715.07 -206.04 2337.4
-706.05 -205.18 2327.6
-683.87 -200.44 2273.9
-671.62 -198.57 2252.6
-675.29 -201.40 2284.8
-670.11 -201.63 2287.3
-660.19 -200.42 2273.6
-665.22 -203.76 2311.6
-665.69 -205.76 2334.2
-645.18 -201.25 2283.1
-624.64 -196.65 2230.9
-622.07 -199.53 2263.6
-639.38 -207.04 2348.7
-644.60 -210.73 2390.7
-635.98 -209.94 2381.6
-628.94 -209.65 2378.3
-634.27 -213.52 2422.2
-644.39 -219.09 2485.5
-639.58 -219.65 2491.9
-626.89 -217.49 2467.3
-619.90 -217.28 2465.0
-616.52 -218.35 2477.1
-610.23 -218.40 2477.6
-599.21 -216.74 2458.8
-604.16 -220.88 2505.7
-1257.31 -228.01 2512.8
-1228.10 -223.87 2467.2
-1212.34 -222.16 2448.3
-1233.21 -227.17 2503.5
-1238.94 -229.43 2528.4
-1205.25 -224.38 2472.8
-1169.18 -218.83 2411.6
-1161.51 -218.56 2408.7
-1163.32 -220.09 2425.5
-1141.03 -217.04 2391.9
-1119.73 -214.16 2360.1
-1113.02 -214.04 2358.8
-1107.58 -214.17 2360.3
-1100.86 -214.06 2359.0
-1089.95 -213.12 2348.7
-1077.41 -211.85 2334.7
-1055.78 -208.77 2300.7
-1043.39 -207.49 2286.7
-1062.76 -212.55 2342.4
-1059.35 -213.09 2348.3
-1035.93 -209.58 2309.7
-1026.87 -208.96 2302.8
-1023.49 -209.49 2308.6
-1030.53 -212.17 2338.2
-1028.64 -213.03 2347.7
-1027.10 -213.98 2358.1
-980.15 -211.76 2333.7
-938.91 -204.11 2249.4
-955.31 -208.97 2303.0
-971.09 -213.76 2355.7
-930.35 -206.09 2271.2
-914.78 -203.93 2247.4
-922.47 -206.96 2280.8
-899.54 -203.12 2238.5
-904.94 -207.01 2281.4
-935.62 -215.44 2374.2
-914.30 -211.92 2335.5
-894.95 -208.82 2301.3
-886.52 -208.24 2294.9
-862.77 -204.03 2248.5
-883.58 -210.38 2318.4
-914.65 -219.27 2416.4
-901.80 -217.68 2398.9
-910.62 -221.33 2439.2
-874.35 -215.51 2375.0
-861.74 -213.91 2357.3
-855.31 -213.83 2356.5
-834.70 -210.18 2316.2
-842.47 -213.67 2354.7
-840.04 -214.61 2365.1
-809.41 -208.30 2295.6
-799.17 -207.19 2283.3
-804.34 -210.09 2315.3
-791.51 -208.29 2295.5
-776.18 -205.80 2268.0
-775.71 -207.25 2284.0
-758.30 -204.16 2249.9
-736.18 -201.30 2218.4
-745.94 -205.57 2265.5
-743.42 -206.50 2275.8
-738.07 -206.66 2277.5
-731.81 -206.56 2276.4
-724.33 -206.11 2271.4
-726.48 -208.42 2296.8
-734.48 -212.45 2341.3
-727.17 -212.09 2337.3
-709.88 -208.79 2300.9
-712.59 -211.36 2329.3
-711.39 -212.81 2345.3
-699.79 -211.14 2326.9
-697.10 -212.16 2338.1
-687.28 -211.01 2325.4
-669.13 -207.25 2284.0
-669.50 -209.22 2305.7
-683.54 -215.53 2375.2
-676.20 -217.13 2392.8
-638.21 -206.83 2279.3
-617.72 -203.96 2247.8
-635.84 -211.95 2335.7
-639.79 -215.31 2372.8
-629.42 -213.88 2357.1
-631.86 -216.81 2389.4
-647.26 -224.30 2471.8
-650.50 -227.67 2509.1
-638.20 -225.63 2486.5
-629.20 -224.72 2476.5
-625.84 -225.82 2488.6
-628.42 -229.11 2524.9
-629.16 -231.79 2554.5
-616.30 -229.47 2528.9
-1232.75 -231.14 2476.5
-1211.23 -228.29 2446.0
-1226.81 -232.45 2490.5
-1240.02 -236.19 2530.6
-1211.57 -232.00 2485.7
-1176.78 -226.55 2427.3
-1171.67 -226.78 2429.7
-1158.79 -225.49 2416.0
-1122.79 -219.68 2353.7
-1098.15 -216.03 2314.6
-1087.29 -215.07 2304.3
-1082.39 -215.28 2306.6
-1075.79 -215.16 2305.3
-1066.67 -214.53 2298.5
-1055.91 -213.55 2288.1
-1041.86 -211.90 2270.4
-1038.22 -212.36 2275.3
-1042.38 -214.43 2297.5
-1023.50 -211.76 2268.8
-1007.59 -209.67 2246.5
-1007.59 -210.89 2259.6
-1000.67 -210.67 2257.2
-1002.60 -212.32 2274.8
-1006.84 -214.48 2298.0
-1011.78 -216.81 2323.0
-1009.08 -217.53 2330.6
-992.95 -215.34 2307.2
-1000.03 -218.19 2337.7
-1010.88 -221.90 2377.5
-1009.27 -224.28 2403.0
-964.82 -215.74 2311.4
-975.35 -219.45 2351.3
-956.60 -217.96 2335.3
-941.26 -215.83 2312.5
-947.31 -218.61 2342.2
-929.82 -215.96 2313.8
-915.03 -213.90 2291.8
-915.41 -215.39 2307.7
-920.45 -218.00 2335.7
-924.28 -220.36 2361.0
-930.87 -223.41 2393.7
-926.54 -223.86 2398.5
-907.20 -220.67 2364.3
-909.65 -222.77 2386.8
-921.52 -227.22 2434.5
-908.27 -225.50 2416.1
-917.40 -229.35 2457.3
-878.66 -224.34 2403.6
-833.72 -214.39 2297.0
-815.61 -211.24 2263.3
-827.86 -215.96 2313.9
-829.86 -218.07 2336.4
-803.27 -212.63 2278.2
-796.36 -212.36 2275.3
-808.75 -217.28 2328.0
-807.90 -218.68 2343.0
-803.10 -219.03 2346.7
-796.69 -218.94 2345.7
-775.00 -214.61 2299.4
-756.05 -210.99 2260.6
-762.06 -214.33 2296.4
-771.95 -218.82 2344.5
-768.62 -219.61 2352.9
-754.50 -217.30 2328.2
-738.05 -214.27 2295.8
-721.75 -211.24 2263.3
-715.21 -211.05 2261.2
-718.82 -213.86 2291.4
-707.78 -212.33 2275.0
-689.18 -208.49 2233.8
-690.58 -210.69 2257.3
-699.39 -215.20 2305.7
-697.63 -216.51 2319.7
-677.31 -212.03 2271.7
-651.34 -207.51 2223.3
-670.18 -215.42 2308.0
-679.26 -220.30 2360.3
-680.42 -222.68 2385.9
-675.78 -223.19 2391.3
-646.93 -215.64 2310.5
-620.48 -210.73 2257.8
-635.70 -217.95 2335.2
-636.54 -220.34 2360.8
-626.97 -219.13 2347.9
-631.21 -222.78 2386.9
-637.27 -227.15 2433.7
-630.11 -226.84 2430.4
-627.91 -228.33 2446.4
-629.80 -231.35 2478.8
-619.38 -229.87 2462.9
-615.77 -230.91 2474.1
-619.49 -234.75 2515.2
-608.85 -233.18 2498.3
-611.13 -236.57 2534.7
-594.80 -235.30 2521.1
-1248.49 -240.59 2508.1
-1243.30 -242.12 2524.0
-1216.98 -238.24 2483.6
-1200.85 -236.34 2463.8
-1176.55 -232.79 2426.8
-1155.00 -229.76 2395.2
-1125.81 -225.16 2347.3
-1098.12 -220.82 2302.0
-1078.72 -218.10 2273.6
-1074.32 -218.41 2276.8
-1075.82 -219.92 2292.6
-1065.04 -218.92 2282.2
-1052.20 -217.49 2267.3
-1048.18 -217.88 2271.3
-1039.99 -217.40 2266.3
-1042.98 -219.26 2285.7
-1053.70 -222.78 2322.4
-1038.86 -220.91 2302.9
-1026.54 -219.55 2288.7
-1021.18 -219.67 2290.0
-1008.14 -218.14 2274.0
-1003.60 -218.43 2277.1
-1001.44 -219.25 2285.6
-988.90 -217.79 2270.4
-966.13 -214.05 2231.4
-960.65 -215.42 2245.7
-970.14 -218.87 2281.7
-979.85 -222.42 2318.7
-997.88 -227.91 2375.9
-983.80 -226.09 2356.9
-967.90 -223.83 2333.3
-958.92 -223.15 2326.2
-940.54 -220.25 2296.1
-942.56 -222.13 2315.7
-961.30 -228.00 2376.8
-957.85 -228.65 2383.6
-925.18 -222.28 2317.3
-907.50 -219.46 2287.8
-931.21 -226.68 2363.0
-942.95 -232.59 2424.7
-919.17 -228.25 2379.4
-892.74 -223.18 2326.6
-887.82 -223.47 2329.6
-921.67 -233.57 2434.9
-916.86 -235.58 2455.9
-865.13 -227.02 2366.6
-831.84 -219.84 2291.8
-826.24 -219.94 2292.8
-825.00 -221.19 2305.9
-814.68 -220.02 2293.7
-813.04 -221.19 2305.9
-832.05 -228.04 2377.3
-841.26 -232.29 2421.5
-835.64 -232.47 2423.5
-808.73 -226.69 2363.2
-780.18 -220.36 2297.1
-789.78 -224.78 2343.3
-801.68 -229.94 2397.1
-786.98 -227.49 2371.5
-777.07 -226.39 2360.1
-780.20 -229.11 2388.4
-771.83 -228.46 2381.7
-763.80 -227.91 2375.9
-755.48 -227.26 2369.1
-731.27 -221.78 2312.0
-718.96 -219.85 2291.8
-727.44 -224.29 2338.2
-729.24 -226.74 2363.7
-698.29 -218.96 2282.6
-684.28 -218.26 2275.3
-675.17 -217.23 2264.5
-655.93 -212.89 2219.3
-665.75 -217.99 2272.5
-663.09 -219.06 2283.6
-651.01 -217.00 2262.2
-646.68 -217.52 2267.6
-636.09 -215.92 2250.9
-641.15 -219.65 2289.8
-646.81 -223.66 2331.6
-638.55 -222.89 2323.6
-641.31 -225.99 2355.8
-644.95 -229.45 2392.0
-638.64 -229.42 2391.6
-628.77 -228.08 2377.7
-619.47 -226.94 2365.7
-618.22 -228.74 2384.6
-622.82 -232.77 2426.6
-629.66 -237.73 2478.2
-624.34 -238.15 2482.6
-610.82 -235.42 2454.2
-603.63 -235.10 2450.8
-611.54 -240.71 2509.4
-1233.59 -244.15 2478.2
-1260.70 -250.82 2545.9
-1232.93 -246.59 2502.9
-1215.42 -244.37 2480.4
-1206.28 -243.82 2474.9
-1158.93 -235.50 2390.5
-1117.99 -228.41 2318.4
-1119.55 -229.96 2334.2
-1117.62 -230.81 2342.8
-1100.70 -228.56 2320.0
-1097.90 -229.23 2326.8
-1090.83 -229.02 2324.6
-1070.72 -226.04 2294.4
-1064.98 -226.08 2294.8
-1067.16 -227.82 2312.5
-1057.63 -227.06 2304.8
-1058.06 -228.44 2318.8
-1037.74 -227.94 2313.7
-1008.39 -222.78 2261.4
-996.22 -221.38 2247.1
-992.54 -221.86 2252.0
-1003.23 -225.58 2289.7
-1003.01 -226.87 2302.8
-980.96 -223.21 2265.7
-965.37 -220.99 2243.1
-967.11 -222.73 2260.8
-968.37 -224.38 2277.5
-956.38 -222.96 2263.1
-952.54 -223.44 2268.0
-943.69 -222.74 2260.8
-933.73 -221.76 2251.0
-929.87 -222.23 2255.8
-916.56 -220.44 2237.5
-927.72 -224.54 2279.2
-955.12 -232.66 2361.6
-954.30 -233.96 2374.8
-924.25 -228.06 2314.9
-906.94 -225.25 2286.4
-929.92 -232.48 2359.7
-945.66 -237.98 2415.6
-924.70 -234.26 2377.8
-900.31 -229.61 2330.6
-873.99 -224.40 2277.8
-885.87 -230.57 2340.4
-908.93 -238.20 2417.8
-911.43 -240.52 2441.3
-859.13 -231.54 2350.2
-843.95 -230.72 2341.9
-869.76 -239.50 2431.0
-852.83 -236.55 2401.1
-846.63 -236.56 2401.1
-852.92 -240.08 2436.9
-849.24 -240.83 2444.5
-851.04 -243.15 2468.1
-829.83 -238.89 2424.8
-791.53 -229.60 2330.6
-794.37 -232.20 2356.9
-799.61 -235.54 2390.9
-778.03 -230.98 2344.5
-765.38 -229.01 2324.5
-767.04 -231.33 2348.1
-777.49 -236.36 2399.1
-756.03 -235.48 2390.3
-734.29 -230.60 2340.7
-735.56 -232.93 2364.3
-741.99 -236.94 2405.0
-714.44 -230.07 2335.3
-683.46 -221.98 2253.2
-686.13 -224.77 2281.5
-696.63 -230.19 2336.5
-696.13 -232.04 2355.3
-696.11 -234.09 2376.1
-684.87 -232.37 2358.6
-654.72 -224.14 2275.1
-636.21 -221.80 2251.3
-655.76 -230.73 2342.0
-646.93 -229.75 2332.1
-623.63 -223.57 2269.3
-633.58 -229.29 2327.4
-644.02 -235.31 2388.5
-641.06 -236.51 2400.6
-635.75 -236.85 2404.1
-620.84 -233.58 2371.0
-612.08 -232.59 2360.9
-615.25 -236.15 2397.1
-620.44 -240.58 2442.0
-623.71 -244.34 2480.1
-621.02 -245.82 2495.2
-616.58 -246.63 2503.4
-1234.87 -253.47 2506.9
