ply
format ascii 1.0
element vertex 2178
property float x
property float y
property float z
end_header
-209.59 261.18 1243.7
-206.93 261.89 1247.1
-209.62 269.51 1283.4
-210.88 275.50 1311.9
-205.41 272.76 1298.9
-198.81 268.40 1278.1
-196.16 269.31 1282.4
-206.01 287.71 1370.0
-208.98 296.97 1414.1
-197.36 285.47 1359.4
-188.79 278.04 1324.0
-191.26 286.89 1366.2
-201.51 307.97 1466.5
-213.47 332.52 1583.4
-355.13 289.90 1397.7
-345.98 285.34 1375.8
-329.35 274.46 1323.3
-316.73 266.72 1286.0
-315.90 268.85 1296.2
-305.82 263.07 1268.4
-288.15 250.57 1208.1
-283.38 249.12 1201.1
-284.65 253.02 1219.9
-277.90 249.79 1204.4
-269.04 244.58 1179.2
-265.91 244.51 1178.9
-260.86 242.66 1170.0
-254.37 239.41 1154.3
-259.85 247.48 1193.2
-265.76 256.15 1235.0
-261.26 254.89 1228.9
-251.16 248.06 1196.0
-244.00 244.00 1176.4
-241.66 244.72 1179.9
-240.66 246.83 1190.1
-237.88 247.15 1191.6
-231.49 243.68 1174.9
-222.57 237.41 1144.6
-217.30 234.92 1132.7
-218.11 239.02 1152.4
-216.12 240.13 1157.8
-213.57 240.64 1160.2
-214.15 244.74 1180.0
-214.46 248.65 1198.8
-209.57 246.55 1188.7
-205.74 245.66 1184.4
-208.21 252.37 1216.8
-212.95 262.09 1263.7
-213.93 267.41 1289.3
-205.62 261.10 1258.9
-195.28 251.97 1214.9
-191.29 250.87 1209.5
-186.87 249.16 1201.3
-185.01 250.86 1209.5
-195.05 269.03 1297.1
-207.79 291.64 1406.1
-207.18 295.97 1427.0
-197.60 287.42 1385.8
-198.97 294.76 1421.2
-207.48 313.18 1510.0
-217.64 334.83 1614.3
-354.09 285.44 1393.7
-337.77 275.09 1343.1
-332.59 273.69 1336.3
-327.67 272.49 1330.4
-319.54 268.55 1311.2
-304.36 258.55 1262.3
-289.43 248.53 1213.4
-286.67 248.87 1215.1
-290.58 255.07 1245.4
-285.75 253.64 1238.4
-273.09 245.16 1197.0
-266.47 241.97 1181.4
-265.04 243.47 1188.7
-262.10 243.59 1189.3
-257.69 242.35 1183.3
-253.72 241.49 1179.1
-252.83 243.58 1189.3
-247.05 240.95 1176.4
-240.94 237.92 1161.7
-239.42 239.42 1169.0
-247.39 250.56 1223.3
-253.54 260.13 1270.1
-240.52 250.01 1220.7
-225.30 237.31 1158.7
-219.26 234.07 1142.8
-218.95 236.94 1156.9
-221.44 242.97 1186.3
-223.08 248.21 1211.9
-219.86 248.12 1211.5
-216.47 247.84 1210.1
-210.19 244.19 1192.2
-204.67 241.32 1178.3
-203.02 243.01 1186.5
-204.59 248.65 1214.0
-204.89 252.91 1234.8
-196.24 246.08 1201.5
-193.82 246.97 1205.8
-197.66 255.98 1249.8
-190.27 250.53 1223.2
-185.69 248.64 1214.0
-196.17 267.19 1304.5
-209.90 290.92 1420.4
-208.69 294.40 1437.4
-199.50 286.55 1399.1
-198.39 290.23 1417.0
-203.72 303.65 1482.6
-212.38 322.65 1575.3
-216.58 335.49 1638.0
-211.52 334.21 1631.7
-208.96 336.90 1644.9
-360.55 286.96 1419.1
-341.76 274.82 1359.0
-334.41 271.71 1343.6
-330.65 271.48 1342.5
-323.64 268.55 1328.0
-310.95 260.80 1289.7
-298.67 253.22 1252.2
-294.69 252.59 1249.1
-297.19 257.56 1273.7
-290.52 254.61 1259.1
-276.06 244.69 1210.0
-269.40 241.53 1194.4
-266.66 241.86 1196.0
-262.86 241.21 1192.8
-259.06 240.56 1189.6
-253.43 238.16 1177.7
-249.89 237.70 1175.4
-249.19 239.96 1186.6
-248.82 242.60 1199.7
-247.41 244.28 1208.0
-252.76 252.76 1249.9
-251.56 254.82 1260.1
-234.75 240.93 1191.4
-223.35 232.28 1148.7
-220.66 232.59 1150.2
-219.24 234.25 1158.4
-220.65 239.04 1182.1
-221.77 243.63 1204.8
-217.86 242.76 1200.5
-215.71 243.84 1205.8
-211.14 242.19 1197.6
-201.07 234.09 1157.6
-195.68 231.25 1143.6
-196.86 236.24 1168.2
-196.64 239.66 1185.1
-194.60 240.93 1191.4
-198.74 250.03 1236.4
-202.96 259.53 1283.4
-194.59 252.97 1250.9
-188.90 249.73 1234.9
-197.87 266.10 1315.9
-205.28 280.91 1389.1
-198.08 275.90 1364.4
-197.94 280.71 1388.1
-205.69 297.11 1469.2
-209.69 308.60 1526.1
-216.55 324.82 1606.2
-221.32 338.49 1673.8
-217.05 338.60 1674.4
-208.82 332.41 1643.8
-207.04 336.45 1663.7
-206.70 343.04 1696.4
-349.11 277.13 1388.2
-343.10 275.20 1378.5
-341.13 276.50 1385.1
-322.63 264.28 1323.9
-302.35 250.34 1254.0
-297.68 249.14 1248.0
-300.24 254.05 1272.6
-295.77 253.05 1267.6
-283.60 245.36 1229.1
-274.01 239.76 1201.0
-271.91 240.65 1205.5
-267.64 239.63 1200.4
-262.14 237.46 1189.5
-261.90 240.08 1202.6
-260.57 241.73 1210.9
-254.09 238.60 1195.2
-250.31 237.95 1192.0
-246.15 236.92 1186.8
-240.83 234.73 1175.9
-243.93 240.80 1206.2
-241.11 241.11 1207.8
-231.45 234.50 1174.7
-226.08 232.11 1162.7
-221.87 230.87 1156.5
-218.61 230.59 1155.1
-216.98 232.04 1162.4
-214.77 232.92 1166.7
-213.24 234.56 1175.0
-213.22 237.94 1191.9
-211.75 239.78 1201.1
-205.54 236.22 1183.3
-198.75 231.87 1161.5
-198.92 235.64 1180.4
-203.97 245.40 1229.3
-207.66 253.81 1271.4
-203.67 252.94 1267.0
-198.47 250.52 1254.9
-199.21 255.65 1280.6
-202.19 263.88 1321.8
-203.51 270.17 1353.4
-202.22 273.18 1368.4
-199.59 274.44 1374.7
-203.44 284.81 1426.7
-214.09 305.27 1529.2
-220.61 320.51 1605.5
-219.40 324.89 1627.4
-216.28 326.55 1635.8
-213.50 328.79 1647.0
-206.82 325.01 1628.0
-200.48 321.61 1611.0
-195.42 320.15 1603.7
-193.52 323.94 1622.7
-194.26 332.40 1665.1
-195.11 341.44 1710.4
-348.72 276.07 1401.1
-340.35 272.28 1381.9
-316.04 255.52 1296.8
-310.55 253.78 1288.0
-318.55 263.15 1335.5
-302.41 252.56 1281.8
-281.85 238.01 1207.9
-279.09 238.33 1209.5
-278.51 240.53 1220.7
-276.57 241.60 1226.2
-272.04 240.41 1220.1
-264.16 236.19 1198.7
-261.61 236.69 1201.3
-258.63 236.82 1201.9
-251.56 233.15 1183.3
-247.00 231.76 1176.2
-242.48 230.36 1169.1
-233.46 224.59 1139.9
-231.59 225.65 1145.2
-239.50 236.39 1199.7
-240.67 240.67 1221.5
-232.37 235.47 1195.1
-224.76 230.83 1171.5
-217.80 226.75 1150.8
-212.94 224.77 1140.7
-216.29 231.53 1175.0
-220.53 239.43 1215.2
-219.03 241.25 1224.4
-216.46 241.92 1227.8
-213.70 242.41 1230.3
-210.43 242.32 1229.8
-209.94 245.47 1245.8
-214.67 254.92 1293.8
-216.94 261.70 1328.2
-210.77 258.37 1311.3
-202.24 251.97 1278.8
-199.76 253.03 1284.2
-201.99 260.19 1320.5
-203.17 266.22 1351.1
-204.04 272.06 1380.7
-203.35 275.98 1400.7
-201.60 278.57 1413.8
-205.89 289.77 1470.6
-208.16 298.49 1514.9
-203.25 297.06 1507.6
-204.30 304.44 1545.1
-205.15 311.83 1582.6
-201.36 312.31 1585.0
-197.55 312.79 1587.5
-194.56 314.61 1596.7
-194.31 321.04 1629.3
-191.62 323.63 1642.5
-189.31 326.99 1659.5
-190.17 336.11 1705.8
-340.98 269.20 1384.4
-323.40 258.03 1327.0
-323.36 260.78 1341.1
-326.22 265.94 1367.7
-304.13 250.66 1289.1
-284.88 237.40 1220.9
-284.30 239.58 1232.1
-280.82 239.34 1230.9
-276.05 237.98 1223.9
-271.96 237.17 1219.7
-264.07 233.01 1198.3
-265.08 236.68 1217.2
-265.98 240.35 1236.1
-256.58 234.68 1206.9
-249.95 231.43 1190.2
-250.17 234.54 1206.2
-245.00 232.60 1196.2
-235.79 226.72 1166.0
-234.99 228.89 1177.1
-237.37 234.25 1204.7
-230.42 230.42 1185.0
-222.09 225.09 1157.6
-215.17 221.06 1136.9
-209.25 217.97 1121.0
-211.77 223.70 1150.5
-218.88 234.51 1206.1
-220.00 239.13 1229.8
-215.03 237.16 1219.7
-210.61 235.76 1212.5
-208.38 236.80 1217.8
-207.92 239.91 1233.8
-208.82 244.71 1258.5
-206.28 245.57 1262.9
-208.69 252.45 1298.3
-209.24 257.26 1323.1
-200.00 250.00 1285.7
-195.56 248.59 1278.5
-194.80 251.89 1295.4
-194.09 255.38 1313.4
-199.64 267.38 1375.1
-203.91 278.06 1430.0
-200.41 278.34 1431.5
-195.29 276.36 1421.3
-195.08 281.37 1447.0
-200.15 294.33 1513.7
-204.11 306.17 1574.6
-203.19 311.00 1599.4
-198.37 309.96 1594.1
-193.71 309.11 1589.7
-196.85 320.95 1650.6
-197.86 329.77 1695.9
-189.07 322.27 1657.4
-182.86 318.95 1640.3
-180.89 323.02 1661.2
-178.50 326.52 1679.3
-337.51 265.70 1384.9
-323.28 257.23 1340.8
-314.06 252.61 1316.7
-305.17 248.16 1293.5
-296.63 243.89 1271.3
-292.39 243.11 1267.2
-285.98 240.48 1253.5
-280.07 238.22 1241.7
-275.08 236.69 1233.7
-265.89 231.48 1206.6
-264.36 232.89 1213.9
-265.07 236.33 1231.8
-256.49 231.47 1206.5
-252.48 230.67 1202.3
-253.88 234.84 1224.1
-251.82 235.88 1229.5
-244.47 231.93 1208.9
-235.10 225.94 1177.7
-229.88 223.83 1166.7
-226.40 223.38 1164.3
-221.63 221.63 1155.2
-219.47 222.48 1159.6
-218.00 224.06 1167.9
-213.83 222.86 1161.6
-214.24 226.49 1180.5
-217.85 233.64 1217.8
-214.96 233.92 1219.3
-210.04 231.98 1209.2
-206.82 231.89 1208.7
-202.79 230.87 1203.4
-199.43 230.59 1201.9
-203.21 238.69 1244.1
-212.07 253.11 1319.3
-209.19 253.77 1322.7
-196.62 242.50 1264.0
-196.09 245.95 1282.0
-199.12 254.06 1324.2
-194.18 252.10 1314.0
-194.94 257.60 1342.7
-201.65 271.31 1414.2
-200.91 275.32 1435.1
-195.39 272.80 1421.9
-194.52 276.82 1442.9
-198.70 288.30 1502.7
-201.68 298.49 1555.8
-202.54 305.88 1594.3
-199.44 307.47 1602.6
-193.20 304.19 1585.6
-194.38 312.71 1629.9
-195.34 321.22 1674.3
-187.26 314.94 1641.6
-180.99 311.47 1623.5
-178.21 313.99 1636.7
-179.21 323.45 1685.9
-345.52 265.51 1402.9
-334.87 260.06 1374.1
-324.12 254.42 1344.3
-309.63 245.69 1298.2
-296.73 238.04 1257.7
-293.86 238.35 1259.4
-294.07 241.20 1274.5
-290.71 241.15 1274.2
-287.99 241.65 1276.8
-277.13 235.24 1242.9
-262.84 225.73 1192.7
-258.21 224.39 1185.6
-255.68 224.87 1188.2
-252.93 225.17 1189.7
-253.81 228.74 1208.6
-253.00 230.86 1219.8
-249.37 230.43 1217.5
-244.00 228.36 1206.6
-236.37 224.09 1184.0
-231.51 222.37 1174.9
-228.57 222.47 1175.5
-224.70 221.66 1171.2
-223.23 223.23 1179.5
-223.16 226.26 1195.5
-220.51 226.72 1198.0
-212.59 221.70 1171.4
-207.74 219.78 1161.3
-211.64 227.20 1200.5
-213.83 232.98 1231.0
-208.41 230.51 1218.0
-201.74 226.57 1197.2
-200.65 228.87 1209.3
-207.58 240.53 1270.9
-213.88 251.83 1330.6
-207.90 248.80 1314.6
-195.51 237.87 1256.8
-195.00 241.27 1274.8
-200.83 252.76 1335.5
-198.30 253.96 1341.9
-198.98 259.39 1370.5
-205.21 272.37 1439.1
-199.37 269.52 1424.1
-189.32 260.76 1377.8
-188.04 263.99 1394.8
-191.45 274.03 1447.9
-193.94 283.16 1496.1
-194.21 289.34 1528.8
-192.98 293.49 1550.7
-188.66 293.02 1548.3
-184.12 292.19 1543.8
-179.83 291.72 1541.4
-179.11 297.16 1570.1
-179.77 305.19 1612.6
-178.19 309.71 1636.4
-180.12 320.71 1694.5
-345.91 262.17 1404.5
-329.19 252.15 1350.8
-324.72 251.40 1346.8
-314.34 246.00 1317.9
-297.32 235.24 1260.2
-292.20 233.76 1252.3
-292.21 236.39 1266.4
-287.77 235.45 1261.3
-281.63 233.07 1248.6
-268.69 224.95 1205.1
-262.32 222.20 1190.4
-264.60 226.80 1215.0
-259.31 224.94 1205.1
-254.07 223.08 1195.1
-250.89 223.02 1194.7
-246.12 221.51 1186.7
-243.56 221.98 1189.2
-238.84 220.47 1181.1
-232.81 217.70 1166.2
-228.95 216.90 1162.0
-232.24 222.95 1194.4
-234.44 228.10 1222.0
-225.89 222.80 1193.5
-219.29 219.29 1174.8
-218.83 221.91 1188.8
-213.56 219.66 1176.8
-206.10 215.06 1152.1
-207.30 219.49 1175.9
-209.72 225.38 1207.4
-204.86 223.48 1197.2
-198.57 219.95 1178.3
-197.85 222.58 1192.4
-199.43 227.92 1221.0
-200.24 232.54 1245.8
-202.62 239.16 1281.2
-199.83 239.80 1284.6
-195.68 238.80 1279.3
-197.99 245.78 1316.7
-199.54 252.05 1350.3
-204.02 262.31 1405.2
-205.72 269.31 1442.7
-195.78 261.04 1398.4
-184.72 250.95 1344.4
-182.22 252.30 1351.6
-186.51 263.31 1410.6
-189.48 272.86 1461.7
-187.86 276.04 1478.8
-184.81 277.22 1485.1
-184.82 283.13 1516.8
-184.20 288.32 1544.6
-178.77 286.03 1532.3
-176.52 288.85 1547.4
-178.98 299.69 1605.5
-179.23 307.25 1646.0
-176.99 310.80 1665.0
-174.94 314.90 1687.0
-172.39 318.27 1705.0
-344.71 263.17 1429.7
-329.32 254.15 1380.7
-307.62 240.01 1303.9
-296.58 233.97 1271.1
-291.23 232.33 1262.2
-283.74 228.93 1243.7
-275.69 224.99 1222.3
-269.24 222.28 1207.5
-267.73 223.63 1214.9
-268.70 227.11 1233.8
-263.36 225.28 1223.9
-259.71 224.87 1221.6
-258.49 226.58 1230.9
-249.83 221.73 1204.5
-243.08 218.46 1186.8
-236.41 215.20 1169.1
-228.29 210.50 1143.6
-227.91 212.92 1156.7
-234.60 222.09 1206.5
-235.84 226.28 1229.3
-226.91 220.69 1198.9
-220.11 217.05 1179.2
-219.64 219.64 1193.2
-222.09 225.27 1223.8
-221.96 228.40 1240.8
-214.23 223.68 1215.2
-208.30 220.74 1199.2
-205.11 220.65 1198.7
-200.78 219.32 1191.5
-196.65 218.16 1185.1
-193.97 218.60 1187.6
-191.12 218.87 1189.0
-189.96 221.10 1201.1
-193.57 229.06 1244.4
-197.56 237.74 1291.5
-200.72 245.70 1334.8
-202.79 252.60 1372.3
-200.44 254.13 1380.6
-195.96 252.96 1374.2
-194.64 255.92 1390.3
-191.10 256.01 1390.8
-186.38 254.48 1382.5
-188.27 262.10 1423.9
-192.23 272.96 1482.9
-191.54 277.54 1507.8
-185.62 274.57 1491.6
-183.00 276.45 1501.8
-184.52 284.80 1547.2
-181.36 286.15 1554.5
-173.37 279.75 1519.8
-169.69 280.19 1522.2
-175.05 295.93 1607.6
-178.31 308.79 1677.5
-174.11 309.05 1678.9
-169.01 307.69 1671.5
-165.01 308.30 1674.9
-337.46 256.76 1414.8
-318.83 245.26 1351.4
-310.58 241.56 1331.1
-296.67 233.34 1285.7
-280.36 223.01 1228.8
-277.97 223.66 1232.4
-276.85 225.35 1241.7
-271.24 223.37 1230.8
-267.77 223.14 1229.5
-267.20 225.35 1241.7
-268.22 228.96 1261.6
-266.70 230.48 1270.0
-257.94 225.70 1243.6
-251.09 222.48 1225.9
-243.93 218.91 1206.3
-233.41 212.19 1169.2
-231.82 213.52 1176.5
-235.64 219.93 1211.9
-234.09 221.44 1220.2
-230.30 220.84 1216.9
-228.70 222.34 1225.2
-227.23 224.03 1234.4
-227.82 227.82 1255.3
-225.18 228.44 1258.8
-216.03 222.38 1225.4
-209.58 218.96 1206.5
-204.87 217.29 1197.3
-203.82 219.49 1209.5
-201.89 220.82 1216.8
-201.51 223.90 1233.8
-201.67 227.70 1254.7
-197.12 226.20 1246.4
-197.29 230.17 1268.3
-202.41 240.14 1323.2
-206.95 249.77 1376.3
-208.50 256.05 1410.9
-205.62 257.02 1416.3
-194.52 247.57 1364.1
-187.22 242.70 1337.3
-193.07 254.99 1405.1
-196.59 264.64 1458.2
-192.35 264.02 1454.8
-190.79 267.11 1471.8
-189.77 271.09 1493.8
-183.76 267.99 1476.7
-178.44 265.77 1464.4
-177.03 269.39 1484.4
-176.31 274.26 1511.2
-170.99 272.03 1498.9
-166.82 271.58 1496.4
-170.98 284.97 1570.2
-171.22 292.32 1610.8
-164.24 287.43 1583.8
-165.82 297.63 1640.0
-168.94 311.21 1714.8
-165.10 312.35 1721.1
-347.55 257.86 1441.4
-330.75 248.06 1386.7
-321.46 243.74 1362.5
-315.19 241.65 1350.8
-301.90 234.05 1308.4
-285.74 224.05 1252.4
-284.38 225.54 1260.8
-282.33 226.52 1266.3
-274.96 223.20 1247.7
-272.71 224.01 1252.2
-272.29 226.36 1265.4
-265.05 223.03 1246.8
-255.27 217.46 1215.6
-253.65 218.77 1223.0
-253.37 221.30 1237.1
-246.77 218.30 1220.3
-237.17 212.53 1188.1
-236.30 214.53 1199.3
-240.82 221.55 1238.5
-235.68 219.75 1228.4
-228.02 215.53 1204.8
-232.77 223.07 1247.0
-237.13 230.45 1288.2
-232.66 229.34 1282.0
-224.93 224.93 1257.4
-218.18 221.39 1237.6
-213.88 220.27 1231.3
-208.45 217.93 1218.2
-206.20 218.89 1223.6
-207.46 223.67 1250.3
-210.97 231.06 1291.6
-210.83 234.63 1311.6
-205.66 232.63 1300.4
-200.70 230.81 1290.2
-201.31 235.42 1316.0
-207.48 246.84 1379.8
-210.03 254.24 1421.2
-209.67 258.35 1444.2
-200.86 251.98 1408.6
-193.86 247.71 1384.7
-199.05 259.14 1448.6
-199.04 264.11 1476.4
-192.31 260.18 1454.4
-186.58 257.47 1439.3
-181.79 255.98 1431.0
-184.70 265.50 1484.2
-187.33 275.02 1537.4
-180.02 270.03 1509.5
-173.76 266.44 1489.4
-172.63 270.72 1513.3
-172.24 276.39 1545.1
-169.56 278.57 1557.2
-162.87 274.09 1532.2
-157.92 272.41 1522.8
-160.84 284.57 1590.8
-166.02 301.47 1685.2
-165.17 308.03 1721.9
-342.84 250.68 1421.9
-331.80 245.25 1391.1
-320.01 239.13 1356.4
-312.41 236.05 1338.9
-310.67 237.36 1346.4
-304.27 235.12 1333.7
-291.01 227.45 1290.2
-279.24 220.79 1252.4
-278.05 222.44 1261.7
-282.05 228.33 1295.1
-273.86 224.37 1272.7
-259.02 214.80 1218.4
-253.36 212.70 1206.5
-255.16 216.89 1230.2
-249.33 214.61 1217.3
-238.68 208.08 1180.3
-235.15 207.67 1177.9
-241.16 215.78 1223.9
-242.80 220.14 1248.7
-234.29 215.30 1221.2
-229.04 213.35 1210.2
-235.95 222.84 1264.0
-235.81 225.84 1281.0
-227.31 220.82 1252.5
-218.61 215.44 1222.0
-211.77 211.77 1201.2
-213.47 216.65 1228.9
-214.03 220.51 1250.8
-205.80 215.29 1221.2
-201.58 214.18 1214.9
-208.84 225.41 1278.6
-214.52 235.28 1334.5
-205.29 228.85 1298.1
-197.16 223.45 1267.4
-196.03 225.93 1281.6
-199.96 234.43 1329.8
-202.77 241.91 1372.2
-202.26 245.60 1393.1
-201.08 248.61 1410.2
-200.37 252.31 1431.2
-199.27 255.67 1450.2
-194.00 253.69 1439.0
-188.00 250.67 1421.9
-183.24 249.20 1413.6
-176.53 244.98 1389.6
-177.36 251.26 1425.2
-183.13 264.95 1502.9
-178.94 264.51 1500.4
-173.84 262.69 1490.1
-173.38 267.94 1519.9
-170.68 269.92 1531.0
-165.80 268.44 1522.7
-163.25 270.75 1535.8
-162.56 276.35 1567.5
-158.64 276.60 1568.9
-155.86 278.91 1582.1
-156.41 287.45 1630.5
-154.96 292.70 1660.3
-155.59 302.28 1714.6
-344.82 253.88 1461.6
-326.66 243.18 1400.0
-316.12 237.97 1370.0
-311.42 237.10 1365.0
-299.15 230.38 1326.3
-284.93 221.98 1277.9
-283.04 223.10 1284.4
-278.81 222.38 1280.3
-262.78 212.12 1221.2
-254.62 208.04 1197.7
-254.68 210.66 1212.8
-256.87 215.13 1238.5
-251.41 213.22 1227.5
-241.12 207.12 1192.4
-238.34 207.39 1193.9
-239.93 211.52 1217.7
-237.26 211.95 1220.2
-233.28 211.21 1215.9
-232.62 213.50 1229.1
-233.51 217.30 1251.0
-227.70 214.87 1237.0
-221.07 211.60 1218.2
-215.06 208.83 1202.2
-204.68 201.67 1161.0
-202.59 202.59 1166.3
-209.46 212.64 1224.1
-207.52 213.91 1231.4
-197.96 207.24 1193.1
-199.23 211.88 1219.8
-209.45 226.34 1303.0
-205.38 225.58 1298.6
-205.73 229.73 1322.5
-213.85 242.84 1398.0
-207.96 240.23 1383.0
-200.85 236.08 1359.1
-196.97 235.66 1356.7
-193.10 235.23 1354.2
-194.85 241.76 1391.8
-196.00 247.78 1426.4
-190.53 245.48 1413.2
-184.73 242.68 1397.1
-182.68 244.80 1409.3
-178.47 244.03 1404.8
-170.38 237.82 1369.1
-167.59 238.91 1375.4
-168.51 245.44 1413.0
-167.75 249.76 1437.9
-170.44 259.53 1494.1
-170.76 266.06 1531.7
-165.34 263.76 1518.4
-162.28 265.19 1526.7
-160.50 268.83 1547.6
-155.63 267.37 1539.2
-150.62 265.56 1528.8
-148.66 269.20 1549.8
-147.43 274.38 1579.6
-148.26 283.82 1633.9
-151.50 298.54 1718.7
-320.24 237.48 1387.9
-302.55 226.92 1326.1
-293.85 222.92 1302.8
-282.05 216.45 1265.0
-277.85 215.74 1260.8
-272.00 213.71 1249.0
-256.66 204.09 1192.7
-248.16 199.74 1167.3
-254.79 207.60 1213.3
-263.99 217.79 1272.8
-257.25 214.92 1256.0
-245.52 207.75 1214.1
-242.30 207.69 1213.7
-242.32 210.43 1229.8
-240.19 211.36 1235.2
-236.91 211.30 1234.8
-234.92 212.39 1241.2
-233.97 214.48 1253.4
-228.87 212.75 1243.3
-224.16 211.35 1235.2
-223.31 213.60 1248.3
-216.40 210.04 1227.5
-207.24 204.14 1193.0
-206.89 206.89 1209.1
-215.47 218.79 1278.6
-216.12 222.87 1302.5
-204.41 214.14 1251.5
-200.77 213.72 1249.0
-204.54 221.31 1293.4
-212.33 233.56 1365.0
-222.88 249.33 1457.1
-218.60 248.75 1453.8
-210.01 243.17 1421.1
-204.99 241.59 1411.9
-196.11 235.33 1375.3
-193.43 236.41 1381.6
-193.00 240.34 1404.6
-186.52 236.74 1383.6
-181.58 234.98 1373.3
-180.23 237.90 1390.3
-179.91 242.33 1416.2
-175.81 241.73 1412.7
-168.86 237.12 1385.8
-165.66 237.69 1389.1
-164.51 241.28 1410.1
-166.60 249.90 1460.4
-167.88 257.68 1505.9
-163.60 257.08 1502.4
-157.97 254.30 1486.1
-153.65 253.52 1481.6
-153.91 260.47 1522.2
-154.45 268.26 1567.7
-152.12 271.34 1585.8
-150.33 275.61 1610.7
-148.51 280.04 1636.6
-148.10 287.49 1680.2
-328.80 240.13 1425.0
-306.85 226.65 1344.9
-295.06 220.45 1308.1
-284.95 215.37 1278.0
-282.21 215.81 1280.6
-276.10 213.65 1267.8
-260.29 203.85 1209.6
-254.83 202.00 1198.7
-267.06 214.31 1271.7
-267.50 217.35 1289.7
-250.63 206.21 1223.7
-240.93 200.78 1191.4
-240.08 202.67 1202.6
-243.75 208.47 1237.1
-244.80 212.16 1259.0
-237.19 208.34 1236.3
-230.24 205.01 1216.5
-231.72 209.19 1241.3
-229.14 209.78 1244.8
-225.31 209.21 1241.5
-226.36 213.23 1265.3
-224.03 214.15 1270.8
-218.13 211.62 1255.7
-212.80 209.58 1243.6
-215.89 215.89 1281.1
-218.96 222.38 1319.6
-209.10 215.74 1280.2
-207.74 217.80 1292.4
-213.87 227.90 1352.4
-213.63 231.43 1373.3
-216.27 238.26 1413.8
-216.20 242.29 1437.8
-211.11 240.74 1428.6
-204.65 237.54 1409.6
-195.08 230.54 1368.1
-190.91 229.80 1363.7
-188.92 231.69 1374.9
-186.87 233.58 1386.1
-185.66 236.63 1404.1
-181.32 235.71 1398.7
-178.37 236.61 1404.1
-178.32 241.47 1432.9
-175.37 242.53 1439.2
-170.17 240.46 1426.9
-167.32 241.69 1434.2
-163.99 242.25 1437.5
-159.98 241.82 1435.0
-159.61 247.01 1465.8
-158.14 250.71 1487.8
-154.22 250.62 1487.2
-154.67 257.79 1529.7
-156.45 267.61 1588.0
-155.57 273.30 1621.8
-153.69 277.50 1646.7
-151.95 282.20 1674.6
-151.11 288.89 1714.3
-349.32 245.68 1480.6
-343.88 244.54 1473.8
-332.26 238.93 1440.0
-314.66 228.84 1379.2
-304.95 224.33 1352.0
-297.74 221.57 1335.4
-290.61 218.81 1318.7
-279.99 213.33 1285.7
-267.67 206.39 1243.9
-268.27 209.38 1261.9
-267.78 211.58 1275.1
-255.58 204.47 1232.3
-249.74 202.32 1219.4
-248.85 204.19 1230.6
-244.82 203.48 1226.4
-245.19 206.47 1244.4
-243.21 207.54 1250.8
-232.08 200.72 1209.7
-224.65 196.95 1187.0
-225.66 200.58 1208.9
-227.45 205.02 1235.6
-228.04 208.50 1256.6
-223.49 207.30 1249.3
-215.38 202.71 1221.7
-211.46 201.99 1217.4
-207.06 200.79 1210.1
-207.78 204.58 1233.0
-208.22 208.22 1254.9
-202.19 205.40 1237.9
-203.44 210.01 1265.7
-210.72 221.09 1332.4
-211.60 225.70 1360.3
-212.03 230.00 1386.1
-209.98 231.70 1396.4
-207.16 232.60 1401.8
-202.60 231.55 1395.5
-192.23 223.69 1348.1
-187.43 222.14 1338.8
-189.40 228.71 1378.4
-190.37 234.30 1412.1
-188.32 236.33 1424.3
-183.17 234.46 1413.0
-179.31 234.21 1411.5
-178.02 237.37 1430.6
-175.92 239.55 1443.7
-171.76 238.97 1440.2
-166.93 237.42 1430.9
-161.93 235.53 1419.5
-158.18 235.44 1418.9
-157.86 240.55 1449.7
-157.06 245.17 1477.6
-153.98 246.37 1484.8
-153.45 251.81 1517.6
-154.19 259.69 1565.1
-153.09 264.81 1596.0
-151.19 268.78 1619.9
-149.34 273.09 1645.8
-148.40 279.34 1683.5
-376.47 257.80 1578.4
-352.99 247.10 1512.8
-329.95 233.56 1430.0
-310.17 222.05 1359.5
-298.12 215.88 1321.7
-292.92 214.58 1313.7
-288.39 213.75 1308.7
-286.62 214.96 1316.1
-281.69 213.82 1309.1
-272.28 209.19 1280.8
-263.82 205.20 1256.3
-259.29 204.19 1250.2
-259.95 207.30 1269.2
-258.15 208.51 1276.6
-253.81 207.66 1271.4
-254.64 211.08 1292.3
-252.54 212.13 1298.8
-239.99 204.31 1250.9
-232.08 200.29 1226.3
-230.46 201.65 1234.6
-229.50 203.64 1246.8
-229.37 206.43 1263.9
-223.93 204.46 1251.8
-212.04 196.45 1202.8
-204.62 192.40 1178.0
-204.81 195.50 1197.0
-210.33 203.85 1248.1
-216.06 212.69 1302.2
-214.52 214.52 1313.4
-206.66 209.99 1285.7
-204.49 211.19 1293.0
-202.27 212.39 1300.3
-200.02 213.58 1307.7
-202.58 220.04 1347.2
-204.21 225.71 1381.9
-199.99 224.99 1377.5
-190.78 218.53 1337.9
-184.09 214.77 1314.9
-184.37 219.16 1341.8
-186.10 225.46 1380.4
-184.39 227.77 1394.5
-181.59 228.81 1400.9
-179.39 230.64 1412.1
-175.05 229.75 1406.7
-169.78 227.58 1393.4
-168.56 230.85 1413.4
-166.77 233.48 1429.5
-161.66 231.47 1417.1
-157.92 231.37 1416.6
-157.39 236.08 1445.4
-156.40 240.32 1471.3
-151.50 238.62 1460.9
-148.84 240.44 1472.1
-149.90 248.52 1521.6
-149.20 254.04 1555.3
-147.86 258.75 1584.2
-146.46 263.63 1614.1
-144.13 267.06 1635.1
-142.36 271.78 1664.0
-140.28 276.17 1690.9
-136.00 276.39 1692.2
-134.09 281.59 1724.0
-354.29 246.81 1535.4
-332.70 234.40 1458.3
-310.62 221.36 1377.2
-297.55 214.51 1334.5
-290.20 211.68 1316.9
-285.89 211.01 1312.8
-282.22 210.81 1311.5
-274.24 207.35 1290.0
-269.21 206.06 1281.9
-266.82 206.78 1286.4
-258.46 202.84 1261.9
-248.86 197.81 1230.6
-250.23 201.49 1253.5
-258.18 210.62 1310.3
-262.07 216.64 1347.8
-253.86 212.69 1323.2
-238.42 202.49 1259.7
-230.00 198.06 1232.2
-226.02 197.37 1227.9
-223.82 198.24 1233.3
-226.11 203.17 1264.0
-221.73 202.16 1257.7
-215.18 199.12 1238.8
-217.22 204.06 1269.5
-218.78 208.68 1298.3
-220.52 213.62 1329.0
-221.46 217.94 1355.9
-215.83 215.83 1342.7
-206.88 210.27 1308.2
-198.86 205.49 1278.4
-196.82 206.83 1286.7
-199.58 213.34 1327.2
-200.68 218.29 1358.0
-196.52 217.58 1353.6
-189.88 214.04 1331.6
-185.39 212.86 1324.2
-180.95 211.68 1316.9
-178.52 212.85 1324.2
-180.32 219.21 1363.8
-180.91 224.32 1395.6
-177.59 224.71 1398.0
-172.19 222.42 1383.7
-166.75 219.96 1368.4
-165.12 222.55 1384.5
-162.95 224.51 1396.7
-157.81 222.37 1383.4
-154.27 222.43 1383.8
-153.71 226.91 1411.6
-154.89 234.23 1457.2
-152.48 236.34 1470.3
-147.61 234.67 1459.9
-145.99 238.20 1481.9
-147.37 246.95 1536.3
-148.10 255.07 1586.8
-144.65 256.23 1594.1
-140.03 255.34 1588.5
-137.96 259.19 1612.5
-135.76 263.04 1636.4
-133.29 266.58 1658.4
-133.38 275.65 1714.9
-371.31 254.50 1609.2
-346.68 240.31 1519.5
-322.70 226.26 1430.7
-315.08 223.49 1413.2
-313.07 224.68 1420.7
-295.88 214.87 1358.7
-280.25 205.97 1302.4
-274.34 204.09 1290.5
-270.93 204.04 1290.2
-265.52 202.46 1280.2
-254.60 196.59 1243.1
-243.27 190.25 1203.0
-242.40 192.03 1214.2
-251.97 202.24 1278.8
-255.94 208.17 1316.3
-248.55 204.89 1295.6
-235.39 196.69 1243.7
-227.19 192.48 1217.1
-223.96 192.42 1216.7
-218.08 190.04 1201.7
-216.11 191.05 1208.0
-216.15 193.90 1226.1
-213.91 194.76 1231.5
-216.14 199.77 1263.2
-217.88 204.47 1292.9
-213.65 203.63 1287.6
-209.92 203.25 1285.2
-207.76 204.41 1292.5
-203.41 203.41 1286.2
-200.76 204.11 1290.6
-202.57 209.44 1324.3
-202.59 213.07 1347.3
-201.34 215.47 1362.5
-198.02 215.70 1363.9
-192.04 212.99 1346.8
-191.77 216.63 1369.8
-190.57 219.33 1386.9
-184.26 216.16 1366.8
-182.85 218.71 1382.9
-180.72 220.48 1394.2
-175.17 218.07 1378.9
-172.75 219.54 1388.2
-169.80 220.38 1393.5
-165.30 219.20 1386.1
-160.38 217.41 1374.7
-156.86 217.47 1375.1
-154.76 219.55 1388.3
-153.56 223.03 1410.2
-154.22 229.46 1450.9
-152.54 232.62 1470.9
-148.67 232.53 1470.3
-147.12 236.16 1493.3
-148.37 244.62 1546.8
-147.52 249.96 1580.6
-142.47 248.31 1570.1
-138.43 248.37 1570.5
-136.83 252.93 1599.4
-136.64 260.46 1646.9
-136.67 268.92 1700.5
-376.42 248.19 1595.5
-361.26 240.84 1548.3
-357.89 241.28 1551.1
-343.73 234.36 1506.6
-328.26 226.39 1455.4
-327.46 228.46 1468.7
-322.98 227.98 1465.6
-303.57 216.84 1393.9
-289.30 209.13 1344.4
-284.93 208.49 1340.3
-273.07 202.27 1300.3
-260.80 195.60 1257.4
-260.25 197.66 1270.6
-257.86 198.36 1275.2
-245.01 190.91 1227.3
-242.51 191.46 1230.8
-244.91 195.93 1259.5
-236.54 191.79 1232.9
-229.41 188.56 1212.2
-226.74 188.95 1214.7
-230.49 194.78 1252.2
-230.70 197.74 1271.2
-222.11 193.14 1241.6
-216.07 190.65 1225.6
-212.47 190.27 1223.2
-213.56 194.14 1248.1
-217.64 200.90 1291.5
-216.32 202.80 1303.7
-213.82 203.64 1309.1
-213.02 206.15 1325.3
-209.67 206.23 1325.8
-208.59 208.59 1340.9
-207.28 210.80 1355.1
-204.14 211.18 1357.6
-197.37 207.76 1335.6
-189.29 202.82 1303.8
-188.49 205.63 1321.9
-192.80 214.23 1377.2
-194.68 220.39 1416.8
-190.94 220.31 1416.3
-183.96 216.42 1391.3
-176.73 212.07 1363.3
-172.38 211.07 1356.9
-170.74 213.43 1372.0
-170.46 217.61 1399.0
-168.41 219.66 1412.1
-164.45 219.27 1409.6
-161.97 220.86 1419.8
-158.66 221.38 1423.2
-156.51 223.58 1437.3
-153.45 224.56 1443.6
-148.32 222.48 1430.2
-147.43 226.82 1458.1
-148.92 235.14 1511.6
-145.51 235.96 1516.9
-139.77 232.95 1497.6
-136.81 234.54 1507.7
-134.84 237.96 1529.7
-135.46 246.28 1583.2
-137.51 257.82 1657.4
-134.50 260.33 1673.5
-130.88 261.76 1682.7
-367.24 240.75 1573.9
-358.69 237.79 1554.5
-342.98 229.95 1503.3
-327.08 221.81 1450.1
-320.27 219.72 1436.4
-309.48 214.81 1404.3
-303.26 213.01 1392.5
-301.89 214.60 1402.9
-290.18 208.79 1365.0
-272.36 198.38 1296.9
-267.12 197.00 1287.9
-274.63 205.11 1340.9
-272.66 206.24 1348.3
-259.62 198.93 1300.5
-250.83 194.72 1273.0
-247.08 194.37 1270.7
-242.78 193.57 1265.5
-239.24 193.36 1264.1
-230.09 188.54 1232.6
-228.07 189.52 1239.0
-237.14 199.88 1306.7
-238.38 203.84 1332.6
-228.34 198.12 1295.2
-221.52 195.07 1275.3
-225.48 201.57 1317.7
-232.67 211.20 1380.7
-224.98 207.40 1355.9
-216.93 203.16 1328.2
-216.71 206.23 1348.2
-213.61 206.61 1350.7
-211.25 207.73 1358.1
-209.01 209.01 1366.4
-204.66 208.19 1361.0
-196.87 203.78 1332.2
-186.53 196.52 1284.7
-183.26 196.59 1285.2
-187.39 204.74 1338.5
-189.64 211.11 1380.1
-187.97 213.28 1394.3
-182.74 211.40 1382.0
-176.80 208.62 1363.9
-173.32 208.69 1364.3
-170.93 210.10 1373.6
-170.05 213.47 1395.6
-166.48 213.53 1396.0
-161.31 211.49 1382.6
-160.68 215.46 1408.6
-159.27 218.53 1428.6
-152.39 214.08 1399.5
-144.84 208.42 1362.6
-143.99 212.39 1388.5
-147.09 222.52 1454.7
-145.49 225.89 1476.8
-138.96 221.58 1448.6
-135.51 222.08 1451.9
-134.72 227.10 1484.7
-132.21 229.41 1499.8
-132.22 236.40 1545.4
-134.62 248.20 1622.6
-132.50 252.17 1648.6
-127.33 250.41 1637.1
-126.15 256.64 1677.8
-359.83 237.16 1577.2
-326.55 217.70 1447.7
-303.16 204.46 1359.7
-306.61 209.22 1391.3
-313.06 216.16 1437.5
-309.91 216.56 1440.2
-296.05 209.40 1392.6
-278.56 199.46 1326.5
-273.25 198.11 1317.5
-274.93 201.85 1342.3
-269.63 200.49 1333.3
-262.23 197.53 1313.6
-259.33 197.91 1316.2
-254.35 196.69 1308.1
-249.77 195.76 1301.9
-247.43 196.59 1307.3
-238.70 192.29 1278.8
-232.45 189.89 1262.8
-239.17 198.17 1317.9
-243.18 204.41 1359.4
-235.29 200.69 1334.6
-225.67 195.35 1299.2
-226.90 199.40 1326.0
-232.27 207.25 1378.3
-223.77 202.79 1348.6
-214.14 197.15 1311.1
-213.03 199.28 1325.3
-212.61 202.15 1344.4
-212.85 205.76 1368.3
-210.13 206.57 1373.8
-205.91 205.91 1369.4
-200.85 204.37 1359.1
-192.56 199.44 1326.3
-185.28 195.39 1299.4
-185.82 199.58 1327.3
-183.65 200.98 1336.6
-178.79 199.42 1326.2
-177.36 201.70 1341.4
-174.32 202.21 1344.8
-171.64 203.16 1351.1
-170.02 205.44 1366.2
-168.56 208.01 1383.3
-164.44 207.34 1378.8
-158.62 204.44 1359.6
-157.04 207.01 1376.7
-157.35 212.25 1411.5
-152.35 210.38 1399.1
-146.88 207.78 1381.8
-148.23 214.93 1429.4
-145.95 217.06 1443.5
-138.85 211.93 1409.4
-137.50 215.54 1433.4
-139.33 224.47 1492.8
-135.85 225.12 1497.1
-130.61 222.80 1481.7
-129.66 227.88 1515.5
-130.83 237.12 1576.9
-130.72 244.58 1626.5
-128.14 247.74 1647.6
-124.86 249.72 1660.7
-121.87 252.44 1678.8
-120.99 259.90 1728.4
-377.74 236.61 1601.1
-378.98 240.02 1624.2
-372.97 238.87 1616.4
-366.57 237.43 1606.7
-343.87 225.29 1524.5
-317.05 210.14 1422.0
-316.94 212.54 1438.2
-317.59 215.51 1458.3
-309.19 212.33 1436.9
-299.45 208.15 1408.6
-284.35 200.10 1354.1
-274.96 195.91 1325.7
-273.25 197.15 1334.1
-271.88 198.68 1344.5
-269.30 199.35 1349.0
-262.11 196.58 1330.2
-254.63 193.52 1309.5
-254.52 196.05 1326.7
-256.17 200.02 1353.5
-248.96 197.09 1333.7
-244.00 195.89 1325.6
-242.44 197.42 1335.9
-238.04 196.64 1330.6
-228.85 191.83 1298.1
-218.47 185.86 1257.7
-217.47 187.81 1270.9
-221.17 193.95 1312.4
-223.85 199.37 1349.1
-225.07 203.63 1378.0
-221.74 203.86 1379.5
-219.18 204.81 1385.9
-213.69 203.01 1373.7
-206.47 199.47 1349.8
-207.17 203.60 1377.7
-206.27 206.27 1395.8
-199.18 202.73 1371.9
-193.17 200.20 1354.7
-188.63 199.11 1347.4
-182.10 195.85 1325.3
-174.10 190.84 1291.4
-169.64 189.60 1283.0
-170.06 193.87 1311.9
-170.58 198.43 1342.7
-168.13 199.65 1351.0
-165.87 201.16 1361.3
-164.03 203.26 1375.4
-160.17 202.88 1372.9
-155.31 201.20 1361.5
-152.26 201.83 1365.8
-150.58 204.36 1382.9
-148.50 206.45 1397.0
-148.39 211.45 1430.9
-144.81 211.65 1432.2
-137.84 206.76 1399.1
-136.23 209.86 1420.1
-137.17 217.19 1469.7
-132.86 216.37 1464.1
-129.87 217.73 1473.3
-131.23 226.66 1533.8
-130.30 232.10 1570.6
-127.84 235.06 1590.7
-124.97 237.44 1606.7
-121.42 238.65 1615.0
-120.19 244.68 1655.7
-121.03 255.51 1729.0
-391.06 240.66 1657.6
-391.04 243.31 1675.9
-379.34 238.68 1644.0
-366.69 233.35 1607.3
-356.19 229.27 1579.2
-341.30 222.24 1530.7
-328.78 216.61 1491.9
-317.71 211.80 1458.9
-310.34 209.39 1442.2
-301.82 206.12 1419.7
-291.98 201.87 1390.4
-286.72 200.70 1382.4
-280.30 198.69 1368.5
-273.55 196.39 1352.7
-268.62 195.36 1345.6
-259.91 191.51 1319.1
-250.37 186.94 1287.6
-248.64 188.16 1296.0
-252.76 193.90 1335.5
-247.78 192.72 1327.4
-242.12 190.97 1315.3
-239.88 191.90 1321.8
-233.07 189.16 1302.9
-222.92 183.58 1264.4
-215.33 179.98 1239.6
-215.88 183.17 1261.6
-216.32 186.36 1283.6
-216.64 189.56 1305.6
-221.00 196.45 1353.1
-221.19 199.79 1376.1
-220.65 202.56 1395.2
-216.66 202.22 1392.8
-204.15 193.77 1334.6
-200.03 193.13 1330.3
-200.42 196.90 1356.2
-194.55 194.55 1340.0
-191.43 194.91 1342.5
-189.80 196.83 1355.7
-187.16 197.75 1362.1
-182.10 196.11 1350.7
-174.64 191.76 1320.8
-172.16 192.82 1328.1
-170.77 195.16 1344.2
-166.48 194.22 1337.8
-165.93 197.71 1361.8
-165.50 201.48 1387.7
-163.10 202.96 1398.0
-159.74 203.31 1400.3
-153.74 200.22 1379.1
-149.03 198.71 1368.6
-144.79 197.76 1362.1
-142.32 199.24 1372.3
-143.37 205.87 1418.0
-140.90 207.64 1430.2
-135.90 205.69 1416.7
-133.18 207.17 1426.9
-131.83 210.93 1452.9
-131.92 217.28 1496.6
-131.78 223.63 1540.3
-129.45 226.54 1560.3
-124.64 225.15 1550.8
-119.34 222.76 1534.3
-118.20 228.25 1572.1
-119.45 238.90 1645.5
-119.07 246.97 1701.0
-115.88 249.59 1719.1
-111.51 249.78 1720.4
-377.18 235.74 1653.2
-357.40 225.95 1584.6
-344.44 220.28 1544.8
-333.79 215.98 1514.7
-321.61 210.58 1476.8
-312.95 207.38 1454.3
-306.04 205.27 1439.6
-297.99 202.34 1419.0
-291.85 200.64 1407.1
-284.37 197.98 1388.4
-271.29 191.29 1341.5
-259.99 185.71 1302.4
-257.51 186.35 1306.9
-252.92 185.47 1300.7
-245.75 182.65 1280.9
-244.01 183.84 1289.3
-245.87 187.82 1317.1
-247.40 191.65 1344.0
-241.91 190.07 1333.0
-232.98 185.71 1302.4
-226.95 183.56 1287.3
-222.52 182.67 1281.0
-216.62 180.52 1266.0
-210.47 178.09 1248.9
-208.29 179.00 1255.3
-209.75 183.11 1284.2
-212.00 188.06 1318.9
-213.61 192.60 1350.7
-215.52 197.56 1385.5
-208.72 194.57 1364.5
-198.34 188.08 1319.0
-193.68 186.89 1310.6
-190.21 186.82 1310.1
-189.12 189.12 1326.3
-191.24 194.78 1366.0
-192.21 199.46 1398.8
-187.99 198.83 1394.4
-180.93 195.12 1368.4
-174.64 192.10 1347.2
-169.70 190.48 1335.9
-165.80 189.98 1332.3
-165.63 193.83 1359.3
-166.03 198.51 1392.2
-164.53 201.09 1410.3
-161.71 202.13 1417.6
-156.21 199.81 1401.2
-151.33 198.18 1389.8
-146.93 197.11 1382.3
-141.96 195.19 1368.9
-140.34 197.91 1388.0
-140.66 203.58 1427.7
-138.88 206.44 1447.8
-134.33 205.23 1439.2
-131.08 205.98 1444.5
-129.79 209.96 1472.5
-128.11 213.52 1497.4
-125.73 216.10 1515.5
-121.03 214.74 1506.0
-118.23 216.75 1520.1
-119.51 226.65 1589.5
-117.99 231.76 1625.3
-114.83 233.91 1640.4
-112.13 237.19 1663.4
-108.47 238.64 1673.6
-106.49 244.03 1711.4
-382.38 234.64 1676.0
-356.44 221.24 1580.3
-338.30 212.42 1517.3
-331.14 210.37 1502.6
-322.35 207.23 1480.2
-315.35 205.17 1465.5
-310.27 204.32 1459.5
-305.42 203.61 1454.4
-302.01 203.85 1456.1
-293.21 200.42 1431.6
-278.45 192.77 1377.0
-262.80 184.30 1316.4
-256.26 182.08 1300.5
-255.46 183.93 1313.8
-251.99 183.88 1313.5
-247.41 183.02 1307.3
-246.14 184.60 1318.6
-239.60 182.23 1301.6
-227.66 175.63 1254.5
-229.74 179.80 1284.3
-234.42 186.16 1329.7
-230.40 185.69 1326.4
-224.55 183.72 1312.3
-218.77 181.75 1298.2
-216.31 182.51 1303.6
-209.66 179.71 1283.6
-204.53 178.14 1272.4
-204.71 181.22 1294.4
-205.39 184.86 1320.4
-207.14 189.59 1354.2
-204.74 190.62 1361.6
-198.10 187.67 1340.5
-192.70 185.82 1327.3
-187.65 184.24 1316.0
-185.54 185.54 1325.3
-186.48 190.00 1357.1
-182.63 189.65 1354.7
-178.27 188.75 1348.2
-174.57 188.54 1346.7
-172.51 190.11 1357.9
-171.49 192.92 1378.0
-165.93 190.64 1361.7
-161.28 189.32 1352.3
-159.31 191.17 1365.5
-156.15 191.64 1368.9
-153.30 192.52 1375.2
-150.85 193.95 1385.4
-148.66 195.80 1398.6
-145.89 196.95 1406.8
-143.08 198.11 1415.1
-142.36 202.30 1445.0
-138.93 202.76 1448.3
-133.00 199.50 1425.0
-130.32 201.06 1436.2
-129.41 205.53 1468.0
-125.71 205.71 1469.4
-121.19 204.51 1460.8
-119.73 208.56 1489.7
-120.19 216.34 1545.3
-118.51 220.67 1576.2
-114.01 219.88 1570.6
-113.56 227.11 1622.2
-113.77 236.28 1687.7
-108.64 234.66 1676.2
-104.87 235.95 1685.3
-393.99 234.62 1707.5
-382.06 230.11 1674.6
-361.57 220.27 1603.0
-345.32 212.81 1548.8
-339.78 211.86 1541.9
-328.79 207.45 1509.7
-320.25 204.50 1488.3
-319.03 206.20 1500.7
-317.75 207.91 1513.1
-308.75 204.55 1488.6
-294.51 197.58 1437.9
-288.57 196.08 1427.0
-281.13 193.50 1408.2
-266.69 185.98 1353.5
-258.77 182.86 1330.8
-254.88 182.55 1328.5
-249.89 181.43 1320.4
-245.31 180.58 1314.2
-235.91 176.10 1281.6
-224.02 169.62 1234.4
-224.94 172.78 1257.4
-235.19 183.31 1334.1
-237.26 187.68 1365.9
-232.98 187.09 1361.6
-228.56 186.37 1356.3
-225.46 186.71 1358.8
-218.36 183.70 1336.9
-210.58 180.01 1310.0
-208.34 181.02 1317.4
-207.29 183.11 1332.6
-207.66 186.54 1357.6
-207.90 189.98 1382.6
-203.09 188.84 1374.3
-196.04 185.54 1350.3
-188.83 181.97 1324.3
-183.54 180.14 1311.0
-181.42 181.42 1320.3
-178.72 182.16 1325.7
-175.34 182.22 1326.1
-174.76 185.25 1348.2
-175.57 189.90 1382.0
-174.85 193.07 1405.1
-169.58 191.23 1391.7
-161.68 186.29 1355.7
-156.49 184.32 1341.4
-155.76 187.62 1365.4
-154.89 190.92 1389.4
-149.40 188.53 1372.1
-144.00 186.15 1354.7
-146.04 193.51 1408.3
-148.01 201.14 1463.9
-143.48 200.11 1456.3
-136.33 195.28 1421.2
-132.31 194.79 1417.6
-131.62 199.30 1450.5
-129.54 201.93 1469.5
-124.57 200.07 1456.0
-121.07 200.52 1459.3
-120.56 206.13 1500.1
-118.39 209.15 1522.1
-114.02 208.38 1516.5
-112.04 212.08 1543.5
-113.94 223.67 1627.8
-114.41 233.21 1697.2
-109.64 232.44 1691.6
-105.21 232.34 1690.9
-102.26 235.64 1714.9
-396.35 231.57 1717.7
-374.69 221.41 1642.3
-357.33 213.58 1584.2
-343.70 207.82 1541.5
-345.87 211.59 1569.5
-342.40 211.96 1572.2
-327.87 205.41 1523.6
-320.99 203.56 1509.9
-310.92 199.61 1480.6
-293.55 190.81 1415.3
-286.85 188.81 1400.5
-287.88 191.92 1423.6
-287.04 193.85 1437.9
-279.04 190.92 1416.2
-263.02 182.36 1352.7
-250.85 176.28 1307.5
-252.19 179.64 1332.5
-253.58 183.14 1358.5
-246.76 180.73 1340.5
-237.20 176.21 1307.0
-230.07 173.39 1286.1
-231.49 177.02 1313.1
-234.29 181.84 1348.8
-231.73 182.57 1354.2
-229.30 183.44 1360.7
-227.81 185.10 1373.0
-223.70 184.65 1369.6
-218.51 183.27 1359.4
-213.68 182.15 1351.1
-210.26 182.22 1351.7
-209.53 184.67 1369.8
-208.71 187.12 1388.0
-205.04 187.06 1387.5
-199.10 184.88 1371.3
-192.82 182.30 1352.2
-188.00 181.04 1342.9
-183.24 179.78 1333.5
-178.12 178.12 1321.2
-177.74 181.22 1344.2
-179.66 186.85 1386.0
-177.13 187.97 1394.3
-173.08 187.50 1390.8
-170.12 188.22 1396.1
-164.32 185.76 1377.9
-158.50 183.16 1358.6
-157.27 185.86 1378.7
-154.73 187.11 1387.9
-147.31 182.38 1352.8
-143.53 182.03 1350.2
-147.32 191.52 1420.6
-147.46 196.62 1458.4
-141.19 193.21 1433.2
-136.19 191.40 1419.7
-134.29 193.97 1438.8
-131.84 195.88 1452.9
-128.10 195.92 1453.3
-125.38 197.56 1465.4
-124.06 201.60 1495.4
-120.76 202.57 1502.6
-115.82 200.75 1489.1
-113.54 203.59 1510.1
-113.66 211.09 1565.8
-112.39 216.46 1605.6
-109.38 218.76 1622.7
-106.67 221.86 1645.7
-104.51 226.43 1679.6
-378.34 219.27 1658.3
-360.06 211.07 1596.3
-338.85 200.95 1519.8
-334.67 200.80 1518.7
-334.91 203.34 1537.9
-323.80 198.96 1504.8
-314.29 195.47 1478.4
-301.45 189.80 1435.5
-289.82 184.76 1397.4
-288.73 186.40 1409.7
-286.99 187.65 1419.2
-283.06 187.48 1417.9
-282.78 189.76 1435.1
-274.27 186.50 1410.5
-250.94 172.94 1308.0
-241.21 168.51 1274.5
-250.02 177.10 1339.4
-252.23 181.18 1370.2
-245.78 179.07 1354.3
-241.50 178.50 1350.0
-236.56 177.42 1341.8
-233.69 177.88 1345.3
-230.46 178.09 1346.9
-227.56 178.55 1350.4
-218.15 173.84 1314.7
-207.32 167.83 1269.3
-210.40 173.07 1308.9
-213.29 178.32 1348.6
-207.89 176.71 1336.4
-204.95 177.16 1339.9
-202.59 178.14 1347.3
-198.01 177.17 1339.9
-195.75 178.27 1348.3
-192.46 178.46 1349.7
-186.00 175.67 1328.6
-179.92 173.13 1309.4
-176.98 173.58 1312.8
-178.32 178.32 1348.6
-177.68 181.24 1370.7
-172.81 179.86 1360.3
-169.83 180.44 1364.7
-167.90 182.19 1377.9
-166.02 184.07 1392.1
-163.95 185.81 1405.3
-159.01 184.31 1393.9
-153.02 181.49 1372.6
-148.00 179.72 1359.2
-146.72 182.50 1380.3
-144.92 184.77 1397.4
-139.63 182.60 1381.0
-138.32 185.65 1404.0
-138.03 190.26 1438.9
-136.45 193.31 1462.0
-134.39 195.83 1481.1
-127.62 191.44 1447.8
-121.78 188.21 1423.5
-120.74 192.43 1455.4
-117.71 193.65 1464.6
-116.32 197.74 1495.5
-117.74 207.06 1566.0
-114.49 208.54 1577.2
-109.87 207.53 1569.5
-107.42 210.70 1593.5
-105.35 214.92 1625.5
-102.51 217.84 1647.5
-99.85 221.40 1674.5
-390.69 217.05 1674.4
-393.70 221.18 1706.3
-391.70 222.56 1716.9
-376.77 216.53 1670.4
-358.61 208.49 1608.4
-347.80 204.59 1578.2
-342.20 203.69 1571.3
-326.20 196.51 1515.9
-312.33 190.44 1469.1
-304.40 187.90 1449.5
-297.57 185.98 1434.7
-293.40 185.70 1432.5
-289.04 185.29 1429.3
-279.65 181.59 1400.9
-273.09 179.66 1386.0
-276.82 184.55 1423.6
-265.22 179.20 1382.4
-249.22 170.70 1316.8
-253.38 175.96 1357.4
-254.28 179.07 1381.4
-247.27 176.62 1362.5
-243.85 176.70 1363.1
-239.39 176.02 1357.9
-234.44 174.96 1349.7
-229.70 174.02 1342.4
-227.64 175.10 1350.8
-218.87 170.99 1319.1
-208.02 165.10 1273.6
-210.94 170.11 1312.3
-213.82 175.26 1352.0
-208.11 173.42 1337.8
-203.52 172.47 1330.5
-200.00 172.41 1330.0
-195.03 171.08 1319.7
-192.25 171.65 1324.2
-192.66 175.15 1351.1
-189.64 175.59 1354.6
-184.03 173.61 1339.3
-181.42 174.44 1345.7
-179.42 175.90 1356.9
-175.83 175.83 1356.4
-170.24 173.72 1340.1
-166.82 173.77 1340.5
-162.20 172.55 1331.1
-157.85 171.58 1323.6
-159.76 177.51 1369.3
-158.50 180.11 1389.4
-153.07 177.99 1373.1
-148.80 177.15 1366.6
-144.98 176.81 1364.0
-140.67 175.83 1356.4
-135.89 174.22 1344.0
-134.97 177.59 1370.0
-135.99 183.77 1417.7
-135.67 188.43 1453.6
-132.65 189.49 1461.8
-124.97 183.77 1417.7
-118.87 180.10 1389.3
-117.50 183.60 1416.3
-117.75 189.91 1465.1
-119.59 199.31 1537.5
-118.67 204.60 1578.4
-113.09 201.95 1557.9
-109.90 203.53 1570.1
-108.99 209.59 1616.8
-104.56 209.11 1613.1
-99.16 206.58 1593.6
-96.04 208.79 1610.7
-95.04 216.01 1666.4
-93.81 223.36 1723.1
-386.06 217.43 1711.6
-366.49 208.82 1643.7
-354.53 204.37 1608.8
-351.18 204.85 1612.5
-337.37 199.17 1567.8
-320.06 191.26 1505.5
-309.18 187.04 1472.3
-304.92 186.76 1470.1
-303.05 187.97 1479.6
-292.09 183.49 1444.4
-276.25 175.79 1383.8
-266.27 171.67 1351.4
-266.68 174.23 1371.5
-267.36 177.04 1393.6
-263.32 176.75 1391.3
-261.47 177.95 1400.7
-256.88 177.28 1395.5
-254.44 178.11 1402.0
-254.93 181.04 1425.1
-245.67 177.02 1393.5
-236.04 172.63 1358.9
-234.63 174.19 1371.2
-235.46 177.50 1397.2
-229.66 175.83 1384.1
-220.72 171.67 1351.4
-220.30 174.11 1370.5
-220.09 176.79 1391.7
-213.67 174.49 1373.6
-208.54 173.19 1363.3
-204.93 173.13 1362.8
-199.88 171.82 1352.6
-196.02 171.51 1350.1
-195.25 173.95 1369.3
-193.28 175.38 1380.5
-188.68 174.44 1373.2
-184.39 173.75 1367.7
-180.91 173.81 1368.2
-179.20 175.62 1382.4
-175.30 175.30 1379.9
-169.08 172.60 1358.7
-161.77 168.65 1327.6
-154.85 164.95 1298.4
-153.94 167.63 1319.5
-157.54 175.44 1381.0
-156.75 178.62 1406.1
-152.07 177.42 1396.6
-147.76 176.59 1390.1
-145.83 178.64 1406.2
-143.32 180.07 1417.4
-137.25 176.98 1393.1
-133.19 176.39 1388.5
-132.48 180.33 1419.5
-129.10 180.74 1422.8
-123.87 178.53 1405.3
-120.34 178.69 1406.6
-117.54 179.98 1416.8
-116.43 184.04 1448.7
-117.70 192.25 1513.3
-116.33 196.56 1547.2
-110.83 193.95 1526.7
-107.58 195.25 1536.9
-108.49 204.46 1609.4
-106.19 208.14 1638.4
-100.73 205.66 1618.9
-97.61 207.95 1637.0
-95.53 212.77 1674.8
-93.09 217.20 1709.7
-387.97 211.62 1700.5
-379.84 209.57 1684.0
-368.77 205.82 1653.9
-355.06 200.51 1611.2
-349.59 199.77 1605.3
-337.47 195.16 1568.3
-321.81 188.38 1513.7
-311.93 184.85 1485.4
-307.83 184.70 1484.2
-307.33 186.73 1500.5
-297.69 183.19 1472.1
-281.58 175.53 1410.5
-271.53 171.49 1378.1
-266.95 170.85 1372.9
-262.58 170.32 1368.7
-258.05 169.68 1363.5
-256.09 170.73 1371.9
-252.65 170.80 1372.5
-250.62 171.85 1381.0
-256.06 178.13 1431.4
-252.12 177.97 1430.1
-240.36 172.20 1383.8
-236.54 172.03 1382.4
-237.02 175.03 1406.5
-230.87 173.15 1391.4
-226.39 172.49 1386.1
-229.35 177.56 1426.8
-224.19 176.41 1417.6
-213.12 170.50 1370.1
-208.30 169.47 1361.8
-205.00 169.65 1363.3
-201.54 169.72 1363.8
-198.79 170.39 1369.2
-193.63 168.98 1357.9
-187.97 167.09 1342.6
-186.18 168.61 1354.9
-184.05 169.89 1365.2
-178.23 167.75 1348.0
-174.16 167.19 1343.5
-173.60 170.06 1366.6
-170.60 170.60 1370.9
-166.50 170.04 1366.4
-162.30 169.36 1360.9
-156.64 167.08 1342.6
-155.68 169.83 1364.7
-155.59 173.68 1395.7
-151.26 172.87 1389.1
-149.17 174.64 1403.3
-149.46 179.35 1441.2
-145.06 178.54 1434.7
-137.19 173.30 1392.6
-132.57 171.99 1382.0
-131.14 174.86 1405.1
-126.36 173.30 1392.6
-119.82 169.16 1359.3
-118.69 172.64 1387.3
-118.40 177.60 1427.1
-115.99 179.60 1443.2
-116.12 185.80 1493.0
-114.65 189.77 1525.0
-109.36 187.47 1506.4
-104.64 186.02 1494.8
-103.65 191.36 1537.7
-101.99 195.82 1573.6
-97.37 194.75 1564.9
-95.28 198.84 1597.9
-94.26 205.66 1652.6
-91.34 208.77 1677.6
-380.80 203.38 1669.1
-375.58 202.90 1665.2
-377.09 206.08 1691.3
-373.76 206.67 1696.1
-363.85 203.59 1670.8
-348.22 197.19 1618.3
-327.48 187.70 1540.4
-312.23 181.17 1486.8
-305.51 179.49 1473.0
-301.84 179.58 1473.7
-297.19 179.07 1469.6
-286.33 174.77 1434.3
-270.27 167.14 1371.7
-259.45 162.59 1334.3
-264.72 168.13 1379.8
-269.20 173.32 1422.4
-256.89 167.70 1376.2
-243.74 161.35 1324.1
-241.83 162.37 1332.5
-247.57 168.64 1384.0
-250.47 173.12 1420.7
-245.20 172.00 1411.6
-236.28 168.26 1380.9
-231.81 167.62 1375.6
-229.31 168.40 1382.0
-228.22 170.26 1397.3
-229.89 174.27 1430.2
-223.33 172.07 1412.1
-214.26 167.83 1377.4
-210.92 168.02 1378.9
-208.60 169.04 1387.3
-206.39 170.18 1396.6
-199.99 167.85 1377.5
-191.30 163.48 1341.6
-186.65 162.46 1333.2
-185.56 164.55 1350.4
-184.11 166.41 1365.6
-178.55 164.54 1350.3
-172.42 162.08 1330.1
-170.03 163.09 1338.4
-167.96 164.46 1349.7
-164.75 164.75 1352.1
-162.71 166.24 1364.3
-159.22 166.29 1364.7
-155.27 165.86 1361.2
-152.34 166.51 1366.5
-147.33 164.87 1353.1
-144.49 165.64 1359.3
-145.41 170.86 1402.2
-141.91 171.02 1403.5
-134.80 166.73 1368.3
-130.81 166.17 1363.7
-130.91 170.91 1402.6
-127.48 171.19 1404.9
-120.99 167.25 1372.6
-119.91 170.78 1401.6
-119.09 174.92 1435.5
-116.19 176.16 1445.7
-114.77 179.81 1475.7
-111.86 181.29 1487.8
-108.60 182.29 1496.0
-106.06 184.62 1515.1
-102.62 185.50 1522.3
-98.30 184.80 1516.6
-94.81 185.68 1523.8
-93.89 191.87 1574.6
-90.84 194.07 1592.7
-85.70 191.80 1574.0
-83.27 195.69 1606.0
-84.05 207.92 1706.3
-384.66 201.07 1686.0
-373.51 197.49 1656.0
-369.85 197.83 1658.8
-367.88 199.09 1669.4
-358.89 196.53 1648.0
-351.04 194.55 1631.4
-337.70 189.44 1588.5
-322.32 183.05 1534.9
-314.67 180.94 1517.2
-307.91 179.29 1503.4
-300.42 177.17 1485.6
-294.38 175.87 1474.7
-283.21 171.42 1437.4
-268.82 164.87 1382.5
-270.60 168.21 1410.5
-274.09 172.71 1448.2
-260.98 166.74 1398.1
-250.10 162.04 1358.7
-251.12 165.02 1383.7
-247.82 165.22 1385.3
-242.44 164.00 1375.2
-245.44 168.51 1413.0
-243.89 169.98 1425.3
-234.52 165.97 1391.7
-227.27 163.35 1369.7
-224.45 163.88 1374.2
-224.92 166.87 1399.2
-222.93 168.11 1409.6
-217.83 167.01 1400.4
-212.48 165.66 1389.1
-208.37 165.26 1385.7
-206.45 166.61 1397.0
-200.62 164.79 1381.8
-192.62 161.10 1350.9
-188.22 160.34 1344.5
-186.29 161.68 1355.7
-184.16 162.91 1366.0
-180.81 163.09 1367.5
-176.56 162.43 1362.0
-172.33 161.78 1356.6
-168.26 161.25 1352.1
-165.64 162.12 1359.4
-164.28 164.28 1377.5
-162.26 165.86 1390.8
-159.49 166.74 1398.1
-155.47 166.31 1394.5
-149.53 163.77 1373.2
-144.75 162.40 1361.7
-143.71 165.27 1385.8
-141.85 167.32 1403.0
-136.50 165.24 1385.5
-131.80 163.86 1374.0
-131.04 167.44 1404.0
-129.94 170.78 1432.0
-125.73 170.11 1426.4
-122.32 170.50 1429.7
-119.29 171.48 1437.9
-113.20 167.98 1408.5
-108.42 166.24 1393.9
-108.84 172.65 1447.7
-109.28 179.53 1505.4
-106.78 181.93 1525.5
-103.51 183.14 1535.7
-102.44 188.49 1580.5
-102.31 196.09 1644.2
-98.59 197.18 1653.4
-92.68 193.78 1624.9
-86.97 190.50 1597.3
-83.76 192.65 1615.4
-83.05 201.07 1686.0
-392.51 200.72 1720.4
-379.08 196.08 1680.7
-364.33 190.64 1634.1
-352.59 186.67 1600.0
-345.25 184.96 1585.3
-338.81 183.69 1574.5
-339.45 186.28 1596.7
-336.71 187.06 1603.4
-325.66 183.18 1570.2
-315.97 179.98 1542.7
-309.17 178.37 1528.9
-303.22 177.21 1518.9
-291.75 172.75 1480.7
-277.24 166.34 1425.8
-276.86 168.36 1443.1
-278.97 171.97 1474.0
-274.18 171.36 1468.8
-271.22 171.90 1473.4
-266.63 171.41 1469.2
-258.04 168.29 1442.5
-249.76 165.28 1416.7
-250.10 167.98 1439.8
-246.14 167.82 1438.5
-234.42 162.29 1391.1
-228.15 160.42 1375.0
-225.96 161.40 1383.4
-223.41 162.15 1389.9
-218.96 161.53 1384.5
-217.29 162.96 1396.8
-214.95 163.94 1405.2
-207.10 160.68 1377.3
-202.01 159.48 1367.0
-198.97 159.88 1370.4
-193.52 158.34 1357.2
-188.83 157.36 1348.8
-186.75 158.56 1359.1
-186.87 161.72 1386.1
-185.55 163.72 1403.3
-179.17 161.25 1382.1
-173.01 158.89 1361.9
-168.43 157.90 1353.5
-164.97 157.95 1353.9
-162.57 159.04 1363.2
-159.54 159.54 1367.5
-158.86 162.47 1392.6
-156.50 163.78 1403.8
-152.26 163.14 1398.3
-149.10 163.64 1402.6
-146.01 164.26 1408.0
-142.20 164.07 1406.3
-137.42 162.73 1394.8
-133.17 161.96 1388.3
-130.16 162.69 1394.5
-126.84 163.08 1397.8
-125.07 165.54 1418.9
-124.05 169.16 1449.9
-121.71 171.16 1467.0
