ply
format ascii 1.0
element vertex 2032
property float x
property float y
property float z
end_header
1040.25 -980.65 2089.8
1095.09 -1027.00 2188.6
1081.99 -999.19 2129.3
1080.67 -992.90 2115.9
1089.81 -996.24 2123.0
1094.34 -995.35 2121.1
1092.83 -979.22 2086.7
1143.96 -1014.99 2163.0
1129.01 -996.83 2124.3
1163.51 -1022.30 2178.5
1190.75 -1016.63 2166.5
1205.55 -1014.90 2162.8
1231.71 -1032.13 2199.5
1188.12 -981.96 2092.6
1211.42 -992.15 2114.3
1269.92 -1026.14 2186.7
1240.40 -984.71 2098.4
1264.98 -999.83 2130.7
1296.81 -1020.54 2174.8
1294.02 -1013.93 2160.7
1289.15 -984.54 2098.1
1295.73 -985.41 2099.9
1314.70 -983.31 2095.4
1312.36 -977.52 2083.1
1366.39 -985.33 2099.8
1464.17 -1015.38 2163.8
1451.29 -998.80 2128.5
1463.18 -1003.17 2137.8
1556.42 -998.98 2128.8
1543.66 -987.29 2103.9
1586.63 -1000.63 2132.4
1566.91 -984.76 2098.5
1589.54 -992.09 2114.2
1607.95 -1000.13 2131.3
1657.25 -1020.28 2174.2
1692.48 -1027.98 2190.7
1685.84 -997.18 2125.0
1691.22 -997.11 2124.9
1750.50 -1028.70 2192.2
1728.98 -1012.77 2158.2
1747.02 -1013.49 2159.8
1758.94 -1017.15 2167.6
-1096.04 -1038.95 2201.9
-1079.43 -1028.57 2179.9
-1082.04 -1036.48 2196.6
-1068.87 -1051.54 2228.5
-1072.32 -1060.67 2247.9
-1067.01 -1061.18 2249.0
-1057.37 -1057.37 2240.9
-969.77 -1076.21 2280.8
-901.91 -1072.86 2273.7
-895.00 -1071.64 2271.1
-662.42 -1039.32 2202.6
-477.31 -1034.16 2191.7
-440.51 -1054.91 2235.7
-350.44 -1028.71 2180.1
-351.27 -1048.06 2221.2
-342.70 -1039.53 2203.1
-332.44 -1025.49 2173.3
-259.70 -1050.33 2226.0
-231.02 -1051.12 2227.7
-196.60 -1052.40 2230.4
-45.44 -1033.79 2190.9
111.20 -1011.95 2144.6
131.55 -1040.99 2206.2
142.66 -1038.59 2201.1
150.87 -1017.00 2155.3
162.53 -1056.45 2238.9
175.94 -1032.95 2189.2
267.97 -1016.04 2153.3
295.97 -1016.34 2153.9
294.56 -992.76 2104.0
337.82 -1024.74 2171.7
344.90 -1029.05 2180.9
372.92 -1013.01 2146.9
366.39 -980.62 2078.2
378.66 -998.80 2116.8
397.61 -1033.80 2190.9
409.29 -1020.41 2162.6
407.35 -975.51 2067.4
432.98 -1023.40 2168.9
441.34 -944.98 2002.7
468.01 -967.92 2051.3
475.14 -950.28 2013.9
478.87 -947.32 2007.7
831.73 -982.95 2083.2
854.60 -1003.47 2126.7
872.61 -1011.56 2143.8
860.48 -991.19 2100.6
867.01 -992.43 2103.3
859.15 -977.28 2071.2
900.23 -992.98 2104.4
927.93 -1011.27 2143.2
967.15 -1017.46 2156.3
943.70 -981.45 2080.0
1004.10 -1026.66 2175.8
989.55 -1006.13 2132.3
996.19 -1007.26 2134.7
1013.02 -1013.02 2146.9
980.26 -974.90 2066.1
997.45 -986.61 2090.9
988.49 -972.46 2060.9
990.58 -969.28 2054.2
1051.27 -1023.16 2168.4
1061.62 -1027.74 2178.1
1011.25 -973.79 2063.8
1035.65 -992.05 2102.5
1098.30 -1035.71 2195.0
1072.75 -996.12 2111.1
1115.35 -1014.97 2151.0
1081.55 -979.31 2075.5
1117.19 -1006.58 2133.3
1127.50 -1005.90 2131.8
1112.49 -987.68 2093.2
1147.34 -1013.67 2148.3
1178.71 -1031.37 2185.8
1199.59 -1029.83 2182.5
1176.79 -1000.82 2121.1
1182.08 -1000.65 2120.7
1220.75 -1023.86 2169.9
1194.72 -997.43 2113.9
1181.70 -982.05 2081.3
1313.75 -1004.63 2129.1
1362.33 -1012.02 2144.8
1365.89 -990.41 2099.0
1390.27 -1004.09 2128.0
1470.32 -1021.37 2164.6
1444.47 -999.59 2118.4
1456.34 -1003.99 2127.8
1567.95 -1019.17 2159.9
1584.98 -1005.11 2130.1
1560.24 -985.98 2089.6
1563.95 -984.91 2087.3
1569.90 -985.25 2088.0
1595.02 -997.57 2114.2
1652.42 -1029.93 2182.7
1668.72 -1036.54 2196.8
1661.23 -1028.38 2179.5
1669.61 -1030.06 2183.0
1633.52 -1004.39 2128.6
1664.10 -1019.75 2161.2
1669.72 -1002.93 2125.5
1678.60 -1004.95 2129.8
1668.60 -979.63 2076.1
1689.76 -982.55 2082.3
1723.50 -998.97 2117.1
1719.93 -993.73 2106.0
1702.62 -980.62 2078.2
1716.23 -985.34 2088.2
-1240.21 -1065.53 2245.8
-1174.90 -1059.14 2232.4
-1087.24 -1047.18 2207.2
-1078.81 -1044.56 2201.7
-1046.48 -1058.04 2230.1
-958.17 -1069.17 2253.5
-564.09 -1064.21 2243.1
-529.09 -1064.00 2242.6
-478.78 -1043.05 2198.5
-479.96 -1058.23 2230.5
-435.04 -1033.93 2179.2
-437.80 -1054.19 2221.9
-330.61 -1025.44 2161.3
-330.09 -1041.48 2195.1
-248.92 -1035.27 2182.1
-243.82 -1037.65 2187.1
-237.71 -1035.76 2183.1
-235.36 -1050.50 2214.2
-234.14 -1071.21 2257.8
-226.16 -1061.20 2236.7
-207.96 -1057.15 2228.2
-198.96 -1040.27 2192.6
-184.50 -1023.13 2156.5
-185.52 -1060.93 2236.1
-126.08 -1048.79 2210.6
-57.42 -1050.75 2214.7
95.45 -1027.51 2165.7
103.25 -1049.68 2212.4
113.76 -1040.90 2193.9
117.17 -1021.09 2152.2
122.89 -1022.25 2154.6
130.13 -1035.40 2182.3
136.39 -1039.97 2192.0
161.84 -1057.77 2229.5
162.85 -1027.67 2166.1
190.36 -1055.61 2224.9
204.94 -1041.77 2195.8
220.52 -1034.73 2180.9
280.92 -1028.16 2167.1
283.49 -1017.23 2144.1
294.26 -979.08 2063.6
311.49 -1017.89 2145.4
375.50 -1025.63 2161.8
377.35 -1015.52 2140.4
394.38 -1016.51 2142.5
400.65 -964.72 2033.4
412.86 -981.20 2068.1
448.48 -988.81 2084.1
474.04 -997.12 2101.6
480.68 -999.59 2106.9
475.10 -976.89 2059.0
488.46 -993.21 2093.4
496.10 -986.81 2079.9
841.39 -1006.37 2121.2
850.78 -1004.46 2117.1
871.75 -1022.63 2155.4
861.49 -1004.16 2116.5
857.64 -993.34 2093.7
847.87 -969.75 2044.0
891.51 -988.77 2084.1
916.14 -1009.96 2128.7
920.20 -1008.36 2125.4
965.19 -1039.00 2189.9
946.41 -1001.12 2110.1
953.22 -991.13 2089.0
973.16 -1006.15 2120.7
961.68 -988.70 2083.9
970.53 -992.22 2091.3
951.83 -967.69 2039.6
959.04 -969.64 2043.7
1028.67 -1023.08 2156.4
998.39 -987.60 2081.6
983.76 -967.89 2040.0
1024.71 -1002.79 2113.6
1070.71 -1036.72 2185.1
1065.70 -1005.27 2118.8
1144.51 -1036.86 2185.4
1099.32 -991.01 2088.8
1102.43 -988.95 2084.4
1118.95 -998.87 2105.3
1139.89 -1012.62 2134.3
1145.25 -1012.46 2134.0
1164.61 -1024.63 2159.6
1171.45 -1006.46 2121.3
1206.32 -1031.58 2174.3
1179.45 -994.66 2096.5
1208.33 -1014.33 2137.9
1227.66 -1011.99 2133.0
1300.09 -999.65 2107.0
1295.46 -991.92 2090.7
1351.73 -993.44 2093.9
1364.87 -999.08 2105.8
1360.31 -991.78 2090.4
1467.55 -1021.14 2152.3
1452.65 -1006.95 2122.4
1458.21 -1006.99 2122.5
1481.82 -1000.64 2109.1
1547.65 -1011.50 2132.0
1603.96 -998.38 2104.3
1592.30 -987.77 2081.9
1632.98 -1009.58 2127.9
1687.13 -1018.96 2147.7
1683.86 -1013.64 2136.5
1693.79 -1006.37 2121.2
1664.54 -979.46 2064.4
1682.20 -986.67 2079.6
1697.53 -992.49 2091.9
-1544.51 -1040.99 2182.2
-1239.38 -1065.64 2233.9
-1151.69 -1049.06 2199.1
-1051.57 -1045.89 2192.5
-1049.55 -1049.55 2200.1
-1033.24 -1044.59 2189.8
-1047.54 -1064.90 2232.3
-1040.29 -1063.41 2229.2
-871.86 -1062.40 2227.1
-603.66 -1057.85 2217.5
-438.11 -1033.48 2166.5
-429.15 -1038.99 2178.0
-419.43 -1057.20 2216.2
-406.37 -1038.50 2177.0
-401.54 -1040.60 2181.4
-332.47 -1036.85 2173.5
-322.74 -1060.44 2223.0
-276.69 -1018.21 2134.4
-274.58 -1052.55 2206.4
-224.66 -1059.93 2221.9
-206.08 -1053.29 2208.0
-204.23 -1073.66 2250.7
-171.22 -1050.13 2201.4
-163.64 -1038.27 2176.5
-159.72 -1049.60 2200.2
-156.37 -1065.65 2233.9
73.58 -1041.46 2183.2
103.10 -1053.93 2209.3
139.63 -1027.70 2154.3
162.69 -1032.25 2163.9
184.08 -1026.40 2151.6
193.43 -1046.82 2194.4
279.94 -1030.18 2159.5
282.86 -1020.50 2139.2
312.09 -1025.43 2149.6
317.66 -1007.74 2112.5
327.41 -1021.07 2140.4
340.83 -1028.08 2155.1
361.83 -1040.25 2180.6
367.65 -1040.74 2181.7
370.89 -1033.99 2167.5
376.53 -1034.05 2167.7
391.02 -1027.82 2154.6
381.70 -989.21 2073.6
384.28 -982.04 2058.6
399.90 -1007.97 2113.0
411.02 -1022.00 2142.4
417.60 -997.89 2091.9
436.43 -979.30 2052.9
450.52 -998.74 2093.6
441.86 -967.88 2029.0
463.22 -991.08 2077.6
472.75 -988.48 2072.1
480.76 -993.93 2083.5
491.72 -994.25 2084.2
815.66 -987.38 2069.8
841.65 -1012.19 2121.8
845.17 -1009.81 2116.8
854.45 -1014.32 2126.3
856.59 -1003.90 2104.4
843.01 -981.73 2058.0
893.36 -1020.98 2140.3
883.45 -997.27 2090.6
892.17 -994.91 2085.6
896.87 -994.12 2084.0
901.20 -992.94 2081.5
927.09 -1015.39 2128.5
944.25 -998.52 2093.2
950.90 -988.50 2072.2
971.88 -987.99 2071.1
1008.16 -1019.24 2136.6
1024.26 -1029.86 2158.9
1007.23 -1007.23 2111.4
994.76 -989.39 2074.0
999.29 -988.54 2072.3
994.98 -979.02 2052.3
994.61 -973.44 2040.6
1049.19 -1021.43 2141.2
1087.65 -1042.33 2185.0
1084.95 -1034.36 2168.3
1117.93 -1018.31 2134.7
1089.41 -987.44 2069.9
1114.89 -1005.58 2108.0
1095.98 -983.71 2062.1
1103.34 -980.74 2055.9
1139.59 -1008.10 2113.3
1186.19 -1044.30 2189.1
1169.16 -1024.40 2147.4
1127.15 -982.92 2060.5
1149.22 -997.43 2090.9
1162.93 -1004.59 2105.9
1207.57 -1028.67 2156.4
1183.49 -1003.51 2103.6
1199.19 -1002.96 2102.5
1205.12 -994.36 2084.5
1275.02 -1033.50 2166.5
1255.86 -1013.50 2124.6
1268.40 -997.37 2090.8
1306.20 -1018.39 2134.8
1380.51 -1016.05 2129.9
1371.45 -1005.36 2107.5
1462.10 -1003.83 2104.3
1501.83 -1015.94 2129.7
1537.75 -1003.35 2103.3
1532.71 -996.53 2089.0
1568.01 -1015.90 2129.6
1594.03 -1029.13 2157.3
1635.74 -1023.73 2146.0
1649.73 -1028.98 2157.0
1688.49 -1042.56 2185.5
1698.03 -1044.94 2190.5
1718.88 -1050.74 2202.6
1669.80 -1014.01 2125.6
1690.85 -1023.41 2145.4
1716.85 -1032.35 2164.1
1717.63 -1029.46 2158.0
1682.14 -1004.92 2106.6
1681.09 -997.81 2091.7
-1550.52 -1039.30 2166.9
-1538.44 -1034.95 2157.8
-1195.73 -1073.84 2238.9
-1084.98 -1034.65 2157.2
-1114.17 -1073.55 2238.3
-1043.13 -1066.19 2222.9
-1037.85 -1066.68 2224.0
-1027.31 -1073.74 2238.7
-961.01 -1090.71 2274.1
-855.31 -1069.14 2229.1
-553.94 -1056.49 2202.7
-460.48 -1038.88 2166.0
-456.17 -1041.88 2172.3
-423.83 -1031.69 2151.0
-420.17 -1050.41 2190.1
-405.97 -1043.12 2174.9
-363.24 -1050.00 2189.2
-340.30 -1049.26 2187.6
-233.17 -1052.11 2193.6
-225.21 -1041.58 2171.6
-210.15 -1079.93 2251.6
-201.50 -1065.05 2220.6
-177.01 -1056.32 2202.4
-168.67 -1040.11 2168.6
-164.96 -1052.35 2194.1
-158.71 -1048.63 2186.3
-152.88 -1047.50 2184.0
-124.86 -1049.92 2189.0
85.54 -1054.99 2199.6
90.30 -1044.09 2176.9
95.93 -1044.00 2176.7
102.62 -1054.70 2199.0
108.71 -1058.48 2206.9
139.90 -1035.27 2158.5
147.84 -1051.96 2193.3
153.38 -1050.95 2191.2
280.71 -1038.62 2165.5
298.16 -1040.76 2169.9
297.82 -1020.29 2127.3
309.98 -1006.09 2097.6
316.84 -993.47 2071.3
336.13 -987.04 2057.9
348.15 -1006.38 2098.2
361.43 -1028.69 2144.8
378.36 -999.95 2084.8
390.34 -1017.07 2120.5
400.39 -1000.98 2087.0
416.59 -975.57 2034.0
428.12 -990.04 2064.2
437.57 -999.39 2083.7
448.44 -976.01 2034.9
461.79 -993.38 2071.1
464.55 -987.84 2059.6
459.40 -965.79 2013.6
475.43 -966.54 2015.2
485.42 -965.62 2013.3
510.79 -1005.27 2095.9
512.71 -998.44 2081.7
832.82 -1007.00 2099.5
830.87 -998.12 2081.0
836.32 -998.19 2081.2
846.07 -990.66 2065.5
871.29 -982.86 2049.2
886.32 -987.76 2059.4
936.20 -1024.83 2136.7
942.82 -991.04 2066.3
986.40 -1030.98 2149.5
958.19 -979.36 2041.9
1009.65 -1026.29 2139.8
1049.49 -1049.49 2188.1
1043.50 -1037.89 2163.9
1026.98 -1016.00 2118.3
989.74 -973.95 2030.6
1003.44 -982.21 2047.8
1063.08 -1035.11 2158.1
1071.01 -1037.37 2162.9
1047.43 -1009.24 2104.2
1035.10 -992.20 2068.7
1098.84 -1031.91 2151.5
1101.16 -1018.57 2123.7
1100.14 -1012.57 2111.2
1095.65 -1003.45 2092.1
1095.80 -998.63 2082.1
1108.53 -995.52 2075.6
1117.24 -998.50 2081.8
1137.79 -1011.98 2109.9
1168.11 -1033.97 2155.8
1169.53 -1030.30 2148.1
1147.91 -1006.46 2098.4
1181.14 -1030.72 2149.0
1167.25 -1009.07 2103.9
1163.33 -996.37 2077.4
1229.14 -1047.88 2184.8
1232.08 -1036.07 2160.1
1233.29 -1032.39 2152.5
1221.56 -1017.97 2122.4
1238.41 -1004.85 2095.1
1276.21 -1017.67 2121.8
1263.09 -998.60 2082.0
1317.18 -1028.18 2143.7
1432.24 -992.37 2069.0
1440.46 -990.65 2065.5
1571.34 -1030.84 2149.3
1566.86 -1017.08 2120.6
1547.32 -1000.89 2086.8
1653.53 -1047.62 2184.2
1672.69 -1041.91 2172.3
1612.47 -1001.03 2087.1
1645.57 -1014.77 2115.7
1691.80 -1032.95 2153.6
1714.63 -1043.44 2175.5
1727.92 -1044.66 2178.0
1721.15 -1037.18 2162.5
1705.84 -998.67 2082.2
-1564.58 -1054.39 2186.5
-1531.39 -1035.78 2147.9
-1523.13 -1033.95 2144.1
-1137.84 -1047.71 2172.7
-1072.13 -1066.40 2211.4
-1077.27 -1077.27 2234.0
-976.60 -1081.24 2242.2
-961.58 -1097.26 2275.4
-622.12 -1061.60 2201.5
-607.20 -1065.46 2209.5
-570.92 -1051.40 2180.3
-555.18 -1064.57 2207.6
-471.72 -1057.10 2192.1
-455.89 -1034.09 2144.4
-440.50 -1037.12 2150.7
-445.14 -1061.48 2201.2
-414.91 -1028.97 2133.8
-252.81 -1022.24 2119.9
-232.71 -1030.56 2137.1
-229.03 -1039.01 2154.6
-222.67 -1061.95 2202.2
-219.12 -1072.56 2224.2
-174.66 -1047.97 2173.2
-173.81 -1077.61 2234.7
120.94 -1071.14 2221.3
124.68 -1054.10 2185.9
128.72 -1040.96 2158.7
134.13 -1039.52 2155.7
139.53 -1038.08 2152.7
147.27 -1053.55 2184.8
154.61 -1065.10 2208.7
173.67 -1076.74 2232.9
175.02 -1050.13 2177.7
201.29 -1069.73 2218.3
250.14 -1011.45 2097.5
298.39 -1027.80 2131.4
306.51 -1036.55 2149.5
307.06 -1019.87 2114.9
309.28 -1009.23 2092.9
324.85 -1024.10 2123.7
363.54 -994.38 2062.1
429.79 -1011.92 2098.4
431.19 -990.15 2053.3
455.20 -996.09 2065.6
448.14 -969.24 2010.0
465.30 -994.77 2062.9
477.07 -1008.35 2091.1
477.79 -998.53 2070.7
485.81 -1004.02 2082.1
499.50 -1020.96 2117.2
839.31 -1007.18 2088.6
880.04 -1049.27 2175.9
873.00 -1021.24 2117.8
888.67 -1033.08 2142.3
913.91 -1042.87 2162.6
870.88 -987.70 2048.2
874.06 -985.31 2043.3
919.51 -1030.30 2136.6
946.39 -1041.59 2160.0
944.96 -1033.90 2144.0
986.20 -1019.07 2113.3
990.46 -1017.82 2110.7
1042.25 -1047.88 2173.0
998.39 -998.39 2070.4
1018.90 -1013.45 2101.6
995.33 -979.53 2031.3
1011.08 -989.80 2052.6
1046.48 -1019.09 2113.3
1054.73 -1021.77 2118.9
1063.82 -1025.23 2126.1
1137.06 -1057.47 2192.9
1159.50 -1057.19 2192.3
1169.74 -1061.32 2200.9
1150.49 -1023.88 2123.2
1125.76 -992.38 2057.9
1145.98 -991.41 2055.9
1195.72 -1029.65 2135.2
1206.00 -1033.71 2143.6
1192.27 -1017.26 2109.5
1227.11 -1042.21 2161.3
1259.76 -1036.80 2150.0
1239.29 -1015.46 2105.8
1268.07 -1016.64 2108.2
1252.21 -999.62 2072.9
1301.63 -1021.53 2118.4
1300.97 -1016.73 2108.4
1351.71 -1005.67 2085.5
1375.90 -1007.55 2089.4
1437.93 -1013.08 2100.9
1422.40 -998.36 2070.3
1463.36 -1011.84 2098.3
1552.08 -1027.35 2130.5
1554.28 -1025.16 2125.9
1585.15 -1034.52 2145.3
1550.52 -1004.87 2083.8
1568.20 -1012.79 2100.3
1629.50 -1045.13 2167.3
1605.81 -1026.39 2128.5
1666.88 -1054.56 2186.9
1661.09 -1047.33 2171.9
1630.21 -1024.39 2124.3
1635.07 -1023.99 2123.5
1617.08 -1009.32 2093.1
1637.91 -1018.90 2112.9
1683.15 -1033.22 2142.6
1722.44 -1050.41 2178.3
1672.69 -1016.73 2108.4
1669.89 -1011.73 2098.1
1663.55 -1004.61 2083.3
1700.08 -1013.51 2101.7
1687.70 -1002.91 2079.8
1706.58 -1010.90 2096.3
1711.89 -1010.83 2096.2
-1547.03 -1051.98 2169.9
-1311.71 -1061.86 2190.2
-1236.06 -1075.09 2217.5
-1221.19 -1067.11 2201.1
-1189.18 -1069.12 2205.2
-1144.57 -1059.57 2185.5
-1156.90 -1076.32 2220.1
-1148.28 -1079.04 2225.7
-1130.53 -1067.72 2202.3
-1119.14 -1062.33 2191.2
-1091.18 -1068.33 2203.6
-1089.65 -1072.44 2212.1
-1095.34 -1083.75 2235.4
-1078.83 -1073.09 2213.4
-1066.42 -1066.42 2199.6
-1063.21 -1068.93 2204.8
-1062.75 -1074.24 2215.8
-1055.93 -1073.15 2213.5
-962.86 -1104.63 2278.5
-888.81 -1086.32 2240.7
-893.67 -1099.45 2267.8
-701.66 -1058.14 2182.6
-696.12 -1067.01 2200.9
-681.85 -1071.48 2210.1
-665.91 -1055.29 2176.7
-666.19 -1064.76 2196.2
-648.99 -1074.00 2215.3
-602.06 -1062.12 2190.8
-602.17 -1072.44 2212.1
-582.43 -1067.79 2202.5
-469.91 -1071.63 2210.4
-463.27 -1069.51 2206.0
-450.22 -1052.38 2170.7
-445.86 -1055.40 2176.9
-436.11 -1045.53 2156.6
-427.15 -1037.37 2139.7
-231.50 -1030.72 2126.0
-224.89 -1078.32 2224.2
-220.76 -1086.36 2240.8
-198.07 -1089.38 2247.0
-173.63 -1082.30 2232.4
-164.83 -1062.89 2192.4
-146.46 -1053.35 2172.7
-139.39 -1042.61 2150.5
102.41 -1063.95 2194.5
106.45 -1047.71 2161.1
174.47 -1087.53 2243.2
180.47 -1088.65 2245.5
191.74 -1086.53 2241.1
194.43 -1069.38 2205.7
296.60 -1027.10 2118.5
303.91 -1033.29 2131.3
306.75 -1024.33 2112.8
311.87 -1023.16 2110.4
370.85 -1019.85 2103.6
397.88 -1019.24 2102.3
432.63 -1024.08 2112.3
420.13 -982.05 2025.6
450.67 -991.48 2045.1
446.92 -971.79 2004.5
465.84 -1001.28 2065.3
484.25 -1029.03 2122.5
493.79 -1037.52 2140.0
499.11 -1037.04 2139.0
516.07 -1037.69 2140.4
509.16 -1012.90 2089.2
514.10 -1011.97 2087.3
510.72 -984.59 2030.8
789.91 -1011.73 2086.8
798.00 -1015.14 2093.9
883.65 -1045.83 2157.2
859.70 -1011.09 2085.5
886.48 -1036.07 2137.0
902.23 -1047.94 2161.5
936.94 -1049.15 2164.0
931.95 -1037.35 2139.7
905.58 -1002.03 2066.8
938.60 -1032.46 2129.6
966.99 -1039.24 2143.6
947.95 -1012.95 2089.4
950.69 -1010.10 2083.5
1023.19 -1039.88 2144.9
1011.24 -1022.17 2108.4
979.22 -984.49 2030.6
1048.72 -1032.16 2129.0
1128.92 -1055.54 2177.2
1112.33 -1034.85 2134.5
1172.97 -1064.79 2196.3
1128.90 -1005.26 2073.5
1134.12 -1005.12 2073.2
1182.71 -1028.68 2121.8
1211.85 -1049.15 2164.0
1203.67 -1037.26 2139.5
1175.89 -1008.68 2080.5
1193.82 -1019.38 2102.6
1239.17 -1025.33 2114.9
1226.61 -1010.47 2084.2
1228.95 -1007.95 2079.0
1242.52 -1010.23 2083.7
1314.88 -1020.26 2104.4
1398.32 -1029.47 2123.4
1452.42 -1036.65 2138.2
1431.62 -1014.07 2091.7
1466.88 -1031.23 2127.1
1442.30 -1010.15 2083.6
1458.91 -1017.97 2099.7
1503.37 -1018.58 2101.0
1490.39 -1006.14 2075.3
1502.88 -1010.93 2085.2
1506.13 -1009.49 2082.2
1523.05 -1017.18 2098.1
1518.01 -1006.62 2076.3
1544.57 -999.43 2061.5
1583.54 -1021.11 2106.2
1667.88 -1057.27 2180.8
1653.15 -1020.26 2104.4
1657.62 -1012.99 2089.4
1656.55 -1009.04 2081.3
1663.02 -1009.69 2082.6
1692.89 -1024.50 2113.2
1700.67 -1022.59 2109.2
1674.82 -1003.82 2070.5
-1282.65 -1071.73 2198.8
-1243.79 -1072.63 2200.7
-1236.09 -1070.90 2197.1
-1219.10 -1096.60 2249.9
-1184.55 -1081.05 2218.0
-1109.04 -1047.73 2149.6
-1117.36 -1066.32 2187.7
-1082.76 -1060.20 2175.2
-1078.29 -1084.05 2224.1
-1071.84 -1083.37 2222.7
-1047.98 -1064.98 2185.0
-1045.88 -1086.33 2228.8
-956.44 -1096.41 2249.5
-944.25 -1089.07 2234.4
-739.66 -1069.67 2194.6
-591.85 -1059.69 2174.1
-573.10 -1077.42 2210.5
-539.54 -1067.73 2190.6
-525.52 -1062.35 2179.6
-499.85 -1067.85 2190.9
-490.02 -1058.89 2172.5
-466.45 -1069.41 2194.1
-464.11 -1077.19 2210.0
-456.01 -1071.61 2198.6
-227.11 -1094.77 2246.1
-154.61 -1076.56 2208.7
-141.57 -1064.62 2184.2
-111.56 -1048.63 2151.5
-28.42 -1068.54 2192.3
-22.79 -1071.19 2197.7
88.98 -1045.54 2145.1
107.32 -1061.88 2178.6
143.37 -1078.17 2212.1
148.48 -1073.65 2202.8
171.01 -1071.69 2198.8
179.86 -1090.74 2237.8
264.04 -1056.16 2166.9
264.03 -1034.12 2121.7
272.30 -1044.73 2143.5
279.95 -1012.14 2076.6
288.08 -1021.85 2096.5
296.42 -1031.99 2117.3
298.90 -1021.70 2096.2
315.64 -1041.06 2135.9
344.28 -1027.37 2107.8
349.18 -1025.72 2104.4
344.93 -997.64 2046.8
357.11 -1017.22 2087.0
377.05 -1057.98 2170.6
378.47 -1046.35 2146.8
390.44 -1048.62 2151.4
389.05 -1015.85 2084.2
387.93 -999.05 2049.7
414.67 -1053.50 2161.4
418.99 -997.09 2045.7
434.75 -1021.65 2096.1
447.43 -1013.46 2079.3
447.47 -978.18 2006.9
463.19 -1000.93 2053.6
478.15 -1021.50 2095.8
487.22 -1029.18 2111.5
492.26 -1028.27 2109.7
495.21 -1023.07 2099.0
494.76 -1011.02 2074.3
498.62 -1007.97 2068.0
496.04 -992.07 2035.4
499.77 -989.02 2029.1
517.44 -1013.33 2079.0
514.42 -997.01 2045.5
515.50 -978.93 2008.4
802.69 -1012.79 2077.9
847.70 -1041.62 2137.1
863.76 -1054.46 2163.4
901.24 -1008.53 2069.2
944.40 -1044.40 2142.8
992.22 -1053.89 2162.2
987.04 -1042.50 2138.9
988.58 -1015.59 2083.7
1016.80 -1038.90 2131.5
1023.44 -1040.03 2133.8
1008.21 -1019.05 2090.8
1033.14 -1038.67 2131.0
1068.68 -1068.68 2192.6
1122.49 -1055.14 2164.8
1076.19 -1006.58 2065.2
1106.98 -1030.26 2113.8
1149.09 -1064.19 2183.4
1137.40 -1048.19 2150.5
1149.70 -1054.36 2163.2
1151.27 -1030.66 2114.6
1145.54 -1020.67 2094.1
1192.43 -1057.44 2169.5
1205.84 -1064.31 2183.6
1189.40 -1044.89 2143.8
1200.56 -1049.79 2153.8
1254.63 -1039.07 2131.8
1254.07 -1011.86 2076.0
1343.05 -1034.81 2123.1
1360.17 -1026.96 2107.0
1400.26 -1028.32 2109.8
1410.45 -1031.77 2116.9
1433.04 -1044.23 2142.4
1422.68 -1020.85 2094.5
1456.77 -1037.39 2128.4
1459.74 -1027.83 2108.8
1482.63 -1021.00 2094.8
1463.34 -1004.05 2060.0
1544.26 -1008.06 2068.2
1556.89 -1012.79 2077.9
1633.95 -1059.25 2173.2
1661.02 -1023.84 2100.6
1664.05 -1022.36 2097.5
1660.20 -1010.09 2072.4
1664.32 -1006.08 2064.2
-1498.63 -1049.04 2140.9
-1481.21 -1056.41 2155.9
-1488.67 -1065.75 2175.0
-1469.59 -1064.18 2171.8
-1439.58 -1046.46 2135.6
-1201.63 -1071.26 2186.3
-1216.91 -1090.03 2224.5
-1159.33 -1053.43 2149.9
-1091.22 -1074.17 2192.2
-1072.26 -1061.03 2165.4
-1086.82 -1104.35 2253.8
-1074.77 -1098.01 2240.8
-711.96 -1059.54 2162.3
-604.50 -1057.87 2158.9
-611.07 -1079.37 2202.8
-579.80 -1084.97 2214.2
-567.10 -1071.81 2187.4
-557.53 -1086.32 2217.0
-530.61 -1066.87 2177.3
-500.96 -1075.93 2195.8
-480.07 -1067.46 2178.5
-449.33 -1061.54 2166.4
-332.45 -1064.96 2173.4
-310.79 -1048.92 2140.7
-310.03 -1065.38 2174.2
-247.53 -1063.23 2169.9
-172.69 -1052.86 2148.7
-161.06 -1087.17 2218.7
-22.63 -1069.19 2182.0
61.60 -1058.33 2159.9
126.40 -1085.85 2216.0
145.31 -1056.30 2155.7
154.20 -1079.43 2202.9
163.08 -1100.78 2246.5
166.18 -1083.05 2210.3
169.80 -1069.71 2183.1
201.98 -1090.70 2225.9
259.97 -1045.40 2133.5
254.99 -1004.03 2049.0
274.96 -1039.34 2121.1
283.76 -1031.35 2104.8
291.95 -1041.10 2124.7
296.62 -1038.18 2118.7
295.55 -1015.62 2072.7
326.62 -1012.00 2065.3
336.39 -1009.16 2059.5
347.80 -1027.10 2096.1
349.37 -1015.87 2073.2
369.49 -1026.97 2095.8
371.23 -1002.33 2045.6
386.51 -1028.87 2099.7
388.50 -1019.81 2081.2
436.15 -1030.40 2102.9
441.05 -992.36 2025.2
461.95 -1015.21 2071.9
452.62 -983.27 2006.7
472.46 -1014.72 2070.9
485.52 -1031.06 2104.2
501.41 -1052.97 2148.9
507.88 -1043.37 2129.3
505.12 -1026.53 2095.0
504.44 -982.88 2005.9
514.55 -982.32 2004.7
534.22 -1009.67 2060.6
531.04 -993.73 2028.0
769.55 -1003.06 2047.1
809.86 -1034.21 2110.6
832.17 -1027.97 2097.9
844.75 -1036.74 2115.8
885.18 -1039.12 2120.7
1020.97 -1043.05 2128.7
1026.42 -1042.97 2128.5
1083.74 -1078.04 2200.1
1063.72 -1052.59 2148.1
1038.99 -1022.75 2087.2
1024.23 -1003.00 2046.9
1032.75 -1006.14 2053.3
1113.95 -1052.68 2148.3
1110.89 -1044.57 2131.8
1111.59 -1040.05 2122.5
1143.30 -1028.97 2099.9
1170.59 -1033.83 2109.9
1189.73 -1045.86 2134.4
1216.61 -1064.54 2172.5
1218.11 -1037.04 2116.4
1199.39 -1016.53 2074.5
1224.90 -1033.51 2109.2
1245.75 -1023.68 2089.1
1248.53 -1021.52 2084.7
1311.82 -1037.38 2117.1
1342.69 -1035.79 2113.9
1412.91 -1035.04 2112.3
1397.82 -1020.03 2081.7
1428.18 -1026.33 2094.6
1449.40 -1037.64 2117.6
1533.71 -1006.50 2054.1
1640.65 -1072.95 2189.7
1656.25 -1072.03 2187.8
1610.54 -1038.88 2120.2
1623.88 -1043.92 2130.5
1648.41 -1031.62 2105.3
1681.97 -1022.16 2086.0
-1516.69 -1059.45 2150.8
-1480.47 -1057.48 2146.8
-1489.13 -1071.73 2175.7
-1461.22 -1063.72 2159.4
-1470.58 -1074.65 2181.6
-1332.33 -1072.64 2177.5
-1314.07 -1066.98 2166.1
-1238.96 -1089.83 2212.4
-1205.77 -1085.76 2204.2
-1187.55 -1074.45 2181.2
-1172.93 -1076.60 2185.6
-1174.80 -1083.56 2199.7
-1140.03 -1056.62 2145.0
-1135.07 -1057.17 2146.1
-1112.16 -1056.56 2144.9
-1116.83 -1066.32 2164.7
-1018.27 -1093.06 2219.0
-1018.27 -1099.27 2231.6
-882.91 -1103.63 2240.5
-867.37 -1106.04 2245.3
-847.57 -1095.50 2223.9
-840.15 -1093.35 2219.6
-695.79 -1083.60 2199.8
-676.61 -1071.30 2174.8
-678.57 -1083.44 2199.5
-611.95 -1076.58 2185.5
-584.69 -1068.18 2168.5
-573.06 -1078.03 2188.5
-565.13 -1106.95 2247.2
-485.61 -1072.87 2178.0
-473.78 -1071.65 2175.5
-448.75 -1052.63 2136.9
-340.12 -1077.05 2186.5
-328.99 -1059.45 2150.8
-317.19 -1076.19 2184.8
-308.70 -1066.43 2164.9
-256.89 -1084.66 2201.9
-250.53 -1081.84 2196.2
-199.91 -1085.23 2203.1
-173.95 -1066.16 2164.4
-170.04 -1076.92 2186.2
165.07 -1081.50 2195.5
174.60 -1070.13 2172.4
185.62 -1102.12 2237.4
247.21 -1043.79 2119.0
259.28 -1026.32 2083.5
267.29 -1015.69 2061.9
278.68 -1038.23 2107.7
287.43 -1050.23 2132.0
351.41 -1027.21 2085.3
365.22 -1005.69 2041.6
372.31 -1010.55 2051.5
387.91 -1038.08 2107.4
404.67 -1025.17 2081.2
409.38 -1023.46 2077.7
426.77 -1053.06 2137.8
428.46 -1030.47 2091.9
445.67 -1032.64 2096.3
452.42 -1035.67 2102.5
471.49 -1041.67 2114.7
455.34 -994.43 2018.8
467.59 -1009.56 2049.5
481.80 -1028.57 2088.1
496.82 -1048.85 2129.2
502.73 -1049.66 2130.9
486.05 -1003.79 2037.8
502.51 -1026.63 2084.1
525.61 -1062.40 2156.7
503.29 -985.83 2001.3
526.16 -1009.81 2050.0
535.04 -996.64 2023.3
759.93 -1009.69 2049.8
773.60 -1020.72 2072.1
766.92 -1004.93 2040.1
795.77 -1021.59 2073.9
823.81 -1043.49 2118.4
811.14 -1020.64 2072.0
847.91 -1059.89 2151.7
878.57 -1070.06 2172.3
884.09 -1056.46 2144.7
852.70 -1012.59 2055.6
866.85 -1022.99 2076.7
922.66 -1068.94 2170.0
985.81 -1029.14 2089.2
1036.28 -1070.07 2172.3
1042.62 -1070.80 2173.8
1063.78 -1052.70 2137.1
1064.71 -1048.16 2127.8
1127.35 -1070.98 2174.2
1106.99 -1046.41 2124.3
1089.39 -1024.68 2080.2
1166.29 -1080.95 2194.4
1163.82 -1068.24 2168.6
1155.75 -1055.73 2143.2
1173.36 -1066.69 2165.5
1187.11 -1074.05 2180.4
1187.71 -1069.50 2171.2
1204.41 -1064.36 2160.7
1210.68 -1064.95 2161.9
1235.93 -1057.78 2147.4
1207.63 -1028.93 2088.8
1215.13 -1030.69 2092.4
1243.50 -1050.07 2131.7
1268.66 -1030.11 2091.2
1308.39 -1018.83 2068.3
1338.68 -1038.16 2107.5
1389.00 -1047.26 2126.0
1407.61 -1032.61 2096.3
1449.03 -1046.83 2125.1
1450.73 -1040.14 2111.6
1482.17 -1027.78 2086.5
1530.69 -1034.98 2101.1
1541.63 -1038.69 2108.6
1574.05 -1053.06 2137.8
1580.11 -1053.41 2138.5
1577.24 -1044.17 2119.7
1592.73 -1050.76 2133.1
1628.12 -1059.40 2150.7
1587.45 -1029.40 2089.8
1599.04 -1033.39 2097.9
1621.41 -1044.30 2120.0
1639.89 -1052.63 2136.9
1674.85 -1060.74 2153.4
1676.59 -1054.81 2141.3
1636.52 -1026.20 2083.3
1675.96 -1033.87 2098.8
1665.60 -1017.57 2065.7
-1506.75 -1069.85 2160.5
-1470.09 -1059.57 2139.8
-1301.07 -1066.54 2153.8
-1313.83 -1081.64 2184.3
-1312.74 -1085.43 2192.0
-1229.45 -1077.18 2175.3
-1198.93 -1070.08 2161.0
-1157.14 -1078.11 2177.2
-747.08 -1081.00 2183.0
-740.47 -1087.93 2197.0
-713.69 -1090.52 2202.2
-706.21 -1087.79 2196.7
-645.24 -1090.63 2202.5
-634.61 -1082.23 2185.5
-593.51 -1090.01 2201.2
-581.83 -1078.93 2178.8
-548.52 -1102.82 2227.1
-538.75 -1094.69 2210.7
-530.74 -1090.01 2201.2
-518.80 -1077.08 2175.1
-516.51 -1084.10 2189.3
-486.39 -1067.83 2156.4
-475.42 -1081.01 2183.1
-476.21 -1095.86 2213.0
-465.62 -1084.56 2190.2
-342.10 -1071.18 2163.2
-291.60 -1050.87 2122.2
-292.42 -1074.07 2169.0
-237.98 -1057.10 2134.7
-220.21 -1106.87 2235.3
-208.47 -1076.14 2173.2
-168.13 -1070.41 2161.6
-155.73 -1062.33 2145.3
173.34 -1068.02 2156.8
254.25 -1011.71 2043.1
269.09 -1027.93 2075.9
284.05 -1063.79 2148.3
289.90 -1064.82 2150.3
303.53 -1017.09 2054.0
322.81 -1045.04 2110.4
358.23 -1052.64 2125.8
359.22 -1039.56 2099.3
370.07 -1054.98 2130.5
412.85 -1051.40 2123.2
419.93 -1055.35 2131.2
442.98 -1031.82 2083.7
454.82 -1046.63 2113.6
466.53 -1048.32 2117.0
488.16 -1059.52 2139.6
474.65 -1018.62 2057.1
481.80 -1022.49 2064.9
480.31 -1008.12 2035.8
482.43 -1001.57 2022.6
514.26 -1056.18 2132.9
519.00 -1043.46 2107.2
528.56 -1051.61 2123.7
534.02 -1051.52 2123.5
529.26 -1031.52 2083.1
545.60 -1052.62 2125.7
546.23 -1032.97 2086.0
544.89 -1020.34 2060.5
544.83 -1010.31 2040.3
774.36 -1034.28 2088.7
796.36 -1056.29 2133.1
799.10 -1052.60 2125.7
790.23 -1033.79 2087.7
826.67 -1052.63 2125.7
818.67 -1035.54 2091.2
839.17 -1040.79 2101.8
839.95 -1028.40 2076.8
875.89 -1065.57 2151.9
880.12 -1063.94 2148.6
864.23 -1038.16 2096.5
855.07 -1020.74 2061.3
899.24 -1034.67 2089.5
893.82 -1022.28 2064.4
906.47 -1030.57 2081.2
912.61 -1031.41 2082.9
926.10 -1040.50 2101.2
928.96 -1037.61 2095.4
955.91 -1061.50 2143.6
976.64 -1065.93 2152.6
981.80 -1065.47 2151.7
1039.47 -1090.88 2203.0
1067.17 -1067.17 2155.1
1095.05 -1040.57 2101.4
1084.23 -1025.18 2070.3
1114.21 -1048.35 2117.1
1134.54 -1062.24 2145.1
1149.83 -1071.30 2163.4
1156.55 -1072.34 2165.5
1142.48 -1054.17 2128.8
1111.28 -1020.45 2060.7
1113.42 -1017.52 2054.8
1154.55 -1050.10 2120.6
1177.92 -1066.27 2153.3
1197.88 -1079.22 2179.4
1207.89 -1073.05 2167.0
1170.22 -1034.77 2089.7
1163.03 -1018.99 2057.8
1195.84 -1042.95 2106.2
1218.88 -1048.68 2117.8
1215.39 -1040.99 2102.2
1191.06 -1015.59 2050.9
1204.52 -1017.98 2055.8
1232.48 -1037.02 2094.2
1315.27 -1029.57 2079.2
1363.55 -1045.94 2112.2
1425.17 -1055.07 2130.7
1440.29 -1049.98 2120.4
1417.33 -1017.71 2055.2
1418.54 -1014.76 2049.3
1416.56 -1009.56 2038.8
1419.30 -1007.76 2035.1
1523.46 -1028.20 2076.4
1559.70 -1048.96 2118.3
1606.08 -1068.85 2158.5
1593.26 -1056.64 2133.8
1601.71 -1047.70 2115.8
1555.38 -1013.92 2047.6
1580.43 -1026.75 2073.5
1617.45 -1047.23 2114.8
1646.54 -1051.80 2124.1
1621.66 -1032.45 2085.0
1633.31 -1036.42 2093.0
1695.53 -1072.34 2165.5
1692.00 -1039.14 2098.5
-1485.96 -1068.56 2146.7
-1469.85 -1060.95 2131.4
-1322.50 -1071.39 2152.4
-1319.17 -1073.23 2156.0
-1331.43 -1097.14 2204.1
-1276.20 -1089.03 2187.8
-1278.66 -1095.99 2201.8
-1218.55 -1078.17 2166.0
-985.46 -1112.99 2235.9
-875.58 -1128.26 2266.6
-736.55 -1079.52 2168.7
-692.53 -1072.31 2154.2
-643.93 -1075.08 2159.8
-633.33 -1066.65 2142.8
-626.95 -1074.77 2159.1
-626.44 -1083.57 2176.8
-488.29 -1077.60 2164.8
-451.18 -1069.47 2148.5
-264.92 -1082.23 2174.1
-253.51 -1058.13 2125.7
-224.65 -1105.97 2221.8
-211.03 -1066.24 2142.0
-207.66 -1107.52 2224.9
-196.28 -1108.38 2226.7
-188.40 -1096.14 2202.1
-160.77 -1064.41 2138.3
-157.07 -1077.02 2163.7
-89.32 -1071.87 2153.3
-34.18 -1093.89 2197.6
-16.92 -1082.83 2175.3
207.99 -1109.30 2228.5
265.40 -1061.59 2132.7
266.79 -1045.37 2100.1
291.40 -1075.94 2161.5
295.70 -1071.22 2152.0
300.20 -1011.22 2031.5
306.45 -1014.44 2037.9
320.18 -1041.94 2093.2
349.55 -1065.29 2140.1
359.61 -1046.15 2101.6
355.10 -1017.60 2044.3
378.41 -1052.96 2115.3
398.84 -1078.56 2166.8
444.59 -1041.00 2091.3
453.87 -1025.22 2059.6
446.29 -996.36 2001.6
489.71 -1044.71 2098.8
490.26 -1001.37 2011.7
495.45 -1001.32 2011.6
518.68 -1037.37 2084.0
536.57 -1062.07 2133.6
544.27 -1066.32 2142.2
548.65 -1064.05 2137.6
546.45 -1049.18 2107.7
536.34 -1019.57 2048.2
536.53 -1009.94 2028.9
555.92 -1036.28 2081.8
559.85 -1033.57 2076.4
778.15 -1052.15 2113.7
762.30 -1023.50 2056.1
805.22 -1058.92 2127.3
808.00 -1027.39 2063.9
814.75 -1029.16 2067.5
840.08 -1047.38 2104.1
831.69 -1023.62 2056.4
889.41 -1074.00 2157.6
882.14 -1058.57 2126.6
916.80 -1079.91 2169.5
900.61 -1035.43 2080.1
901.41 -1018.07 2045.2
918.91 -1031.75 2072.7
962.84 -1074.80 2159.2
971.35 -1071.84 2153.2
978.78 -1073.86 2157.3
963.35 -1039.12 2087.5
992.62 -1058.79 2127.0
1020.55 -1082.57 2174.8
1049.51 -1083.37 2176.4
1051.47 -1079.59 2168.8
1028.21 -1050.08 2109.5
1023.55 -1039.80 2088.9
1071.47 -1065.92 2141.4
1113.23 -1068.70 2146.9
1100.89 -1051.60 2112.6
1117.11 -1056.57 2122.6
1106.63 -1041.53 2092.4
1123.94 -1052.67 2114.7
1130.56 -1053.73 2116.9
1150.61 -1067.24 2144.0
1153.39 -1064.66 2138.8
1144.83 -1041.74 2092.8
1177.87 -1051.86 2113.1
1176.74 -1031.66 2072.5
1225.75 -1045.97 2101.3
1274.31 -1032.35 2073.9
1339.93 -1037.37 2084.0
1375.51 -1060.63 2130.7
1383.65 -1033.70 2076.6
1423.15 -1008.28 2025.6
1472.82 -1039.64 2088.6
1521.11 -1058.16 2125.8
1480.11 -1022.23 2053.6
1537.73 -1043.27 2095.8
1561.88 -1055.92 2121.3
1589.96 -1063.67 2136.8
1560.75 -1026.24 2061.7
1573.12 -1027.34 2063.9
1638.55 -1052.18 2113.8
1612.53 -1032.02 2073.3
1596.79 -1015.18 2039.4
1696.97 -1075.31 2160.2
-1495.00 -1084.72 2167.8
-1468.93 -1069.83 2138.1
-1440.31 -1065.06 2128.5
-1320.49 -1075.33 2149.1
-1263.33 -1088.49 2175.4
-978.90 -1104.84 2208.0
-871.46 -1121.28 2240.9
-735.82 -1118.21 2234.8
-658.97 -1087.02 2172.4
-590.68 -1106.81 2212.0
-571.91 -1082.14 2162.7
-266.60 -1094.76 2187.9
-254.97 -1093.52 2185.4
-218.39 -1080.73 2159.9
-208.97 -1061.34 2121.1
-208.38 -1086.96 2172.3
-204.12 -1094.31 2187.0
-197.03 -1086.49 2171.4
-194.11 -1101.85 2202.1
-166.37 -1107.25 2212.9
-157.23 -1083.75 2165.9
-153.63 -1098.20 2194.8
-122.26 -1072.55 2143.5
-117.98 -1084.30 2167.0
-111.17 -1072.80 2144.0
33.24 -1069.37 2137.2
73.03 -1084.20 2166.8
129.03 -1082.70 2163.8
135.23 -1087.48 2173.4
166.64 -1109.03 2216.4
170.97 -1099.93 2198.2
206.95 -1109.47 2217.3
254.90 -1046.72 2091.9
277.46 -1029.80 2058.1
287.47 -1046.83 2092.1
292.44 -1045.20 2088.9
300.68 -1055.11 2108.7
308.37 -1062.79 2124.0
309.86 -1049.16 2096.8
310.40 -1032.88 2064.2
327.52 -1053.51 2105.5
353.35 -1033.28 2065.0
392.43 -1066.75 2131.9
409.90 -1069.07 2136.6
412.71 -1062.04 2122.5
446.63 -1002.31 2003.1
470.99 -1044.85 2088.2
463.20 -1004.46 2007.4
472.27 -1012.76 2024.0
494.46 -1015.21 2028.9
508.29 -1032.64 2063.7
514.91 -1035.19 2068.9
515.19 -1025.08 2048.6
528.00 -1039.84 2078.1
536.48 -1045.86 2090.2
549.58 -1039.89 2078.3
558.86 -1047.19 2092.8
757.96 -1052.42 2103.3
765.64 -1048.01 2094.5
767.42 -1043.04 2084.5
767.28 -1014.28 2027.1
785.86 -1031.78 2062.0
803.30 -1047.55 2093.6
795.42 -1030.31 2059.1
844.02 -1057.77 2114.0
827.57 -1030.46 2059.4
895.52 -1087.01 2172.4
904.53 -1064.48 2127.4
928.64 -1086.22 2170.8
941.67 -1069.08 2136.6
936.14 -1056.58 2111.6
976.47 -1083.10 2164.6
946.71 -1044.08 2086.6
961.55 -1054.42 2107.3
942.69 -1027.90 2054.3
972.49 -1042.72 2083.9
981.72 -1046.81 2092.1
1012.77 -1073.98 2146.4
1046.60 -1091.85 2182.1
1032.76 -1071.62 2141.7
1059.93 -1059.93 2118.3
1085.18 -1068.57 2135.6
1094.29 -1061.30 2121.0
1118.59 -1079.44 2157.3
1101.53 -1037.05 2072.6
1114.09 -1043.79 2086.0
1140.56 -1063.42 2125.3
1128.55 -1037.19 2072.8
1145.63 -1047.90 2094.2
1184.41 -1078.26 2154.9
1189.35 -1077.67 2153.8
1141.65 -1024.83 2048.1
1147.24 -1025.08 2048.6
1196.87 -1064.50 2127.4
1177.36 -1042.34 2083.1
1202.07 -1049.77 2098.0
1205.45 -1047.98 2094.4
1244.18 -1067.23 2132.9
1282.32 -1057.64 2113.7
1291.70 -1043.09 2084.6
1394.23 -1030.99 2060.4
1510.29 -1056.11 2110.7
1477.96 -1029.77 2058.0
1474.69 -1023.79 2046.1
1516.45 -1041.55 2081.6
1618.69 -1077.27 2152.9
1621.95 -1061.14 2120.7
1608.92 -1038.53 2075.5
1596.56 -1027.12 2052.7
1609.56 -1025.23 2049.0
-1457.77 -1079.42 2146.1
-1440.25 -1070.53 2128.4
-1444.45 -1090.36 2167.9
-1414.79 -1072.14 2131.7
-1325.13 -1098.61 2184.3
-1312.67 -1092.95 2173.0
-1310.81 -1105.64 2198.2
-1302.61 -1103.52 2194.0
-1245.00 -1083.09 2153.4
-1212.07 -1109.16 2205.3
-1091.66 -1097.31 2181.7
-882.43 -1133.72 2254.1
-725.94 -1100.26 2187.5
-719.59 -1099.22 2185.5
-689.34 -1087.25 2161.7
-677.61 -1086.41 2160.0
-677.81 -1114.36 2215.6
-647.42 -1101.74 2190.5
-566.05 -1076.61 2140.5
-561.02 -1077.61 2142.5
-530.34 -1094.54 2176.2
-493.89 -1088.81 2164.8
-309.35 -1071.66 2130.7
-309.09 -1090.25 2167.7
-300.46 -1079.42 2146.1
-295.95 -1083.29 2153.8
-283.57 -1100.25 2187.5
-229.66 -1060.80 2109.1
-232.28 -1099.06 2185.2
-226.57 -1098.85 2184.8
-206.48 -1112.72 2212.3
-192.79 -1068.60 2124.6
-187.78 -1103.93 2194.9
-166.81 -1115.87 2218.6
-156.29 -1082.86 2153.0
-79.30 -1098.93 2184.9
-28.00 -1086.41 2160.0
11.29 -1095.01 2177.1
45.00 -1091.24 2169.6
154.54 -1070.75 2128.9
163.45 -1093.45 2174.0
178.68 -1118.20 2223.2
252.04 -1062.94 2113.4
250.42 -1033.64 2055.1
259.22 -1047.67 2083.0
268.50 -1041.77 2071.3
278.25 -1038.09 2063.9
287.67 -1052.96 2093.5
292.14 -1049.55 2086.7
303.28 -1069.75 2126.9
315.67 -1055.88 2099.3
332.95 -1058.89 2105.3
336.37 -1019.62 2027.2
372.78 -1079.40 2146.1
379.13 -1050.74 2089.1
392.52 -1072.52 2132.4
401.34 -1038.13 2064.0
410.14 -1033.33 2054.5
441.09 -1043.56 2074.8
448.92 -1049.29 2086.2
479.81 -1069.92 2127.2
460.14 -1014.40 2016.8
461.12 -1005.14 1998.4
525.84 -1073.82 2135.0
514.62 -1039.96 2067.7
516.66 -1033.31 2054.5
530.80 -1050.77 2089.2
524.32 -1027.46 2042.8
524.84 -1018.19 2024.4
545.53 -1047.86 2083.4
546.05 -1038.57 2064.9
546.25 -1028.85 2045.6
557.58 -1040.11 2068.0
568.79 -1050.91 2089.4
558.64 -1022.42 2032.8
721.86 -1014.79 2017.6
770.20 -1067.27 2122.0
747.85 -1028.96 2045.8
750.76 -1025.69 2039.3
780.05 -1058.25 2104.0
791.29 -1066.05 2119.5
800.69 -1071.27 2129.9
793.15 -1053.91 2095.4
790.93 -1043.81 2075.3
787.97 -1032.87 2053.6
811.26 -1049.23 2086.1
850.80 -1064.87 2117.2
861.09 -1070.85 2129.1
892.53 -1062.28 2112.0
929.84 -1061.11 2109.7
927.94 -1052.75 2093.1
957.13 -1061.05 2109.6
976.17 -1076.00 2139.3
962.71 -1055.17 2097.9
952.11 -1037.70 2063.2
974.30 -1055.94 2099.4
1003.56 -1081.62 2150.5
987.43 -1058.35 2104.2
993.23 -1058.72 2105.0
1049.52 -1106.56 2200.1
1046.46 -1097.37 2181.8
1079.22 -1090.46 2168.1
1055.34 -1060.81 2109.1
1053.74 -1053.74 2095.1
1058.62 -1047.82 2083.3
1077.62 -1061.21 2109.9
1106.47 -1062.65 2112.8
1094.79 -1046.25 2080.2
1100.23 -1036.14 2060.1
1124.90 -1054.25 2096.1
1161.80 -1068.19 2123.8
1129.21 -1033.33 2054.5
1137.04 -1035.61 2059.0
1132.89 -1027.01 2041.9
1143.15 -1026.72 2041.3
1194.04 -1052.93 2093.4
1196.06 -1049.94 2087.5
1223.21 -1068.93 2125.3
1236.28 -1075.51 2138.3
1212.10 -1049.76 2087.2
1214.97 -1047.57 2082.8
1390.29 -1037.37 2062.5
1396.79 -1038.23 2064.2
1454.73 -1049.14 2085.9
1514.02 -1064.21 2115.9
1500.09 -1050.61 2088.8
1488.61 -1027.73 2043.3
1536.57 -1035.05 2057.9
1598.02 -1069.02 2125.4
1574.27 -1038.81 2065.4
1622.49 -1066.99 2121.4
1602.10 -1039.49 2066.7
1606.28 -1038.73 2065.2
1607.60 -1036.13 2060.0
-1494.18 -1091.26 2158.5
-1466.51 -1091.49 2159.0
-1462.93 -1092.99 2162.0
-1329.77 -1108.14 2191.9
-1304.49 -1091.74 2159.5
-1305.35 -1097.17 2170.2
-1283.54 -1083.50 2143.2
-1288.60 -1092.51 2161.0
-1256.46 -1088.93 2153.9
-1043.95 -1088.61 2153.3
-1032.54 -1094.26 2164.5
-1020.74 -1105.80 2187.3
-855.56 -1134.93 2244.9
-737.31 -1114.55 2204.6
-722.97 -1101.41 2178.6
-709.60 -1089.55 2155.1
-718.17 -1111.45 2198.5
-701.54 -1112.20 2200.0
-692.46 -1106.80 2189.3
-673.72 -1104.00 2183.7
-668.46 -1104.65 2185.0
-583.26 -1104.23 2184.2
-562.06 -1085.17 2146.5
-541.63 -1111.78 2199.1
-524.72 -1088.51 2153.1
-438.31 -1110.01 2195.6
-330.02 -1090.75 2157.5
-316.61 -1102.48 2180.7
-308.65 -1094.30 2164.5
-303.12 -1094.61 2165.2
-233.94 -1060.89 2098.5
-231.00 -1098.64 2173.1
-228.54 -1114.15 2203.8
-224.50 -1122.48 2220.3
-201.29 -1090.33 2156.7
-129.34 -1096.61 2169.1
-90.23 -1099.66 2175.2
-84.39 -1097.05 2170.0
5.66 -1104.47 2184.7
11.26 -1098.15 2172.2
128.49 -1089.40 2154.9
144.90 -1086.72 2149.6
149.58 -1080.26 2136.8
158.00 -1100.37 2176.5
167.23 -1124.51 2224.3
170.27 -1106.78 2189.2
170.84 -1074.65 2125.7
199.61 -1112.12 2199.8
284.45 -1046.56 2070.1
294.07 -1061.93 2100.5
319.74 -1074.99 2126.4
347.45 -1058.64 2094.0
372.25 -1083.42 2143.0
388.66 -1082.70 2141.6
395.69 -1086.75 2149.6
434.54 -1046.11 2069.2
441.40 -1049.66 2076.2
444.89 -1045.22 2067.5
446.43 -1036.36 2049.9
458.30 -1051.40 2079.7
477.04 -1057.07 2090.9
516.21 -1070.87 2118.2
501.27 -1028.93 2035.3
507.61 -1031.07 2039.5
533.15 -1060.86 2098.4
516.88 -1018.10 2013.8
513.50 -1001.33 1980.6
552.66 -1046.30 2069.6
552.82 -1036.54 2050.3
554.07 -1028.98 2035.3
558.81 -1027.99 2033.4
720.05 -1024.89 2027.3
733.65 -1036.67 2050.6
752.86 -1056.16 2089.1
758.68 -1056.74 2090.3
741.94 -1018.86 2015.3
773.35 -1054.57 2086.0
781.70 -1058.55 2093.8
789.44 -1061.66 2100.0
790.17 -1055.36 2087.5
796.63 -1056.76 2090.3
786.77 -1029.67 2036.7
808.86 -1051.52 2079.9
876.01 -1102.07 2179.9
857.92 -1072.40 2121.2
926.07 -1062.26 2101.2
931.89 -1062.68 2102.0
970.72 -1045.80 2068.6
1019.18 -1074.27 2124.9
1047.55 -1098.23 2172.3
1035.09 -1073.63 2123.7
1056.54 -1090.08 2156.2
1049.05 -1065.44 2107.5
1169.59 -1080.90 2138.1
1124.74 -1034.55 2046.4
1121.50 -1026.72 2030.9
1131.47 -1021.47 2020.5
1171.55 -1052.78 2082.4
1229.51 -1079.98 2136.2
1208.67 -1056.91 2090.6
1216.63 -1059.12 2095.0
1338.69 -1056.86 2090.5
1340.33 -1037.16 2051.5
1378.14 -1062.20 2101.1
1374.08 -1054.91 2086.6
1375.05 -1051.51 2079.9
1416.14 -1066.20 2109.0
1396.44 -1047.33 2071.6
1490.30 -1052.93 2082.7
1555.16 -1064.06 2104.7
1568.93 -1044.17 2065.4
1543.34 -1023.64 2024.8
1632.05 -1078.81 2133.9
1616.35 -1061.24 2099.2
1613.80 -1056.01 2088.8
1620.88 -1057.10 2091.0
1641.08 -1066.70 2110.0
-1485.17 -1090.24 2145.5
-1453.55 -1091.55 2148.1
-1437.09 -1083.35 2132.0
-1458.71 -1103.89 2172.4
-1419.59 -1095.43 2155.7
-1326.81 -1088.10 2141.3
-1315.88 -1088.24 2141.6
-1304.90 -1083.73 2132.7
-1331.08 -1114.92 2194.1
-1283.52 -1079.70 2124.8
-1278.80 -1099.32 2163.4
-1251.01 -1084.95 2135.1
-1246.66 -1085.98 2137.1
-1062.48 -1113.61 2191.5
-1048.99 -1105.39 2175.3
-1025.82 -1110.83 2186.0
-1002.95 -1129.77 2223.3
-749.28 -1104.20 2173.0
-739.30 -1132.06 2227.8
-724.69 -1118.42 2201.0
-676.23 -1123.22 2210.4
-659.58 -1114.47 2193.2
-595.14 -1100.45 2165.6
-546.24 -1126.98 2217.8
-530.35 -1105.83 2176.2
-519.70 -1095.29 2155.5
-526.21 -1121.06 2206.2
-481.94 -1098.37 2161.5
-477.70 -1101.52 2167.7
-454.81 -1128.38 2220.6
-128.36 -1093.85 2152.6
-120.61 -1074.52 2114.6
-115.77 -1080.53 2126.4
-89.62 -1097.81 2160.4
-85.06 -1111.49 2187.3
-61.79 -1100.92 2166.5
-56.27 -1102.80 2170.2
-22.44 -1099.42 2163.6
49.56 -1079.30 2124.0
110.69 -1084.72 2134.7
157.71 -1103.95 2172.5
172.31 -1125.76 2215.4
173.74 -1098.46 2161.7
181.30 -1110.48 2185.3
197.87 -1108.08 2180.6
249.11 -1085.01 2135.2
246.23 -1049.16 2064.7
288.29 -1066.13 2098.1
311.44 -1052.45 2071.2
327.39 -1087.59 2140.3
367.28 -1074.43 2114.4
394.64 -1089.43 2143.9
469.60 -1082.85 2131.0
472.97 -1077.93 2121.3
482.06 -1049.81 2066.0
480.40 -1034.70 2036.2
504.45 -1051.83 2069.9
496.49 -1024.33 2015.8
509.05 -1039.31 2045.3
539.01 -1035.74 2038.3
532.53 -994.05 1956.2
539.93 -998.37 1964.7
718.19 -1035.04 2036.9
746.64 -1052.81 2071.9
738.57 -1034.00 2034.8
746.13 -1037.17 2041.1
781.91 -1064.27 2094.4
787.75 -1064.82 2095.5
785.27 -1054.20 2074.6
792.35 -1056.46 2079.0
793.29 -1050.57 2067.5
792.87 -1042.98 2052.5
832.03 -1052.11 2070.5
831.01 -1044.09 2054.7
847.97 -1051.91 2070.1
900.64 -1110.23 2184.8
912.88 -1065.03 2095.9
1016.62 -1119.42 2202.9
1005.62 -1095.01 2154.9
996.87 -1079.48 2124.3
1025.36 -1086.32 2137.8
1162.69 -1100.91 2166.5
1161.19 -1094.20 2153.3
1170.94 -1098.11 2161.0
1173.73 -1095.48 2155.8
1153.30 -1046.52 2059.5
1160.71 -1048.38 2063.1
1224.62 -1076.35 2118.2
1187.58 -1039.13 2044.9
1242.04 -1081.96 2129.2
1222.39 -1050.82 2068.0
1242.02 -1058.42 2082.9
1229.63 -1038.82 2044.3
1238.95 -1042.21 2051.0
1290.53 -1071.80 2109.2
1286.68 -1055.18 2076.5
1301.47 -1062.87 2091.6
1327.72 -1053.57 2073.4
1385.15 -1064.67 2095.2
1409.55 -1079.18 2123.8
1413.51 -1069.68 2105.1
1403.10 -1057.72 2081.5
1418.42 -1065.17 2096.2
1492.86 -1064.00 2093.9
1503.18 -1067.47 2100.7
1495.22 -1054.18 2074.6
1549.63 -1065.71 2097.2
1553.41 -1064.58 2095.0
1590.35 -1086.09 2137.4
1584.78 -1078.53 2122.5
1585.25 -1075.12 2115.8
1586.34 -1046.88 2060.2
1555.37 -1022.99 2013.2
1571.41 -1030.09 2027.1
-1468.30 -1083.35 2121.1
-1469.54 -1088.35 2130.9
-1480.66 -1100.72 2155.1
-1428.78 -1082.58 2119.6
-1432.43 -1089.53 2133.2
-1301.01 -1090.63 2135.4
-1314.22 -1111.16 2175.6
-1108.06 -1096.92 2147.7
-1007.79 -1102.97 2159.6
-1010.65 -1112.28 2177.8
-1018.37 -1127.07 2206.7
-980.03 -1103.23 2160.1
-737.09 -1108.45 2170.3
-713.30 -1106.46 2166.4
-720.69 -1126.80 2206.2
-704.62 -1119.44 2191.8
-697.35 -1126.05 2204.7
-648.85 -1101.92 2157.5
-635.67 -1088.93 2132.1
-560.85 -1104.87 2163.3
-524.85 -1111.78 2176.8
-518.62 -1110.53 2174.3
-509.11 -1102.14 2157.9
-498.45 -1128.68 2209.9
-482.42 -1105.09 2163.7
-472.04 -1120.38 2193.6
-456.32 -1096.27 2146.4
-465.10 -1131.16 2214.7
-452.55 -1128.51 2209.6
-292.53 -1108.24 2169.9
-284.76 -1099.96 2153.7
-266.91 -1118.73 2190.4
-216.68 -1094.49 2142.9
-199.22 -1090.15 2134.5
-144.77 -1096.94 2147.7
-136.86 -1078.47 2111.6
-121.70 -1089.78 2133.7
-56.09 -1104.99 2163.5
-39.43 -1109.69 2172.7
-22.52 -1109.33 2172.0
0.00 -1097.55 2148.9
22.60 -1112.97 2179.1
27.85 -1097.48 2148.8
33.77 -1108.82 2171.0
50.36 -1102.32 2158.3
55.84 -1099.99 2153.7
61.26 -1097.20 2148.2
110.52 -1088.66 2131.5
118.36 -1110.35 2174.0
125.10 -1120.21 2193.3
171.63 -1090.67 2135.5
181.92 -1119.97 2192.8
249.54 -1045.93 2047.9
290.42 -1079.49 2113.6
314.44 -1068.00 2091.1
318.14 -1062.27 2079.9
324.39 -1065.09 2085.4
335.28 -1065.31 2085.8
338.70 -1059.11 2073.7
365.47 -1043.46 2043.0
377.50 -1062.39 2080.1
400.55 -1080.94 2116.4
406.22 -1081.43 2117.4
410.53 -1078.32 2111.3
429.25 -1043.97 2044.0
460.76 -1080.60 2115.8
466.82 -1081.92 2118.3
468.79 -1073.86 2102.5
483.84 -1083.15 2120.7
488.12 -1080.43 2115.4
469.16 -1026.95 2010.7
474.78 -1016.65 1990.5
501.13 -1061.53 2078.4
505.21 -1058.80 2073.1
510.77 -1059.18 2073.8
507.24 -1040.90 2038.0
509.87 -1035.51 2027.5
530.45 -1024.49 2005.9
534.22 -1011.93 1981.3
562.63 -1055.60 2066.8
566.97 -1053.72 2063.1
552.11 -1016.50 1990.3
704.07 -1027.42 2011.6
735.48 -1065.37 2085.9
734.67 -1056.42 2068.4
733.77 -1047.48 2050.9
736.15 -1043.32 2042.8
740.95 -1042.62 2041.4
760.28 -1062.24 2079.8
784.64 -1073.44 2101.7
784.15 -1065.36 2085.9
782.30 -1055.57 2066.7
787.75 -1055.69 2067.0
791.90 -1054.08 2063.8
796.36 -1052.91 2061.5
810.30 -1064.19 2083.6
846.17 -1068.56 2092.2
851.56 -1055.08 2065.8
892.38 -1071.95 2098.8
891.50 -1051.65 2059.1
893.25 -1047.44 2050.8
899.32 -1048.32 2052.5
949.11 -1074.57 2103.9
958.68 -1079.19 2113.0
967.52 -1082.96 2120.4
997.43 -1091.63 2137.4
1002.54 -1091.16 2136.4
1028.55 -1113.32 2179.8
1017.02 -1088.88 2132.0
1039.51 -1066.58 2088.3
1063.67 -1080.11 2114.8
1141.44 -1086.29 2126.9
1130.77 -1070.97 2096.9
1187.91 -1103.86 2161.3
1151.17 -1054.79 2065.2
1134.93 -1035.10 2026.7
1150.33 -1044.31 2044.7
1175.69 -1062.44 2080.2
1178.64 -1060.23 2075.9
1156.20 -1035.32 2027.1
1186.60 -1043.57 2043.2
1227.19 -1074.47 2103.8
1244.57 -1080.09 2114.8
1219.99 -1054.11 2063.9
1225.57 -1054.31 2064.3
1276.95 -1052.55 2060.8
1298.00 -1065.44 2086.1
1349.30 -1059.01 2073.5
1350.95 -1039.60 2035.5
1461.14 -1050.53 2056.9
1454.76 -1042.14 2040.4
1513.88 -1080.56 2115.7
1527.47 -1086.32 2127.0
1545.20 -1068.08 2091.2
1548.97 -1066.95 2089.0
1586.99 -1089.32 2132.8
1556.49 -1064.68 2084.6
1530.82 -1043.50 2043.1
1526.13 -1036.72 2029.8
1550.39 -1049.58 2055.0
1593.19 -1074.86 2104.5
1586.00 -1048.46 2052.8
1567.45 -1032.74 2022.0
1590.93 -1044.71 2045.5
1651.57 -1080.93 2116.4
1612.15 -1041.29 2038.8
-1494.97 -1108.63 2159.7
-1479.40 -1101.21 2145.2
-1480.05 -1105.85 2154.3
-1298.57 -1117.90 2177.7
-1016.69 -1130.93 2203.1
-997.66 -1141.83 2224.4
-768.01 -1109.98 2162.3
-711.90 -1118.70 2179.3
-691.32 -1112.85 2167.9
-613.84 -1094.96 2133.0
-605.94 -1090.70 2124.7
-607.83 -1104.14 2150.9
-600.17 -1100.31 2143.5
-560.00 -1131.42 2204.1
-536.57 -1106.67 2155.9
-503.67 -1095.90 2134.9
-467.52 -1102.02 2146.8
-471.75 -1125.37 2192.3
-459.26 -1136.66 2214.3
-430.16 -1106.12 2154.8
-312.22 -1124.01 2189.6
-300.70 -1102.58 2147.9
-291.94 -1090.65 2124.6
-280.38 -1088.52 2120.5
-273.35 -1082.46 2108.7
-266.74 -1123.69 2189.0
-233.71 -1076.13 2096.4
-208.67 -1087.29 2118.1
-111.19 -1100.79 2144.4
-67.81 -1118.89 2179.7
27.74 -1098.69 2140.3
115.58 -1089.73 2122.8
122.18 -1099.64 2142.1
139.31 -1103.33 2149.3
150.23 -1101.66 2146.1
184.50 -1106.98 2156.5
185.83 -1082.20 2108.2
206.40 -1075.46 2095.1
236.26 -1063.17 2071.1
250.89 -1056.95 2059.0
283.30 -1078.71 2101.4
300.52 -1081.88 2107.6
336.34 -1057.07 2059.2
338.21 -1046.33 2038.3
352.72 -1074.43 2093.0
401.69 -1104.65 2151.9
395.16 -1071.81 2087.9
391.51 -1047.54 2040.7
398.18 -1051.19 2047.8
406.26 -1058.42 2061.9
421.05 -1068.82 2082.1
433.55 -1046.87 2039.4
440.53 -1050.91 2047.2
465.38 -1084.07 2111.8
466.95 -1075.08 2094.3
485.01 -1079.01 2102.0
461.17 -1014.57 1976.4
487.41 -1037.71 2021.5
490.94 -1034.10 2014.5
507.69 -1058.14 2061.3
514.08 -1060.30 2065.5
512.42 -1045.97 2037.6
526.26 -1063.27 2071.3
521.68 -1012.67 1972.7
530.68 -1020.14 1987.3
567.04 -1079.56 2103.0
552.55 -1013.01 1973.4
550.78 -1000.50 1949.0
697.55 -1046.33 2038.3
715.58 -1065.30 2075.3
711.63 -1051.52 2048.4
714.99 -1048.65 2042.8
716.52 -1043.17 2032.1
722.82 -1044.66 2035.0
730.26 -1040.22 2026.4
734.09 -1038.22 2022.5
744.71 -1045.77 2037.2
774.70 -1080.21 2104.3
796.19 -1094.77 2132.7
793.66 -1054.67 2054.5
792.32 -1038.93 2023.9
881.02 -1057.22 2059.5
923.18 -1075.24 2094.6
945.78 -1082.45 2108.7
928.89 -1057.01 2059.1
931.98 -1054.47 2054.2
933.92 -1050.66 2046.7
953.97 -1067.15 2078.9
955.17 -1056.56 2058.2
976.93 -1062.81 2070.4
1000.54 -1082.55 2108.9
992.28 -1067.78 2080.1
1059.47 -1098.30 2139.5
1079.89 -1102.15 2147.1
1094.58 -1089.08 2121.6
1085.72 -1074.86 2093.9
1137.26 -1062.16 2069.1
1161.75 -1069.89 2084.2
1168.76 -1071.36 2087.1
1191.88 -1087.52 2118.6
1262.42 -1068.20 2080.9
1326.00 -1067.27 2079.1
1313.24 -1052.72 2050.8
1357.26 -1070.67 2085.7
1360.80 -1069.20 2082.9
1357.89 -1046.15 2038.0
1375.08 -1055.30 2055.8
