ply
format ascii 1.0
element vertex 2280
property float x
property float y
property float z
end_header
422.64 759.97 1495.6
426.77 760.43 1496.5
434.39 767.03 1509.5
449.34 786.34 1547.5
464.72 806.06 1586.3
467.29 803.41 1581.1
382.11 866.42 1713.8
371.58 832.86 1647.4
375.68 832.48 1646.7
389.66 853.76 1688.8
396.92 859.99 1701.1
382.39 819.42 1620.8
368.93 781.96 1546.7
380.54 797.91 1578.3
396.14 821.78 1625.5
395.22 811.25 1604.7
390.95 794.12 1570.8
392.20 788.44 1559.6
400.91 797.73 1577.9
415.29 818.00 1618.0
421.53 821.98 1625.9
425.76 822.00 1625.9
428.37 818.95 1619.9
414.96 785.60 1553.9
404.73 758.87 1501.1
411.71 764.61 1512.4
421.84 776.03 1535.0
431.60 786.57 1555.8
433.22 782.20 1547.2
430.39 769.96 1523.0
432.37 766.48 1516.1
438.55 770.42 1523.9
444.26 773.48 1530.0
447.72 772.61 1528.2
463.67 793.11 1568.8
373.54 832.94 1656.1
366.87 808.79 1608.1
377.94 823.82 1637.9
382.62 824.77 1639.8
384.43 819.55 1629.4
386.59 815.21 1620.8
386.40 806.03 1602.6
390.15 805.21 1600.9
392.18 800.87 1592.3
390.90 789.95 1570.6
389.08 778.16 1547.2
394.45 780.84 1552.5
403.19 790.09 1570.9
403.22 782.24 1555.3
406.36 780.53 1551.9
408.10 776.19 1543.2
407.25 767.05 1525.1
411.45 767.52 1526.0
420.39 776.72 1544.3
432.51 791.58 1573.8
440.21 798.13 1586.9
440.20 790.72 1572.1
442.80 788.11 1566.9
451.56 796.38 1583.4
451.92 789.85 1570.4
449.46 778.53 1547.9
465.12 798.52 1587.6
494.24 841.08 1672.2
383.80 851.41 1701.6
375.24 822.96 1644.7
383.77 832.23 1663.2
384.84 825.27 1649.3
383.16 812.63 1624.1
393.24 824.94 1648.7
401.33 832.86 1664.5
400.34 821.96 1642.7
397.51 807.58 1614.0
398.24 800.64 1600.1
398.24 792.38 1583.6
392.84 773.66 1546.2
389.94 760.19 1519.2
393.90 760.24 1519.3
399.92 764.20 1527.3
409.42 774.70 1548.2
416.24 779.95 1558.7
417.95 775.62 1550.1
423.64 778.69 1556.2
431.03 784.79 1568.4
434.86 784.37 1567.6
447.18 799.14 1597.1
464.06 821.69 1642.2
468.06 821.24 1641.3
462.08 803.44 1605.7
463.22 798.23 1595.3
483.06 825.05 1648.9
397.82 867.98 1743.7
397.71 857.98 1723.6
391.36 834.90 1677.3
388.70 820.12 1647.6
397.80 830.19 1667.8
396.24 818.04 1643.4
386.66 789.78 1586.6
390.37 788.96 1585.0
397.33 794.66 1596.4
396.22 784.27 1575.5
389.46 763.02 1532.9
386.96 750.48 1507.7
390.45 749.66 1506.0
394.15 749.28 1505.2
400.84 754.53 1515.8
409.91 764.10 1535.0
413.90 764.13 1535.1
418.85 765.89 1538.6
425.47 770.67 1548.2
422.99 759.01 1524.8
428.90 762.49 1531.8
445.88 785.40 1577.8
450.46 786.26 1579.5
454.80 786.68 1580.4
467.44 801.33 1609.8
476.93 810.36 1628.0
394.21 855.62 1727.9
388.79 834.37 1685.0
386.83 820.95 1657.9
388.05 814.49 1644.8
387.95 805.42 1626.5
378.04 776.41 1567.9
373.82 759.56 1533.9
381.70 767.43 1549.8
387.49 770.95 1556.9
385.40 758.88 1532.5
387.40 755.03 1524.8
392.72 757.68 1530.1
389.25 743.46 1501.4
385.40 728.82 1471.8
391.55 733.19 1480.6
400.53 742.74 1499.9
403.50 741.05 1496.5
407.40 741.09 1496.6
414.89 747.58 1509.7
413.99 739.00 1492.4
414.96 733.86 1482.0
425.20 745.07 1504.6
439.01 762.28 1539.4
453.24 779.90 1575.0
464.87 792.78 1601.0
472.82 799.19 1613.9
492.61 825.33 1666.7
392.67 857.56 1740.9
394.80 852.41 1730.5
395.25 843.80 1713.0
397.66 839.51 1704.3
388.44 811.02 1646.4
378.08 780.82 1585.1
375.24 766.63 1556.3
377.17 762.37 1547.7
381.00 762.00 1546.9
382.64 757.31 1537.4
384.90 753.92 1530.5
390.89 757.85 1538.5
396.25 760.48 1543.8
392.57 745.89 1514.2
386.00 726.15 1474.1
389.16 724.91 1471.6
403.49 744.30 1511.0
412.13 752.92 1528.5
405.67 734.06 1490.2
401.41 719.51 1460.7
418.26 742.70 1507.7
439.72 773.58 1570.4
440.11 767.16 1557.4
440.92 761.59 1546.1
447.93 766.73 1556.5
451.46 765.87 1554.8
472.26 794.07 1612.0
382.34 830.60 1695.1
393.18 844.45 1723.4
401.73 853.11 1741.0
397.24 834.19 1702.4
381.77 792.91 1618.2
376.57 773.60 1578.8
378.36 768.93 1569.2
374.34 752.65 1536.0
372.09 740.26 1510.7
381.93 751.92 1534.5
392.54 764.85 1560.9
392.83 757.60 1546.1
392.37 749.07 1528.7
398.40 752.97 1536.7
402.17 752.58 1535.9
398.55 738.49 1507.1
405.98 744.95 1520.3
416.05 756.10 1543.1
411.04 739.88 1510.0
407.07 725.81 1481.2
424.71 750.18 1531.0
452.09 791.16 1614.6
458.49 794.99 1622.4
453.26 778.78 1589.3
452.37 770.24 1571.9
455.68 768.96 1569.3
476.53 797.03 1626.6
387.29 836.90 1717.0
384.13 820.63 1683.7
383.24 809.53 1660.9
370.12 773.13 1586.2
366.59 757.34 1553.8
373.79 763.84 1567.1
380.22 768.61 1576.9
380.48 760.96 1561.2
378.50 749.04 1536.8
387.76 759.36 1557.9
400.42 776.07 1592.2
403.01 773.12 1586.2
398.15 756.07 1551.2
400.15 752.27 1543.4
410.58 764.25 1568.0
413.97 763.00 1565.4
408.00 744.71 1527.9
403.74 729.83 1497.4
405.50 726.04 1489.6
409.38 726.07 1489.7
426.32 749.06 1536.8
452.77 788.16 1617.0
466.31 804.28 1650.1
468.84 801.29 1644.0
473.09 801.26 1643.9
482.89 810.56 1663.0
495.58 824.50 1691.6
423.05 930.72 1919.7
385.68 828.98 1709.9
373.44 793.56 1636.8
365.31 767.57 1583.2
363.90 756.11 1559.6
371.10 762.58 1572.9
379.61 771.60 1591.5
387.58 779.33 1607.5
387.70 771.28 1590.9
385.15 758.13 1563.7
393.81 767.12 1582.3
405.66 782.05 1613.1
402.51 768.05 1584.2
391.78 740.03 1526.4
396.22 740.92 1528.3
408.69 756.68 1560.8
414.14 759.25 1566.1
410.03 744.43 1535.5
404.83 727.92 1501.4
405.41 722.02 1489.3
414.57 731.37 1508.6
436.91 763.56 1575.0
452.23 783.03 1615.1
453.45 777.94 1604.6
467.55 794.83 1639.5
486.07 818.88 1689.1
421.33 921.96 1911.9
394.22 842.81 1747.8
381.86 807.11 1673.7
374.01 781.64 1620.9
372.69 770.23 1597.2
378.32 773.26 1603.5
384.81 777.99 1613.3
390.29 780.59 1618.7
388.08 767.90 1592.4
385.73 755.23 1566.1
395.07 765.45 1587.3
399.21 765.49 1587.4
388.40 737.16 1528.7
379.77 713.51 1479.6
386.14 718.21 1489.4
403.57 743.21 1541.2
413.84 754.65 1564.9
415.10 749.60 1554.5
415.61 743.30 1541.4
409.61 725.60 1504.7
411.37 721.83 1496.9
429.81 747.14 1549.4
439.94 757.68 1571.2
449.94 767.78 1592.2
473.96 801.43 1662.0
481.77 807.29 1674.1
487.35 809.35 1678.4
427.34 964.13 2010.2
419.03 933.99 1947.3
418.12 920.85 1919.9
423.30 921.29 1920.8
431.24 927.66 1934.1
385.38 801.06 1670.2
380.46 782.06 1630.6
382.64 777.89 1621.9
385.40 774.98 1615.8
387.06 769.96 1605.3
391.03 769.58 1604.5
395.21 769.62 1604.6
396.55 764.18 1593.3
393.40 750.30 1564.3
388.55 733.48 1529.3
386.45 722.15 1505.6
385.60 713.36 1487.3
395.68 724.77 1511.1
410.06 743.74 1550.7
415.74 746.71 1556.8
423.56 753.45 1570.9
425.98 750.53 1564.8
418.98 731.23 1524.6
426.82 737.96 1538.6
439.63 753.07 1570.1
452.84 768.57 1602.4
471.92 793.69 1654.8
473.43 789.06 1645.1
483.25 798.23 1664.3
435.84 966.20 2025.4
428.55 938.73 1967.8
422.34 914.25 1916.5
419.82 898.22 1882.9
397.32 830.77 1741.5
390.03 806.35 1690.3
394.85 807.24 1692.2
391.34 791.27 1658.7
388.50 777.01 1628.8
383.82 759.38 1591.9
382.17 748.08 1568.2
391.90 759.06 1591.2
398.68 764.14 1601.8
395.77 750.74 1573.8
391.15 734.41 1539.5
392.01 728.58 1527.3
393.94 724.85 1519.5
399.05 726.99 1524.0
407.90 735.82 1542.5
414.49 740.45 1552.2
423.49 749.26 1570.7
427.81 749.69 1571.6
422.50 733.40 1537.4
424.80 730.49 1531.3
430.74 733.85 1538.3
435.47 735.11 1541.0
445.45 745.12 1562.0
470.61 780.12 1635.3
442.29 963.56 2030.9
430.17 926.13 1952.0
399.12 829.99 1749.4
408.16 839.25 1768.9
407.40 828.37 1746.0
398.18 800.73 1687.7
400.25 796.15 1678.1
400.36 787.81 1660.5
388.56 756.45 1594.4
389.02 749.38 1579.5
390.29 743.99 1568.1
381.30 719.37 1516.2
379.89 709.39 1495.2
383.35 708.61 1493.6
392.95 719.10 1515.7
406.11 735.82 1550.9
411.08 737.52 1554.5
412.78 733.38 1545.8
417.51 734.65 1548.4
416.99 726.76 1531.8
426.04 735.52 1550.3
444.16 759.64 1601.1
434.82 736.78 1552.9
423.02 710.20 1496.9
438.14 728.90 1536.3
469.80 774.53 1632.5
435.76 967.18 2049.8
444.26 962.57 2040.0
430.78 922.38 1954.8
404.34 845.86 1792.6
404.96 837.53 1775.0
400.59 819.18 1736.1
386.31 781.21 1655.6
383.53 767.07 1625.7
392.20 775.88 1644.3
407.35 797.18 1689.5
409.81 793.46 1681.6
392.44 751.83 1593.4
376.17 713.15 1511.4
380.78 714.45 1514.2
392.35 728.65 1544.2
389.36 715.80 1517.0
392.87 715.02 1515.3
412.26 742.88 1574.4
423.56 755.77 1601.7
417.63 737.94 1563.9
414.58 725.52 1537.6
419.54 727.20 1541.2
435.12 747.10 1583.3
454.07 772.35 1636.8
445.05 749.99 1589.5
436.54 728.90 1544.8
457.03 756.17 1602.6
477.80 783.41 1660.3
499.10 811.03 1718.8
438.44 956.12 2037.5
439.08 946.11 2016.2
428.65 912.78 1945.1
394.52 820.79 1749.1
394.02 810.43 1727.0
388.50 790.09 1683.7
377.80 759.79 1619.1
378.89 753.61 1606.0
386.24 759.89 1619.3
400.49 779.44 1661.0
407.18 784.04 1670.8
393.46 749.65 1597.5
391.25 737.67 1572.0
410.00 765.05 1630.3
412.67 762.18 1624.2
399.92 731.16 1558.1
391.18 708.04 1508.8
398.12 713.45 1520.4
418.84 743.24 1583.8
422.96 743.25 1583.9
410.00 713.55 1520.6
404.62 697.49 1486.4
423.70 723.49 1541.8
446.95 756.05 1611.2
451.61 756.87 1612.9
458.26 760.97 1621.6
474.46 780.69 1663.7
489.59 798.34 1701.3
503.12 813.08 1732.7
434.46 942.20 2019.0
430.59 922.70 1977.2
433.57 918.14 1967.4
428.37 896.58 1921.3
401.71 831.12 1781.0
389.13 795.95 1705.6
396.65 802.20 1719.0
399.05 798.10 1710.2
402.04 795.24 1704.1
411.33 804.77 1724.5
411.76 796.95 1707.7
404.98 775.49 1661.8
401.68 761.08 1630.9
410.32 769.36 1648.6
413.72 767.73 1645.1
400.72 736.02 1577.2
395.99 719.99 1542.8
394.98 710.97 1523.5
387.87 691.25 1481.3
393.60 694.59 1488.4
403.83 705.73 1512.3
397.33 687.68 1473.6
422.65 717.71 1537.9
446.39 750.94 1609.2
450.56 750.93 1609.1
460.92 761.16 1631.1
480.90 786.93 1686.3
502.16 814.31 1744.9
428.14 946.13 2038.7
430.58 939.93 2025.4
436.60 941.58 2029.0
427.13 910.19 1961.3
424.57 894.10 1926.6
433.34 901.94 1943.5
420.53 865.24 1864.4
396.60 806.71 1738.3
392.52 789.44 1701.1
400.67 796.89 1717.2
409.32 805.15 1735.0
412.78 803.12 1730.6
406.59 782.58 1686.3
403.20 767.80 1654.5
404.02 761.26 1640.4
407.85 760.47 1638.7
405.66 748.59 1613.1
399.08 728.93 1570.7
401.13 725.27 1562.8
408.40 731.04 1575.3
409.73 726.15 1564.7
400.73 703.25 1515.4
395.50 687.33 1481.1
398.17 685.32 1476.7
407.78 695.16 1498.0
423.29 714.79 1540.3
435.83 729.09 1571.1
450.24 746.23 1608.0
472.03 775.17 1670.4
491.62 800.00 1723.9
511.72 825.20 1778.2
425.55 935.16 2026.4
416.21 903.48 1957.8
427.24 916.24 1985.4
424.04 898.57 1947.1
424.78 889.54 1927.6
437.12 904.74 1960.5
427.15 873.94 1893.8
405.90 821.02 1779.1
394.32 788.64 1708.9
395.04 781.30 1693.0
397.14 776.83 1683.3
393.69 761.71 1650.6
396.07 758.06 1642.7
400.78 758.92 1644.5
396.76 743.41 1610.9
395.89 734.04 1590.6
401.59 736.94 1596.9
403.50 732.88 1588.1
402.41 723.53 1567.8
406.72 723.96 1568.8
413.12 728.07 1577.7
408.35 712.60 1544.2
409.54 707.74 1533.6
420.90 720.38 1561.0
418.23 709.01 1536.4
420.77 706.58 1531.1
439.65 731.38 1584.9
460.76 759.40 1645.6
477.69 780.08 1690.4
493.33 798.29 1729.8
506.12 811.62 1758.7
429.70 938.98 2046.2
409.02 882.88 1923.9
406.34 866.52 1888.3
422.12 889.46 1938.3
443.25 923.00 2011.4
434.79 884.56 1927.6
420.90 846.58 1844.9
417.07 829.45 1807.5
396.45 779.68 1699.1
377.39 734.04 1599.6
386.44 743.47 1620.2
400.72 762.66 1662.0
398.77 750.88 1636.3
388.62 724.05 1577.8
402.66 742.40 1617.8
424.02 773.73 1686.1
414.00 747.73 1629.4
400.74 716.48 1561.3
398.61 705.55 1537.5
397.99 697.47 1519.9
402.42 698.31 1521.7
413.22 710.10 1547.4
433.19 737.26 1606.6
440.00 741.71 1616.3
432.07 721.47 1572.2
440.06 727.95 1586.3
457.73 750.17 1634.8
470.92 764.70 1666.4
485.75 781.62 1703.3
496.97 792.47 1726.9
503.46 795.64 1733.8
513.83 804.85 1753.9
533.90 828.95 1806.4
553.43 851.80 1856.2
434.24 943.53 2067.8
431.24 925.59 2028.5
423.63 898.29 1968.7
433.98 909.29 1992.8
436.95 894.23 1959.8
426.35 862.50 1890.2
417.84 835.68 1831.4
414.79 820.25 1797.6
395.37 773.17 1694.4
381.94 738.70 1618.9
396.13 757.81 1660.8
408.17 772.44 1692.9
404.56 757.47 1660.0
393.35 728.74 1597.1
407.89 747.80 1638.8
423.75 768.87 1685.0
406.05 729.24 1598.2
402.48 715.52 1568.1
411.15 723.63 1585.9
414.81 722.84 1584.1
423.61 730.93 1601.9
421.16 719.65 1577.1
427.16 722.88 1584.2
440.89 739.01 1619.6
438.29 727.73 1594.9
441.93 726.92 1593.1
455.44 742.20 1626.6
469.36 757.86 1660.9
484.69 775.51 1699.6
490.08 777.07 1703.0
490.38 770.60 1688.8
501.94 781.78 1713.3
523.48 808.18 1771.2
548.44 839.35 1839.5
415.46 932.13 2054.5
420.25 930.93 2051.8
427.43 934.99 2060.8
432.21 933.78 2058.1
431.27 920.39 2028.6
426.72 899.71 1983.0
426.02 887.55 1956.2
423.03 870.95 1919.6
430.00 875.00 1928.6
433.19 871.36 1920.5
421.08 837.37 1845.6
413.12 812.31 1790.4
410.70 798.59 1760.2
415.28 798.61 1760.2
416.24 791.76 1745.1
414.98 780.88 1721.1
416.42 775.25 1708.7
411.01 757.12 1668.8
402.30 733.36 1616.4
394.68 712.05 1569.4
399.67 713.69 1573.0
419.47 741.48 1634.3
424.63 743.10 1637.9
426.10 738.29 1627.2
431.02 739.50 1629.9
424.14 720.63 1588.3
424.93 715.03 1576.0
433.59 722.65 1592.8
434.32 717.04 1580.4
441.12 721.45 1590.1
451.41 731.45 1612.2
462.06 741.84 1635.1
479.61 763.01 1681.7
488.00 769.37 1695.7
501.57 783.70 1727.3
526.63 815.58 1797.6
536.69 823.87 1815.9
550.25 837.34 1845.6
407.30 932.50 2067.1
410.52 927.66 2056.4
409.33 913.12 2024.2
415.50 915.16 2028.7
424.11 922.44 2044.8
421.71 905.89 2008.1
413.79 878.04 1946.4
412.87 865.54 1918.7
415.71 861.12 1908.9
415.75 851.06 1886.6
426.22 862.35 1911.6
429.57 859.13 1904.5
416.99 824.51 1827.7
417.42 816.07 1809.0
423.57 818.90 1815.3
422.18 807.25 1789.5
417.69 789.98 1751.2
418.16 782.36 1734.3
421.36 779.96 1729.0
414.02 758.30 1681.0
404.22 732.66 1624.1
403.76 724.26 1605.5
415.83 738.31 1636.7
424.18 745.53 1652.7
417.20 725.93 1609.2
415.58 715.95 1587.1
418.06 713.17 1580.9
413.66 698.80 1549.1
417.68 698.81 1549.1
435.44 721.58 1599.6
445.90 731.95 1622.5
443.48 721.17 1598.7
445.89 718.38 1592.5
460.99 735.89 1631.3
482.31 762.93 1691.2
498.09 780.78 1730.8
519.93 807.76 1790.6
539.75 831.12 1842.4
544.46 831.03 1842.2
552.59 836.09 1853.4
401.43 925.97 2064.5
401.67 914.32 2038.5
405.53 911.12 2031.4
401.55 890.62 1985.7
403.95 884.61 1972.3
412.80 892.67 1990.3
411.94 879.82 1961.6
410.56 866.18 1931.2
416.34 867.80 1934.8
415.52 855.77 1908.0
411.99 838.53 1869.6
414.66 834.13 1859.8
410.01 815.31 1817.8
409.03 804.11 1792.8
421.92 820.14 1828.6
421.67 810.55 1807.2
413.94 786.95 1754.6
409.78 770.57 1718.0
410.16 762.99 1701.1
426.09 784.19 1748.4
431.28 785.39 1751.1
412.13 742.69 1655.9
402.34 717.57 1599.9
409.66 723.18 1612.4
413.17 722.01 1609.8
406.77 703.71 1569.0
405.74 694.97 1549.5
420.32 712.90 1589.5
428.47 719.67 1604.6
425.23 707.36 1577.1
434.63 716.10 1596.6
446.06 728.01 1623.1
445.60 720.46 1606.3
444.81 712.52 1588.6
457.41 725.98 1618.6
481.99 758.04 1690.1
500.57 780.17 1739.4
514.26 794.35 1771.0
527.59 807.72 1800.9
542.87 823.84 1836.8
564.70 842.19 1877.7
568.96 841.28 1875.7
384.52 918.58 2059.9
385.22 895.38 2007.9
392.89 901.03 2020.6
403.81 913.89 2049.4
404.11 902.69 2024.3
396.84 875.08 1962.4
390.54 850.29 1906.8
389.36 837.12 1877.3
396.88 842.75 1889.9
404.27 847.98 1901.6
412.68 855.19 1917.8
415.32 850.42 1907.1
408.63 826.87 1854.3
408.46 816.91 1831.9
409.38 809.35 1815.0
414.50 810.17 1816.8
422.52 816.56 1831.2
417.68 798.24 1790.1
413.27 781.13 1751.7
412.29 770.80 1728.5
404.74 748.54 1678.6
412.58 754.93 1692.9
430.14 778.79 1746.4
423.59 758.93 1701.9
411.44 729.56 1636.1
416.60 731.17 1639.7
420.17 729.99 1637.0
414.97 713.75 1600.6
411.46 700.70 1571.3
422.58 712.59 1598.0
434.79 726.06 1628.2
437.34 723.29 1622.0
453.60 743.04 1666.3
469.60 761.99 1708.8
461.97 742.61 1665.3
453.88 722.85 1621.0
459.33 724.81 1625.4
476.38 744.88 1670.4
497.46 770.84 1728.6
514.21 789.68 1770.9
528.32 804.17 1803.4
544.67 821.78 1842.9
555.16 830.32 1862.0
553.29 820.40 1839.8
555.32 816.37 1830.7
573.72 836.27 1875.3
391.61 917.32 2069.1
385.41 890.61 2008.9
383.28 873.89 1971.2
394.44 887.49 2001.9
395.69 878.75 1982.1
394.12 864.03 1948.9
393.85 852.51 1922.9
391.95 837.80 1889.8
398.19 840.62 1896.1
405.79 846.22 1908.8
414.03 853.00 1924.1
419.61 854.20 1926.8
416.71 838.32 1890.9
410.83 816.88 1842.6
405.92 797.85 1799.7
403.66 784.38 1769.3
403.51 775.28 1748.8
408.26 775.70 1749.7
413.65 777.31 1753.3
416.08 773.36 1744.4
412.64 758.73 1711.4
407.08 740.55 1670.4
410.33 738.59 1666.0
420.65 749.28 1690.1
426.16 751.26 1694.6
417.65 728.77 1643.8
407.08 703.13 1586.0
416.50 712.22 1606.5
427.89 724.46 1634.1
435.66 730.37 1647.4
444.43 737.85 1664.3
453.29 745.31 1681.2
475.51 774.40 1746.8
481.32 769.21 1735.1
471.16 746.00 1682.7
473.50 742.83 1675.5
486.90 756.91 1707.3
504.27 776.85 1752.3
512.11 781.88 1763.6
516.89 782.20 1764.4
525.85 788.78 1779.2
529.89 787.92 1777.3
537.09 791.74 1785.9
547.00 799.46 1803.3
557.26 807.56 1821.6
576.30 828.12 1867.9
387.36 902.08 2046.7
374.01 859.21 1949.5
367.17 832.26 1888.3
372.80 833.90 1892.0
383.48 846.65 1921.0
392.12 854.62 1939.0
397.34 855.04 1940.0
401.64 853.49 1936.5
405.35 850.74 1930.2
410.17 850.36 1929.4
410.74 841.28 1908.8
407.49 824.68 1871.1
411.76 823.51 1868.5
414.41 819.18 1858.6
408.92 799.05 1813.0
405.66 783.67 1778.1
399.13 762.38 1729.8
396.95 749.79 1701.2
407.28 760.85 1726.3
415.60 767.97 1742.4
418.62 765.22 1736.2
419.43 758.54 1721.1
409.38 732.58 1662.2
405.27 717.66 1628.3
415.78 728.68 1653.3
412.60 715.73 1623.9
411.33 706.33 1602.6
430.50 731.85 1660.5
439.70 740.09 1679.2
445.23 742.04 1683.6
445.07 734.59 1666.7
445.31 727.92 1651.6
459.26 743.56 1687.1
466.30 747.84 1696.8
468.22 743.90 1687.8
469.35 738.79 1676.2
472.42 736.80 1671.7
485.82 750.82 1703.5
503.20 770.66 1748.6
511.03 775.67 1759.9
504.67 759.24 1722.6
502.83 749.83 1701.3
510.88 755.22 1713.5
521.11 763.70 1732.8
538.66 782.67 1775.8
556.68 802.00 1819.7
566.76 809.65 1837.0
376.32 908.56 2073.6
378.23 900.29 2054.8
381.21 894.79 2042.2
377.99 875.06 1997.2
367.43 839.14 1915.2
363.48 819.04 1869.3
372.08 827.39 1888.4
385.63 846.39 1931.7
399.22 864.97 1974.2
410.06 877.23 2002.1
406.30 858.32 1959.0
402.14 839.02 1914.9
408.45 841.80 1921.3
410.34 835.52 1906.9
408.84 822.55 1877.3
415.10 825.32 1883.7
419.39 824.15 1881.0
416.78 809.62 1847.8
412.38 791.95 1807.5
404.87 768.80 1754.7
400.23 751.55 1715.3
407.44 756.68 1727.0
420.47 772.38 1762.8
428.71 779.05 1778.0
432.44 777.48 1774.5
426.26 758.30 1730.7
419.64 738.73 1686.0
427.60 745.00 1700.3
429.29 740.31 1689.6
432.53 738.36 1685.2
440.59 744.61 1699.4
439.16 734.84 1677.2
441.15 730.93 1668.2
438.58 719.62 1642.4
434.21 705.59 1610.4
443.46 713.76 1629.0
455.98 726.98 1659.2
463.96 732.80 1672.5
467.53 731.60 1669.8
472.84 733.12 1673.2
482.72 741.63 1692.7
497.27 757.11 1728.0
507.88 766.36 1749.1
505.38 755.83 1725.1
499.09 739.88 1688.7
502.11 737.89 1684.1
527.15 768.01 1752.9
558.68 806.98 1841.8
571.20 818.08 1867.1
576.77 819.12 1869.5
579.34 815.90 1862.2
367.55 894.90 2054.6
359.11 861.87 1978.8
361.94 856.42 1966.3
365.54 852.93 1958.3
374.57 862.03 1979.2
376.26 854.21 1961.2
372.94 835.39 1918.0
382.02 844.47 1938.8
386.17 842.55 1934.4
389.92 839.84 1928.2
406.01 863.42 1982.3
408.54 857.94 1969.8
402.69 835.22 1917.6
407.10 834.06 1914.9
413.82 837.61 1923.1
417.24 834.48 1915.9
411.32 812.97 1866.5
402.75 786.77 1806.4
410.68 793.05 1820.8
418.28 798.53 1833.4
418.90 790.73 1815.4
422.77 789.17 1811.9
424.30 783.32 1798.4
430.46 786.06 1804.7
426.94 771.24 1770.7
418.66 748.25 1717.9
418.06 739.30 1697.4
419.35 733.86 1684.9
426.64 738.93 1696.5
427.64 733.10 1683.1
431.32 731.93 1680.5
439.84 738.92 1696.5
435.83 724.94 1664.4
435.19 716.78 1645.7
433.75 707.47 1624.3
431.24 696.61 1599.4
446.52 714.44 1640.3
464.69 736.49 1690.9
473.49 743.43 1706.9
478.64 744.55 1709.4
473.77 730.21 1676.5
473.28 722.83 1659.6
477.82 723.18 1660.4
479.01 718.51 1649.6
495.19 736.21 1690.3
507.12 747.34 1715.8
508.89 743.42 1706.8
531.34 769.53 1766.8
551.13 791.37 1816.9
551.99 785.89 1804.3
565.58 798.46 1833.2
576.83 807.57 1854.1
571.05 792.86 1820.3
574.57 791.21 1816.5
364.00 880.99 2034.8
357.47 852.82 1969.7
361.77 850.93 1965.4
359.80 834.54 1927.5
363.28 831.07 1919.5
372.62 840.91 1942.2
376.80 839.00 1937.8
379.71 834.35 1927.1
377.69 819.15 1892.0
378.79 810.99 1873.1
391.79 828.22 1912.9
399.94 834.88 1928.3
399.66 823.98 1903.1
400.77 816.21 1885.2
403.73 812.33 1876.2
409.59 814.30 1880.8
406.74 799.13 1845.7
398.10 773.06 1785.5
405.59 778.54 1798.2
413.54 784.78 1812.6
413.68 776.24 1792.9
419.80 778.97 1799.2
424.05 778.20 1797.4
433.63 787.13 1818.0
434.02 779.37 1800.1
415.55 738.26 1705.1
404.10 710.37 1640.7
405.70 705.75 1630.0
414.21 713.12 1647.1
418.26 712.75 1646.2
424.83 716.63 1655.2
444.40 742.14 1714.1
452.34 747.92 1727.5
442.65 724.74 1673.9
432.23 700.80 1618.6
433.06 695.40 1606.1
450.31 716.21 1654.2
470.49 741.24 1712.0
482.55 753.14 1739.5
488.52 755.40 1744.7
485.23 743.43 1717.1
479.27 727.62 1680.6
477.99 719.13 1661.0
479.43 714.87 1651.1
494.59 730.94 1688.2
508.09 744.31 1719.1
511.98 743.48 1717.2
519.84 748.39 1728.5
524.80 749.08 1730.1
535.72 758.18 1751.1
558.45 783.70 1810.1
575.42 800.79 1849.6
575.14 793.79 1833.4
573.12 784.51 1812.0
595.70 808.80 1868.1
360.15 879.19 2042.9
369.52 889.00 2065.7
379.27 886.76 2060.4
370.78 854.85 1986.3
364.30 828.41 1924.9
363.94 816.40 1897.0
372.39 824.23 1915.2
379.52 828.95 1926.1
382.73 825.10 1917.2
389.54 829.03 1926.3
396.96 834.11 1938.1
399.75 829.47 1927.3
396.04 811.64 1885.9
393.47 796.54 1850.8
401.77 803.55 1867.1
413.10 816.36 1896.9
418.22 816.76 1897.8
418.53 807.86 1877.1
415.08 791.99 1840.3
410.63 774.59 1799.8
417.38 778.48 1808.9
430.87 794.72 1846.6
424.64 774.63 1799.9
423.11 763.43 1773.9
426.41 761.12 1768.5
411.12 726.01 1687.0
406.23 709.84 1649.4
413.86 715.64 1662.8
428.08 732.60 1702.2
438.63 742.99 1726.4
434.38 728.36 1692.4
441.55 732.97 1703.1
454.85 747.57 1737.0
451.78 735.25 1708.4
451.43 727.55 1690.5
460.61 735.21 1708.3
462.11 730.58 1697.6
467.23 731.70 1700.2
475.57 737.80 1714.3
479.49 737.00 1712.5
490.18 746.52 1734.6
497.94 751.44 1746.0
494.51 739.53 1718.4
493.00 730.69 1697.8
505.94 743.24 1727.0
517.18 753.09 1749.9
516.65 745.77 1732.9
519.23 743.03 1726.5
522.85 741.82 1723.7
531.59 747.83 1737.6
549.67 766.76 1781.6
562.73 778.44 1808.8
572.05 784.79 1823.5
580.31 789.60 1834.7
585.26 789.86 1835.3
594.45 795.79 1849.1
606.27 805.13 1870.8
360.20 887.06 2073.7
353.44 857.61 2004.8
361.75 865.05 2022.2
376.89 888.38 2076.7
377.12 876.40 2048.7
367.90 843.11 1970.9
360.52 814.87 1904.9
361.84 806.79 1886.0
371.85 818.08 1912.4
378.97 822.77 1923.4
381.81 818.17 1912.6
385.69 815.89 1907.3
390.47 815.54 1906.4
398.61 822.13 1921.9
401.52 817.91 1912.0
399.96 804.81 1881.4
408.93 812.93 1900.4
414.26 813.72 1902.2
413.04 801.78 1874.3
417.70 801.40 1873.4
418.70 794.09 1856.3
417.57 782.94 1830.2
428.13 793.72 1855.4
435.24 797.95 1865.3
423.12 767.19 1793.4
417.06 747.99 1748.5
415.32 736.86 1722.5
412.14 723.44 1691.2
419.40 728.44 1702.8
420.25 722.31 1688.5
427.56 727.30 1700.2
443.80 747.22 1746.7
446.26 743.76 1738.7
446.35 736.47 1721.6
452.21 738.75 1727.0
453.84 734.15 1716.2
458.27 734.13 1716.1
466.56 740.21 1730.4
467.62 734.83 1717.8
467.16 727.18 1699.9
470.06 724.86 1694.5
472.19 721.39 1686.4
481.06 728.21 1702.3
490.52 735.78 1720.0
489.31 727.36 1700.3
487.24 717.81 1678.0
498.58 728.01 1701.9
514.75 745.04 1741.6
518.95 744.59 1740.6
521.01 741.10 1732.4
523.84 738.75 1726.9
523.12 731.48 1709.9
531.31 736.70 1722.1
534.62 735.10 1718.4
535.68 730.48 1707.6
564.06 762.87 1783.3
589.42 790.69 1848.4
585.04 778.48 1819.8
582.24 768.55 1796.6
602.62 789.15 1844.8
359.79 894.03 2102.7
359.42 879.79 2069.2
360.97 870.57 2047.5
356.39 847.08 1992.3
359.11 841.35 1978.8
365.94 845.26 1988.0
363.50 827.96 1947.3
360.50 809.90 1904.8
366.34 811.88 1909.5
376.95 824.26 1938.6
384.67 830.07 1952.3
387.22 824.72 1939.7
390.80 821.68 1932.5
390.27 810.17 1905.5
392.78 805.21 1893.8
397.71 805.23 1893.8
398.60 797.19 1874.9
408.33 806.81 1897.6
414.04 808.36 1901.2
407.05 785.36 1847.1
405.01 772.35 1816.5
413.19 778.88 1831.9
419.79 782.34 1840.0
422.07 777.75 1829.2
420.31 765.89 1801.3
420.74 758.25 1783.3
427.72 762.46 1793.2
421.76 743.74 1749.2
414.04 722.37 1698.9
420.88 726.58 1708.8
421.07 719.34 1691.8
423.89 716.67 1685.6
435.09 728.11 1712.4
444.81 736.86 1733.0
453.01 742.94 1747.3
447.22 726.18 1707.9
437.69 703.73 1655.1
443.16 705.62 1659.6
452.52 713.59 1678.3
462.20 721.92 1697.9
470.02 727.20 1710.3
477.65 732.09 1721.8
484.08 735.08 1728.9
486.26 731.63 1720.7
488.41 728.17 1712.6
487.18 719.80 1692.9
484.83 709.92 1669.7
495.63 719.32 1691.8
510.74 734.75 1728.1
509.61 726.76 1709.3
506.26 715.75 1683.4
520.53 729.63 1716.0
531.43 738.60 1737.1
535.05 737.38 1734.3
533.70 729.40 1715.5
525.61 712.39 1675.5
543.87 731.10 1719.5
581.76 775.68 1824.3
591.50 782.31 1839.9
583.60 765.68 1800.8
597.67 777.92 1829.6
620.57 801.37 1884.8
354.82 876.31 2073.6
360.07 875.98 2072.9
361.30 866.05 2049.4
356.55 842.29 1993.2
354.99 826.61 1956.0
357.91 821.68 1944.4
366.03 828.64 1960.9
373.71 834.45 1974.6
375.02 826.06 1954.7
381.52 829.17 1962.1
392.87 842.61 1993.9
399.50 845.70 2001.2
395.54 826.59 1956.0
386.91 798.31 1889.1
391.07 796.81 1885.5
397.68 800.28 1893.7
396.07 787.31 1863.1
402.86 791.16 1872.2
412.25 799.96 1893.0
409.00 784.33 1856.0
406.78 770.99 1824.4
414.37 776.35 1837.1
420.78 779.40 1844.3
423.49 775.60 1835.3
424.04 767.99 1817.3
426.42 763.81 1807.4
429.82 761.53 1802.0
420.61 737.20 1744.5
410.90 712.52 1686.1
414.40 711.02 1682.5
415.86 706.10 1670.9
419.07 704.21 1666.4
433.19 720.52 1705.0
445.89 734.15 1737.3
449.00 731.86 1731.8
439.41 709.14 1678.1
436.65 697.78 1651.2
447.61 708.36 1676.2
456.05 714.77 1691.4
464.80 721.54 1707.4
470.92 724.15 1713.6
476.33 725.62 1717.1
477.01 719.93 1703.6
473.84 708.59 1676.8
479.69 710.81 1682.0
481.71 707.38 1673.9
488.87 711.47 1683.6
508.57 733.60 1735.9
510.66 730.15 1727.8
497.34 704.93 1668.1
504.03 708.25 1676.0
527.44 734.81 1738.8
537.31 742.22 1756.3
539.34 738.76 1748.2
546.56 742.41 1756.8
547.71 737.83 1746.0
547.69 731.75 1731.6
566.20 750.33 1775.5
587.75 772.61 1828.3
593.53 773.97 1831.5
603.94 781.29 1848.8
621.48 791.42 1872.8
610.90 771.92 1826.6
626.20 785.15 1857.9
363.08 877.90 2090.2
357.29 851.20 2026.7
358.83 842.47 2005.9
363.39 840.99 2002.4
363.75 829.98 1976.1
369.07 830.41 1977.2
378.34 839.61 1999.1
381.45 835.08 1988.3
376.92 814.15 1938.5
377.32 804.28 1915.0
390.27 821.08 1955.0
392.42 815.02 1940.5
384.29 788.03 1876.3
389.73 789.21 1879.1
402.41 804.82 1916.2
407.39 804.84 1916.3
411.78 803.72 1913.6
418.52 807.15 1921.8
412.36 785.90 1871.2
407.55 767.71 1827.9
414.74 772.27 1838.7
420.95 774.93 1845.1
424.49 772.66 1839.7
426.10 766.99 1826.2
421.70 750.71 1787.4
417.53 735.21 1750.5
420.99 733.33 1746.0
423.98 730.69 1739.7
432.92 738.24 1757.7
440.16 742.77 1768.5
430.96 719.75 1713.7
431.29 712.96 1697.5
443.52 725.77 1728.0
447.06 724.25 1724.4
447.07 717.08 1707.3
453.38 720.07 1714.5
462.35 727.19 1731.4
468.51 729.79 1737.6
466.42 719.62 1713.4
462.49 706.82 1682.9
470.55 712.42 1696.2
473.42 710.14 1690.8
469.97 698.48 1663.1
475.78 700.70 1668.3
484.44 707.02 1683.4
497.82 720.06 1714.4
506.14 725.61 1727.7
497.95 707.62 1684.8
500.42 704.95 1678.4
522.90 730.26 1738.7
536.24 742.49 1767.8
535.87 735.69 1751.6
540.08 735.23 1750.6
548.96 741.10 1764.5
554.29 742.11 1766.9
558.80 742.01 1766.7
556.24 732.61 1744.3
555.00 725.08 1726.4
581.73 753.92 1795.1
614.55 790.13 1881.3
617.56 787.76 1875.6
600.07 759.46 1808.2
601.40 755.25 1798.2
627.91 782.48 1863.0
366.57 880.87 2110.3
359.38 850.89 2038.5
359.80 839.54 2011.3
364.05 837.31 2006.0
363.91 825.21 1977.0
367.70 822.23 1969.8
375.41 827.97 1983.6
380.58 828.01 1983.7
378.49 812.50 1946.5
371.22 786.39 1884.0
376.12 786.44 1884.1
386.71 798.22 1912.3
388.16 791.06 1895.2
387.26 779.36 1867.1
393.45 782.04 1873.6
404.29 793.78 1901.7
414.29 803.62 1925.3
426.58 817.61 1958.8
426.07 807.03 1933.4
413.75 774.58 1855.7
412.46 763.28 1828.6
420.91 770.08 1844.9
426.74 771.96 1849.4
430.69 770.46 1845.8
428.45 758.03 1816.0
427.35 747.87 1791.7
433.52 750.50 1798.0
429.18 735.09 1761.1
429.53 727.95 1744.0
442.11 741.46 1776.3
439.02 728.69 1745.7
437.38 718.55 1721.5
447.37 727.54 1743.0
458.39 738.01 1768.1
466.01 742.85 1779.7
459.94 725.98 1739.3
455.81 712.49 1706.9
466.02 721.43 1728.4
468.53 718.41 1721.1
466.58 708.67 1697.8
476.41 716.85 1717.4
481.34 717.55 1719.1
479.46 708.19 1696.6
485.86 711.13 1703.7
494.87 717.78 1719.6
499.03 717.35 1718.6
497.70 709.11 1698.9
503.64 711.29 1704.1
519.69 727.57 1743.1
526.56 730.83 1750.9
524.57 721.85 1729.4
527.64 719.91 1724.7
535.34 724.28 1735.2
543.36 729.00 1746.5
548.37 729.65 1748.1
555.07 732.51 1754.9
554.46 725.76 1738.7
552.63 717.53 1719.0
576.78 742.89 1779.8
605.83 774.12 1854.6
606.46 768.82 1841.9
600.58 755.41 1809.8
614.00 766.31 1835.9
359.23 912.32 2199.3
365.15 885.22 2134.0
367.85 878.46 2117.7
366.77 863.00 2080.4
361.27 837.72 2019.5
359.58 821.90 1981.4
362.23 816.29 1967.8
368.71 819.36 1975.2
376.95 826.20 1991.7
382.66 827.37 1994.6
384.49 820.24 1977.4
381.04 802.18 1933.8
381.17 792.04 1909.4
387.42 794.72 1915.8
394.82 799.64 1927.7
399.83 799.67 1927.8
397.61 785.39 1893.4
399.25 779.02 1878.0
402.96 776.79 1872.6
408.02 777.18 1873.6
415.48 782.08 1885.4
410.69 764.07 1842.0
413.23 759.96 1832.0
425.20 773.09 1863.7
419.40 753.98 1817.6
411.26 731.13 1762.6
422.44 742.75 1790.6
435.04 756.60 1823.9
438.90 755.10 1820.3
431.75 734.90 1771.6
428.58 721.82 1740.1
436.90 728.16 1755.4
438.28 722.93 1742.8
441.19 720.31 1736.5
453.99 733.72 1768.8
467.41 747.85 1802.9
467.59 740.74 1785.7
454.40 712.79 1718.3
449.98 699.00 1685.1
459.41 706.79 1703.9
466.01 710.11 1711.9
468.21 706.73 1703.7
478.07 714.87 1723.3
484.01 717.05 1728.6
479.87 704.40 1698.1
483.48 703.24 1695.3
493.49 711.34 1714.8
498.94 712.77 1718.3
497.61 704.57 1698.5
503.02 705.99 1702.0
516.15 718.12 1731.2
520.32 717.68 1730.1
516.12 705.80 1701.5
516.94 700.93 1689.8
527.57 709.34 1710.0
538.85 718.46 1732.0
543.83 719.11 1733.6
550.21 721.59 1739.5
559.45 727.74 1754.4
567.33 732.04 1764.7
573.83 734.50 1770.7
583.81 741.35 1787.2
591.84 745.62 1797.5
594.93 743.66 1792.7
611.86 758.90 1829.5
358.30 890.15 2159.4
356.99 873.26 2118.4
356.10 857.88 2081.1
358.51 850.79 2063.9
362.76 848.21 2057.7
362.24 834.73 2024.9
361.23 820.50 1990.4
364.90 817.17 1982.3
370.40 817.97 1984.3
377.46 822.14 1994.4
380.03 816.55 1980.9
378.81 803.09 1948.2
380.84 796.75 1932.8
386.59 798.28 1936.5
387.95 790.82 1918.4
390.34 785.61 1905.8
399.43 793.87 1925.8
400.82 786.79 1908.6
404.81 784.94 1904.2
410.92 787.19 1909.6
404.04 764.79 1855.3
398.88 746.13 1810.0
405.20 749.14 1817.3
418.69 765.20 1856.3
428.46 774.15 1878.0
420.60 751.41 1822.8
408.04 720.87 1748.7
414.29 723.86 1756.0
427.24 738.39 1791.2
431.45 737.64 1789.4
439.38 743.21 1802.9
451.38 755.46 1832.7
448.04 742.07 1800.2
438.20 718.29 1742.5
440.88 715.31 1735.3
452.53 726.80 1763.1
462.92 736.04 1785.5
461.17 726.01 1761.2
450.52 702.28 1703.7
449.17 693.38 1682.1
455.46 696.32 1689.2
459.33 695.56 1687.3
456.55 684.82 1661.3
462.08 686.64 1665.7
482.92 710.97 1724.7
493.43 719.77 1746.1
488.99 706.82 1714.6
490.57 702.71 1704.7
505.33 717.39 1740.3
513.45 722.47 1752.6
502.66 701.08 1700.7
500.12 691.46 1677.4
513.53 703.89 1707.5
518.44 704.55 1709.2
519.01 699.34 1696.5
529.66 707.70 1716.8
535.43 709.45 1721.0
535.37 703.51 1706.6
543.66 708.54 1718.8
553.98 716.12 1737.2
565.24 724.79 1758.2
575.46 731.98 1775.7
578.23 729.67 1770.1
577.77 723.35 1754.8
583.69 725.05 1758.9
602.63 742.77 1801.9
625.03 764.46 1854.5
348.36 873.67 2132.8
350.73 865.86 2113.8
353.61 859.55 2098.4
356.42 853.25 2083.0
355.18 837.58 2044.7
356.00 827.17 2019.3
355.70 814.51 1988.4
355.42 802.23 1958.4
362.20 806.02 1967.7
371.75 815.79 1991.5
377.11 816.20 1992.5
378.09 807.28 1970.8
378.44 797.25 1946.3
382.07 794.30 1939.1
384.39 788.75 1925.5
381.86 773.50 1888.3
381.18 762.36 1861.1
387.16 764.63 1866.6
395.25 770.99 1882.2
406.13 782.54 1910.4
409.72 779.95 1904.0
400.44 753.21 1838.8
403.62 750.26 1831.6
418.08 768.10 1875.1
421.72 765.87 1869.7
420.99 755.86 1845.2
426.40 756.98 1848.0
427.81 751.05 1833.5
423.18 734.75 1793.7
425.24 730.31 1782.8
430.08 730.68 1783.8
438.66 737.33 1800.0
452.43 752.47 1837.0
451.57 743.21 1814.3
442.44 720.67 1759.3
445.16 717.70 1752.1
448.53 715.84 1747.5
450.95 712.50 1739.4
460.39 720.22 1758.2
461.84 715.40 1746.5
457.00 701.02 1711.4
459.72 698.42 1705.0
467.79 703.91 1718.4
469.51 699.83 1708.5
472.42 697.60 1703.0
490.11 717.01 1750.4
495.87 718.79 1754.7
486.86 699.30 1707.2
486.10 691.93 1689.2
498.23 702.86 1715.9
519.65 726.59 1773.8
522.08 723.58 1766.4
509.32 699.76 1708.3
511.55 696.77 1701.0
523.21 706.55 1724.9
530.07 709.76 1732.7
536.70 712.59 1739.6
538.93 709.59 1732.3
533.31 696.39 1700.1
536.53 694.85 1696.3
545.67 700.95 1711.2
555.17 707.39 1726.9
573.93 725.44 1771.0
585.37 734.03 1791.9
582.63 724.84 1769.5
585.06 722.18 1763.0
602.54 737.99 1801.6
622.28 756.30 1846.3
630.83 760.85 1857.4
353.12 894.20 2196.8
358.54 893.51 2195.2
362.43 889.09 2184.3
366.26 884.67 2173.4
362.06 861.26 2115.9
354.22 830.04 2039.2
357.44 825.26 2027.5
359.61 818.25 2010.3
359.38 806.03 1980.2
366.72 810.92 1992.2
369.86 806.51 1981.4
369.50 794.67 1952.3
375.63 796.94 1957.9
380.90 797.35 1958.9
385.82 797.01 1958.1
389.45 794.08 1950.9
387.34 779.66 1915.4
387.48 770.06 1891.9
393.91 773.05 1899.2
402.47 780.10 1916.5
411.31 787.52 1934.8
412.62 780.50 1917.5
408.11 762.77 1874.0
415.97 768.32 1887.6
423.30 772.76 1898.5
420.04 758.00 1862.2
420.73 750.62 1844.1
427.60 754.31 1853.2
435.79 760.21 1867.7
438.06 755.78 1856.8
432.30 737.73 1812.4
429.58 725.21 1781.7
437.28 730.35 1794.3
449.71 743.21 1825.9
455.11 744.29 1828.5
452.57 732.51 1799.6
456.53 731.39 1796.9
460.48 730.26 1794.1
453.44 711.90 1749.0
453.72 705.28 1732.7
466.05 717.34 1762.4
472.27 719.87 1768.6
463.02 698.98 1717.3
459.39 686.89 1687.5
470.16 696.36 1710.8
482.28 707.65 1738.5
491.78 714.90 1756.3
489.96 705.73 1733.8
480.12 685.26 1683.5
479.05 677.57 1664.6
490.60 687.72 1689.6
510.92 709.86 1744.0
518.03 713.43 1752.7
510.28 696.64 1711.5
510.64 691.12 1697.9
519.32 696.86 1712.0
521.79 694.25 1705.6
523.41 690.55 1696.5
539.38 705.69 1733.7
548.55 711.75 1748.6
545.41 701.89 1724.4
548.39 699.98 1719.7
542.50 686.88 1687.5
544.22 683.54 1679.3
577.46 719.53 1767.7
598.57 739.96 1817.9
587.89 721.09 1771.6
590.31 718.44 1765.0
609.38 735.95 1808.1
618.15 740.84 1820.1
621.23 738.89 1815.3
628.54 741.97 1822.8
368.59 884.63 2187.3
361.91 855.42 2115.0
356.44 829.92 2052.0
362.43 831.46 2055.8
366.80 829.29 2050.4
368.99 822.31 2033.2
370.74 814.59 2014.1
367.97 797.27 1971.3
362.91 775.53 1917.5
364.93 769.30 1902.1
376.27 782.63 1935.1
387.41 795.21 1966.2
391.80 793.77 1962.6
390.45 780.89 1930.8
390.62 771.34 1907.2
397.46 775.05 1916.3
407.60 785.01 1941.0
418.25 795.69 1967.4
422.37 793.85 1962.8
420.33 780.62 1930.1
423.34 776.95 1921.0
426.50 773.64 1912.9
422.65 757.86 1873.8
422.34 748.69 1851.2
426.72 747.96 1849.3
431.72 748.32 1850.2
437.58 750.14 1854.8
435.48 738.42 1825.8
431.26 723.41 1788.6
436.56 724.50 1791.3
450.54 739.84 1829.3
457.74 743.83 1839.2
457.95 736.50 1821.0
464.49 739.39 1828.2
465.27 733.16 1812.8
455.00 709.79 1755.0
453.87 701.03 1733.3
465.25 711.56 1759.4
479.64 726.45 1796.2
478.21 717.31 1773.6
464.42 690.00 1706.1
465.37 684.88 1693.4
472.48 688.85 1703.2
477.12 689.17 1704.0
489.87 701.10 1733.5
494.07 700.68 1732.5
488.73 686.86 1698.3
496.22 691.16 1708.9
506.37 699.06 1728.4
503.93 689.59 1705.0
501.65 680.50 1682.5
507.31 682.24 1686.9
514.07 685.43 1694.7
514.59 680.31 1682.1
513.12 672.67 1663.2
525.42 683.04 1688.8
543.98 701.33 1734.1
550.65 704.11 1740.9
551.97 700.06 1730.9
544.95 685.59 1695.1
544.96 680.11 1681.6
575.62 712.67 1762.1
597.02 733.35 1813.2
588.09 716.73 1772.1
587.24 710.16 1755.9
603.02 723.63 1789.2
613.25 730.28 1805.6
618.11 730.50 1806.2
632.71 742.13 1834.9
360.52 887.00 2207.3
354.40 858.30 2135.9
355.63 848.05 2110.3
361.28 848.47 2111.4
367.10 849.25 2113.4
371.79 847.46 2108.9
375.15 842.72 2097.1
369.14 817.39 2034.0
363.49 793.54 1974.7
367.27 790.65 1967.5
368.41 782.25 1946.6
367.70 770.18 1916.6
376.59 778.29 1936.8
387.75 790.80 1967.9
391.95 789.00 1963.4
400.01 794.89 1978.1
410.00 804.43 2001.8
400.83 776.61 1932.6
394.18 754.30 1877.1
404.29 764.20 1901.7
407.86 761.66 1895.4
406.64 750.34 1867.2
410.68 748.89 1863.6
420.18 757.30 1884.5
422.61 752.92 1873.6
419.39 738.69 1838.2
420.18 731.77 1821.0
424.26 730.68 1818.3
428.55 729.95 1816.5
435.42 733.58 1825.5
440.14 733.57 1825.5
440.90 727.01 1809.2
449.37 733.18 1824.5
458.59 740.42 1842.5
460.84 736.40 1832.5
462.59 731.65 1820.7
458.03 717.11 1784.5
453.51 702.94 1749.3
458.03 702.92 1749.2
465.17 706.88 1759.0
475.24 715.17 1779.7
481.28 717.30 1785.0
474.37 700.26 1742.6
473.18 691.91 1721.8
478.11 692.59 1723.5
485.06 696.16 1732.4
499.92 710.90 1769.1
506.77 714.08 1777.0
503.84 703.57 1750.8
500.01 691.98 1722.0
499.19 684.73 1703.9
505.94 687.90 1711.8
512.20 690.36 1717.9
519.83 694.60 1728.5
528.32 699.91 1741.7
524.58 689.06 1714.7
519.33 676.44 1683.3
518.37 669.56 1666.2
522.63 669.48 1666.0
537.31 682.65 1698.8
547.32 689.71 1716.3
553.41 691.76 1721.4
567.87 704.16 1752.3
577.25 710.11 1767.1
576.48 703.57 1750.8
579.45 701.67 1746.1
591.58 710.81 1768.8
594.56 708.90 1764.1
590.31 698.46 1738.1
600.76 705.44 1755.5
622.87 725.90 1806.4
644.60 745.62 1855.5
355.74 869.58 2178.0
352.27 847.65 2123.1
354.09 838.91 2101.2
360.03 840.07 2104.1
365.19 839.39 2102.4
369.20 836.14 2094.2
375.47 838.01 2098.9
372.29 819.03 2051.4
366.17 794.22 1989.2
369.13 789.52 1977.5
377.04 795.40 1992.2
383.10 797.27 1996.9
385.45 791.46 1982.3
390.24 790.76 1980.6
384.45 768.91 1925.8
382.08 754.36 1889.4
399.70 779.17 1951.5
398.15 766.44 1919.7
392.42 746.08 1868.7
403.09 757.02 1896.1
412.91 766.12 1918.9
417.69 765.77 1918.0
412.84 747.97 1873.4
413.24 739.99 1853.4
420.71 744.71 1865.2
422.44 739.27 1851.6
420.54 727.67 1822.6
421.45 721.15 1806.2
423.35 716.44 1794.4
428.00 716.44 1794.4
439.43 727.65 1822.5
446.35 731.26 1831.5
448.41 726.90 1820.6
450.87 723.27 1811.5
456.46 724.69 1815.1
461.38 725.02 1815.9
457.02 710.92 1780.6
452.49 696.84 1745.3
455.58 694.65 1739.9
461.75 697.15 1746.1
468.18 700.00 1753.2
470.76 697.08 1745.9
482.12 707.11 1771.1
499.29 725.39 1816.8
493.98 710.96 1780.7
491.01 700.14 1753.6
494.25 698.29 1749.0
489.78 685.69 1717.4
498.84 692.09 1733.4
506.42 696.33 1744.0
504.59 687.67 1722.4
509.80 688.68 1724.9
521.97 698.98 1750.7
534.52 709.62 1777.3
536.62 706.32 1769.1
526.38 686.97 1720.6
524.99 679.40 1701.7
527.68 677.19 1696.1
531.73 676.75 1695.0
546.21 689.47 1726.9
556.86 697.20 1746.2
563.30 699.59 1752.2
566.03 697.35 1746.6
563.79 689.08 1725.9
569.93 691.10 1730.9
580.21 698.07 1748.4
589.10 703.26 1761.4
588.18 696.76 1745.1
579.66 681.43 1706.7
585.50 683.08 1710.9
603.55 698.85 1750.4
622.40 715.30 1791.6
635.88 725.37 1816.8
654.76 741.42 1857.0
357.85 869.06 2190.9
351.36 839.96 2117.6
350.53 825.08 2080.0
361.44 837.89 2112.3
371.88 849.22 2140.9
365.32 821.97 2072.2
361.36 801.28 2020.0
361.80 790.79 1993.6
359.06 773.76 1950.6
363.63 772.72 1948.0
372.34 780.39 1967.4
382.03 789.87 1991.3
388.45 792.44 1997.7
388.96 783.04 1974.0
378.95 752.97 1898.3
385.27 746.16 1881.1
399.25 763.57 1925.0
409.61 773.72 1950.5
412.54 769.75 1940.5
414.05 763.24 1924.1
421.02 766.86 1933.3
418.61 753.50 1899.6
418.67 744.84 1877.7
425.38 748.09 1885.9
424.46 737.98 1860.5
419.64 721.40 1818.7
423.51 719.96 1815.0
428.42 720.32 1815.9
428.80 713.11 1797.8
435.43 716.35 1805.9
442.97 721.01 1817.7
446.11 718.48 1811.3
450.35 717.74 1809.4
457.30 721.31 1818.4
462.23 721.64 1819.3
458.57 708.70 1786.6
455.45 696.84 1756.7
459.51 696.10 1754.9
464.76 697.14 1757.5
470.26 698.54 1761.0
476.50 701.01 1767.2
492.09 717.05 1807.7
507.63 732.71 1847.2
500.89 716.22 1805.6
489.15 692.96 1747.0
483.99 679.36 1712.7
481.99 670.40 1690.1
493.31 679.97 1714.2
507.88 693.80 1749.1
512.37 693.74 1748.9
515.79 692.24 1745.2
525.87 699.63 1763.8
532.00 701.68 1769.0
528.10 690.60 1741.0
528.18 684.84 1726.5
536.73 690.08 1739.7
544.50 694.24 1750.2
553.16 699.46 1763.3
546.94 685.91 1729.2
536.28 667.08 1681.7
559.75 690.67 1741.2
579.18 708.92 1787.2
568.03 689.75 1738.9
565.13 680.82 1716.4
578.92 691.99 1744.5
591.95 702.08 1769.9
596.43 701.95 1769.6
593.68 693.38 1748.0
595.67 690.44 1740.6
609.23 700.84 1766.8
624.44 712.98 1797.4
634.53 719.14 1813.0
646.25 727.04 1832.9
350.50 845.65 2145.9
349.07 829.04 2103.8
349.13 816.42 2071.7
361.28 832.05 2111.4
372.04 844.04 2141.8
365.96 818.03 2075.8
360.69 794.56 2016.3
360.28 782.32 1985.2
357.68 765.75 1943.2
362.06 764.35 1939.6
363.99 757.90 1923.3
366.72 753.26 1911.5
383.80 777.84 1973.8
395.24 790.49 2005.9
393.70 777.17 1972.1
396.79 773.23 1962.1
405.07 779.37 1977.7
413.99 786.58 1996.0
414.76 778.31 1975.0
407.66 755.66 1917.6
406.75 744.88 1890.2
411.06 743.82 1887.5
419.37 749.93 1903.0
430.19 760.34 1929.4
430.06 751.36 1906.7
421.91 728.76 1849.3
424.19 724.46 1838.4
435.32 735.21 1865.7
440.36 735.55 1866.5
441.08 728.74 1849.2
444.33 726.22 1842.8
448.43 725.13 1840.1
445.37 712.60 1808.3
443.06 701.51 1780.1
453.13 710.06 1801.8
460.54 714.31 1812.6
462.20 709.65 1800.8
464.74 706.41 1792.6
472.92 711.72 1806.0
482.11 718.44 1823.1
475.71 702.03 1781.5
469.84 686.69 1742.5
484.89 701.94 1781.2
499.88 716.81 1819.0
503.80 715.68 1816.1
502.67 707.46 1795.2
499.14 696.05 1766.3
498.80 689.25 1749.0
492.43 674.32 1711.1
489.78 664.71 1686.8
500.17 672.79 1707.3
509.32 679.10 1723.3
519.09 686.10 1741.0
525.97 689.20 1748.9
525.82 683.12 1733.5
529.71 682.33 1731.5
542.41 692.82 1758.1
554.40 702.24 1782.0
562.58 706.71 1793.4
556.13 692.89 1758.3
535.86 662.21 1680.4
549.03 673.01 1707.8
581.96 707.67 1795.8
585.35 706.14 1791.9
574.96 688.14 1746.2
579.68 688.37 1746.8
594.21 700.16 1776.7
599.90 701.42 1779.9
599.28 695.35 1764.5
603.13 694.51 1762.4
612.16 699.61 1775.3
622.17 705.75 1790.9
632.88 712.57 1808.2
644.90 720.77 1829.0
354.39 863.10 2204.7
349.75 838.29 2141.3
361.43 852.75 2178.3
367.57 840.96 2148.2
361.19 814.02 2079.3
360.77 801.11 2046.4
361.00 790.01 2018.0
367.25 792.22 2023.6
371.34 789.75 2017.3
372.65 781.53 1996.3
371.77 769.00 1964.3
374.77 764.73 1953.4
392.32 789.88 2017.7
403.16 801.02 2046.1
400.61 785.62 2006.8
396.39 767.36 1960.2
397.36 759.50 1940.1
405.24 764.89 1953.8
404.36 753.81 1925.5
404.70 745.24 1903.7
411.02 747.76 1910.1
416.17 748.12 1911.0
425.35 755.63 1930.2
426.70 749.20 1913.7
416.24 722.44 1845.4
420.19 721.01 1841.8
435.05 738.12 1885.5
444.60 745.95 1905.4
448.25 743.79 1899.9
439.50 721.35 1842.6
433.31 703.55 1797.1
442.17 710.30 1814.4
444.18 706.02 1803.4
442.98 696.76 1779.8
454.19 707.04 1806.1
458.86 707.01 1806.0
458.17 698.83 1785.1
466.30 704.12 1798.6
480.18 717.89 1833.8
487.29 721.39 1842.7
478.52 701.52 1792.0
468.28 679.91 1736.8
478.41 688.00 1757.4
494.59 704.56 1799.7
499.47 704.85 1800.5
502.83 703.03 1795.8
503.11 696.97 1780.3
497.16 682.46 1743.3
484.81 659.52 1684.7
485.49 654.54 1672.0
499.26 667.16 1704.2
508.94 674.13 1722.0
519.78 682.49 1743.4
530.17 690.14 1762.9
533.32 688.30 1758.2
532.61 681.55 1741.0
540.92 686.38 1753.3
549.01 690.84 1764.7
553.51 690.74 1764.4
569.30 704.63 1799.9
571.60 701.72 1792.5
564.97 687.98 1757.4
578.10 698.34 1783.8
586.41 702.76 1795.1
581.58 691.48 1766.3
582.81 687.53 1756.2
592.31 693.32 1771.0
599.49 696.33 1778.7
599.76 691.33 1765.9
605.13 692.23 1768.2
615.40 698.69 1784.7
623.29 702.36 1794.1
632.14 707.06 1806.1
644.79 715.91 1828.7
361.03 859.61 2210.4
370.72 842.55 2166.6
364.85 816.83 2100.4
364.97 805.07 2070.2
361.97 786.88 2023.4
365.23 782.64 2012.5
370.98 783.76 2015.4
373.48 778.08 2000.8
380.07 780.98 2008.2
390.58 791.71 2035.8
395.15 790.31 2032.2
391.94 773.57 1989.2
390.89 761.48 1958.1
387.83 745.83 1917.9
391.13 742.65 1909.7
401.03 751.93 1933.5
404.51 749.10 1926.3
408.93 748.04 1923.5
414.12 748.41 1924.5
417.72 745.93 1918.1
424.30 748.77 1925.4
422.78 737.41 1896.2
418.03 720.74 1853.3
427.83 729.25 1875.2
436.05 734.91 1889.8
438.81 731.36 1880.6
447.55 737.71 1897.0
444.42 724.60 1863.3
431.26 695.59 1788.6
433.02 690.98 1776.8
443.21 699.81 1799.5
450.80 704.38 1811.3
462.33 714.94 1838.4
467.76 715.97 1841.1
460.88 698.30 1795.6
462.46 693.69 1783.8
478.21 710.21 1826.3
486.98 716.15 1841.5
491.48 715.74 1840.5
494.26 712.88 1833.1
490.86 701.23 1803.2
493.76 698.71 1796.7
494.12 692.69 1781.2
492.38 683.87 1758.5
501.23 689.77 1773.7
503.73 686.91 1766.3
497.90 672.84 1730.2
503.91 674.88 1735.4
513.37 681.46 1752.3
519.72 683.84 1758.4
521.27 679.92 1748.4
522.24 675.31 1736.5
534.57 685.35 1762.3
543.18 690.49 1775.5
540.53 681.34 1752.0
538.04 672.54 1729.4
541.05 670.72 1724.7
554.49 681.75 1753.1
568.92 693.81 1784.1
574.89 695.43 1788.3
579.43 695.32 1788.0
579.60 690.00 1774.3
575.00 679.14 1746.4
577.07 676.25 1738.9
591.30 687.55 1768.0
602.66 695.38 1788.1
602.95 690.41 1775.3
607.74 690.61 1775.9
610.39 688.41 1770.2
610.84 683.78 1758.3
625.20 694.67 1786.3
644.68 711.04 1828.4
664.04 727.05 1869.6
358.78 848.55 2196.6
367.86 856.43 2217.0
369.59 847.22 2193.2
362.84 819.14 2120.5
361.16 803.18 2079.2
366.74 803.59 2080.2
368.86 796.52 2061.9
365.71 778.44 2015.1
364.86 765.70 1982.2
372.77 771.42 1997.0
384.92 785.65 2033.8
388.44 782.13 2024.7
386.03 766.91 1985.3
388.30 761.27 1970.7
392.50 759.52 1966.2
391.68 748.21 1936.9
397.28 749.30 1939.7
410.67 764.88 1980.0
417.35 767.72 1987.4
420.75 764.54 1979.1
424.50 762.06 1972.7
426.43 756.41 1958.1
431.30 756.05 1957.2
433.72 751.45 1945.3
433.00 741.57 1919.7
436.09 738.39 1911.4
437.46 732.38 1895.9
443.01 733.43 1898.6
454.58 744.32 1926.8
458.26 742.18 1921.3
452.69 725.27 1877.5
440.25 697.84 1806.5
435.07 682.37 1766.4
446.43 692.89 1793.7
461.34 708.66 1834.5
472.30 718.09 1858.9
470.58 708.24 1833.4
467.55 696.64 1803.4
478.84 706.41 1828.7
486.66 710.91 1840.3
489.95 708.76 1834.8
489.55 701.37 1815.6
483.14 685.60 1774.8
497.39 699.16 1809.9
508.80 708.52 1834.1
499.86 689.63 1785.2
501.64 685.73 1775.1
514.17 696.47 1802.9
518.01 695.35 1800.0
509.29 677.54 1753.9
503.77 664.26 1719.6
517.75 676.70 1751.8
527.32 683.23 1768.7
522.66 671.35 1737.9
530.37 675.43 1748.5
544.45 687.48 1779.7
546.22 683.92 1770.5
546.27 678.29 1755.9
551.03 678.54 1756.5
558.62 682.24 1766.1
567.10 686.98 1778.4
563.86 677.55 1754.0
558.19 665.37 1722.4
569.86 673.88 1744.5
576.64 676.53 1751.3
580.78 676.07 1750.1
597.43 690.05 1786.3
602.84 690.95 1788.7
597.09 679.13 1758.1
600.62 677.97 1755.1
601.99 674.41 1745.8
592.83 659.19 1706.4
596.21 658.04 1703.5
623.00 682.56 1766.9
649.78 706.69 1829.4
665.13 718.14 1859.1
358.48 842.15 2194.8
363.89 841.49 2193.1
367.26 836.23 2179.4
361.89 811.51 2114.9
359.71 794.58 2070.8
364.77 793.92 2069.1
366.53 786.19 2048.9
363.01 767.51 2000.3
362.63 755.90 1970.0
371.54 763.71 1990.4
382.81 776.10 2022.7
385.60 771.19 2009.9
389.75 769.10 2004.4
398.76 776.53 2023.8
406.39 781.12 2035.7
409.26 776.55 2023.8
402.87 754.74 1967.0
404.17 747.72 1948.7
413.85 756.17 1970.7
420.33 758.64 1977.1
430.37 767.41 2000.0
438.74 773.02 2014.6
440.93 767.74 2000.9
440.81 758.61 1977.1
437.07 743.51 1937.7
437.29 735.44 1916.7
445.62 741.03 1931.3
458.28 753.61 1964.0
460.98 749.73 1953.9
456.03 733.61 1911.9
453.94 722.40 1882.7
445.49 701.41 1828.0
437.22 681.14 1775.2
444.76 685.67 1787.0
456.92 697.16 1816.9
465.08 702.36 1830.5
472.83 706.85 1842.2
479.46 709.60 1849.3
482.56 707.11 1842.9
482.03 699.41 1822.8
484.06 695.54 1812.7
482.38 686.46 1789.0
474.91 669.40 1744.6
488.10 681.50 1776.1
504.46 697.75 1818.5
500.02 685.21 1785.8
499.25 677.87 1766.7
509.18 685.08 1785.5
515.84 687.78 1792.5
509.18 672.84 1753.5
508.13 665.52 1734.5
526.41 683.41 1781.1
538.47 692.99 1806.1
536.33 684.28 1783.4
530.53 671.10 1749.0
530.88 665.85 1735.3
545.83 678.84 1769.2
