ply
format ascii 1.0
element vertex 2245
property float x
property float y
property float z
end_header
939.06 500.59 1409.4
940.08 499.19 1405.4
945.89 500.33 1408.7
933.48 491.87 1384.8
926.89 486.53 1369.8
937.50 490.22 1380.2
955.17 497.56 1400.8
972.37 504.60 1420.7
980.95 507.13 1427.8
967.20 498.15 1402.5
961.56 493.38 1389.1
953.67 487.51 1372.6
937.49 477.46 1344.2
938.27 476.08 1340.4
956.14 483.36 1360.9
956.93 481.98 1357.0
945.49 474.48 1335.9
967.36 483.68 1361.8
971.46 483.97 1362.6
944.26 468.71 1319.6
946.61 468.18 1318.1
953.45 469.86 1322.9
966.49 474.58 1336.2
1025.87 501.95 1413.2
1081.79 690.72 1959.0
1063.53 675.89 1916.9
1058.12 669.32 1898.3
1035.35 651.89 1848.8
1023.15 641.24 1818.6
1025.89 640.00 1815.1
1022.47 634.96 1800.8
1025.61 634.02 1798.2
1023.04 629.57 1785.5
1006.59 616.65 1748.9
994.29 606.38 1719.8
984.27 597.59 1694.8
1003.55 606.59 1720.4
1022.93 615.57 1745.8
1003.10 600.97 1704.4
996.73 594.54 1686.2
1016.67 603.79 1712.4
1027.89 607.79 1723.8
1014.56 597.31 1694.1
1011.47 592.93 1681.6
1045.95 610.51 1731.5
1065.22 619.10 1755.9
1054.70 610.38 1731.1
1050.07 605.12 1716.2
1041.37 597.58 1694.8
1040.63 594.64 1686.5
1063.06 604.92 1715.6
1075.48 609.44 1728.5
1070.69 604.20 1713.6
1061.25 596.40 1691.5
1053.76 589.76 1672.6
1034.42 576.56 1635.2
1007.74 559.40 1586.5
999.94 552.81 1567.8
1004.47 553.07 1568.6
999.15 547.92 1554.0
978.69 534.54 1516.0
970.07 527.72 1496.7
987.02 534.80 1516.8
997.74 538.46 1527.1
978.51 526.00 1491.8
967.05 517.79 1468.5
976.15 520.61 1476.5
951.84 505.66 1434.1
923.65 488.78 1386.2
936.89 493.86 1400.7
966.77 507.65 1439.8
979.09 512.14 1452.5
952.71 496.43 1408.0
943.44 489.72 1388.9
954.10 493.37 1399.3
964.25 496.74 1408.8
1005.44 516.00 1463.4
1025.55 524.34 1487.1
989.44 503.99 1429.4
951.48 482.84 1369.4
950.66 480.63 1363.1
967.45 487.31 1382.1
953.92 478.72 1357.7
923.69 461.85 1309.9
924.38 460.49 1306.0
957.88 475.45 1348.4
982.61 485.95 1378.2
978.35 482.09 1367.3
956.11 469.43 1331.4
937.11 458.44 1300.2
956.88 466.44 1322.9
1024.19 497.46 1410.9
1071.86 692.35 1978.1
1067.24 686.08 1960.2
1075.84 688.33 1966.7
1089.99 694.10 1983.1
1077.40 682.86 1951.0
1053.07 664.32 1898.1
1041.10 653.71 1867.7
1027.13 641.95 1834.2
1023.33 636.64 1819.0
1019.47 631.33 1803.8
1009.41 622.24 1777.8
1003.98 616.08 1760.2
993.72 607.02 1734.3
976.67 593.92 1696.9
965.21 584.32 1669.5
966.62 582.56 1664.5
995.49 597.29 1706.6
1024.53 612.00 1748.6
1016.34 604.43 1727.0
994.91 589.09 1683.1
999.21 589.05 1683.0
1008.41 591.89 1691.1
994.51 581.21 1660.6
990.36 576.29 1646.5
1022.81 592.62 1693.2
1053.45 607.76 1736.5
1055.34 606.26 1732.2
1044.21 597.32 1706.6
1028.45 585.83 1673.8
1026.16 582.07 1663.0
1045.02 590.29 1686.5
1055.87 593.93 1696.9
1049.49 587.89 1679.7
1034.37 577.02 1648.6
1020.66 567.04 1620.1
1037.09 573.80 1639.4
1047.93 577.43 1649.8
1018.07 558.69 1596.3
998.86 545.93 1559.8
995.59 541.95 1548.4
977.70 530.08 1514.5
974.30 526.12 1503.2
997.02 536.25 1532.1
996.22 533.69 1524.8
964.34 514.57 1470.2
932.78 495.77 1416.5
920.60 487.38 1392.5
959.83 506.16 1446.2
997.65 524.06 1497.3
982.28 513.98 1468.5
982.32 512.02 1462.9
1010.25 524.55 1498.7
1000.63 517.57 1478.8
983.38 506.70 1447.7
985.49 505.86 1445.3
982.71 502.52 1435.8
1009.82 514.44 1469.8
1022.32 518.84 1482.4
980.71 495.86 1416.8
954.21 480.67 1373.3
965.49 484.54 1384.4
976.81 488.41 1395.4
958.88 477.67 1364.8
917.01 455.13 1300.4
904.90 447.48 1278.5
953.96 470.02 1342.9
994.33 488.12 1394.6
998.49 488.39 1395.4
985.26 480.18 1371.9
991.63 481.55 1375.8
1044.25 505.28 1443.7
1056.60 677.44 1950.0
1030.87 657.80 1893.4
1052.65 668.51 1924.3
1079.62 682.40 1964.3
1071.61 674.16 1940.5
1051.42 658.36 1895.1
1027.31 640.28 1843.0
1002.52 621.94 1790.2
1015.53 627.10 1805.1
1027.18 631.39 1817.4
1002.48 613.39 1765.6
982.32 598.32 1722.2
990.05 600.30 1728.0
991.60 598.54 1722.9
978.27 587.84 1692.1
977.31 584.64 1682.9
982.59 585.19 1684.4
987.39 585.44 1685.2
1005.79 593.73 1709.0
1013.07 595.40 1713.8
997.87 583.90 1680.7
987.93 575.57 1656.8
993.15 576.11 1658.3
1008.26 582.36 1676.3
1004.60 577.75 1663.0
999.40 572.30 1647.4
1020.06 581.65 1674.3
1028.32 583.88 1680.7
1010.00 571.05 1643.8
1003.61 565.06 1626.5
1019.89 571.82 1646.0
1027.12 573.47 1650.7
1028.26 571.73 1645.7
1020.71 565.19 1626.9
1006.95 555.27 1598.3
1023.34 562.00 1617.7
1029.00 562.80 1620.0
993.90 541.39 1558.4
987.54 535.75 1542.1
996.69 538.54 1550.2
965.26 519.46 1495.2
947.20 507.70 1461.4
965.13 515.25 1483.1
957.94 509.38 1466.2
950.68 503.52 1449.4
944.41 498.23 1434.2
923.25 485.16 1396.5
950.82 497.70 1432.6
1007.28 525.20 1511.8
1014.36 526.84 1516.5
988.78 511.57 1472.5
988.27 509.34 1466.1
992.59 509.60 1466.9
989.34 506.00 1456.5
997.43 508.19 1462.8
1001.19 508.18 1462.8
984.80 497.98 1433.4
953.57 480.37 1382.7
935.84 469.67 1351.9
933.90 466.95 1344.1
946.78 471.63 1357.6
960.26 476.58 1371.8
962.73 476.04 1370.3
941.36 463.76 1334.9
925.41 454.23 1307.5
970.65 474.70 1366.4
1014.43 494.30 1422.8
1022.56 496.46 1429.0
1045.87 505.95 1456.3
1074.60 683.83 1983.2
1042.05 659.97 1914.0
1055.62 665.39 1929.7
1071.08 671.95 1948.7
1052.84 657.41 1906.6
1024.67 636.83 1846.9
991.59 613.40 1778.9
972.74 598.95 1737.0
989.40 606.41 1758.6
1028.76 627.64 1820.2
1031.01 626.14 1815.9
992.89 600.25 1740.8
981.62 590.75 1713.2
986.48 591.00 1714.0
976.96 582.67 1689.8
969.74 575.78 1669.8
968.23 572.33 1659.8
980.73 577.15 1673.8
1005.92 589.37 1709.2
1013.69 591.32 1714.9
999.94 580.75 1684.2
995.89 575.89 1670.1
1007.55 580.10 1682.4
1008.87 578.36 1677.3
990.83 565.58 1640.2
980.60 557.35 1616.4
995.22 563.25 1633.5
1010.41 569.43 1651.4
999.55 560.93 1626.8
996.15 556.67 1614.4
1014.94 564.80 1638.0
1015.56 562.79 1632.2
1008.53 556.57 1614.1
996.83 547.84 1588.8
977.36 534.93 1551.4
983.40 536.03 1554.6
978.64 531.26 1540.7
961.44 519.80 1507.5
971.55 523.14 1517.2
1001.43 537.06 1557.5
991.35 529.52 1535.7
945.66 503.09 1459.0
934.26 495.04 1435.7
940.63 496.44 1439.7
948.07 498.39 1445.4
958.17 501.72 1455.0
952.41 496.75 1440.6
963.06 500.34 1451.0
1000.40 517.72 1501.4
1007.99 519.62 1507.0
983.98 505.29 1465.4
983.46 503.08 1459.0
986.68 502.79 1458.2
967.21 490.99 1423.9
960.61 485.78 1408.8
949.06 478.12 1386.6
917.82 460.64 1335.9
919.70 459.85 1333.6
933.62 465.06 1348.7
937.17 465.09 1348.8
955.57 472.46 1370.2
958.59 472.20 1369.4
951.10 466.77 1353.7
959.63 469.23 1360.8
975.97 475.47 1378.9
983.45 477.37 1384.4
987.60 477.64 1385.2
1013.04 488.17 1415.7
1055.99 507.03 1470.4
1073.47 681.24 1990.6
1062.50 671.05 1960.9
1048.66 659.16 1926.1
1042.95 652.46 1906.5
1040.85 648.07 1893.7
1042.85 646.27 1888.5
1032.28 636.74 1860.6
988.94 607.17 1774.2
959.77 586.52 1713.9
971.22 590.79 1726.3
1003.94 607.89 1776.3
1025.02 617.82 1805.3
1005.38 603.23 1762.7
981.75 586.38 1713.5
974.17 579.24 1692.6
968.44 573.24 1675.1
965.03 568.68 1661.7
969.30 568.66 1661.7
987.14 576.56 1684.8
996.32 579.36 1692.9
987.95 571.97 1671.3
988.80 569.96 1665.5
1000.43 574.16 1677.7
999.78 571.30 1669.4
989.69 563.10 1645.4
986.46 558.85 1633.0
990.14 558.54 1632.1
997.32 560.19 1636.9
1005.51 562.40 1643.4
1008.19 561.52 1640.8
1019.43 565.40 1652.1
1018.07 562.28 1643.0
996.88 548.29 1602.1
986.22 540.17 1578.4
969.85 529.01 1545.8
967.18 525.38 1535.2
987.06 533.98 1560.3
987.46 532.02 1554.6
974.40 522.85 1527.8
972.11 519.51 1518.1
986.42 525.03 1534.2
1000.27 530.26 1549.5
978.62 516.71 1509.9
967.83 508.98 1487.3
975.35 510.90 1492.9
953.36 497.41 1453.5
934.40 485.59 1418.9
941.29 487.25 1423.8
962.55 496.31 1450.3
984.97 505.90 1478.3
979.15 500.96 1463.9
956.12 487.29 1423.9
957.13 485.93 1419.9
958.67 484.84 1416.7
939.64 473.41 1383.3
942.17 472.88 1381.8
941.44 470.72 1375.5
946.67 471.55 1377.9
983.06 487.83 1425.5
986.74 487.83 1425.5
979.99 482.68 1410.4
988.59 485.11 1417.5
980.66 479.43 1400.9
976.53 475.66 1389.9
989.57 480.23 1403.3
992.64 479.96 1402.5
986.23 475.12 1388.3
974.72 467.87 1367.1
982.76 470.01 1373.4
1040.83 495.99 1449.3
1065.05 670.77 1975.0
1041.26 652.65 1921.7
1029.62 642.28 1891.1
1026.12 637.07 1875.8
1030.41 636.72 1874.7
1037.48 638.07 1878.7
1025.02 627.46 1847.5
980.69 597.54 1759.4
956.61 580.17 1708.2
971.35 586.39 1726.6
987.57 593.45 1747.3
992.50 593.69 1748.1
984.61 586.29 1726.3
971.38 575.79 1695.4
969.98 572.38 1685.3
971.43 570.66 1680.2
978.15 572.04 1684.3
991.65 577.36 1700.0
989.68 573.67 1689.1
979.40 565.20 1664.2
989.03 568.26 1673.2
1009.48 577.48 1700.3
997.09 567.91 1672.1
972.75 551.65 1624.3
974.94 550.51 1620.9
984.07 553.28 1629.1
980.27 548.79 1615.8
979.92 546.25 1608.4
988.56 548.73 1615.7
994.20 549.54 1618.1
996.83 548.67 1615.5
987.29 541.15 1593.4
970.06 529.49 1559.0
963.38 523.66 1541.9
976.04 528.35 1555.7
1001.56 539.93 1589.8
1011.27 542.94 1598.6
999.37 534.36 1573.4
984.79 524.42 1544.1
979.42 519.45 1529.5
976.07 515.59 1518.1
969.03 509.81 1501.1
966.63 506.51 1491.4
975.20 508.97 1498.6
986.96 513.06 1510.6
969.74 502.12 1478.4
938.11 483.83 1424.6
931.74 478.66 1409.4
946.60 484.39 1426.2
963.12 490.93 1445.5
955.63 485.22 1428.7
933.05 471.93 1389.5
920.55 463.81 1365.6
909.03 456.26 1343.4
924.48 462.24 1361.0
961.14 478.74 1409.6
967.53 480.10 1413.6
979.37 484.14 1425.5
999.46 492.22 1449.3
985.64 483.59 1423.9
981.08 479.56 1412.0
991.89 483.04 1422.3
983.41 477.13 1404.9
977.07 472.31 1390.7
982.90 473.38 1393.8
977.60 469.10 1381.2
992.34 474.44 1396.9
1003.23 477.90 1407.1
1028.17 488.01 1436.9
1105.50 522.82 1539.4
1050.70 656.68 1948.4
1046.02 650.63 1930.4
1052.72 651.69 1933.6
1032.28 636.00 1887.0
1021.35 626.30 1858.3
1024.21 625.10 1854.7
1006.57 611.47 1814.2
969.62 586.28 1739.5
951.11 572.42 1698.4
962.53 576.63 1710.9
974.95 581.39 1725.0
990.27 587.83 1744.1
991.87 586.10 1739.0
980.08 576.52 1710.6
979.67 573.68 1702.1
976.82 569.45 1689.6
979.22 568.30 1686.2
999.50 577.49 1713.4
1004.84 578.01 1715.0
981.45 562.06 1667.7
980.34 558.97 1658.5
1006.16 571.18 1694.7
999.66 565.02 1676.4
967.90 544.71 1616.2
963.14 539.69 1601.3
979.69 546.61 1621.8
983.84 546.58 1621.7
981.50 542.96 1611.0
988.14 544.31 1615.0
998.31 547.60 1624.7
1008.01 550.60 1633.6
999.01 543.40 1612.3
983.32 532.63 1580.3
974.13 525.46 1559.1
983.76 528.47 1568.0
990.86 530.09 1572.8
982.04 523.22 1552.4
984.99 522.65 1550.7
986.39 521.26 1546.6
998.14 525.34 1558.7
1010.97 529.95 1572.4
986.81 515.20 1528.6
966.13 502.39 1490.6
973.13 504.01 1495.4
983.31 507.26 1505.1
979.79 503.45 1493.7
961.40 492.06 1459.9
958.28 488.54 1449.5
975.35 495.30 1469.6
983.41 497.45 1475.9
966.34 486.91 1444.7
970.08 486.91 1444.7
985.66 492.83 1462.2
945.70 471.04 1397.6
930.41 461.65 1369.7
964.93 476.96 1415.2
971.33 478.30 1419.1
975.00 478.30 1419.1
986.34 482.04 1430.2
964.25 469.48 1393.0
952.47 462.02 1370.8
967.07 467.36 1386.7
961.28 462.84 1373.3
949.89 455.67 1352.0
948.99 453.56 1345.7
958.08 456.23 1353.6
988.42 468.96 1391.4
1040.72 491.98 1459.7
1057.04 649.33 1941.5
1008.51 616.58 1843.6
994.25 604.99 1808.9
993.29 601.57 1798.7
993.22 598.72 1790.2
971.14 582.69 1742.3
954.50 570.05 1704.5
967.83 575.34 1720.3
968.46 573.08 1713.5
971.90 572.49 1711.8
969.63 568.56 1700.0
953.94 556.82 1664.9
972.12 564.88 1689.0
987.02 570.97 1707.2
974.50 561.21 1678.0
980.25 562.01 1680.4
986.99 563.37 1684.5
967.41 549.76 1643.8
957.94 541.99 1620.6
977.81 550.82 1647.0
983.51 551.62 1649.4
963.54 538.08 1608.9
946.87 526.49 1574.2
952.43 527.31 1576.7
972.95 536.37 1603.8
987.58 542.12 1620.9
986.71 539.34 1612.7
988.82 538.22 1609.3
1003.55 543.94 1626.4
1000.61 540.08 1614.8
995.58 535.13 1600.0
997.12 533.73 1595.9
992.51 529.07 1581.9
985.79 523.32 1564.7
972.83 514.32 1537.8
971.11 511.32 1528.9
971.43 509.41 1523.1
981.58 512.65 1532.8
1000.10 520.21 1555.5
981.62 508.55 1520.6
971.92 501.51 1499.5
991.02 509.33 1522.9
992.82 508.23 1519.6
979.81 499.59 1493.8
963.00 489.08 1462.4
961.48 486.39 1454.3
967.37 487.47 1457.5
963.67 483.71 1446.3
979.73 489.87 1464.7
1017.35 506.71 1515.1
1014.22 503.21 1504.6
956.49 472.75 1413.5
916.30 451.16 1349.0
924.20 453.31 1355.4
956.62 467.44 1397.7
988.64 481.26 1439.0
991.80 480.99 1438.2
961.48 464.54 1389.0
954.64 459.51 1373.9
975.32 467.72 1398.5
961.80 459.53 1374.0
942.09 448.45 1340.9
974.51 462.18 1381.9
1019.34 481.67 1440.2
1029.18 484.54 1448.8
1057.52 496.07 1483.3
1096.09 512.30 1531.8
1108.38 516.18 1543.4
1166.41 541.25 1618.3
1060.20 652.43 1966.0
1065.14 652.34 1965.7
1034.28 630.42 1899.7
981.94 595.68 1795.0
962.02 580.84 1750.3
968.36 581.93 1753.6
974.72 583.01 1756.8
983.42 585.48 1764.3
996.38 590.45 1779.2
990.55 584.29 1760.7
972.83 571.20 1721.3
970.12 567.01 1708.6
962.60 560.06 1687.7
942.57 545.92 1645.1
955.44 550.88 1660.0
976.55 560.53 1689.1
969.29 553.88 1669.1
964.85 548.89 1654.0
961.81 544.74 1641.5
955.79 538.95 1624.1
960.95 539.48 1625.7
981.34 548.52 1652.9
986.06 548.77 1653.6
968.55 536.69 1617.2
954.86 526.82 1587.5
958.45 526.53 1586.7
978.01 534.98 1612.1
980.14 533.87 1608.7
965.69 523.76 1578.3
957.16 516.95 1557.8
960.67 516.66 1556.9
977.36 523.44 1577.3
992.60 529.39 1595.2
993.11 527.46 1589.4
986.43 521.75 1572.2
987.90 520.37 1568.1
983.16 515.76 1554.2
964.44 503.87 1518.4
946.09 492.27 1483.4
956.69 495.77 1494.0
976.18 503.84 1518.3
978.00 502.75 1515.0
989.76 506.76 1527.1
1007.86 513.97 1548.8
1009.19 512.60 1544.7
985.65 498.67 1502.7
956.12 481.82 1451.9
944.47 474.09 1428.6
939.66 469.83 1415.8
934.27 465.32 1402.2
948.12 470.38 1417.5
972.23 480.48 1447.9
955.49 470.40 1417.5
935.40 458.74 1382.4
933.06 455.85 1373.6
939.92 457.45 1378.5
969.67 470.14 1416.7
979.35 473.04 1425.5
959.48 461.71 1391.3
958.71 459.61 1385.0
980.48 468.29 1411.1
986.34 469.34 1414.3
959.56 454.90 1370.8
938.72 443.38 1336.1
966.14 454.65 1370.0
1019.89 478.19 1441.0
1037.55 484.70 1460.6
1062.01 494.32 1489.6
1096.68 508.60 1532.6
1102.77 509.58 1535.6
1047.26 642.52 1951.4
1021.18 623.51 1893.7
1024.15 622.33 1890.1
1038.13 627.82 1906.8
1024.04 616.36 1872.0
994.53 595.78 1809.5
990.78 590.75 1794.2
982.77 583.23 1771.3
977.94 577.66 1754.4
998.39 587.02 1782.8
999.63 585.04 1776.8
967.73 563.77 1712.2
951.24 551.63 1675.4
952.69 549.96 1670.3
941.22 540.88 1642.7
950.73 543.89 1651.9
967.50 551.00 1673.5
969.86 549.88 1670.0
974.63 550.13 1670.8
974.54 547.64 1663.2
971.48 543.52 1650.7
969.84 540.22 1640.7
981.42 544.28 1653.0
998.96 551.60 1675.3
994.33 546.67 1660.3
974.76 533.60 1620.6
972.95 530.32 1610.6
992.06 538.43 1635.3
995.74 538.12 1634.3
986.85 531.06 1612.9
983.42 526.98 1600.5
982.46 524.25 1592.2
993.14 527.73 1602.8
997.74 527.97 1603.5
987.55 520.41 1580.6
972.66 510.45 1550.3
966.89 505.33 1534.7
986.30 513.36 1559.1
993.91 515.21 1564.8
980.30 506.09 1537.1
995.68 511.95 1554.9
993.93 508.99 1545.9
972.80 496.17 1506.9
977.73 496.69 1508.5
989.50 500.66 1520.6
979.69 493.73 1499.5
943.89 473.81 1439.0
940.21 470.11 1427.8
954.04 475.15 1443.1
946.05 469.33 1425.4
936.39 462.73 1405.4
934.70 460.10 1397.4
942.11 461.96 1403.0
952.24 465.13 1412.7
959.70 466.98 1418.3
956.88 463.83 1408.7
963.80 465.41 1413.5
986.55 474.59 1441.4
990.81 474.84 1442.1
978.08 466.98 1418.3
982.85 467.50 1419.8
976.60 462.79 1405.6
953.73 450.28 1367.5
970.04 456.28 1385.8
991.95 464.86 1411.8
986.13 460.44 1398.4
1000.90 465.62 1414.2
1044.26 484.02 1470.0
1097.34 506.77 1539.1
1154.63 529.38 1607.8
1175.55 537.03 1631.0
1036.99 631.21 1932.3
1013.59 614.00 1879.6
1000.50 603.18 1846.5
999.69 599.81 1836.2
1024.20 611.61 1872.3
1028.47 611.26 1871.2
1007.18 595.80 1823.9
981.96 578.16 1769.9
969.16 567.97 1738.7
982.07 572.87 1753.7
987.97 573.66 1756.1
960.26 555.02 1699.0
945.63 544.06 1665.5
948.97 543.50 1663.8
941.30 536.67 1642.9
953.69 541.29 1657.0
964.22 544.81 1667.8
960.77 540.43 1654.4
974.24 545.57 1670.1
982.89 547.99 1677.5
990.60 549.85 1683.2
998.82 551.98 1689.7
980.52 539.50 1651.5
967.49 530.02 1622.5
978.09 533.50 1633.2
972.84 528.35 1617.4
962.06 520.25 1592.6
971.65 523.20 1601.6
991.80 531.77 1627.9
1000.99 534.43 1636.0
995.58 529.30 1620.3
991.12 524.71 1606.3
995.23 524.68 1606.2
993.22 521.44 1596.2
980.96 512.87 1570.0
965.02 502.45 1538.1
973.09 504.56 1544.6
1009.01 521.05 1595.0
1011.01 519.95 1591.7
992.26 508.23 1555.8
996.24 508.20 1555.7
980.41 498.11 1524.8
977.53 494.65 1514.2
1002.40 505.21 1546.6
991.10 497.53 1523.0
956.50 478.25 1464.0
948.12 472.19 1445.5
973.10 482.72 1477.7
983.83 486.13 1488.1
973.25 479.02 1466.4
980.78 480.85 1472.0
997.45 487.13 1491.2
989.44 481.35 1473.5
983.51 476.63 1459.1
982.95 474.53 1452.6
972.59 467.73 1431.8
946.92 453.66 1388.7
936.36 446.90 1368.1
951.43 452.38 1384.8
952.29 451.09 1380.9
974.58 459.92 1407.9
987.05 464.06 1420.6
975.79 457.06 1399.2
1002.13 467.66 1431.6
1026.91 477.46 1461.6
1027.86 476.14 1457.6
1036.04 478.17 1463.8
1071.67 492.81 1508.6
1117.55 512.04 1567.5
1151.82 525.83 1609.7
1169.33 531.90 1628.3
1027.16 620.27 1914.0
1007.82 605.66 1868.9
998.36 597.10 1842.5
977.29 581.72 1795.0
983.73 582.78 1798.3
994.34 586.29 1809.1
978.48 574.23 1771.9
973.21 568.46 1754.1
978.17 568.70 1754.9
981.71 568.12 1753.1
979.11 564.01 1740.4
971.72 557.18 1719.3
975.65 556.88 1718.4
981.00 557.39 1719.9
974.87 551.40 1701.5
969.14 545.69 1683.8
962.38 539.45 1664.6
953.11 531.87 1641.2
962.67 534.82 1650.3
990.28 547.72 1690.1
1017.56 560.33 1729.0
1019.00 558.66 1723.9
994.36 542.78 1674.8
972.98 528.79 1631.7
975.19 527.70 1628.3
979.86 527.94 1629.1
977.55 524.44 1618.3
970.71 518.54 1600.1
972.81 517.45 1596.7
986.97 522.76 1613.1
986.05 520.07 1604.8
987.63 518.71 1600.6
997.31 521.61 1609.5
996.84 519.19 1602.1
986.63 511.74 1579.1
967.61 499.80 1542.2
972.09 500.05 1543.0
991.53 507.96 1567.4
975.89 497.90 1536.4
962.73 489.19 1509.5
971.82 491.81 1517.6
970.51 489.17 1509.4
982.78 493.36 1522.4
1008.73 504.37 1556.3
1000.07 498.04 1536.8
998.20 495.14 1527.9
1023.28 505.57 1560.1
1008.14 496.13 1530.9
979.57 480.18 1481.7
984.99 480.95 1484.1
1008.08 490.31 1513.0
1012.49 490.55 1513.7
991.59 478.57 1476.7
970.55 466.61 1439.8
956.41 458.05 1413.4
982.88 468.93 1447.0
992.60 471.77 1455.7
961.42 455.22 1404.7
954.12 450.06 1388.8
951.16 446.97 1379.2
969.60 453.93 1400.7
988.67 461.13 1422.9
984.60 457.53 1411.8
996.01 461.11 1422.9
1005.78 463.92 1431.5
1026.17 471.59 1455.2
1057.81 484.35 1494.6
1079.51 492.48 1519.6
1109.15 504.16 1555.7
1150.17 520.91 1607.4
1041.10 629.74 1958.9
1021.57 614.93 1912.8
1015.50 608.32 1892.2
1018.01 606.89 1887.8
1017.75 603.83 1878.3
1006.41 594.26 1848.5
985.24 579.00 1801.0
969.90 567.30 1764.6
960.92 559.41 1740.1
961.18 556.94 1732.4
964.68 556.38 1730.7
966.30 554.73 1725.5
960.81 549.03 1707.8
950.03 540.38 1680.9
974.32 551.67 1716.0
997.80 562.40 1749.4
980.23 549.99 1710.8
962.98 537.88 1673.1
961.01 534.37 1662.2
957.05 529.80 1648.0
954.01 525.76 1635.4
969.91 532.16 1655.3
991.75 541.75 1685.2
989.68 538.24 1674.3
991.49 536.88 1670.0
995.75 536.84 1669.9
979.21 525.64 1635.0
964.52 515.52 1603.6
973.13 517.89 1610.9
977.26 517.86 1610.9
978.38 516.25 1605.9
991.05 520.72 1619.8
983.08 514.35 1599.9
976.54 508.78 1582.6
993.81 515.62 1603.9
1000.97 517.17 1608.7
1004.05 516.61 1607.0
998.92 511.84 1592.1
975.72 497.90 1548.8
966.29 491.06 1527.5
966.09 488.96 1521.0
965.85 486.85 1514.4
976.53 490.24 1524.9
976.79 488.40 1519.2
973.89 484.99 1508.6
985.13 488.62 1519.9
996.41 492.25 1531.2
1017.23 500.54 1557.0
1018.54 499.21 1552.8
978.41 477.65 1485.8
981.17 477.12 1484.1
1016.51 492.37 1531.6
1011.30 487.94 1517.8
987.25 474.49 1476.0
982.43 470.35 1463.1
979.17 466.99 1452.6
949.34 451.03 1403.0
957.34 453.09 1409.4
981.69 462.85 1439.7
965.75 453.61 1411.0
969.41 453.61 1411.0
977.46 455.66 1417.4
979.47 454.88 1415.0
981.47 454.11 1412.6
992.86 457.68 1423.6
1018.71 467.85 1455.3
1012.98 463.50 1441.8
1016.12 463.23 1440.9
1052.77 478.18 1487.4
1080.07 488.79 1520.4
1096.81 494.56 1538.4
1123.75 504.87 1570.5
1056.65 630.91 1978.5
1045.24 621.08 1947.7
1030.96 609.65 1911.8
1017.44 598.78 1877.7
999.64 585.50 1836.1
972.42 566.86 1777.6
955.62 554.44 1738.7
944.72 545.54 1710.8
953.80 548.21 1719.1
965.72 552.48 1732.5
953.21 542.80 1702.2
933.97 529.39 1660.1
933.99 526.97 1652.5
969.18 544.33 1707.0
993.61 555.52 1742.0
976.01 543.21 1703.4
962.58 533.32 1672.4
964.46 531.97 1668.2
968.74 531.94 1668.1
973.50 532.18 1668.9
964.13 524.73 1645.5
961.02 520.73 1632.9
974.54 525.74 1648.7
992.06 532.85 1671.0
981.50 524.89 1646.0
950.03 505.86 1586.3
942.19 499.52 1566.5
957.22 505.31 1584.6
979.31 514.77 1614.3
999.01 522.89 1639.7
1002.69 522.59 1638.8
983.63 510.49 1600.8
965.43 498.94 1564.6
969.45 498.92 1564.6
984.19 504.40 1581.7
995.40 508.03 1593.1
1008.71 512.69 1607.7
1005.60 509.01 1596.2
982.82 495.44 1553.6
968.17 486.06 1524.2
962.75 481.38 1509.5
966.65 481.37 1509.5
980.46 486.28 1524.9
991.71 489.88 1536.2
998.28 491.15 1540.2
1005.91 492.93 1545.8
990.83 483.62 1516.6
953.38 463.50 1453.5
949.18 459.64 1441.4
987.56 476.35 1493.8
1030.95 495.34 1553.3
1034.89 495.30 1553.2
995.84 474.76 1488.8
976.48 463.74 1454.2
980.78 463.98 1455.0
959.06 451.97 1417.3
949.70 445.85 1398.1
954.97 446.62 1400.6
948.24 441.79 1385.4
960.06 445.61 1397.4
971.38 449.17 1408.6
977.78 450.44 1412.5
995.23 456.77 1432.4
1021.61 467.13 1464.9
1027.57 468.11 1468.0
1002.38 454.96 1426.7
1024.45 463.26 1452.7
1080.71 486.92 1526.9
1104.17 495.67 1554.4
1047.23 617.21 1951.4
1030.20 604.25 1910.4
1012.99 591.32 1869.5
991.93 576.27 1821.9
978.08 565.52 1788.0
972.90 559.87 1770.1
947.14 542.49 1715.1
942.20 537.14 1698.2
954.55 541.65 1712.5
942.94 532.58 1683.8
942.07 529.65 1674.5
959.20 536.80 1697.1
965.93 538.10 1701.3
963.13 534.10 1688.6
969.38 535.13 1691.9
980.45 538.81 1703.5
965.01 527.94 1669.1
951.85 518.42 1639.0
971.14 526.57 1664.8
977.85 527.86 1668.9
965.97 519.16 1641.4
971.16 519.66 1642.9
994.59 529.87 1675.2
989.47 524.85 1659.4
962.47 508.32 1607.1
959.64 504.64 1595.5
959.75 502.53 1588.8
968.35 504.86 1596.2
995.05 516.58 1633.2
1005.27 519.67 1643.0
996.31 512.87 1621.5
988.78 506.85 1602.5
970.50 495.40 1566.3
960.75 488.38 1544.1
988.27 500.29 1581.7
1020.56 514.50 1626.6
1008.72 506.44 1601.1
977.17 488.58 1544.7
963.00 479.54 1516.1
957.04 474.63 1500.6
972.38 480.29 1518.5
997.72 490.81 1551.8
995.40 487.70 1541.9
988.83 482.55 1525.6
992.74 482.53 1525.6
973.39 471.24 1489.9
952.30 459.21 1451.8
964.04 463.04 1464.0
982.76 470.18 1486.5
1006.90 479.85 1517.1
1006.49 477.79 1510.6
966.26 456.91 1444.6
961.91 453.10 1432.5
979.13 459.44 1452.6
959.57 448.53 1418.1
952.37 443.47 1402.1
978.37 453.84 1434.9
991.36 458.13 1448.4
997.83 459.38 1452.4
1002.65 459.86 1453.9
990.41 452.55 1430.8
989.12 450.27 1423.6
988.91 448.50 1418.0
967.59 437.21 1382.3
981.75 441.97 1397.3
1045.07 468.74 1482.0
1090.22 487.20 1540.3
1103.05 491.14 1552.8
1167.73 516.17 1631.9
1035.27 611.06 1947.9
1023.85 601.39 1917.1
1023.69 598.39 1907.5
1005.18 584.74 1864.0
988.33 572.19 1824.0
980.07 564.71 1800.1
978.19 560.95 1788.2
974.86 556.40 1773.7
951.42 540.48 1722.9
955.85 540.46 1722.8
976.23 549.42 1751.4
959.50 537.50 1713.4
952.55 531.15 1693.1
955.00 530.07 1689.7
947.91 523.73 1669.5
958.42 527.13 1680.4
978.57 535.78 1707.9
974.27 531.02 1692.7
943.82 512.12 1632.5
925.25 499.80 1593.2
940.08 505.55 1611.6
956.44 512.08 1632.4
955.25 509.19 1623.2
963.85 511.52 1630.6
990.22 523.22 1667.9
1005.85 529.17 1686.8
999.23 523.40 1668.5
971.12 506.49 1614.6
946.30 491.43 1566.5
948.85 490.64 1564.0
970.98 499.95 1593.7
988.18 506.65 1615.1
986.74 503.78 1605.9
979.18 497.82 1586.9
960.86 486.46 1550.7
953.11 480.53 1531.8
984.21 494.14 1575.2
1008.27 504.14 1607.0
988.15 492.04 1568.5
978.21 485.10 1546.4
985.81 486.87 1552.0
975.24 479.69 1529.1
984.38 482.23 1537.2
1018.13 496.75 1583.5
1024.78 497.98 1587.4
996.72 482.41 1537.8
980.09 472.47 1506.1
997.18 478.81 1526.3
1014.35 485.13 1546.4
997.54 475.21 1514.8
987.02 468.35 1493.0
979.08 462.77 1475.2
947.47 446.08 1422.0
952.78 446.85 1424.4
989.93 462.48 1474.2
993.71 462.46 1474.2
962.24 446.10 1422.0
950.15 438.81 1398.8
971.24 446.85 1424.4
974.93 446.84 1424.4
970.93 443.33 1413.2
985.58 448.33 1429.2
984.86 446.32 1422.8
986.32 445.32 1419.5
988.32 444.56 1417.1
984.75 441.31 1406.8
1017.34 454.23 1448.0
1054.53 469.11 1495.4
1071.75 475.02 1514.2
1097.44 484.64 1544.9
1160.43 508.74 1621.7
1177.99 514.57 1640.3
1034.52 605.58 1946.5
1037.17 604.18 1942.0
1035.69 600.40 1929.8
1016.30 586.32 1884.6
993.04 570.17 1832.7
980.64 560.36 1801.2
971.34 552.42 1775.6
962.87 545.02 1751.9
960.37 541.05 1739.1
984.02 551.79 1773.6
990.89 553.06 1777.7
958.64 532.58 1711.9
952.15 526.53 1692.4
955.07 525.73 1689.8
936.54 513.17 1649.5
937.92 511.59 1644.4
947.93 514.71 1654.4
934.37 505.06 1623.4
928.41 499.59 1605.8
933.54 500.11 1607.5
948.40 505.81 1625.8
966.26 513.06 1649.1
971.47 513.55 1650.7
985.53 518.70 1667.2
999.16 523.58 1682.9
1001.46 522.50 1679.5
997.30 518.08 1665.3
973.16 503.36 1617.9
943.83 486.09 1562.4
942.35 483.26 1553.3
952.40 486.33 1563.2
955.93 486.07 1562.4
967.04 489.64 1573.8
972.10 490.14 1575.4
969.53 486.79 1564.7
978.15 489.07 1572.0
984.74 490.33 1576.1
983.64 487.75 1567.8
981.47 484.68 1557.9
990.12 486.94 1565.2
998.79 489.20 1572.4
990.32 483.08 1552.8
986.47 479.26 1540.5
1006.12 486.83 1564.8
1020.08 491.60 1580.2
1000.94 480.45 1544.3
970.05 463.77 1490.7
971.78 462.75 1487.4
994.19 471.55 1515.7
984.76 465.24 1495.4
992.34 466.98 1501.0
1002.08 469.72 1509.8
965.14 450.65 1448.5
962.43 447.64 1438.8
987.21 457.39 1470.2
979.62 452.13 1453.3
966.54 444.39 1428.4
973.50 445.88 1433.2
973.93 444.38 1428.4
957.38 435.17 1398.8
953.33 431.70 1387.6
969.04 437.16 1405.2
983.16 441.87 1420.3
1000.64 448.05 1440.2
1012.10 451.49 1451.2
1019.15 452.96 1455.9
1030.67 456.38 1466.9
1045.57 461.28 1482.7
1068.93 469.86 1510.3
1099.12 481.37 1547.3
1127.75 492.11 1581.8
1048.95 600.12 1945.2
1019.36 580.40 1881.3
1006.13 570.14 1848.0
995.53 561.46 1819.9
992.26 556.97 1805.3
994.98 555.88 1801.8
986.92 548.80 1778.8
961.84 532.37 1725.6
937.48 516.48 1674.1
938.96 514.91 1669.0
955.14 521.38 1690.0
948.99 515.66 1671.4
950.90 514.35 1667.2
962.39 518.21 1679.7
946.94 507.59 1645.3
940.05 501.64 1626.0
948.13 503.69 1632.6
965.48 510.63 1655.1
976.08 513.95 1665.9
972.99 510.07 1653.3
982.14 512.61 1661.5
990.34 514.63 1668.1
999.54 517.16 1676.3
1003.32 516.86 1675.3
984.66 505.06 1637.1
961.85 491.24 1592.3
942.87 479.49 1554.2
934.31 473.12 1533.5
955.95 482.02 1562.4
985.80 494.98 1604.4
990.92 495.46 1605.9
987.89 491.88 1594.3
991.45 491.60 1593.4
991.94 489.80 1587.6
992.91 488.25 1582.6
993.35 486.45 1576.7
993.75 484.66 1570.9
994.66 483.12 1565.9
978.88 473.53 1534.8
968.21 466.47 1512.0
968.96 464.95 1507.0
964.45 460.92 1494.0
978.83 465.92 1510.2
982.71 465.91 1510.1
968.05 457.14 1481.7
972.94 457.63 1483.3
977.82 458.11 1484.9
998.20 465.83 1509.9
1015.46 472.03 1530.0
988.20 457.57 1483.1
987.17 455.32 1475.8
1012.56 465.23 1507.9
996.37 456.03 1478.1
974.64 444.38 1440.4
973.46 442.14 1433.1
965.15 436.70 1415.5
969.91 437.20 1417.1
987.85 443.60 1437.8
978.34 437.68 1418.6
968.77 431.77 1399.5
994.52 441.59 1431.3
1013.72 448.45 1453.6
1017.44 448.43 1453.5
1025.61 450.36 1459.8
1039.95 454.98 1474.7
1062.19 463.00 1500.7
1069.91 464.67 1506.1
1073.70 464.62 1506.0
1109.10 478.20 1550.0
1168.41 501.95 1627.0
1092.36 628.77 2055.3
1025.72 581.90 1902.1
1007.07 568.58 1858.6
1004.86 564.63 1845.7
1000.73 559.65 1829.4
1002.13 557.79 1823.3
988.08 547.39 1789.3
963.11 531.06 1735.9
962.86 528.45 1727.4
963.51 526.36 1720.5
957.97 520.92 1702.8
967.57 523.73 1711.9
951.43 512.64 1675.7
943.29 505.95 1653.8
966.77 516.19 1687.3
963.38 512.07 1673.8
952.67 504.11 1647.8
957.40 504.34 1648.6
960.17 503.56 1646.0
955.11 498.69 1630.1
959.79 498.92 1630.9
976.78 505.53 1652.4
975.08 502.44 1642.4
975.33 500.38 1635.6
987.47 504.42 1648.8
977.72 497.29 1625.5
970.87 491.69 1607.2
966.97 487.62 1593.9
948.91 476.48 1557.5
960.51 480.25 1569.8
977.72 486.80 1591.2
968.58 480.22 1569.7
975.17 481.46 1573.8
988.92 486.22 1589.3
992.98 486.19 1589.2
997.56 486.41 1590.0
989.75 480.62 1571.0
981.86 474.83 1552.1
1006.09 484.56 1583.9
1014.81 486.78 1591.2
994.83 475.26 1553.5
986.24 469.26 1533.9
987.54 467.99 1529.8
1007.79 475.68 1554.9
1007.00 473.41 1547.5
988.17 462.71 1512.5
991.51 462.44 1511.6
993.79 461.68 1509.1
992.84 459.43 1501.8
989.19 455.96 1490.4
987.10 453.22 1481.5
1008.69 461.34 1508.0
1021.19 465.25 1520.8
994.72 451.45 1475.7
974.60 440.62 1440.3
973.96 438.65 1433.9
969.47 434.97 1421.8
978.62 437.41 1429.8
992.19 441.81 1444.2
980.49 434.95 1421.8
958.77 423.73 1385.1
970.67 427.38 1397.0
999.25 438.33 1432.8
1014.06 443.18 1448.7
1026.13 446.80 1460.5
1044.95 453.32 1481.8
1058.23 457.40 1495.1
1056.39 454.94 1487.1
1053.96 452.24 1478.3
1079.72 461.62 1508.9
1129.93 481.34 1573.4
1044.88 593.45 1956.4
1022.86 578.14 1905.9
1003.83 564.66 1861.5
999.35 559.45 1844.3
1008.20 561.71 1851.8
1014.75 562.68 1855.0
1024.57 565.45 1864.1
1018.54 559.48 1844.4
987.57 539.93 1780.0
981.28 534.00 1760.4
992.39 537.54 1772.1
997.37 537.75 1772.8
988.09 530.30 1748.3
953.40 509.35 1679.2
926.57 492.77 1624.5
932.21 493.52 1627.0
956.68 504.19 1662.2
974.02 511.03 1684.7
970.56 506.94 1671.2
965.57 502.10 1655.3
971.78 503.09 1658.5
987.31 508.88 1677.6
988.15 507.07 1671.7
972.16 496.69 1637.4
967.93 492.38 1623.2
976.07 494.37 1629.8
975.25 491.83 1621.4
977.41 490.80 1618.0
993.10 496.55 1637.0
993.24 494.51 1630.2
969.11 480.45 1583.9
949.35 468.67 1545.1
952.32 468.16 1543.4
972.63 476.14 1569.7
985.35 480.36 1583.6
989.41 480.33 1583.5
994.49 480.80 1585.1
986.14 474.81 1565.3
979.27 469.57 1548.0
1005.06 479.97 1582.3
1014.82 482.66 1591.2
995.88 471.73 1555.2
1013.48 478.13 1576.3
1040.61 488.96 1612.0
1032.57 483.24 1593.1
1003.30 467.67 1541.8
977.55 453.86 1496.2
973.42 450.16 1484.0
994.30 458.01 1509.9
1011.53 464.12 1530.1
1005.25 459.43 1514.6
1001.59 455.98 1503.2
998.97 453.02 1493.5
988.19 446.40 1471.7
1000.65 450.29 1484.5
1019.66 457.09 1506.9
1008.24 450.25 1484.3
995.10 442.69 1459.4
971.99 430.77 1420.1
954.24 421.31 1388.9
997.51 438.75 1446.4
1029.39 451.08 1487.1
993.86 433.89 1430.4
974.22 423.73 1396.9
1000.65 433.62 1429.5
1025.52 442.75 1459.6
1046.03 449.94 1483.3
1061.00 454.71 1499.1
1068.16 456.11 1503.7
1074.20 457.02 1506.7
1076.30 456.26 1504.1
1097.64 463.62 1528.4
1161.07 488.65 1610.9
1034.09 582.31 1936.2
1018.41 570.70 1897.7
1005.78 560.92 1865.1
994.39 551.91 1835.2
995.82 550.07 1829.1
993.98 546.45 1817.0
996.27 545.13 1812.6
1016.77 553.74 1841.2
1011.12 548.08 1822.4
989.37 533.80 1774.9
985.38 529.19 1759.6
985.12 526.61 1751.0
970.07 516.19 1716.4
960.13 508.56 1691.0
958.72 505.51 1680.9
952.45 499.93 1662.3
965.41 504.45 1677.4
980.85 510.22 1696.5
975.46 505.15 1679.7
975.37 502.86 1672.1
986.50 506.34 1683.7
983.43 502.55 1671.0
966.02 491.48 1634.2
964.28 488.46 1624.2
975.39 491.94 1635.8
982.07 493.16 1639.8
980.27 490.14 1629.8
974.43 485.12 1613.1
982.08 486.84 1618.8
992.77 490.05 1629.5
979.23 481.32 1600.4
967.61 473.60 1574.8
978.78 477.05 1586.3
984.88 478.02 1589.5
984.34 475.76 1582.0
972.99 468.33 1557.2
961.02 460.65 1531.7
976.33 466.07 1549.7
994.30 472.70 1571.8
1005.07 475.87 1582.3
999.72 471.41 1567.5
977.58 459.11 1526.6
990.94 463.50 1541.2
1017.49 474.01 1576.1
1009.37 468.35 1557.3
989.01 457.07 1519.8
972.22 447.53 1488.1
981.37 449.96 1496.2
1015.62 463.82 1542.3
1006.70 457.95 1522.7
977.33 442.85 1472.5
990.27 446.97 1486.2
1003.79 451.32 1500.7
987.07 442.09 1470.0
992.48 442.80 1472.4
1023.99 455.11 1513.3
1026.20 454.35 1510.8
1002.16 442.02 1469.8
969.19 425.86 1416.0
960.21 420.32 1397.6
1009.58 440.27 1463.9
1044.82 453.93 1509.4
1015.40 439.50 1461.4
996.36 429.66 1428.7
1021.19 438.73 1458.8
1032.73 442.05 1469.9
1039.83 443.45 1474.5
1052.55 447.24 1487.1
1057.43 447.67 1488.6
1062.89 448.34 1490.8
1064.39 447.35 1487.5
1095.91 458.94 1526.0
1036.64 584.38 1960.0
1012.54 568.01 1905.1
1038.32 579.65 1944.2
1027.46 568.07 1905.3
998.18 549.24 1842.2
991.76 543.10 1821.6
982.93 535.72 1796.8
967.47 524.81 1760.2
970.57 524.01 1757.6
991.02 532.56 1786.2
993.21 531.25 1781.8
969.85 516.35 1731.9
951.02 504.00 1690.4
960.13 506.49 1698.8
975.00 511.99 1717.2
975.07 509.70 1709.5
969.82 504.66 1692.6
973.18 504.13 1690.9
978.96 504.85 1693.3
974.05 500.07 1677.3
973.46 497.55 1668.8
975.28 496.27 1664.5
962.84 487.78 1636.0
948.80 478.56 1605.1
950.96 477.55 1601.7
970.46 485.23 1627.5
986.08 490.91 1646.5
979.80 485.68 1629.0
968.43 477.98 1603.2
976.07 479.69 1608.9
985.73 482.38 1617.9
991.38 483.09 1620.3
999.07 484.78 1626.0
999.14 482.78 1619.3
993.06 477.83 1602.7
980.25 469.70 1575.4
957.06 456.69 1531.7
967.71 459.86 1542.4
1006.30 476.23 1597.3
1010.37 476.20 1597.2
1007.15 472.74 1585.6
1010.67 472.47 1584.7
997.44 464.39 1557.6
976.24 452.69 1518.3
967.51 446.84 1498.7
971.90 447.07 1499.5
964.12 441.73 1481.6
961.57 438.81 1471.8
984.53 447.51 1501.0
998.52 452.09 1516.3
972.96 438.79 1471.7
973.00 437.09 1466.0
1013.91 453.70 1521.7
1026.96 457.75 1535.3
1009.21 448.11 1503.0
984.84 435.60 1461.0
986.42 434.63 1457.8
1010.89 443.71 1488.2
1009.77 441.53 1480.9
997.65 434.58 1457.6
1007.98 437.43 1467.1
1020.56 441.22 1479.9
1019.91 439.29 1473.4
1019.78 437.59 1467.7
1030.19 440.42 1477.2
1023.37 435.88 1462.0
1002.52 425.42 1426.9
1025.22 433.46 1453.8
1054.18 444.07 1489.4
1061.32 445.45 1494.0
1069.61 447.29 1500.2
1080.17 450.07 1509.6
1120.81 465.32 1560.7
1038.99 577.78 1954.9
1051.67 581.99 1969.1
1030.33 564.70 1910.6
998.27 544.51 1842.3
989.53 537.17 1817.5
976.50 527.59 1785.1
956.81 514.51 1740.8
954.72 510.98 1728.9
971.37 517.46 1750.8
986.22 522.92 1769.3
973.22 513.64 1737.9
953.92 501.14 1695.6
963.04 503.61 1703.9
986.53 513.54 1737.5
994.80 515.49 1744.1
976.60 503.77 1704.5
967.43 496.79 1680.9
967.85 494.78 1674.1
957.54 487.32 1648.8
954.46 483.59 1636.2
954.25 481.35 1628.6
949.59 476.89 1613.5
944.38 472.19 1597.6
946.02 470.95 1593.4
965.52 478.56 1619.2
981.13 484.19 1638.2
974.32 478.76 1619.9
967.94 473.59 1602.4
979.60 477.24 1614.7
991.30 480.88 1627.1
998.99 482.56 1632.7
1002.14 482.04 1631.0
996.61 477.37 1615.2
977.74 466.37 1577.9
952.07 452.23 1530.1
962.18 455.14 1539.9
1007.91 474.80 1606.5
1020.78 478.89 1620.3
997.40 466.00 1576.7
1002.47 466.45 1578.2
1014.84 470.29 1591.2
996.38 459.87 1555.9
969.91 445.85 1508.5
963.27 441.01 1492.2
968.17 441.49 1493.8
974.14 442.44 1497.0
987.01 446.51 1510.7
991.42 446.73 1511.5
987.81 443.35 1500.1
978.81 437.59 1480.6
994.43 442.83 1498.3
1009.57 447.83 1515.2
996.16 440.16 1489.3
1012.97 445.86 1508.6
1023.33 448.69 1518.1
1011.40 441.76 1494.7
1021.22 444.35 1503.4
1016.84 440.76 1491.3
1002.53 432.91 1464.7
1011.23 435.02 1471.9
1023.27 438.54 1483.8
1024.83 437.57 1480.5
1026.38 436.60 1477.2
1034.59 438.45 1483.5
1025.54 433.00 1465.1
1008.59 424.28 1435.5
1032.44 432.71 1464.1
1053.01 439.72 1487.8
1052.83 438.04 1482.1
1075.20 445.72 1508.1
1101.06 454.79 1538.7
1126.46 463.60 1568.6
1094.83 606.45 2070.1
1065.01 587.06 2003.9
1033.10 566.70 1934.4
1008.68 550.63 1879.5
995.51 540.83 1846.1
985.44 532.80 1818.7
979.42 527.02 1798.9
968.21 518.52 1769.9
962.00 512.77 1750.3
973.04 516.21 1762.0
961.56 507.74 1733.1
950.44 499.53 1705.1
975.17 510.16 1741.4
991.97 516.56 1763.2
977.86 506.87 1730.2
977.97 504.62 1722.5
991.49 509.27 1738.3
978.09 500.11 1707.1
965.05 491.22 1676.7
962.55 487.75 1664.9
957.57 483.06 1648.9
959.85 482.06 1645.5
964.56 482.28 1646.2
965.83 480.79 1641.1
962.64 477.10 1628.5
967.31 477.32 1629.3
967.02 475.10 1621.7
962.71 470.94 1607.5
966.84 470.92 1607.4
971.46 471.14 1608.2
977.09 471.84 1610.6
981.72 472.06 1611.3
985.84 472.03 1611.2
984.37 469.34 1602.1
981.84 466.17 1591.2
965.98 456.72 1559.0
962.30 453.08 1546.6
996.11 467.05 1594.2
1008.94 471.12 1608.1
985.61 458.33 1564.5
983.39 455.42 1554.5
1009.75 465.72 1589.7
1025.80 471.20 1608.4
1012.07 463.01 1580.4
1000.34 455.80 1555.8
1006.94 456.97 1559.8
1004.58 454.07 1549.9
1003.23 451.65 1541.7
1011.41 453.53 1548.1
1012.69 452.31 1543.9
1016.62 452.28 1543.8
1014.66 449.63 1534.8
1003.52 442.96 1512.0
991.22 435.83 1487.7
973.43 426.35 1455.3
985.85 430.12 1468.2
1008.63 438.36 1496.3
1008.09 436.45 1489.8
1012.99 436.90 1491.3
1004.20 431.46 1472.7
1003.57 429.56 1466.3
1026.04 437.52 1493.4
1014.94 431.16 1471.7
994.90 421.06 1437.3
1018.00 429.23 1465.1
1047.88 440.19 1502.5
1050.01 439.45 1500.0
1044.30 435.45 1486.4
1051.43 436.81 1491.0
1054.64 436.54 1490.1
1058.97 436.73 1490.7
1085.88 446.20 1523.1
1099.32 450.08 1536.3
1110.54 453.03 1546.4
1147.38 466.38 1591.9
1085.97 602.12 2073.6
1076.73 594.06 2045.9
1026.37 558.02 1921.8
1007.40 545.07 1877.1
997.44 537.08 1849.7
991.99 531.59 1830.7
990.15 528.08 1818.7
987.34 524.09 1804.9
989.14 522.56 1799.6
991.84 521.53 1796.1
973.84 509.67 1755.3
949.53 494.64 1703.5
961.96 498.79 1717.8
987.75 509.81 1755.7
982.21 504.62 1737.8
968.45 495.28 1705.7
968.49 493.05 1698.0
981.51 497.42 1713.0
992.17 500.55 1723.8
984.91 494.66 1703.6
975.61 487.81 1679.9
973.56 484.61 1669.0
973.90 482.64 1662.2
981.60 484.31 1667.9
984.87 483.80 1666.1
978.72 478.68 1648.5
967.53 471.14 1622.6
969.20 469.91 1618.3
980.35 473.27 1629.9
978.49 470.35 1619.8
976.09 467.19 1608.9
987.28 470.53 1620.5
997.50 473.39 1630.3
984.37 465.19 1602.1
971.14 457.01 1573.9
969.04 454.11 1563.9
978.69 456.72 1572.9
998.67 464.11 1598.4
996.56 461.22 1588.4
990.25 456.41 1571.8
1005.17 461.39 1589.0
1018.07 465.40 1602.8
1020.05 464.41 1599.4
1029.35 466.75 1607.4
1040.77 470.03 1618.7
1032.74 464.53 1599.8
1015.65 455.01 1567.0
1012.21 451.67 1555.5
1017.77 452.34 1557.8
1016.93 450.18 1550.4
1017.66 448.73 1545.4
1028.56 451.76 1555.8
1029.28 450.31 1550.8
1019.74 444.40 1530.5
1005.80 436.62 1503.7
997.71 431.44 1485.8
1000.43 430.95 1484.2
992.24 425.79 1466.4
988.35 422.50 1455.0
1001.95 426.68 1469.4
1023.83 434.35 1495.9
1035.35 437.58 1507.0
1013.77 426.85 1470.0
985.41 413.36 1423.6
1000.18 417.99 1439.5
1036.15 431.41 1485.7
1045.49 433.69 1493.6
1042.56 430.88 1483.9
1050.81 432.69 1490.1
1075.38 441.18 1519.4
1101.74 450.34 1550.9
1089.22 443.61 1527.7
1059.63 430.00 1480.9
1087.22 439.60 1513.9
1141.66 459.95 1584.0
1163.26 466.97 1608.2
1085.67 596.58 2073.1
1074.74 584.79 2032.1
1035.71 560.80 1948.7
1033.32 556.79 1934.8
1033.16 554.01 1925.1
1013.63 540.93 1879.7
998.53 530.32 1842.8
995.33 526.10 1828.2
991.60 521.65 1812.7
978.93 512.55 1781.1
970.35 505.67 1757.2
975.78 506.13 1758.7
975.07 503.41 1749.3
958.69 492.66 1711.9
955.46 488.74 1698.3
966.50 492.12 1710.1
969.92 491.60 1708.3
971.41 490.12 1703.1
985.41 494.93 1719.8
996.08 498.04 1730.6
988.83 492.20 1710.3
976.62 483.95 1681.7
970.65 478.85 1664.0
970.98 476.90 1657.2
980.14 479.28 1665.4
984.40 479.25 1665.3
978.24 474.17 1647.7
968.53 467.42 1624.2
971.70 466.92 1622.5
985.36 471.44 1638.2
985.53 469.50 1631.5
977.10 463.50 1610.6
982.74 464.19 1613.0
1002.07 471.31 1637.8
997.59 467.23 1623.6
985.40 459.58 1597.0
984.88 457.41 1589.5
985.87 455.96 1584.4
996.09 458.78 1594.2
988.28 453.30 1575.2
977.81 446.65 1552.1
991.66 451.12 1567.6
1003.48 454.64 1579.8
1008.54 455.08 1581.3
1020.95 458.81 1594.3
1023.95 458.30 1592.5
1007.42 449.09 1560.6
1006.11 446.71 1552.3
1018.55 450.43 1565.2
1021.46 449.93 1563.5
1017.43 446.38 1551.1
1013.89 443.08 1539.7
1019.42 443.75 1542.0
1010.43 438.12 1522.4
991.12 428.07 1487.5
1010.07 434.57 1510.1
1035.07 443.60 1541.5
1021.03 435.90 1514.7
996.54 423.81 1472.7
993.75 421.02 1463.0
1007.36 425.16 1477.4
1017.73 427.91 1486.9
1018.22 426.50 1482.0
1012.60 422.55 1468.3
1000.29 415.85 1445.0
993.99 411.69 1430.6
1009.36 416.50 1447.3
1027.02 422.22 1467.2
1032.43 422.88 1469.5
1035.04 422.39 1467.8
1051.70 427.62 1485.9
1081.40 438.08 1522.3
1072.78 433.01 1504.7
1049.36 422.03 1466.5
1082.05 433.60 1506.7
1125.68 449.46 1561.8
1135.83 451.89 1570.3
1147.16 454.77 1580.3
1085.82 591.29 2073.3
1082.42 586.54 2056.7
1038.16 559.79 1962.9
1012.16 543.11 1904.4
1020.63 545.00 1911.0
1035.10 550.05 1928.7
1029.37 544.38 1908.9
994.91 523.64 1836.1
975.46 510.95 1791.7
981.89 511.89 1794.9
979.92 508.45 1782.9
964.77 498.24 1747.1
964.06 495.54 1737.6
979.37 501.07 1757.0
979.58 498.86 1749.3
968.34 490.87 1721.2
971.31 490.11 1718.6
982.41 493.45 1730.3
993.08 496.54 1741.1
982.55 489.05 1714.9
970.46 480.86 1686.1
973.31 480.11 1683.5
970.79 476.73 1671.6
972.62 475.50 1667.3
979.34 476.67 1671.4
982.13 475.92 1668.8
980.95 473.27 1659.5
981.72 471.57 1653.6
977.49 467.49 1639.3
960.22 457.25 1603.3
952.32 451.53 1583.3
980.51 462.90 1623.2
999.77 469.98 1648.0
980.71 459.06 1609.7
975.70 454.78 1594.7
992.50 460.65 1615.3
1000.70 462.51 1621.8
996.13 458.47 1607.6
993.55 455.38 1596.8
994.54 453.94 1591.7
978.45 444.75 1559.5
984.00 445.43 1561.9
1013.98 457.12 1602.9
1006.58 451.94 1584.7
990.75 443.02 1553.4
1007.83 448.83 1573.8
1016.57 450.90 1581.1
1009.51 445.97 1563.8
1018.25 448.03 1571.0
1012.69 443.81 1556.2
997.49 435.41 1526.8
1005.13 437.01 1532.4
1012.78 438.61 1538.0
1010.26 435.80 1528.1
992.63 426.52 1495.6
973.26 416.57 1460.7
991.09 422.56 1481.7
1014.41 430.83 1510.7
1000.31 423.21 1484.0
997.02 420.20 1473.4
1013.37 425.46 1491.9
1027.04 429.56 1506.3
1036.91 432.05 1515.0
1022.56 424.46 1488.4
1002.03 414.37 1453.0
976.93 402.48 1411.3
988.12 404.06 1416.8
1021.36 416.11 1459.1
1025.08 416.08 1459.0
1024.86 414.47 1453.3
1028.56 414.44 1453.2
1043.54 418.94 1469.0
1068.76 427.50 1499.0
1083.87 431.98 1514.7
1092.78 433.95 1521.7
1109.12 438.86 1538.9
1126.08 443.97 1556.8
1146.54 450.43 1579.4
1090.46 588.42 2082.2
1025.11 547.73 1938.2
1020.44 542.58 1920.0
1014.33 536.71 1899.2
1013.63 533.75 1888.7
1015.64 532.24 1883.4
991.28 516.98 1829.4
967.62 502.24 1777.3
969.84 501.01 1772.9
967.35 497.36 1760.0
951.67 487.01 1723.3
944.32 480.98 1702.0
952.95 483.12 1709.6
982.47 495.79 1754.4
1000.75 502.68 1778.8
996.19 498.10 1762.6
1000.19 497.81 1761.6
999.85 495.38 1753.0
979.68 483.19 1709.9
959.33 471.02 1666.8
954.37 466.49 1650.7
963.49 468.84 1659.1
976.06 472.85 1673.2
972.97 469.26 1660.6
963.91 462.85 1637.9
973.05 465.19 1646.1
984.71 468.70 1658.6
994.41 471.27 1667.6
988.67 466.52 1650.8
966.33 454.01 1606.6
980.50 458.69 1623.2
1005.32 468.29 1657.1
990.82 459.57 1626.3
986.34 455.56 1612.1
1004.71 462.08 1635.2
991.51 454.09 1606.9
965.90 440.52 1558.8
970.42 440.73 1559.6
978.03 442.34 1565.3
974.80 439.06 1553.7
992.78 445.32 1575.8
1026.45 458.53 1622.6
1024.29 455.71 1612.6
991.76 439.44 1555.0
989.44 436.64 1545.1
1008.12 443.09 1567.9
1013.17 443.52 1569.5
1024.57 446.71 1580.8
1020.61 443.21 1568.4
991.59 428.90 1517.7
984.80 424.28 1501.4
1001.50 429.78 1520.8
1007.53 430.67 1524.0
1002.26 426.74 1510.1
995.32 422.14 1493.8
989.40 418.00 1479.2
988.85 416.16 1472.6
1007.32 422.30 1494.4
1035.15 432.30 1529.8
1022.61 425.44 1505.5
1008.88 418.13 1479.6
1024.21 422.87 1496.4
1014.77 417.40 1477.0
991.44 406.27 1437.6
980.22 397.19 1405.5
1016.81 410.49 1452.6
1023.88 411.82 1457.3
1030.39 412.92 1461.2
1041.99 416.03 1472.2
1045.16 415.77 1471.3
1056.24 418.65 1481.5
1082.10 427.35 1512.2
1102.95 434.01 1535.8
1121.02 439.54 1555.4
1139.74 445.27 1575.7
1161.96 452.33 1600.7
1092.85 584.30 2086.8
1038.30 547.01 1953.6
1014.41 531.83 1899.4
1004.99 524.34 1872.6
998.67 518.54 1851.9
998.75 516.10 1843.2
998.32 513.42 1833.6
981.53 502.40 1794.3
959.91 489.01 1746.5
949.83 481.60 1720.0
948.58 478.72 1709.7
953.92 479.18 1711.3
980.14 490.07 1750.3
993.18 494.30 1765.4
984.28 487.63 1741.5
977.21 481.91 1721.1
967.16 474.79 1695.7
990.82 484.20 1729.3
1012.67 492.65 1759.5
994.75 481.76 1720.6
989.37 477.02 1703.6
987.83 474.16 1693.4
970.52 463.79 1656.4
957.50 455.55 1627.0
961.68 455.53 1626.9
978.26 461.36 1647.7
993.42 466.48 1666.0
1003.16 469.01 1675.0
995.89 463.60 1655.7
989.55 458.67 1638.1
993.72 458.64 1638.0
992.33 456.05 1628.7
1000.54 457.88 1635.3
1004.19 457.61 1634.3
977.19 443.43 1583.7
957.16 432.52 1544.7
965.25 434.36 1551.3
984.70 441.28 1576.0
993.90 443.56 1584.1
992.24 440.99 1575.0
1005.10 444.88 1588.9
1019.58 449.45 1605.2
1004.29 440.91 1574.7
983.10 429.86 1535.2
982.30 427.77 1527.8
992.02 430.27 1536.7
1008.12 435.51 1555.4
1022.17 439.82 1570.8
1011.24 433.39 1547.8
1001.30 427.43 1526.5
1013.23 430.82 1538.6
1009.09 427.38 1526.3
993.59 419.17 1497.0
999.04 419.83 1499.4
1005.04 420.71 1502.5
997.47 415.93 1485.5
1008.89 419.08 1496.7
1029.63 426.05 1521.6
1010.50 416.54 1487.6
998.38 409.98 1464.2
1014.78 415.14 1482.6
1011.39 412.19 1472.1
993.02 403.18 1439.9
995.05 402.49 1437.5
1010.41 407.18 1454.2
1013.01 406.71 1452.5
1019.52 407.81 1456.5
1037.24 413.36 1476.3
1055.59 419.13 1496.9
1052.05 416.19 1486.4
1039.99 409.92 1464.0
1042.57 409.45 1462.3
1057.63 413.85 1478.1
1082.97 422.24 1508.0
1105.57 429.50 1533.9
1122.54 434.53 1551.9
1142.43 440.65 1573.8
1073.86 571.65 2060.7
1072.71 568.22 2048.3
1076.03 567.17 2044.5
1037.49 541.52 1952.1
1009.92 524.57 1891.0
996.33 515.01 1856.5
984.91 506.66 1826.4
980.30 501.87 1809.2
987.69 503.25 1814.1
978.32 496.11 1788.4
972.58 490.88 1769.5
978.98 491.79 1772.8
968.41 484.20 1745.5
965.77 480.64 1732.6
979.70 485.31 1749.5
981.30 483.87 1744.2
968.05 475.14 1712.8
957.55 467.84 1686.5
978.25 475.79 1715.1
1019.49 491.38 1771.3
966.06 463.54 1671.0
963.99 460.48 1659.9
965.79 459.29 1655.6
966.10 457.40 1648.8
970.81 457.61 1649.6
974.04 457.12 1647.8
989.68 462.43 1667.0
985.46 458.45 1652.6
976.18 452.17 1630.0
986.36 454.92 1639.9
997.59 458.12 1651.4
998.76 456.70 1646.3
995.36 453.20 1633.7
988.85 448.34 1616.2
977.69 441.40 1591.2
973.07 437.47 1577.0
974.04 436.08 1572.0
979.09 436.51 1573.5
996.53 442.44 1594.9
1006.81 445.16 1604.7
1004.66 442.38 1594.7
1006.63 441.43 1591.3
1008.59 440.49 1587.9
1005.30 437.26 1576.3
996.71 431.77 1556.5
989.09 426.75 1538.3
991.44 426.04 1535.8
999.60 427.83 1542.2
1005.66 428.71 1545.4
1002.67 425.74 1534.7
1001.24 423.45 1526.5
1012.64 426.58 1537.8
1007.42 422.72 1523.8
991.37 414.36 1493.7
995.73 414.56 1494.4
999.55 414.54 1494.3
989.79 408.91 1474.0
998.47 410.91 1481.2
1016.46 416.71 1502.2
1014.81 414.44 1494.0
1019.16 414.64 1494.7
1021.86 414.16 1493.0
1005.24 405.89 1463.1
1011.19 406.76 1466.3
1037.68 415.85 1499.1
1050.38 419.37 1511.7
1051.97 418.44 1508.4
1045.15 414.19 1493.1
1048.93 414.15 1492.9
1052.70 414.11 1492.8
1034.50 405.46 1461.6
1034.82 404.11 1456.7
1050.98 408.93 1474.1
1052.43 408.01 1470.8
1062.41 410.39 1479.4
1084.39 417.37 1504.6
1100.17 421.93 1521.0
1117.15 426.91 1538.9
1153.15 439.10 1582.9
1172.02 444.70 1603.1
1177.10 445.05 1604.3
1086.10 572.77 2084.2
1068.32 560.60 2039.9
1055.78 551.30 2006.1
1031.29 535.87 1949.9
1016.60 525.66 1912.8
1000.83 514.99 1874.0
993.64 508.82 1851.5
987.73 503.36 1831.6
965.53 489.69 1781.9
956.14 482.62 1756.2
963.43 484.00 1761.2
974.02 487.01 1772.1
989.82 492.59 1792.4
990.61 490.68 1785.5
985.68 485.96 1768.3
997.78 489.65 1781.8
997.06 487.05 1772.3
981.47 477.23 1736.5
975.33 472.08 1717.8
1000.44 482.03 1754.0
1028.58 493.35 1795.2
992.84 474.06 1725.0
939.77 446.71 1625.5
938.58 444.15 1616.2
962.85 453.61 1650.6
987.24 463.04 1684.9
996.47 465.31 1693.2
1003.75 466.66 1698.1
1016.01 470.29 1711.3
1008.38 464.73 1691.1
983.16 451.15 1641.6
977.32 446.53 1624.9
986.51 448.80 1633.1
986.63 446.94 1626.3
982.17 443.02 1612.1
975.62 438.20 1594.5
980.21 438.41 1595.3
991.96 441.80 1607.6
990.42 439.26 1598.4
993.47 438.78 1596.6
1010.95 444.65 1618.0
1020.76 447.11 1626.9
1005.67 438.69 1596.3
993.58 431.64 1570.7
1005.95 435.23 1583.7
1012.07 436.10 1586.9
992.98 426.14 1550.6
973.76 416.20 1514.5
988.75 420.91 1531.6
1008.03 427.41 1555.2
1014.12 428.27 1558.4
1010.61 425.10 1546.9
991.03 415.21 1510.9
984.71 410.94 1495.3
1000.91 416.06 1514.0
1006.93 416.93 1517.1
1006.47 415.12 1510.5
1005.44 413.09 1503.2
996.78 407.95 1484.4
1007.11 410.59 1494.1
