ply
format ascii 1.0
element vertex 2295
property float x
property float y
property float z
end_header
764.50 385.22 1142.9
792.38 397.72 1180.1
832.24 416.12 1234.6
821.01 408.93 1213.3
798.34 396.12 1175.3
811.89 401.31 1190.7
818.96 403.28 1196.5
805.86 395.33 1173.0
787.21 384.73 1141.5
762.95 371.47 1102.2
777.59 377.19 1119.1
820.41 396.48 1176.4
829.17 399.23 1184.5
802.48 384.95 1142.2
760.63 363.54 1078.6
738.05 351.45 1042.8
746.62 354.23 1051.0
752.41 355.68 1055.3
749.23 352.90 1047.1
746.59 350.38 1039.6
746.17 348.93 1035.3
782.49 364.60 1081.8
813.86 377.86 1121.1
815.26 377.17 1119.1
797.86 367.81 1091.3
758.67 348.50 1034.0
737.01 337.36 1001.0
725.56 330.96 982.0
715.19 325.09 964.5
740.49 335.41 995.2
767.63 346.50 1028.1
762.45 342.97 1017.6
771.17 345.70 1025.7
770.60 344.25 1021.4
752.53 335.03 994.0
755.98 335.42 995.2
747.72 330.63 981.0
742.35 327.14 970.6
772.23 339.15 1006.3
780.42 341.60 1013.5
732.51 319.55 948.1
731.14 317.89 943.2
770.11 333.71 990.1
755.71 326.39 968.4
732.31 315.23 935.3
756.56 324.60 963.1
779.71 333.43 989.3
774.75 330.22 979.8
770.37 327.28 971.1
795.46 336.84 999.4
779.61 329.06 976.3
737.68 310.35 920.8
732.53 307.19 911.4
731.59 305.81 907.3
710.56 296.07 878.4
705.90 293.19 869.9
729.30 301.94 895.9
748.51 308.91 916.5
762.25 313.59 930.4
782.80 321.02 952.5
761.56 311.33 923.7
705.06 287.33 852.5
668.59 663.45 1983.7
661.30 651.20 1947.1
681.61 666.12 1991.7
653.07 628.70 1879.8
622.18 594.53 1777.7
650.11 616.65 1843.8
658.24 619.80 1853.2
637.16 595.61 1780.9
620.92 576.25 1723.0
622.32 573.42 1714.5
651.18 595.76 1781.3
663.54 602.79 1802.4
634.86 572.71 1712.4
614.78 550.74 1646.7
625.95 556.88 1665.1
629.10 555.85 1662.0
607.76 533.34 1594.7
594.32 518.02 1548.9
617.81 534.88 1599.3
636.34 547.25 1636.3
624.06 533.14 1594.1
625.24 530.63 1586.6
618.63 521.59 1559.6
596.67 499.81 1494.5
590.09 491.11 1468.4
597.35 493.96 1477.0
602.48 495.03 1480.2
603.28 492.55 1472.8
606.60 492.14 1471.5
594.53 479.34 1433.2
587.80 470.97 1408.2
597.61 475.88 1422.9
594.84 470.76 1407.6
583.02 458.60 1371.2
572.92 447.92 1339.3
581.94 452.23 1352.2
594.44 459.18 1373.0
587.17 450.87 1348.1
586.32 447.55 1338.2
600.07 455.35 1361.5
610.44 460.51 1376.9
606.46 454.84 1360.0
593.39 442.47 1323.0
592.36 439.16 1313.1
595.63 439.07 1312.8
593.73 435.18 1301.2
584.60 426.06 1273.9
567.73 411.44 1230.2
574.43 413.97 1237.8
600.18 430.13 1286.1
598.49 426.55 1275.4
576.33 408.50 1221.4
579.79 408.70 1222.0
601.79 421.91 1261.5
601.61 419.50 1254.3
590.99 409.88 1225.6
589.02 406.33 1214.9
596.65 409.40 1224.1
608.11 415.06 1241.0
617.10 418.98 1252.8
609.56 411.69 1231.0
588.27 395.24 1181.8
595.91 398.30 1190.9
625.98 416.25 1244.6
631.20 417.56 1248.5
619.50 407.73 1219.1
615.96 403.35 1206.0
609.30 396.97 1186.9
603.43 391.17 1169.6
608.96 392.78 1174.4
617.17 396.10 1184.3
628.09 401.11 1199.3
628.79 399.58 1194.7
626.34 396.07 1184.2
639.14 402.19 1202.6
636.65 398.68 1192.1
620.96 386.98 1157.1
624.25 387.16 1157.6
629.83 388.74 1162.4
638.17 392.02 1172.2
654.84 400.35 1197.1
664.22 404.17 1208.5
658.33 398.71 1192.1
671.46 404.76 1210.2
695.41 417.25 1247.6
680.58 406.46 1215.3
663.73 394.57 1179.8
671.31 397.24 1187.8
678.44 399.63 1194.9
678.46 397.82 1189.5
677.97 395.74 1183.3
684.17 397.56 1188.7
696.16 402.71 1204.1
701.93 404.24 1208.7
694.65 398.27 1190.8
690.70 394.25 1178.8
696.44 395.77 1183.4
685.08 387.61 1159.0
675.59 380.57 1137.9
679.30 381.00 1139.2
675.61 377.29 1128.1
688.22 382.68 1144.2
723.27 400.44 1197.3
739.56 407.71 1219.1
737.93 405.08 1211.2
733.76 401.08 1199.2
728.53 396.54 1185.7
726.78 393.93 1177.9
732.09 395.14 1181.5
728.77 391.72 1171.2
711.14 380.65 1138.2
725.08 386.51 1155.7
746.78 396.44 1185.4
758.30 400.91 1198.7
780.19 410.79 1228.3
771.14 404.38 1209.1
753.19 393.36 1176.2
764.26 397.54 1188.7
769.11 398.46 1191.4
754.60 389.37 1164.2
745.23 383.01 1145.2
735.79 376.66 1126.2
732.62 373.55 1116.9
746.35 379.05 1133.4
757.49 383.20 1145.8
771.34 388.68 1162.2
780.98 392.01 1172.1
767.07 383.54 1146.8
779.40 388.19 1160.7
815.47 404.60 1209.8
801.49 396.14 1184.5
790.12 389.03 1163.2
815.05 399.78 1195.4
821.05 401.19 1199.6
807.40 393.04 1175.2
808.99 392.33 1173.1
807.82 390.30 1167.0
800.03 385.09 1151.4
817.55 392.06 1172.3
834.60 398.75 1192.3
815.67 388.27 1160.9
775.50 367.79 1099.7
753.50 356.05 1064.6
759.31 357.49 1068.9
761.21 357.08 1067.7
772.66 361.13 1079.8
785.83 365.96 1094.2
755.03 350.36 1047.6
755.75 349.43 1044.8
769.50 354.52 1060.0
755.44 346.80 1037.0
790.88 361.78 1081.7
808.76 368.66 1102.3
751.71 341.45 1020.9
713.89 323.13 966.2
719.59 324.57 970.5
763.94 343.37 1026.7
777.27 348.15 1041.0
753.00 336.11 1005.0
764.60 340.12 1017.0
766.34 339.72 1015.8
750.59 331.60 991.5
750.53 330.44 988.0
753.97 330.82 989.2
759.17 331.98 992.6
753.79 328.51 982.3
728.33 316.34 945.9
729.92 315.97 944.8
774.16 334.00 998.7
798.99 343.57 1027.3
772.75 331.18 990.2
744.60 318.06 951.0
761.72 324.30 969.7
782.49 332.04 992.8
775.74 328.10 981.0
739.49 311.75 932.1
730.19 306.82 917.4
752.23 315.06 942.0
752.56 314.18 939.4
741.98 308.76 923.2
734.99 304.87 911.6
720.65 297.96 890.9
721.49 297.36 889.1
715.61 293.99 879.0
704.79 288.63 863.0
707.41 288.78 863.5
713.72 290.44 868.4
731.75 296.84 887.6
714.66 289.00 864.1
629.88 639.88 1928.2
667.54 672.80 2027.4
642.28 642.28 1935.5
643.52 638.53 1924.1
646.82 636.87 1919.2
647.18 627.57 1891.1
678.98 653.46 1969.1
592.98 562.23 1694.2
588.36 553.76 1668.7
614.61 574.24 1730.4
614.46 569.93 1717.4
618.44 569.50 1716.1
637.40 582.77 1756.1
628.69 570.72 1719.8
608.58 548.58 1653.1
612.73 548.46 1652.7
622.88 553.67 1668.4
633.44 559.18 1685.0
636.64 558.15 1681.9
603.42 525.43 1583.3
577.96 499.86 1506.3
588.98 505.97 1524.7
594.88 507.63 1529.7
583.39 494.53 1490.2
585.38 492.95 1485.5
594.74 497.56 1499.4
588.22 488.91 1473.3
595.48 491.75 1481.8
616.75 506.05 1524.9
628.12 512.09 1543.1
635.22 514.60 1550.7
623.40 501.86 1512.3
597.86 478.29 1441.3
588.93 468.22 1410.9
596.53 471.34 1420.3
600.82 471.81 1421.8
596.51 465.57 1402.9
586.47 454.96 1371.0
595.19 458.94 1383.0
603.96 462.91 1394.9
591.77 450.87 1358.6
587.09 444.66 1339.9
597.38 449.79 1355.4
597.27 447.08 1347.2
583.47 434.21 1308.4
589.48 436.14 1314.3
608.10 447.34 1348.0
599.98 438.84 1322.4
587.37 427.18 1287.2
598.96 433.14 1305.2
601.40 432.47 1303.2
584.48 417.95 1259.4
587.61 417.86 1259.2
610.27 431.57 1300.5
610.22 429.17 1293.2
597.82 418.15 1260.0
605.48 421.20 1269.3
612.35 423.68 1276.7
608.85 418.99 1262.6
608.62 416.60 1255.4
617.60 420.50 1267.1
618.20 418.67 1261.6
617.07 415.71 1252.7
619.73 415.32 1251.5
608.72 405.81 1222.9
604.01 400.59 1207.1
621.21 409.87 1235.1
638.09 418.85 1262.2
637.27 416.18 1254.1
625.95 406.71 1225.6
613.18 396.40 1194.5
615.24 395.74 1192.5
627.89 401.85 1210.9
625.54 398.35 1200.4
625.36 396.27 1194.1
633.20 399.26 1203.1
637.94 400.28 1206.2
643.59 401.85 1210.9
634.33 394.15 1187.7
624.07 385.90 1162.9
631.93 388.88 1171.8
641.19 392.69 1183.3
651.88 397.33 1197.3
659.85 400.29 1206.2
660.92 399.05 1202.5
658.73 395.86 1192.9
675.59 404.09 1217.7
697.24 415.10 1250.9
680.05 402.99 1214.4
657.54 387.86 1168.8
658.95 386.91 1165.9
676.47 395.38 1191.4
686.96 399.68 1204.4
690.32 399.83 1204.8
701.36 404.39 1218.6
697.05 400.10 1205.7
687.39 392.79 1183.6
692.16 393.76 1186.6
701.31 397.20 1196.9
711.97 401.46 1209.8
705.55 396.10 1193.6
686.79 383.88 1156.8
681.18 379.09 1142.4
695.77 385.54 1161.8
727.30 401.27 1209.2
733.14 402.76 1213.7
720.04 393.87 1186.9
728.85 396.99 1196.3
734.18 398.20 1199.9
721.90 389.89 1174.9
712.04 382.95 1154.0
722.88 387.15 1166.6
723.09 385.65 1162.1
713.08 378.73 1141.3
736.24 389.42 1173.5
754.91 397.65 1198.3
764.40 401.00 1208.4
779.09 407.03 1226.6
761.74 396.35 1194.4
729.72 378.16 1139.5
727.19 375.32 1131.0
764.85 393.17 1184.8
786.46 402.67 1213.4
761.94 388.56 1170.9
736.20 373.95 1126.8
729.33 368.99 1111.9
738.82 372.32 1121.9
755.26 379.11 1142.4
774.97 387.48 1167.6
795.84 396.37 1194.4
793.76 393.80 1186.7
783.59 387.26 1167.0
793.28 390.54 1176.8
806.25 395.40 1191.5
823.06 402.11 1211.7
834.52 406.15 1223.9
825.85 400.41 1206.6
817.13 394.69 1189.3
823.67 396.35 1194.4
817.04 391.69 1180.3
803.76 383.89 1156.8
814.13 387.39 1167.4
822.87 390.10 1175.5
823.87 389.14 1172.6
803.17 377.96 1138.9
771.19 361.58 1089.6
768.66 359.08 1082.1
772.27 359.46 1083.2
785.43 364.26 1097.6
818.91 378.41 1140.3
806.81 371.48 1119.4
776.52 356.25 1073.5
757.99 346.51 1044.2
734.80 334.71 1008.6
758.23 344.16 1037.1
800.04 361.86 1090.4
773.30 348.53 1050.3
756.75 339.87 1024.2
791.33 354.16 1067.2
814.52 363.27 1094.7
797.91 354.63 1068.6
756.29 334.97 1009.4
744.08 328.42 989.7
732.97 322.41 971.5
703.71 308.47 929.6
714.65 312.20 940.8
729.15 317.45 956.6
738.41 320.40 965.5
739.46 319.77 963.6
720.44 310.49 935.6
726.15 311.91 939.9
747.89 320.16 964.8
751.88 320.80 966.7
755.29 321.18 967.9
762.27 323.08 973.6
743.57 314.12 946.6
731.37 307.95 928.0
752.72 315.89 951.9
745.27 311.75 939.4
744.41 310.37 935.3
776.76 322.81 972.7
746.88 309.39 932.3
707.17 291.99 879.9
709.22 291.90 879.6
701.52 287.80 867.3
688.29 281.47 848.2
669.49 272.91 822.4
713.70 290.01 873.9
784.48 317.76 957.5
720.83 291.06 877.1
679.10 273.35 823.7
709.45 284.67 857.8
673.09 673.09 2044.2
658.07 652.93 1983.0
668.19 657.83 1997.9
670.14 654.68 1988.3
658.24 638.14 1938.1
627.23 603.47 1832.8
617.52 589.66 1790.9
630.80 597.84 1815.7
610.75 574.55 1745.0
592.27 553.07 1679.7
603.21 559.18 1698.3
618.10 568.83 1727.6
636.04 581.13 1764.9
625.46 567.38 1723.2
591.40 532.68 1617.8
594.81 531.98 1615.7
619.13 549.86 1670.0
624.31 550.61 1672.3
628.83 550.77 1672.8
646.88 562.70 1709.0
628.34 542.85 1648.7
589.65 505.99 1536.7
589.72 502.65 1526.6
598.75 506.94 1539.6
589.71 495.98 1506.4
578.41 483.28 1467.8
575.75 477.91 1451.5
582.59 480.45 1459.2
603.01 494.08 1500.6
622.90 507.10 1540.1
633.95 512.81 1557.5
634.19 509.76 1548.2
616.16 492.15 1494.7
593.12 470.79 1429.9
585.64 461.97 1403.0
598.78 469.42 1425.7
609.05 474.53 1441.2
604.40 468.04 1421.5
595.52 458.37 1392.1
585.74 448.13 1361.0
576.59 438.49 1331.7
583.75 441.29 1340.2
597.85 449.27 1364.5
599.32 447.73 1359.8
591.06 438.98 1333.2
590.09 435.71 1323.3
609.85 447.69 1359.7
621.10 453.33 1376.8
606.30 440.00 1336.3
597.69 431.29 1309.9
612.13 439.21 1333.9
619.85 442.25 1343.2
607.85 431.26 1309.8
609.87 430.30 1306.9
631.43 443.05 1345.6
639.24 446.07 1354.8
634.77 440.52 1337.9
631.04 435.56 1322.8
627.25 430.60 1307.8
629.64 429.92 1305.7
635.78 431.79 1311.4
632.70 427.41 1298.1
620.28 416.80 1265.9
604.32 403.94 1226.8
593.31 394.50 1198.2
605.25 400.35 1215.9
623.71 410.42 1246.5
630.22 412.57 1253.0
635.46 413.86 1257.0
635.93 412.06 1251.5
625.03 402.94 1223.8
614.88 394.39 1197.8
621.79 396.82 1205.2
639.33 405.97 1233.0
640.56 404.73 1229.2
628.42 395.10 1200.0
624.21 390.51 1186.0
635.19 395.44 1201.0
648.49 401.75 1220.2
644.67 397.44 1207.1
640.80 393.15 1194.0
644.62 393.59 1195.4
649.36 394.59 1198.4
660.54 399.47 1213.2
669.94 403.23 1224.7
667.80 400.05 1215.0
661.45 394.39 1197.8
667.61 396.20 1203.3
677.54 400.22 1215.5
673.42 395.95 1202.5
664.06 388.65 1180.4
657.93 383.29 1164.1
667.39 387.02 1175.4
687.37 396.80 1205.1
700.77 402.71 1223.1
699.86 400.37 1216.0
683.51 389.26 1182.2
680.06 385.57 1171.0
691.11 390.09 1184.8
697.35 391.87 1190.2
706.04 395.01 1199.7
709.39 395.14 1200.1
698.49 387.37 1176.5
704.74 389.14 1181.9
732.77 402.86 1223.5
742.11 406.24 1233.8
724.61 394.96 1199.5
714.46 387.76 1177.7
725.77 392.22 1191.2
726.07 390.72 1186.7
707.70 379.23 1151.8
702.84 375.05 1139.1
718.73 381.92 1159.9
745.89 394.70 1198.8
763.50 402.34 1222.0
752.02 394.65 1198.6
735.82 384.57 1168.0
737.53 383.88 1165.9
744.92 386.14 1172.8
743.52 383.85 1165.8
727.02 373.81 1135.3
729.68 373.67 1134.9
772.59 394.05 1196.8
782.71 397.62 1207.6
747.65 378.29 1148.9
739.25 372.56 1131.5
749.30 376.13 1142.4
764.16 382.08 1160.4
785.46 391.19 1188.1
786.06 389.96 1184.4
786.12 388.47 1179.8
809.75 398.60 1210.6
824.35 404.22 1227.7
820.68 400.87 1217.5
821.29 399.63 1213.7
827.31 401.02 1218.0
825.73 398.74 1211.0
828.48 398.55 1210.4
832.32 398.89 1211.5
829.59 396.08 1203.0
811.44 385.97 1172.2
787.67 373.26 1133.6
788.06 372.06 1130.0
795.08 373.98 1135.8
793.78 371.99 1129.8
795.25 371.31 1127.7
784.99 365.18 1109.1
777.46 360.35 1094.4
776.60 358.65 1089.3
772.91 355.65 1080.2
786.10 360.41 1094.6
796.50 363.87 1105.1
792.22 360.62 1095.2
772.58 350.42 1064.3
747.70 337.93 1026.3
732.38 329.83 1001.7
731.85 328.43 997.5
759.95 339.83 1032.1
805.97 359.15 1090.8
807.86 358.74 1089.5
791.28 350.15 1063.4
797.17 351.53 1067.6
780.45 342.97 1041.6
766.55 335.70 1019.5
751.40 327.93 996.0
713.41 310.28 942.4
714.43 309.67 940.5
743.01 320.96 974.8
768.17 330.70 1004.4
783.42 336.13 1020.9
775.11 331.44 1006.6
747.23 318.45 967.2
733.44 311.53 946.1
742.75 314.43 955.0
753.28 317.83 965.3
770.41 323.98 984.0
762.48 319.59 970.6
734.13 306.69 931.5
735.67 306.33 930.4
733.00 304.22 924.0
741.76 306.85 931.9
761.43 313.96 953.5
720.00 295.92 898.8
695.38 284.88 865.2
710.17 290.01 880.8
720.75 293.38 891.0
727.08 295.01 896.0
699.17 282.79 858.9
736.73 297.03 902.1
806.97 324.32 985.0
732.25 293.36 891.0
683.13 272.82 828.6
703.61 280.12 850.8
669.96 659.49 2018.9
684.81 658.67 2016.3
605.18 573.33 1755.1
595.80 560.23 1715.0
611.80 571.01 1748.0
628.90 582.66 1783.7
629.54 578.99 1772.4
633.98 578.85 1772.0
628.05 569.31 1742.8
595.56 536.00 1640.8
574.41 513.30 1571.3
589.60 523.17 1601.5
619.88 546.19 1672.0
628.75 550.16 1684.2
620.51 539.20 1650.6
624.98 539.37 1651.1
629.11 539.23 1650.7
612.67 521.60 1596.7
599.08 506.61 1550.8
595.69 500.38 1531.8
594.29 495.90 1518.1
588.98 488.23 1494.6
588.49 484.64 1483.6
597.53 488.89 1496.6
601.99 489.36 1498.0
607.17 490.40 1501.2
621.38 498.69 1526.6
624.09 497.69 1523.6
616.94 488.89 1496.6
603.06 474.91 1453.8
588.61 460.65 1410.2
595.84 463.43 1418.7
603.86 466.79 1428.9
598.05 459.48 1406.6
597.42 456.21 1396.6
596.35 452.65 1385.7
590.67 445.66 1364.3
601.73 451.30 1381.5
601.32 448.32 1372.4
588.12 435.90 1334.4
607.37 447.53 1370.0
635.36 465.44 1424.8
619.66 451.31 1381.6
597.86 432.93 1325.3
611.05 439.96 1346.8
629.11 450.39 1378.7
603.73 429.77 1315.6
571.64 404.65 1238.7
590.88 415.93 1273.2
623.24 436.27 1335.5
632.65 440.41 1348.2
628.19 434.90 1331.3
621.61 427.99 1310.2
615.34 421.37 1289.9
619.36 421.83 1291.3
629.62 426.52 1305.7
635.35 428.09 1310.5
631.00 422.90 1294.6
621.51 414.34 1268.4
607.67 402.98 1233.6
598.79 395.02 1209.2
614.62 403.34 1234.7
619.38 404.36 1237.8
612.07 397.53 1216.9
624.16 403.30 1234.6
631.54 405.99 1242.8
619.74 396.38 1213.4
608.25 387.07 1184.9
616.01 390.04 1194.0
634.42 399.68 1223.5
636.96 399.29 1222.3
625.69 390.28 1194.7
624.59 387.68 1186.8
638.73 394.51 1207.7
647.53 398.00 1218.4
639.64 391.23 1197.7
633.01 385.31 1179.5
634.07 384.10 1175.8
648.84 391.17 1197.4
671.05 402.63 1232.5
679.57 405.81 1242.3
676.08 401.82 1230.1
663.71 392.62 1201.9
663.81 390.84 1196.5
675.13 395.66 1211.2
672.88 392.51 1201.6
670.59 389.38 1192.0
672.04 388.43 1189.1
675.38 388.58 1189.5
689.68 395.00 1209.2
693.06 395.14 1209.6
682.03 387.10 1185.0
675.72 381.80 1168.8
681.91 383.58 1174.2
696.37 389.97 1193.8
706.03 393.63 1205.0
710.36 394.30 1207.0
709.80 392.26 1200.8
716.59 394.28 1207.0
740.16 405.48 1241.3
743.58 405.59 1241.6
727.65 395.19 1209.8
732.50 396.11 1212.6
743.85 400.53 1226.1
739.72 396.61 1214.1
724.98 387.06 1184.9
720.71 383.16 1172.9
729.55 386.23 1182.3
728.78 384.21 1176.2
738.68 387.81 1187.2
755.77 395.13 1209.6
742.71 386.70 1183.8
741.38 384.42 1176.8
759.59 392.25 1200.8
752.06 386.77 1184.0
734.60 376.26 1151.8
746.66 380.89 1166.0
779.11 395.84 1211.7
791.33 400.43 1225.8
769.51 387.83 1187.2
753.85 378.43 1158.4
764.99 382.49 1170.9
775.64 386.29 1182.5
788.45 391.12 1197.3
807.71 399.10 1221.7
806.77 397.08 1215.6
791.90 388.25 1188.5
798.92 390.17 1194.4
813.50 395.76 1211.5
809.25 392.18 1200.5
796.85 384.69 1177.6
787.62 378.78 1159.5
785.93 376.53 1152.6
789.12 376.62 1152.9
796.68 378.80 1159.6
797.69 377.85 1156.7
810.23 382.36 1170.5
816.75 384.00 1175.5
789.58 369.84 1132.2
768.91 358.82 1098.4
783.65 364.35 1115.4
801.24 371.16 1136.2
800.48 369.45 1131.0
801.93 368.77 1128.9
794.40 363.98 1114.2
784.00 357.92 1095.7
801.17 364.43 1115.6
815.57 369.65 1131.6
787.53 355.66 1088.8
745.15 335.32 1026.5
749.23 335.95 1028.4
763.58 341.17 1044.4
746.52 332.37 1017.5
760.34 337.33 1032.7
789.15 348.89 1068.0
777.17 342.39 1048.1
742.02 325.77 997.2
726.38 317.79 972.8
733.28 319.70 978.7
743.10 322.86 988.4
768.10 332.58 1018.1
771.59 332.95 1019.2
748.16 321.73 984.9
750.42 321.61 984.5
775.61 331.28 1014.1
789.71 336.16 1029.1
753.64 319.73 978.8
701.43 296.58 907.9
722.53 304.48 932.1
768.09 322.60 987.5
756.63 316.73 969.6
751.68 313.62 960.1
758.07 315.24 965.0
742.28 307.66 941.8
745.05 307.79 942.2
746.00 307.18 940.3
740.31 303.84 930.1
744.26 304.47 932.1
731.25 298.18 912.8
736.39 299.31 916.2
757.36 306.84 939.3
780.22 315.09 964.6
801.95 322.83 988.2
774.17 310.66 951.0
730.95 292.38 895.0
710.27 283.21 867.0
699.36 277.98 851.0
698.26 276.67 846.9
708.89 280.00 857.1
670.74 660.17 2037.1
641.22 626.19 1932.3
646.08 626.04 1931.8
680.85 654.66 2020.1
680.36 649.20 2003.3
648.22 613.85 1894.2
619.00 581.76 1795.2
589.30 549.72 1696.3
587.58 544.05 1678.8
605.80 556.80 1718.1
606.92 553.76 1708.7
609.28 551.89 1703.0
602.21 541.55 1671.1
588.46 525.41 1621.3
584.00 517.73 1597.6
575.79 506.86 1564.0
583.72 510.24 1574.5
602.74 523.21 1614.5
604.43 521.06 1607.8
583.73 499.77 1542.1
564.43 479.96 1481.0
587.71 496.37 1531.7
611.56 513.05 1583.1
606.84 505.70 1560.5
604.11 500.09 1543.2
602.71 495.65 1529.4
605.83 494.96 1527.3
609.65 494.84 1526.9
609.17 491.27 1515.9
597.88 479.07 1478.3
597.24 475.51 1467.3
605.63 479.13 1478.5
603.11 474.14 1463.1
608.23 475.18 1466.3
612.99 475.92 1468.6
606.25 467.79 1443.5
600.90 460.81 1421.9
605.57 461.56 1424.2
616.28 466.88 1440.6
615.31 463.33 1429.7
610.10 456.66 1409.1
607.86 452.28 1395.6
594.02 439.36 1355.7
594.69 437.27 1349.3
627.58 458.76 1415.6
651.78 473.68 1461.6
632.62 457.09 1410.5
598.64 430.06 1327.0
600.75 429.10 1324.1
612.79 435.22 1343.0
580.51 409.97 1265.0
575.51 401.89 1240.1
597.67 415.05 1280.7
595.96 411.57 1270.0
606.48 416.54 1285.3
613.77 419.24 1293.7
607.88 412.96 1274.3
611.44 413.14 1274.8
612.51 411.63 1270.2
608.94 407.05 1256.0
614.57 408.62 1260.9
614.72 406.56 1254.5
612.30 402.83 1243.0
614.94 402.44 1241.8
626.55 407.91 1258.7
627.93 406.69 1254.9
609.43 392.67 1211.7
610.25 391.18 1207.1
617.14 393.58 1214.5
604.83 383.77 1184.2
609.50 384.79 1187.3
632.69 397.42 1226.3
640.11 400.07 1234.5
630.25 391.95 1209.4
627.86 388.53 1198.9
636.16 391.73 1208.8
639.11 391.61 1208.4
636.20 387.92 1197.0
633.68 384.52 1186.5
632.49 381.94 1178.5
633.08 380.46 1174.0
648.31 387.75 1196.5
671.92 399.95 1234.1
681.82 403.92 1246.4
670.46 395.32 1219.8
648.76 380.73 1174.8
646.94 377.89 1166.0
656.80 381.86 1178.3
675.16 390.72 1205.6
692.69 399.02 1231.3
697.07 399.69 1233.3
703.34 401.45 1238.8
712.50 404.83 1249.2
711.17 402.25 1241.2
694.44 391.01 1206.6
682.39 382.50 1180.3
682.31 380.76 1174.9
689.50 383.05 1182.0
700.60 387.50 1195.7
706.87 389.24 1201.1
712.67 390.72 1205.6
726.35 396.48 1223.4
743.55 404.10 1246.9
739.06 399.93 1234.1
731.54 394.15 1216.2
743.88 399.08 1231.4
742.78 396.78 1224.4
726.10 386.22 1191.8
726.90 385.01 1188.0
737.27 388.85 1199.9
741.10 389.23 1201.1
734.27 384.03 1185.0
726.87 378.58 1168.2
725.54 376.31 1161.2
736.47 380.41 1173.8
760.81 391.37 1207.6
782.19 400.71 1236.5
778.85 397.37 1226.2
755.24 383.76 1184.2
760.60 384.92 1187.8
776.93 391.60 1208.4
772.93 388.02 1197.3
769.93 384.97 1187.9
774.79 385.85 1190.6
778.60 386.21 1191.7
780.30 385.52 1189.6
769.24 378.56 1168.1
763.96 374.49 1155.6
785.32 383.46 1183.2
793.94 386.16 1191.6
790.23 382.86 1181.4
792.95 382.70 1180.9
802.68 385.90 1190.8
804.86 385.47 1189.4
783.70 373.90 1153.8
769.48 365.72 1128.5
778.08 368.41 1136.8
792.73 373.93 1153.8
794.28 373.25 1151.7
806.81 377.72 1165.5
826.56 385.52 1189.6
813.22 377.89 1166.1
776.52 359.50 1109.3
773.51 356.78 1100.9
807.23 370.97 1144.7
823.80 377.20 1163.9
795.07 362.72 1119.2
760.58 345.72 1066.8
759.09 343.79 1060.8
784.10 353.83 1091.8
802.42 360.80 1113.3
780.01 349.47 1078.4
752.92 336.13 1037.2
770.12 342.58 1057.1
809.65 358.89 1107.4
817.31 361.00 1113.9
790.56 347.96 1073.7
778.62 341.50 1053.8
786.21 343.62 1060.3
768.98 334.92 1033.5
742.96 322.47 995.0
740.61 320.33 988.5
744.05 320.71 989.6
760.33 326.60 1007.8
763.80 326.97 1008.9
740.92 316.09 975.4
754.32 320.71 989.6
786.00 333.05 1027.7
783.02 330.67 1020.4
735.11 309.39 954.7
701.78 294.37 908.3
738.91 308.91 953.2
761.92 317.47 979.6
730.18 303.23 935.7
725.77 300.40 927.0
732.10 302.02 932.0
704.86 289.83 894.3
693.71 284.31 877.3
725.28 296.28 914.2
752.14 306.25 945.0
758.54 307.85 949.9
748.58 302.82 934.4
734.32 296.10 913.7
733.38 294.76 909.6
767.18 307.36 948.4
801.72 320.17 988.0
764.75 304.44 939.4
708.60 281.19 867.7
721.06 285.23 880.1
751.43 296.30 914.3
737.47 289.88 894.5
729.63 285.90 882.2
643.49 618.55 1924.0
624.49 595.66 1852.9
635.61 601.64 1871.5
619.24 581.71 1809.5
620.67 578.67 1800.0
614.83 568.95 1769.8
587.98 540.07 1679.9
581.39 530.09 1648.9
573.41 511.53 1591.2
614.33 544.12 1692.5
592.28 520.87 1620.2
566.25 494.48 1538.1
575.13 498.71 1551.3
595.44 512.74 1594.9
609.22 520.99 1620.6
599.72 509.35 1584.4
580.16 489.38 1522.3
605.26 507.11 1577.4
633.37 527.10 1639.6
631.20 521.79 1623.1
613.25 503.59 1566.5
597.49 487.43 1516.2
605.52 490.75 1526.5
613.96 494.36 1537.7
608.86 487.09 1515.1
593.24 471.55 1466.8
589.68 465.74 1448.7
595.85 467.63 1454.6
611.91 477.21 1484.4
636.91 493.60 1535.4
624.47 480.96 1496.1
600.34 459.52 1429.4
594.20 452.03 1406.1
597.33 451.64 1404.9
608.38 457.21 1422.2
608.13 454.26 1413.0
600.97 446.23 1388.0
596.76 440.47 1370.1
587.09 430.76 1339.9
591.20 431.23 1341.4
577.82 419.01 1303.4
556.07 400.89 1247.0
590.61 423.33 1316.8
607.70 433.08 1347.1
590.82 418.64 1302.2
584.10 411.53 1280.1
579.28 405.82 1262.4
576.80 401.81 1249.9
583.55 404.25 1257.5
589.12 405.84 1262.4
588.18 402.95 1253.4
599.49 408.44 1270.5
616.63 417.83 1299.7
619.01 417.16 1297.6
613.49 411.20 1279.1
605.38 403.59 1255.4
605.13 401.26 1248.2
613.27 404.50 1258.2
615.95 404.11 1257.0
616.07 402.07 1250.7
610.20 396.15 1232.3
615.38 397.43 1236.3
627.02 402.86 1253.1
618.01 395.02 1228.7
615.39 391.33 1217.3
619.69 392.05 1219.5
615.25 387.27 1204.6
628.31 393.49 1224.0
641.45 399.70 1243.3
638.29 395.74 1231.0
635.52 392.06 1219.5
639.39 392.50 1220.9
644.16 393.48 1224.0
644.00 391.45 1217.6
645.61 390.52 1214.7
648.11 390.13 1213.5
644.70 386.19 1201.3
643.96 383.90 1194.2
646.41 383.52 1193.0
657.59 388.29 1207.8
672.07 394.96 1228.6
663.44 388.05 1207.1
645.89 376.01 1169.6
648.26 375.63 1168.4
662.81 382.27 1189.1
684.97 393.22 1223.2
703.96 402.26 1251.3
708.85 403.20 1254.2
711.37 402.78 1252.9
715.78 403.44 1254.9
719.73 403.83 1256.2
707.82 395.36 1229.8
700.14 389.32 1211.0
703.52 389.45 1211.4
704.46 388.24 1207.6
709.77 389.43 1211.4
713.14 389.56 1211.8
716.51 389.68 1212.1
713.48 386.34 1201.7
713.86 384.87 1197.2
724.63 388.98 1210.0
731.46 390.95 1216.1
739.32 393.46 1223.9
733.70 388.80 1209.4
726.51 383.35 1192.4
736.87 387.17 1204.3
732.13 383.06 1191.5
719.74 374.99 1166.4
730.62 379.07 1179.1
741.04 382.87 1191.0
737.19 379.30 1179.9
745.60 382.04 1188.4
759.18 387.40 1205.0
770.24 391.44 1217.6
786.53 398.08 1238.3
784.72 395.55 1230.4
765.19 384.14 1194.9
755.44 377.72 1174.9
758.17 377.56 1174.4
763.53 378.71 1178.0
766.79 378.81 1178.3
770.05 378.91 1178.6
776.49 380.57 1183.8
770.19 376.00 1169.6
767.04 372.99 1160.2
790.56 382.93 1191.1
776.15 374.49 1164.9
748.23 359.61 1118.6
769.14 368.24 1145.4
798.79 380.96 1185.0
808.54 384.13 1194.9
794.43 375.99 1169.6
791.12 373.00 1160.3
813.44 382.07 1188.5
820.52 383.94 1194.3
814.46 379.67 1181.0
803.93 373.36 1161.4
801.07 370.64 1152.9
814.76 375.58 1168.3
805.21 369.80 1150.3
782.81 358.19 1114.2
795.39 362.60 1127.9
808.02 367.01 1141.6
777.56 351.89 1094.6
752.55 339.33 1055.5
761.74 342.23 1064.5
768.13 343.86 1069.6
767.76 342.45 1065.2
775.30 344.58 1071.8
778.89 344.94 1073.0
760.25 335.49 1043.6
756.94 332.84 1035.3
803.41 352.02 1095.0
819.09 357.63 1112.4
795.13 345.95 1076.1
789.49 342.30 1064.8
786.71 339.90 1057.3
775.20 333.77 1038.2
768.86 329.89 1026.2
774.69 331.25 1030.4
780.54 332.60 1034.6
770.03 327.00 1017.2
745.39 315.46 981.3
755.28 318.55 990.9
758.73 318.92 992.0
730.91 306.19 952.4
724.83 302.62 941.3
728.19 303.01 942.5
709.59 294.28 915.4
679.58 280.89 873.7
694.16 285.97 889.5
735.69 302.07 939.6
742.04 303.67 944.6
714.20 291.32 906.2
701.27 285.10 886.8
734.67 297.71 926.1
747.67 301.99 939.4
743.17 299.20 930.7
744.69 298.84 929.6
734.06 293.62 913.3
719.11 286.72 891.9
744.36 295.83 920.2
773.36 306.38 953.0
729.58 288.11 896.2
713.23 280.76 873.3
770.60 302.39 940.6
814.63 318.66 991.2
798.94 311.54 969.1
788.12 306.35 952.9
647.26 636.90 1997.3
648.48 618.32 1939.0
599.23 566.97 1777.9
582.47 546.90 1715.0
575.02 535.82 1680.3
582.39 538.60 1689.0
611.16 560.99 1759.2
615.90 561.15 1759.7
600.89 543.46 1704.2
559.98 502.76 1576.6
579.32 512.63 1607.6
624.55 548.71 1720.7
605.50 528.21 1656.4
596.42 516.62 1620.1
621.81 534.84 1677.2
615.61 525.84 1649.0
604.91 513.13 1609.1
624.88 526.44 1650.9
633.10 529.74 1661.2
641.37 533.03 1671.5
652.09 538.30 1688.1
633.01 519.07 1627.7
602.47 490.75 1538.9
593.67 480.40 1506.5
607.34 488.25 1531.1
619.69 494.95 1552.1
618.20 490.57 1538.4
596.15 470.04 1474.0
588.26 460.87 1445.2
600.24 467.27 1465.3
624.73 483.28 1515.5
627.03 482.03 1511.6
592.36 452.54 1419.1
585.13 444.26 1393.2
593.46 447.83 1404.3
602.22 451.67 1416.4
618.21 460.85 1445.2
617.24 457.35 1434.2
608.60 448.25 1405.7
594.46 435.23 1364.8
574.36 418.03 1310.9
579.58 419.34 1315.0
567.30 408.06 1279.6
580.84 410.60 1287.6
579.29 407.16 1276.8
580.48 405.68 1272.2
582.85 405.03 1270.1
581.59 401.88 1260.3
589.18 404.85 1269.6
607.77 415.31 1302.4
619.16 420.75 1319.4
621.59 420.09 1317.3
628.55 422.47 1324.8
619.40 414.05 1298.4
601.82 400.13 1254.8
617.03 408.04 1279.6
639.05 420.34 1318.1
632.18 413.61 1297.0
619.29 403.03 1263.9
624.95 404.57 1268.7
625.08 402.54 1262.3
610.62 391.18 1226.7
603.74 384.77 1206.6
611.90 387.96 1216.6
627.48 395.80 1241.2
631.84 396.51 1243.4
628.76 392.57 1231.1
632.65 393.01 1232.4
636.99 393.72 1234.7
635.58 390.88 1225.8
635.02 388.59 1218.6
644.69 392.56 1231.0
655.31 397.06 1245.1
646.19 389.61 1221.8
638.77 383.26 1201.9
655.30 391.27 1227.0
666.93 396.29 1242.7
663.54 392.38 1230.5
662.85 390.10 1223.3
669.49 392.13 1229.7
677.55 394.97 1238.6
675.90 392.15 1229.7
664.43 383.68 1203.2
674.81 387.86 1216.3
698.85 399.80 1253.7
698.08 397.52 1246.6
693.04 392.83 1231.9
689.82 389.21 1220.5
682.76 383.47 1202.5
689.94 385.74 1209.6
696.19 387.47 1215.1
703.90 390.00 1223.0
715.99 394.92 1238.4
723.29 397.16 1245.5
728.18 398.07 1248.3
715.54 389.43 1221.2
701.32 380.01 1191.7
712.50 384.38 1205.4
717.83 385.56 1209.1
713.28 381.45 1196.2
718.10 382.36 1199.1
727.90 385.91 1210.2
739.73 390.50 1224.6
744.62 391.40 1227.4
747.50 391.25 1226.9
749.88 390.83 1225.6
737.09 382.54 1199.6
727.24 375.84 1178.6
740.18 380.93 1194.6
751.65 385.22 1208.0
749.36 382.46 1199.3
757.81 385.17 1207.8
771.44 390.48 1224.5
762.93 384.59 1206.0
760.56 381.83 1197.4
769.06 384.53 1205.8
761.44 379.18 1189.1
755.85 374.88 1175.6
762.25 376.53 1180.8
765.00 376.38 1180.3
766.68 375.70 1178.2
785.26 383.28 1201.9
807.11 392.39 1230.5
801.96 388.35 1217.8
801.56 386.64 1212.4
815.57 391.85 1228.8
790.51 378.34 1186.4
759.91 362.28 1136.1
778.71 369.81 1159.7
792.19 374.77 1175.2
785.13 370.00 1160.3
792.68 372.14 1167.0
812.24 379.87 1191.2
832.98 388.10 1217.0
839.03 389.44 1221.2
812.69 375.79 1178.4
781.23 359.89 1128.6
793.21 364.05 1141.6
822.38 376.03 1179.2
820.61 373.83 1172.3
805.47 365.58 1146.4
793.57 358.86 1125.3
782.16 352.40 1105.1
789.17 354.26 1110.9
801.26 358.38 1123.8
794.24 353.95 1110.0
782.65 347.53 1089.8
779.47 344.87 1081.5
784.21 345.73 1084.2
774.74 340.33 1067.2
745.24 326.21 1023.0
745.32 325.09 1019.4
790.06 343.38 1076.8
814.33 352.69 1106.0
801.86 346.07 1085.2
795.08 341.94 1072.3
791.73 339.31 1064.0
791.82 338.17 1060.5
800.62 340.75 1068.5
791.38 335.66 1052.6
781.51 330.33 1035.9
789.71 332.65 1043.2
777.42 326.36 1023.4
766.23 320.57 1005.3
750.86 313.07 981.7
724.19 300.93 943.7
715.13 296.16 928.7
712.54 294.10 922.3
690.33 283.98 890.5
683.48 280.23 878.8
725.52 296.48 929.7
769.53 313.42 982.8
772.36 313.53 983.2
745.77 301.74 946.2
736.50 297.02 931.4
772.41 310.48 973.6
785.49 314.71 986.9
776.22 309.98 972.1
772.96 307.68 964.9
750.82 297.91 934.2
724.93 286.71 899.1
728.23 287.09 900.3
730.30 286.99 900.0
717.05 280.88 880.8
735.67 287.26 900.8
756.20 294.34 923.0
753.36 292.31 916.7
775.84 300.09 941.0
802.10 309.27 969.8
635.30 620.06 1960.4
635.77 615.59 1946.2
626.44 592.45 1873.1
595.66 559.00 1767.3
589.34 548.85 1735.2
589.68 545.01 1723.1
582.47 534.30 1689.2
599.94 546.21 1726.9
604.60 546.38 1727.4
589.83 529.11 1672.8
589.23 524.71 1658.9
595.34 526.32 1664.0
593.35 520.78 1646.5
588.66 512.98 1621.8
599.66 518.85 1640.4
619.67 532.39 1683.2
624.22 532.55 1683.7
598.58 507.13 1603.4
592.15 498.22 1575.2
615.11 514.00 1625.1
616.44 511.61 1617.5
617.05 508.65 1608.1
626.25 512.77 1621.2
609.09 495.39 1566.2
601.82 486.24 1537.3
614.46 493.18 1559.2
621.88 495.88 1567.8
628.64 498.01 1574.5
630.41 496.19 1568.8
610.93 477.78 1510.5
590.45 458.82 1450.6
591.17 456.47 1443.2
603.56 463.11 1464.2
596.91 455.14 1439.0
582.75 441.59 1396.1
592.19 445.97 1410.0
600.95 449.79 1422.0
609.00 453.04 1432.3
623.51 461.02 1457.6
619.92 455.60 1440.4
608.61 444.61 1405.7
591.39 429.46 1357.8
573.57 414.06 1309.1
582.27 417.87 1321.1
602.70 430.00 1359.5
595.90 422.68 1336.3
585.86 413.15 1306.2
589.51 413.33 1306.8
589.19 410.75 1298.6
592.42 410.65 1298.3
601.66 414.70 1311.1
607.73 416.53 1316.9
608.97 415.05 1312.2
620.75 420.73 1330.2
627.30 422.82 1336.8
624.03 418.31 1322.5
627.29 418.19 1322.2
613.99 407.10 1287.1
587.22 387.25 1224.3
594.44 389.90 1232.7
621.41 405.41 1281.7
618.66 401.47 1269.3
615.86 397.54 1256.9
632.14 405.90 1283.3
630.16 402.51 1272.6
612.28 389.05 1230.0
609.71 385.41 1218.5
622.65 391.57 1238.0
630.47 394.45 1247.1
627.42 390.54 1234.7
629.57 389.89 1232.7
639.63 394.11 1246.0
639.14 391.83 1238.8
633.30 386.31 1221.4
642.96 390.25 1233.8
663.39 400.66 1266.7
663.33 398.65 1260.4
643.42 384.79 1216.5
646.83 384.95 1217.0
674.75 399.61 1263.4
676.89 398.94 1261.3
663.48 389.15 1230.3
668.29 390.10 1233.3
679.56 394.79 1248.2
682.57 394.66 1247.8
675.83 388.92 1229.6
667.61 382.39 1209.0
682.69 389.19 1230.5
702.07 398.38 1259.5
694.25 392.12 1239.7
690.60 388.26 1227.5
687.85 384.94 1217.0
681.25 379.51 1199.8
688.90 382.03 1207.8
689.88 380.84 1204.1
692.28 380.44 1202.8
714.95 391.14 1236.6
732.90 399.17 1262.0
734.92 398.49 1259.9
718.39 387.80 1226.1
699.28 375.82 1188.2
705.05 377.26 1192.8
721.68 384.48 1215.6
728.02 386.17 1220.9
715.53 377.90 1194.8
708.41 372.53 1177.8
737.16 385.98 1220.3
758.05 395.22 1249.5
759.47 394.28 1246.6
759.37 392.55 1241.1
750.14 386.15 1220.8
743.36 381.05 1204.7
740.08 377.78 1194.4
735.23 373.74 1181.6
746.71 378.00 1195.1
771.58 388.98 1229.8
786.28 394.76 1248.1
780.39 390.19 1233.6
763.56 380.22 1202.1
757.53 375.68 1187.8
766.03 378.36 1196.2
778.73 383.09 1211.2
774.20 379.33 1199.3
765.94 373.78 1181.7
766.04 372.34 1177.2
783.57 379.35 1199.3
800.13 385.83 1219.8
790.17 379.53 1199.9
783.86 375.02 1185.7
791.94 377.41 1193.2
794.68 377.24 1192.7
793.65 375.29 1186.5
793.68 373.86 1182.0
787.20 369.38 1167.8
775.79 362.63 1146.5
777.88 362.22 1145.2
788.69 365.86 1156.7
799.54 369.48 1168.2
831.80 382.94 1210.7
832.34 381.75 1206.9
809.73 369.99 1169.8
830.62 378.12 1195.5
803.98 364.63 1152.8
749.98 338.88 1071.4
779.72 351.02 1109.8
813.51 364.88 1153.6
792.63 354.22 1119.9
790.70 352.06 1113.1
806.17 357.64 1130.7
801.97 354.49 1120.8
790.95 348.36 1101.4
788.36 345.97 1093.8
786.88 344.08 1087.9
775.13 337.73 1067.8
758.17 329.17 1040.7
774.28 334.97 1059.1
799.06 344.47 1089.1
799.23 343.33 1085.5
778.65 333.32 1053.8
766.62 327.02 1033.9
785.18 333.77 1055.2
809.03 342.72 1083.5
806.83 340.60 1076.8
786.53 330.89 1046.1
778.39 326.34 1031.7
786.01 328.40 1038.3
793.05 330.21 1044.0
800.12 332.02 1049.7
784.22 324.32 1025.4
752.29 310.07 980.3
739.74 303.87 960.7
734.83 300.84 951.1
715.03 291.75 922.4
712.40 289.71 915.9
734.83 297.84 941.6
754.34 304.73 963.4
775.73 312.34 987.5
770.15 309.07 977.2
744.68 297.87 941.7
764.33 304.73 963.4
779.82 309.90 979.8
774.77 306.89 970.3
773.32 305.32 965.3
747.53 294.19 930.1
717.96 281.64 890.4
715.75 279.88 884.9
739.82 288.37 911.7
748.04 290.64 918.9
728.64 282.20 892.2
715.30 276.16 873.1
734.59 282.71 893.8
776.81 298.02 942.2
793.80 303.59 959.8
628.94 608.81 1940.7
604.07 580.10 1849.2
639.60 609.39 1942.6
666.22 629.78 2007.6
642.37 602.53 1920.7
618.10 575.31 1833.9
619.33 572.05 1823.5
625.46 573.34 1827.6
625.05 568.66 1812.7
615.13 555.45 1770.6
594.55 532.90 1698.7
587.67 522.85 1666.7
594.76 525.30 1674.5
600.26 526.32 1677.7
598.30 520.82 1660.2
606.07 523.82 1669.8
627.72 538.68 1717.2
636.32 542.22 1728.4
630.30 533.33 1700.1
612.07 514.31 1639.5
612.12 510.80 1628.3
619.93 513.78 1637.8
606.60 499.31 1591.7
592.70 484.57 1544.7
588.62 478.01 1523.8
590.70 476.50 1519.0
599.41 480.32 1531.1
613.45 488.34 1556.7
623.00 492.70 1570.6
604.13 474.67 1513.1
584.64 456.39 1454.9
598.00 463.83 1478.6
607.85 468.47 1493.4
601.74 460.83 1469.0
608.34 462.95 1475.8
618.27 467.57 1490.5
621.61 467.17 1489.2
626.80 468.16 1492.4
629.38 467.21 1489.3
614.65 453.49 1445.6
608.42 446.17 1422.3
610.05 444.68 1417.5
604.03 437.65 1395.1
595.99 429.25 1368.3
588.21 421.14 1342.5
585.74 416.91 1329.0
595.68 421.50 1343.6
607.63 427.46 1362.6
614.55 429.83 1370.2
619.92 431.10 1374.2
620.54 429.06 1367.7
611.55 420.44 1340.2
609.65 416.77 1328.5
615.76 418.58 1334.3
617.04 417.10 1329.6
620.32 416.99 1329.3
619.52 414.15 1320.2
613.74 408.04 1300.7
614.48 406.30 1295.2
619.75 407.55 1299.2
611.30 399.82 1274.5
597.73 388.84 1239.5
605.41 391.74 1248.8
610.61 393.00 1252.8
615.81 394.25 1256.8
621.46 395.77 1261.6
608.76 385.65 1229.4
613.93 386.91 1233.3
634.20 397.61 1267.5
636.88 397.23 1266.2
634.33 393.61 1254.7
629.11 388.38 1238.0
630.39 387.19 1234.3
639.13 390.58 1245.1
637.75 387.78 1236.1
631.02 381.77 1217.0
640.23 385.41 1228.6
652.61 390.92 1246.1
643.97 383.85 1223.6
634.34 376.25 1199.4
649.03 383.08 1221.2
675.60 396.84 1265.0
674.56 394.31 1256.9
644.65 375.01 1195.4
633.32 366.66 1168.8
660.14 380.37 1212.5
679.27 389.53 1241.7
671.11 383.04 1221.0
662.40 376.30 1199.5
681.21 385.17 1227.8
703.41 395.88 1261.9
694.65 389.13 1240.4
688.64 383.99 1224.0
699.64 388.33 1237.9
705.93 390.04 1243.3
706.99 388.84 1239.5
700.35 383.45 1222.3
692.67 377.54 1203.5
705.21 382.65 1219.8
722.17 390.10 1243.5
724.15 389.43 1241.4
718.31 384.58 1225.9
709.95 378.43 1206.3
711.84 377.77 1204.2
724.55 382.84 1220.4
727.44 382.70 1219.9
711.96 372.93 1188.8
704.33 367.34 1171.0
734.57 381.47 1216.0
752.46 389.09 1240.3
749.34 385.83 1229.9
758.27 388.78 1239.3
756.62 386.29 1231.4
751.89 382.26 1218.5
749.14 379.27 1209.0
751.46 378.86 1207.7
770.16 386.68 1232.6
773.54 386.77 1232.9
767.13 381.99 1217.7
782.88 388.23 1237.6
789.38 389.86 1242.7
777.69 382.52 1219.4
780.00 382.10 1218.0
801.12 390.87 1246.0
807.13 392.22 1250.3
788.44 381.60 1216.4
778.58 375.33 1196.5
783.99 376.44 1200.0
787.82 376.78 1201.1
790.05 376.36 1199.7
796.55 377.97 1204.9
800.92 378.56 1206.7
798.86 376.12 1199.0
792.46 371.66 1184.7
786.01 367.21 1170.6
788.15 366.80 1169.2
785.96 364.37 1161.5
787.53 363.71 1159.4
797.83 367.06 1170.1
811.98 372.16 1186.3
847.03 386.76 1232.9
867.40 394.57 1257.8
865.27 392.12 1250.0
839.34 378.95 1208.0
769.49 346.13 1103.4
731.48 327.81 1045.0
774.00 345.59 1101.6
807.79 359.35 1145.5
788.00 349.26 1113.3
781.56 345.14 1100.2
793.08 348.95 1112.4
787.71 345.34 1100.8
777.79 339.76 1083.0
771.20 335.66 1070.0
765.69 332.07 1058.6
785.77 339.56 1082.4
802.50 345.56 1101.6
779.25 334.36 1065.8
762.75 326.12 1039.6
765.13 325.99 1039.2
749.65 318.27 1014.6
739.85 313.01 997.8
757.78 319.48 1018.4
786.80 330.57 1053.8
794.43 332.62 1060.3
778.76 324.93 1035.8
779.36 324.06 1033.0
782.29 324.17 1033.4
786.98 325.00 1036.0
783.45 322.44 1027.8
762.79 312.87 997.3
759.15 310.33 989.2
772.66 314.79 1003.5
755.36 306.71 977.7
721.32 291.91 930.5
720.49 290.60 926.3
745.33 299.62 955.1
755.90 302.86 965.4
772.50 308.49 983.4
786.75 313.15 998.2
780.57 309.67 987.1
782.80 309.54 986.7
784.42 309.17 985.5
774.53 304.28 970.0
763.36 298.92 952.9
757.61 295.71 942.7
743.91 289.43 922.6
737.46 286.00 911.7
758.53 293.24 934.8
780.90 300.92 959.3
771.39 296.31 944.6
757.51 290.06 924.6
789.23 301.25 960.3
799.43 304.18 969.7
773.72 293.48 935.5
658.92 632.57 2033.3
656.29 625.03 2009.0
654.73 618.64 1988.5
645.52 605.18 1945.2
658.92 612.95 1970.2
664.47 613.36 1971.5
635.47 582.11 1871.1
617.80 561.64 1805.3
620.15 559.54 1798.5
612.39 548.41 1762.7
595.90 529.69 1702.6
593.16 523.38 1682.3
606.39 531.15 1707.3
617.79 537.21 1726.7
624.40 539.05 1732.7
640.53 549.02 1764.7
641.97 546.36 1756.2
632.43 534.45 1717.9
636.72 534.31 1717.4
627.91 523.26 1681.9
617.25 510.83 1641.9
615.24 505.68 1625.4
609.73 497.74 1599.9
603.41 489.25 1572.6
596.96 480.78 1545.4
597.01 477.60 1535.2
602.25 478.61 1538.4
612.08 483.22 1553.2
600.73 471.16 1514.4
566.04 441.07 1417.7
563.08 433.14 1392.2
589.76 450.77 1448.9
600.67 456.21 1466.4
599.20 452.23 1453.6
601.73 451.29 1450.6
623.49 464.71 1493.7
646.18 478.65 1538.5
637.64 469.42 1508.9
612.78 448.38 1441.2
598.97 435.61 1400.2
594.86 430.02 1382.2
601.74 432.39 1389.8
605.96 432.83 1391.2
608.65 432.18 1389.1
616.75 435.35 1399.4
612.81 430.04 1382.3
610.36 425.83 1368.8
620.06 430.10 1382.5
628.22 433.26 1392.6
616.16 422.51 1358.1
593.56 404.70 1300.8
598.39 405.69 1304.0
610.90 411.84 1323.8
609.32 408.48 1313.0
610.53 407.02 1308.3
618.26 409.90 1317.5
620.28 408.98 1314.6
619.81 406.43 1306.4
624.27 407.13 1308.6
626.66 406.48 1306.6
623.19 402.06 1292.3
613.76 393.86 1266.0
602.12 384.33 1235.3
619.58 393.38 1264.4
638.01 402.95 1295.2
620.24 389.68 1252.5
620.31 387.70 1246.2
638.03 396.70 1275.1
638.12 394.72 1268.7
646.01 397.54 1277.8
651.75 399.03 1282.6
649.18 395.44 1271.0
656.24 397.72 1278.4
642.99 387.74 1246.3
624.29 374.58 1204.0
632.14 377.40 1213.1
642.26 381.54 1226.4
643.90 380.63 1223.5
644.18 378.93 1218.0
642.62 376.17 1209.1
652.38 380.02 1221.5
664.46 385.20 1238.1
647.77 373.72 1201.2
627.26 360.15 1157.6
646.22 369.27 1186.9
672.26 382.33 1228.9
670.57 379.57 1220.0
666.99 375.77 1207.8
690.97 387.46 1245.4
715.57 399.39 1283.7
710.14 394.52 1268.1
692.34 382.86 1230.6
692.44 381.16 1225.2
702.52 384.94 1237.3
706.43 385.33 1238.6
703.63 382.06 1228.0
699.81 378.28 1215.9
709.48 381.78 1227.2
724.04 387.88 1246.7
724.07 386.17 1241.3
717.25 380.84 1224.1
715.25 378.11 1215.3
723.54 380.81 1224.0
726.44 380.67 1223.6
720.92 376.13 1209.0
723.28 375.73 1207.7
735.10 380.22 1222.1
744.97 383.68 1233.2
742.86 380.95 1224.5
735.67 375.66 1207.5
740.53 376.54 1210.3
744.89 377.16 1212.3
744.69 375.47 1206.9
753.12 378.13 1215.4
766.17 383.09 1231.4
763.41 380.12 1221.8
744.15 369.00 1186.1
746.41 368.60 1184.8
770.38 378.88 1217.8
780.47 382.27 1228.7
771.87 376.52 1210.2
778.85 378.39 1216.2
804.69 389.36 1251.5
825.40 397.79 1278.6
823.07 395.07 1269.9
791.14 378.23 1215.7
773.82 368.49 1184.4
786.65 373.11 1199.3
797.39 376.72 1210.9
802.31 377.56 1213.6
804.55 377.13 1212.2
797.13 372.20 1196.4
784.26 364.77 1172.5
792.36 367.11 1180.0
809.13 373.45 1200.4
816.76 375.52 1207.0
830.39 380.33 1222.5
835.89 381.39 1225.9
845.23 384.19 1234.9
850.21 385.00 1237.5
841.45 379.60 1220.1
840.90 377.93 1214.8
816.55 365.62 1175.2
795.93 355.06 1141.3
806.87 358.61 1152.7
794.45 351.79 1130.7
767.98 338.82 1089.1
761.52 334.74 1075.9
769.05 336.81 1082.6
774.34 337.90 1086.1
764.42 332.36 1068.3
765.74 331.73 1066.3
772.72 333.55 1072.1
755.84 325.09 1044.9
762.23 326.67 1050.0
792.62 338.49 1088.0
783.64 333.46 1071.9
780.92 331.13 1064.4
798.87 337.55 1085.0
778.84 327.93 1054.1
766.22 321.49 1033.4
768.00 321.11 1032.2
778.48 324.37 1042.6
791.33 328.58 1056.1
783.80 324.33 1042.5
772.72 318.65 1024.2
764.51 314.18 1009.9
755.66 309.48 994.8
738.51 301.43 968.9
767.87 312.35 1004.0
819.81 332.35 1068.3
809.17 326.94 1050.9
765.81 308.38 991.2
716.31 287.48 924.1
699.97 279.99 900.0
746.28 297.52 956.3
787.99 313.11 1006.4
772.26 305.85 983.1
753.44 297.41 956.0
758.64 298.48 959.4
769.28 301.68 969.7
787.21 307.70 989.0
792.47 308.75 992.4
773.44 300.36 965.5
766.49 296.71 953.7
750.35 289.53 930.6
742.08 285.42 917.4
733.77 281.32 904.2
726.03 277.46 891.8
756.98 288.37 926.9
784.35 297.86 957.4
813.67 308.01 990.0
819.59 309.28 994.1
789.57 297.02 954.7
648.26 607.43 1968.9
635.07 590.42 1913.7
647.79 597.58 1936.9
652.56 592.79 1921.4
623.19 561.81 1821.0
618.37 553.28 1793.3
615.31 546.44 1771.2
602.32 530.93 1720.9
599.94 524.95 1701.5
613.54 532.93 1727.4
612.37 528.06 1711.6
605.92 518.74 1681.4
606.87 515.84 1672.0
595.56 502.64 1629.2
587.04 491.96 1594.6
591.05 491.86 1594.3
607.15 501.74 1626.3
620.69 509.40 1651.1
612.92 499.57 1619.2
602.25 487.54 1580.3
606.90 487.98 1581.7
611.20 488.14 1582.2
609.93 483.88 1568.4
613.85 483.76 1568.0
606.84 475.09 1539.9
579.85 450.99 1461.8
581.02 448.97 1455.2
599.01 459.88 1490.6
580.74 443.00 1435.9
574.91 435.76 1412.4
600.69 452.42 1466.4
612.78 458.62 1486.5
598.42 445.08 1442.6
604.24 446.62 1447.6
616.79 453.07 1468.5
598.72 437.10 1416.8
591.71 429.35 1391.7
595.56 429.53 1392.2
594.47 426.15 1381.3
604.03 430.41 1395.1
615.95 436.30 1414.2
626.41 441.08 1429.7
625.67 437.97 1419.6
612.41 426.18 1381.4
605.25 418.75 1357.3
610.99 420.27 1362.2
611.99 418.54 1356.6
593.07 403.29 1307.2
585.93 396.17 1284.1
605.19 406.88 1318.8
625.40 418.10 1355.2
629.96 418.80 1357.5
618.23 408.72 1324.8
613.73 403.50 1307.9
612.85 400.71 1298.8
609.45 396.31 1284.6
619.68 400.77 1299.0
627.88 403.88 1309.1
624.40 399.48 1294.8
614.55 391.08 1267.6
604.59 382.69 1240.4
625.46 393.81 1276.5
653.30 409.17 1326.2
644.13 401.32 1300.8
629.28 390.02 1264.2
632.38 389.91 1263.8
638.50 391.66 1269.5
653.35 398.71 1292.3
668.73 406.02 1316.0
675.88 408.27 1323.3
671.16 403.37 1307.4
645.58 386.05 1251.3
629.99 374.84 1215.0
640.98 379.49 1230.0
654.72 385.70 1250.2
658.21 385.85 1250.6
656.73 383.09 1241.7
653.86 379.56 1230.3
650.94 376.03 1218.8
651.16 374.34 1213.3
654.10 374.22 1213.0
653.83 372.27 1206.7
658.14 372.94 1208.8
669.86 377.79 1224.5
673.28 377.93 1225.0
673.43 376.24 1219.5
681.99 379.24 1229.2
692.47 383.27 1242.3
699.22 385.22 1248.6
694.16 380.67 1233.9
691.88 377.68 1224.2
701.49 381.17 1235.5
705.40 381.56 1236.7
704.02 379.09 1228.7
702.61 376.63 1220.8
715.20 381.65 1237.0
736.09 391.05 1267.5
741.52 392.18 1271.2
729.86 384.31 1245.7
723.00 379.02 1228.5
726.40 379.13 1228.9
725.36 376.93 1221.8
733.69 379.61 1230.4
750.50 386.62 1253.2
737.00 378.03 1225.3
722.38 368.94 1195.9
735.74 374.16 1212.8
743.12 376.30 1219.7
742.45 374.37 1213.4
741.75 372.44 1207.2
741.03 370.51 1200.9
748.94 372.90 1208.7
748.19 370.98 1202.4
731.01 360.96 1170.0
735.81 361.83 1172.8
762.29 373.30 1210.0
767.69 374.41 1213.6
758.06 368.20 1193.4
745.74 360.75 1169.3
748.47 360.60 1168.8
773.18 371.00 1202.5
793.29 379.12 1228.9
799.81 380.71 1234.0
777.83 368.77 1195.3
779.00 367.86 1192.3
810.96 381.44 1236.4
811.13 380.02 1231.7
804.86 375.60 1217.4
814.08 378.42 1226.6
813.66 376.75 1221.2
805.67 371.61 1204.5
818.15 375.91 1218.4
835.54 382.42 1239.5
844.33 384.96 1247.8
843.88 383.29 1242.4
833.04 376.93 1221.7
824.32 371.57 1204.4
812.78 364.98 1183.0
819.32 366.54 1188.1
834.15 371.78 1205.0
836.32 371.35 1203.7
841.26 372.16 1206.3
834.52 367.81 1192.2
803.77 352.95 1144.0
796.31 348.39 1129.2
806.72 351.65 1139.8
801.45 348.07 1128.2
794.44 343.77 1114.3
782.30 337.29 1093.3
781.96 335.93 1088.9
777.64 332.87 1078.9
753.38 321.33 1041.5
753.49 320.23 1038.0
777.02 329.06 1066.6
779.45 328.92 1066.1
790.49 332.40 1077.4
821.70 344.30 1116.0
815.56 340.53 1103.8
797.81 331.96 1076.0
793.29 328.92 1066.1
765.50 316.30 1025.2
741.06 305.14 989.1
763.18 313.17 1015.1
780.11 319.02 1034.0
765.46 311.95 1011.1
747.80 303.71 984.4
741.81 300.26 973.2
781.22 315.14 1021.5
814.88 327.60 1061.9
785.25 314.63 1019.8
775.09 309.51 1003.2
755.34 300.62 974.4
733.70 291.04 943.3
783.70 309.83 1004.3
794.95 313.24 1015.3
744.41 292.36 947.6
729.13 285.42 925.1
734.28 286.49 928.6
738.22 287.09 930.5
751.86 291.44 944.6
778.28 300.70 974.7
780.48 300.57 974.2
769.89 295.54 957.9
751.31 287.48 931.8
763.83 291.33 944.3
769.65 292.61 948.4
742.32 281.33 911.9
759.79 287.03 930.4
800.12 301.31 976.6
833.80 313.01 1014.5
832.33 311.47 1009.6
799.84 298.37 967.1
645.87 614.62 2009.1
639.38 603.57 1972.9
622.27 582.77 1904.9
600.94 558.36 1825.1
591.63 545.41 1782.8
594.61 543.90 1777.9
604.61 548.80 1793.9
633.53 570.66 1865.4
645.37 576.92 1885.8
633.18 561.77 1836.3
624.23 549.69 1796.8
613.19 535.97 1752.0
611.83 530.86 1735.2
612.98 527.96 1725.8
598.85 512.06 1673.8
576.02 488.99 1598.4
563.98 475.35 1553.8
569.88 476.92 1558.9
576.47 479.04 1565.9
580.41 478.94 1565.5
595.78 488.21 1595.8
619.74 504.34 1648.6
622.50 503.12 1644.6
608.80 488.70 1597.4
610.39 486.66 1590.8
608.82 482.15 1576.0
602.30 473.81 1548.8
608.98 475.89 1555.6
604.76 469.48 1534.6
594.40 458.43 1498.5
613.49 470.08 1536.6
623.42 474.60 1551.4
595.90 450.74 1473.4
585.80 440.28 1439.2
607.27 453.53 1482.5
634.80 471.11 1539.9
634.57 467.99 1529.8
612.78 449.12 1468.1
600.03 437.06 1428.6
596.85 432.07 1412.3
604.14 434.68 1420.9
619.41 442.97 1448.0
629.09 447.18 1461.7
633.47 447.60 1463.1
641.32 450.45 1472.4
639.55 446.55 1459.7
626.84 435.10 1422.2
620.21 427.98 1399.0
618.96 424.64 1388.0
597.56 407.59 1332.3
573.54 388.96 1271.4
583.48 393.43 1286.0
604.68 405.41 1325.2
615.20 410.13 1340.6
625.78 414.84 1356.0
644.94 425.16 1389.7
646.73 423.97 1385.8
628.84 409.96 1340.1
616.51 399.72 1306.6
609.41 392.95 1284.5
615.90 394.98 1291.1
633.26 403.91 1320.3
639.01 405.39 1325.1
622.49 392.80 1284.0
604.53 379.44 1240.3
605.89 378.28 1236.5
615.34 382.16 1249.2
635.96 392.90 1284.3
652.00 400.71 1309.8
643.97 393.72 1287.0
639.31 388.86 1271.1
653.74 395.60 1293.1
669.56 403.10 1317.7
663.55 397.45 1299.2
645.99 384.99 1258.4
639.77 379.36 1240.0
642.35 378.99 1238.8
641.80 376.78 1231.6
643.46 375.88 1228.7
654.55 380.47 1243.7
658.92 381.14 1245.9
659.22 379.45 1240.3
659.95 378.03 1235.7
653.36 372.45 1217.4
648.98 368.17 1203.5
649.60 366.76 1198.9
654.82 367.95 1202.7
672.56 376.13 1229.5
680.65 378.85 1238.4
674.75 373.81 1221.9
677.23 373.42 1220.6
681.57 374.07 1222.8
683.57 373.43 1220.7
688.86 374.59 1224.4
695.60 376.52 1230.7
712.38 383.84 1254.7
724.47 388.58 1270.2
711.62 379.96 1242.0
700.11 372.13 1216.4
715.59 378.66 1237.7
739.41 389.51 1273.2
746.80 391.66 1280.2
737.11 384.86 1258.0
728.80 378.85 1238.4
732.21 378.95 1238.7
730.20 376.26 1229.9
737.56 378.40 1236.9
758.86 387.64 1267.1
748.37 380.64 1244.2
731.78 370.60 1211.4
745.67 376.02 1229.1
764.16 383.71 1254.3
773.15 386.58 1263.6
758.37 377.58 1234.2
742.95 368.36 1204.1
752.40 371.48 1214.3
753.19 370.32 1210.5
747.82 366.15 1196.9
766.56 373.78 1221.8
771.98 374.87 1225.4
756.19 365.70 1195.4
765.73 368.80 1205.5
770.61 369.64 1208.3
761.40 363.75 1189.0
774.11 368.33 1204.0
775.32 367.42 1201.0
