ply
format ascii 1.0
element vertex 2235
property float x
property float y
property float z
end_header
-177.29 354.59 1590.3
-174.70 357.71 1604.3
-165.11 346.33 1553.3
-162.03 348.37 1562.5
-164.60 362.97 1627.9
-160.21 382.73 1716.6
-145.12 356.59 1599.3
-140.49 355.37 1593.8
-139.39 363.25 1629.2
-127.36 342.28 1535.2
-119.10 330.42 1481.9
-117.48 336.78 1510.5
-112.93 334.89 1502.0
-111.88 343.63 1541.2
-106.40 338.91 1520.0
-96.57 319.43 1432.6
-94.89 326.43 1464.1
-104.02 372.75 1671.8
-105.28 393.66 1765.6
-93.49 365.47 1639.2
-82.83 339.23 1521.4
-82.69 355.57 1594.8
-84.09 380.61 1707.1
-78.94 377.18 1691.7
-71.47 361.57 1621.6
-66.10 355.30 1593.5
-65.88 377.73 1694.2
-63.59 390.60 1751.9
-55.33 366.06 1641.8
-51.51 369.13 1655.6
-38.30 365.94 1641.3
-30.98 380.56 1706.8
-29.21 418.65 1877.7
-24.64 423.89 1901.2
-19.41 417.37 1871.9
-14.55 417.16 1871.0
-9.63 414.12 1857.4
-4.66 400.42 1795.9
0.00 398.03 1785.2
4.89 420.44 1885.7
9.93 427.18 1915.9
14.93 428.04 1919.8
20.47 440.00 1973.4
25.04 430.63 1931.4
29.00 415.61 1864.0
34.55 424.51 1903.9
40.40 434.28 1947.8
45.74 437.08 1960.3
52.19 448.81 2012.9
57.12 446.60 2003.0
59.88 429.17 1924.8
64.61 427.39 1916.9
71.84 441.27 1979.1
80.83 463.41 2078.4
98.42 470.22 2109.0
100.94 456.91 2049.3
101.39 435.99 1955.4
106.87 437.67 1963.0
116.62 455.86 2044.6
-470.80 412.56 1872.1
-460.23 411.78 1868.6
-473.24 427.93 1941.9
-471.64 435.75 1977.4
-449.48 419.84 1905.2
-439.01 414.62 1881.5
-418.10 399.31 1812.0
-396.45 382.93 1737.7
-384.62 375.78 1705.2
-372.96 368.62 1672.7
-366.92 366.92 1665.0
-370.90 375.32 1703.1
-370.99 379.93 1724.1
-355.12 368.12 1670.4
-339.52 356.28 1616.8
-343.63 365.11 1656.8
-345.58 371.83 1687.3
-334.79 364.83 1655.5
-324.72 358.46 1626.6
-314.80 352.08 1597.7
-311.36 352.87 1601.3
-309.01 354.94 1610.7
-298.06 347.06 1574.9
-290.71 343.19 1557.4
-292.10 349.70 1586.9
-289.34 351.34 1594.3
-280.16 345.13 1566.1
-280.29 350.37 1589.9
-277.63 352.21 1598.3
-268.82 346.20 1571.0
-265.66 347.41 1576.5
-266.96 354.56 1608.9
-270.61 365.11 1656.8
-259.60 355.90 1615.0
-245.74 342.42 1553.9
-244.81 346.81 1573.8
-241.85 348.43 1581.1
-235.08 344.51 1563.3
-228.82 341.23 1548.4
-223.76 339.64 1541.2
-222.88 344.45 1563.1
-222.83 350.75 1591.6
-221.84 355.78 1614.4
-222.81 364.21 1652.7
-212.75 361.67 1641.2
-201.54 349.61 1586.5
-197.25 349.29 1585.0
-194.26 351.32 1594.2
-189.60 350.36 1589.8
-182.03 343.83 1560.2
-169.51 327.46 1485.9
-165.92 327.97 1488.3
-168.23 340.47 1545.0
-164.07 340.14 1543.5
-163.63 347.72 1577.9
-168.82 367.94 1669.6
-160.03 377.84 1714.6
-148.20 359.92 1633.3
-140.48 351.21 1593.7
-135.55 349.14 1584.3
-129.13 342.99 1556.4
-126.45 346.71 1573.3
-121.41 343.99 1560.9
-113.79 333.53 1513.5
-112.01 340.03 1543.0
-107.35 337.95 1533.5
-94.32 308.37 1399.3
-89.20 303.27 1376.2
-99.11 351.00 1592.8
-101.27 374.26 1698.3
-97.05 374.95 1701.5
-92.22 373.29 1693.9
-80.76 343.25 1557.6
-73.61 329.32 1494.4
-74.43 351.50 1595.0
-71.68 358.42 1626.4
-65.85 349.85 1587.6
-64.71 366.66 1663.8
-63.90 387.99 1760.6
-57.17 373.83 1696.4
-50.26 356.00 1615.5
-50.00 386.36 1753.2
-42.96 405.77 1841.3
-34.22 363.62 1650.1
-31.26 379.57 1722.4
-29.00 410.78 1864.1
-24.22 411.66 1868.0
-19.06 405.00 1837.8
-14.29 405.01 1837.8
-9.50 403.94 1833.0
-4.61 392.11 1779.3
4.64 394.69 1791.0
9.90 420.72 1909.2
15.49 438.79 1991.2
20.56 436.85 1982.3
24.44 415.53 1885.6
28.71 406.69 1845.5
34.68 421.09 1910.8
40.74 432.91 1964.5
46.45 438.69 1990.7
52.49 446.20 2024.8
57.04 440.79 2000.2
59.19 419.24 1902.5
63.06 412.33 1871.1
69.57 422.40 1916.8
77.46 438.92 1991.7
87.71 465.97 2114.5
94.47 472.37 2143.5
96.79 457.06 2074.0
98.93 442.60 2008.4
104.33 443.40 2012.1
115.96 469.35 2129.8
-472.84 413.73 1899.8
-476.61 421.42 1935.1
-482.98 431.60 1981.8
-454.63 415.09 1906.0
-440.28 406.41 1866.2
-435.46 406.43 1866.2
-418.76 395.23 1814.8
-401.00 382.78 1757.6
-390.85 377.37 1732.8
-380.17 371.33 1705.1
-378.27 373.82 1716.5
-385.46 385.46 1770.0
-375.92 380.45 1747.0
-352.66 361.27 1658.9
-341.30 353.94 1625.3
-347.78 365.17 1676.8
-353.02 375.37 1723.6
-346.20 372.83 1712.0
-336.38 366.96 1685.0
-326.30 360.65 1656.1
-318.80 357.06 1639.6
-312.67 354.92 1629.7
-306.59 352.78 1619.9
-303.42 353.99 1625.5
-296.15 350.38 1608.9
-284.77 341.73 1569.2
-278.25 338.73 1555.4
-280.44 346.43 1590.7
-285.47 357.90 1643.4
-284.79 362.46 1664.3
-275.55 356.10 1635.1
-270.62 355.19 1631.0
-266.97 355.96 1634.5
-249.65 338.23 1553.1
-236.71 325.96 1496.7
-236.07 330.50 1517.6
-233.26 332.09 1524.9
-226.63 328.22 1507.1
-228.37 336.55 1545.4
-232.17 348.26 1599.1
-227.14 346.90 1592.9
-222.81 346.60 1591.5
-221.82 351.57 1614.3
-221.89 358.43 1645.9
-216.03 355.81 1633.8
-201.68 338.82 1555.8
-195.37 334.92 1537.9
-195.54 342.20 1571.3
-194.13 346.95 1593.1
-191.33 349.38 1604.3
-188.13 351.17 1612.5
-181.23 345.98 1588.7
-166.01 324.29 1489.1
-154.57 309.14 1419.5
-154.44 316.42 1452.9
-157.57 330.90 1519.4
-155.54 335.00 1538.3
-150.34 332.33 1526.0
-155.75 353.60 1623.7
-156.21 364.49 1673.7
-146.78 352.28 1617.6
-140.90 348.11 1598.5
-138.62 352.85 1620.2
-134.93 354.20 1626.4
-129.49 350.87 1611.2
-123.14 344.79 1583.2
-115.83 335.52 1540.6
-113.35 340.04 1561.4
-110.41 343.49 1577.3
-99.57 321.68 1477.1
-95.88 322.16 1479.3
-103.77 363.20 1667.8
-106.27 388.11 1782.1
-103.28 394.33 1810.7
-96.79 387.16 1777.8
-83.08 348.95 1602.3
-75.57 334.12 1534.2
-75.98 354.57 1628.1
-76.20 376.50 1728.8
-72.94 382.92 1758.3
-69.18 387.42 1779.0
-65.89 395.33 1815.3
-60.07 388.13 1782.2
-53.81 376.68 1729.6
-50.05 382.24 1755.2
-47.63 400.13 1837.3
-43.10 402.28 1847.2
-36.63 384.65 1766.2
-31.54 378.49 1738.0
-27.77 388.72 1785.0
-23.63 397.03 1823.1
-18.99 398.75 1831.0
-14.13 395.78 1817.3
-9.33 391.95 1799.8
-4.75 398.98 1832.1
0.00 404.51 1857.5
4.72 396.85 1822.3
9.56 401.32 1842.8
14.86 416.21 1911.1
19.63 412.15 1892.5
24.54 412.35 1893.5
30.43 425.96 1955.9
35.78 429.34 1971.5
40.99 430.39 1976.3
45.11 421.00 1933.2
49.20 413.32 1897.9
56.46 431.16 1979.8
62.23 435.59 2000.2
65.60 423.86 1946.3
71.35 428.08 1965.7
74.54 417.41 1916.7
78.61 412.69 1895.0
90.40 446.66 2051.0
99.62 464.89 2134.7
103.60 458.03 2103.2
111.67 469.03 2153.7
-473.55 409.43 1902.7
-464.44 405.78 1885.7
-465.38 410.92 1909.6
-460.23 410.75 1908.8
-438.51 395.61 1838.5
-426.12 388.66 1806.2
-425.23 392.15 1822.4
-412.81 384.98 1789.1
-399.69 376.98 1751.9
-393.20 375.12 1743.3
-388.68 375.12 1743.2
-390.89 381.69 1773.8
-386.70 382.09 1775.6
-367.88 367.88 1709.6
-357.93 362.30 1683.7
-356.76 365.57 1698.9
-352.33 365.55 1698.8
-347.71 365.31 1697.7
-335.13 356.62 1657.3
-321.61 346.67 1611.0
-316.83 346.01 1608.0
-314.30 347.82 1616.4
-313.02 351.09 1631.6
-311.47 354.14 1645.8
-303.22 349.54 1624.4
-290.99 340.17 1580.8
-286.15 339.29 1576.7
-285.63 343.58 1596.7
-279.57 341.24 1585.8
-276.41 342.42 1591.3
-279.00 350.86 1630.5
-273.58 349.34 1623.5
-262.76 340.76 1583.6
-252.92 333.21 1548.5
-246.83 330.43 1535.6
-245.08 333.47 1549.7
-238.90 330.48 1535.8
-230.57 324.36 1507.4
-226.31 323.85 1505.0
-230.06 335.01 1556.8
-232.43 344.50 1600.9
-226.84 342.33 1590.8
-222.12 341.40 1586.6
-220.47 345.27 1604.5
-211.29 337.25 1567.3
-196.01 319.00 1482.5
-190.09 315.56 1466.4
-193.01 326.93 1519.3
-193.96 335.38 1558.6
-193.76 342.17 1590.1
-187.37 338.09 1571.1
-180.41 332.75 1546.3
-176.45 332.85 1546.8
-164.90 318.30 1479.2
-156.45 309.18 1436.8
-158.35 320.56 1489.7
-158.86 329.64 1531.9
-154.73 329.31 1530.3
-147.16 321.43 1493.7
-148.08 332.19 1543.7
-151.38 349.03 1622.0
-145.98 346.17 1608.7
-139.69 341.01 1584.7
-136.94 344.43 1600.6
-131.77 341.78 1588.3
-124.86 334.30 1553.5
-125.25 346.53 1610.4
-124.25 355.62 1652.6
-118.71 351.90 1635.4
-112.52 345.88 1607.4
-110.60 353.08 1640.8
-113.89 378.12 1757.2
-107.83 372.93 1733.1
-98.76 356.39 1656.2
-94.20 355.39 1651.6
-86.80 343.05 1594.2
-83.84 347.93 1616.9
-84.56 369.40 1716.7
-82.08 378.48 1758.9
-80.24 391.77 1820.6
-76.99 399.37 1856.0
-66.53 394.41 1832.9
-58.26 371.94 1728.5
-54.63 377.86 1756.0
-52.84 398.71 1852.9
-48.29 400.84 1862.7
-42.19 389.08 1808.1
-36.63 380.06 1766.2
-32.13 380.92 1770.2
-27.84 385.14 1789.8
-23.37 387.89 1802.6
-19.08 395.90 1839.8
-14.44 399.48 1856.5
-9.56 396.54 1842.8
-4.86 403.49 1875.1
0.00 403.07 1873.1
4.70 390.23 1813.5
9.60 398.22 1850.6
15.04 416.10 1933.7
20.15 418.19 1943.4
25.60 424.91 1974.6
31.14 430.79 2001.9
35.99 426.77 1983.3
40.61 421.28 1957.8
43.99 405.70 1885.3
48.80 405.04 1882.3
57.10 430.88 2002.4
64.45 445.78 2071.6
69.85 445.95 2072.4
75.21 445.91 2072.2
77.84 430.74 2001.7
80.72 418.71 1945.8
90.96 444.10 2063.8
98.72 455.19 2115.3
100.82 440.42 2046.7
-465.15 405.77 1908.7
-462.07 407.42 1916.4
-442.82 394.69 1856.5
-429.26 386.80 1819.5
-427.67 389.65 1832.9
-417.64 384.79 1810.0
-406.20 378.51 1780.4
-394.05 371.40 1747.0
-385.25 367.33 1727.9
-374.65 361.43 1700.1
-359.18 350.63 1649.3
-347.47 343.28 1614.7
-343.66 343.66 1616.5
-341.85 346.07 1627.9
-337.60 346.04 1627.7
-337.87 350.70 1649.6
-330.26 347.20 1633.2
-315.45 335.93 1580.2
-309.80 334.26 1572.3
-310.72 339.72 1598.0
-313.18 347.03 1632.4
-310.18 348.42 1638.9
-300.50 342.23 1609.8
-285.65 329.90 1551.8
-277.90 325.54 1531.3
-282.84 336.13 1581.1
-281.75 339.76 1598.2
-273.37 334.57 1573.8
-270.72 336.35 1582.1
-267.38 337.31 1586.7
-258.73 331.49 1559.3
-253.52 329.98 1552.2
-252.08 333.40 1568.3
-251.93 338.67 1593.0
-247.90 338.79 1593.6
-239.57 332.96 1566.2
-235.59 333.08 1566.8
-230.61 331.76 1560.5
-224.26 328.38 1544.6
-220.33 328.49 1545.2
-217.76 330.67 1555.4
-215.66 333.66 1569.5
-206.17 325.12 1529.3
-195.47 314.29 1478.4
-194.22 318.52 1498.3
-189.90 317.79 1494.8
-183.54 313.55 1474.9
-187.35 326.86 1537.5
-185.73 331.09 1557.4
-177.89 324.16 1524.8
-172.55 321.57 1512.6
-166.83 318.14 1496.5
-164.58 321.33 1511.5
-166.40 332.79 1565.4
-167.73 343.84 1617.4
-162.39 341.44 1606.1
-153.47 331.18 1557.8
-149.10 330.43 1554.3
-146.10 332.78 1565.4
-143.14 335.35 1577.4
-139.51 336.46 1582.6
-139.93 347.72 1635.6
-137.91 353.39 1662.3
-129.31 342.05 1609.0
-126.61 346.06 1627.8
-120.72 341.36 1605.7
-110.63 323.99 1524.0
-112.23 340.86 1603.3
-117.96 372.04 1750.0
-115.53 378.95 1782.5
-104.73 357.84 1683.2
-94.68 337.55 1587.8
-89.52 333.65 1569.4
-85.41 333.49 1568.7
-84.59 346.82 1631.4
-84.51 364.73 1715.6
-81.94 373.29 1755.9
-72.62 350.27 1647.6
-66.82 365.30 1718.3
-67.73 396.72 1866.1
-57.23 361.01 1698.1
-51.86 354.38 1667.0
-51.03 380.39 1789.3
-47.46 389.15 1830.5
-41.96 382.31 1798.3
-36.83 377.55 1775.9
-32.21 377.36 1775.0
-27.90 381.33 1793.7
-23.66 387.99 1825.1
-19.45 398.82 1876.0
-14.80 404.44 1902.4
-9.84 403.62 1898.5
-4.89 400.92 1885.8
0.00 391.56 1841.8
4.69 384.49 1808.6
9.71 398.21 1873.1
15.31 418.58 1968.9
20.59 422.11 1985.5
25.45 417.31 1963.0
30.17 412.31 1939.4
35.21 412.50 1940.3
40.08 410.82 1932.4
45.22 412.04 1938.2
52.30 428.85 2017.3
58.47 435.89 2050.4
63.18 431.70 2030.7
68.86 434.37 2043.2
74.58 436.83 2054.8
79.79 436.16 2051.6
85.83 439.86 2069.0
92.90 448.12 2107.9
96.12 437.89 2059.8
96.88 418.11 1966.7
107.59 441.11 2074.9
122.55 456.77 2148.6
121.64 433.66 2039.9
-457.26 394.02 1876.3
-445.76 388.25 1848.8
-444.63 391.47 1864.1
-445.89 396.89 1890.0
-438.34 394.51 1878.6
-424.24 386.10 1838.6
-408.15 375.68 1789.0
-391.87 364.85 1737.4
-374.14 352.39 1678.1
-355.44 338.71 1612.9
-356.03 343.31 1634.8
-358.56 349.92 1666.3
-346.68 342.46 1630.7
-338.20 338.20 1610.5
-326.04 330.11 1572.0
-319.37 327.45 1559.3
-326.93 339.51 1616.7
-326.16 343.10 1633.8
-319.99 341.04 1624.0
-320.41 346.05 1647.8
-317.95 348.02 1657.3
-310.15 344.14 1638.8
-303.53 341.47 1626.0
-291.29 332.32 1582.5
-281.54 325.78 1551.4
-284.19 333.62 1588.7
-287.00 341.86 1627.9
-282.39 341.40 1625.7
-273.50 335.66 1598.4
-264.26 329.31 1568.2
-254.37 321.94 1533.0
-247.66 318.41 1516.3
-247.86 323.82 1542.0
-249.16 330.85 1575.5
-250.28 337.88 1609.0
-247.68 340.04 1619.2
-238.04 332.44 1583.0
-226.87 322.39 1535.2
-225.22 325.76 1551.2
-225.97 332.80 1584.7
-219.09 328.63 1564.9
-212.04 324.06 1543.1
-207.19 322.74 1536.9
-200.96 319.18 1519.9
-205.02 332.13 1581.6
-207.02 342.22 1629.6
-193.31 326.21 1553.4
-188.99 325.70 1550.9
-188.73 332.33 1582.5
-182.52 328.54 1564.5
-175.30 322.71 1536.7
-167.03 314.63 1498.2
-169.86 327.59 1559.9
-176.72 349.14 1662.6
-173.27 350.87 1670.8
-162.87 338.27 1610.8
-157.68 336.11 1600.5
-156.28 342.12 1629.1
-149.72 336.88 1604.2
-143.03 331.02 1576.3
-142.07 338.46 1611.7
-144.43 354.51 1688.1
-144.45 365.65 1741.2
-138.55 362.03 1724.0
-125.99 340.17 1619.9
-110.95 309.90 1475.7
-110.19 318.78 1518.0
-121.38 364.15 1734.0
-118.95 370.56 1764.6
-109.52 354.83 1689.7
-108.56 366.38 1744.6
-107.49 378.54 1802.5
-97.14 357.66 1703.1
-88.32 340.68 1622.3
-79.97 323.89 1542.3
-75.92 341.62 1626.8
-72.48 345.36 1644.6
-67.66 365.35 1739.8
-58.48 364.39 1735.2
-51.92 350.45 1668.8
-49.88 367.32 1749.2
-46.95 380.29 1810.9
-42.05 378.46 1802.2
-37.44 379.10 1805.2
-33.19 384.05 1828.8
-28.66 386.94 1842.6
-24.20 392.10 1867.1
-19.52 395.19 1881.9
-14.58 393.76 1875.0
-9.62 389.66 1855.5
-4.74 383.90 1828.1
0.00 385.96 1837.9
4.81 389.86 1856.5
9.63 389.86 1856.5
14.68 396.43 1887.8
19.91 403.20 1920.0
24.80 401.75 1913.1
29.36 396.40 1887.6
34.24 396.17 1886.5
39.94 404.37 1925.6
46.21 415.86 1980.3
53.06 429.80 2046.7
58.92 433.88 2066.1
62.17 419.68 1998.5
66.13 412.04 1962.1
72.24 417.96 1990.3
78.12 421.83 2008.7
82.42 417.27 1987.0
87.26 415.79 1979.9
93.85 422.31 2011.0
98.95 421.85 2008.8
105.72 428.16 2038.8
114.50 441.65 2103.1
120.77 444.66 2117.4
126.59 445.83 2123.0
133.66 451.10 2148.1
-480.89 400.74 1932.1
-466.31 392.68 1893.3
-453.54 385.99 1861.0
-432.66 372.18 1794.4
-423.93 368.63 1777.3
-428.56 376.75 1816.5
-424.53 377.36 1819.4
-420.26 377.76 1821.4
-412.28 374.80 1807.1
-393.58 361.91 1744.9
-373.69 347.62 1676.0
-362.16 340.85 1643.4
-368.09 350.56 1690.2
-373.38 359.89 1735.2
-363.98 355.10 1712.1
-351.66 347.32 1674.6
-336.55 336.55 1622.6
-323.46 327.55 1579.3
-324.76 333.09 1606.0
-323.25 335.84 1619.2
-316.74 333.41 1607.5
-315.34 336.36 1621.7
-310.91 336.12 1620.6
-300.10 328.88 1585.7
-290.55 322.84 1556.5
-290.37 327.18 1577.5
-292.01 333.72 1609.0
-288.99 335.07 1615.5
-285.95 336.41 1622.0
-284.88 340.16 1640.0
-279.26 338.50 1632.0
-270.91 333.43 1607.6
-262.04 327.55 1579.2
-251.41 319.25 1539.3
-247.21 318.98 1537.9
-246.99 323.92 1561.8
-246.34 328.46 1583.6
-244.55 331.60 1598.8
-235.83 325.29 1568.4
-226.98 318.57 1536.0
-226.88 324.11 1562.7
-224.43 326.44 1573.9
-214.31 317.50 1530.8
-213.75 322.64 1555.6
-215.41 331.40 1597.8
-206.33 323.66 1560.5
-207.51 332.02 1600.8
-213.18 348.05 1678.1
-203.33 338.88 1633.9
-190.15 323.66 1560.5
-180.94 314.67 1517.2
-176.49 313.76 1512.8
-170.62 310.21 1495.7
-162.45 302.22 1457.1
-164.44 313.21 1510.1
-173.92 339.35 1636.2
-173.86 347.72 1676.5
-170.25 349.22 1683.8
-164.31 355.26 1712.8
-153.17 340.37 1641.1
-143.19 327.30 1578.1
-137.93 324.54 1564.8
-138.33 335.34 1616.8
-136.92 342.29 1650.3
-135.96 350.86 1691.7
-128.26 342.02 1649.0
-116.81 322.24 1553.6
-119.11 340.32 1640.9
-123.36 365.51 1762.3
-115.39 355.03 1711.8
-110.14 352.46 1699.3
-112.20 374.00 1803.2
-101.26 368.23 1775.4
-89.54 341.11 1644.6
-73.86 328.25 1582.6
-77.05 362.58 1748.1
-74.31 371.54 1791.4
-70.05 373.61 1801.3
-63.58 363.29 1751.6
-56.83 349.73 1686.2
-52.31 348.74 1681.4
-50.61 368.05 1774.5
-47.84 382.69 1845.1
-41.96 372.97 1798.2
-36.63 366.29 1766.0
-32.58 372.40 1795.5
-28.19 375.87 1812.2
-23.90 382.38 1843.6
-19.36 387.26 1867.2
-14.32 381.79 1840.8
-9.33 373.27 1799.7
-4.71 376.93 1817.3
0.00 388.10 1871.2
4.96 397.03 1914.3
10.05 401.90 1937.7
15.09 402.50 1940.6
20.19 403.71 1946.5
25.14 402.28 1939.6
29.76 396.78 1913.1
34.20 390.88 1884.6
39.29 392.89 1894.3
44.65 396.93 1913.8
50.30 402.39 1940.1
57.39 417.38 2012.4
62.30 415.32 2002.4
65.47 402.90 1942.6
70.68 403.88 1947.3
77.85 415.21 2001.9
83.85 419.23 2021.3
90.15 424.26 2045.5
98.73 438.82 2115.7
103.77 436.94 2106.7
110.69 442.76 2134.8
124.46 452.58 2182.1
128.87 448.26 2161.2
133.67 445.56 2148.2
-487.41 405.32 1978.9
-469.55 394.62 1926.7
-443.90 377.08 1841.1
-417.08 358.14 1748.6
-406.70 353.07 1723.8
-406.24 356.59 1741.0
-405.47 359.91 1757.3
-407.68 365.98 1786.9
-398.08 361.48 1764.9
-374.51 344.03 1679.7
-360.01 334.60 1633.7
-360.76 339.29 1656.6
-361.39 343.98 1679.5
-358.45 345.33 1686.1
-352.24 343.54 1677.3
-339.70 335.45 1637.8
-329.91 329.91 1610.8
-325.90 330.07 1611.6
-319.76 328.07 1601.8
-315.57 328.03 1601.6
-316.80 333.70 1629.3
-309.40 330.30 1612.7
-296.06 320.39 1564.3
-288.72 316.79 1546.7
-290.16 322.85 1576.3
-293.73 331.49 1618.5
-292.59 335.00 1635.6
-283.37 329.21 1607.3
-276.13 325.59 1589.7
-275.43 329.68 1609.7
-272.35 331.01 1616.1
-262.49 324.01 1582.0
-250.27 313.84 1532.3
-247.33 315.15 1538.7
-248.03 321.22 1568.3
-245.26 322.93 1576.7
-241.41 323.25 1578.2
-238.14 324.36 1583.7
-234.55 325.07 1587.2
-230.23 324.79 1585.8
-223.85 321.53 1569.9
-218.22 319.25 1558.7
-221.86 330.70 1614.6
-222.20 337.57 1648.2
-212.34 328.93 1606.0
-205.60 324.85 1586.1
-202.66 326.75 1595.3
-201.74 332.02 1621.1
-197.95 332.72 1624.5
-185.21 318.07 1553.0
-177.03 310.79 1517.4
-178.48 320.45 1564.6
-177.51 326.12 1592.3
-169.72 319.23 1558.6
-168.93 325.50 1589.2
-170.82 337.36 1647.2
-169.35 343.04 1674.9
-167.29 357.19 1744.0
-160.80 352.88 1722.9
-156.46 353.16 1724.3
-143.76 334.04 1630.9
-135.72 324.92 1586.4
-134.80 332.78 1624.8
-134.38 342.45 1672.0
-132.58 349.12 1704.6
-127.30 346.79 1693.2
-119.17 336.24 1641.7
-112.95 330.50 1613.6
-112.74 342.57 1672.6
-114.06 360.44 1759.8
-113.29 372.92 1820.8
-109.29 375.38 1832.8
-101.54 364.61 1780.2
-91.61 344.63 1682.6
-85.94 339.46 1657.4
-83.58 347.52 1696.8
-79.01 346.76 1693.0
-75.32 350.01 1708.9
-72.80 359.47 1755.1
-68.79 362.31 1769.0
-64.04 361.34 1764.2
-58.51 355.56 1736.0
-52.40 344.96 1684.2
-49.29 354.01 1728.4
-47.61 376.10 1836.3
-42.67 374.51 1828.6
-36.97 365.11 1782.6
-32.57 367.53 1794.5
-28.48 374.97 1830.8
-24.29 383.81 1873.9
-19.52 385.43 1881.8
-14.32 377.01 1840.7
-9.55 377.42 1842.7
-4.92 388.86 1898.6
0.00 390.26 1905.4
4.94 390.06 1904.5
10.08 398.08 1943.6
15.25 401.49 1960.2
20.50 404.89 1976.9
25.65 405.28 1978.8
30.41 400.45 1955.2
34.98 394.82 1927.7
39.43 389.38 1901.1
43.90 385.35 1881.4
49.21 388.73 1898.0
55.72 400.14 1953.7
61.96 407.93 1991.7
66.79 405.89 1981.8
72.14 407.06 1987.5
79.68 419.65 2048.9
86.12 425.23 2076.2
92.83 431.40 2106.3
129.00 443.08 2163.3
133.07 438.01 2138.6
-446.19 378.29 1870.7
-417.25 357.65 1768.6
-401.53 347.99 1720.8
-388.90 340.84 1685.5
-381.47 338.12 1672.0
-380.14 340.82 1685.4
-364.02 330.16 1632.6
-355.12 325.87 1611.5
-360.73 334.96 1656.4
-359.09 337.46 1668.8
-354.74 337.44 1668.7
-348.98 336.06 1661.8
-337.28 328.84 1626.1
-333.81 329.59 1629.8
-335.58 335.58 1659.5
-327.79 332.05 1642.0
-321.98 330.45 1634.1
-320.52 333.34 1648.4
-310.66 327.45 1619.3
-297.30 317.66 1570.9
-289.76 313.91 1552.3
-290.13 318.73 1576.1
-292.47 325.90 1611.6
-292.39 330.53 1634.5
-284.36 326.18 1613.0
-272.41 317.13 1568.2
-267.46 316.09 1563.1
-267.10 320.52 1585.0
-259.73 316.54 1565.3
-251.35 311.19 1538.9
-251.97 316.99 1567.5
-247.54 316.53 1565.2
-239.81 311.75 1541.6
-235.90 311.87 1542.2
-232.42 312.57 1545.7
-233.95 320.14 1583.1
-235.28 327.71 1620.5
-230.47 326.84 1616.3
-226.35 326.96 1616.8
-220.37 324.32 1603.8
-211.44 317.15 1568.3
-210.01 321.19 1588.3
-212.01 330.73 1635.5
-209.07 332.80 1645.7
-208.62 339.00 1676.4
-206.59 342.85 1695.4
-194.94 330.54 1634.6
-184.16 319.22 1578.6
-182.57 323.64 1600.4
-185.85 337.13 1667.1
-182.43 338.80 1675.4
-173.26 329.62 1630.0
-166.65 324.98 1607.0
-164.01 328.02 1622.1
-165.42 339.54 1679.0
-163.72 345.15 1706.8
-160.25 347.20 1716.9
-155.48 346.49 1713.4
-143.32 328.79 1625.9
-135.37 319.98 1582.3
-134.14 326.96 1616.8
-131.38 330.58 1634.7
-127.25 330.84 1636.0
-127.44 342.77 1695.0
-124.84 347.77 1719.8
-117.94 340.71 1684.9
-117.02 351.06 1736.0
-117.61 366.94 1814.5
-109.58 371.60 1837.6
-99.69 353.45 1747.8
-96.08 356.86 1764.7
-96.19 375.12 1855.0
-87.77 360.32 1781.8
-77.91 337.60 1669.4
-76.31 350.11 1731.3
-75.28 366.98 1814.7
-71.57 372.17 1840.4
-67.23 374.58 1852.3
-61.74 370.45 1831.9
-55.56 361.17 1786.0
-50.10 355.25 1756.7
-46.59 363.40 1797.0
-30.23 393.00 1943.4
-25.05 390.84 1932.7
-19.61 382.33 1890.6
-14.83 385.51 1906.4
-10.18 397.21 1964.2
-5.02 391.46 1935.8
0.00 376.20 1860.3
4.82 375.81 1858.4
9.83 383.33 1895.6
14.96 389.08 1924.0
20.24 394.62 1951.4
25.38 395.99 1958.2
30.14 391.82 1937.6
35.41 394.57 1951.2
40.81 397.92 1967.8
45.48 394.14 1949.0
50.93 397.28 1964.6
57.45 407.36 2014.4
63.67 413.87 2046.6
68.71 412.25 2038.6
74.20 413.40 2044.3
82.12 427.03 2111.7
88.81 432.93 2140.9
92.62 424.96 2101.5
98.79 428.08 2116.9
107.35 440.70 2179.3
-469.25 376.37 1885.4
-448.56 379.55 1901.3
-418.89 358.39 1795.3
-394.61 341.40 1710.2
-377.07 329.93 1652.7
-366.93 324.76 1626.8
-360.77 323.02 1618.1
-360.15 326.25 1634.3
-354.63 325.08 1628.4
-344.40 319.50 1600.5
-341.85 321.01 1608.0
-337.65 320.98 1607.9
-332.06 319.60 1601.0
-333.19 324.75 1626.8
-335.74 331.44 1660.3
-328.72 328.72 1646.6
-317.20 321.38 1609.9
-309.62 317.88 1592.3
-299.35 311.48 1560.3
-285.95 301.62 1510.9
-275.70 299.00 1497.8
-277.37 305.10 1528.4
-276.63 308.71 1546.4
-277.68 314.44 1575.1
-274.72 315.73 1581.6
-266.10 310.45 1555.1
-262.34 310.77 1556.8
-258.25 310.71 1556.4
-253.53 309.86 1552.2
-258.01 320.43 1605.1
-258.08 325.78 1631.9
-244.15 313.32 1569.5
-233.79 305.12 1528.4
-231.52 307.36 1539.6
-234.06 316.19 1583.9
-232.29 319.40 1600.0
-224.49 314.28 1574.3
-220.62 314.58 1575.8
-215.00 312.36 1564.7
-211.41 313.05 1568.1
-215.00 324.60 1626.0
-211.48 325.68 1631.4
-202.87 318.79 1596.9
-199.51 320.05 1603.2
-194.70 318.98 1597.9
-190.15 318.30 1594.5
-186.07 318.39 1594.9
-181.55 317.71 1591.5
-181.60 325.19 1629.0
-179.65 329.37 1649.9
-172.52 324.00 1623.0
-166.64 320.77 1606.8
-164.58 324.95 1627.7
-160.98 326.19 1634.0
-154.06 320.62 1606.1
-150.12 321.09 1608.4
-145.18 319.40 1600.0
-143.05 323.96 1622.8
-145.06 338.47 1695.5
-137.77 331.51 1660.6
-128.94 320.26 1604.3
-129.14 331.45 1660.3
-133.46 354.36 1775.1
-127.96 351.88 1762.7
-118.55 338.08 1693.5
-114.83 340.09 1703.6
-112.66 346.98 1738.1
-109.75 352.12 1763.9
-102.63 343.57 1721.0
-97.56 341.47 1710.5
-97.89 358.92 1797.9
-96.49 371.48 1860.8
-87.09 352.95 1768.0
-77.35 330.89 1657.5
-75.57 342.27 1714.5
-74.42 358.15 1794.1
-70.84 363.67 1821.7
-66.45 365.46 1830.7
-61.01 361.38 1810.3
-55.65 357.11 1788.9
-50.82 355.77 1782.1
-46.94 361.46 1810.7
-35.59 391.47 1961.0
-29.50 378.57 1896.4
-24.07 370.75 1857.2
-19.13 368.22 1844.5
-14.67 376.64 1886.7
-10.00 384.87 1927.9
-4.88 375.68 1881.9
0.00 375.68 1881.9
5.07 390.55 1956.4
10.21 393.09 1969.1
15.35 393.87 1973.0
20.68 398.17 1994.5
25.89 398.74 1997.4
30.22 387.77 1942.4
34.86 383.45 1920.8
41.36 398.11 1994.2
47.47 406.11 2034.3
52.05 400.80 2007.7
57.34 401.36 2010.5
64.50 413.85 2073.1
70.66 418.52 2096.5
75.95 417.70 2092.4
83.23 427.24 2140.2
88.61 426.42 2136.1
91.15 412.88 2068.2
95.68 409.31 2050.4
101.90 412.98 2068.7
111.62 429.74 2152.7
-442.46 361.58 1835.1
-428.84 354.26 1797.9
-438.40 366.13 1858.2
-427.79 361.25 1833.4
-403.40 344.48 1748.3
-385.76 333.16 1690.8
-371.65 324.66 1647.7
-361.80 319.73 1622.7
-366.87 328.02 1664.8
-366.29 331.41 1682.0
-349.52 320.04 1624.3
-341.40 316.42 1605.9
-337.41 316.58 1606.7
-332.01 315.41 1600.8
-320.54 308.37 1565.0
-312.16 304.16 1543.7
-316.38 312.27 1584.8
-315.27 315.27 1600.0
-306.21 310.29 1574.8
-294.12 302.07 1533.1
-284.81 296.51 1504.8
-279.59 295.12 1497.8
-280.63 300.39 1524.5
-284.34 308.71 1566.8
-276.08 304.08 1543.3
-269.98 301.74 1531.4
-273.68 310.44 1575.6
-271.53 312.67 1586.9
-259.04 302.88 1537.2
-245.89 296.63 1505.5
-254.86 312.41 1585.5
-258.97 322.66 1637.5
-248.94 315.33 1600.3
-237.32 305.70 1551.5
-233.38 305.81 1552.0
-236.04 314.72 1597.3
-233.96 317.51 1611.4
-225.43 311.50 1580.9
-221.13 311.22 1579.5
-218.98 314.01 1593.7
-218.59 319.48 1621.4
-213.43 318.05 1614.2
-200.99 305.50 1550.5
-194.18 301.18 1528.6
-192.58 304.92 1547.5
-189.34 306.17 1553.8
-186.76 308.56 1566.0
-187.30 316.33 1605.4
-187.42 323.72 1643.0
-183.97 325.16 1650.2
-179.00 323.90 1643.9
-173.43 321.49 1631.6
-169.25 321.57 1632.0
-163.68 318.96 1618.8
-156.63 313.27 1589.9
-152.45 313.15 1589.3
-150.83 318.42 1616.0
-149.78 325.23 1650.6
-151.65 338.98 1720.4
-151.65 349.26 1772.6
-142.71 338.93 1720.1
-131.12 321.46 1631.5
-128.36 325.19 1650.4
-132.20 346.45 1758.3
-127.24 345.36 1752.8
-117.03 329.41 1671.8
-112.05 327.54 1662.3
-104.59 317.95 1613.7
-96.70 306.23 1554.2
-96.78 319.78 1623.0
-98.62 340.68 1729.0
-95.43 345.36 1752.8
-90.84 345.21 1752.0
-86.31 345.25 1752.2
-80.77 341.05 1730.9
-77.07 344.56 1748.7
-74.50 353.87 1796.0
-69.85 353.90 1796.1
-64.63 350.85 1780.6
-60.12 351.46 1783.7
-55.47 351.29 1782.9
-50.65 349.97 1776.1
-46.79 355.59 1804.7
-42.78 361.22 1833.3
-37.90 360.08 1827.5
-33.08 359.13 1822.7
-28.17 356.83 1811.0
-23.01 349.69 1774.7
-18.29 347.57 1764.0
-13.83 350.48 1778.7
-9.29 353.19 1792.5
-4.82 366.34 1859.2
0.00 387.61 1967.2
5.11 387.99 1969.1
9.95 377.94 1918.1
15.04 381.02 1933.8
20.43 388.17 1970.0
25.61 389.32 1975.8
29.96 379.44 1925.7
34.09 370.15 1878.6
39.94 379.41 1925.6
47.01 396.98 2014.7
52.87 401.78 2039.1
56.00 386.88 1963.5
60.41 382.60 1941.7
66.96 391.45 1986.7
73.03 396.44 2012.0
77.93 394.86 2004.0
80.60 382.84 1943.0
86.32 385.89 1958.5
94.95 400.91 2034.7
101.66 406.66 2063.9
111.52 423.79 2150.8
-469.92 367.12 1888.1
-453.31 357.88 1840.5
-446.47 356.23 1832.0
-426.54 343.99 1769.1
-401.68 327.46 1684.1
-400.02 329.69 1695.5
-410.80 342.34 1760.6
-404.69 341.03 1753.9
-379.39 323.34 1662.9
-358.85 309.35 1591.0
-360.26 314.18 1615.8
-375.50 331.32 1703.9
-375.45 335.23 1724.0
-358.57 324.01 1666.3
-346.67 317.08 1630.7
-339.79 314.62 1618.0
-333.97 313.09 1610.2
-322.07 305.76 1572.5
-305.30 293.56 1509.7
-302.68 294.82 1516.2
-308.77 304.71 1567.1
-306.16 306.16 1574.6
-300.19 304.24 1564.7
-296.45 304.57 1566.4
-290.90 303.02 1558.4
-291.25 307.66 1582.3
-291.84 312.68 1608.1
-280.36 304.74 1567.2
-273.17 301.29 1549.5
-275.66 308.57 1586.9
-275.80 313.41 1611.8
-265.04 305.82 1572.8
-251.10 294.26 1513.3
-249.18 296.64 1525.6
-250.93 303.54 1561.1
-247.90 304.79 1567.5
-243.78 304.72 1567.1
-237.73 302.19 1554.1
-232.18 300.23 1544.0
-233.00 306.57 1576.7
-234.35 313.86 1614.2
-229.42 312.84 1608.9
-220.56 306.33 1575.4
-214.14 303.03 1558.4
-210.96 304.27 1564.8
-203.11 298.69 1536.1
-200.70 301.06 1548.3
-204.05 312.33 1606.2
-198.62 310.34 1596.0
-191.69 305.88 1573.1
-189.18 308.44 1586.3
-189.33 315.54 1622.8
-187.62 319.81 1644.7
-182.32 318.00 1635.4
-179.62 320.74 1649.5
-176.74 323.30 1662.7
-172.27 323.00 1661.1
-166.52 320.23 1646.9
-157.77 311.38 1601.4
-151.68 307.47 1581.3
-150.72 314.00 1614.9
-149.94 321.30 1652.4
-145.26 320.42 1647.9
-138.59 314.97 1619.9
-139.69 327.40 1683.8
-138.42 334.89 1722.3
-130.10 325.25 1672.7
-128.44 332.16 1708.3
-131.35 351.83 1809.4
-128.19 356.09 1831.3
-121.42 350.24 1801.3
-112.58 337.73 1736.9
-98.70 308.44 1586.3
-95.20 324.54 1669.1
-92.81 331.45 1704.6
-88.65 332.45 1709.7
-84.23 332.49 1709.9
-79.90 332.91 1712.1
-77.20 340.57 1751.5
-75.23 352.63 1813.5
-71.18 355.90 1830.4
-63.42 339.72 1747.1
-56.77 327.54 1684.5
-54.52 340.73 1752.3
-51.74 352.78 1814.3
-47.98 359.86 1850.7
-43.99 366.56 1885.2
-38.33 359.33 1848.0
-32.93 352.86 1814.7
-28.49 356.12 1831.5
-23.67 354.99 1825.7
-19.08 357.67 1839.5
-14.61 365.31 1878.8
-9.76 366.08 1882.7
-5.02 376.20 1934.8
0.00 384.22 1976.0
4.97 372.96 1918.1
9.73 364.94 1876.8
14.80 369.89 1902.3
19.82 371.60 1911.1
24.49 367.39 1889.5
29.47 368.34 1894.3
34.55 370.23 1904.0
39.88 373.84 1922.6
46.30 385.84 1984.3
51.67 387.53 1993.0
54.32 370.33 1904.6
64.45 371.80 1912.1
70.68 378.64 1947.3
75.95 379.74 1953.0
79.95 374.75 1927.3
87.14 384.43 1977.1
96.19 400.79 2061.2
103.84 409.89 2108.0
111.17 416.89 2144.0
117.51 419.70 2158.4
123.71 421.73 2168.9
-467.52 360.38 1878.4
-449.29 349.97 1824.2
-441.09 347.24 1809.9
-428.81 341.21 1778.5
-410.76 330.39 1722.1
-411.04 334.25 1742.2
-422.61 347.48 1811.2
-407.31 338.66 1765.2
-375.41 315.68 1645.4
-359.66 305.92 1594.6
-365.13 314.18 1637.6
-364.88 317.66 1655.8
-351.99 310.09 1616.3
-343.85 306.56 1597.9
-339.27 306.17 1595.9
-331.06 302.45 1576.5
-323.94 299.65 1561.9
-323.80 303.30 1580.9
-317.71 301.42 1571.1
-306.86 294.91 1537.2
-305.68 297.64 1551.4
-309.49 305.37 1591.7
-309.40 309.40 1612.7
-303.53 307.69 1603.8
-295.72 303.94 1584.2
-294.77 307.23 1601.4
-294.26 311.07 1621.4
-282.57 303.04 1579.6
-275.35 299.64 1561.9
-274.11 302.74 1578.0
-270.79 303.61 1582.5
-269.57 306.90 1599.7
-264.89 306.28 1596.4
-256.26 301.01 1569.0
-251.52 300.20 1564.7
-249.86 303.11 1579.9
-247.37 305.09 1590.2
-239.32 300.17 1564.6
-231.70 295.62 1540.9
-228.37 296.47 1545.3
-225.29 297.70 1551.7
-225.92 303.96 1584.4
-222.71 305.19 1590.8
-212.77 297.08 1548.5
-206.33 293.63 1530.5
-202.82 294.28 1533.9
-204.71 302.98 1579.2
-210.59 318.03 1657.7
-207.45 319.81 1667.0
-200.10 315.04 1642.1
-196.83 316.63 1650.4
-189.30 311.30 1622.6
-179.69 302.21 1575.2
-176.75 304.17 1585.4
-176.62 311.18 1622.0
-175.05 315.95 1646.9
-172.15 318.47 1660.0
-169.76 322.11 1679.0
-164.39 320.13 1668.6
-153.07 306.14 1595.7
-146.50 301.14 1569.7
-146.73 310.22 1617.0
-143.34 311.98 1626.2
-136.90 306.98 1600.1
-137.65 318.31 1659.1
-139.35 332.65 1733.9
-134.20 331.02 1725.4
-126.80 323.57 1686.6
-123.59 326.64 1702.6
-124.00 339.85 1771.4
-120.82 343.86 1792.3
-113.39 335.64 1749.5
-101.37 312.56 1629.2
-91.33 307.20 1601.2
-90.02 317.22 1653.4
-87.12 322.34 1680.1
-83.84 326.52 1701.9
-80.53 331.08 1725.7
-77.71 338.27 1763.2
-75.30 348.28 1815.4
-71.48 352.65 1838.1
-63.98 338.18 1762.7
-58.03 330.30 1721.6
-56.16 346.33 1805.2
-52.27 351.63 1832.8
-47.65 352.60 1837.9
-44.42 365.24 1903.8
-39.30 363.57 1895.0
-33.82 357.56 1863.7
-29.37 362.28 1888.3
-24.49 362.48 1889.4
-19.77 365.70 1906.1
-15.30 377.39 1967.1
-10.32 381.91 1990.7
-5.10 377.21 1966.1
0.00 371.18 1934.7
5.03 372.12 1939.6
10.15 375.51 1957.3
15.25 376.07 1960.2
20.21 373.80 1948.4
25.57 378.50 1972.9
31.50 388.47 2024.8
36.30 383.74 2000.2
41.12 380.33 1982.4
46.71 384.08 2002.0
50.93 376.90 1964.5
54.87 369.15 1924.1
60.38 372.32 1940.7
65.93 375.31 1956.2
71.25 376.59 1962.9
77.32 381.45 1988.3
82.26 380.47 1983.2
87.57 381.18 1986.9
94.27 387.54 2020.0
102.54 399.35 2081.6
110.92 410.40 2139.2
118.32 416.93 2173.2
-477.00 362.72 1916.5
-458.19 352.08 1860.3
-453.40 352.11 1860.4
-443.76 348.33 1840.5
-423.49 336.03 1775.5
-421.84 338.40 1788.0
-425.93 345.47 1825.4
-405.29 332.42 1756.5
-378.64 314.10 1659.6
-367.40 308.28 1628.9
-364.44 309.35 1634.5
-356.80 306.42 1619.1
-349.23 303.49 1603.6
-345.45 303.83 1605.4
-343.72 305.99 1616.8
-337.88 304.51 1608.9
-329.08 300.29 1586.6
-327.50 302.62 1599.0
-321.95 301.31 1592.1
-311.62 295.44 1561.0
-308.87 296.67 1567.5
-311.51 303.21 1602.1
-310.65 306.45 1619.2
-303.67 303.67 1604.5
-298.38 302.53 1598.5
-299.89 308.34 1629.2
-299.13 311.95 1648.3
-287.37 304.03 1606.4
-275.48 295.73 1562.6
-270.53 294.76 1557.4
-266.94 295.25 1560.0
-265.29 297.94 1574.2
-265.66 303.02 1601.1
-261.45 302.95 1600.7
-252.73 297.56 1572.3
-247.21 295.84 1563.2
-251.71 306.25 1618.1
-250.73 310.23 1639.2
-238.97 300.78 1589.2
-231.49 296.47 1566.5
-226.66 295.47 1561.2
-225.61 299.44 1582.2
-228.53 308.94 1632.4
-224.91 309.79 1636.8
-219.69 308.41 1629.6
-217.34 311.10 1643.8
-208.85 304.93 1611.2
-203.87 303.73 1604.8
-206.21 313.61 1657.0
-204.83 318.13 1680.9
-199.01 315.83 1668.8
-189.05 306.68 1620.4
-177.66 294.76 1557.4
-173.02 293.73 1552.0
-178.40 310.08 1638.4
-182.72 325.33 1719.0
-175.78 320.79 1695.0
-169.25 316.80 1673.9
-163.41 313.92 1658.7
-152.02 299.92 1584.7
-147.39 298.88 1579.2
-149.37 311.55 1646.1
-148.76 319.40 1687.6
-145.17 321.13 1696.8
-136.49 311.38 1645.2
-128.63 302.91 1600.5
-128.09 311.69 1646.9
-125.32 315.46 1666.8
-117.75 306.98 1622.0
-112.94 305.37 1613.5
-111.95 314.32 1660.8
-107.79 314.75 1663.0
-100.26 304.96 1611.3
-95.07 315.45 1666.8
-95.14 330.72 1747.4
-90.21 329.28 1739.8
-85.13 327.09 1728.3
-81.72 331.40 1751.0
-78.61 337.57 1783.6
-73.38 334.82 1769.1
-66.90 325.56 1720.2
-61.80 322.25 1702.7
-57.99 325.62 1720.5
-55.09 335.13 1770.7
-50.39 334.41 1766.9
-45.40 331.46 1751.3
-41.85 339.47 1793.7
-38.39 350.27 1850.8
-34.16 356.24 1882.3
-29.20 355.32 1877.4
-23.97 349.94 1849.0
-19.20 350.33 1851.0
-14.74 358.70 1895.3
-10.05 366.70 1937.6
-5.01 365.96 1933.7
0.00 363.73 1921.9
5.04 368.20 1945.5
10.23 373.21 1972.0
15.45 376.00 1986.7
20.36 371.53 1963.0
25.62 374.12 1976.7
31.76 386.38 2041.5
36.82 383.94 2028.7
42.01 383.37 2025.6
48.00 389.29 2056.9
52.69 384.62 2032.3
57.08 378.83 2001.7
62.36 379.36 2004.5
67.59 379.52 2005.3
71.53 372.98 1970.7
75.83 369.04 1949.9
83.61 381.46 2015.5
92.50 397.21 2098.7
97.56 395.68 2090.7
103.75 398.60 2106.1
113.21 413.22 2183.4
-477.54 347.30 1860.5
-484.15 355.70 1905.5
-481.41 357.34 1914.3
-461.05 345.79 1852.4
-455.10 344.92 1847.8
-459.66 352.08 1886.1
-449.03 347.64 1862.3
-427.56 334.62 1792.6
-418.18 330.87 1772.5
-416.28 333.02 1784.1
-397.95 321.93 1724.6
-373.78 305.82 1638.3
-365.83 302.76 1621.9
-365.25 305.79 1638.1
-358.01 303.26 1624.6
-350.85 300.73 1611.0
-349.33 303.04 1623.4
-349.60 306.97 1644.5
-347.33 308.74 1654.0
-341.62 307.45 1647.1
-333.57 304.01 1628.6
-322.10 297.32 1592.8
-310.61 290.44 1555.9
-306.91 290.76 1557.6
-306.02 293.78 1573.8
-301.71 293.56 1572.6
-296.86 292.79 1568.5
-293.47 293.47 1572.1
-293.62 297.75 1595.1
-291.37 299.69 1605.5
-281.27 293.50 1572.3
-271.16 287.11 1538.1
-269.48 289.59 1551.4
-269.22 293.69 1573.3
-265.25 293.81 1574.0
-263.04 295.92 1585.3
-262.05 299.48 1604.4
-256.28 297.61 1594.3
-249.01 293.92 1574.6
-251.37 301.65 1616.0
-251.00 306.30 1640.9
-240.40 298.43 1598.7
-232.32 293.45 1572.1
-227.19 292.10 1564.8
-225.02 294.57 1578.0
-226.87 302.49 1620.5
-226.09 307.14 1645.4
-223.47 309.42 1657.6
-219.89 310.43 1663.0
-210.34 302.89 1622.6
-202.73 297.89 1595.8
-201.81 302.72 1621.7
-198.26 303.72 1627.1
-190.61 298.34 1598.3
-187.77 300.43 1609.5
-183.21 299.79 1606.0
-176.26 295.13 1581.1
-179.13 307.07 1645.0
-181.45 318.65 1707.1
-172.81 311.07 1666.4
-164.98 304.57 1631.6
-157.70 298.80 1600.7
-153.21 298.14 1597.2
-155.41 310.82 1665.1
-152.99 314.73 1686.1
-147.79 312.97 1676.6
-145.41 317.25 1699.5
-137.70 309.82 1659.7
-132.40 307.50 1647.3
-134.02 321.65 1723.1
-131.72 327.02 1751.9
-124.56 320.31 1715.9
-119.72 319.26 1710.3
-118.28 327.56 1754.8
-113.05 325.60 1744.3
-105.13 315.39 1689.6
-101.06 316.36 1694.8
-102.16 334.36 1791.2
-101.12 346.68 1857.2
-94.79 341.23 1828.0
-86.82 328.99 1762.5
-80.79 323.17 1731.2
-77.26 327.24 1753.0
-71.63 322.32 1726.7
-67.16 322.35 1726.9
-63.72 327.70 1755.5
-58.94 326.45 1748.8
-55.12 330.69 1771.6
-51.00 333.83 1788.4
-46.47 334.59 1792.4
-42.35 338.83 1815.2
-38.40 345.64 1851.6
-33.11 340.52 1824.2
-27.44 329.34 1764.3
-22.91 329.90 1767.3
-18.63 335.42 1796.9
-14.15 339.64 1819.5
-9.55 343.69 1841.2
-4.87 350.85 1879.5
0.00 356.17 1908.0
4.97 358.19 1918.8
10.03 361.12 1934.6
15.19 364.60 1953.2
20.05 360.92 1933.5
25.01 360.18 1929.5
30.69 368.24 1972.7
35.34 363.45 1947.1
40.06 360.50 1931.2
46.96 375.70 2012.7
52.92 381.00 2041.1
57.67 377.49 2022.3
63.43 380.58 2038.8
70.63 391.18 2095.6
77.13 396.65 2124.9
79.38 381.03 2041.2
84.58 380.62 2039.1
94.84 401.67 2151.8
101.60 406.39 2177.1
104.33 395.34 2117.9
109.90 395.66 2119.6
117.42 402.57 2156.6
120.53 394.45 2113.1
-464.34 339.88 1846.4
-450.07 332.87 1808.3
-448.24 335.00 1819.9
-427.23 322.69 1753.1
-396.16 302.45 1643.1
-406.06 313.37 1702.4
-423.57 330.48 1795.3
-414.00 326.60 1774.3
-389.05 310.36 1686.1
-371.53 299.76 1628.5
-368.59 300.81 1634.2
-365.84 302.03 1640.8
-357.33 298.47 1621.5
-352.47 297.92 1618.5
-353.01 301.97 1640.5
-343.41 297.34 1615.3
-332.52 291.47 1583.4
-331.58 294.27 1598.7
-327.79 294.60 1600.4
-326.53 297.23 1614.7
-324.62 299.33 1626.1
-319.23 298.23 1620.1
-316.30 299.43 1626.7
-304.44 292.10 1586.9
-292.42 284.41 1545.1
-291.61 287.56 1562.2
-294.28 294.28 1598.7
-289.21 293.34 1593.6
-276.20 284.20 1544.0
-273.51 285.57 1551.4
-278.86 295.51 1605.4
-278.30 299.38 1626.4
-273.54 298.79 1623.2
-268.64 298.02 1619.0
-265.34 299.03 1624.5
-263.42 301.66 1638.8
-259.42 301.95 1640.4
-251.94 298.13 1619.6
-242.04 291.26 1582.3
-231.88 283.85 1542.0
-224.22 279.30 1517.3
-222.63 282.26 1533.4
-224.01 289.18 1571.0
-224.11 294.66 1600.8
-221.37 296.55 1611.0
-220.55 301.14 1636.0
-218.57 304.29 1653.1
-213.35 302.95 1645.8
-209.89 304.12 1652.2
-205.55 304.04 1651.7
-198.23 299.46 1626.8
-189.53 292.53 1589.2
-185.35 292.44 1588.7
-186.75 301.34 1637.1
-185.93 307.00 1667.8
-181.44 306.73 1666.3
-176.23 305.19 1658.0
-169.44 300.76 1633.9
-163.47 297.60 1616.7
-161.92 302.54 1643.6
-163.62 313.96 1705.6
-160.69 316.92 1721.7
-152.71 309.78 1682.9
-145.96 304.80 1655.9
-141.70 304.87 1656.2
-138.17 306.56 1665.4
-136.71 313.12 1701.0
-139.42 329.96 1792.6
-138.27 338.51 1839.0
-133.52 338.57 1839.3
-130.63 343.51 1866.2
-124.29 339.42 1843.9
-114.44 325.02 1765.7
-109.70 324.53 1763.0
-108.77 335.78 1824.2
-104.96 338.72 1840.1
-99.13 335.15 1820.8
-93.45 331.76 1802.3
-85.99 321.32 1745.6
-83.21 328.23 1783.1
-82.32 343.82 1867.8
-75.53 335.17 1820.9
-69.98 331.23 1799.4
-66.60 337.77 1835.0
-61.95 338.35 1838.1
-57.07 337.65 1834.3
-52.01 335.68 1823.6
-48.66 345.48 1876.8
-45.40 358.17 1945.8
-39.20 347.87 1889.8
-32.23 326.89 1775.9
-22.86 324.57 1763.2
-18.56 329.46 1789.8
-14.06 332.73 1807.6
-9.56 339.25 1843.0
-4.91 348.67 1894.2
0.00 349.21 1897.1
4.88 346.50 1882.4
9.91 351.74 1910.9
15.13 358.07 1945.3
20.29 360.24 1957.0
25.69 364.75 1981.5
30.72 363.47 1974.6
34.50 349.88 1900.8
38.93 345.52 1877.1
45.54 359.26 1951.7
51.79 367.74 1997.8
57.05 368.26 2000.6
63.61 376.37 2044.7
71.69 391.54 2127.1
83.66 395.99 2151.3
85.72 380.40 2066.5
91.98 384.15 2086.9
98.16 387.18 2103.4
100.50 375.56 2040.3
104.30 370.27 2011.5
109.50 370.22 2011.3
117.67 379.75 2063.0
123.47 381.14 2070.6
-476.08 340.06 1873.8
-460.70 332.46 1831.9
-453.84 330.92 1823.5
-432.18 318.45 1754.7
-397.10 295.71 1629.4
-395.04 300.57 1656.2
-416.06 320.05 1763.5
-410.16 319.01 1757.8
-399.40 314.14 1731.0
-393.16 312.74 1723.3
-371.57 298.96 1647.4
-354.43 288.49 1589.6
-352.19 290.03 1598.2
-353.04 294.20 1621.1
-346.54 292.26 1610.4
-330.66 282.27 1555.4
-322.75 278.92 1536.9
-325.12 284.48 1567.6
-326.95 289.70 1596.3
-330.58 296.67 1634.7
-334.21 303.83 1674.1
-326.97 305.17 1681.5
-311.44 294.61 1623.3
-302.43 290.00 1598.0
-303.66 295.23 1626.8
-296.55 292.38 1611.0
-282.13 282.13 1554.6
-274.58 278.56 1534.9
-276.70 284.84 1569.5
-278.65 291.12 1604.2
-274.27 290.89 1602.9
-270.72 291.54 1606.5
-267.31 292.37 1611.0
-267.68 297.42 1638.9
-269.63 304.42 1677.4
-259.39 297.66 1640.1
-245.55 286.47 1578.5
-240.06 284.82 1569.4
-233.88 282.27 1555.4
-230.94 283.61 1562.8
-234.04 292.55 1612.0
-226.75 288.59 1590.2
-218.07 282.68 1557.6
-220.13 290.74 1602.0
-223.68 301.10 1659.1
-221.12 303.50 1672.4
-215.59 301.83 1663.1
-212.84 304.05 1675.4
-209.41 305.39 1682.7
-204.63 304.77 1679.3
-198.59 302.20 1665.2
-192.05 298.74 1646.1
-190.96 303.80 1674.0
-188.30 306.54 1689.1
-182.06 303.43 1672.0
-178.50 304.75 1679.3
-173.38 303.41 1671.9
-164.34 294.96 1625.3
-159.87 294.50 1622.8
-157.49 297.95 1641.8
-150.71 293.04 1614.7
-148.96 297.91 1641.6
-148.27 305.27 1682.1
-143.19 303.74 1673.6
-138.72 303.44 1672.0
-134.96 304.75 1679.2
-134.91 314.78 1734.5
-136.12 328.55 1810.4
-133.73 334.31 1842.1
-128.90 334.20 1841.5
-120.58 324.63 1788.8
-113.80 318.63 1755.7
-111.89 326.34 1798.2
-109.12 332.10 1829.9
-103.72 330.00 1818.4
-98.27 327.55 1804.9
-92.94 325.28 1792.4
-86.56 318.90 1757.2
-84.58 328.93 1812.5
-84.53 348.05 1917.8
-78.75 344.52 1898.4
-71.39 333.14 1835.7
-66.42 332.10 1829.9
-60.92 328.02 1807.5
-55.35 322.87 1779.1
-50.83 323.43 1782.2
-47.87 335.06 1846.2
-45.54 354.18 1951.6
-40.17 351.52 1937.0
-33.31 333.15 1835.7
-28.13 328.16 1808.2
-23.84 333.71 1838.8
-19.39 339.26 1869.4
-14.64 341.58 1882.2
-9.92 347.30 1913.7
-5.04 352.49 1942.3
0.00 348.38 1919.6
4.94 346.06 1906.8
10.06 351.95 1939.3
15.31 357.30 1968.8
20.50 358.72 1976.6
25.72 360.14 1984.4
30.50 355.84 1960.7
34.49 344.93 1900.6
39.36 344.38 1897.6
45.54 354.18 1951.6
51.21 358.44 1975.1
56.04 356.63 1965.1
62.14 362.50 1997.4
69.70 375.32 2068.1
76.70 383.49 2113.1
83.39 389.16 2144.4
89.27 390.55 2152.0
93.19 383.73 2114.4
96.37 374.77 2065.1
100.65 370.80 2043.2
106.69 373.43 2057.7
115.60 385.33 2123.2
-486.72 342.69 1915.6
-471.47 335.37 1874.8
-469.97 337.79 1888.3
-452.63 328.75 1837.7
-418.97 307.54 1719.2
-400.89 297.44 1662.7
-402.06 301.55 1685.7
-409.23 310.30 1734.6
-414.36 317.68 1775.8
-413.53 320.60 1792.2
-411.08 322.32 1801.8
-392.54 311.32 1740.3
-363.37 291.54 1629.7
-352.55 286.19 1599.8
-354.04 290.81 1625.7
-347.93 289.24 1616.9
-334.90 281.81 1575.3
-329.77 280.92 1570.3
-330.07 284.68 1591.4
-330.65 288.79 1614.4
-329.36 291.35 1628.7
-327.80 293.74 1642.0
-325.03 295.09 1649.6
-316.39 291.08 1627.2
-304.34 283.78 1586.3
-298.35 282.00 1576.4
-297.11 284.73 1591.7
-287.23 279.14 1560.4
-281.55 277.53 1551.4
-282.51 282.51 1579.2
-274.95 278.99 1559.6
-266.97 274.94 1536.9
-263.10 275.06 1537.6
-260.69 276.74 1547.0
-265.01 285.71 1597.1
-274.15 300.26 1678.5
-267.25 297.42 1662.6
-248.43 281.01 1570.8
-239.30 275.20 1538.4
-238.38 278.78 1558.4
-237.50 282.55 1579.4
-239.54 289.97 1620.9
-240.37 296.17 1655.6
-230.05 288.61 1613.3
-221.58 283.12 1582.7
-223.71 291.25 1628.1
-222.85 295.71 1653.0
-216.19 292.49 1635.0
-209.74 289.44 1618.0
-206.35 290.58 1624.4
-205.61 295.56 1652.2
-203.53 298.80 1670.3
-199.14 298.72 1669.8
-194.30 297.93 1665.4
-190.26 298.36 1667.9
-184.46 296.00 1654.6
-177.13 291.00 1626.7
-172.54 290.38 1623.2
-170.11 293.43 1640.3
-163.42 289.13 1616.2
-159.46 289.55 1618.6
-157.65 294.00 1643.5
-153.79 294.77 1647.8
-154.81 305.19 1706.0
-150.59 305.61 1708.4
-142.33 297.60 1663.6
-139.19 300.12 1677.7
-136.44 303.69 1697.7
-133.36 306.74 1714.7
-131.45 312.77 1748.4
-128.80 317.39 1774.2
-123.81 316.39 1768.7
-122.75 325.76 1821.0
-116.52 335.01 1872.7
-109.75 329.26 1840.6
-102.53 321.57 1797.6
-95.53 313.88 1754.6
-94.25 325.17 1817.7
-91.68 332.95 1861.2
-84.94 325.61 1820.2
-80.75 327.75 1832.2
-75.48 325.50 1819.6
-68.74 316.21 1767.6
-67.31 331.72 1854.4
-64.79 343.90 1922.4
-58.86 338.47 1892.1
-53.99 338.67 1893.2
-48.70 336.05 1878.6
-44.50 341.18 1907.2
-40.70 351.06 1962.4
-35.06 345.62 1932.0
-29.38 337.88 1888.8
-24.66 340.36 1902.6
-20.17 347.94 1945.0
-15.33 352.70 1971.6
-10.27 354.30 1980.5
-5.15 355.53 1987.4
0.00 350.07 1956.9
5.02 346.20 1935.3
9.88 340.91 1905.7
14.57 335.10 1873.2
19.88 343.01 1917.5
25.43 350.93 1961.7
30.74 353.55 1976.4
35.60 350.90 1961.5
39.44 340.14 1901.4
44.27 339.42 1897.4
49.95 344.68 1926.8
54.86 344.13 1923.7
61.01 350.79 1960.9
68.77 365.02 2040.5
76.52 377.13 2108.2
100.59 385.59 2155.5
103.98 377.63 2111.0
112.25 387.25 2164.8
-467.08 330.85 1876.7
-468.14 335.09 1900.7
-449.71 325.33 1845.3
-416.31 304.40 1726.6
-405.44 299.67 1699.8
-403.52 301.53 1710.4
-401.77 303.56 1721.9
-407.06 311.01 1764.1
-410.38 317.11 1798.7
-397.91 311.01 1764.1
-373.39 295.24 1674.7
-351.64 281.31 1595.7
-343.49 278.06 1577.3
-342.48 280.59 1591.6
-334.02 276.99 1571.2
-332.95 279.51 1585.5
-337.01 286.46 1624.9
-330.59 284.56 1614.1
-322.27 280.95 1593.6
-320.99 283.48 1607.9
-318.31 284.80 1615.5
-308.25 279.48 1585.3
-295.19 271.25 1538.6
-290.05 270.19 1532.6
-289.28 273.21 1549.7
-281.65 269.75 1530.1
-278.16 270.21 1532.7
-283.33 279.22 1583.8
-280.02 280.02 1588.4
-272.48 276.55 1568.7
-269.03 277.18 1572.2
-267.68 280.04 1588.4
-272.86 289.92 1644.5
-274.43 296.21 1680.2
-259.86 285.01 1616.6
-249.15 277.74 1575.4
-247.58 280.59 1591.6
-248.91 286.88 1627.3
-250.20 293.34 1663.9
-244.40 291.56 1653.8
-236.94 287.71 1632.0
-232.65 287.64 1631.6
-230.14 289.81 1643.9
-229.04 293.86 1666.9
-225.19 294.48 1670.4
-221.19 294.92 1672.9
-217.56 295.88 1678.3
-208.68 289.60 1642.7
-202.29 286.58 1625.6
-199.45 288.57 1636.8
-194.22 287.10 1628.5
-192.90 291.50 1653.5
-192.47 297.45 1687.2
-187.93 297.19 1685.7
-181.69 294.16 1668.6
-174.91 290.09 1645.5
-170.08 289.13 1640.0
-166.66 290.59 1648.3
-165.71 296.54 1682.0
-164.96 303.18 1719.7
-162.47 306.88 1740.7
-160.57 311.97 1769.6
-153.68 307.36 1743.5
-143.99 296.71 1683.0
-139.57 296.59 1682.4
-135.40 297.00 1684.7
-130.90 296.71 1683.0
-126.79 297.29 1686.3
-122.01 296.31 1680.7
-120.56 303.63 1722.3
-122.94 321.53 1823.8
-121.80 331.29 1879.1
-114.68 324.93 1843.1
-109.21 322.90 1831.6
-103.30 319.30 1811.2
-95.94 310.68 1762.3
-93.99 319.56 1812.6
-91.29 326.71 1853.2
-84.57 319.47 1812.1
-79.14 316.56 1795.6
-72.82 309.48 1755.4
-66.90 303.26 1720.2
-65.98 320.47 1817.8
-64.26 336.11 1906.5
-58.98 334.23 1895.9
-54.27 335.47 1902.9
-49.11 333.93 1894.2
-44.02 332.57 1886.4
-39.47 335.54 1903.2
-35.10 340.93 1933.9
-30.33 343.73 1949.7
-24.97 339.57 1926.1
-20.06 340.97 1934.1
-15.26 345.84 1961.7
-10.24 348.10 1974.5
-5.07 344.63 1954.8
0.00 334.04 1894.8
4.89 332.48 1885.9
9.69 329.35 1868.2
19.88 338.02 1917.3
25.68 349.29 1981.3
31.37 355.53 2016.7
36.81 357.60 2028.4
41.50 352.72 2000.7
45.35 342.63 1943.5
49.64 337.58 1914.8
55.19 341.20 1935.4
62.23 352.63 2000.2
69.03 361.10 2048.3
75.66 367.49 2084.5
82.66 374.74 2125.6
89.02 378.35 2146.1
94.53 378.13 2144.9
96.32 363.87 2064.0
103.11 369.03 2093.2
-467.03 325.95 1876.5
-458.20 323.15 1860.3
-452.70 322.67 1857.6
-431.04 310.54 1787.7
-416.59 303.38 1746.6
-411.16 302.72 1742.7
-401.94 299.22 1722.6
-401.46 302.22 1739.9
-401.34 305.56 1759.1
-386.80 297.88 1714.9
-370.33 288.51 1660.9
-355.39 280.13 1612.7
-340.28 271.41 1562.5
-333.29 269.04 1548.9
-331.50 270.86 1559.3
-336.33 278.20 1601.6
-334.55 280.19 1613.0
-322.23 273.28 1573.3
-315.18 270.73 1558.6
-315.15 274.22 1578.7
-314.25 277.04 1594.9
-305.75 273.14 1572.4
-292.90 265.19 1526.7
-288.16 264.48 1522.6
-289.41 269.31 1550.4
-283.55 267.58 1540.4
-277.04 265.17 1526.6
-279.11 271.02 1560.2
-281.68 277.54 1597.8
-280.02 280.02 1612.1
-271.80 275.92 1588.5
-265.67 273.84 1576.5
-262.49 274.80 1582.0
-254.84 271.02 1560.3
-253.87 274.34 1579.4
-255.88 281.05 1618.0
-253.29 282.85 1628.3
-253.64 288.03 1658.2
-254.41 293.89 1691.9
-247.67 291.12 1676.0
-235.34 281.57 1621.0
-225.94 275.23 1584.5
-227.51 282.28 1625.0
-230.88 291.87 1680.3
-228.45 294.34 1694.5
-226.06 296.99 1709.7
-223.35 299.29 1723.0
-215.23 294.29 1694.2
-204.45 285.38 1642.9
-197.39 281.39 1619.9
-191.73 279.26 1607.7
-189.90 282.75 1627.7
-195.57 297.79 1714.4
-197.51 307.74 1771.7
-191.05 304.76 1754.5
-183.74 300.25 1728.5
-176.66 295.90 1703.5
-170.70 293.25 1688.2
-168.39 296.90 1709.3
-166.54 301.58 1736.1
-160.98 299.60 1724.8
-156.10 298.82 1720.3
-157.38 310.14 1785.4
-155.73 316.17 1820.2
-148.92 311.81 1795.0
-142.32 307.60 1770.9
-135.32 302.20 1739.8
-128.84 297.65 1713.6
-120.56 288.49 1660.8
-115.73 287.18 1653.3
-117.09 301.74 1737.1
-115.22 308.79 1777.7
-110.02 307.13 1768.2
-106.56 310.43 1787.1
-103.52 315.26 1814.9
-98.67 314.79 1812.2
-95.31 319.27 1838.0
-91.23 321.71 1852.1
-84.69 315.25 1814.9
-79.26 312.38 1798.4
-75.06 314.29 1809.4
-70.87 316.55 1822.4
-66.26 317.09 1825.5
-61.20 315.41 1815.8
-57.45 320.74 1846.5
-54.01 328.97 1893.9
-48.24 323.18 1860.5
-42.68 317.72 1829.1
-39.06 327.15 1883.4
-35.38 338.63 1949.5
-30.28 338.13 1946.6
-24.66 330.45 1902.4
-19.51 326.86 1881.7
-14.63 326.70 1880.8
-9.91 332.01 1911.4
-4.95 331.33 1907.4
0.00 326.71 1880.8
4.93 330.47 1902.5
9.85 330.13 1900.5
14.79 330.29 1901.5
20.18 337.99 1945.8
