ply
format ascii 1.0
element vertex 2291
property float x
property float y
property float z
end_header
355.78 269.37 980.2
377.65 283.91 1033.1
381.37 284.68 1035.9
396.21 293.69 1068.7
386.81 284.73 1036.1
382.36 279.52 1017.1
399.44 290.00 1055.3
399.09 287.78 1047.2
391.07 280.09 1019.2
420.61 299.23 1088.8
444.51 314.12 1143.0
431.92 303.20 1103.3
436.55 304.44 1107.8
484.78 335.86 1222.1
514.13 353.88 1287.7
541.45 365.57 1330.2
551.79 370.18 1347.0
52.51 501.24 1841.3
58.27 509.86 1873.0
66.22 496.66 1824.4
67.91 475.35 1746.2
73.27 480.82 1766.3
78.60 485.49 1783.4
82.72 482.55 1772.6
86.12 475.93 1748.3
88.64 465.38 1709.6
91.07 455.36 1672.7
93.80 447.69 1644.6
96.10 438.71 1611.6
96.55 422.39 1551.6
100.80 423.37 1555.3
111.24 449.26 1650.3
117.86 458.35 1683.8
120.11 450.42 1654.6
121.12 438.55 1611.0
122.21 427.73 1571.2
126.88 429.74 1578.6
131.90 432.80 1589.9
135.34 430.62 1581.9
141.44 436.81 1604.6
145.31 435.93 1601.4
146.47 427.20 1569.3
150.32 426.58 1567.0
155.10 428.57 1574.4
157.30 423.50 1555.7
155.72 408.76 1501.6
157.94 404.48 1485.9
163.84 409.60 1504.7
167.38 408.71 1501.4
173.19 413.30 1518.2
179.54 418.93 1538.9
183.02 417.77 1534.7
188.11 420.26 1543.8
192.42 420.92 1546.2
192.35 412.19 1514.2
191.13 401.37 1474.4
189.83 390.83 1435.7
190.78 385.23 1415.1
190.71 377.82 1387.9
193.04 375.35 1378.8
199.95 381.73 1402.3
205.05 384.46 1412.3
210.75 388.23 1426.2
215.09 389.39 1430.4
215.22 383.02 1407.0
217.30 380.28 1396.9
223.11 384.03 1410.7
230.82 390.90 1436.0
234.92 391.53 1438.3
237.13 389.04 1429.1
240.58 388.63 1427.6
239.46 380.96 1399.4
242.00 379.25 1393.2
249.20 384.79 1413.5
249.53 379.71 1394.9
249.07 373.60 1372.4
248.67 367.75 1350.9
244.80 356.99 1311.4
250.42 360.20 1323.2
261.57 371.14 1363.4
260.00 364.00 1337.2
254.01 350.94 1289.2
253.64 345.87 1270.6
258.35 347.77 1277.5
259.79 345.29 1268.4
260.01 341.26 1253.6
257.37 333.63 1225.6
247.56 317.00 1164.5
245.17 310.16 1139.4
252.73 315.91 1160.5
259.15 320.12 1176.0
264.37 322.78 1185.7
271.56 327.75 1204.0
274.76 327.83 1204.3
270.34 318.94 1171.6
271.26 316.47 1162.5
269.46 310.92 1142.2
259.49 296.16 1087.9
259.90 293.44 1077.9
264.38 295.32 1084.9
265.20 293.11 1076.7
264.33 289.12 1062.1
263.16 284.87 1046.4
264.77 283.68 1042.1
269.48 285.81 1049.9
278.11 292.01 1072.7
282.44 293.62 1078.6
280.61 288.87 1061.1
286.69 292.26 1073.6
296.09 298.94 1098.2
290.37 290.37 1066.7
279.89 277.25 1018.5
282.09 276.82 1016.9
296.29 288.06 1058.2
300.16 289.14 1062.2
296.62 283.13 1040.1
301.80 285.48 1048.7
308.64 289.35 1062.9
299.49 278.29 1022.3
298.10 274.57 1008.6
306.05 279.44 1026.5
297.08 268.91 987.8
296.07 265.70 976.0
307.17 273.33 1004.1
312.99 276.17 1014.5
318.28 278.49 1023.0
327.37 284.08 1043.6
337.14 290.16 1065.9
334.96 285.94 1050.4
317.60 268.93 987.9
309.79 260.22 955.9
302.72 252.27 926.7
303.69 251.09 922.4
327.82 268.91 987.8
350.10 284.97 1046.8
352.87 285.01 1047.0
340.99 273.32 1004.0
340.52 270.87 995.0
359.89 284.12 1043.7
355.33 278.43 1022.8
349.07 271.50 997.4
343.02 264.83 972.8
322.58 247.23 908.2
324.03 246.55 905.7
358.32 270.67 994.3
411.51 308.64 1133.8
431.76 321.52 1181.1
410.04 303.20 1113.8
402.50 295.54 1085.7
403.98 294.57 1082.1
409.87 296.80 1090.3
433.97 312.11 1146.5
443.15 316.54 1162.8
438.86 311.35 1143.7
477.79 336.70 1236.8
472.87 331.01 1216.0
428.28 297.81 1094.0
444.26 306.89 1127.4
494.71 339.51 1247.2
525.21 358.10 1315.5
495.01 322.83 1185.9
550.61 356.87 1311.0
64.30 514.41 1907.8
63.36 470.65 1745.6
67.39 467.23 1732.9
74.88 486.69 1805.0
78.61 480.92 1783.6
80.98 467.86 1735.2
98.53 487.97 1809.8
96.45 455.93 1691.0
98.40 444.95 1650.2
98.35 426.18 1580.6
99.81 415.20 1539.9
106.90 427.60 1585.9
115.31 444.16 1647.3
120.05 445.90 1653.7
121.27 434.91 1613.0
122.36 424.19 1573.2
127.50 427.74 1586.4
132.94 432.07 1602.5
134.44 423.68 1571.3
138.31 423.07 1569.1
146.54 435.43 1614.9
152.22 439.74 1630.9
153.28 430.83 1597.9
154.92 423.99 1572.5
157.02 418.71 1552.9
155.22 403.58 1496.8
158.25 401.41 1488.7
164.89 408.29 1514.3
167.06 404.05 1498.5
171.33 404.97 1502.0
181.45 419.35 1555.3
188.52 426.21 1580.7
187.42 414.71 1538.1
185.62 402.18 1491.6
185.54 393.80 1460.5
183.93 382.57 1418.9
190.71 388.90 1442.4
200.07 400.14 1484.0
201.48 395.37 1466.3
205.62 396.01 1468.7
211.54 400.00 1483.5
215.45 400.12 1484.0
218.23 398.18 1476.8
219.54 393.66 1460.0
219.01 386.05 1431.8
220.71 382.56 1418.8
223.40 380.88 1412.6
228.05 382.53 1418.7
237.40 391.90 1453.5
244.56 397.41 1473.9
247.32 395.71 1467.6
245.48 386.82 1434.6
239.67 372.03 1379.8
238.45 364.69 1352.5
244.92 369.15 1369.1
250.61 372.33 1380.9
255.13 373.71 1386.0
255.77 369.45 1370.2
249.68 355.71 1319.3
249.53 350.69 1300.6
257.40 356.93 1323.8
260.53 356.51 1322.2
257.02 347.14 1287.5
257.94 343.91 1275.5
264.22 347.84 1290.1
269.21 349.97 1298.0
268.86 345.21 1280.3
260.79 330.76 1226.7
252.65 316.57 1174.1
255.15 315.90 1171.6
257.02 314.47 1166.3
257.38 311.26 1154.4
264.92 316.69 1174.5
268.90 317.80 1178.6
263.77 308.23 1143.1
263.74 304.76 1130.3
268.74 307.13 1139.1
266.39 301.13 1116.8
266.19 297.67 1104.0
270.04 298.77 1108.1
269.06 294.55 1092.4
267.54 289.83 1074.9
269.70 289.16 1072.4
274.70 291.52 1081.2
284.56 298.93 1108.7
299.65 311.64 1155.8
297.81 306.66 1137.3
289.69 295.37 1095.5
292.11 294.94 1093.9
296.53 296.53 1099.8
295.38 292.57 1085.1
289.29 283.83 1052.7
285.37 277.37 1028.7
292.29 281.47 1043.9
301.39 287.57 1066.5
304.23 287.64 1066.8
306.00 286.70 1063.3
309.63 287.52 1066.3
313.28 288.33 1069.4
326.27 297.65 1103.9
328.09 296.71 1100.4
312.59 280.26 1039.4
310.58 276.07 1023.9
320.10 282.13 1046.3
323.45 282.68 1048.4
325.66 282.24 1046.8
333.65 286.78 1063.6
343.77 293.05 1086.9
337.81 285.63 1059.3
319.27 267.78 993.1
320.72 266.84 989.7
324.26 267.64 992.6
316.30 259.01 960.6
330.45 268.49 995.8
340.48 274.49 1018.0
330.18 264.14 979.6
344.93 273.84 1015.6
373.66 294.40 1091.9
387.27 302.83 1123.1
376.21 291.99 1082.9
357.28 275.24 1020.8
337.74 258.27 957.9
343.53 260.78 967.2
375.16 282.73 1048.6
379.89 284.23 1054.2
393.56 292.36 1084.3
417.03 307.60 1140.8
404.25 296.07 1098.1
406.10 295.35 1095.4
413.37 298.54 1107.2
408.74 293.16 1087.3
425.30 302.95 1123.6
469.65 332.27 1232.3
503.73 353.97 1312.8
517.90 361.49 1340.7
486.85 337.55 1251.9
457.87 315.35 1169.6
497.86 340.64 1263.4
536.13 364.43 1351.6
552.10 356.64 1322.7
58.62 503.12 1884.1
59.27 469.56 1758.4
60.56 445.54 1668.5
66.76 458.39 1716.6
72.88 469.18 1757.0
75.09 454.95 1703.7
74.54 426.55 1597.3
81.24 440.42 1649.3
94.51 486.75 1822.8
96.29 472.26 1768.5
95.30 446.17 1670.8
97.83 438.13 1640.7
99.43 426.73 1598.0
102.62 422.80 1583.3
106.97 423.76 1586.9
112.62 429.62 1608.8
118.66 436.49 1634.6
121.21 430.49 1612.1
122.07 419.10 1569.4
126.89 421.59 1578.8
133.91 431.02 1614.1
136.91 427.33 1600.3
139.84 423.65 1586.5
147.07 432.81 1620.8
152.14 435.28 1630.0
152.64 424.91 1591.2
155.11 420.44 1574.5
158.38 418.29 1566.4
159.21 409.97 1535.2
164.89 414.23 1551.2
170.54 418.23 1566.2
171.77 411.45 1540.8
172.65 404.16 1513.5
178.99 409.68 1534.2
186.69 418.03 1565.4
186.49 408.68 1530.4
188.61 404.72 1515.6
192.48 404.60 1515.1
190.51 392.44 1469.6
197.04 397.95 1490.2
210.92 417.78 1564.5
217.40 422.50 1582.2
212.59 405.49 1518.5
209.63 392.58 1470.1
219.89 404.45 1514.6
229.26 414.27 1551.4
225.72 400.85 1501.1
219.73 383.60 1436.5
222.48 381.93 1430.3
226.71 382.81 1433.5
223.59 371.45 1391.0
225.40 368.50 1380.0
235.37 378.80 1418.5
240.89 381.71 1429.4
243.35 379.78 1422.2
242.14 372.24 1394.0
238.10 360.65 1350.5
241.84 361.00 1351.9
250.59 368.73 1380.8
258.44 374.92 1404.0
263.56 377.04 1411.9
262.07 369.77 1384.7
254.24 353.88 1325.2
254.79 349.91 1310.4
262.56 355.84 1332.5
263.62 352.63 1320.5
267.30 352.97 1321.8
276.62 360.65 1350.6
273.89 352.64 1320.6
265.65 337.80 1265.0
264.77 332.58 1245.4
263.59 327.11 1225.0
258.61 317.10 1187.5
253.22 306.85 1149.1
253.75 303.91 1138.1
261.26 309.30 1158.3
269.50 315.44 1181.3
267.85 309.98 1160.8
265.00 303.28 1135.7
267.35 302.61 1133.2
270.82 303.20 1135.4
276.33 306.05 1146.1
277.77 304.37 1139.8
274.32 297.42 1113.8
278.22 298.51 1117.8
287.57 305.36 1143.5
286.31 300.92 1126.9
290.27 302.00 1130.9
308.58 317.84 1190.2
310.01 316.15 1183.9
298.78 301.71 1129.8
298.28 298.28 1117.0
310.07 307.09 1150.0
317.69 311.64 1167.0
310.77 301.97 1130.8
306.77 295.30 1105.9
309.71 295.37 1106.1
316.06 298.66 1118.4
315.57 295.49 1106.5
313.95 291.32 1090.9
319.27 293.62 1099.5
325.45 296.65 1110.9
332.51 300.43 1125.0
329.39 295.02 1104.8
315.57 280.21 1049.3
312.73 275.31 1031.0
325.68 284.28 1064.6
330.79 286.31 1072.2
326.14 279.94 1048.3
326.31 277.77 1040.2
323.81 273.38 1023.8
309.45 259.13 970.4
306.41 254.52 953.1
322.11 265.41 993.9
334.68 273.59 1024.5
336.49 272.90 1022.0
339.81 273.44 1024.0
336.37 268.58 1005.8
322.63 255.62 957.3
331.11 260.34 974.9
355.05 277.04 1037.5
365.37 282.96 1059.6
370.70 284.94 1067.1
367.74 280.57 1050.7
361.80 274.01 1026.1
382.03 287.22 1075.6
395.63 295.29 1105.8
381.75 282.88 1059.3
388.17 285.58 1069.4
405.29 296.06 1108.7
378.68 274.68 1028.6
367.22 264.50 990.5
380.69 272.30 1019.7
379.27 269.41 1008.9
399.44 281.80 1055.3
445.73 312.32 1169.6
458.13 318.84 1194.0
456.31 315.43 1181.2
491.00 337.15 1262.6
532.07 362.93 1359.1
539.74 356.37 1334.5
513.10 336.62 1260.6
512.98 334.41 1252.3
43.07 488.18 1846.1
50.74 470.48 1779.1
57.30 487.06 1841.8
60.54 475.01 1796.3
64.32 468.59 1772.0
67.18 456.79 1727.4
70.00 446.27 1687.6
74.88 449.29 1699.0
76.84 435.45 1646.7
90.30 438.61 1658.6
99.16 459.74 1738.5
100.43 445.38 1684.2
100.58 427.45 1616.4
104.56 426.62 1613.3
109.83 430.89 1629.4
112.69 425.72 1609.9
115.72 421.56 1594.1
121.94 428.88 1621.8
126.72 430.84 1629.2
128.36 422.35 1597.1
131.92 420.48 1590.1
134.77 416.58 1575.3
137.47 412.41 1559.5
144.37 420.73 1591.0
149.18 422.67 1598.3
150.70 415.45 1571.0
154.45 414.59 1567.8
160.72 420.34 1589.5
164.90 420.49 1590.1
165.91 412.76 1560.8
166.56 404.51 1529.7
171.45 406.69 1537.9
176.38 408.87 1546.2
178.43 404.44 1529.4
181.43 402.29 1521.3
187.42 406.75 1538.1
195.89 416.27 1574.1
197.60 411.33 1555.4
193.74 395.22 1494.5
192.60 385.21 1456.7
198.64 389.65 1473.5
207.01 398.39 1506.5
204.54 386.35 1461.0
201.16 373.05 1410.7
211.00 384.32 1453.3
221.76 396.84 1500.7
219.53 386.07 1459.9
220.02 380.37 1438.4
228.87 389.08 1471.3
231.54 387.17 1464.1
226.96 373.38 1411.9
223.82 362.38 1370.3
229.03 365.01 1380.3
235.89 370.17 1399.8
240.08 371.03 1403.0
241.79 368.10 1392.0
240.77 361.15 1365.7
240.62 355.71 1345.1
245.74 358.07 1354.1
256.32 368.24 1392.5
264.79 375.12 1418.5
268.89 375.71 1420.8
266.62 367.50 1389.7
260.68 354.52 1340.6
262.35 352.10 1331.5
262.08 347.17 1312.8
263.82 345.00 1304.6
277.56 358.38 1355.2
278.98 355.70 1345.1
263.82 332.22 1256.3
256.68 319.29 1207.4
262.94 323.13 1221.9
265.56 322.47 1219.4
264.21 317.06 1199.0
268.66 318.64 1205.0
267.59 313.73 1186.4
266.22 308.57 1166.9
268.45 307.66 1163.4
269.56 305.50 1155.3
270.85 303.59 1148.0
273.23 302.93 1145.5
280.36 307.49 1162.8
283.45 307.57 1163.1
283.52 304.41 1151.1
290.79 308.96 1168.3
288.45 303.32 1147.0
276.71 288.00 1089.1
284.67 293.29 1109.1
306.82 312.96 1183.5
314.12 317.23 1199.6
308.37 308.37 1166.1
293.46 290.61 1099.0
289.82 284.25 1074.9
307.70 298.91 1130.3
315.06 303.17 1146.5
305.40 291.13 1100.9
301.01 284.28 1075.0
318.10 297.67 1125.6
330.11 306.10 1157.5
328.61 301.97 1141.9
332.71 303.00 1145.8
323.74 292.23 1105.1
315.95 282.69 1069.0
330.70 293.31 1109.2
334.46 294.10 1112.1
314.05 273.78 1035.3
308.86 266.98 1009.6
328.98 281.98 1066.3
341.31 290.11 1097.1
339.27 286.00 1081.5
333.65 278.95 1054.9
327.61 271.67 1027.3
334.78 275.39 1041.4
346.21 282.51 1068.3
351.44 284.50 1075.8
357.31 286.97 1085.2
364.14 290.17 1097.3
371.64 293.85 1111.2
368.05 288.78 1092.0
354.07 275.69 1042.5
359.34 277.67 1050.0
371.91 285.22 1078.6
377.29 287.19 1086.0
379.17 286.49 1083.3
378.46 283.85 1073.4
385.82 287.26 1086.3
386.38 285.58 1079.9
390.52 286.57 1083.7
417.86 304.44 1151.2
452.83 327.58 1238.8
431.21 309.74 1171.3
397.80 283.74 1073.0
400.26 283.52 1072.1
415.01 291.94 1104.0
451.90 315.71 1193.9
476.41 330.57 1250.1
458.74 316.16 1195.6
450.27 308.24 1165.6
474.03 322.34 1218.9
514.67 347.66 1314.7
543.92 357.93 1353.5
533.85 349.06 1320.0
522.54 339.48 1283.8
541.98 349.89 1323.1
537.54 344.84 1304.0
547.16 348.81 1319.0
42.83 480.66 1835.6
50.94 467.69 1786.1
58.30 490.70 1873.9
62.14 482.81 1843.8
64.78 467.33 1784.7
66.77 449.56 1716.9
71.69 452.56 1728.3
78.81 468.20 1788.0
81.63 458.03 1749.2
80.44 427.61 1633.0
82.81 418.20 1597.1
91.83 441.67 1686.7
100.05 459.32 1754.1
100.67 442.05 1688.2
101.66 427.83 1633.9
106.38 429.79 1641.3
111.92 434.77 1660.4
115.26 431.16 1646.6
116.92 421.74 1610.6
121.72 423.94 1619.0
127.40 428.91 1638.0
130.07 423.78 1618.4
131.60 415.36 1586.2
132.22 404.67 1545.4
136.62 405.85 1549.9
145.33 419.39 1601.6
149.81 420.31 1605.1
150.89 411.89 1573.0
154.65 411.04 1569.7
160.72 416.23 1589.6
169.20 427.22 1631.5
174.40 429.63 1640.7
172.54 414.91 1584.5
174.88 410.77 1568.7
177.36 407.13 1554.8
176.97 397.20 1516.9
183.49 402.88 1538.6
193.16 415.09 1585.2
196.97 414.46 1582.8
193.94 399.76 1526.7
194.11 392.10 1497.4
196.91 389.96 1489.2
198.12 384.81 1469.6
201.47 383.94 1466.2
204.53 382.55 1461.0
206.48 379.16 1448.0
210.57 379.79 1450.4
215.25 381.41 1456.6
217.51 378.77 1446.5
222.64 381.14 1455.5
229.31 386.01 1474.1
229.27 379.60 1449.7
232.63 378.96 1447.2
237.38 380.57 1453.4
237.09 374.16 1428.9
238.61 370.77 1415.9
243.49 372.62 1423.0
245.42 369.97 1412.9
243.10 361.07 1378.9
241.80 353.93 1351.7
245.54 354.28 1353.0
255.08 362.86 1385.7
261.40 366.69 1400.4
263.66 364.78 1393.1
266.24 363.38 1387.7
264.91 356.74 1362.4
270.56 359.56 1373.1
274.18 359.64 1373.5
261.30 338.34 1292.1
260.44 332.96 1271.6
273.05 344.73 1316.5
269.16 335.62 1281.7
262.08 322.80 1232.8
269.83 328.35 1253.9
275.00 330.66 1262.8
276.26 328.26 1253.6
276.63 324.87 1240.7
271.38 315.05 1203.2
269.62 309.45 1181.8
271.88 308.54 1178.3
270.83 303.93 1160.7
270.35 300.06 1145.9
269.57 295.94 1130.2
273.72 297.26 1135.2
283.39 304.49 1162.8
290.41 308.76 1179.1
297.05 312.52 1193.5
293.83 305.94 1168.4
285.47 294.20 1123.6
297.61 303.62 1159.5
310.17 313.27 1196.4
306.94 306.94 1172.2
310.54 307.50 1174.3
303.39 297.50 1136.1
282.68 274.52 1048.4
280.89 270.19 1031.8
294.95 281.04 1073.3
294.96 278.42 1063.3
295.43 276.29 1055.1
315.12 291.99 1115.1
334.83 307.43 1174.1
341.95 311.14 1188.2
346.42 312.40 1193.0
337.29 301.47 1151.3
322.73 285.93 1092.0
331.17 290.85 1110.7
339.13 295.28 1127.7
323.24 279.04 1065.6
313.58 268.40 1025.0
331.18 281.08 1073.4
354.19 298.11 1138.5
362.70 302.75 1156.2
356.08 294.79 1125.8
347.55 285.38 1089.9
356.06 290.02 1107.6
367.65 297.06 1134.5
365.81 293.23 1119.8
363.59 289.15 1104.3
374.13 295.21 1127.4
390.02 305.36 1166.2
398.95 309.95 1183.7
392.67 302.74 1156.2
375.26 287.13 1096.5
366.74 278.50 1063.6
383.24 288.86 1103.1
398.31 298.00 1138.0
401.60 298.25 1139.0
419.19 309.04 1180.2
390.20 285.58 1090.6
367.70 267.18 1020.3
410.48 296.13 1130.9
460.09 329.57 1258.6
458.29 325.97 1244.9
438.53 309.73 1182.9
438.87 307.82 1175.5
453.18 315.67 1205.5
480.35 332.30 1269.0
483.25 332.03 1268.0
470.13 320.83 1225.3
472.57 320.33 1223.3
460.56 310.11 1184.3
457.23 305.83 1167.9
49.55 495.49 1911.2
52.38 476.14 1836.6
55.75 464.57 1791.9
60.91 468.55 1807.3
64.78 462.74 1784.9
66.88 445.89 1719.9
72.06 450.37 1737.1
78.98 464.61 1792.1
81.68 453.78 1750.3
80.87 425.65 1641.8
83.42 417.08 1608.7
89.79 427.55 1649.1
94.65 430.25 1659.5
98.65 428.93 1654.5
102.93 428.87 1654.2
106.07 424.30 1636.6
110.10 423.48 1633.4
112.83 417.90 1611.9
113.91 406.81 1569.1
119.04 410.49 1583.3
125.00 416.67 1607.2
129.53 417.84 1611.7
133.04 415.76 1603.6
134.04 406.17 1566.7
139.34 409.84 1580.8
149.80 428.00 1650.9
155.76 432.65 1668.8
158.57 428.56 1653.0
164.33 432.45 1668.0
167.93 430.60 1660.9
173.80 434.49 1675.9
176.21 419.54 1618.2
175.10 407.21 1570.7
173.85 395.12 1524.0
176.52 392.27 1513.0
186.59 405.62 1564.5
193.16 410.99 1585.2
193.51 403.14 1555.0
195.53 399.04 1539.1
200.95 401.90 1550.2
203.13 398.29 1536.3
203.68 391.69 1510.8
203.84 384.60 1483.5
203.45 376.76 1453.2
208.79 379.62 1464.2
216.27 386.20 1489.6
219.07 384.33 1482.4
219.37 378.23 1458.9
222.64 377.35 1455.5
227.67 379.44 1463.6
226.83 371.86 1434.3
228.77 368.99 1423.3
236.12 374.80 1445.7
238.03 371.93 1434.6
241.98 372.28 1435.9
249.20 377.57 1456.4
249.55 372.47 1436.7
244.93 360.19 1389.3
246.21 356.83 1376.3
253.13 361.62 1394.8
264.01 371.84 1434.2
271.70 377.36 1455.5
270.30 370.28 1428.2
268.22 362.47 1398.1
269.88 359.84 1387.9
278.60 366.57 1413.9
284.98 370.10 1427.5
274.13 351.45 1355.6
262.54 332.33 1281.8
265.74 332.17 1281.2
268.53 331.52 1278.7
267.48 326.19 1258.2
273.26 329.22 1269.9
277.23 330.04 1273.0
272.67 320.79 1237.3
267.09 310.57 1197.9
262.80 302.07 1165.1
262.66 298.48 1151.3
270.96 304.44 1174.3
276.06 306.73 1183.1
278.53 306.07 1180.6
280.98 305.42 1178.0
284.56 305.98 1180.2
294.12 312.89 1206.9
294.30 309.79 1194.9
294.18 306.44 1182.0
299.91 309.19 1192.6
299.73 305.84 1179.7
298.75 301.77 1164.0
297.21 297.21 1146.4
297.79 294.84 1137.2
304.28 298.31 1150.6
309.33 300.32 1158.4
298.25 286.78 1106.1
288.70 274.95 1060.5
294.87 278.18 1073.0
303.69 283.82 1094.7
313.92 290.67 1121.1
321.38 294.84 1137.2
327.31 297.55 1147.7
331.41 298.57 1151.6
332.02 296.44 1143.4
342.13 302.77 1167.8
349.33 306.43 1181.9
340.51 296.10 1142.1
330.94 285.30 1100.4
336.95 287.99 1110.8
351.24 297.66 1148.1
349.40 293.61 1132.5
351.22 292.69 1128.9
366.11 302.57 1167.1
366.83 300.68 1159.8
350.99 285.36 1100.7
351.51 283.48 1093.4
375.05 300.04 1157.3
389.54 309.16 1192.5
366.83 288.85 1114.1
357.53 279.32 1077.4
386.54 299.65 1155.8
412.82 317.56 1224.9
404.14 308.50 1189.9
383.96 290.88 1122.0
381.20 286.61 1105.5
405.77 302.81 1168.0
429.98 318.51 1228.5
445.11 327.29 1262.4
440.89 321.81 1241.3
391.73 283.86 1094.9
369.56 265.87 1025.5
418.00 298.57 1151.6
470.02 333.35 1285.8
463.92 326.70 1260.1
425.94 297.86 1148.9
403.77 280.40 1081.5
432.58 298.33 1150.7
477.52 327.07 1261.6
502.90 342.11 1319.6
517.05 349.36 1347.5
512.06 343.67 1325.6
496.05 330.70 1275.6
501.42 332.07 1280.8
56.18 463.44 1805.6
60.17 458.19 1785.2
67.11 474.55 1848.9
72.08 475.75 1853.6
73.99 457.82 1783.7
77.54 451.56 1759.3
83.31 458.21 1785.3
85.59 445.99 1737.6
86.78 429.55 1673.6
92.05 433.96 1690.8
94.27 424.22 1652.8
95.60 411.51 1603.3
102.69 423.61 1650.4
108.77 430.74 1678.2
112.00 426.45 1661.5
113.92 417.70 1627.4
115.94 409.94 1597.2
122.02 416.56 1623.0
127.26 419.95 1636.2
131.01 418.39 1630.1
135.61 419.54 1634.6
137.92 413.76 1612.0
140.45 408.96 1593.4
147.70 417.79 1627.8
153.78 422.90 1647.7
157.00 420.08 1636.7
159.30 415.03 1617.0
159.46 404.79 1577.1
162.91 403.20 1570.9
165.61 399.89 1558.0
170.02 400.77 1561.4
175.96 405.11 1578.4
177.26 398.83 1553.9
182.58 401.68 1565.0
186.93 402.31 1567.4
187.31 394.54 1537.2
189.92 391.71 1526.1
194.67 393.32 1532.4
201.95 399.85 1557.9
205.92 399.73 1557.4
203.16 386.78 1506.9
200.01 373.60 1455.6
195.38 358.20 1395.6
196.61 353.89 1378.8
209.02 369.53 1439.7
216.93 376.78 1468.0
219.94 375.42 1462.7
226.73 380.44 1482.3
229.30 378.34 1474.0
225.91 366.65 1428.5
227.99 364.05 1418.4
235.17 369.56 1439.8
239.45 370.40 1443.1
245.83 374.42 1458.8
248.37 372.55 1451.5
243.90 360.39 1404.1
242.05 352.40 1373.0
246.19 353.23 1376.2
250.69 354.55 1381.4
259.08 361.25 1407.5
267.24 367.45 1431.6
265.96 360.69 1405.3
268.75 359.55 1400.8
275.22 363.29 1415.4
277.64 361.66 1409.1
277.74 357.10 1391.3
275.64 349.86 1363.1
272.62 341.64 1331.1
274.96 340.26 1325.7
277.66 339.36 1322.2
271.27 327.51 1276.0
271.17 323.45 1260.2
275.13 324.26 1263.3
271.17 315.83 1230.5
271.26 312.26 1216.6
272.35 309.91 1207.5
262.82 295.67 1152.0
261.08 290.42 1131.5
277.76 305.54 1190.4
293.84 319.67 1245.5
295.78 318.29 1240.1
297.92 317.14 1235.6
303.94 320.11 1247.2
301.20 313.89 1222.9
295.76 305.01 1188.3
296.78 302.90 1180.1
297.28 300.31 1170.0
296.51 296.51 1155.2
294.46 291.52 1135.8
293.79 287.97 1122.0
302.47 293.58 1143.8
309.76 297.73 1160.0
311.06 296.11 1153.7
312.84 294.96 1149.2
317.94 296.94 1156.9
326.70 302.28 1177.7
326.93 299.69 1167.6
322.88 293.26 1142.6
327.77 294.99 1149.3
331.34 295.52 1151.4
338.71 299.39 1166.5
357.61 313.31 1220.7
350.63 304.50 1186.3
329.33 283.51 1104.6
330.02 281.65 1097.3
346.73 293.39 1143.1
352.01 295.33 1150.6
341.29 283.93 1106.2
348.54 287.55 1120.3
370.68 303.28 1181.6
378.17 306.87 1195.6
368.31 296.44 1155.0
357.07 285.08 1110.7
369.57 292.70 1140.4
388.25 305.05 1188.5
372.51 290.38 1131.4
362.63 280.47 1092.7
390.46 299.66 1167.5
403.13 307.00 1196.1
381.87 288.59 1124.4
376.31 282.23 1099.6
386.80 287.92 1121.8
427.36 315.74 1230.2
466.18 341.87 1332.0
437.93 318.79 1242.0
391.03 282.57 1100.9
404.06 289.87 1129.4
446.55 318.05 1239.1
460.02 325.30 1267.4
467.62 328.33 1279.2
474.25 330.64 1288.2
446.12 308.85 1203.3
445.48 306.27 1193.3
511.51 349.24 1360.7
540.44 366.46 1427.8
59.37 484.89 1908.5
62.55 471.56 1856.0
68.73 481.12 1893.6
76.69 469.71 1848.7
79.68 459.33 1807.9
84.90 462.23 1819.3
88.32 455.54 1792.9
90.60 443.92 1747.2
95.17 444.11 1748.0
96.54 430.03 1692.6
98.37 419.16 1649.7
106.25 433.84 1707.5
112.54 441.15 1736.3
116.17 437.88 1723.5
119.27 432.90 1703.8
122.47 428.65 1687.1
126.60 427.83 1683.9
129.59 423.33 1666.2
131.94 417.12 1641.7
135.29 414.33 1630.8
137.59 408.60 1608.2
139.94 403.37 1587.6
145.34 406.96 1601.7
149.28 406.38 1599.4
151.82 402.12 1582.7
153.60 396.14 1559.1
155.46 390.65 1537.5
160.81 393.99 1550.7
168.99 403.93 1589.8
179.36 418.52 1647.2
181.12 412.78 1624.6
178.24 397.00 1562.5
181.12 394.44 1552.5
182.57 388.95 1530.8
185.90 387.61 1525.6
191.71 391.41 1540.5
191.98 383.96 1511.2
194.84 381.89 1503.1
202.36 388.85 1530.5
203.15 382.87 1506.9
201.84 373.22 1468.9
199.26 361.63 1423.3
200.42 357.12 1405.6
212.64 372.11 1464.6
220.47 379.05 1491.9
223.39 377.45 1485.6
230.53 382.92 1507.1
233.31 381.07 1499.9
230.29 369.98 1456.2
232.75 367.89 1448.0
241.26 375.29 1477.1
246.90 378.06 1488.0
244.37 368.43 1450.1
238.38 353.95 1393.1
239.56 350.41 1379.2
243.38 350.75 1380.5
248.22 352.54 1387.6
253.61 355.06 1397.5
259.06 357.57 1407.4
264.19 359.60 1415.3
263.60 353.87 1392.8
267.09 353.71 1392.1
272.98 356.69 1403.9
275.37 355.08 1397.5
277.34 352.98 1389.3
277.16 348.22 1370.6
272.40 337.91 1330.0
272.56 333.88 1314.1
280.22 339.03 1334.4
277.69 331.87 1306.2
275.83 325.68 1281.8
277.98 324.31 1276.4
278.85 321.49 1265.4
284.94 324.70 1278.0
284.26 320.20 1260.3
269.88 300.55 1182.9
264.51 291.26 1146.4
277.27 301.91 1188.3
295.13 317.83 1250.9
299.11 318.62 1254.0
300.15 316.28 1244.8
304.58 317.54 1249.8
300.68 310.18 1220.8
294.53 300.67 1183.4
298.61 301.69 1187.4
302.23 302.23 1189.5
301.52 298.47 1174.7
299.02 293.04 1153.4
295.19 286.42 1127.3
298.92 287.20 1130.4
309.44 294.42 1158.8
315.03 296.86 1168.4
324.75 303.10 1193.0
338.20 312.67 1230.6
335.20 307.01 1208.3
323.71 293.74 1156.1
324.65 291.89 1148.8
334.88 298.35 1174.3
344.16 303.85 1195.9
360.85 315.74 1242.7
373.39 323.82 1274.5
356.89 306.80 1207.5
341.46 290.98 1145.3
349.23 295.04 1161.2
368.93 309.02 1216.2
375.81 312.11 1228.4
369.28 304.11 1196.9
383.96 313.57 1234.2
403.47 326.78 1286.2
406.52 326.55 1285.3
395.68 315.26 1240.8
380.47 300.70 1183.5
371.88 291.55 1147.5
366.13 284.77 1120.8
377.59 291.37 1146.8
395.29 302.64 1191.2
403.01 306.17 1205.0
391.56 295.17 1161.8
391.77 293.08 1153.5
409.89 304.31 1197.7
406.98 299.88 1180.3
431.43 315.52 1241.9
473.19 343.50 1352.0
445.93 321.33 1264.7
390.28 279.17 1098.8
397.73 282.45 1111.7
443.17 312.45 1229.8
467.25 327.07 1287.3
485.24 337.26 1327.4
503.08 347.20 1366.5
496.08 339.97 1338.1
523.64 356.37 1402.6
528.68 354.87 1396.7
544.34 362.89 1428.3
54.60 481.49 1914.6
58.90 476.10 1893.2
63.44 473.38 1882.4
68.35 473.58 1883.2
72.74 470.37 1870.4
77.06 467.15 1857.6
81.86 467.11 1857.4
85.13 458.77 1824.3
86.42 441.18 1754.3
89.25 432.84 1721.2
94.28 435.46 1731.6
98.42 433.94 1725.6
102.94 434.13 1726.3
107.64 435.04 1729.9
110.66 429.37 1707.4
113.57 423.70 1684.8
115.89 416.33 1655.5
118.96 412.13 1638.8
122.90 411.08 1634.6
126.74 409.79 1629.5
130.08 407.03 1618.5
136.50 413.76 1645.3
141.98 417.32 1659.5
141.65 404.11 1606.9
144.03 399.16 1587.3
153.52 413.65 1644.9
161.73 424.00 1686.0
162.64 415.16 1650.8
163.37 406.32 1615.7
170.82 414.23 1647.1
179.72 405.42 1612.1
178.46 393.43 1564.4
183.37 395.26 1571.7
185.09 390.30 1552.0
188.12 388.25 1543.9
193.15 390.31 1552.1
192.46 381.00 1515.0
193.71 375.80 1494.3
199.69 379.79 1510.2
204.05 380.64 1513.6
206.59 378.10 1503.5
212.03 380.87 1514.5
220.95 389.68 1549.5
222.94 386.17 1535.6
220.03 374.44 1489.0
221.36 370.21 1472.1
226.42 372.25 1480.2
235.24 380.31 1512.3
238.01 378.48 1505.0
235.81 368.94 1467.1
240.31 370.00 1471.3
247.05 374.43 1488.9
245.32 366.10 1455.8
243.27 357.53 1421.7
248.35 359.55 1429.7
253.47 361.56 1437.7
259.65 365.01 1451.5
266.77 369.66 1469.9
273.45 373.58 1485.5
277.36 373.66 1485.8
275.67 366.30 1456.6
274.74 360.14 1432.1
276.66 357.82 1422.8
276.84 353.34 1405.0
276.56 348.39 1385.3
282.52 351.33 1397.1
283.47 348.06 1384.0
278.24 337.37 1341.5
278.99 334.10 1328.5
283.30 335.13 1332.6
287.64 336.15 1336.7
290.75 335.74 1335.1
293.22 334.62 1330.6
292.29 329.68 1310.9
283.78 316.40 1258.2
272.20 300.04 1193.1
267.51 291.55 1159.3
276.77 298.29 1186.1
290.17 309.30 1229.9
294.78 310.80 1235.9
296.68 309.44 1230.5
303.38 313.06 1244.9
301.09 307.43 1222.5
297.52 300.62 1195.4
304.47 304.47 1210.7
311.02 307.85 1224.1
313.53 307.19 1221.5
312.12 302.75 1203.9
308.90 296.66 1179.7
309.78 294.59 1171.4
317.64 299.14 1189.5
324.58 302.73 1203.8
335.66 310.09 1233.0
341.74 312.72 1243.5
331.24 300.28 1194.0
333.60 299.62 1191.4
349.95 311.42 1238.4
352.13 310.52 1234.8
353.22 308.67 1227.4
344.52 298.38 1186.5
331.79 284.81 1132.5
337.53 287.20 1142.0
343.88 290.05 1153.4
362.59 303.20 1205.7
397.36 329.44 1310.0
415.27 341.37 1357.4
419.36 341.83 1359.3
426.06 344.40 1369.5
436.88 350.23 1392.7
440.77 350.45 1393.5
429.00 338.32 1345.3
403.90 315.96 1256.4
388.28 301.30 1198.1
386.57 297.60 1183.4
403.05 307.84 1224.1
413.89 313.65 1247.2
411.26 309.24 1229.7
408.24 304.61 1211.3
422.34 312.72 1243.5
435.32 319.89 1272.0
424.33 309.48 1230.6
415.39 300.69 1195.7
421.70 303.00 1204.9
443.91 316.62 1259.0
436.41 308.99 1228.7
416.96 293.08 1165.4
441.10 307.82 1224.0
460.86 319.31 1269.7
469.80 323.20 1285.2
497.30 339.71 1350.8
503.11 341.27 1357.0
513.37 345.81 1375.1
517.21 345.99 1375.8
513.80 341.36 1357.4
541.52 357.33 1420.9
58.48 467.85 1879.8
62.04 458.16 1840.8
66.11 453.29 1821.3
70.07 448.43 1801.7
73.77 442.59 1778.3
79.26 447.61 1798.4
83.38 444.67 1786.6
86.33 436.17 1752.5
90.91 436.36 1753.2
94.33 431.24 1732.7
96.93 422.98 1699.5
102.48 427.74 1718.6
108.19 432.74 1738.7
109.03 418.69 1682.3
109.46 404.17 1623.9
113.04 401.93 1614.9
117.35 402.34 1616.6
122.47 405.40 1628.8
127.64 408.46 1641.1
129.62 401.40 1612.8
134.57 403.72 1622.1
142.56 414.71 1666.3
144.72 408.61 1641.7
144.55 396.49 1593.0
151.45 403.86 1622.7
158.77 411.94 1655.1
158.45 400.31 1608.4
161.32 397.09 1595.4
171.12 410.68 1650.1
177.81 416.35 1672.8
177.48 405.67 1629.9
179.18 400.04 1607.3
185.61 404.97 1627.1
188.77 402.70 1618.0
188.42 393.23 1579.9
187.65 383.28 1540.0
188.47 376.93 1514.5
193.68 379.45 1524.6
200.69 385.33 1548.2
207.70 390.96 1570.8
212.74 392.75 1578.0
214.51 388.55 1561.1
219.29 389.86 1566.4
226.43 395.23 1588.0
226.56 388.39 1560.5
225.28 379.41 1524.4
227.85 377.13 1515.2
231.54 376.75 1513.7
238.96 382.34 1536.2
238.15 374.80 1505.9
232.72 360.34 1447.8
237.16 361.39 1452.0
244.01 366.02 1470.6
252.25 372.55 1496.8
259.79 377.88 1518.3
259.13 371.29 1491.8
257.83 364.00 1462.5
262.88 365.75 1469.5
268.83 368.68 1481.3
271.15 366.62 1473.0
270.57 360.76 1449.5
270.41 355.61 1428.8
271.43 352.12 1414.8
275.71 352.91 1418.0
279.07 352.51 1416.4
278.62 347.37 1395.7
284.42 350.05 1406.5
294.94 358.41 1440.0
299.32 359.18 1443.2
293.13 347.41 1395.9
290.74 340.38 1367.6
293.53 339.50 1364.1
294.85 336.97 1353.9
299.25 337.97 1357.9
299.86 334.73 1344.9
295.07 325.59 1308.2
285.76 311.74 1252.5
280.33 302.38 1214.9
289.96 309.29 1242.7
295.47 311.71 1252.4
291.57 304.24 1222.4
293.43 302.90 1217.0
299.87 306.25 1230.5
296.85 299.97 1205.2
292.29 292.29 1174.4
302.75 299.63 1203.9
312.87 306.49 1231.4
313.95 304.43 1223.2
310.83 298.40 1198.9
315.97 300.33 1206.7
327.11 307.87 1237.0
328.36 306.04 1229.6
328.05 302.82 1216.7
335.85 307.07 1233.7
338.84 306.88 1233.0
335.06 300.62 1207.8
344.54 306.25 1230.5
350.41 308.62 1240.0
342.47 298.88 1200.9
348.31 301.24 1210.4
347.15 297.56 1195.6
333.07 282.96 1136.9
338.55 285.09 1145.5
344.90 287.92 1156.8
363.36 300.71 1208.2
397.58 326.22 1310.7
414.94 337.58 1356.3
407.55 328.78 1321.0
400.29 320.23 1286.6
409.46 324.86 1305.2
412.26 324.40 1303.4
412.39 321.86 1293.2
399.66 309.41 1243.2
393.59 302.28 1214.5
404.31 308.05 1237.7
413.62 312.66 1256.2
415.04 311.28 1250.7
410.87 305.76 1228.5
405.67 299.57 1203.6
425.39 311.73 1252.5
445.33 323.88 1301.3
460.74 332.56 1336.2
484.30 346.96 1394.0
468.57 333.20 1338.8
469.08 331.12 1330.4
467.61 327.67 1316.5
450.97 313.72 1260.5
466.76 322.37 1295.2
470.08 322.34 1295.1
454.68 309.57 1243.8
456.87 308.87 1241.0
466.49 313.17 1258.3
484.36 322.91 1297.4
493.84 326.96 1313.7
496.50 326.46 1311.7
64.53 437.85 1777.7
63.73 403.64 1638.8
72.13 403.08 1636.6
78.90 416.41 1690.7
84.56 422.81 1716.7
88.80 421.80 1712.6
92.01 416.26 1690.1
95.61 412.86 1676.3
102.14 421.87 1712.9
108.43 429.21 1742.6
109.67 416.73 1692.0
110.05 402.11 1632.6
113.45 399.18 1620.7
118.19 401.02 1628.2
124.07 406.43 1650.2
129.53 410.17 1665.3
131.80 403.89 1639.9
133.69 396.90 1611.5
138.42 398.49 1617.9
143.78 401.74 1631.1
147.10 399.27 1621.1
147.39 388.94 1579.1
147.64 379.09 1539.1
153.41 383.52 1557.1
162.98 396.99 1611.8
169.22 401.89 1631.7
172.07 398.70 1618.8
170.65 385.99 1567.2
171.11 378.04 1534.9
183.74 396.71 1610.7
193.72 408.96 1660.4
189.57 391.50 1589.6
184.47 372.86 1513.9
187.14 370.38 1503.8
194.29 376.68 1529.4
200.31 380.59 1545.3
206.04 383.79 1558.3
213.12 389.36 1580.9
216.89 388.76 1578.4
216.86 381.52 1549.0
218.89 378.08 1535.0
224.60 381.02 1547.0
228.82 381.36 1548.4
234.48 384.07 1559.4
241.23 388.42 1577.1
246.13 389.70 1582.2
243.15 378.68 1537.5
235.02 360.10 1462.1
236.36 356.42 1447.1
243.04 360.77 1464.8
251.26 367.23 1491.0
260.44 374.87 1522.0
260.95 370.00 1502.3
252.08 352.17 1429.9
249.52 343.54 1394.8
259.97 352.81 1432.5
267.61 358.07 1453.8
268.94 354.86 1440.8
270.75 352.35 1430.6
271.04 347.96 1412.8
274.76 348.03 1413.1
282.81 353.51 1435.3
287.54 354.75 1440.3
288.05 350.83 1424.4
293.16 352.54 1431.4
298.90 354.95 1441.1
293.90 344.70 1399.5
289.90 335.86 1363.6
291.24 333.35 1353.5
293.98 332.48 1349.9
299.84 335.12 1360.6
301.94 333.54 1354.2
297.80 325.19 1320.3
303.45 327.58 1330.0
313.29 334.41 1357.8
303.38 320.24 1300.2
289.84 302.58 1228.5
292.86 302.41 1227.8
301.58 308.06 1250.8
304.65 307.89 1250.1
297.72 297.72 1208.8
291.99 288.94 1173.2
301.03 294.82 1197.0
310.90 301.38 1223.6
311.23 298.65 1212.6
305.88 290.59 1179.8
308.26 289.95 1177.2
323.81 301.59 1224.5
330.80 305.11 1238.8
321.65 293.82 1192.9
319.94 289.47 1175.3
332.07 297.61 1208.3
339.15 301.12 1222.6
331.09 291.24 1182.5
320.71 279.52 1134.9
322.91 278.88 1132.3
338.55 289.75 1176.4
364.17 308.90 1254.2
377.85 317.66 1289.8
374.60 312.16 1267.4
369.84 305.52 1240.5
376.17 308.07 1250.8
396.39 321.86 1306.8
408.33 328.74 1334.7
393.14 313.85 1274.3
379.11 300.13 1218.6
380.55 298.78 1213.1
399.86 311.37 1264.2
419.12 323.71 1314.3
406.73 311.61 1265.2
399.81 303.86 1233.7
417.54 314.81 1278.2
436.07 326.20 1324.4
433.36 321.63 1305.9
422.21 310.93 1262.4
424.24 310.02 1258.7
456.94 331.37 1345.4
480.58 345.87 1404.3
497.18 355.13 1441.9
487.48 340.52 1382.5
445.04 308.60 1253.0
433.17 298.20 1210.7
452.15 309.02 1254.7
487.95 331.11 1344.4
506.77 341.44 1386.3
493.13 329.91 1339.5
487.74 324.02 1315.6
504.72 332.98 1351.9
513.30 336.30 1365.4
519.87 338.27 1373.4
44.67 466.56 1914.5
63.54 426.64 1750.6
65.62 411.22 1687.4
71.72 421.35 1729.0
74.74 413.27 1695.8
79.26 413.93 1698.5
83.70 414.12 1699.3
86.69 407.44 1671.9
91.38 409.05 1678.5
96.44 412.06 1690.8
100.75 411.77 1689.6
104.69 410.05 1682.6
108.79 409.05 1678.5
112.08 405.20 1662.7
114.40 398.28 1634.3
117.98 396.09 1625.3
121.08 392.47 1610.4
123.58 387.21 1588.8
130.86 396.81 1628.2
138.11 405.70 1664.7
139.99 398.77 1636.3
142.41 393.73 1615.6
145.69 391.29 1605.6
145.76 380.59 1561.7
148.75 377.91 1550.7
157.60 389.84 1599.7
166.89 402.24 1650.5
172.63 405.67 1664.6
172.99 396.62 1627.5
169.07 378.38 1552.6
169.71 370.99 1522.3
182.42 389.71 1599.1
192.48 402.07 1649.8
188.30 384.79 1578.9
185.75 371.51 1524.4
191.45 374.92 1538.4
193.79 371.76 1525.4
195.06 366.71 1504.7
205.14 378.10 1551.5
216.50 391.36 1605.9
217.94 386.54 1586.1
215.64 375.38 1540.3
215.31 367.98 1510.0
218.31 366.45 1503.7
215.45 355.31 1457.9
214.09 346.98 1423.8
224.91 358.33 1470.3
233.87 366.39 1503.4
240.56 370.70 1521.1
242.25 367.28 1507.1
240.89 359.42 1474.8
245.10 359.98 1477.1
246.24 356.10 1461.2
248.12 353.39 1450.1
251.95 353.48 1450.4
246.15 340.26 1396.2
247.95 337.78 1386.0
263.07 353.26 1449.6
272.52 360.80 1480.5
275.17 359.25 1474.1
275.07 354.20 1453.4
273.03 346.82 1423.1
275.11 344.80 1414.8
281.28 347.90 1427.5
281.04 343.08 1407.8
276.46 333.16 1367.1
281.62 335.09 1375.0
287.02 337.25 1383.9
290.47 337.09 1383.2
295.12 338.31 1388.2
297.55 336.98 1382.8
301.19 337.04 1383.0
302.73 334.79 1373.7
300.84 328.83 1349.3
299.69 323.80 1328.7
308.38 329.41 1351.7
313.03 330.62 1356.6
298.47 311.73 1279.2
289.11 298.64 1225.4
296.64 303.09 1243.7
299.93 303.15 1243.9
296.99 296.99 1218.7
304.40 301.20 1235.9
313.07 306.55 1257.9
310.69 301.08 1235.4
309.40 296.77 1217.7
322.29 306.01 1255.7
328.53 308.81 1267.2
322.49 300.14 1231.6
330.21 304.32 1248.7
337.52 308.03 1263.9
328.93 297.30 1219.9
326.00 291.85 1197.6
336.90 298.76 1225.9
346.63 304.52 1249.5
341.51 297.24 1219.7
331.74 286.09 1173.9
335.10 286.36 1175.0
342.78 290.28 1191.1
355.14 298.07 1223.1
375.60 312.44 1282.1
379.50 312.92 1284.0
377.28 308.39 1265.4
385.35 312.27 1281.4
388.70 312.29 1281.4
382.63 304.81 1250.7
390.78 308.68 1266.6
402.47 315.27 1293.6
400.00 310.74 1275.1
417.12 321.39 1318.8
441.84 337.67 1385.6
437.07 331.33 1359.5
429.76 323.18 1326.1
448.01 334.23 1371.5
481.40 356.32 1462.1
492.20 361.46 1483.2
477.76 348.14 1428.5
480.79 347.65 1426.5
475.04 340.87 1398.7
454.96 323.99 1329.4
463.78 327.79 1345.0
483.86 339.43 1392.8
503.52 350.60 1438.6
487.09 336.66 1381.5
470.39 322.75 1324.4
481.34 327.87 1345.4
503.28 340.35 1396.6
508.54 336.64 1381.4
62.25 445.34 1847.1
65.31 433.83 1799.3
72.31 448.31 1859.4
76.56 444.99 1845.6
77.65 424.80 1761.8
82.39 425.69 1765.5
87.05 426.11 1767.3
88.86 413.18 1713.7
92.55 409.85 1699.8
97.66 412.84 1712.2
101.97 412.31 1710.0
105.96 410.61 1703.0
110.17 409.85 1699.8
112.14 401.13 1663.7
113.04 389.37 1614.9
116.72 387.66 1607.8
119.70 383.85 1592.0
121.99 378.17 1568.4
129.23 387.68 1607.9
135.70 394.38 1635.7
137.01 386.12 1601.4
137.20 375.30 1556.5
145.66 376.30 1560.7
157.10 394.88 1637.8
159.12 389.42 1615.1
161.02 383.96 1592.5
167.21 388.76 1612.4
168.37 381.90 1583.9
169.80 375.98 1559.4
175.84 380.30 1577.3
184.51 389.99 1617.4
190.34 393.37 1631.5
189.22 382.55 1586.6
190.10 376.15 1560.1
190.48 369.06 1530.7
187.53 355.92 1476.2
196.42 365.34 1515.3
214.18 390.57 1619.9
218.83 391.37 1623.2
213.30 374.28 1552.3
213.21 367.19 1522.9
215.16 363.82 1508.9
216.76 359.98 1493.0
212.45 346.63 1437.6
213.64 342.56 1420.8
227.10 357.97 1484.7
231.31 358.53 1487.0
232.95 355.15 1473.0
239.77 359.65 1491.6
244.01 360.20 1493.9
248.42 360.99 1497.2
249.29 356.68 1479.3
246.95 347.98 1443.2
246.43 342.06 1418.7
246.80 337.53 1399.9
254.60 343.16 1423.2
265.83 353.17 1464.8
270.92 354.86 1471.8
271.93 351.25 1456.8
269.61 343.48 1424.6
274.10 344.48 1428.7
283.07 351.00 1455.8
287.46 351.76 1458.9
285.01 344.23 1427.7
274.88 327.74 1359.3
275.14 323.90 1343.4
289.76 336.84 1397.0
302.04 346.78 1438.3
296.51 336.28 1394.7
287.89 322.58 1337.9
298.87 330.90 1372.4
307.72 336.69 1396.4
305.04 329.87 1368.1
303.50 324.43 1345.6
308.34 325.86 1351.5
309.05 322.94 1339.4
309.48 319.79 1326.3
313.86 320.76 1330.3
314.65 318.07 1319.2
310.82 310.82 1289.1
304.53 301.29 1249.6
309.93 303.40 1258.4
323.59 313.48 1300.2
324.64 311.25 1290.9
308.37 292.64 1213.7
306.49 287.92 1194.1
329.20 306.15 1269.8
341.91 314.83 1305.7
337.87 308.06 1277.7
333.43 301.06 1248.6
340.52 304.50 1262.9
354.58 314.06 1302.5
357.74 313.86 1301.7
357.76 310.95 1289.6
361.92 311.66 1292.6
360.80 307.84 1276.8
362.81 306.74 1272.2
369.10 309.25 1282.6
369.74 307.01 1273.3
375.80 309.29 1282.8
385.23 314.27 1303.4
388.62 314.28 1303.5
392.02 314.29 1303.5
389.19 309.36 1283.0
387.12 305.10 1265.4
401.33 313.65 1300.8
431.06 334.07 1385.5
447.76 344.15 1427.3
426.16 324.86 1347.3
410.70 310.53 1287.9
420.60 315.45 1308.3
431.50 321.03 1331.5
427.98 315.89 1310.1
434.41 318.11 1319.4
472.21 343.09 1422.9
490.38 353.53 1466.3
481.36 344.36 1428.2
463.38 328.97 1364.4
485.51 342.06 1418.7
532.36 372.25 1543.9
499.60 344.17 1427.4
506.48 346.34 1436.4
513.40 348.51 1445.4
508.20 342.48 1420.4
510.82 341.77 1417.5
593.03 391.15 1622.3
63.34 448.23 1879.2
67.82 445.65 1868.4
70.95 435.17 1824.5
71.48 411.02 1723.2
73.03 395.21 1657.0
78.27 400.04 1677.2
85.77 415.29 1741.1
90.52 416.39 1745.7
93.82 411.01 1723.2
98.55 412.11 1727.8
103.36 413.44 1733.4
107.90 413.61 1734.1
112.06 412.39 1729.0
113.97 403.30 1690.8
114.87 391.42 1641.1
118.76 390.20 1635.9
122.03 387.12 1623.0
124.40 381.49 1599.4
130.63 387.67 1625.3
136.42 392.21 1644.4
139.41 388.67 1629.5
141.21 382.11 1602.0
142.52 374.63 1570.7
151.08 386.10 1618.7
159.70 397.10 1664.9
158.64 384.07 1610.2
158.47 373.82 1567.3
162.39 373.50 1565.9
167.95 376.86 1580.0
174.21 381.61 1599.9
177.88 380.59 1595.6
183.73 384.17 1610.7
191.47 391.44 1641.1
192.44 384.88 1613.6
193.74 379.23 1590.0
194.56 372.90 1563.4
192.79 361.97 1517.6
202.92 373.36 1565.3
217.24 391.89 1643.0
217.66 385.09 1614.5
215.41 373.92 1567.7
218.73 372.65 1562.3
221.33 370.22 1552.2
223.32 366.88 1538.2
219.97 355.04 1488.5
221.87 351.93 1475.5
232.82 363.04 1522.1
233.99 358.78 1504.2
234.60 353.83 1483.4
240.37 356.67 1495.4
241.64 352.87 1479.4
242.51 348.61 1461.6
249.27 352.82 1479.2
252.51 351.99 1475.7
255.40 350.70 1470.3
259.95 351.70 1474.5
265.03 353.38 1481.6
273.11 358.94 1504.9
275.83 357.41 1498.5
274.23 350.41 1469.1
270.85 341.35 1431.1
274.44 341.20 1430.5
290.29 356.09 1492.9
302.12 365.72 1533.3
300.23 358.72 1503.9
290.47 342.61 1436.4
288.00 335.39 1406.1
300.40 345.46 1448.4
308.21 350.07 1467.7
297.48 333.76 1399.3
289.28 320.65 1344.3
300.29 328.88 1378.9
315.86 341.87 1433.3
319.62 341.92 1433.5
319.31 337.66 1415.7
325.41 340.20 1426.3
320.39 331.19 1388.5
314.74 321.74 1348.9
325.45 329.02 1379.4
332.00 332.00 1391.9
322.87 319.40 1339.1
311.39 304.77 1277.8
318.49 308.43 1293.1
334.83 320.88 1345.3
340.98 323.40 1355.9
327.01 306.99 1287.1
310.78 288.80 1210.8
319.11 293.58 1230.9
335.19 305.32 1280.1
335.56 302.66 1268.9
333.37 297.76 1248.4
341.72 302.29 1267.4
358.11 313.77 1315.5
363.36 315.37 1322.2
360.82 310.24 1300.7
362.91 309.14 1296.1
372.40 314.32 1317.8
385.19 322.16 1350.7
388.98 322.40 1351.7
386.25 317.27 1330.2
386.42 314.61 1319.0
389.86 314.62 1319.1
384.94 307.95 1291.1
377.91 299.72 1256.6
391.66 307.98 1291.2
408.72 318.66 1336.0
417.93 323.11 1354.6
441.14 338.20 1417.9
460.84 350.39 1469.0
441.68 333.07 1396.4
422.77 316.22 1325.7
431.57 320.20 1342.4
437.74 322.18 1350.7
427.30 311.99 1308.1
417.26 302.27 1267.3
436.82 313.97 1316.3
434.03 309.54 1297.8
408.72 289.25 1212.7
429.44 301.59 1264.4
506.61 353.09 1480.4
508.89 346.80 1454.0
476.57 322.39 1351.6
525.42 352.84 1479.3
525.64 347.91 1458.6
67.25 437.16 1852.9
67.51 409.58 1736.1
70.92 403.35 1709.6
75.30 403.08 1708.5
79.86 403.72 1711.2
86.82 415.83 1762.5
92.64 421.51 1786.6
96.94 420.08 1780.6
98.77 408.56 1731.7
100.76 398.64 1689.7
106.63 404.31 1713.7
112.25 408.60 1731.9
116.66 408.31 1730.7
120.24 405.26 1717.8
123.62 401.76 1702.9
126.11 395.73 1677.3
126.66 384.21 1628.5
131.17 385.05 1632.1
141.17 401.45 1701.6
148.79 410.29 1739.1
148.82 398.31 1688.3
148.24 385.41 1633.6
150.90 381.44 1616.8
153.20 376.78 1597.0
156.15 373.95 1585.0
160.22 373.86 1584.6
164.29 373.76 1584.2
170.41 378.24 1603.2
177.37 384.30 1628.9
181.54 384.20 1628.5
182.63 377.70 1600.9
185.14 374.40 1587.0
192.89 381.60 1617.4
201.15 389.46 1650.8
199.96 379.09 1606.8
195.96 363.93 1542.6
201.78 367.24 1556.6
211.49 377.37 1599.5
213.62 373.83 1584.5
212.62 365.06 1547.4
221.28 372.90 1580.6
229.57 379.83 1609.9
227.22 369.24 1565.1
219.53 350.47 1485.5
217.36 341.03 1445.5
223.68 344.99 1462.3
227.23 344.64 1460.8
230.17 343.37 1455.4
235.56 345.74 1465.5
236.28 341.30 1446.6
242.33 344.56 1460.5
253.95 355.53 1506.9
259.89 358.33 1518.8
266.21 361.58 1532.6
272.44 364.59 1545.4
279.08 368.06 1560.1
279.35 363.15 1539.3
274.04 351.24 1488.8
275.28 347.92 1474.7
274.81 342.57 1452.0
274.96 338.13 1433.2
287.10 348.35 1476.5
300.40 359.69 1524.6
300.59 355.24 1505.7
292.57 341.33 1446.8
291.88 336.21 1425.1
295.23 335.82 1423.4
293.36 329.58 1397.0
296.64 329.19 1395.3
302.97 332.17 1408.0
309.16 334.93 1419.6
319.60 342.16 1450.3
327.44 346.47 1468.6
331.28 346.51 1468.7
333.18 344.54 1460.4
324.51 331.81 1406.4
312.48 315.95 1339.2
317.12 317.12 1344.2
326.31 322.76 1368.1
319.39 312.52 1324.7
316.64 306.54 1299.3
332.88 318.87 1351.6
340.67 322.92 1368.7
338.31 317.38 1345.3
339.92 315.64 1337.9
336.15 308.99 1309.7
331.27 301.46 1277.8
333.64 300.61 1274.2
337.74 301.32 1277.2
338.83 299.36 1268.9
340.39 297.84 1262.4
349.59 302.98 1284.2
359.94 309.00 1309.7
362.84 308.58 1308.0
363.89 306.62 1299.6
372.33 310.85 1317.6
390.21 322.81 1368.3
399.71 327.69 1388.9
400.05 325.04 1377.7
404.73 325.93 1381.5
417.99 333.66 1414.2
423.04 334.76 1418.9
395.53 310.29 1315.2
388.19 301.93 1279.8
401.23 309.42 1311.5
405.21 309.87 1313.4
423.40 321.08 1360.9
436.85 328.54 1392.6
444.27 331.38 1404.6
453.52 335.53 1422.2
450.91 330.91 1402.6
444.59 323.66 1371.9
462.67 334.15 1416.3
482.18 345.50 1464.4
469.63 333.88 1415.2
433.95 306.12 1297.5
411.12 287.78 1219.8
435.63 302.61 1282.7
496.14 342.03 1449.7
479.49 323.21 1370.0
468.38 313.40 1328.4
62.69 434.00 1860.0
63.51 408.30 1749.9
67.10 402.59 1725.4
73.50 413.45 1771.9
78.99 418.17 1792.2
84.71 423.57 1815.3
91.28 432.38 1853.0
96.63 434.82 1863.5
98.96 424.10 1817.6
98.83 404.30 1732.7
101.05 395.40 1694.6
107.24 402.14 1723.5
112.44 404.80 1734.9
116.46 403.15 1727.8
117.32 391.06 1676.0
118.05 379.44 1626.2
122.46 380.05 1628.8
124.85 374.54 1605.2
127.27 369.48 1583.5
134.65 378.69 1623.0
144.80 394.92 1692.5
147.96 391.67 1678.6
147.88 380.26 1629.7
150.80 377.01 1615.8
153.19 372.62 1597.0
156.24 370.05 1585.9
161.69 373.12 1599.1
167.50 376.87 1615.2
172.98 379.72 1627.4
179.37 384.36 1647.3
188.12 393.75 1687.5
193.77 396.35 1698.6
192.59 385.18 1650.8
196.70 384.84 1649.3
201.15 385.18 1650.8
196.22 367.92 1576.8
192.52 353.60 1515.4
198.26 356.87 1529.5
206.76 364.87 1563.7
207.62 359.35 1540.1
209.42 355.63 1524.1
221.14 368.57 1579.6
229.15 374.97 1607.0
226.65 364.26 1561.1
222.07 350.64 1502.7
223.13 346.24 1483.9
228.52 348.59 1493.9
231.11 346.66 1485.7
236.85 349.45 1497.6
245.12 355.83 1525.0
245.68 350.97 1504.2
251.56 353.75 1516.1
261.38 361.91 1551.0
265.78 362.43 1553.3
266.03 357.35 1531.5
266.00 352.05 1508.8
258.29 336.91 1443.9
244.35 314.16 1346.4
253.91 321.85 1379.4
270.60 338.25 1449.7
274.42 338.33 1450.0
278.79 339.07 1453.1
286.89 344.27 1475.4
296.24 350.81 1503.5
294.08 343.73 1473.1
283.84 327.51 1403.6
290.28 330.69 1417.3
300.94 338.55 1450.9
295.73 328.59 1408.2
295.18 323.98 1388.5
299.65 324.92 1392.5
304.15 325.87 1396.6
318.10 336.81 1443.5
329.53 344.85 1477.9
326.96 338.23 1449.6
322.73 330.07 1414.6
324.47 328.12 1406.2
323.73 323.73 1387.4
316.85 313.37 1343.0
313.59 306.77 1314.7
319.56 309.26 1325.4
329.98 315.94 1354.0
342.16 324.15 1389.2
346.03 324.41 1390.3
342.54 317.82 1362.1
342.98 314.99 1349.9
341.91 310.83 1332.1
340.02 306.02 1311.5
347.91 310.02 1328.7
357.38 315.33 1351.4
351.60 307.22 1316.7
346.67 300.00 1285.7
353.11 302.67 1297.1
360.39 305.99 1311.4
368.25 309.74 1327.5
373.82 311.52 1335.1
372.00 307.16 1316.4
378.65 309.80 1327.7
409.64 332.14 1423.4
432.92 347.88 1490.9
431.01 343.28 1471.2
437.30 345.23 1479.6
454.22 355.48 1523.5
437.90 339.75 1456.1
415.03 319.25 1368.2
413.15 315.11 1350.5
416.36 314.90 1349.6
433.78 325.33 1394.3
442.63 329.23 1411.0
444.50 327.91 1405.3
457.32 334.62 1434.1
458.91 333.08 1427.5
481.24 346.49 1485.0
536.17 379.96 1628.4
500.01 351.57 1506.7
494.26 344.83 1477.8
507.07 351.05 1504.5
518.13 355.96 1525.6
535.91 365.40 1566.0
544.98 368.78 1580.5
510.52 342.88 1469.5
502.00 334.66 1434.3
543.32 359.55 1540.9
54.86 443.87 1923.7
59.90 444.29 1925.5
62.50 427.85 1854.3
65.71 417.70 1810.3
71.68 425.30 1843.2
75.40 419.42 1817.7
78.17 409.27 1773.7
79.99 395.52 1714.1
82.75 387.62 1679.9
88.36 393.18 1704.0
91.33 387.07 1677.5
97.28 393.53 1705.5
105.51 408.28 1769.4
109.30 405.30 1756.5
111.94 398.51 1727.1
116.79 399.79 1732.6
118.47 390.53 1692.5
123.33 365.88 1585.7
135.07 387.77 1680.6
137.06 381.20 1652.1
141.23 380.90 1650.7
148.73 389.33 1687.3
153.60 390.59 1692.7
156.32 386.47 1674.9
158.58 381.45 1653.2
158.82 371.96 1612.0
161.39 368.29 1596.1
167.80 373.35 1618.0
174.11 377.95 1638.0
174.62 370.02 1603.6
176.67 365.68 1584.8
192.11 388.59 1684.1
197.27 381.67 1654.1
193.36 366.15 1586.9
194.65 360.91 1564.1
197.29 358.35 1553.0
202.01 359.57 1558.3
209.69 365.93 1585.9
216.99 371.38 1609.5
225.20 378.17 1638.9
229.24 377.82 1637.4
229.27 371.01 1607.9
228.60 363.31 1574.5
225.62 352.28 1526.7
225.43 345.92 1499.2
229.38 346.02 1499.6
235.88 349.89 1516.4
245.66 358.43 1553.4
256.87 368.73 1598.0
260.59 368.14 1595.5
256.65 356.90 1546.7
256.82 351.65 1524.0
261.98 353.28 1531.1
263.17 349.59 1515.1
264.62 346.34 1501.0
258.44 333.35 1444.7
246.75 313.72 1359.6
258.28 323.76 1403.2
272.90 337.34 1462.0
274.03 334.09 1447.9
279.68 336.37 1457.8
289.66 343.73 1489.7
291.50 341.36 1479.4
281.25 325.09 1408.9
284.00 324.05 1404.4
304.14 342.63 1484.9
309.22 344.01 1490.9
298.30 327.76 1420.5
302.44 328.26 1422.6
312.13 334.69 1450.5
318.43 337.38 1462.2
334.86 350.62 1519.5
332.68 344.28 1492.1
316.62 323.90 1403.7
321.17 324.82 1407.7
331.67 331.67 1437.4
333.00 329.30 1427.1
328.45 321.23 1392.2
323.04 312.51 1354.4
327.29 313.21 1357.4
334.55 316.75 1372.8
344.45 322.69 1398.5
349.28 323.82 1403.4
347.48 318.82 1381.7
349.90 317.76 1377.1
351.32 315.83 1368.8
347.31 309.10 1339.6
353.29 311.31 1349.2
367.30 320.49 1388.9
365.38 315.72 1368.3
365.65 312.92 1356.1
377.40 319.89 1386.4
376.10 315.78 1368.6
374.45 311.46 1349.8
382.45 315.16 1365.9
383.08 312.79 1355.6
387.42 313.46 1358.5
415.25 332.95 1443.0
429.88 341.60 1480.5
416.69 328.19 1422.3
403.77 315.22 1366.1
398.94 308.75 1338.1
415.35 318.68 1381.1
432.54 329.02 1425.9
432.22 326.00 1412.8
438.46 327.92 1421.2
456.34 338.45 1466.8
465.08 342.08 1482.6
471.24 343.78 1489.9
487.53 352.76 1528.8
493.23 354.01 1534.2
523.35 372.62 1614.9
522.42 363.25 1574.3
527.66 364.05 1577.7
548.21 375.31 1626.5
562.77 376.59 1632.1
561.14 367.22 1591.5
584.77 374.42 1622.7
64.83 438.85 1923.5
69.32 435.70 1909.7
72.63 426.10 1867.6
73.91 406.50 1781.7
77.66 402.01 1762.1
80.45 393.30 1723.9
81.31 376.59 1650.6
85.12 374.54 1641.7
