ply
format ascii 1.0
element vertex 2115
property float x
property float y
property float z
end_header
1529.07 -854.13 2303.8
1532.28 -842.76 2273.2
1569.63 -853.45 2302.0
1617.93 -863.30 2328.6
1601.37 -851.28 2296.2
1623.15 -847.12 2284.9
1606.69 -835.48 2253.5
1649.16 -854.46 2304.7
1737.53 -848.01 2287.3
1840.69 -843.65 2275.6
1848.66 -844.60 2278.1
1308.25 -872.17 2336.2
1299.47 -858.37 2299.2
1338.66 -841.78 2254.8
1346.53 -843.04 2258.2
1440.84 -871.77 2335.1
1450.26 -862.96 2311.5
1498.84 -880.95 2359.7
1454.63 -851.49 2280.8
1451.77 -846.38 2267.1
1489.11 -864.65 2316.0
1467.12 -848.45 2272.6
1502.69 -851.92 2281.9
1499.60 -846.83 2268.3
1569.40 -849.60 2275.7
1583.34 -853.94 2287.3
1642.70 -863.32 2312.5
1646.29 -862.06 2309.1
1752.96 -852.79 2284.3
1773.24 -859.75 2302.9
1739.27 -832.07 2228.8
1777.92 -847.75 2270.8
1777.59 -844.80 2262.8
1843.58 -842.78 2257.4
1254.19 -878.54 2337.0
1267.74 -875.34 2328.5
1292.45 -871.65 2318.7
1299.49 -872.34 2320.5
1327.96 -887.35 2360.4
1297.20 -862.82 2295.2
1337.03 -873.29 2323.0
1484.45 -847.42 2254.2
1473.94 -838.12 2229.5
1587.43 -865.33 2301.9
1607.66 -866.58 2305.2
1739.73 -852.23 2267.0
1757.63 -858.10 2282.6
1813.26 -845.41 2248.9
1877.94 -872.76 2321.6
1870.62 -858.35 2283.3
1885.93 -862.65 2294.7
1253.04 -875.33 2312.5
1299.54 -878.39 2320.6
1326.28 -876.18 2314.8
1321.93 -869.38 2296.8
1460.78 -853.09 2253.8
1478.04 -859.74 2271.3
1501.87 -846.61 2236.7
1561.71 -860.42 2273.1
1601.23 -869.07 2296.0
1598.57 -861.22 2275.3
1779.99 -846.51 2236.4
1795.42 -842.86 2226.7
1867.26 -873.78 2308.4
1879.43 -865.60 2286.8
851.92 -676.93 1776.2
873.32 -682.86 1791.8
1304.31 -883.56 2318.4
1354.65 -892.97 2343.1
1457.38 -878.01 2303.8
1466.74 -869.40 2281.2
1500.53 -858.28 2252.0
1603.65 -869.88 2282.5
1774.63 -860.96 2259.1
1852.73 -864.61 2268.6
843.13 -674.51 1757.9
858.01 -682.71 1779.3
912.54 -710.82 1852.5
915.24 -709.19 1848.3
1276.51 -891.15 2322.5
1313.28 -887.51 2313.0
1362.77 -904.44 2357.1
1425.06 -893.68 2329.1
1426.65 -887.16 2312.1
1516.97 -877.00 2285.6
1513.85 -871.79 2272.0
1513.33 -868.11 2262.4
1522.32 -869.90 2267.1
1530.79 -871.38 2271.0
1533.40 -869.52 2266.1
1748.92 -859.93 2241.1
1763.33 -864.15 2252.1
1768.54 -861.00 2243.9
822.05 -676.71 1751.8
885.89 -698.40 1807.9
904.79 -709.54 1836.8
912.63 -708.24 1833.4
1239.10 -891.91 2308.9
1264.72 -897.35 2323.0
1293.24 -887.99 2298.7
1310.50 -895.71 2318.7
1325.49 -901.82 2334.5
1404.25 -890.35 2304.8
1441.97 -910.40 2356.7
1432.64 -874.85 2264.7
1472.37 -860.32 2227.1
1589.52 -890.37 2304.9
1582.72 -879.94 2277.9
1844.54 -886.57 2295.1
830.08 -684.13 1759.2
829.85 -680.21 1749.1
847.45 -690.86 1776.5
884.41 -701.92 1804.9
918.74 -725.32 1865.1
1449.21 -913.37 2348.7
1541.57 -882.58 2269.5
1580.29 -887.80 2282.9
1597.17 -880.79 2264.9
1853.20 -885.29 2276.5
790.06 -685.63 1751.4
802.09 -692.09 1767.9
852.11 -699.29 1786.3
848.22 -692.33 1768.5
918.07 -729.63 1863.8
897.35 -709.43 1812.2
926.04 -728.29 1860.3
1231.69 -902.84 2306.2
1294.71 -900.93 2301.3
1299.78 -892.12 2278.8
1379.76 -917.81 2344.5
1403.22 -917.25 2343.0
1413.74 -908.40 2320.4
1422.32 -906.20 2314.8
1428.33 -906.21 2314.8
1411.84 -892.00 2278.5
1450.09 -868.91 2219.5
1480.35 -883.53 2256.9
1488.79 -885.07 2260.8
1528.84 -881.13 2250.7
1834.43 -887.81 2267.8
1850.23 -892.60 2280.1
1830.42 -880.24 2248.5
782.31 -699.48 1775.0
817.45 -698.04 1771.4
844.18 -697.37 1769.6
850.45 -698.75 1773.1
891.64 -720.90 1829.4
911.33 -732.92 1859.9
896.99 -717.59 1821.0
891.26 -709.28 1799.9
1262.07 -913.50 2318.1
1258.68 -906.73 2300.9
1291.04 -904.32 2294.8
1367.44 -919.70 2333.8
1342.33 -898.83 2280.9
1388.65 -894.38 2269.6
1434.77 -920.19 2335.1
1411.41 -897.63 2277.8
1412.32 -894.47 2269.8
1487.73 -893.82 2268.1
1447.08 -865.97 2197.5
1480.03 -882.22 2238.7
1825.86 -895.26 2271.8
1848.24 -903.32 2292.3
1861.03 -895.18 2271.6
761.44 -693.45 1748.2
780.41 -706.53 1781.2
826.30 -710.24 1790.5
838.91 -701.39 1768.2
848.42 -705.48 1778.5
854.30 -706.53 1781.2
891.81 -725.78 1829.7
898.64 -727.47 1834.0
920.90 -741.56 1869.5
1248.45 -918.33 2315.1
1336.58 -908.87 2291.3
1348.81 -913.13 2302.0
1406.54 -908.02 2289.1
1394.86 -889.23 2241.7
1405.06 -888.32 2239.5
1448.80 -912.21 2299.7
1495.75 -900.98 2271.4
1495.31 -897.19 2261.8
1510.66 -895.86 2258.5
1605.73 -903.22 2277.0
1841.79 -906.09 2284.3
750.73 -688.17 1723.6
842.52 -705.15 1766.2
840.24 -699.44 1751.9
853.43 -706.60 1769.8
1260.51 -907.10 2272.0
1346.72 -925.87 2319.0
1353.28 -926.25 2319.9
1386.29 -904.61 2265.7
1396.14 -903.38 2262.6
1397.28 -892.87 2236.3
1451.26 -915.96 2294.1
1488.58 -888.53 2225.5
1523.43 -905.82 2268.8
1510.15 -894.47 2240.3
1617.60 -905.86 2268.8
1841.34 -911.79 2283.7
1827.11 -901.84 2258.8
814.86 -713.58 1775.7
823.87 -717.42 1785.3
821.32 -688.13 1712.4
842.58 -702.15 1747.3
879.17 -728.72 1813.4
911.59 -735.92 1831.3
932.34 -748.77 1863.3
1225.15 -926.34 2305.2
1288.46 -933.23 2322.3
1292.75 -931.98 2319.2
1279.05 -917.83 2284.0
1323.16 -919.69 2288.6
1345.32 -930.91 2316.6
1362.98 -914.56 2275.9
1421.09 -949.44 2362.7
1416.67 -938.39 2335.2
1414.86 -933.21 2322.3
1395.50 -901.26 2242.8
1431.95 -920.97 2291.8
1457.98 -929.99 2314.2
1435.11 -911.65 2268.6
1457.32 -907.17 2257.5
1433.79 -888.95 2212.1
1476.52 -904.59 2251.0
1610.29 -917.63 2283.5
1629.25 -925.03 2301.9
1700.24 -927.95 2309.2
1679.43 -913.38 2272.9
742.81 -702.30 1736.4
788.98 -703.32 1739.0
806.45 -714.80 1767.4
831.39 -708.73 1752.3
904.34 -754.42 1865.3
901.61 -744.19 1840.0
902.41 -737.04 1822.4
1288.16 -934.67 2311.0
1276.76 -922.10 2279.9
1299.50 -929.92 2299.2
1289.73 -918.71 2271.5
1306.65 -914.07 2260.1
1339.17 -932.63 2306.0
1366.63 -947.53 2342.8
1322.83 -909.08 2247.7
1348.94 -910.97 2252.4
1410.80 -940.53 2325.5
1386.85 -920.63 2276.3
1425.36 -942.19 2329.6
1407.55 -914.91 2262.1
1400.41 -906.49 2241.3
1417.83 -913.97 2259.8
1417.16 -909.78 2249.5
1426.56 -912.06 2255.1
1520.85 -923.16 2282.5
1607.86 -925.56 2288.5
1624.60 -931.76 2303.8
1640.30 -937.31 2317.5
1667.86 -925.93 2289.4
1643.88 -909.38 2248.5
1653.49 -911.46 2253.6
1679.46 -922.52 2281.0
1712.53 -918.06 2269.9
807.36 -716.13 1759.4
907.14 -753.55 1851.3
1267.77 -943.32 2317.5
1282.07 -949.46 2332.6
1282.54 -911.13 2238.4
1313.88 -929.18 2282.8
1329.76 -915.67 2249.6
1380.99 -938.60 2305.9
1367.65 -921.55 2264.0
1388.77 -931.78 2289.2
1407.62 -936.43 2300.6
1422.08 -938.10 2304.7
1475.49 -919.25 2258.4
1587.24 -929.84 2284.4
1659.27 -940.46 2310.5
1714.30 -937.79 2303.9
1694.39 -917.31 2253.6
737.19 -693.31 1692.5
772.05 -709.21 1731.3
772.43 -705.46 1722.2
796.19 -710.72 1735.0
812.08 -716.80 1749.9
819.07 -718.96 1755.2
874.92 -735.31 1795.1
889.93 -743.97 1816.2
899.23 -747.78 1825.5
904.39 -748.13 1826.4
921.27 -758.13 1850.8
965.72 -782.48 1910.2
1258.03 -937.59 2288.9
1280.70 -915.61 2235.2
1299.32 -924.74 2257.5
1359.06 -958.62 2340.2
1353.79 -950.66 2320.8
1351.60 -940.76 2296.6
1354.98 -934.88 2282.2
1391.89 -947.93 2314.1
1370.61 -929.42 2268.9
1405.43 -948.97 2316.6
1388.30 -917.79 2240.5
1432.48 -935.26 2283.2
1440.42 -925.15 2258.5
1486.49 -939.46 2293.4
1446.01 -892.46 2178.7
1519.96 -920.13 2246.2
1597.40 -927.90 2265.2
1710.89 -945.18 2307.4
1832.69 -934.08 2280.3
1845.46 -937.56 2288.8
740.72 -701.04 1700.6
755.02 -710.35 1723.2
764.89 -715.40 1735.5
820.91 -729.19 1768.9
815.67 -720.51 1747.9
803.39 -698.02 1693.3
817.15 -706.13 1713.0
835.46 -718.04 1741.9
841.67 -719.49 1745.4
861.39 -732.41 1776.7
871.79 -737.32 1788.6
872.76 -734.22 1781.1
887.77 -742.93 1802.2
899.13 -748.49 1815.7
916.97 -755.43 1832.6
1271.99 -945.08 2292.6
1270.36 -930.82 2258.0
1287.00 -938.68 2277.1
1318.64 -953.02 2311.9
1283.53 -923.45 2240.2
1329.72 -943.86 2289.7
1334.40 -934.67 2267.4
1335.26 -927.10 2249.0
1405.41 -923.39 2240.0
1447.50 -947.13 2297.6
1417.80 -912.67 2214.0
1453.22 -931.70 2260.2
1481.38 -942.16 2285.6
1449.13 -917.98 2226.9
1498.40 -930.65 2257.6
1458.06 -902.07 2188.3
1456.91 -897.86 2178.1
1496.86 -918.92 2229.2
1653.58 -952.60 2310.9
1641.14 -942.03 2285.2
1650.98 -914.65 2218.8
1828.43 -946.97 2297.2
1848.31 -948.01 2299.7
739.02 -703.83 1696.7
754.80 -714.61 1722.7
765.42 -720.40 1736.7
796.87 -736.99 1776.7
789.64 -726.11 1750.4
786.99 -707.41 1705.4
804.91 -719.48 1734.5
827.66 -723.63 1744.5
862.90 -750.34 1808.9
856.69 -740.92 1786.2
835.33 -718.56 1732.3
858.28 -734.36 1770.3
872.36 -742.44 1789.8
865.91 -733.04 1767.2
871.36 -733.78 1768.9
884.31 -740.78 1785.8
904.17 -745.71 1797.7
1283.55 -955.20 2302.7
1287.93 -945.27 2278.8
1281.68 -927.91 2236.9
1359.25 -958.06 2309.6
1334.15 -936.25 2257.0
1320.38 -922.54 2224.0
1387.04 -956.58 2306.0
1369.78 -928.66 2238.7
1477.71 -938.23 2261.8
1491.99 -939.84 2265.7
1503.75 -936.18 2256.9
1502.20 -931.60 2245.8
1488.93 -916.27 2208.9
1648.18 -935.14 2254.3
1629.74 -921.41 2221.3
1653.92 -922.05 2222.8
1700.97 -944.99 2278.1
1861.81 -957.84 2309.1
795.56 -736.12 1763.6
797.13 -733.36 1756.9
789.75 -722.44 1730.8
790.12 -710.66 1702.6
814.01 -728.09 1744.3
871.10 -762.21 1826.1
845.10 -735.47 1762.0
829.40 -717.93 1720.0
859.26 -739.79 1772.3
879.90 -753.53 1805.3
878.97 -744.82 1784.4
882.80 -744.14 1782.8
903.32 -757.47 1814.7
910.13 -759.23 1818.9
909.38 -754.69 1808.1
1243.33 -957.78 2294.6
1258.68 -960.42 2300.9
1288.11 -964.58 2310.9
1319.06 -956.61 2291.8
1300.15 -938.67 2248.8
1351.75 -962.97 2307.0
1321.06 -936.96 2244.7
1333.21 -941.43 2255.4
1366.78 -956.74 2292.1
1390.20 -968.93 2321.3
1385.49 -949.21 2274.1
1391.96 -945.59 2265.4
1387.91 -934.95 2239.9
1427.58 -938.12 2247.5
1457.23 -923.68 2212.9
1474.96 -931.25 2231.0
1606.26 -961.37 2303.2
1685.34 -958.80 2297.0
1658.55 -936.94 2244.7
1700.48 -950.62 2277.4
1664.57 -924.12 2214.0
751.38 -707.69 1685.0
777.27 -727.85 1733.0
786.10 -731.89 1742.6
792.26 -733.41 1746.2
789.90 -727.07 1731.1
829.76 -738.58 1758.5
827.18 -732.26 1743.5
818.89 -720.98 1716.6
832.32 -728.84 1735.3
867.17 -751.24 1788.7
861.19 -742.09 1766.9
883.38 -749.25 1783.9
902.21 -761.24 1812.5
1267.89 -982.76 2339.9
1257.30 -965.32 2298.4
1253.80 -944.72 2249.3
1299.50 -956.91 2278.4
1318.94 -945.44 2251.0
1339.19 -955.72 2275.5
1378.64 -950.38 2262.8
1485.69 -951.31 2265.0
1446.39 -922.50 2196.4
1642.59 -971.17 2312.3
1659.81 -967.23 2302.9
1674.60 -962.00 2290.5
1695.48 -970.56 2310.9
1699.98 -956.24 2276.8
1676.13 -939.56 2237.1
1838.21 -963.72 2294.6
704.84 -736.47 1742.7
714.57 -727.97 1722.6
743.31 -729.88 1727.2
743.85 -726.03 1718.0
746.57 -724.35 1714.1
775.40 -739.12 1749.0
772.06 -731.66 1731.4
780.48 -735.36 1740.1
780.87 -731.51 1731.0
779.30 -725.86 1717.6
792.70 -730.00 1727.4
806.27 -738.33 1747.1
799.32 -723.82 1712.8
800.28 -720.70 1705.4
804.80 -720.78 1705.6
799.30 -711.95 1684.7
800.95 -709.54 1679.0
824.80 -726.72 1719.7
849.06 -736.15 1742.0
858.98 -740.81 1753.0
892.77 -757.92 1793.5
899.54 -759.71 1797.7
1260.59 -978.45 2315.4
1271.51 -977.62 2313.4
1293.12 -936.79 2216.8
1286.65 -927.98 2195.9
1338.71 -961.27 2274.7
1416.87 -923.80 2186.0
1500.72 -951.82 2252.3
1625.85 -970.75 2297.1
1610.03 -954.31 2258.2
1626.77 -960.74 2273.4
1599.43 -941.18 2227.2
1651.00 -968.03 2290.7
1622.07 -940.92 2226.5
1628.84 -941.49 2227.9
724.65 -733.59 1725.3
749.69 -731.84 1721.2
776.29 -744.51 1751.0
790.81 -754.02 1773.4
781.76 -741.09 1743.0
764.53 -720.59 1694.8
796.90 -730.12 1717.2
812.50 -740.28 1741.1
799.65 -724.55 1704.1
805.08 -721.49 1696.9
831.68 -741.28 1743.4
844.35 -748.51 1760.4
859.52 -757.86 1782.4
867.45 -760.76 1789.2
866.95 -752.27 1769.3
875.71 -755.88 1777.8
890.83 -760.92 1789.6
876.68 -744.95 1752.1
890.08 -752.44 1769.7
923.80 -776.94 1827.3
961.16 -804.23 1891.5
1236.25 -974.74 2292.5
1243.16 -957.18 2251.2
1281.87 -959.94 2257.7
1300.75 -960.91 2260.0
1306.85 -952.55 2240.3
1408.77 -920.47 2164.9
1465.07 -949.69 2233.6
1495.36 -961.72 2261.9
1434.37 -915.32 2152.7
1469.15 -926.69 2179.5
1488.24 -928.03 2182.6
1602.41 -962.62 2264.0
1594.49 -954.37 2244.6
1616.11 -963.79 2266.8
1679.23 -990.63 2329.9
1645.53 -960.38 2258.7
1666.87 -969.39 2279.9
1651.35 -956.97 2250.7
1643.57 -949.10 2232.2
1708.26 -983.00 2311.9
1711.79 -981.58 2308.6
1663.32 -950.47 2235.4
1703.50 -970.05 2281.5
1656.32 -936.68 2203.0
1679.57 -946.56 2226.2
1738.86 -947.42 2228.3
1801.91 -972.08 2286.3
1766.36 -949.78 2233.8
1814.37 -972.40 2287.0
700.99 -736.71 1722.2
712.30 -743.86 1738.9
719.09 -736.95 1722.7
723.34 -736.73 1722.2
752.43 -738.99 1727.5
759.27 -741.30 1732.9
778.03 -746.37 1744.8
771.23 -735.56 1719.5
760.86 -721.50 1686.6
776.13 -731.78 1710.7
785.71 -736.60 1721.9
769.68 -717.49 1677.3
767.50 -711.45 1663.1
795.09 -732.91 1713.3
811.46 -743.84 1738.8
790.00 -716.21 1674.3
845.49 -758.18 1772.4
867.90 -774.07 1809.5
868.58 -770.51 1801.2
869.41 -763.05 1783.7
883.53 -771.33 1803.1
905.13 -777.84 1818.3
921.97 -788.22 1842.6
936.16 -792.14 1851.7
1233.10 -978.18 2286.7
1260.94 -990.74 2316.0
1277.04 -953.45 2228.8
1268.93 -943.12 2204.7
1452.25 -936.02 2188.1
1471.70 -930.38 2174.9
1598.68 -976.97 2283.8
1636.10 -985.24 2303.2
1636.12 -960.71 2245.8
1647.39 -963.90 2253.3
1627.92 -949.14 2218.8
1691.54 -975.89 2281.3
1712.51 -984.55 2301.5
1676.95 -960.75 2245.9
1633.25 -932.48 2179.8
1645.04 -935.97 2188.0
1728.37 -963.45 2252.2
1812.41 -993.51 2322.5
1769.05 -966.54 2259.4
1765.60 -958.30 2240.2
1826.25 -972.03 2272.3
1821.12 -966.19 2258.6
764.45 -755.35 1755.1
764.63 -751.06 1745.1
751.26 -733.58 1704.5
767.18 -736.14 1710.5
775.18 -739.54 1718.4
777.44 -737.45 1713.5
773.49 -729.54 1695.1
779.16 -730.74 1697.9
799.79 -737.58 1713.8
794.15 -724.34 1683.1
813.00 -737.48 1713.6
870.85 -781.41 1815.7
872.35 -778.55 1809.0
851.86 -756.20 1757.1
872.17 -766.03 1779.9
882.59 -771.11 1791.7
886.86 -770.78 1791.0
912.74 -789.14 1833.6
922.68 -789.51 1834.5
1219.55 -982.74 2283.5
1238.97 -979.38 2275.7
1291.94 -970.41 2254.8
1268.00 -948.14 2203.1
1299.96 -963.36 2238.5
1333.39 -966.57 2245.9
1306.19 -938.65 2181.0
1423.24 -926.50 2152.8
1401.39 -901.67 2095.1
1433.22 -911.55 2118.1
1477.94 -936.40 2175.8
1479.87 -934.06 2170.4
1605.75 -976.39 2268.7
1620.50 -960.72 2232.3
1628.39 -961.97 2235.2
1620.12 -953.69 2216.0
1677.17 -983.78 2285.9
1667.94 -968.11 2249.5
1744.00 -978.05 2272.6
1798.90 -988.80 2297.6
1755.43 -961.72 2234.6
1768.03 -965.44 2243.3
1790.64 -974.58 2264.5
1805.08 -979.23 2275.3
1857.21 -994.51 2310.8
1837.50 -977.65 2271.6
681.86 -749.15 1730.3
746.98 -746.98 1725.3
759.00 -754.49 1742.6
751.33 -742.44 1714.8
756.58 -726.14 1677.1
756.82 -722.23 1668.1
767.07 -727.85 1681.1
788.63 -744.07 1718.6
794.61 -741.34 1712.2
799.54 -741.80 1713.3
817.15 -745.70 1722.3
832.13 -755.24 1744.4
835.92 -754.58 1742.8
867.62 -778.99 1799.2
880.86 -786.65 1816.9
879.02 -772.61 1784.5
901.47 -788.20 1820.5
902.06 -784.60 1812.2
887.58 -768.01 1773.8
896.40 -771.64 1782.2
1210.26 -981.13 2266.1
1200.41 -968.45 2236.8
1201.08 -964.33 2227.3
1215.06 -948.20 2190.0
1246.45 -963.69 2225.8
1239.29 -945.03 2182.7
1264.02 -946.60 2186.3
1293.61 -960.14 2217.6
1325.80 -975.37 2252.8
1317.12 -960.52 2218.5
1316.33 -951.63 2197.9
1375.04 -929.69 2147.3
1398.65 -934.30 2157.9
1397.64 -929.91 2147.8
1402.40 -914.85 2113.0
1397.52 -908.12 2097.4
1469.31 -943.75 2179.7
1464.42 -937.01 2164.2
1462.65 -932.30 2153.3
1635.12 -982.25 2268.7
1639.76 -981.51 2266.9
1681.24 -999.17 2307.8
1627.98 -964.09 2226.7
1626.37 -959.73 2216.7
1684.20 -986.88 2279.4
1692.18 -988.09 2282.2
1794.87 -992.53 2292.4
1825.10 -1005.91 2323.3
1842.10 -989.17 2284.6
1869.69 -994.39 2296.7
712.31 -743.28 1706.5
709.34 -735.61 1688.9
730.20 -730.20 1676.5
741.03 -736.64 1691.3
751.17 -742.33 1704.3
754.96 -741.71 1702.9
762.90 -740.85 1700.9
770.87 -744.29 1708.8
771.58 -740.71 1700.6
782.28 -746.72 1714.4
791.48 -751.24 1724.8
789.04 -744.72 1709.8
789.67 -741.14 1701.6
801.26 -747.85 1717.0
820.04 -761.14 1747.5
827.43 -763.78 1753.6
827.27 -759.46 1743.7
826.25 -754.41 1732.1
820.76 -745.34 1711.2
842.67 -761.12 1747.5
867.17 -779.06 1788.7
853.09 -762.33 1750.3
880.39 -778.45 1787.3
898.70 -790.48 1814.9
902.73 -785.79 1804.1
937.99 -812.28 1864.9
967.63 -833.65 1914.0
977.19 -837.60 1923.1
972.38 -829.24 1903.9
1150.47 -956.82 2196.8
1152.28 -948.94 2178.7
1176.79 -959.71 2203.4
1188.46 -964.55 2214.5
1237.51 -980.67 2251.5
1232.27 -958.43 2200.5
1310.07 -952.78 2187.5
1439.38 -944.59 2168.7
1496.87 -945.39 2170.5
1606.09 -977.62 2244.5
1628.73 -980.74 2251.7
1663.81 -998.29 2292.0
1663.48 -994.53 2283.4
1619.12 -964.58 2214.6
1610.24 -952.53 2186.9
1687.03 -994.46 2283.2
1676.34 -964.47 2214.3
1713.35 -982.40 2255.5
1828.15 -1016.99 2334.9
1849.73 -1012.23 2324.0
1799.55 -978.40 2246.3
705.30 -759.21 1732.8
712.40 -762.00 1739.1
728.12 -732.45 1671.7
746.38 -746.38 1703.5
757.29 -752.83 1718.2
763.00 -754.07 1721.0
775.52 -761.99 1739.1
793.06 -774.72 1768.2
795.83 -772.96 1764.2
791.29 -764.16 1744.1
786.66 -755.37 1724.0
779.22 -744.00 1698.1
773.77 -730.55 1667.4
786.86 -738.78 1686.1
824.39 -765.50 1747.1
834.58 -770.73 1759.1
835.20 -767.12 1750.8
832.58 -760.57 1735.9
827.86 -752.19 1716.8
823.46 -744.20 1698.5
827.54 -743.91 1697.8
847.59 -757.89 1729.8
869.82 -773.68 1765.8
882.71 -781.03 1782.6
898.56 -790.92 1805.2
928.27 -812.83 1855.2
943.11 -821.58 1875.1
1165.92 -970.64 2215.3
1190.39 -976.58 2228.9
1158.50 -941.29 2148.3
1223.22 -984.40 2246.7
1231.91 -986.69 2252.0
1235.43 -975.64 2226.7
1392.08 -933.58 2130.7
1372.45 -916.78 2092.4
1422.36 -942.66 2151.5
1430.59 -944.41 2155.5
1446.64 -951.29 2171.2
1420.96 -930.78 2124.4
1597.11 -988.69 2256.5
1622.56 -993.52 2267.6
1655.51 -999.22 2280.6
1666.88 -988.43 2255.9
1684.38 -974.86 2225.0
1707.73 -971.74 2217.8
1733.69 -976.65 2229.0
1733.45 -973.27 2221.3
1805.26 -997.02 2275.5
1827.96 -1006.27 2296.6
1827.12 -996.07 2273.4
692.63 -769.58 1746.1
688.73 -760.28 1725.0
700.52 -758.53 1721.0
699.52 -752.65 1707.7
711.75 -746.90 1694.6
721.70 -752.70 1707.8
728.45 -746.01 1692.6
736.83 -741.19 1681.7
774.13 -765.13 1736.0
782.16 -768.60 1743.9
774.19 -756.40 1716.2
773.01 -750.92 1703.8
771.38 -745.08 1690.5
782.30 -738.84 1676.4
794.26 -745.99 1692.6
801.92 -749.05 1699.5
827.14 -768.38 1743.4
844.54 -780.28 1770.4
837.54 -769.63 1746.2
829.22 -757.89 1719.6
833.75 -757.96 1719.7
848.47 -767.24 1740.8
868.60 -781.28 1772.6
891.73 -797.87 1810.3
886.13 -788.71 1789.5
880.44 -779.56 1768.8
901.31 -793.90 1801.3
905.58 -793.55 1800.5
915.30 -797.96 1810.5
935.19 -811.13 1840.4
979.15 -840.69 1907.4
1148.64 -947.91 2150.7
1183.07 -953.19 2162.7
1240.87 -972.11 2205.6
1287.21 -976.90 2216.5
1316.61 -977.39 2217.6
1400.31 -940.92 2134.9
1436.37 -961.35 2181.2
1413.78 -924.40 2097.4
1470.89 -958.05 2173.7
1589.89 -975.74 2213.9
1595.67 -972.27 2206.0
1625.46 -969.57 2199.9
1639.45 -971.10 2203.3
1702.02 -1004.66 2279.5
1678.31 -983.84 2232.2
1754.22 -987.47 2240.5
707.75 -761.16 1716.9
710.89 -755.04 1703.1
713.66 -753.31 1699.2
720.02 -755.36 1703.8
724.59 -755.51 1704.2
747.84 -765.75 1727.3
748.74 -762.11 1719.1
748.50 -757.35 1708.3
749.72 -749.72 1691.1
763.30 -758.86 1711.7
760.27 -751.48 1695.1
757.55 -744.49 1679.3
762.41 -744.99 1680.4
771.52 -749.60 1690.8
786.85 -760.18 1714.7
811.97 -775.68 1749.6
808.99 -764.30 1724.0
815.53 -766.24 1728.4
839.60 -784.54 1769.6
845.46 -785.72 1772.3
826.42 -763.88 1723.0
820.48 -754.31 1701.5
827.82 -756.99 1707.5
857.15 -779.65 1758.6
894.48 -809.29 1825.5
903.75 -813.38 1834.7
882.54 -790.13 1782.2
863.59 -769.14 1734.9
868.56 -769.55 1735.8
892.75 -786.91 1775.0
925.91 -811.95 1831.5
1011.94 -873.95 1971.3
1208.46 -993.49 2241.0
1408.08 -926.08 2088.9
1662.04 -1007.84 2273.3
1657.20 -1001.35 2258.7
1656.21 -997.22 2249.4
1608.16 -964.89 2176.5
1624.88 -968.13 2183.8
1713.31 -1017.28 2294.6
1713.97 -1014.15 2287.6
1752.52 -992.32 2238.3
1752.27 -988.90 2230.6
1771.28 -996.34 2247.4
697.65 -759.46 1703.1
710.67 -768.78 1724.0
714.23 -767.80 1721.8
718.35 -748.83 1679.3
720.29 -746.33 1673.7
748.68 -771.10 1729.2
765.86 -784.10 1758.4
770.91 -784.59 1759.5
768.49 -777.53 1743.6
758.11 -762.55 1710.0
752.49 -752.49 1687.5
782.45 -773.45 1734.5
768.96 -751.48 1685.2
773.84 -751.98 1686.3
782.21 -755.85 1695.0
797.65 -766.45 1718.8
804.95 -769.17 1724.9
801.24 -761.40 1707.5
803.00 -758.88 1701.8
828.58 -778.78 1746.4
836.78 -782.21 1754.1
830.17 -771.83 1730.9
836.75 -773.77 1735.2
823.51 -757.45 1698.6
830.03 -759.39 1703.0
855.36 -778.42 1745.6
851.33 -770.68 1728.3
862.47 -776.68 1741.7
882.36 -790.44 1772.6
891.56 -794.55 1781.8
919.17 -814.94 1827.5
946.97 -835.28 1873.1
986.75 -865.93 1941.9
1183.84 -993.27 2227.4
1184.10 -979.16 2195.8
1143.88 -941.38 2111.1
1151.83 -943.41 2115.6
1170.53 -954.17 2139.8
1188.42 -964.19 2162.2
1213.16 -979.64 2196.9
1233.09 -981.91 2202.0
1207.26 -952.52 2136.0
1382.51 -947.38 2124.5
1395.80 -952.69 2136.4
1443.01 -962.01 2157.3
1441.33 -957.18 2146.5
1398.18 -924.95 2074.2
1408.39 -928.13 2081.4
1482.40 -973.18 2182.4
1622.85 -1007.69 2259.8
1613.74 -984.27 2207.2
1638.29 -995.71 2232.9
1669.06 -1010.84 2266.8
1623.32 -979.68 2197.0
1659.22 -994.38 2229.9
1669.33 -990.08 2220.3
1636.92 -967.53 2169.7
1681.68 -990.58 2221.4
1671.88 -981.45 2200.9
1826.44 -1040.23 2332.7
1785.55 -1013.58 2273.0
1763.73 -997.90 2237.8
1802.09 -1016.26 2279.0
655.25 -765.94 1707.7
692.29 -772.68 1722.7
697.05 -763.23 1701.7
709.02 -771.45 1720.0
710.09 -767.78 1711.8
700.44 -752.65 1678.1
716.77 -746.99 1665.5
732.63 -758.95 1692.1
755.42 -773.30 1724.1
761.51 -774.94 1727.8
758.98 -767.86 1712.0
776.06 -776.06 1730.3
793.60 -789.04 1759.2
779.33 -744.89 1660.8
779.41 -740.87 1651.8
802.88 -759.01 1692.3
824.93 -775.61 1729.3
833.10 -779.07 1737.0
843.73 -784.76 1749.7
834.98 -772.47 1722.3
823.67 -757.96 1689.9
828.96 -758.78 1691.8
839.58 -764.46 1704.4
867.54 -785.79 1752.0
896.95 -808.19 1801.9
918.68 -823.48 1836.0
943.05 -840.96 1875.0
967.58 -858.42 1913.9
985.13 -869.53 1938.7
988.84 -868.37 1936.1
1003.45 -872.35 1945.0
1141.73 -968.23 2158.7
1195.75 -999.35 2228.1
1168.17 -971.61 2166.3
1149.20 -951.25 2120.9
1163.84 -958.79 2137.7
1190.62 -967.03 2156.1
1224.41 -980.67 2186.5
1209.55 -959.87 2140.1
1390.69 -978.01 2180.5
1372.34 -953.48 2125.8
1383.56 -957.42 2134.6
1397.88 -959.65 2139.6
1434.88 -977.30 2178.9
1393.01 -926.89 2066.6
1417.91 -939.84 2095.4
1433.95 -946.85 2111.1
1467.54 -958.05 2136.0
1545.93 -990.54 2208.5
1563.48 -998.09 2225.3
1575.68 -1002.18 2234.4
1582.99 -985.10 2196.3
1603.16 -987.00 2200.6
1637.08 -1004.31 2239.2
1656.90 -1005.77 2242.4
1612.70 -975.51 2175.0
1679.47 -1012.36 2257.1
1702.05 -1001.54 2233.0
1719.68 -1008.49 2248.5
1724.74 -1008.04 2247.5
1706.22 -993.86 2215.9
1816.05 -1043.77 2327.2
1748.88 -998.53 2226.3
1742.17 -991.43 2210.5
1787.21 -1003.86 2238.2
681.38 -764.90 1695.6
690.50 -765.27 1696.4
710.17 -777.17 1722.8
705.95 -767.72 1701.8
705.54 -762.51 1690.3
726.38 -770.67 1708.4
742.66 -773.79 1715.3
754.62 -781.57 1732.5
758.13 -780.55 1730.3
762.36 -780.30 1729.7
756.10 -769.37 1705.5
775.07 -775.07 1718.1
781.93 -777.46 1723.4
785.36 -776.43 1721.2
793.40 -779.96 1729.0
795.80 -769.27 1705.3
790.89 -760.30 1685.4
794.58 -759.65 1684.0
794.29 -755.22 1674.1
791.56 -748.54 1659.3
810.79 -762.59 1690.5
832.58 -778.86 1726.5
832.69 -774.80 1717.5
831.13 -769.24 1705.2
840.52 -773.82 1715.4
855.29 -783.26 1736.3
879.60 -801.31 1776.3
904.91 -820.07 1817.9
910.05 -820.46 1818.8
915.20 -820.85 1819.6
942.11 -840.66 1863.5
962.49 -854.45 1894.1
974.54 -860.76 1908.1
976.48 -858.12 1902.2
966.48 -845.06 1873.3
967.03 -841.32 1865.0
999.30 -865.06 1917.6
1025.75 -883.57 1958.6
1134.32 -967.51 2144.7
1198.47 -1012.30 2244.0
1190.42 -1000.64 2218.2
1192.81 -983.65 2180.5
1200.49 -980.68 2173.9
1230.04 -968.45 2146.8
1413.96 -988.07 2190.3
1390.23 -963.74 2136.4
1427.11 -955.07 2117.1
1411.66 -941.11 2086.2
1474.48 -968.15 2146.1
1522.26 -988.33 2190.9
1534.10 -988.64 2191.6
1583.13 -987.33 2188.7
1615.91 -1000.60 2218.1
1675.01 -1029.87 2283.0
1607.21 -984.70 2182.8
1634.56 -997.94 2212.2
1686.66 -1026.15 2274.7
1678.91 -1017.88 2256.4
1681.79 -1016.08 2252.4
1665.47 -1002.74 2222.8
1679.00 -1007.40 2233.2
1724.87 -1031.36 2286.3
1694.24 -1009.58 2238.0
1715.81 -1018.95 2258.7
1745.97 -1026.35 2275.2
1717.75 -1006.36 2230.8
1798.72 -1043.26 2312.6
1797.38 -1035.58 2295.6
1793.17 -1029.74 2282.7
1818.08 -1040.61 2306.8
650.79 -780.05 1719.3
722.87 -771.36 1700.1
760.62 -792.32 1746.3
766.75 -793.98 1750.0
763.96 -786.43 1733.3
743.46 -756.43 1667.2
748.58 -752.89 1659.4
750.56 -746.29 1644.9
795.29 -777.52 1713.7
785.37 -763.55 1682.9
790.37 -759.97 1675.0
799.19 -764.25 1684.5
797.68 -758.67 1672.2
818.94 -774.67 1707.4
834.71 -785.35 1731.0
825.99 -768.87 1694.7
853.78 -786.37 1733.2
880.53 -806.77 1778.2
905.00 -824.87 1818.1
907.25 -822.63 1813.2
902.81 -814.39 1795.0
917.52 -823.42 1814.9
948.70 -847.05 1867.0
972.50 -863.89 1904.1
986.29 -871.72 1921.3
988.67 -869.44 1916.3
1009.82 -883.59 1947.5
1139.06 -977.14 2153.7
1148.82 -980.70 2161.5
1173.47 -996.88 2197.2
1193.00 -1008.57 2223.0
1183.54 -995.76 2194.7
1168.65 -978.53 2156.8
1161.49 -958.78 2113.2
1177.10 -967.10 2131.6
1209.91 -989.41 2180.7
1231.16 -1002.10 2208.7
1214.81 -984.22 2169.3
1214.06 -952.73 2099.9
1492.86 -982.14 2164.7
1521.73 -993.67 2190.1
1520.91 -982.13 2164.7
1520.02 -977.95 2155.5
1621.46 -1028.10 2266.0
1664.31 -1040.20 2292.7
1613.37 -994.15 2191.2
1683.48 -1022.95 2254.7
1619.84 -980.87 2161.9
1625.35 -980.82 2161.8
1660.87 -998.81 2201.4
1695.34 -1012.57 2231.8
1824.59 -1053.81 2322.7
669.01 -779.77 1708.9
668.21 -773.72 1695.7
679.57 -781.73 1713.2
678.72 -775.68 1699.9
717.93 -770.46 1688.5
769.07 -800.92 1755.3
757.50 -775.12 1698.7
757.50 -770.63 1688.9
745.33 -745.33 1633.4
755.49 -751.22 1646.3
765.31 -756.71 1658.4
775.18 -762.19 1670.4
769.48 -752.38 1648.9
771.13 -749.83 1643.3
791.30 -765.21 1677.0
805.66 -774.85 1698.1
809.77 -774.56 1697.5
823.86 -783.78 1717.7
831.62 -786.91 1724.6
832.54 -783.57 1717.2
841.94 -788.19 1727.4
855.85 -796.98 1746.6
877.21 -812.57 1780.8
890.09 -820.18 1797.5
897.25 -822.48 1802.5
915.63 -834.98 1829.9
929.96 -843.67 1849.0
933.91 -842.92 1847.3
950.87 -853.84 1871.2
980.57 -876.04 1919.9
1000.73 -889.54 1949.5
1009.55 -892.87 1956.8
1035.89 -911.58 1997.8
1149.21 -986.64 2162.3
1119.22 -956.23 2095.6
1174.95 -998.99 2189.3
1199.78 -1015.20 2224.9
1175.69 -990.05 2169.8
1131.83 -948.58 2078.9
1161.92 -964.62 2114.0
1194.92 -978.17 2143.7
1191.44 -966.33 2117.8
1204.43 -963.55 2111.7
1192.10 -949.36 2080.6
1400.48 -978.12 2143.6
1429.18 -994.21 2178.9
1434.37 -993.89 2178.2
1401.92 -967.60 2120.6
1452.45 -990.82 2171.4
1481.55 -1002.89 2197.9
1477.99 -977.92 2143.2
1478.24 -974.42 2135.5
1526.55 -1002.51 2197.1
1604.82 -1038.41 2275.7
1591.97 -1004.26 2200.9
1635.08 -1027.76 2252.4
1643.54 -1000.91 2193.6
1628.79 -988.50 2166.4
1737.31 -1029.52 2256.2
1760.20 -1039.58 2278.3
1766.79 -1022.88 2241.7
1842.12 -1045.85 2292.0
669.10 -784.31 1709.1
660.89 -769.59 1677.1
666.10 -770.58 1679.2
678.81 -780.19 1700.2
689.07 -776.85 1692.9
699.56 -783.68 1707.8
699.58 -778.78 1697.1
692.50 -766.08 1669.4
714.43 -771.07 1680.3
721.84 -774.34 1687.4
728.19 -776.44 1692.0
755.66 -796.14 1734.9
754.36 -790.07 1721.7
753.10 -775.00 1688.9
753.46 -770.88 1679.9
758.25 -766.91 1671.2
777.27 -781.68 1703.4
787.58 -787.58 1716.3
780.14 -775.76 1690.5
774.69 -761.78 1660.1
789.55 -763.67 1664.2
831.74 -791.49 1724.8
858.87 -812.94 1771.5
860.28 -809.95 1765.0
864.51 -809.62 1764.3
889.16 -828.32 1805.1
904.96 -838.62 1827.5
910.13 -839.02 1828.4
928.96 -851.95 1856.5
927.54 -846.26 1844.1
911.86 -827.69 1803.7
935.85 -845.13 1841.7
974.72 -875.77 1908.4
988.09 -883.29 1924.8
986.66 -877.58 1912.4
992.43 -878.30 1914.0
999.05 -879.76 1917.2
1034.48 -906.45 1975.3
1144.80 -998.17 2175.2
1119.59 -966.67 2106.5
1132.37 -968.26 2110.0
1147.34 -976.35 2127.6
1185.14 -989.48 2156.3
1176.60 -977.74 2130.7
1202.17 -994.32 2166.8
1218.85 -1003.42 2186.6
1184.80 -970.87 2115.7
1224.86 -989.96 2157.3
1400.49 -983.68 2143.6
1432.76 -1002.36 2184.3
1424.60 -992.73 2163.3
1471.14 -1005.37 2190.9
1488.75 -1005.76 2191.7
1511.29 -1017.10 2216.5
1523.16 -1013.53 2208.7
1513.20 -999.39 2177.8
1508.13 -992.34 2162.5
1592.53 -1010.32 2201.7
1620.19 -1024.19 2231.9
1652.37 -1040.82 2268.1
1641.78 -1023.22 2229.8
1621.05 -992.82 2163.5
1620.93 -989.32 2155.9
1727.66 -1033.09 2251.3
1733.30 -1032.98 2251.0
1722.84 -1023.30 2229.9
1769.11 -1040.31 2267.0
1813.60 -1062.94 2316.3
629.55 -778.20 1686.3
663.14 -771.50 1671.8
680.27 -786.28 1703.8
689.99 -792.38 1717.0
695.99 -794.14 1720.8
698.53 -791.96 1716.1
704.58 -788.78 1709.2
698.95 -777.58 1685.0
701.35 -775.41 1680.3
709.64 -765.55 1658.9
722.84 -775.09 1679.6
725.88 -773.69 1676.5
727.43 -770.73 1670.1
727.47 -766.21 1660.3
727.10 -761.32 1649.7
727.05 -756.81 1640.0
730.70 -756.19 1638.6
747.92 -769.54 1667.5
760.35 -777.83 1685.5
786.15 -790.59 1713.2
790.31 -790.31 1712.6
790.23 -777.13 1684.0
789.20 -771.85 1672.6
793.65 -771.96 1672.8
801.27 -775.15 1679.7
840.68 -804.52 1743.3
863.40 -821.85 1780.9
858.76 -813.09 1761.9
859.73 -809.70 1754.6
881.90 -826.20 1790.3
901.34 -840.00 1820.2
909.80 -843.46 1827.7
925.72 -853.77 1850.1
918.89 -843.11 1827.0
905.28 -826.36 1790.7
933.83 -848.07 1837.7
963.42 -870.50 1886.3
964.48 -867.06 1878.9
984.59 -880.69 1908.4
1013.35 -901.88 1954.3
1011.08 -895.38 1940.2
1039.23 -915.76 1984.4
1041.97 -909.17 1970.1
1062.20 -922.30 1998.6
1128.79 -975.36 2113.5
1170.89 -1006.85 2181.8
1172.17 -988.84 2142.8
1200.29 -1007.79 2183.8
1172.99 -980.24 2124.1
1179.63 -981.19 2126.2
1203.89 -996.71 2159.8
1178.88 -971.49 2105.1
1204.75 -961.64 2083.8
1392.13 -1007.32 2182.8
1417.41 -993.30 2152.4
1418.94 -990.48 2146.3
1448.32 -1007.03 2182.2
1443.66 -999.89 2166.7
1437.39 -991.69 2148.9
1437.50 -980.36 2124.4
1407.37 -956.15 2071.9
1498.51 -991.58 2148.7
1586.17 -1019.27 2208.7
1615.92 -1034.65 2242.0
1661.16 -1059.81 2296.5
1659.81 -1055.16 2286.5
1642.42 -1040.39 2254.5
1608.31 -1015.18 2199.8
1627.23 -1023.49 2217.8
1704.57 -1068.36 2315.1
1679.74 -1049.10 2273.3
1702.65 -1048.69 2272.4
1714.67 -1045.24 2265.0
1691.40 -1027.54 2226.6
1700.07 -1018.89 2207.9
1793.97 -1060.89 2298.9
1832.40 -1048.77 2272.6
637.43 -786.89 1695.6
652.74 -763.67 1645.6
678.65 -788.82 1699.8
696.58 -804.44 1733.4
687.43 -769.06 1657.2
710.58 -766.23 1651.1
708.44 -759.35 1636.3
727.18 -774.79 1669.5
744.58 -788.64 1699.4
740.21 -779.40 1679.5
735.76 -770.18 1659.6
736.46 -766.43 1651.5
752.57 -778.67 1677.9
776.75 -799.07 1721.8
784.75 -802.69 1729.7
779.40 -792.69 1708.1
788.56 -797.47 1718.4
788.49 -792.92 1708.6
775.18 -775.18 1670.4
775.35 -771.04 1661.5
776.65 -768.07 1655.0
785.78 -772.83 1665.3
802.47 -784.93 1691.4
822.45 -800.10 1724.1
850.00 -818.01 1762.7
844.57 -808.44 1742.0
853.20 -812.36 1750.5
870.40 -824.34 1776.3
889.54 -833.65 1796.4
902.05 -840.98 1812.2
921.66 -854.80 1841.9
931.84 -859.79 1852.7
937.47 -860.55 1854.3
954.00 -871.25 1877.4
969.36 -880.79 1897.9
984.38 -889.92 1917.6
1020.67 -918.09 1978.3
1040.20 -930.98 2006.1
1026.50 -914.15 1969.8
1017.80 -901.91 1943.5
1013.72 -893.87 1926.1
1022.97 -897.60 1934.2
1087.84 -949.87 2046.8
1153.17 -1002.03 2159.2
1148.19 -983.38 2119.0
1149.07 -979.44 2110.5
1207.69 -1024.53 2207.7
1189.04 -994.57 2143.1
1177.23 -980.11 2112.0
1206.02 -985.74 2124.1
1178.66 -959.00 2066.5
1234.15 -986.22 2125.1
1390.72 -995.75 2145.7
1407.04 -1003.43 2162.2
1436.89 -1012.61 2182.0
1429.23 -1003.26 2161.9
1442.57 -1000.86 2156.7
1431.57 -989.39 2132.0
1526.17 -1023.16 2204.7
1505.17 -997.87 2150.2
1588.89 -1041.80 2244.9
1645.11 -1063.09 2290.8
1593.95 -1011.76 2180.2
1636.65 -1035.19 2230.7
1703.97 -1073.98 2314.2
1655.37 -1032.45 2224.7
1722.51 -1059.55 2283.2
1732.77 -1062.21 2288.9
1808.33 -1071.83 2309.6
702.52 -780.58 1672.7
702.72 -776.02 1662.9
700.53 -755.06 1618.0
721.78 -773.34 1657.1
755.38 -804.55 1724.0
766.29 -811.36 1738.6
757.87 -797.76 1709.5
755.68 -790.83 1694.6
761.72 -792.54 1698.3
793.21 -815.87 1748.3
794.79 -812.85 1741.8
786.36 -799.68 1713.6
768.15 -776.78 1664.5
759.02 -763.26 1635.6
764.18 -764.18 1637.5
774.04 -769.76 1649.5
794.17 -785.44 1683.1
795.48 -782.44 1676.7
799.54 -782.16 1676.1
836.88 -809.88 1735.5
833.01 -801.83 1718.2
844.01 -808.10 1731.6
858.72 -817.83 1752.5
867.81 -822.13 1761.7
881.85 -831.06 1780.8
901.31 -844.98 1810.7
921.72 -859.64 1842.1
932.73 -865.42 1854.5
952.12 -878.88 1883.3
987.52 -906.90 1943.4
997.13 -911.08 1952.3
1005.93 -914.48 1959.6
1007.56 -911.36 1952.9
991.72 -892.55 1912.6
1025.67 -918.51 1968.2
1072.71 -955.88 2048.3
1063.26 -942.79 2020.3
1063.63 -938.50 2011.1
1106.92 -971.93 2082.7
1147.89 -1003.01 2149.3
1171.64 -1018.82 2183.2
1160.85 -1004.58 2152.7
1123.03 -967.21 2072.6
1133.99 -972.00 2082.8
1166.31 -994.96 2132.1
1173.42 -996.30 2134.9
1189.93 -1005.57 2154.8
1197.54 -1007.27 2158.4
1182.16 -989.71 2120.8
1211.02 -995.36 2132.9
1204.28 -972.06 2083.0
1380.50 -997.95 2138.5
1397.29 -1006.05 2155.8
1410.07 -1011.21 2166.9
1433.28 -1015.71 2176.5
1389.64 -980.92 2102.0
1400.06 -976.79 2093.1
1398.30 -971.79 2082.4
1461.66 -1011.92 2168.4
1549.43 -1029.14 2205.3
1498.57 -991.70 2125.1
1518.13 -1000.96 2144.9
1595.41 -1025.62 2197.8
1627.09 -1038.57 2225.5
1618.91 -1029.70 2206.5
1629.53 -1032.80 2213.2
1729.55 -1077.23 2308.3
1719.00 -1066.97 2286.4
1698.21 -1050.44 2250.9
1720.85 -1060.80 2273.1
1802.99 -1071.09 2295.2
1805.77 -1069.21 2291.2
1828.34 -1079.02 2312.2
605.18 -766.00 1632.4
655.92 -796.78 1698.0
633.27 -764.14 1628.4
623.32 -747.16 1592.2
667.35 -774.29 1650.0
688.22 -773.71 1648.8
690.53 -771.52 1644.1
683.89 -759.41 1618.3
694.01 -765.95 1632.3
717.80 -777.98 1657.9
720.43 -776.17 1654.0
737.41 -789.77 1683.0
746.73 -795.05 1694.3
735.62 -778.63 1659.3
745.31 -784.30 1671.4
763.70 -799.01 1702.7
771.64 -802.69 1710.5
780.00 -806.74 1719.2
784.95 -807.25 1720.3
779.55 -797.17 1698.8
785.23 -798.46 1701.5
803.70 -812.68 1731.8
797.78 -802.21 1709.5
794.50 -794.50 1693.1
808.03 -803.59 1712.5
801.52 -792.76 1689.4
784.60 -771.81 1644.7
792.57 -775.43 1652.5
835.78 -813.31 1733.2
853.40 -821.62 1750.9
839.35 -803.83 1713.0
861.79 -820.97 1749.5
888.48 -841.96 1794.2
914.53 -862.14 1837.2
944.07 -885.37 1886.7
933.21 -870.67 1855.4
930.11 -863.33 1839.8
959.12 -885.72 1887.5
965.67 -887.24 1890.7
981.51 -897.24 1912.0
987.69 -898.36 1914.4
964.57 -872.93 1860.2
993.26 -894.43 1906.0
1049.13 -940.07 2003.3
1051.65 -937.68 1998.2
1013.54 -899.27 1916.4
1014.54 -895.77 1908.9
1070.36 -940.46 2004.1
1112.14 -972.45 2072.3
1162.11 -1011.26 2155.0
1185.99 -1027.10 2188.8
1163.59 -1002.90 2137.2
1161.39 -996.26 2123.0
1162.68 -992.67 2115.4
1173.33 -997.06 2124.7
1172.35 -991.56 2113.0
1203.38 -968.05 2062.9
1403.84 -1016.38 2165.9
1422.50 -1013.67 2160.2
1429.67 -1006.89 2145.7
1455.56 -994.18 2118.6
1520.42 -1034.57 2204.7
1570.87 -1049.18 2235.8
1509.35 -1004.38 2140.4
1522.99 -1009.75 2151.8
1623.48 -1057.02 2252.5
1658.29 -1068.15 2276.2
1728.53 -1090.12 2323.1
1695.15 -1065.35 2270.3
1681.22 -1052.94 2243.8
1720.08 -1073.57 2287.8
1693.68 -1049.85 2237.2
1684.59 -1040.65 2217.6
1741.87 -1072.38 2285.3
1727.66 -1060.02 2258.9
1706.51 -1043.51 2223.7
1741.20 -1057.57 2253.7
1720.42 -1041.46 2219.4
1817.36 -1082.05 2305.9
1788.72 -1061.50 2262.1
1800.54 -1061.56 2262.2
1858.54 -1085.15 2312.5
612.72 -790.88 1676.1
602.10 -766.30 1624.0
607.16 -767.38 1626.3
656.98 -807.91 1712.2
653.94 -793.45 1681.6
634.45 -764.71 1620.6
643.22 -770.17 1632.2
674.14 -796.72 1688.5
694.01 -774.90 1642.3
713.15 -791.42 1677.3
723.75 -788.75 1671.6
731.53 -792.49 1679.5
730.14 -786.30 1666.4
721.65 -772.59 1637.4
727.17 -773.95 1640.2
754.76 -798.65 1692.6
759.29 -798.79 1692.9
751.72 -786.28 1666.4
753.52 -783.66 1660.8
751.48 -777.10 1646.9
764.70 -786.31 1666.4
791.49 -809.28 1715.1
806.11 -819.62 1737.0
794.38 -803.21 1702.3
793.05 -797.43 1690.0
810.10 -810.10 1716.9
804.40 -800.00 1695.4
787.90 -779.34 1651.7
791.11 -778.28 1649.4
850.67 -823.52 1745.3
850.40 -818.91 1735.5
889.97 -852.50 1806.7
904.09 -861.49 1825.8
917.88 -870.07 1844.0
951.95 -897.69 1902.5
943.61 -885.24 1876.1
914.79 -853.80 1809.5
918.66 -853.04 1807.9
925.04 -854.61 1811.2
941.12 -865.07 1833.4
975.05 -891.75 1889.9
977.37 -889.40 1884.9
966.02 -874.70 1853.8
979.79 -882.78 1870.9
1031.02 -924.37 1959.0
1028.88 -913.45 1935.9
1065.58 -941.43 1995.2
1124.78 -988.94 2095.9
1173.73 -1002.91 2125.5
1173.02 -974.84 2066.0
1193.14 -969.42 2054.5
1206.64 -976.04 2068.5
1444.11 -1022.68 2167.4
1421.64 -987.55 2092.9
1437.12 -994.51 2107.7
1512.29 -1030.85 2184.7
1538.63 -1025.75 2173.9
1603.50 -1061.22 2249.1
1549.62 -1018.16 2157.8
1620.71 -1061.04 2248.7
1610.56 -1050.62 2226.6
1710.39 -1088.43 2306.7
1677.10 -1063.53 2253.9
1673.28 -1057.42 2241.0
1691.37 -1050.61 2226.6
1692.45 -1047.71 2220.4
1760.08 -1074.95 2278.1
1737.63 -1057.69 2241.6
1814.88 -1082.98 2295.2
1818.23 -1081.43 2291.9
1816.30 -1076.76 2282.0
1830.29 -1074.55 2277.3
645.59 -798.26 1682.5
632.01 -776.23 1636.1
655.39 -789.06 1663.1
665.29 -795.74 1677.2
671.85 -798.37 1682.7
652.67 -760.76 1603.5
663.27 -768.22 1619.2
685.81 -789.33 1663.7
708.19 -809.99 1707.2
712.42 -809.77 1706.8
726.15 -810.28 1707.9
722.08 -800.85 1688.0
736.75 -802.54 1691.5
745.33 -807.08 1701.1
735.08 -791.30 1667.8
740.67 -792.65 1670.7
759.35 -807.91 1702.9
753.75 -797.32 1680.5
738.62 -776.82 1637.3
733.53 -767.06 1616.8
739.02 -768.41 1619.6
761.37 -787.18 1659.2
782.61 -791.26 1667.8
801.96 -806.37 1699.6
820.66 -811.79 1711.0
857.40 -839.06 1768.5
849.96 -827.35 1743.8
858.60 -831.34 1752.2
894.51 -861.55 1815.9
905.79 -867.85 1829.2
892.92 -851.06 1793.8
898.43 -851.88 1795.5
948.21 -894.44 1885.2
980.50 -920.17 1939.5
968.80 -904.55 1906.5
961.99 -893.62 1883.5
971.90 -898.27 1893.3
999.17 -918.83 1936.7
1007.11 -921.50 1942.3
1000.16 -910.59 1919.3
995.24 -901.63 1900.4
1025.46 -924.43 1948.4
1109.76 -995.52 2098.3
1153.36 -1024.59 2159.6
1163.13 -1028.28 2167.3
1172.65 -1026.77 2164.1
1227.84 -1007.60 2123.7
1213.11 -991.06 2088.9
1214.56 -983.47 2072.9
1437.87 -1004.31 2116.8
1433.45 -997.42 2102.3
1506.59 -1036.49 2184.6
1523.84 -1014.05 2137.3
1613.29 -1065.82 2246.5
1630.17 -1043.08 2198.5
1726.71 -1101.01 2320.6
1689.47 -1073.51 2262.7
1706.63 -1065.92 2246.7
1711.15 -1065.10 2245.0
1734.99 -1076.28 2268.5
1728.71 -1068.76 2252.7
1797.59 -1071.53 2258.5
609.20 -773.05 1620.5
620.40 -781.87 1639.0
651.31 -793.65 1663.7
672.11 -808.29 1694.4
679.20 -806.27 1690.2
683.41 -806.07 1689.7
667.61 -782.43 1640.2
664.07 -773.35 1621.2
673.00 -778.82 1632.6
682.32 -784.67 1644.9
697.34 -796.96 1670.6
699.36 -784.65 1644.8
715.68 -798.09 1673.0
743.80 -814.63 1707.7
757.19 -824.39 1728.2
750.34 -812.13 1702.4
738.91 -795.09 1666.7
741.89 -793.65 1663.7
753.47 -801.38 1679.9
755.70 -799.13 1675.2
741.23 -779.36 1633.7
737.62 -771.15 1616.5
749.62 -779.27 1633.6
754.77 -780.21 1635.5
774.79 -792.00 1660.3
778.44 -791.34 1658.9
794.62 -803.35 1684.0
795.55 -799.90 1676.8
822.75 -818.30 1715.4
840.05 -831.02 1742.0
876.72 -862.65 1808.4
891.12 -872.16 1828.3
863.13 -840.30 1761.5
860.85 -833.67 1747.6
901.35 -868.32 1820.2
916.76 -878.56 1841.7
893.15 -851.50 1785.0
914.35 -867.22 1817.9
965.99 -911.50 1910.7
973.00 -913.43 1914.8
975.42 -911.06 1909.8
993.80 -923.53 1936.0
1001.30 -925.82 1940.8
986.78 -907.84 1903.1
995.08 -910.92 1909.5
1005.96 -916.32 1920.9
1022.47 -926.77 1942.8
1094.64 -987.32 2069.7
1141.26 -1014.46 2126.6
1178.86 -1032.91 2165.3
1162.57 -1013.80 2125.2
1141.77 -981.71 2057.9
1177.49 -1007.71 2112.4
1341.85 -975.89 2045.7
1374.89 -995.99 2087.9
1376.33 -993.11 2081.8
1451.28 -1015.34 2128.4
1510.98 -1053.11 2207.6
1498.25 -1040.30 2180.7
1495.04 -1026.45 2151.7
1479.33 -1011.88 2121.2
1591.70 -1068.88 2240.7
1718.27 -1101.61 2309.3
1697.80 -1084.70 2273.8
1663.19 -1058.92 2219.8
1722.73 -1093.04 2291.3
1723.97 -1090.07 2285.1
1830.02 -1111.30 2329.6
1835.61 -1103.77 2313.8
520.61 -783.03 1632.6
582.26 -769.41 1604.2
630.27 -815.38 1700.0
649.33 -811.66 1692.3
653.90 -811.89 1692.7
622.74 -768.04 1601.3
619.44 -758.92 1582.3
686.43 -819.28 1708.2
691.71 -820.30 1710.3
674.95 -795.32 1658.2
663.34 -771.82 1609.2
674.01 -779.33 1624.8
677.94 -769.44 1604.2
675.84 -762.38 1589.5
751.66 -799.18 1666.2
741.35 -783.71 1634.0
743.45 -781.47 1629.3
769.86 -791.24 1649.7
798.42 -816.07 1701.5
808.82 -822.15 1714.1
802.35 -811.12 1691.1
815.53 -819.96 1709.6
841.50 -841.50 1754.5
833.36 -828.88 1728.2
841.93 -832.93 1736.6
870.25 -856.36 1785.5
854.73 -836.64 1744.3
860.94 -838.28 1747.8
911.60 -882.97 1840.9
933.59 -899.56 1875.5
911.73 -873.94 1822.1
883.43 -842.45 1756.5
887.21 -841.71 1754.9
952.20 -898.76 1873.9
986.25 -921.50 1921.3
937.20 -871.27 1816.5
960.13 -888.12 1851.7
1009.99 -929.59 1938.1
1039.72 -952.22 1985.3
1077.36 -981.83 2047.1
1079.97 -979.38 2042.0
1084.71 -978.88 2040.9
1131.09 -1015.78 2117.8
1112.52 -975.44 2033.7
1175.36 -1020.85 2128.4
1155.17 -998.63 2082.1
1142.14 -978.23 2039.5
1203.71 -998.59 2082.0
1193.56 -985.76 2055.2
1232.73 -1009.10 2103.9
1239.36 -1005.62 2096.7
1330.57 -996.58 2077.8
1340.56 -988.06 2060.1
1370.81 -998.42 2081.7
1435.04 -1021.08 2128.9
1466.29 -1027.51 2142.3
1464.28 -1018.39 2123.3
1520.66 -1053.64 2196.8
1478.45 -1013.02 2112.1
1518.75 -1036.79 2161.6
1574.50 -1040.29 2169.0
1600.39 -1053.64 2196.8
1613.46 -1043.67 2176.0
1667.02 -1070.83 2232.6
1728.66 -1106.58 2307.2
1726.16 -1097.39 2288.0
1702.58 -1078.69 2249.0
1743.98 -1086.32 2264.9
1796.74 -1089.83 2272.2
513.50 -776.51 1610.3
519.57 -779.36 1616.2
539.85 -784.47 1626.8
536.10 -738.62 1531.7
624.94 -812.86 1685.7
601.68 -771.81 1600.5
643.52 -808.74 1677.1
663.50 -828.26 1717.6
640.69 -794.45 1647.5
601.92 -741.44 1537.5
680.54 -821.96 1704.5
675.94 -811.13 1682.1
664.05 -791.75 1641.9
678.47 -803.80 1666.9
695.09 -818.27 1696.9
672.50 -786.70 1631.4
710.65 -805.98 1671.4
725.58 -808.13 1675.8
742.13 -821.64 1703.9
734.94 -808.87 1677.4
743.13 -813.07 1686.1
755.06 -821.29 1703.1
756.28 -808.43 1676.5
753.95 -801.34 1661.8
794.55 -834.95 1731.5
798.13 -820.18 1700.8
809.30 -827.08 1715.1
788.69 -801.62 1662.4
787.99 -796.56 1651.8
836.42 -840.94 1743.9
850.98 -850.98 1764.7
820.41 -816.02 1692.2
807.20 -798.61 1656.1
828.16 -815.01 1690.1
874.41 -856.00 1775.1
915.72 -891.75 1849.3
925.03 -896.13 1858.3
903.57 -870.79 1805.8
875.26 -839.17 1740.2
876.52 -836.06 1733.8
946.82 -898.52 1863.3
1005.99 -945.02 1959.7
941.90 -880.37 1825.7
953.83 -887.06 1839.5
1012.55 -936.99 1943.1
1047.82 -964.82 2000.8
1089.75 -998.49 2070.6
1092.41 -996.02 2065.5
1049.70 -952.41 1975.0
1051.26 -949.20 1968.4
1108.49 -996.04 2065.5
1132.05 -1012.32 2099.3
1088.44 -964.05 1999.2
1112.50 -980.69 2033.7
1154.89 -1013.26 2101.2
1173.96 -1025.15 2125.9
1124.28 -977.18 2026.4
1206.44 -1006.27 2086.7
1185.66 -984.52 2041.6
1209.82 -995.69 2064.8
1377.53 -1037.33 2151.1
1347.13 -1010.34 2095.2
1354.71 -1011.95 2098.5
1429.04 -1034.24 2144.7
1406.80 -1014.20 2103.2
1414.41 -1015.76 2106.4
1555.63 -1067.70 2214.1
1568.30 -1072.44 2223.9
1589.50 -1071.19 2221.4
1557.72 -1045.98 2169.1
1550.78 -1037.57 2151.7
1592.37 -1061.58 2201.4
1598.56 -1061.90 2202.1
1575.67 -1042.97 2162.8
1628.53 -1074.14 2227.5
1642.94 -1064.76 2208.0
1703.64 -1074.16 2227.5
1735.98 -1090.85 2262.1
1770.71 -1108.93 2299.6
1773.02 -1106.65 2294.9
1834.41 -1118.69 2319.9
1816.88 -1104.38 2290.2
1803.32 -1092.57 2265.7
498.40 -803.46 1657.3
503.74 -798.31 1646.6
501.56 -788.16 1625.7
523.74 -747.62 1542.1
536.51 -760.06 1567.7
552.55 -754.21 1555.7
595.26 -778.41 1605.6
626.70 -813.84 1678.7
629.03 -805.67 1661.8
609.53 -775.38 1599.3
624.00 -788.44 1626.3
625.63 -774.79 1598.1
623.91 -762.56 1572.9
677.56 -822.76 1697.1
687.24 -829.12 1710.2
652.17 -781.77 1612.5
649.67 -773.80 1596.1
696.19 -823.98 1699.6
695.90 -818.44 1688.2
669.67 -782.67 1614.4
669.47 -777.58 1603.9
717.03 -812.63 1676.2
707.08 -796.53 1643.0
734.74 -822.73 1697.0
759.97 -840.91 1734.5
751.69 -826.86 1705.5
747.73 -817.69 1686.6
765.64 -832.42 1717.0
776.58 -839.43 1731.4
761.63 -818.54 1688.4
793.85 -833.99 1720.2
791.10 -826.46 1704.7
801.17 -823.18 1697.9
765.64 -782.37 1613.8
753.79 -766.08 1580.1
855.82 -860.42 1774.7
877.28 -877.28 1809.5
835.03 -830.59 1713.2
825.03 -816.30 1683.7
865.56 -851.89 1757.2
899.89 -881.04 1817.3
926.30 -902.17 1860.9
922.10 -893.43 1842.8
891.43 -859.27 1772.4
891.10 -854.54 1762.6
905.69 -864.10 1782.3
924.96 -878.01 1811.0
964.47 -910.89 1878.8
966.38 -908.10 1873.1
943.31 -881.99 1819.2
971.80 -904.11 1864.9
1024.65 -943.89 1946.9
1080.76 -990.70 2043.5
1094.57 -998.46 2059.5
1077.25 -977.89 2017.0
1116.71 -1008.82 2080.8
1152.51 -1036.15 2137.2
1112.03 -985.55 2032.8
1140.65 -1006.14 2075.3
1103.27 -964.07 1988.5
1111.87 -967.07 1994.7
1197.80 -1032.20 2129.1
1202.47 -1026.76 2117.8
1357.36 -1031.81 2128.3
1338.09 -1008.96 2081.1
1378.29 -1035.10 2135.0
1328.99 -978.43 2018.1
1503.49 -1041.31 2147.8
1510.37 -1038.38 2141.8
1583.08 -1084.38 2236.7
1607.08 -1084.92 2237.8
1576.88 -1060.71 2187.9
1603.78 -1074.93 2217.2
1748.31 -1112.02 2293.7
1741.58 -1103.98 2277.1
1756.94 -1109.96 2289.5
1754.07 -1097.03 2262.8
1791.84 -1116.91 2303.8
1772.28 -1101.05 2271.1
1855.30 -1119.17 2308.4
520.82 -789.63 1620.1
526.65 -792.08 1625.1
521.33 -753.93 1546.8
518.29 -743.80 1526.0
570.13 -788.12 1617.0
569.80 -765.16 1569.9
565.31 -743.20 1524.8
566.95 -740.19 1518.6
612.43 -794.04 1629.1
615.57 -792.65 1626.3
562.30 -719.13 1475.4
636.89 -798.23 1637.7
635.36 -791.04 1623.0
616.72 -762.79 1565.0
611.26 -751.09 1541.0
636.08 -776.51 1593.1
667.93 -810.14 1662.1
649.87 -783.18 1606.8
644.27 -771.48 1582.8
692.46 -823.94 1690.5
695.27 -822.08 1686.6
667.67 -784.51 1609.6
670.27 -782.68 1605.8
704.65 -817.74 1677.7
715.31 -815.02 1672.2
698.52 -791.09 1623.1
722.85 -813.75 1669.5
744.83 -833.50 1710.1
740.61 -823.87 1690.3
727.09 -804.07 1649.7
713.38 -784.30 1609.1
723.30 -790.58 1622.0
750.85 -815.95 1674.1
749.69 -810.01 1661.9
743.95 -799.21 1639.7
760.87 -812.75 1667.5
766.47 -814.11 1670.3
765.96 -808.99 1659.8
776.17 -815.19 1672.5
784.89 -819.77 1681.9
800.64 -831.60 1706.2
801.65 -828.08 1699.0
789.69 -811.27 1664.5
804.77 -822.26 1687.0
799.75 -812.71 1667.4
813.33 -822.07 1686.6
873.34 -878.01 1801.4
871.24 -871.24 1787.5
829.17 -824.78 1692.2
838.91 -830.08 1703.1
887.33 -873.39 1791.9
923.47 -904.23 1855.2
953.31 -928.62 1905.2
956.59 -927.01 1901.9
911.03 -878.33 1802.0
878.34 -842.49 1728.5
896.64 -855.68 1755.6
937.69 -890.33 1826.7
959.68 -906.63 1860.1
962.80 -905.03 1856.8
986.26 -922.47 1892.6
1005.61 -935.91 1920.2
1016.52 -941.41 1931.5
1053.24 -970.63 1991.4
1060.03 -972.13 1994.5
1039.14 -948.34 1945.7
1064.52 -966.81 1983.6
1086.57 -982.09 2014.9
1135.01 -1016.10 2084.7
1123.04 -1000.62 2052.9
1129.97 -1002.05 2055.9
1116.20 -980.59 2011.8
1089.46 -952.65 1954.5
1115.99 -971.33 1992.8
1153.76 -990.44 2032.1
1191.70 -1018.36 2089.3
1185.91 -1008.83 2069.8
1324.64 -1033.33 2120.0
1354.97 -1031.31 2115.9
1382.76 -1044.01 2142.0
1335.70 -980.91 2012.5
1455.61 -1048.49 2151.2
1514.53 -1062.43 2179.8
1493.62 -1043.87 2141.7
1484.64 -1026.15 2105.3
1503.02 -1035.05 2123.6
1520.39 -1043.19 2140.3
1667.18 -1095.91 2248.4
1696.79 -1092.46 2241.4
1732.90 -1111.90 2281.2
1765.44 -1110.04 2277.4
1769.35 -1105.11 2267.3
1832.00 -1136.68 2332.1
1854.64 -1124.75 2307.6
517.00 -788.01 1608.2
530.69 -777.52 1586.8
529.53 -769.86 1571.1
531.00 -748.95 1528.5
563.87 -783.61 1599.2
542.38 -727.02 1483.7
562.89 -743.96 1518.3
539.09 -707.56 1444.0
566.45 -738.33 1506.8
584.43 -756.56 1544.0
586.31 -743.71 1517.8
623.12 -785.13 1602.3
607.58 -760.48 1552.0
591.81 -735.87 1501.8
616.75 -752.04 1534.8
663.96 -804.42 1641.7
698.05 -835.01 1704.1
640.84 -761.75 1554.6
650.31 -768.18 1567.7
687.22 -806.74 1646.4
709.83 -818.03 1669.5
683.84 -783.30 1598.6
674.11 -767.51 1566.3
723.04 -813.43 1660.1
710.30 -794.36 1621.1
709.15 -788.41 1609.0
706.46 -780.83 1593.5
707.42 -777.34 1586.4
727.77 -795.08 1622.6
731.01 -794.03 1620.5
729.34 -787.68 1607.5
743.52 -798.44 1629.5
770.88 -813.94 1661.1
761.01 -799.06 1630.7
759.17 -792.72 1617.8
789.26 -819.61 1672.7
