ply
format ascii 1.0
element vertex 2007
property float x
property float y
property float z
end_header
-1285.69 -1330.24 2455.0
-1256.65 -1319.80 2435.7
-1257.99 -1327.88 2450.6
-1218.54 -1319.56 2435.3
-1197.96 -1310.85 2419.2
-1224.07 -1346.48 2485.0
-1223.79 -1353.29 2497.5
-1210.44 -1345.65 2483.4
-1187.35 -1327.04 2449.1
-1134.23 -1316.96 2430.5
-1146.21 -1338.31 2469.9
-1136.20 -1334.08 2462.1
-1149.42 -1357.22 2504.8
-1160.58 -1378.19 2543.5
-1119.33 -1336.80 2467.1
-1104.17 -1341.70 2476.1
-1097.51 -1341.41 2475.6
-1091.57 -1341.99 2476.7
-1122.65 -1388.37 2562.3
-1134.03 -1410.78 2603.6
-1120.66 -1402.51 2588.4
-1074.10 -1352.33 2495.7
-1016.31 -1303.12 2404.9
-991.57 -1303.38 2405.4
-1000.62 -1323.61 2442.7
-999.05 -1329.95 2454.5
-1009.82 -1352.91 2496.8
-1041.38 -1404.19 2591.5
-1021.49 -1386.31 2558.5
-999.77 -1365.70 2520.4
-971.35 -1335.61 2464.9
-963.48 -1342.44 2477.5
-977.66 -1371.35 2530.8
-933.09 -1317.67 2431.8
-910.54 -1359.31 2508.6
-912.18 -1371.56 2531.2
-918.22 -1390.63 2566.4
-926.76 -1413.82 2609.2
-889.50 -1366.95 2522.7
-857.65 -1327.76 2450.4
-886.60 -1382.83 2552.0
-877.35 -1389.14 2563.7
-843.50 -1345.74 2483.6
-840.99 -1352.06 2495.3
-824.60 -1335.98 2465.6
-795.86 -1320.12 2436.3
-764.36 -1331.25 2456.9
-746.38 -1310.87 2419.2
-736.48 -1315.59 2428.0
-739.80 -1332.92 2459.9
-746.51 -1356.71 2503.8
-728.11 -1334.87 2463.5
-697.61 -1313.51 2424.1
-688.91 -1320.94 2437.8
-704.94 -1364.20 2517.7
-677.22 -1322.80 2441.3
-648.91 -1316.72 2430.0
-651.31 -1334.55 2463.0
-637.40 -1318.97 2434.2
-621.34 -1325.11 2445.5
-626.74 -1350.40 2492.2
-611.81 -1331.96 2458.2
-600.22 -1320.49 2437.0
-608.01 -1351.85 2494.9
-601.82 -1352.48 2496.0
-591.73 -1344.25 2480.8
-576.62 -1324.33 2444.1
-566.53 -1315.60 2428.0
-562.87 -1321.79 2439.4
-544.99 -1324.46 2444.3
-550.11 -1352.62 2496.3
-541.05 -1346.17 2484.4
-516.92 -1333.79 2461.5
-516.31 -1348.86 2489.4
-504.21 -1333.93 2461.8
-457.04 -1326.68 2448.4
-456.60 -1344.09 2480.5
-414.33 -1312.03 2421.4
-407.16 -1309.17 2416.1
-378.20 -1317.39 2431.3
-380.14 -1346.59 2485.2
-368.17 -1326.69 2448.4
-360.38 -1321.41 2438.7
-357.33 -1333.60 2461.2
-354.16 -1345.80 2483.7
-349.16 -1351.38 2494.0
-341.71 -1347.49 2486.8
-334.64 -1345.02 2482.3
-326.79 -1339.22 2471.6
-323.75 -1353.29 2497.5
-311.48 -1328.54 2451.9
-299.40 -1360.31 2510.5
-294.80 -1369.16 2526.8
-289.11 -1373.27 2534.4
-284.26 -1381.63 2549.8
-274.47 -1365.81 2520.6
-265.57 -1353.77 2498.4
-260.60 -1361.65 2512.9
-262.29 -1405.58 2594.0
-220.31 -1395.27 2575.0
-198.56 -1338.71 2470.6
-193.76 -1349.85 2491.2
-184.76 -1331.52 2457.3
-184.40 -1376.40 2540.2
-180.54 -1397.52 2579.2
-177.49 -1426.72 2633.1
-144.80 -1375.57 2538.6
-140.81 -1401.42 2586.4
-110.32 -1356.27 2503.0
-107.19 -1400.19 2584.1
-87.82 -1411.93 2605.8
-53.42 -1395.65 2575.7
-19.71 -1372.98 2533.9
-12.99 -1357.75 2505.8
39.86 -1388.60 2562.7
47.26 -1410.94 2603.9
95.63 -1427.55 2634.6
99.99 -1393.16 2571.1
108.69 -1419.71 2620.1
114.85 -1411.97 2605.8
114.54 -1329.97 2454.5
134.21 -1402.52 2588.4
155.65 -1414.42 2610.3
163.93 -1427.57 2634.6
232.78 -1390.03 2565.3
242.17 -1405.92 2594.7
244.56 -1381.45 2549.5
243.53 -1339.41 2471.9
256.18 -1372.84 2533.6
262.69 -1372.56 2533.1
266.60 -1358.99 2508.0
272.09 -1353.96 2498.8
272.85 -1326.16 2447.5
280.73 -1333.45 2460.9
294.49 -1367.74 2524.2
307.85 -1398.69 2581.3
314.57 -1398.83 2581.6
307.81 -1340.24 2473.4
309.03 -1318.13 2432.6
320.02 -1337.67 2468.7
386.17 -1323.12 2441.9
393.22 -1325.54 2446.3
422.58 -1318.18 2432.7
432.57 -1329.50 2453.6
436.91 -1323.39 2442.4
440.72 -1315.87 2428.5
462.83 -1362.43 2514.4
477.12 -1384.97 2556.0
461.57 -1321.49 2438.8
486.83 -1338.78 2470.7
514.70 -1344.64 2481.6
520.92 -1344.10 2480.6
520.15 -1325.75 2446.7
563.08 -1337.32 2468.1
576.59 -1354.00 2498.8
585.01 -1358.53 2507.2
599.98 -1377.98 2543.1
612.25 -1390.87 2566.9
594.56 -1336.17 2465.9
612.71 -1347.96 2487.7
612.67 -1333.83 2461.6
637.18 -1331.71 2457.7
637.62 -1319.44 2435.1
660.41 -1327.18 2449.3
677.83 -1349.20 2490.0
688.91 -1320.94 2437.8
717.96 -1364.13 2517.5
724.10 -1363.39 2516.2
810.03 -1322.63 2440.9
828.83 -1342.84 2478.2
843.36 -1335.31 2464.4
860.52 -1352.25 2495.6
873.45 -1362.33 2514.2
881.76 -1365.10 2519.3
864.92 -1329.19 2453.0
896.45 -1319.43 2435.0
937.80 -1370.63 2529.5
933.43 -1354.77 2500.3
973.43 -1329.72 2454.0
997.97 -1354.39 2499.6
989.75 -1334.56 2463.0
994.67 -1324.12 2443.7
1046.67 -1358.72 2507.5
1033.34 -1333.14 2460.3
1133.94 -1369.91 2528.2
1152.88 -1384.79 2555.7
1106.73 -1321.75 2439.3
-1371.90 -1303.62 2394.4
-1313.75 -1345.79 2471.9
-1306.80 -1345.23 2470.8
-1295.65 -1340.33 2461.8
-1295.40 -1346.70 2473.5
-1254.72 -1310.90 2407.8
-1253.04 -1322.30 2428.7
-1203.32 -1302.56 2392.5
-1260.08 -1371.07 2518.3
-1274.23 -1393.69 2559.8
-1254.69 -1379.50 2533.8
-1249.56 -1381.09 2536.7
-1205.67 -1339.63 2460.5
-1158.05 -1300.48 2388.6
-1153.19 -1301.99 2391.4
-1141.63 -1317.27 2419.5
-1128.16 -1338.49 2458.5
-1169.54 -1395.47 2563.1
-1150.85 -1381.02 2536.6
-1107.23 -1336.31 2454.5
-1068.85 -1305.00 2396.9
-1077.61 -1323.38 2430.7
-1091.27 -1348.03 2476.0
-1139.19 -1415.56 2600.0
-1131.68 -1423.07 2613.8
-1069.54 -1353.03 2485.2
-1055.10 -1342.86 2466.5
-1084.13 -1388.21 2549.8
-1072.05 -1381.17 2536.9
-1017.47 -1318.94 2422.5
-1007.76 -1322.68 2429.4
-978.90 -1309.36 2404.9
-1006.51 -1354.91 2488.6
-1018.54 -1398.00 2567.8
-971.06 -1341.60 2464.2
-940.56 -1316.78 2418.6
-973.81 -1372.49 2520.9
-943.36 -1338.55 2458.6
-902.30 -1306.79 2400.2
-938.75 -1369.01 2514.5
-963.20 -1414.49 2598.0
-953.41 -1409.97 2589.7
-913.39 -1360.37 2498.6
-889.60 -1334.39 2450.9
-909.47 -1374.02 2523.7
-936.49 -1425.10 2617.5
-924.65 -1417.35 2603.3
-868.80 -1341.53 2464.0
-839.75 -1306.28 2399.3
-871.13 -1365.20 2507.5
-886.62 -1399.93 2571.3
-843.67 -1342.20 2465.3
-851.52 -1365.03 2507.2
-848.86 -1381.86 2538.1
-796.63 -1306.97 2400.5
-795.89 -1316.03 2417.2
-808.02 -1346.70 2473.5
-779.92 -1310.26 2406.6
-756.73 -1324.28 2432.3
-763.93 -1348.12 2476.1
-774.81 -1378.91 2532.7
-755.30 -1355.66 2490.0
-734.96 -1330.54 2443.8
-736.89 -1345.62 2471.6
-713.80 -1314.90 2415.1
-699.33 -1311.25 2408.4
-691.99 -1309.18 2404.6
-694.91 -1351.21 2481.8
-688.36 -1350.99 2481.4
-673.37 -1334.04 2450.3
-656.90 -1313.80 2413.1
-647.98 -1308.42 2403.2
-648.70 -1322.59 2429.2
-649.51 -1337.23 2456.1
-651.76 -1355.14 2489.0
-648.29 -1361.40 2500.5
-639.48 -1356.48 2491.5
-640.52 -1372.54 2521.0
-646.36 -1399.34 2570.2
-629.97 -1378.06 2531.1
-605.10 -1337.58 2456.8
-600.68 -1341.95 2464.8
-600.37 -1355.67 2490.0
-596.03 -1360.50 2498.9
-573.59 -1323.66 2431.2
-568.24 -1340.78 2462.7
-566.42 -1351.69 2482.7
-557.70 -1346.18 2472.6
-559.22 -1365.53 2508.1
-541.55 -1337.95 2457.5
-515.75 -1320.83 2426.0
-518.92 -1345.35 2471.0
-510.57 -1340.25 2461.7
-512.36 -1361.96 2501.6
-501.35 -1349.79 2479.2
-480.61 -1310.75 2407.5
-473.36 -1307.96 2402.4
-453.32 -1322.18 2428.5
-457.56 -1353.34 2485.7
-426.60 -1317.43 2419.8
-405.41 -1309.78 2405.7
-404.49 -1327.24 2437.8
-395.18 -1317.26 2419.5
-381.99 -1336.97 2455.7
-385.19 -1371.02 2518.2
-373.93 -1353.89 2486.7
-364.50 -1342.91 2466.6
-359.60 -1348.51 2476.9
-349.80 -1335.61 2453.2
-337.80 -1313.68 2412.9
-318.88 -1339.30 2459.9
-311.14 -1333.47 2449.2
-280.72 -1310.02 2406.2
-279.53 -1334.10 2450.4
-269.73 -1317.27 2419.5
-258.50 -1324.03 2431.9
-264.04 -1386.21 2546.1
-258.82 -1393.64 2559.7
-250.51 -1384.38 2542.7
-243.46 -1381.79 2538.0
-234.23 -1366.33 2509.6
-234.99 -1409.95 2589.7
-194.37 -1360.57 2499.0
-181.20 -1312.11 2410.0
-177.26 -1329.48 2441.9
-180.65 -1405.07 2580.7
-118.88 -1386.96 2547.5
-106.06 -1310.16 2406.4
-104.45 -1370.96 2518.1
-20.06 -1403.87 2578.5
46.85 -1405.64 2581.8
51.93 -1363.03 2503.5
59.97 -1399.30 2570.2
87.34 -1410.93 2591.5
92.62 -1389.33 2551.8
94.11 -1317.54 2420.0
113.56 -1402.85 2576.7
122.12 -1424.70 2616.8
121.07 -1338.10 2457.7
132.79 -1394.33 2561.0
162.23 -1419.48 2607.2
226.70 -1400.19 2571.8
225.22 -1351.32 2482.0
236.92 -1382.05 2538.5
242.37 -1375.60 2526.6
245.34 -1355.80 2490.2
257.40 -1386.02 2545.7
263.68 -1384.31 2542.6
267.80 -1371.64 2519.3
273.41 -1367.06 2510.9
271.58 -1326.31 2436.1
277.43 -1324.11 2432.0
290.20 -1354.25 2487.4
302.31 -1380.09 2534.9
309.02 -1380.72 2536.0
302.48 -1323.34 2430.6
421.83 -1322.14 2428.4
437.16 -1350.04 2479.7
444.36 -1352.41 2484.0
451.43 -1354.29 2487.5
468.25 -1384.96 2543.8
477.26 -1392.01 2556.8
470.27 -1352.83 2484.8
467.06 -1325.45 2434.5
477.28 -1318.79 2422.3
488.55 -1332.41 2447.3
492.96 -1327.19 2437.7
498.72 -1325.72 2435.0
505.55 -1327.07 2437.5
507.31 -1315.25 2415.8
542.88 -1325.65 2434.9
566.74 -1322.39 2428.9
574.20 -1325.07 2433.8
578.19 -1319.79 2424.1
598.38 -1336.81 2455.4
621.59 -1374.04 2523.7
623.14 -1363.11 2503.7
636.97 -1337.63 2456.9
659.27 -1331.22 2445.1
670.62 -1341.24 2463.5
697.88 -1320.31 2425.1
704.27 -1320.51 2425.4
735.22 -1319.62 2423.8
747.83 -1330.88 2444.5
754.52 -1331.50 2445.6
809.50 -1328.08 2439.3
858.44 -1397.46 2566.8
855.48 -1381.93 2538.2
822.94 -1319.21 2423.0
835.90 -1319.84 2424.2
853.32 -1337.30 2456.3
850.62 -1323.19 2430.4
898.03 -1328.08 2439.3
935.33 -1373.57 2522.9
925.97 -1350.38 2480.3
919.55 -1331.76 2446.1
926.84 -1333.12 2448.6
936.67 -1338.11 2457.7
978.81 -1326.12 2435.7
1012.87 -1363.47 2504.3
1018.96 -1362.94 2503.4
1030.28 -1335.54 2453.0
1045.29 -1338.49 2458.4
1070.93 -1363.00 2503.5
1044.79 -1321.72 2427.7
1084.60 -1347.73 2475.4
1217.75 -1331.91 2446.4
1269.73 -1381.58 2537.6
1256.65 -1360.30 2498.5
1247.40 -1323.00 2430.0
-1310.61 -1298.30 2373.3
-1323.43 -1317.19 2407.9
-1316.72 -1322.99 2418.5
-1333.50 -1346.26 2461.0
-1280.82 -1299.30 2375.2
-1285.68 -1336.35 2442.9
-1295.48 -1353.20 2473.7
-1268.14 -1331.24 2433.5
-1250.91 -1319.71 2412.5
-1268.81 -1345.33 2459.3
-1244.63 -1326.34 2424.6
-1210.94 -1303.61 2383.0
-1245.92 -1348.15 2464.5
-1222.40 -1329.52 2430.4
-1215.11 -1328.44 2428.4
-1256.25 -1380.57 2523.7
-1263.90 -1396.25 2552.4
-1226.59 -1362.16 2490.1
-1179.01 -1337.48 2444.9
-1184.87 -1351.40 2470.4
-1152.40 -1321.50 2415.7
-1170.51 -1349.60 2467.1
-1185.32 -1374.19 2512.1
-1133.31 -1321.15 2415.1
-1119.39 -1341.99 2453.2
-1105.02 -1332.34 2435.6
-1107.29 -1342.75 2454.6
-1114.60 -1359.42 2485.1
-1106.83 -1357.79 2482.1
-1105.95 -1364.66 2494.6
-1086.98 -1349.14 2466.3
-1097.92 -1370.78 2505.8
-1124.38 -1412.17 2581.5
-1099.00 -1388.56 2538.3
-1083.00 -1376.59 2516.4
-1110.31 -1419.86 2595.5
-1098.82 -1413.72 2584.3
-1046.69 -1354.92 2476.8
-1008.20 -1313.14 2400.5
-999.96 -1310.51 2395.6
-1044.41 -1377.31 2517.8
-1043.40 -1384.63 2531.2
-993.62 -1326.93 2425.7
-980.31 -1317.49 2408.4
-975.77 -1319.79 2412.6
-992.15 -1350.61 2469.0
-1018.85 -1395.96 2551.9
-1007.69 -1389.70 2540.4
-1000.83 -1389.31 2539.7
-987.15 -1379.39 2521.6
-953.85 -1341.75 2452.8
-944.62 -1337.68 2445.3
-945.62 -1348.15 2464.5
-927.51 -1331.33 2433.7
-912.38 -1318.57 2410.4
-927.10 -1349.09 2466.2
-959.30 -1405.64 2569.6
-930.51 -1392.46 2545.5
-913.60 -1376.92 2517.1
-896.90 -1391.51 2543.7
-861.52 -1346.52 2461.5
-861.22 -1356.10 2479.0
-845.20 -1340.88 2451.2
-839.95 -1342.64 2454.4
-880.08 -1417.53 2591.3
-848.29 -1387.51 2536.4
-803.93 -1325.23 2422.6
-810.90 -1347.25 2462.8
-812.44 -1360.52 2487.1
-775.30 -1308.71 2392.4
-772.97 -1325.98 2423.9
-762.32 -1318.44 2410.1
-752.80 -1312.73 2399.7
-758.07 -1332.94 2436.6
-767.08 -1360.11 2486.3
-776.88 -1389.16 2539.4
-755.56 -1362.59 2490.8
-706.55 -1307.73 2390.6
-710.94 -1327.51 2426.7
-711.70 -1340.79 2451.0
-697.16 -1325.23 2422.6
-678.93 -1326.42 2424.7
-675.36 -1331.78 2434.5
-678.54 -1350.67 2469.1
-678.75 -1363.97 2493.4
-663.20 -1345.52 2459.7
-658.06 -1348.07 2464.3
-656.30 -1357.63 2481.8
-656.46 -1371.41 2507.0
-638.75 -1347.75 2463.7
-614.87 -1310.49 2395.6
-615.48 -1325.18 2422.5
-621.13 -1351.12 2469.9
-623.98 -1371.46 2507.1
-620.31 -1377.73 2518.5
-610.72 -1370.87 2506.0
-606.57 -1376.20 2515.7
-599.09 -1374.01 2511.7
-572.38 -1327.17 2426.1
-548.75 -1315.76 2405.3
-552.27 -1339.41 2448.5
-549.03 -1347.05 2462.4
-527.13 -1308.51 2392.0
-531.11 -1350.17 2468.1
-526.76 -1355.44 2477.8
-514.39 -1339.95 2449.5
-509.49 -1343.79 2456.5
-513.41 -1371.25 2506.7
-513.05 -1387.86 2537.0
-502.53 -1377.05 2517.3
-488.01 -1354.88 2476.8
-464.46 -1306.67 2388.6
-452.90 -1309.06 2393.0
-448.47 -1314.28 2402.5
-436.76 -1335.59 2441.5
-441.58 -1370.20 2504.8
-431.32 -1358.33 2483.1
-417.31 -1334.11 2438.8
-414.63 -1345.95 2460.4
-411.26 -1355.89 2478.6
-398.73 -1335.42 2441.2
-391.96 -1333.94 2438.5
-387.41 -1340.06 2449.7
-378.88 -1332.39 2435.6
-369.22 -1320.43 2413.8
-371.18 -1350.32 2468.4
-374.91 -1387.84 2537.0
-369.07 -1390.62 2542.1
-357.62 -1371.96 2508.0
-341.46 -1334.23 2439.0
-317.18 -1338.51 2446.8
-307.48 -1324.06 2420.4
-301.39 -1324.87 2421.9
-300.07 -1347.14 2462.6
-291.37 -1336.49 2443.1
-284.18 -1332.50 2435.9
-278.63 -1336.15 2442.5
-257.41 -1357.85 2482.2
-250.41 -1354.78 2476.6
-239.47 -1329.70 2430.7
-229.69 -1309.88 2394.5
-221.33 -1334.28 2439.1
-185.46 -1397.58 2554.8
-176.96 -1382.93 2528.0
-118.88 -1393.49 2547.3
-110.62 -1372.99 2509.9
-105.50 -1391.33 2543.4
0.00 -1400.89 2560.9
73.26 -1405.25 2568.8
75.25 -1323.13 2418.7
81.51 -1323.05 2418.6
93.38 -1407.38 2572.7
104.67 -1380.30 2523.2
113.25 -1405.60 2569.5
134.51 -1419.10 2594.2
161.07 -1416.06 2588.6
237.56 -1392.39 2545.3
249.97 -1352.39 2472.2
263.75 -1391.31 2543.3
276.05 -1420.64 2597.0
277.87 -1395.98 2551.9
270.80 -1328.80 2429.1
274.54 -1316.57 2406.7
286.12 -1341.57 2452.4
300.73 -1379.44 2521.7
309.00 -1387.23 2535.9
300.96 -1322.96 2418.4
337.81 -1319.94 2412.9
344.46 -1321.48 2415.7
349.24 -1315.87 2405.5
365.03 -1327.96 2427.5
375.74 -1343.73 2456.4
443.20 -1317.12 2407.7
471.91 -1382.95 2528.1
488.11 -1410.85 2579.1
467.56 -1333.19 2437.1
495.19 -1322.60 2417.8
518.12 -1317.16 2407.8
560.90 -1329.77 2430.9
577.98 -1355.03 2477.0
587.18 -1361.48 2488.8
584.35 -1340.19 2449.9
580.29 -1316.57 2406.7
695.45 -1321.98 2416.6
706.76 -1331.49 2434.0
734.98 -1336.90 2443.9
749.64 -1351.92 2471.4
806.62 -1319.36 2411.8
818.89 -1329.13 2429.7
852.71 -1332.76 2436.3
860.66 -1325.55 2423.1
875.37 -1338.43 2446.7
883.25 -1340.76 2450.9
885.68 -1334.85 2440.1
889.89 -1331.68 2434.4
895.61 -1330.80 2432.7
933.22 -1339.52 2448.7
969.23 -1381.81 2526.0
986.66 -1397.22 2554.2
953.85 -1341.75 2452.8
981.51 -1336.13 2442.5
1016.57 -1374.97 2513.5
1025.71 -1378.50 2519.9
1017.63 -1358.99 2484.3
1020.27 -1320.72 2414.3
1068.34 -1341.78 2452.8
1137.75 -1420.50 2596.7
1065.35 -1322.28 2417.2
1247.43 -1356.75 2480.2
1232.13 -1333.23 2437.2
1267.99 -1344.45 2457.7
-1297.95 -1297.95 2361.5
-1313.40 -1325.90 2412.4
-1362.34 -1381.90 2514.2
-1341.63 -1367.43 2487.9
-1314.65 -1346.40 2449.7
-1288.67 -1326.20 2412.9
-1230.34 -1304.16 2372.8
-1257.36 -1339.50 2437.1
-1241.86 -1329.66 2419.2
-1216.61 -1309.25 2382.1
-1242.38 -1343.80 2444.9
-1285.69 -1397.78 2543.1
-1272.51 -1390.58 2530.0
-1225.25 -1345.87 2448.7
-1223.51 -1350.96 2458.0
-1222.53 -1356.95 2468.8
-1179.09 -1315.62 2393.6
-1164.38 -1306.08 2376.3
-1177.64 -1327.97 2416.1
-1169.60 -1325.96 2412.5
-1184.92 -1350.56 2457.2
-1210.51 -1387.18 2523.8
-1196.07 -1378.08 2507.3
-1180.55 -1367.63 2488.3
-1156.70 -1347.36 2451.4
-1148.22 -1344.88 2446.9
-1156.80 -1362.45 2478.8
-1151.66 -1363.98 2481.6
-1111.27 -1323.53 2408.0
-1090.22 -1305.80 2375.8
-1101.99 -1327.40 2415.1
-1093.63 -1324.86 2410.5
-1102.57 -1343.36 2444.1
-1102.94 -1351.58 2459.1
-1088.31 -1341.40 2440.6
-1103.82 -1368.47 2489.8
-1099.28 -1370.87 2494.2
-1068.92 -1340.89 2439.6
-1053.06 -1328.86 2417.7
-1055.03 -1339.32 2436.8
-1069.26 -1365.56 2484.5
-1076.96 -1383.72 2517.6
-1043.29 -1348.65 2453.7
-1010.27 -1313.96 2390.6
-993.76 -1300.47 2366.1
-1017.25 -1356.33 2467.7
-1034.22 -1387.69 2524.8
-1042.86 -1408.19 2562.1
-1020.42 -1395.67 2539.3
-990.12 -1363.02 2479.9
-997.85 -1382.64 2515.6
-1011.28 -1410.47 2566.2
-1001.76 -1406.45 2558.9
-969.69 -1370.49 2493.5
-942.73 -1341.33 2440.4
-928.44 -1329.93 2419.7
-936.10 -1350.03 2456.2
-948.00 -1376.55 2504.5
-926.19 -1354.15 2463.7
-927.88 -1366.05 2485.4
-936.89 -1388.95 2527.1
-923.59 -1378.88 2508.7
-906.40 -1362.82 2479.5
-911.48 -1380.24 2511.2
-910.98 -1389.41 2527.9
-906.21 -1392.15 2532.9
-918.06 -1420.65 2584.7
-884.78 -1379.22 2509.4
-856.26 -1344.64 2446.5
-866.48 -1370.84 2494.1
-861.71 -1373.55 2499.1
-869.27 -1396.10 2540.1
-873.59 -1424.63 2592.0
-839.84 -1380.20 2511.2
-809.83 -1341.27 2440.3
-809.25 -1350.88 2457.8
-802.82 -1350.77 2457.6
-782.72 -1327.49 2415.2
-782.61 -1338.01 2434.4
-778.10 -1341.12 2440.0
-750.33 -1303.85 2372.2
-748.32 -1311.11 2385.4
-761.24 -1344.86 2446.9
-739.41 -1317.27 2396.7
-721.13 -1306.67 2377.4
-695.04 -1303.98 2372.5
-709.24 -1342.50 2442.5
-726.77 -1388.06 2525.4
-720.61 -1388.81 2526.8
-677.66 -1318.01 2398.0
-655.59 -1311.19 2385.6
-681.77 -1376.52 2504.4
-689.87 -1406.28 2558.6
-670.37 -1379.79 2510.4
-655.84 -1363.12 2480.1
-647.28 -1358.64 2471.9
-621.69 -1317.98 2397.9
-606.80 -1312.68 2388.3
-604.99 -1322.24 2405.7
-598.82 -1322.40 2406.0
-601.94 -1343.27 2444.0
-600.47 -1354.26 2463.9
-604.90 -1378.92 2508.8
-605.63 -1395.58 2539.1
-585.55 -1364.14 2481.9
-558.34 -1315.20 2392.9
-542.18 -1321.18 2403.8
-546.92 -1348.23 2453.0
-529.23 -1319.95 2401.5
-523.78 -1321.93 2405.1
-529.62 -1352.77 2461.2
-515.95 -1333.91 2426.9
-506.24 -1324.98 2410.7
-504.49 -1336.89 2432.3
-498.02 -1336.47 2431.6
-487.90 -1326.09 2412.7
-495.27 -1363.61 2481.0
-498.05 -1389.29 2527.7
-486.81 -1376.04 2503.6
-483.32 -1384.63 2519.2
-466.98 -1356.16 2467.4
-443.96 -1307.22 2378.4
-447.67 -1336.69 2432.0
-464.45 -1406.62 2559.2
-446.67 -1372.37 2496.9
-425.38 -1326.20 2412.9
-423.79 -1340.93 2439.7
-417.90 -1342.34 2442.3
-409.22 -1334.68 2428.3
-399.02 -1321.77 2404.8
-395.47 -1330.78 2421.2
-397.12 -1357.91 2470.6
-393.17 -1366.44 2486.1
-385.36 -1361.61 2477.3
-364.17 -1308.55 2380.8
-365.78 -1360.43 2475.2
-367.41 -1390.93 2530.7
-357.36 -1377.46 2506.2
-342.31 -1343.90 2445.1
-328.65 -1314.61 2391.8
-315.15 -1310.05 2383.5
-314.58 -1333.83 2426.8
-312.80 -1353.32 2462.2
-313.86 -1386.21 2522.1
-301.02 -1357.81 2470.4
-278.28 -1311.01 2385.3
-276.83 -1333.84 2426.8
-273.71 -1349.47 2455.2
-270.92 -1367.51 2488.1
-263.23 -1361.09 2476.4
-257.04 -1362.33 2478.6
-259.41 -1410.10 2565.5
-240.17 -1376.09 2503.7
-223.53 -1316.34 2395.0
-220.21 -1333.87 2426.8
-225.05 -1403.26 2553.1
-220.86 -1418.87 2581.5
-209.49 -1387.88 2525.1
-201.71 -1379.46 2509.8
-198.50 -1402.74 2552.2
-177.32 -1392.30 2533.2
-143.13 -1379.22 2509.4
-132.92 -1341.85 2441.4
-129.83 -1376.15 2503.8
-113.59 -1416.50 2577.2
-72.48 -1396.89 2541.5
-66.08 -1400.82 2548.7
-60.47 -1424.48 2591.7
-39.86 -1408.27 2562.2
0.00 -1423.33 2589.6
33.54 -1422.28 2587.7
40.31 -1424.16 2591.1
65.80 -1395.04 2538.1
72.28 -1393.03 2534.5
80.48 -1421.84 2586.9
86.18 -1405.38 2557.0
110.92 -1383.29 2516.8
114.09 -1343.70 2444.7
124.55 -1389.77 2528.6
133.50 -1415.13 2574.7
138.73 -1400.55 2548.2
147.62 -1422.52 2588.1
152.59 -1406.48 2559.0
152.51 -1347.16 2451.0
159.81 -1355.16 2465.6
173.02 -1410.76 2566.7
239.34 -1409.47 2564.4
229.03 -1312.26 2387.5
246.17 -1338.13 2434.6
257.22 -1363.29 2480.4
267.12 -1381.23 2513.0
266.74 -1346.41 2449.7
267.01 -1316.40 2395.1
278.13 -1340.07 2438.1
280.82 -1322.99 2407.1
286.89 -1322.21 2405.6
312.70 -1410.50 2566.3
320.26 -1414.47 2573.5
308.48 -1334.65 2428.3
374.14 -1344.36 2445.9
415.82 -1335.67 2430.1
424.09 -1341.89 2441.4
430.27 -1341.43 2440.6
467.05 -1375.19 2502.0
481.71 -1398.92 2545.2
460.93 -1320.51 2402.5
491.84 -1319.88 2401.4
504.97 -1321.66 2404.6
530.78 -1372.27 2496.7
540.00 -1379.27 2509.5
574.25 -1383.43 2517.0
583.89 -1390.85 2530.5
576.97 -1359.09 2472.7
578.87 -1348.57 2453.6
627.59 -1317.33 2396.8
647.04 -1344.82 2446.8
640.52 -1318.35 2398.6
654.62 -1321.70 2404.7
671.08 -1317.30 2396.7
693.51 -1324.54 2409.9
845.70 -1328.07 2416.3
886.74 -1323.87 2408.7
898.26 -1331.69 2422.9
899.27 -1323.93 2408.8
919.31 -1325.81 2412.2
993.46 -1423.06 2589.1
995.32 -1416.15 2576.6
939.04 -1327.18 2414.7
964.03 -1327.10 2414.5
984.21 -1346.15 2449.2
984.85 -1338.38 2435.1
993.47 -1341.50 2440.7
1011.37 -1323.52 2408.0
1025.89 -1334.29 2427.6
1086.22 -1370.71 2493.9
1119.10 -1403.84 2554.2
1165.07 -1327.93 2416.0
1252.83 -1334.68 2428.3
1251.85 -1326.96 2414.3
-1309.53 -1321.95 2393.9
-1333.30 -1352.35 2448.9
-1372.69 -1398.97 2533.3
-1313.11 -1344.68 2435.0
-1276.50 -1319.88 2390.1
-1274.36 -1324.09 2397.8
-1260.00 -1315.59 2382.4
-1241.94 -1303.12 2359.8
-1209.79 -1308.05 2368.7
-1207.92 -1312.68 2377.1
-1219.76 -1332.36 2412.7
-1237.09 -1358.25 2459.6
-1217.30 -1343.44 2432.8
-1210.40 -1342.79 2431.6
-1206.29 -1345.24 2436.0
-1182.75 -1325.93 2401.1
-1182.62 -1332.80 2413.5
-1176.55 -1333.00 2413.9
-1146.24 -1305.61 2364.3
-1139.49 -1304.90 2363.0
-1144.73 -1317.99 2386.7
-1148.33 -1329.32 2407.2
-1144.16 -1331.73 2411.6
-1151.80 -1347.99 2441.0
-1175.65 -1383.49 2505.3
-1165.92 -1379.67 2498.4
-1140.42 -1357.03 2457.4
-1118.09 -1337.93 2422.8
-1111.93 -1338.09 2423.1
-1119.87 -1355.30 2454.3
-1109.21 -1350.07 2444.8
-1100.79 -1347.52 2440.2
-1086.17 -1337.31 2421.7
-1088.36 -1347.80 2440.7
-1118.32 -1393.00 2522.5
-1105.79 -1385.50 2508.9
-1066.82 -1344.57 2434.8
-1032.45 -1309.01 2370.4
-1020.64 -1309.62 2371.5
-1021.56 -1318.75 2388.1
-1020.66 -1325.62 2400.5
-1021.09 -1334.31 2416.2
-1039.04 -1366.14 2473.9
-1031.32 -1364.42 2470.8
-986.07 -1312.71 2377.1
-997.93 -1336.85 2420.9
-1012.29 -1364.67 2471.2
-1016.67 -1379.31 2497.7
-1033.70 -1420.50 2572.3
-994.10 -1374.96 2489.9
-993.26 -1382.78 2504.0
-999.20 -1400.20 2535.6
-980.68 -1383.34 2505.0
-948.44 -1346.78 2438.8
-926.75 -1324.81 2399.1
-911.92 -1312.43 2376.6
-915.56 -1326.63 2402.3
-956.50 -1395.44 2527.0
-967.47 -1421.18 2573.6
-931.00 -1377.11 2493.8
-910.03 -1355.50 2454.6
-899.97 -1349.96 2444.6
-883.25 -1334.27 2416.2
-888.47 -1351.74 2447.8
-890.52 -1364.61 2471.1
-856.29 -1321.67 2393.4
-840.54 -1306.83 2366.5
-824.58 -1310.72 2373.5
-832.24 -1332.83 2413.6
-845.44 -1364.23 2470.4
-867.48 -1410.49 2554.2
-847.53 -1388.64 2514.6
-799.38 -1319.90 2390.2
-787.25 -1310.03 2372.3
-806.50 -1352.63 2449.4
-797.05 -1347.40 2440.0
-773.46 -1317.98 2386.7
-763.40 -1311.32 2374.6
-754.45 -1328.07 2405.0
-744.70 -1321.84 2393.7
-733.48 -1335.32 2418.1
-719.48 -1321.11 2392.3
-704.33 -1304.53 2362.3
-686.44 -1317.23 2385.3
-702.42 -1360.15 2463.0
-680.80 -1330.37 2409.1
-649.77 -1305.67 2364.4
-670.63 -1360.42 2463.5
-676.75 -1386.04 2509.9
-656.25 -1357.09 2457.5
-635.99 -1328.10 2405.0
-622.25 -1312.27 2376.3
-607.47 -1320.32 2390.9
-603.93 -1326.15 2401.5
-591.38 -1312.14 2376.1
-585.08 -1311.81 2375.5
-577.94 -1309.58 2371.5
-576.80 -1321.06 2392.3
-598.04 -1384.60 2507.3
-599.90 -1404.16 2542.8
-573.56 -1357.43 2458.1
-553.78 -1325.34 2400.0
-541.73 -1311.22 2374.4
-547.81 -1341.19 2428.7
-552.28 -1367.86 2477.0
-535.49 -1341.86 2429.9
-509.14 -1338.85 2424.5
-501.45 -1335.11 2417.7
-489.55 -1319.94 2390.2
-479.54 -1309.51 2371.3
-485.97 -1344.30 2434.3
-495.48 -1388.64 2514.6
-490.48 -1392.98 2522.5
-484.29 -1393.97 2524.3
-465.83 -1359.20 2461.3
-453.97 -1342.99 2432.0
-468.19 -1404.56 2543.5
-449.13 -1386.45 2510.7
-426.61 -1336.28 2419.8
-423.03 -1344.86 2435.4
-414.04 -1336.23 2419.7
-401.92 -1317.06 2385.0
-397.88 -1324.19 2397.9
-400.99 -1355.72 2455.0
-399.34 -1371.94 2484.4
-392.61 -1370.93 2482.6
-387.65 -1376.14 2492.0
-368.96 -1332.00 2412.1
-356.81 -1310.34 2372.9
-363.72 -1359.15 2461.2
-362.86 -1380.16 2499.3
-348.92 -1351.28 2447.0
-346.08 -1365.09 2472.0
-344.18 -1383.22 2504.8
-322.66 -1321.66 2393.3
-309.51 -1318.50 2387.6
-308.37 -1340.45 2427.4
-307.89 -1366.26 2474.1
-293.17 -1328.61 2405.9
-277.37 -1312.88 2377.5
-272.96 -1321.36 2392.8
-267.10 -1323.10 2395.9
-275.18 -1395.57 2527.2
-245.09 -1410.95 2555.0
-230.53 -1363.99 2470.0
-230.27 -1401.35 2537.7
-218.16 -1408.10 2549.9
-206.51 -1374.59 2489.2
-199.04 -1367.57 2476.5
-187.82 -1333.55 2414.9
-182.71 -1341.95 2430.1
-145.21 -1405.94 2546.0
-133.72 -1424.11 2578.9
-119.55 -1414.73 2561.9
-109.30 -1369.45 2479.9
-103.46 -1377.30 2494.1
-99.01 -1405.91 2545.9
-60.14 -1423.35 2577.5
-46.83 -1424.92 2580.3
-39.15 -1389.68 2516.5
-33.18 -1413.40 2559.5
25.97 -1382.98 2504.4
31.74 -1352.02 2448.3
39.08 -1387.26 2512.1
72.38 -1401.46 2537.8
113.11 -1338.42 2423.7
118.47 -1328.15 2405.1
129.82 -1382.58 2503.7
137.82 -1397.89 2531.4
146.06 -1414.15 2560.8
150.03 -1389.37 2516.0
152.29 -1351.55 2447.5
162.75 -1386.61 2511.0
171.42 -1404.29 2543.0
176.33 -1391.07 2519.0
183.47 -1395.69 2527.4
193.35 -1420.09 2571.6
238.48 -1372.89 2486.1
240.76 -1349.51 2443.8
252.25 -1377.65 2494.7
248.17 -1321.53 2393.1
273.42 -1354.37 2452.6
284.19 -1375.71 2491.2
288.44 -1365.30 2472.4
289.67 -1312.75 2377.2
317.20 -1407.58 2548.9
323.95 -1408.20 2550.1
319.20 -1359.81 2462.4
319.18 -1333.05 2414.0
327.23 -1340.38 2427.3
335.11 -1346.75 2438.8
334.16 -1318.07 2386.8
340.25 -1317.71 2386.2
345.21 -1313.02 2377.7
382.74 -1336.46 2420.1
389.87 -1339.39 2425.5
405.13 -1327.58 2404.1
423.38 -1366.35 2474.3
431.45 -1371.62 2483.8
436.83 -1368.29 2477.8
455.30 -1365.90 2473.5
462.19 -1367.32 2476.0
472.19 -1341.03 2428.4
475.42 -1332.43 2412.8
515.47 -1355.49 2454.6
528.02 -1371.58 2483.7
521.29 -1337.76 2422.5
545.68 -1335.98 2419.3
568.95 -1377.11 2493.8
562.49 -1346.18 2437.8
595.00 -1320.16 2390.6
635.31 -1326.69 2402.5
672.05 -1325.44 2400.2
822.74 -1337.74 2422.5
838.26 -1352.65 2449.5
830.50 -1330.05 2408.5
856.30 -1361.13 2464.8
873.86 -1378.75 2496.7
842.61 -1319.67 2389.8
912.36 -1349.54 2443.8
905.27 -1329.80 2408.1
926.43 -1324.35 2398.2
994.74 -1341.00 2428.4
1020.33 -1366.86 2475.2
1014.88 -1334.38 2416.4
1028.03 -1343.37 2432.7
1019.97 -1324.71 2398.9
1043.56 -1339.02 2424.8
1096.90 -1399.04 2533.5
1073.78 -1361.40 2465.3
1082.52 -1332.81 2413.5
1110.34 -1359.21 2461.3
1130.99 -1376.57 2492.8
1177.25 -1355.43 2454.5
1195.10 -1368.58 2478.3
1229.88 -1343.41 2432.7
1226.21 -1332.56 2413.1
1237.03 -1330.75 2409.8
1247.99 -1335.79 2418.9
1249.88 -1331.13 2410.5
1315.27 -1340.44 2427.4
-1341.64 -1311.00 2363.0
-1284.20 -1302.46 2347.6
-1312.77 -1337.77 2411.2
-1319.23 -1350.79 2434.7
-1234.96 -1301.88 2346.5
-1242.54 -1356.65 2445.2
-1195.19 -1311.65 2364.1
-1178.55 -1313.60 2367.6
-1164.87 -1325.97 2389.9
-1131.29 -1308.62 2358.7
-1155.72 -1344.16 2422.7
-1118.18 -1307.60 2356.8
-1164.29 -1376.57 2481.1
-1167.92 -1396.28 2516.7
-1136.49 -1366.34 2462.7
-1088.17 -1315.63 2371.3
-1053.38 -1303.02 2348.6
-1065.53 -1325.72 2389.5
-1107.50 -1385.99 2498.1
-1106.90 -1393.39 2511.4
-1077.96 -1365.00 2460.3
-1052.46 -1340.64 2416.4
-1010.07 -1310.03 2361.2
-1018.63 -1329.19 2395.7
-1018.02 -1336.54 2409.0
-1033.90 -1365.76 2461.7
-1058.78 -1407.32 2536.6
-1040.70 -1391.93 2508.8
-1011.54 -1361.45 2453.9
-984.66 -1333.66 2403.8
-965.72 -1333.31 2403.2
-984.56 -1368.15 2466.0
-987.37 -1381.03 2489.2
-999.53 -1407.23 2536.4
-984.90 -1395.82 2515.8
-955.87 -1363.71 2458.0
-964.56 -1385.34 2496.9
-977.51 -1413.42 2547.6
-941.85 -1371.12 2471.3
-943.30 -1382.65 2492.1
-950.59 -1402.93 2528.7
-913.63 -1357.76 2447.2
-901.72 -1349.43 2432.2
-901.53 -1358.64 2448.8
-886.03 -1344.75 2423.8
-890.60 -1361.35 2453.7
-885.72 -1363.63 2457.8
-850.66 -1319.14 2377.6
-854.53 -1334.81 2405.9
-847.36 -1333.35 2403.2
-809.75 -1302.90 2348.4
-813.91 -1319.52 2378.3
-836.14 -1365.92 2461.9
-818.97 -1348.14 2429.9
-802.08 -1351.54 2436.0
-806.41 -1369.61 2468.6
-738.60 -1306.28 2354.4
-745.81 -1364.12 2458.7
-742.64 -1370.05 2469.4
-727.32 -1353.44 2439.4
-703.12 -1319.90 2379.0
-672.42 -1320.16 2379.5
-684.91 -1357.14 2446.1
-669.26 -1338.52 2412.5
-659.37 -1331.19 2399.3
-648.86 -1322.43 2383.6
-630.78 -1310.55 2362.1
-638.26 -1339.09 2413.6
-631.64 -1338.33 2412.2
-626.80 -1341.36 2417.7
-605.51 -1308.87 2359.1
-601.58 -1327.19 2392.1
-600.97 -1339.67 2414.6
-582.57 -1312.31 2365.3
-573.93 -1335.02 2406.2
-577.65 -1358.43 2448.4
-554.57 -1318.63 2376.7
-545.88 -1312.56 2365.8
-546.63 -1329.31 2395.9
-544.91 -1340.35 2415.9
-541.56 -1347.60 2428.9
-541.54 -1363.41 2457.4
-530.53 -1351.59 2436.1
-510.56 -1316.39 2372.7
-513.57 -1340.30 2415.8
-522.15 -1379.50 2486.4
-513.41 -1373.37 2475.4
-492.03 -1332.84 2402.3
-477.02 -1325.75 2389.5
-486.29 -1369.29 2468.0
-487.78 -1391.81 2508.6
-488.41 -1412.42 2545.7
-467.78 -1371.30 2471.6
-453.97 -1349.29 2432.0
-463.08 -1395.76 2515.7
-462.83 -1414.94 2550.3
-445.56 -1381.88 2490.7
-429.81 -1352.62 2438.0
-424.23 -1355.00 2442.3
-412.86 -1338.66 2412.8
-401.63 -1322.30 2383.3
-398.60 -1332.81 2402.3
-395.75 -1344.29 2422.9
-388.75 -1341.83 2418.5
-385.34 -1351.86 2436.6
-381.97 -1362.36 2455.5
-368.16 -1335.36 2406.9
-360.33 -1329.50 2396.3
-366.40 -1375.60 2479.4
-364.36 -1392.36 2509.6
-349.66 -1360.49 2452.2
-345.10 -1367.61 2465.0
-348.34 -1406.52 2535.1
-332.03 -1366.42 2462.8
-328.14 -1376.90 2481.7
-318.08 -1389.17 2503.8
-296.63 -1322.47 2383.6
-294.76 -1342.08 2419.0
-291.35 -1355.43 2443.0
-283.06 -1346.09 2426.2
-270.48 -1315.50 2371.1
-264.36 -1346.99 2427.8
-256.11 -1405.33 2533.0
-241.27 -1358.72 2449.0
-230.53 -1333.36 2403.2
-224.75 -1336.02 2408.0
-221.71 -1355.61 2443.4
-217.26 -1367.46 2464.7
-216.20 -1402.04 2527.0
-196.51 -1401.75 2526.5
-191.95 -1416.48 2553.1
-118.61 -1410.12 2541.6
-110.37 -1389.40 2504.3
-106.43 -1423.46 2565.6
-25.66 -1372.91 2474.5
-19.74 -1408.35 2538.4
0.00 -1397.71 2519.2
6.52 -1395.77 2515.7
13.10 -1401.58 2526.2
32.88 -1407.32 2536.6
122.78 -1382.84 2492.4
127.91 -1368.65 2466.9
139.90 -1425.69 2569.7
178.40 -1413.99 2548.6
182.13 -1392.00 2508.9
189.13 -1395.67 2515.6
197.66 -1409.98 2541.4
204.92 -1414.60 2549.7
244.83 -1416.03 2552.2
249.08 -1402.70 2528.2
261.00 -1396.35 2516.8
254.98 -1330.85 2398.7
268.63 -1368.72 2467.0
276.81 -1377.60 2483.0
279.71 -1360.40 2452.0
290.16 -1379.88 2487.1
287.83 -1339.02 2413.5
295.55 -1317.65 2374.9
306.16 -1337.09 2410.0
316.54 -1328.22 2394.0
336.71 -1385.69 2497.6
337.01 -1360.76 2452.6
338.15 -1315.72 2371.5
346.09 -1322.57 2383.8
375.89 -1318.70 2376.8
398.86 -1313.18 2366.9
412.37 -1317.11 2374.0
423.10 -1331.53 2399.9
423.61 -1313.81 2368.0
439.63 -1344.02 2422.5
460.85 -1389.05 2503.6
457.03 -1358.39 2448.4
464.32 -1324.85 2387.9
502.46 -1327.49 2392.7
503.52 -1314.07 2368.5
550.15 -1337.87 2411.4
550.82 -1324.45 2387.2
682.56 -1315.93 2371.8
689.08 -1316.64 2373.1
804.83 -1324.88 2388.0
836.43 -1366.38 2462.8
836.27 -1355.77 2443.6
821.58 -1321.95 2382.7
838.00 -1338.29 2412.1
865.96 -1372.70 2474.2
845.59 -1330.57 2398.2
844.45 -1319.06 2377.5
873.65 -1354.79 2441.9
878.51 -1352.52 2437.8
873.06 -1334.53 2405.4
917.17 -1353.62 2439.8
923.91 -1326.96 2391.7
995.12 -1347.82 2429.3
1029.18 -1385.18 2496.7
1009.42 -1333.43 2403.4
1007.62 -1322.89 2384.4
1058.76 -1364.90 2460.1
1078.15 -1381.58 2490.2
1120.66 -1378.28 2484.2
1132.87 -1385.33 2496.9
1086.57 -1321.17 2381.3
1103.24 -1318.96 2377.3
1138.75 -1353.85 2440.2
1144.93 -1353.67 2439.9
1148.05 -1349.90 2433.1
1172.28 -1356.05 2444.1
1175.72 -1352.71 2438.1
1294.39 -1325.36 2388.8
-1287.79 -1312.20 2354.1
-1245.03 -1299.42 2331.2
-1213.83 -1298.38 2329.3
-1216.66 -1307.91 2346.4
-1192.91 -1301.90 2335.6
-1251.14 -1372.42 2462.1
-1208.23 -1332.15 2389.9
-1183.82 -1318.76 2365.9
-1179.06 -1320.30 2368.6
-1166.92 -1334.50 2394.1
-1151.52 -1323.94 2375.2
-1126.75 -1309.47 2349.2
-1150.41 -1344.23 2411.6
-1111.77 -1306.18 2343.3
-1119.56 -1337.25 2399.1
-1115.35 -1339.66 2403.4
-1112.98 -1344.33 2411.8
-1089.74 -1323.69 2374.7
-1045.84 -1322.67 2372.9
-1084.08 -1379.15 2474.2
-1058.21 -1354.26 2429.6
-1018.74 -1311.55 2353.0
-1012.43 -1327.26 2381.1
-1021.88 -1347.88 2418.1
-1011.88 -1342.93 2409.2
-1007.40 -1345.29 2413.5
-1009.71 -1356.79 2434.1
-1001.75 -1354.57 2430.1
-999.54 -1360.13 2440.1
-971.14 -1329.91 2385.9
-947.22 -1313.88 2357.1
-958.24 -1337.80 2400.0
-950.39 -1335.52 2395.9
-969.25 -1370.98 2459.6
-964.84 -1373.78 2464.6
-971.98 -1393.17 2499.4
-941.11 -1385.88 2486.3
-888.50 -1317.43 2363.5
-872.17 -1311.31 2352.5
-885.32 -1340.45 2404.8
-880.58 -1342.73 2408.9
-897.87 -1378.88 2473.7
-909.76 -1407.18 2524.5
-868.60 -1353.25 2427.8
-863.75 -1355.51 2431.8
-889.78 -1406.63 2523.5
-883.21 -1406.60 2523.5
-854.86 -1371.61 2460.7
-829.12 -1340.30 2404.5
-804.78 -1310.82 2351.6
-798.61 -1310.70 2351.4
-811.36 -1341.86 2407.3
-798.32 -1330.53 2387.0
-783.98 -1316.84 2362.4
-802.93 -1359.28 2438.6
-817.93 -1395.68 2503.9
-780.60 -1342.64 2408.7
-749.20 -1331.23 2388.3
-736.36 -1319.31 2366.9
-724.39 -1308.78 2348.0
-730.33 -1330.69 2387.3
-743.50 -1366.27 2451.1
-728.41 -1350.08 2422.1
-702.88 -1314.07 2357.5
-694.90 -1310.55 2351.2
-685.21 -1303.72 2338.9
-665.01 -1311.72 2353.2
-678.50 -1350.71 2423.2
-666.21 -1338.64 2401.6
-647.02 -1312.35 2354.4
-633.99 -1336.35 2397.4
-638.12 -1358.37 2436.9
-631.00 -1356.66 2433.9
-608.81 -1322.16 2372.0
-596.22 -1321.53 2370.8
-608.41 -1362.59 2444.5
-603.41 -1365.61 2449.9
-584.43 -1336.72 2398.1
-578.68 -1337.81 2400.1
-571.09 -1334.60 2394.3
-533.74 -1304.02 2339.4
-541.43 -1338.03 2400.4
-538.69 -1346.72 2416.0
-538.51 -1362.11 2443.7
-534.64 -1368.42 2455.0
-522.40 -1353.20 2427.7
-509.38 -1335.56 2396.0
-500.66 -1328.92 2384.1
-497.53 -1337.11 2398.8
-481.47 -1310.32 2350.7
-469.83 -1329.11 2384.5
-471.19 -1350.73 2423.2
-481.60 -1399.25 2510.3
-471.19 -1387.76 2489.7
-443.02 -1322.91 2373.3
-439.56 -1331.07 2388.0
-449.02 -1379.15 2474.2
-439.21 -1368.56 2455.2
-416.71 -1317.54 2363.7
-405.91 -1322.28 2372.2
-405.86 -1342.46 2408.4
-393.29 -1321.22 2370.3
-378.18 -1311.45 2352.8
-380.27 -1340.31 2404.5
-376.58 -1349.40 2420.9
-361.14 -1316.02 2361.0
-349.87 -1319.69 2367.6
-352.64 -1353.88 2428.9
-342.73 -1339.76 2403.6
-328.58 -1308.23 2347.0
-322.70 -1309.07 2348.5
-328.63 -1358.74 2437.6
-299.98 -1343.66 2410.6
-291.90 -1335.27 2395.5
-291.14 -1360.77 2441.2
-286.09 -1366.89 2452.2
-275.83 -1347.82 2418.0
-268.95 -1344.73 2412.5
-259.34 -1327.57 2381.7
-256.45 -1344.82 2412.6
-239.03 -1352.42 2426.3
-219.96 -1313.62 2356.7
-222.50 -1366.76 2452.0
-214.72 -1357.78 2435.9
-210.53 -1371.61 2460.7
-197.11 -1412.59 2534.2
-190.30 -1410.86 2531.1
-84.37 -1395.28 2503.2
-76.31 -1367.14 2452.7
-70.77 -1383.28 2481.6
-25.81 -1387.06 2488.4
-19.76 -1416.30 2540.9
-6.43 -1382.24 2479.8
0.00 -1388.09 2490.3
13.22 -1421.18 2549.6
19.70 -1411.92 2533.0
84.75 -1401.60 2514.5
88.38 -1357.22 2434.9
98.15 -1406.75 2523.7
125.91 -1424.75 2556.0
188.60 -1398.22 2508.4
231.87 -1347.34 2417.2
245.12 -1386.86 2488.1
268.47 -1407.84 2525.7
278.09 -1423.54 2553.9
280.58 -1402.88 2516.8
274.45 -1341.04 2405.9
275.96 -1318.46 2365.3
327.81 -1355.36 2431.5
331.04 -1342.91 2409.2
345.97 -1328.28 2383.0
365.64 -1332.43 2390.4
369.31 -1323.35 2374.1
433.68 -1332.02 2389.7
454.01 -1374.82 2466.4
456.38 -1362.79 2444.9
450.64 -1327.23 2381.1
509.01 -1334.60 2394.3
534.77 -1385.26 2485.2
517.82 -1325.37 2377.7
557.58 -1362.28 2444.0
563.87 -1362.16 2443.7
596.22 -1321.53 2370.8
605.98 -1329.45 2385.1
618.00 -1342.12 2407.8
618.64 -1330.07 2386.2
623.63 -1327.52 2381.6
631.96 -1332.08 2389.8
635.57 -1326.68 2380.1
641.42 -1326.01 2378.9
653.55 -1325.60 2378.2
665.74 -1337.70 2399.9
695.02 -1346.21 2415.1
707.05 -1357.29 2435.0
697.11 -1326.36 2379.5
838.86 -1316.45 2361.7
867.40 -1351.39 2424.4
872.52 -1349.59 2421.2
885.18 -1359.39 2438.8
892.75 -1361.28 2442.2
881.95 -1335.35 2395.7
889.73 -1337.71 2399.9
906.52 -1353.49 2428.2
922.50 -1367.85 2453.9
940.17 -1384.49 2483.8
953.23 -1394.18 2501.2
933.96 -1356.76 2434.1
942.53 -1324.48 2376.1
967.46 -1350.67 2423.1
957.82 -1328.59 2383.5
999.83 -1326.93 2380.5
1039.20 -1354.10 2429.3
1058.44 -1370.87 2459.4
1035.72 -1333.41 2392.2
1045.48 -1322.22 2372.1
1136.17 -1357.09 2434.6
1157.88 -1375.39 2467.5
1146.21 -1354.04 2429.2
1166.86 -1348.79 2419.8
1189.73 -1367.87 2454.0
1169.66 -1337.64 2399.8
-1385.43 -1318.29 2354.1
-1378.32 -1317.33 2352.4
-1284.82 -1302.92 2326.6
-1311.92 -1336.67 2386.9
-1321.96 -1353.28 2416.6
-1282.09 -1318.72 2354.9
-1269.66 -1331.30 2377.3
-1276.79 -1345.30 2402.3
-1266.21 -1340.70 2394.1
-1227.29 -1305.88 2331.9
-1220.56 -1331.52 2377.7
-1186.92 -1301.40 2323.9
-1171.79 -1304.67 2329.8
-1179.92 -1320.53 2358.1
-1168.01 -1314.01 2346.4
-1160.74 -1333.61 2381.5
-1172.64 -1354.50 2418.7
-1172.36 -1361.45 2431.2
-1149.63 -1342.27 2396.9
-1143.95 -1342.90 2398.0
-1100.78 -1299.28 2320.1
-1086.53 -1318.48 2354.4
-1106.91 -1350.81 2412.2
-1107.44 -1359.13 2427.0
-1071.82 -1322.93 2362.4
-1063.39 -1327.70 2370.9
-1077.63 -1353.31 2416.6
-1035.03 -1307.40 2334.6
-1050.57 -1334.85 2383.7
-1061.97 -1357.31 2423.8
-1011.36 -1300.32 2322.0
-1004.14 -1322.53 2361.7
-1046.84 -1387.22 2477.2
-1034.14 -1387.41 2477.5
-1003.62 -1354.88 2419.4
-977.08 -1327.35 2370.3
-955.14 -1305.76 2331.7
-979.90 -1348.14 2407.4
-994.65 -1377.20 2459.3
-957.21 -1333.91 2382.0
-942.61 -1339.49 2392.0
-932.85 -1334.41 2382.9
-934.71 -1345.98 2403.5
-937.10 -1358.48 2425.9
-913.67 -1333.46 2381.2
-934.93 -1373.77 2453.2
-930.45 -1376.56 2458.1
-874.21 -1302.27 2325.5
-878.07 -1326.32 2368.4
-909.82 -1383.95 2471.3
-889.72 -1362.98 2433.9
-891.54 -1375.52 2456.3
-899.84 -1398.32 2497.0
-857.59 -1342.32 2397.0
-827.36 -1304.44 2329.4
-832.13 -1321.62 2360.0
-858.96 -1374.33 2454.2
-861.83 -1389.22 2480.8
-832.31 -1351.73 2413.8
-807.11 -1320.73 2358.4
-793.54 -1308.43 2336.5
-799.81 -1328.92 2373.1
-799.75 -1339.11 2391.3
-798.48 -1347.44 2406.1
-789.68 -1343.08 2398.4
-772.42 -1324.15 2364.6
-766.75 -1324.94 2366.0
-748.91 -1304.55 2329.6
-743.42 -1327.09 2369.8
-737.17 -1326.91 2369.5
-722.87 -1312.10 2343.0
-725.20 -1327.48 2370.5
-725.34 -1339.09 2391.2
-693.09 -1301.80 2324.6
-704.17 -1334.21 2382.5
-693.91 -1326.42 2368.6
-676.85 -1305.35 2331.0
-672.14 -1307.95 2335.6
-670.30 -1316.23 2350.4
-630.44 -1309.38 2338.2
-623.33 -1307.18 2334.3
-622.31 -1317.83 2353.3
-625.20 -1337.06 2387.6
-617.99 -1334.85 2383.7
-607.08 -1324.53 2365.2
-604.05 -1331.37 2377.4
-594.37 -1351.41 2413.2
-603.36 -1386.44 2475.8
-597.21 -1387.08 2476.9
-589.63 -1384.36 2472.1
-562.72 -1335.69 2385.2
-548.99 -1347.51 2406.3
-540.28 -1341.38 2395.3
-522.08 -1311.26 2341.5
-519.05 -1319.01 2355.4
-512.60 -1318.12 2353.8
-501.91 -1306.18 2332.5
-490.76 -1308.68 2336.9
-494.51 -1335.17 2384.2
-487.64 -1333.29 2380.9
-473.66 -1311.67 2342.3
-449.51 -1330.04 2375.1
-439.17 -1317.50 2352.7
-426.56 -1335.31 2384.5
-426.90 -1356.05 2421.5
-408.33 -1316.41 2350.7
-401.93 -1315.40 2348.9
-401.50 -1334.20 2382.5
-389.00 -1312.87 2344.4
-376.80 -1312.73 2344.2
-377.54 -1336.86 2387.2
-372.81 -1342.10 2396.6
-362.60 -1327.49 2370.5
-354.35 -1319.65 2356.5
-344.89 -1306.94 2333.8
-337.42 -1325.14 2366.3
-332.10 -1328.41 2372.2
-325.09 -1324.89 2365.9
-330.25 -1371.82 2449.7
-331.67 -1404.70 2508.4
-322.55 -1393.41 2488.2
-309.79 -1365.59 2438.6
-293.82 -1322.21 2361.1
-289.46 -1330.30 2375.5
-293.82 -1379.70 2463.7
-292.97 -1406.26 2511.2
-286.33 -1405.61 2510.0
-272.72 -1369.93 2446.3
-257.07 -1322.07 2360.8
-254.97 -1343.27 2398.7
-233.62 -1363.81 2435.4
-229.13 -1374.78 2455.0
-222.23 -1411.80 2521.1
-183.74 -1368.57 2443.9
-178.25 -1375.11 2455.5
-177.46 -1419.68 2535.1
-145.08 -1424.47 2543.7
-75.81 -1364.66 2436.9
-70.27 -1379.88 2464.1
-13.02 -1405.70 2510.2
-6.59 -1422.81 2540.7
32.96 -1423.70 2542.3
65.36 -1411.70 2520.9
78.85 -1419.36 2534.6
83.18 -1382.15 2468.1
91.45 -1410.87 2519.4
123.97 -1409.30 2516.6
184.92 -1377.34 2459.5
183.75 -1323.03 2362.5
230.86 -1424.71 2544.1
231.00 -1385.98 2475.0
231.28 -1350.18 2411.0
250.50 -1423.91 2542.7
259.17 -1399.51 2499.1
262.45 -1382.68 2469.1
277.12 -1425.19 2545.0
282.66 -1387.62 2477.9
281.53 -1351.33 2413.1
282.75 -1327.70 2370.9
285.23 -1310.86 2340.8
293.07 -1318.81 2355.0
305.38 -1346.16 2403.9
313.11 -1352.63 2415.4
315.74 -1337.23 2387.9
327.92 -1362.12 2432.4
334.73 -1364.18 2436.0
330.53 -1322.11 2360.9
360.33 -1341.93 2396.3
372.52 -1363.81 2435.4
369.58 -1330.48 2375.9
426.49 -1316.03 2350.0
438.93 -1335.34 2384.5
455.99 -1331.00 2376.8
467.94 -1312.66 2344.0
477.83 -1323.22 2362.9
516.13 -1359.56 2427.8
535.68 -1394.06 2489.4
512.42 -1317.64 2352.9
617.35 -1346.94 2405.3
637.18 -1376.31 2457.7
626.31 -1339.44 2391.9
645.64 -1315.65 2349.4
683.58 -1330.22 2375.4
685.44 -1321.93 2360.6
693.42 -1325.47 2366.9
700.92 -1328.06 2371.5
705.42 -1324.97 2366.0
709.39 -1320.93 2358.8
717.41 -1324.44 2365.1
730.61 -1337.39 2388.2
734.57 -1333.33 2380.9
734.29 -1321.73 2360.2
811.12 -1327.29 2370.2
823.09 -1336.75 2387.1
865.95 -1345.65 2402.9
907.24 -1399.74 2499.5
886.99 -1358.79 2426.4
887.30 -1321.77 2360.3
928.57 -1373.77 2453.2
942.50 -1384.90 2473.0
924.78 -1349.67 2410.1
981.78 -1317.17 2352.1
989.22 -1318.96 2355.3
1000.66 -1317.94 2353.5
1038.89 -1360.00 2428.6
1035.62 -1347.55 2406.3
1052.39 -1361.18 2430.7
1068.56 -1373.86 2453.3
1063.75 -1359.59 2427.8
1059.91 -1346.70 2404.8
1092.90 -1318.81 2355.0
1127.55 -1353.06 2416.2
1135.95 -1355.61 2420.7
1119.24 -1328.33 2372.0
1169.92 -1351.35 2413.1
1186.18 -1362.84 2433.6
1171.07 -1338.37 2389.9
1170.77 -1330.99 2376.8
1175.97 -1329.89 2374.8
1254.29 -1354.64 2419.0
1242.11 -1334.81 2383.6
-1366.60 -1300.66 2311.9
-1362.77 -1302.73 2315.6
-1372.11 -1317.46 2341.8
-1332.23 -1308.11 2325.2
-1316.27 -1298.32 2307.7
-1299.55 -1311.63 2331.4
-1296.83 -1315.01 2337.4
-1306.22 -1330.75 2365.4
-1307.28 -1338.11 2378.5
-1285.91 -1322.47 2350.7
-1276.65 -1319.20 2344.9
-1289.61 -1358.47 2414.7
-1292.44 -1368.10 2431.8
-1284.31 -1366.16 2428.3
-1250.77 -1337.02 2376.5
-1208.00 -1323.92 2353.2
-1158.84 -1302.94 2316.0
-1125.24 -1298.82 2308.6
-1125.23 -1305.74 2320.9
-1153.82 -1346.13 2392.7
-1159.34 -1359.88 2417.2
-1147.48 -1353.27 2405.4
-1098.97 -1303.15 2316.3
-1106.86 -1327.01 2358.7
-1115.56 -1344.87 2390.5
-1097.11 -1330.02 2364.1
-1120.20 -1365.63 2427.4
-1149.31 -1409.04 2504.5
-1128.55 -1391.45 2473.3
-1074.10 -1331.89 2367.4
-1050.13 -1309.64 2327.9
-1085.67 -1361.79 2420.6
-1116.45 -1408.54 2503.7
-1088.81 -1381.71 2456.0
-1065.70 -1360.33 2418.0
-1037.75 -1332.50 2368.5
-1021.74 -1319.75 2345.8
-1033.01 -1342.30 2385.9
-1003.01 -1311.16 2330.6
-979.46 -1303.95 2317.7
-1019.88 -1366.14 2428.3
-1003.73 -1352.85 2404.7
-978.16 -1326.62 2358.1
-957.53 -1306.81 2322.8
-968.07 -1346.61 2393.6
-953.62 -1335.07 2373.1
-928.42 -1308.22 2325.3
-942.64 -1336.94 2376.4
-970.26 -1385.17 2462.1
-960.99 -1381.03 2454.8
-927.04 -1341.11 2383.8
-882.84 -1312.17 2332.4
-886.10 -1326.10 2357.1
-878.72 -1324.18 2353.7
-916.24 -1390.38 2471.4
-924.49 -1412.78 2511.2
-882.46 -1358.11 2414.0
-857.47 -1329.07 2362.4
-837.81 -1307.95 2324.9
-831.43 -1307.39 2323.9
-834.21 -1321.34 2348.7
-826.88 -1319.37 2345.2
-842.04 -1353.50 2405.8
-857.19 -1388.14 2467.4
-838.95 -1368.82 2433.0
-812.30 -1335.37 2373.6
-799.54 -1324.44 2354.2
-817.88 -1365.24 2426.7
-830.28 -1396.66 2482.6
-799.89 -1356.06 2410.4
-762.67 -1303.15 2316.3
-755.75 -1301.57 2313.5
-757.81 -1315.55 2338.4
-744.36 -1302.64 2315.4
-721.09 -1314.92 2337.3
-711.82 -1309.03 2326.8
-701.84 -1301.71 2313.8
-695.46 -1323.81 2353.0
-695.67 -1335.93 2374.6
-678.84 -1315.26 2337.9
-674.85 -1319.29 2345.0
-683.11 -1347.59 2395.3
-660.28 -1314.50 2336.5
-638.45 -1307.01 2323.2
-648.67 -1340.59 2382.9
-647.85 -1351.77 2402.8
-640.59 -1349.58 2398.9
-638.50 -1358.38 2414.5
-638.34 -1371.47 2437.8
-616.90 -1338.66 2379.5
-608.60 -1347.61 2395.4
-606.96 -1357.83 2413.5
-583.39 -1318.70 2344.0
-594.37 -1357.67 2413.2
-599.81 -1384.67 2461.2
-588.97 -1374.27 2442.7
-579.65 -1367.21 2430.2
-551.25 -1314.51 2336.5
-535.07 -1304.62 2318.9
-546.26 -1347.02 2394.3
-532.57 -1328.36 2361.1
-504.41 -1303.06 2316.2
-500.27 -1307.93 2324.8
-487.93 -1323.51 2352.5
-477.27 -1310.99 2330.3
-477.66 -1328.89 2362.1
-469.32 -1322.63 2351.0
-426.71 -1341.98 2385.4
-435.86 -1390.90 2472.3
-426.15 -1380.22 2453.3
-408.87 -1344.31 2389.5
-398.30 -1329.71 2363.5
-390.15 -1322.86 2351.4
-382.91 -1318.91 2344.3
-377.09 -1319.81 2345.9
-372.49 -1325.07 2355.3
-380.33 -1375.52 2445.0
-381.90 -1404.61 2496.7
-372.42 -1393.35 2476.7
-361.89 -1377.70 2448.8
-347.85 -1347.94 2395.9
-341.61 -1347.83 2395.7
-327.87 -1317.53 2341.9
-313.21 -1307.03 2323.2
-308.87 -1314.19 2336.0
-295.38 -1363.76 2424.1
-295.57 -1394.32 2478.4
-290.53 -1400.98 2490.2
-288.19 -1421.30 2526.3
-277.93 -1402.58 2493.1
-262.17 -1354.56 2407.7
-260.41 -1378.28 2449.9
-262.39 -1423.49 2530.2
-232.45 -1401.13 2490.5
-226.50 -1404.31 2496.1
-219.38 -1400.16 2488.8
-181.53 -1406.86 2500.7
-172.09 -1383.08 2458.4
-169.37 -1413.61 2512.7
-156.60 -1415.93 2516.8
-144.44 -1362.73 2422.2
-136.34 -1344.77 2390.3
-131.05 -1354.22 2407.1
-130.65 -1417.55 2519.7
-72.16 -1423.46 2530.2
38.27 -1384.05 2460.1
43.90 -1360.97 2419.1
52.49 -1423.66 2530.5
64.22 -1393.63 2477.2
71.46 -1409.73 2505.8
111.05 -1417.46 2519.5
137.53 -1356.52 2411.2
148.17 -1397.98 2484.9
159.50 -1384.43 2460.8
162.22 -1353.90 2406.5
188.97 -1414.00 2513.4
182.47 -1319.86 2346.0
199.98 -1399.87 2488.3
227.61 -1411.16 2508.3
232.04 -1398.68 2486.1
237.02 -1390.12 2470.9
250.96 -1361.47 2420.0
252.48 -1336.29 2375.2
266.05 -1374.57 2443.3
272.61 -1375.74 2445.4
287.99 -1420.33 2524.6
295.36 -1393.35 2476.7
287.56 -1327.68 2359.9
293.83 -1328.34 2361.1
304.28 -1347.51 2395.2
318.60 -1382.74 2457.8
327.87 -1395.05 2479.7
324.06 -1352.32 2403.7
336.80 -1328.85 2362.0
356.95 -1335.50 2373.8
367.76 -1352.60 2404.2
366.89 -1326.93 2358.6
378.48 -1324.66 2354.6
395.73 -1363.08 2422.9
394.59 -1337.90 2378.1
423.06 -1311.49 2331.2
432.76 -1322.65 2351.0
443.65 -1318.80 2344.1
460.12 -1349.27 2398.3
459.65 -1329.92 2363.9
460.86 -1315.89 2339.0
479.43 -1351.13 2401.6
491.20 -1366.55 2429.0
491.68 -1350.57 2400.6
497.90 -1317.63 2342.1
509.85 -1332.99 2369.4
513.92 -1327.63 2359.8
526.05 -1342.96 2387.1
535.64 -1351.54 2402.4
617.56 -1340.10 2382.0
617.64 -1327.02 2358.8
624.95 -1316.63 2340.3
729.08 -1340.77 2383.2
759.78 -1385.47 2462.7
730.66 -1321.27 2348.5
814.01 -1338.18 2378.6
825.42 -1346.75 2393.8
827.92 -1340.74 2383.1
829.20 -1332.86 2369.1
861.49 -1354.66 2407.9
862.42 -1327.27 2359.2
905.94 -1337.34 2377.1
906.10 -1328.53 2361.4
971.24 -1342.42 2386.1
987.83 -1356.70 2411.5
999.26 -1338.51 2379.2
1014.02 -1349.96 2399.5
1009.77 -1336.09 2374.9
1010.98 -1329.59 2363.3
1008.98 -1318.97 2344.4
1026.31 -1333.58 2370.4
1023.87 -1322.50 2350.7
1033.78 -1319.59 2345.6
1055.30 -1339.18 2380.4
1083.66 -1343.74 2388.5
1073.49 -1323.57 2352.6
1162.78 -1342.14 2385.6
1175.87 -1350.07 2399.7
1185.86 -1354.37 2407.4
1203.01 -1366.77 2429.4
-1320.18 -1296.39 2293.8
-1320.33 -1302.41 2304.4
-1283.10 -1301.00 2301.9
-1283.92 -1307.91 2314.1
-1285.98 -1316.17 2328.7
-1278.48 -1314.66 2326.1
-1260.19 -1340.10 2371.1
-1304.05 -1393.55 2465.6
-1242.12 -1333.90 2360.1
-1187.37 -1300.74 2301.4
-1206.07 -1327.89 2349.5
-1170.41 -1315.21 2327.0
-1189.70 -1343.81 2377.6
-1157.08 -1313.77 2324.5
-1123.70 -1317.03 2330.3
-1119.33 -1319.00 2333.7
-1097.30 -1300.06 2300.2
-1125.42 -1340.66 2372.1
-1168.80 -1399.99 2477.0
-1135.69 -1367.84 2420.2
-1072.34 -1298.72 2297.9
-1066.47 -1298.83 2298.1
-1102.72 -1350.53 2389.5
-1128.17 -1389.50 2458.5
-1101.63 -1364.52 2414.3
-1052.50 -1311.11 2319.8
-1019.35 -1299.52 2299.3
-1060.73 -1360.23 2406.7
-1043.52 -1346.08 2381.7
-1036.00 -1344.33 2378.6
-1060.23 -1384.01 2448.8
-1046.24 -1373.98 2431.0
-1002.32 -1324.28 2343.1
-978.36 -1316.56 2329.4
-987.37 -1336.94 2365.5
-985.35 -1342.54 2375.4
-967.06 -1325.90 2346.0
-941.17 -1298.58 2297.6
-945.57 -1312.96 2323.1
-962.13 -1344.52 2378.9
-971.17 -1365.90 2416.7
-973.79 -1378.48 2439.0
-957.70 -1364.56 2414.4
-952.10 -1365.51 2416.0
-978.10 -1412.10 2498.5
-926.63 -1355.74 2398.7
-893.92 -1343.97 2377.9
-930.39 -1408.50 2492.1
-885.53 -1349.97 2388.5
-866.24 -1348.86 2386.6
-870.19 -1364.76 2414.7
-883.22 -1395.23 2468.6
-864.09 -1374.97 2432.8
-837.78 -1342.92 2376.1
-828.36 -1337.65 2366.7
-817.24 -1329.54 2352.4
-811.93 -1330.84 2354.7
-794.05 -1311.39 2320.3
-791.69 -1337.89 2367.2
-781.58 -1331.14 2355.2
-754.15 -1304.81 2308.6
-706.40 -1327.54 2348.9
-686.63 -1301.60 2303.0
-692.49 -1324.24 2343.0
