ply
format ascii 1.0
element vertex 2121
property float x
property float y
property float z
end_header
676.21 -72.92 2557.1
677.42 -70.97 2488.5
683.68 -70.95 2487.8
718.75 -72.53 2543.4
708.67 -70.87 2485.0
774.47 -71.59 2510.3
775.35 -71.07 2492.2
792.01 -72.00 2524.7
802.18 -72.33 2536.2
794.49 -71.05 2491.4
803.71 -71.30 2500.0
820.67 -72.22 2532.4
821.64 -71.73 2515.2
832.84 -72.14 2529.4
860.43 -72.81 2552.9
880.83 -73.96 2593.5
894.49 -73.98 2594.1
918.11 -74.26 2603.9
940.06 -72.82 2553.5
969.41 -72.05 2526.4
971.51 -71.72 2514.9
1005.14 -72.27 2534.0
1047.59 -73.87 2590.2
1031.87 -72.30 2535.1
1067.11 -73.36 2572.5
1095.10 -74.36 2607.4
1112.27 -74.15 2600.1
1094.25 -72.51 2542.6
1162.76 -74.36 2607.5
1133.21 -72.05 2526.6
1131.67 -71.54 2508.6
1133.35 -71.24 2498.0
1162.37 -72.65 2547.4
1164.07 -72.34 2536.7
1178.19 -72.00 2524.7
1276.04 -75.06 2632.0
1278.03 -72.84 2554.2
1279.36 -71.80 2517.7
1386.98 -75.16 2635.4
1337.02 -71.39 2503.4
1367.97 -72.34 2536.8
1383.53 -72.82 2553.3
1417.59 -73.55 2579.2
1443.98 -74.57 2614.9
1426.86 -73.34 2571.8
1508.51 -74.75 2621.0
1552.22 -73.92 2591.8
1589.11 -75.35 2642.0
1548.13 -73.09 2562.8
1599.70 -74.56 2614.5
1558.57 -72.34 2536.6
1579.61 -73.01 2560.0
1620.36 -74.27 2604.1
1599.79 -73.02 2560.4
1579.05 -71.78 2516.8
1586.78 -71.54 2508.4
1655.74 -74.34 2606.7
1634.75 -73.10 2563.2
1616.82 -72.00 2524.8
1623.08 -71.99 2524.4
1641.25 -72.51 2542.4
1692.66 -74.48 2611.5
1684.34 -73.82 2588.3
1694.44 -72.81 2553.0
1704.25 -72.38 2538.0
1700.95 -71.96 2523.4
1731.22 -72.96 2558.4
1768.90 -74.27 2604.2
1723.39 -72.08 2527.5
1787.82 -73.93 2592.4
1801.99 -73.69 2583.8
1800.63 -73.09 2562.8
1854.62 -75.00 2630.0
1812.96 -73.05 2561.5
1850.08 -73.20 2566.9
1894.30 -74.69 2618.8
1832.97 -72.01 2525.0
1858.89 -72.00 2524.6
1876.20 -72.41 2539.2
2024.01 -73.00 2559.6
2035.54 -73.17 2565.8
2053.32 -73.57 2579.8
2082.73 -74.14 2599.8
2072.34 -73.06 2562.0
2063.12 -72.51 2542.4
2056.99 -72.06 2526.8
-1955.79 -77.97 2506.2
-1942.54 -77.70 2497.5
-1936.66 -77.73 2498.3
-1821.22 -75.88 2439.1
-1865.49 -78.00 2507.1
-1809.50 -75.92 2440.4
-1827.26 -77.76 2499.3
-1835.98 -78.40 2520.2
-1837.58 -78.75 2531.4
-1819.21 -78.25 2515.0
-1773.42 -76.55 2460.5
-1627.98 -76.01 2443.3
-1604.24 -75.20 2417.1
-1622.36 -76.95 2473.4
-1635.72 -78.20 2513.6
-1533.81 -76.06 2444.7
-1517.07 -75.54 2428.0
-1562.70 -78.14 2511.5
-1479.73 -75.56 2428.7
-1448.31 -75.89 2439.4
-1473.63 -77.56 2493.0
-1436.47 -77.30 2484.6
-1398.29 -78.04 2508.6
-1385.07 -77.67 2496.5
-1350.58 -76.45 2457.3
-1385.98 -78.82 2533.6
-1377.57 -78.72 2530.2
-1330.11 -76.37 2454.8
-1296.70 -75.90 2439.8
-1316.06 -77.42 2488.3
-1298.90 -76.78 2468.0
-1260.67 -79.20 2545.9
-1204.36 -78.12 2511.0
-1132.00 -77.18 2480.8
-1117.50 -77.97 2506.0
-1087.76 -76.33 2453.6
-969.28 -78.06 2509.2
-933.89 -75.72 2433.9
-929.09 -75.84 2437.9
-920.74 -75.68 2432.5
-914.57 -76.21 2449.7
-931.57 -78.17 2512.7
-917.55 -77.54 2492.3
-859.20 -76.37 2454.9
-892.23 -79.90 2568.3
-870.32 -78.52 2524.0
-835.33 -75.94 2440.9
-795.95 -77.65 2496.0
-785.55 -77.27 2483.6
-700.58 -78.57 2525.5
-674.36 -76.34 2453.9
-682.36 -77.98 2506.6
-689.05 -79.51 2555.5
-677.19 -78.90 2536.0
-650.86 -76.57 2461.2
-637.01 -78.00 2507.2
-600.01 -77.42 2488.5
-559.38 -76.28 2451.8
-557.29 -76.87 2470.8
-533.22 -76.17 2448.5
-524.33 -78.65 2528.0
-519.64 -78.93 2537.1
-484.77 -77.56 2493.1
-478.16 -77.54 2492.4
-471.37 -79.67 2560.8
-467.26 -80.10 2574.7
-441.31 -77.88 2503.2
-403.13 -76.79 2468.1
-353.11 -78.47 2522.2
-313.15 -78.29 2516.4
-308.41 -78.74 2531.1
-285.82 -77.95 2505.5
-279.04 -79.73 2562.6
-264.23 -77.34 2485.8
-231.38 -77.13 2479.0
-223.65 -76.68 2464.7
-187.94 -77.77 2499.7
-102.74 -77.05 2476.7
-83.53 -77.11 2478.4
-77.21 -77.21 2481.6
-70.09 -76.47 2457.8
-58.06 -77.41 2488.1
-52.09 -78.13 2511.2
-45.01 -77.17 2480.4
-32.75 -78.60 2526.6
-26.74 -80.22 2578.6
-19.53 -78.11 2510.7
-13.02 -78.14 2511.8
-6.50 -78.05 2508.8
25.77 -77.30 2484.7
32.86 -78.85 2534.6
38.62 -77.23 2482.5
83.63 -77.20 2481.4
116.81 -77.87 2503.1
122.79 -77.55 2492.8
142.46 -77.71 2497.7
189.22 -78.30 2516.7
233.42 -77.81 2500.9
250.27 -77.01 2475.2
262.91 -78.87 2535.2
267.51 -78.29 2516.6
274.97 -76.74 2466.5
469.56 -79.36 2550.9
488.33 -79.19 2545.4
508.37 -78.21 2513.9
507.81 -77.14 2479.4
521.69 -78.25 2515.3
526.91 -78.06 2509.1
532.93 -77.99 2506.8
562.27 -81.29 2613.0
567.02 -80.05 2573.0
594.39 -79.25 2547.4
614.88 -81.08 2606.2
671.52 -80.58 2590.2
674.48 -77.08 2477.7
766.45 -77.29 2484.3
792.91 -77.36 2486.5
841.89 -81.47 2618.8
846.19 -81.23 2611.1
830.90 -79.13 2543.6
854.12 -80.07 2573.8
853.13 -78.15 2511.9
910.38 -80.92 2601.1
914.68 -80.12 2575.2
931.41 -79.27 2547.9
956.50 -78.08 2509.8
962.89 -78.07 2509.5
1029.77 -80.77 2596.1
999.25 -77.86 2502.8
1001.86 -77.56 2493.1
1022.41 -78.65 2527.9
1028.04 -78.58 2525.7
1068.16 -78.16 2512.2
1119.07 -80.90 2600.3
1136.01 -81.14 2608.2
1134.60 -79.16 2544.4
1157.58 -77.60 2494.4
1190.80 -79.39 2551.7
1174.99 -77.90 2503.9
1190.45 -77.64 2495.5
1246.72 -80.87 2599.3
1245.25 -80.34 2582.3
1211.43 -77.74 2498.7
1217.98 -77.74 2498.9
1253.11 -79.56 2557.4
1272.15 -80.35 2582.6
1276.64 -80.21 2578.1
1254.38 -78.40 2520.0
1298.43 -79.90 2568.3
1302.86 -78.96 2538.0
1288.81 -77.72 2498.1
1312.32 -78.74 2530.9
1395.68 -81.70 2626.0
1391.61 -80.29 2580.6
1408.64 -80.49 2587.3
1408.67 -77.90 2503.9
1531.31 -79.89 2568.0
1561.89 -81.14 2608.0
1527.70 -79.02 2539.9
1536.67 -79.14 2543.8
1583.72 -79.85 2566.7
1635.92 -82.14 2640.2
1602.84 -80.14 2576.0
1645.98 -81.28 2612.7
1670.60 -82.16 2640.9
1671.19 -81.85 2631.0
1622.45 -78.51 2523.4
1658.51 -79.93 2569.1
1701.69 -81.36 2615.0
1638.65 -78.03 2508.1
1679.05 -78.10 2510.2
1704.16 -78.96 2537.9
1716.00 -78.90 2536.0
1758.70 -80.55 2589.1
1729.49 -78.91 2536.5
1786.59 -80.60 2590.7
1763.83 -79.27 2548.1
1778.21 -78.16 2512.4
1783.70 -78.12 2510.9
1819.21 -78.25 2515.0
1890.96 -79.62 2559.2
1931.56 -81.04 2605.0
1927.56 -80.59 2590.5
1962.98 -81.79 2629.0
1945.33 -80.22 2578.5
1933.89 -79.48 2554.6
2002.13 -79.29 2548.7
2087.89 -82.42 2649.1
2076.62 -81.70 2626.2
2008.11 -78.75 2531.2
2030.75 -78.86 2534.9
2127.58 -81.83 2630.2
2124.69 -80.18 2577.1
2119.11 -79.72 2562.3
-2033.58 -82.61 2451.2
-2022.16 -82.41 2445.1
-1993.01 -82.78 2456.0
-1942.74 -83.35 2473.1
-1929.86 -83.35 2473.0
-1876.15 -81.30 2412.2
-1908.10 -84.09 2494.8
-1836.14 -81.19 2408.9
-1845.56 -83.02 2463.2
-1795.90 -82.50 2447.7
-1791.76 -82.60 2450.7
-1751.74 -81.33 2413.1
-1744.70 -81.29 2412.0
-1701.18 -81.31 2412.4
-1736.64 -83.31 2471.8
-1697.95 -81.75 2425.6
-1681.37 -82.79 2456.5
-1682.09 -83.15 2466.9
-1639.49 -82.61 2451.1
-1687.19 -85.34 2532.2
-1681.53 -85.39 2533.6
-1655.46 -84.40 2504.1
-1631.69 -83.51 2477.8
-1611.76 -83.15 2467.0
-1585.23 -82.76 2455.6
-1583.97 -83.03 2463.5
-1606.39 -84.55 2508.5
-1541.03 -81.44 2416.3
-1529.46 -82.16 2437.8
-1518.03 -81.89 2429.6
-1532.50 -83.01 2463.0
-1566.85 -85.23 2528.7
-1487.87 -81.96 2431.8
-1503.56 -83.18 2467.8
-1460.57 -82.55 2449.4
-1495.16 -84.88 2518.4
-1421.48 -81.77 2426.0
-1406.56 -81.63 2422.0
-1393.73 -82.73 2454.7
-1361.70 -82.72 2454.3
-1333.98 -82.58 2450.2
-1323.36 -82.31 2442.3
-1304.29 -83.12 2466.1
-1313.71 -84.13 2496.1
-1241.61 -82.35 2443.4
-1263.62 -84.24 2499.5
-1221.62 -81.86 2428.9
-1265.91 -86.16 2556.4
-1196.73 -82.32 2442.3
-1189.98 -82.73 2454.5
-1191.31 -83.71 2483.8
-1151.41 -84.57 2509.1
-1170.10 -86.43 2564.3
-1103.88 -82.00 2433.0
-1118.74 -84.07 2494.3
-1136.55 -85.90 2548.8
-1080.80 -82.17 2437.9
-1066.91 -84.57 2509.3
-1022.59 -82.57 2449.9
-1029.05 -83.61 2480.7
-1046.02 -85.52 2537.5
-956.75 -82.92 2460.2
-916.45 -83.90 2489.3
-912.47 -84.13 2496.1
-848.87 -82.35 2443.4
-834.30 -82.17 2437.9
-752.91 -82.95 2461.1
-740.68 -82.30 2441.8
-720.20 -82.86 2458.3
-715.97 -84.61 2510.5
-697.97 -84.02 2492.8
-665.32 -83.16 2467.5
-638.92 -84.76 2514.7
-632.06 -84.71 2513.4
-611.95 -86.47 2565.6
-572.79 -83.67 2482.4
-513.51 -82.42 2445.3
-511.10 -85.18 2527.4
-490.32 -82.78 2456.2
-491.73 -84.11 2495.6
-460.76 -86.81 2575.7
-424.54 -86.23 2558.6
-404.66 -86.24 2558.8
-370.80 -83.11 2465.9
-374.79 -87.01 2581.5
-353.00 -83.44 2475.6
-311.64 -84.40 2504.3
-311.29 -86.10 2554.7
-289.31 -85.48 2536.1
-281.94 -87.27 2589.2
-271.08 -85.95 2550.2
-193.70 -86.83 2576.3
-146.44 -86.53 2567.4
-83.32 -83.32 2472.2
-77.07 -83.50 2477.4
-32.41 -84.27 2500.4
-13.14 -85.39 2533.5
147.63 -87.24 2588.3
152.12 -85.98 2551.0
183.58 -85.23 2528.9
204.65 -85.82 2546.3
257.49 -85.83 2546.6
274.46 -87.02 2582.0
324.29 -84.32 2501.7
328.57 -83.75 2485.0
398.28 -83.51 2477.8
417.04 -83.41 2474.7
444.51 -87.56 2597.8
453.37 -85.42 2534.4
466.63 -85.44 2535.0
468.58 -84.60 2510.2
490.65 -85.05 2523.3
501.48 -84.66 2512.0
556.57 -86.14 2555.7
552.57 -84.51 2507.4
584.03 -85.31 2531.1
591.88 -84.55 2508.7
590.38 -83.42 2475.2
622.45 -87.01 2581.6
634.74 -85.07 2524.0
638.33 -83.82 2487.0
650.90 -84.62 2510.6
700.70 -87.59 2598.8
702.93 -85.40 2533.9
711.03 -84.80 2516.1
728.85 -86.14 2555.7
732.16 -84.98 2521.5
749.85 -84.03 2493.3
787.10 -87.46 2594.8
758.75 -83.59 2480.2
779.63 -83.76 2485.2
828.68 -86.88 2577.7
835.65 -86.91 2578.6
833.32 -85.98 2551.0
832.10 -85.18 2527.2
851.45 -84.50 2507.0
925.24 -87.16 2586.1
909.82 -84.48 2506.7
932.37 -85.96 2550.6
975.76 -84.01 2492.5
1019.19 -86.04 2552.7
1027.51 -84.54 2508.4
1029.64 -84.18 2497.8
1059.84 -84.53 2507.9
1095.07 -86.80 2575.5
1124.31 -88.58 2628.2
1131.14 -86.50 2566.5
1196.14 -85.91 2549.0
1180.65 -84.33 2502.2
1262.94 -84.63 2511.0
1335.70 -86.82 2576.0
1335.88 -86.40 2563.5
1346.35 -85.80 2545.6
1354.75 -85.49 2536.6
1413.32 -87.49 2595.9
1411.34 -85.34 2532.0
1518.00 -87.32 2590.8
1524.56 -86.17 2556.7
1578.74 -88.85 2636.1
1528.64 -85.66 2541.5
1526.24 -85.15 2526.6
1537.25 -85.40 2533.9
1550.56 -84.69 2512.9
1571.59 -85.48 2536.3
1621.85 -87.49 2595.7
1651.67 -86.93 2579.2
1641.36 -85.35 2532.4
1651.98 -85.56 2538.6
1657.14 -85.49 2536.4
1686.64 -85.32 2531.4
1676.17 -84.46 2505.9
1716.46 -85.49 2536.6
1772.64 -87.96 2609.7
1746.29 -86.32 2561.1
1770.04 -86.83 2576.3
1768.33 -86.42 2564.2
1793.11 -86.33 2561.6
1811.35 -86.89 2578.1
1773.19 -84.75 2514.5
1890.85 -86.25 2559.0
1954.08 -88.82 2635.4
1973.40 -89.39 2652.2
1971.84 -89.01 2640.9
1986.42 -89.35 2651.2
1916.83 -85.05 2523.4
1976.98 -85.10 2525.0
2052.66 -88.07 2613.0
2053.74 -86.97 2580.3
2080.32 -86.68 2571.8
2141.54 -87.82 2605.8
2116.45 -86.25 2559.1
-2006.76 -88.07 2426.4
-2018.91 -88.88 2448.8
-1996.10 -89.00 2452.0
-2038.88 -91.20 2512.5
-1949.81 -88.63 2441.8
-1943.44 -88.63 2441.7
-1893.06 -87.76 2417.8
-1886.09 -87.72 2416.9
-1892.62 -88.32 2433.4
-1883.16 -88.17 2429.3
-1875.55 -88.11 2427.6
-1890.15 -89.40 2463.0
-1887.95 -89.60 2468.5
-1853.24 -89.78 2473.4
-1818.03 -88.38 2434.9
-1779.76 -87.73 2417.2
-1792.24 -88.66 2442.7
-1755.72 -87.47 2410.0
-1843.24 -92.16 2539.2
-1758.66 -88.25 2431.3
-1753.26 -88.61 2441.4
-1756.06 -89.08 2454.1
-1721.81 -88.62 2441.6
-1699.19 -87.78 2418.5
-1680.86 -89.48 2465.1
-1620.50 -87.93 2422.7
-1638.32 -89.25 2458.8
-1606.81 -87.87 2421.0
-1607.83 -89.32 2461.0
-1569.95 -88.27 2431.9
-1604.95 -90.60 2496.2
-1604.67 -90.95 2505.9
-1529.32 -87.75 2417.5
-1530.70 -88.19 2429.7
-1516.08 -87.71 2416.4
-1442.93 -88.60 2441.0
-1474.73 -90.95 2505.8
-1451.20 -89.90 2476.8
-1401.53 -89.60 2468.5
-1403.57 -90.14 2483.4
-1351.84 -89.27 2459.6
-1345.65 -90.14 2483.4
-1289.24 -88.48 2437.6
-1328.05 -91.59 2523.4
-1298.81 -90.02 2480.0
-1287.28 -89.66 2470.3
-1296.29 -91.66 2525.2
-1231.06 -88.38 2435.1
-1216.35 -88.69 2443.6
-1262.71 -92.55 2550.0
-1247.24 -91.90 2532.0
-1189.17 -88.09 2426.9
-1163.56 -88.05 2426.0
-1172.21 -89.19 2457.3
-1164.65 -91.60 2523.7
-1150.91 -91.03 2508.0
-1097.39 -88.81 2446.7
-1082.74 -88.65 2442.3
-1098.40 -90.46 2492.2
-1044.58 -89.72 2471.8
-947.26 -88.41 2435.8
-898.67 -89.23 2458.4
-900.27 -90.67 2498.2
-901.27 -91.43 2519.1
-898.81 -91.85 2530.5
-879.96 -91.94 2532.9
-848.03 -89.27 2459.4
-834.23 -88.48 2437.7
-840.46 -89.82 2474.6
-753.96 -88.70 2443.8
-748.46 -88.80 2446.5
-755.13 -90.36 2489.4
-763.31 -92.12 2538.1
-736.71 -89.69 2471.0
-724.87 -89.02 2452.6
-726.32 -89.99 2479.2
-695.62 -88.53 2439.2
-709.88 -91.18 2512.0
-621.40 -88.77 2445.7
-638.10 -92.10 2537.4
-608.01 -88.67 2442.9
-573.62 -89.23 2458.4
-569.74 -90.64 2497.2
-529.38 -89.29 2460.1
-509.93 -90.37 2489.7
-502.94 -90.27 2487.1
-482.80 -88.94 2450.3
-467.57 -89.67 2470.5
-453.56 -89.43 2464.0
-445.23 -90.34 2488.9
-443.49 -92.67 2553.1
-423.91 -89.92 2477.4
-416.00 -89.60 2468.6
-410.10 -89.71 2471.6
-400.32 -88.96 2450.9
-404.59 -91.36 2517.1
-403.54 -92.61 2551.6
-354.66 -90.28 2487.2
-270.55 -90.18 2484.7
-267.35 -91.29 2515.2
-236.08 -89.33 2461.1
-199.27 -89.99 2479.4
-195.20 -91.10 2509.8
-167.67 -93.89 2586.9
-136.31 -90.87 2503.6
-133.10 -93.17 2566.9
-118.65 -92.29 2542.6
-90.62 -90.62 2496.7
-83.38 -89.80 2474.0
-70.17 -89.30 2460.4
-65.73 -92.03 2535.5
-58.84 -91.53 2521.7
-51.68 -90.44 2491.8
0.00 -89.52 2466.4
6.45 -90.35 2489.4
96.23 -89.82 2474.5
104.58 -91.51 2521.2
111.46 -91.79 2528.9
141.19 -89.85 2475.3
153.83 -93.63 2579.7
157.26 -91.74 2527.5
186.60 -93.30 2570.5
200.32 -93.48 2575.5
252.24 -90.55 2494.6
268.74 -94.06 2591.4
274.67 -91.56 2522.4
332.21 -91.19 2512.5
347.15 -93.46 2575.0
409.02 -90.89 2504.2
437.56 -92.82 2557.2
437.84 -91.49 2520.6
436.72 -89.91 2477.2
450.05 -90.01 2479.9
468.21 -92.32 2543.6
464.32 -90.28 2487.4
497.10 -94.05 2591.1
504.83 -92.99 2562.1
525.46 -91.95 2533.4
543.34 -90.56 2494.9
627.08 -91.45 2519.5
652.97 -94.24 2596.5
667.40 -93.44 2574.3
685.04 -94.96 2616.1
695.65 -94.55 2605.1
718.48 -94.89 2614.4
741.28 -90.24 2486.3
762.45 -92.02 2535.2
791.14 -93.86 2586.1
789.04 -90.55 2494.6
839.22 -92.51 2548.8
845.41 -91.75 2527.8
850.02 -91.54 2522.0
887.70 -94.87 2613.7
857.53 -90.95 2505.8
934.93 -94.85 2613.2
919.25 -92.59 2550.8
949.99 -95.00 2617.3
945.34 -93.86 2586.0
954.46 -92.15 2539.0
979.49 -91.42 2518.7
1040.67 -95.22 2623.5
1016.15 -92.38 2545.1
1051.28 -92.57 2550.3
1117.93 -94.85 2613.3
1131.05 -90.48 2492.9
1158.81 -92.18 2539.6
1162.73 -90.43 2491.6
1230.44 -95.17 2622.1
1225.77 -94.29 2597.8
1228.70 -94.00 2589.8
1237.19 -94.13 2593.5
1230.94 -91.67 2525.5
1277.67 -92.20 2540.3
1336.91 -94.53 2604.4
1353.25 -95.20 2622.9
1306.62 -91.46 2519.9
1328.02 -92.04 2535.8
1368.08 -94.35 2599.5
1355.13 -93.00 2562.2
1341.55 -91.62 2524.2
1386.67 -94.24 2596.4
1425.17 -95.01 2617.7
1367.56 -90.74 2499.9
1397.10 -92.26 2541.9
1427.28 -93.81 2584.6
1410.27 -91.83 2530.0
1455.87 -91.81 2529.5
1486.39 -91.67 2525.6
1484.12 -91.13 2510.7
1571.96 -95.27 2624.8
1579.03 -95.29 2625.2
1562.31 -93.87 2586.3
1558.92 -93.27 2569.7
1578.34 -92.07 2536.6
1627.11 -94.13 2593.4
1619.09 -92.90 2559.5
1654.34 -94.15 2593.9
1613.06 -91.06 2508.8
1647.38 -91.16 2511.5
1753.74 -94.43 2601.7
1703.47 -91.37 2517.4
1725.22 -91.14 2511.1
1778.91 -92.93 2560.3
1814.39 -93.05 2563.5
1796.81 -91.81 2529.4
1817.99 -92.55 2549.9
1857.85 -94.24 2596.4
1885.62 -95.30 2625.7
1857.37 -93.54 2577.0
1861.69 -91.13 2510.8
1914.21 -93.38 2572.6
1946.61 -94.63 2607.1
1932.96 -93.64 2579.8
1975.08 -95.35 2627.0
1963.85 -94.16 2594.1
2026.16 -93.93 2587.8
2071.07 -95.69 2636.4
2031.50 -92.94 2560.7
2061.71 -94.02 2590.3
2047.73 -93.08 2564.4
2127.25 -94.25 2596.6
2113.50 -93.34 2571.6
-2025.16 -95.53 2456.4
-2024.51 -96.10 2471.1
-1886.17 -93.68 2409.0
-1878.59 -93.62 2407.3
-1823.50 -95.97 2467.9
-1791.50 -94.62 2433.1
-1772.08 -94.26 2423.8
-1829.43 -98.36 2529.2
-1741.40 -94.64 2433.6
-1723.03 -94.67 2434.4
-1724.58 -95.11 2445.6
-1678.99 -93.97 2416.5
-1744.16 -97.99 2519.7
-1667.51 -95.83 2464.3
-1635.74 -94.37 2426.6
-1645.22 -97.16 2498.4
-1660.20 -98.82 2541.1
-1581.98 -94.54 2431.0
-1566.04 -94.34 2425.9
-1564.30 -94.61 2433.0
-1578.16 -96.62 2484.6
-1591.73 -97.85 2516.2
-1543.37 -95.27 2449.8
-1542.54 -95.61 2458.6
-1509.26 -94.72 2435.7
-1470.98 -96.35 2477.6
-1458.59 -95.96 2467.5
-1467.02 -96.94 2492.7
-1390.08 -95.21 2448.3
-1378.88 -94.88 2439.7
-1340.67 -94.86 2439.2
-1347.32 -95.78 2462.9
-1333.31 -95.24 2448.9
-1377.45 -98.86 2542.1
-1343.41 -96.88 2491.2
-1340.42 -97.60 2509.8
-1339.14 -98.47 2532.0
-1318.64 -97.44 2505.5
-1278.31 -94.92 2440.9
-1303.76 -97.78 2514.4
-1204.96 -94.63 2433.4
-1167.08 -96.72 2487.1
-1144.89 -95.41 2453.3
-1185.51 -99.34 2554.6
-1178.79 -99.34 2554.4
-1082.24 -94.38 2427.0
-1080.06 -95.86 2465.1
-1056.20 -94.87 2439.5
-1008.03 -95.70 2460.8
-991.27 -98.47 2532.1
-977.96 -97.80 2514.8
-950.59 -97.66 2511.3
-855.84 -97.25 2500.8
-809.63 -97.16 2498.3
-758.78 -94.85 2438.9
-787.77 -99.30 2553.4
-757.75 -96.32 2476.9
-771.30 -99.74 2564.7
-711.91 -96.20 2473.8
-711.18 -96.98 2493.8
-663.71 -98.57 2534.7
-651.79 -97.77 2514.0
-629.53 -95.38 2452.7
-630.20 -96.46 2480.4
-619.52 -95.80 2463.5
-597.23 -97.37 2503.9
-589.47 -98.24 2526.3
-564.15 -95.08 2445.0
-575.46 -98.09 2522.3
-563.22 -99.39 2555.8
-546.26 -97.55 2508.4
-531.43 -96.04 2469.6
-524.89 -96.02 2469.0
-516.09 -95.57 2457.6
-489.06 -95.27 2449.8
-459.97 -99.99 2571.3
-448.48 -98.93 2543.9
-423.80 -99.33 2554.2
-368.26 -98.64 2536.5
-306.40 -95.75 2462.2
-312.93 -99.87 2568.1
-301.53 -100.51 2584.5
-286.76 -97.76 2513.8
-255.73 -95.90 2465.9
-166.49 -99.89 2568.7
-97.19 -97.19 2499.2
-85.60 -98.76 2539.6
-58.25 -97.08 2496.4
-39.97 -99.93 2569.7
6.50 -97.54 2508.1
96.84 -96.84 2490.2
104.07 -97.57 2508.9
109.64 -96.74 2487.7
119.20 -99.33 2554.3
128.94 -96.71 2486.8
149.00 -97.17 2498.7
213.15 -99.91 2569.2
211.33 -96.06 2470.1
249.13 -101.00 2597.1
257.48 -96.55 2482.8
265.74 -97.22 2500.0
271.18 -96.85 2490.4
281.55 -95.98 2468.1
290.41 -96.80 2489.2
354.08 -100.21 2576.9
363.09 -97.26 2500.9
421.68 -98.83 2541.4
427.59 -98.67 2537.3
427.24 -97.10 2496.9
431.81 -96.67 2485.9
459.49 -97.07 2496.2
469.41 -97.79 2514.7
479.24 -98.47 2532.2
485.01 -98.31 2528.0
494.54 -97.61 2509.9
505.49 -98.47 2532.2
524.39 -98.32 2528.3
590.51 -96.28 2475.7
656.30 -98.45 2531.5
669.03 -99.36 2555.0
691.37 -98.77 2539.7
689.98 -96.73 2487.3
722.37 -100.33 2579.9
719.68 -98.14 2523.6
754.07 -100.10 2573.9
743.22 -97.79 2514.6
789.87 -101.26 2604.0
794.39 -97.67 2511.6
836.02 -98.74 2539.1
901.87 -99.47 2557.8
901.75 -98.73 2538.8
907.92 -98.69 2537.7
912.73 -98.50 2532.8
935.24 -100.20 2576.7
924.67 -98.37 2529.5
925.79 -97.11 2497.1
1004.40 -100.44 2582.8
1010.58 -100.39 2581.4
1068.23 -98.30 2527.8
1120.59 -101.87 2619.6
1136.32 -97.40 2504.6
1181.53 -100.70 2589.4
1156.65 -98.02 2520.6
1221.85 -101.26 2603.8
1212.88 -99.96 2570.5
1206.33 -98.88 2542.6
1210.84 -98.71 2538.3
1274.38 -102.22 2628.6
1263.25 -100.79 2591.8
1294.09 -99.55 2559.7
1334.53 -101.10 2599.7
1304.22 -97.82 2515.3
1344.92 -100.37 2580.9
1378.46 -102.36 2632.1
1388.20 -102.07 2624.8
1381.79 -101.11 2599.9
1380.44 -100.52 2584.7
1371.00 -99.35 2554.7
1424.76 -100.33 2580.0
1461.88 -102.47 2634.9
1407.24 -98.18 2524.6
1462.26 -99.25 2552.1
1484.53 -97.67 2511.4
1614.14 -100.88 2594.2
1607.33 -100.04 2572.5
1678.47 -100.31 2579.3
1672.01 -97.59 2509.4
1720.55 -99.65 2562.3
1767.03 -101.94 2621.4
1763.02 -99.79 2566.1
1770.38 -99.83 2567.1
1766.92 -99.26 2552.5
1805.60 -101.06 2598.7
1826.15 -101.83 2618.5
1857.47 -101.69 2614.8
1801.05 -98.24 2526.1
1868.20 -101.53 2610.8
1885.66 -101.38 2606.9
1910.61 -99.51 2558.8
1925.05 -99.92 2569.3
1927.51 -99.70 2563.7
1928.14 -99.39 2555.7
1902.19 -97.72 2512.7
1942.66 -97.78 2514.5
1980.42 -99.35 2554.8
1965.30 -97.94 2518.4
2022.34 -100.45 2582.9
2046.25 -101.30 2604.8
2080.74 -102.67 2640.0
2014.90 -99.09 2548.1
2053.85 -100.03 2572.1
2082.91 -101.11 2600.0
2022.52 -97.86 2516.5
2122.20 -102.03 2623.6
2111.82 -101.21 2602.4
2093.37 -99.68 2563.3
2172.10 -103.11 2651.3
-2070.09 -104.48 2518.8
-1929.22 -101.20 2439.8
-1928.41 -101.50 2446.8
-1909.67 -100.84 2431.0
-1817.47 -100.27 2417.3
-1743.17 -100.33 2418.6
-1725.58 -100.03 2411.5
-1736.77 -101.79 2453.8
-1689.96 -100.52 2423.2
-1757.57 -104.93 2529.6
-1761.10 -105.53 2544.1
-1681.95 -103.11 2485.6
-1633.95 -100.55 2424.0
-1623.49 -100.29 2417.8
-1602.75 -101.36 2443.5
-1577.00 -100.13 2413.8
-1594.95 -101.67 2451.0
-1631.24 -104.40 2516.8
-1616.30 -104.70 2524.0
-1553.07 -101.01 2435.1
-1564.65 -102.18 2463.3
-1540.32 -101.00 2434.9
-1531.27 -101.24 2440.6
-1510.83 -100.30 2418.0
-1419.50 -100.94 2433.4
-1412.67 -103.21 2488.1
-1419.09 -104.15 2510.8
-1368.00 -103.25 2489.0
-1397.09 -105.94 2553.9
-1352.10 -103.51 2495.3
-1337.59 -104.40 2516.7
-1310.53 -102.79 2477.9
-1297.59 -102.27 2465.5
-1269.15 -101.53 2447.7
-1265.52 -101.75 2452.9
-1252.73 -101.23 2440.4
-1256.71 -102.59 2473.1
-1218.38 -101.53 2447.6
-1174.20 -103.80 2502.2
-1173.10 -104.28 2513.8
-1151.33 -102.91 2480.9
-1135.35 -104.40 2516.8
-1080.58 -102.91 2480.9
-1097.80 -105.18 2535.5
-1049.59 -101.17 2438.8
-1049.46 -103.01 2483.4
-1065.27 -105.21 2536.4
-1016.18 -100.99 2434.5
-978.18 -102.97 2482.2
-965.68 -102.32 2466.7
-952.20 -102.94 2481.6
-931.40 -102.07 2460.6
-914.56 -100.92 2432.8
-953.06 -105.90 2552.8
-922.23 -103.19 2487.5
-900.33 -101.45 2445.6
-899.20 -102.04 2459.8
-889.64 -106.23 2560.8
-878.82 -105.72 2548.7
-818.98 -105.67 2547.5
-770.28 -102.70 2475.9
-789.46 -106.15 2558.9
-747.74 -101.39 2444.2
-761.98 -106.02 2555.7
-725.59 -101.84 2455.0
-729.80 -105.20 2536.0
-719.88 -104.71 2524.3
-697.25 -102.35 2467.3
-685.66 -101.58 2448.8
-682.44 -102.05 2460.1
-682.05 -104.93 2529.6
-674.64 -104.80 2526.4
-658.81 -103.34 2491.3
-664.15 -105.21 2536.4
-636.43 -101.83 2454.8
-634.93 -105.82 2551.0
-599.05 -105.33 2539.2
-577.15 -102.60 2473.5
-560.83 -103.14 2486.4
-548.60 -102.07 2460.5
-531.38 -102.43 2469.4
-545.62 -106.46 2566.5
-504.02 -102.08 2460.8
-507.60 -105.47 2542.7
-483.87 -101.87 2455.7
-485.33 -104.94 2529.7
-482.72 -105.80 2550.6
-441.63 -102.41 2468.7
-406.04 -103.12 2485.9
-349.65 -103.60 2497.5
-350.51 -105.81 2550.9
-334.67 -102.97 2482.4
-302.86 -103.10 2485.5
-295.68 -102.85 2479.3
-278.94 -106.26 2561.7
-272.05 -106.17 2559.4
-256.83 -102.73 2476.6
-219.95 -103.50 2495.2
-165.57 -101.89 2456.3
-96.52 -102.96 2482.0
-89.95 -102.80 2478.2
-86.46 -106.41 2565.3
-78.54 -104.72 2524.6
6.63 -106.10 2557.8
12.99 -103.90 2504.8
99.63 -106.27 2561.9
111.30 -104.76 2525.4
116.77 -103.79 2502.1
237.42 -105.52 2543.8
244.91 -105.91 2553.1
308.22 -102.74 2476.8
336.67 -103.59 2497.3
351.73 -106.18 2559.8
347.02 -102.82 2478.7
396.28 -107.46 2590.7
387.48 -103.33 2490.9
429.03 -102.46 2469.9
498.35 -104.92 2529.2
511.36 -104.89 2528.7
507.63 -102.81 2478.5
532.01 -102.56 2472.3
571.41 -103.89 2504.5
610.39 -106.15 2559.1
629.07 -108.23 2609.1
615.35 -104.74 2525.0
623.58 -103.93 2505.5
646.51 -106.64 2570.8
655.30 -105.91 2553.1
686.49 -106.64 2570.8
676.34 -103.06 2484.5
699.28 -105.55 2544.6
773.55 -103.14 2486.4
806.94 -106.70 2572.3
816.92 -107.14 2582.8
856.34 -103.02 2483.5
862.42 -102.98 2482.4
884.66 -104.85 2527.6
903.12 -106.25 2561.4
954.88 -106.84 2575.6
1005.76 -107.28 2586.2
1021.78 -108.27 2610.0
987.71 -103.97 2506.4
1022.03 -105.50 2543.3
1029.21 -104.89 2528.5
1133.02 -105.40 2540.8
1125.83 -104.12 2510.1
1149.47 -103.91 2504.9
1167.39 -104.93 2529.7
1226.84 -108.45 2614.4
1225.77 -105.44 2541.9
1272.52 -108.88 2624.8
1240.65 -103.39 2492.4
1260.13 -104.47 2518.4
1301.71 -107.36 2588.1
1270.99 -104.29 2514.1
1281.61 -104.62 2522.1
1329.85 -107.46 2590.6
1304.46 -104.88 2528.4
1371.13 -108.07 2605.2
1345.57 -105.54 2544.1
1382.61 -107.91 2601.4
1408.70 -105.82 2551.0
1420.06 -106.17 2559.5
1432.43 -106.60 2569.8
1430.18 -105.94 2553.9
1483.73 -109.40 2637.3
1466.79 -107.65 2595.2
1443.76 -104.53 2519.8
1467.15 -103.87 2504.0
1493.01 -103.86 2503.8
1620.32 -109.39 2637.0
1577.52 -106.05 2556.6
1680.71 -107.57 2593.1
1671.56 -106.13 2558.5
1683.88 -106.49 2567.2
1689.08 -106.40 2565.0
1734.51 -107.99 2603.2
1760.29 -109.17 2631.7
1753.30 -108.31 2611.1
1738.97 -107.01 2579.8
1751.96 -107.40 2589.1
1727.92 -105.52 2543.8
1812.14 -109.41 2637.6
1780.46 -107.10 2581.8
1765.65 -105.81 2550.7
1792.93 -107.04 2580.4
1768.28 -105.18 2535.5
1767.54 -104.74 2525.1
1804.10 -106.52 2567.8
1814.89 -106.76 2573.6
1840.70 -107.88 2600.7
1793.68 -104.74 2525.0
1825.61 -105.83 2551.3
1868.46 -107.93 2601.8
1841.93 -106.01 2555.6
1839.26 -105.48 2542.8
1881.59 -105.63 2546.5
1897.76 -106.17 2559.4
1883.57 -104.64 2522.6
1976.75 -106.13 2558.6
2041.52 -109.25 2633.6
2031.05 -108.32 2611.4
1997.15 -106.16 2559.2
2004.34 -106.19 2559.9
2024.51 -106.90 2577.2
2049.05 -107.84 2599.8
2029.28 -104.74 2524.9
2154.23 -109.07 2629.5
2179.88 -110.03 2652.4
2152.19 -108.29 2610.5
-2091.16 -111.09 2520.6
-2051.61 -109.33 2480.7
-1960.34 -107.16 2431.3
-1947.12 -106.78 2422.7
-1941.42 -106.81 2423.4
-1932.97 -107.39 2436.5
-1949.54 -108.66 2465.5
-1889.40 -108.88 2470.4
-1827.55 -107.13 2430.7
-1818.72 -106.98 2427.4
-1844.57 -108.88 2470.4
-1849.40 -109.55 2485.5
-1765.14 -108.33 2457.9
-1766.16 -108.79 2468.2
-1721.31 -106.41 2414.3
-1681.60 -106.67 2420.2
-1689.87 -107.59 2441.2
-1627.92 -107.27 2433.8
-1675.64 -110.84 2514.9
-1626.91 -108.04 2451.3
-1606.27 -108.79 2468.4
-1614.27 -109.77 2490.6
-1640.60 -112.01 2541.4
-1608.09 -110.68 2511.2
-1541.13 -106.50 2416.4
-1549.52 -107.52 2439.5
-1553.02 -108.20 2455.0
-1560.72 -109.19 2477.3
-1553.45 -109.13 2476.0
-1510.71 -106.56 2417.9
-1504.16 -108.81 2468.8
-1484.97 -108.35 2458.3
-1458.65 -106.88 2425.1
-1463.78 -107.72 2444.2
-1472.95 -112.29 2547.7
-1431.79 -111.14 2521.7
-1351.03 -109.89 2493.4
-1278.40 -107.06 2429.0
-1279.48 -107.68 2443.1
-1286.05 -108.77 2467.9
-1304.46 -110.88 2515.7
-1279.15 -109.27 2479.3
-1245.77 -106.96 2426.8
-1283.05 -110.72 2512.1
-1234.25 -108.16 2454.0
-1262.35 -111.77 2536.0
-1257.52 -111.93 2539.5
-1200.56 -107.42 2437.2
-1196.78 -107.65 2442.4
-1204.36 -108.91 2471.0
-1199.18 -109.02 2473.5
-1105.99 -107.44 2437.7
-1134.32 -111.46 2529.0
-1040.18 -110.52 2507.6
-1016.68 -110.09 2497.8
-981.42 -108.34 2458.1
-995.07 -110.56 2508.6
-976.88 -109.98 2495.3
-928.20 -111.12 2521.3
-917.29 -110.60 2509.3
-885.30 -107.50 2439.1
-910.10 -112.11 2543.8
-871.48 -108.14 2453.6
-864.77 -108.90 2470.8
-865.94 -109.86 2492.6
-810.98 -109.42 2482.6
-829.49 -112.81 2559.6
-807.27 -110.67 2511.1
-729.48 -108.78 2468.2
-700.71 -109.29 2479.6
-668.66 -108.26 2456.3
-678.33 -110.88 2515.8
-628.35 -111.27 2524.6
-557.30 -111.46 2528.9
-546.36 -110.57 2508.8
-550.45 -112.74 2558.0
-537.66 -111.47 2529.1
-514.14 -107.91 2448.3
-512.92 -109.00 2473.0
-484.90 -111.40 2527.5
-472.45 -110.02 2496.3
-441.93 -108.88 2470.4
-441.27 -110.32 2503.0
-426.94 -108.33 2457.8
-425.80 -109.68 2488.5
-415.05 -108.55 2462.9
-356.99 -108.37 2458.9
-364.42 -112.64 2555.7
-353.87 -113.51 2575.3
-332.23 -108.61 2464.3
-321.76 -113.96 2585.6
-308.07 -113.85 2583.2
-274.95 -108.70 2466.3
-277.07 -112.15 2544.5
-226.85 -113.43 2573.5
-214.86 -110.69 2511.4
-121.36 -108.58 2463.6
-115.59 -109.17 2476.9
-108.21 -108.21 2455.2
-102.11 -108.49 2461.5
-77.17 -109.32 2480.4
-52.66 -111.90 2539.0
-19.67 -111.48 2529.5
6.44 -109.46 2483.6
13.01 -110.56 2508.5
57.84 -109.26 2478.9
63.93 -108.68 2465.8
97.75 -110.79 2513.7
106.33 -112.98 2563.3
123.91 -110.87 2515.5
133.52 -113.49 2575.0
206.33 -109.61 2487.0
226.43 -109.98 2495.3
230.15 -108.68 2465.9
265.37 -110.03 2496.5
273.28 -110.61 2509.7
276.17 -109.18 2477.3
336.90 -110.14 2499.0
343.12 -110.06 2497.1
373.45 -111.38 2527.1
398.80 -114.91 2607.2
391.27 -110.86 2515.3
491.79 -111.47 2529.2
512.98 -114.75 2603.5
506.56 -111.84 2537.5
500.21 -109.02 2473.6
537.13 -112.73 2557.8
552.97 -113.26 2569.7
541.05 -109.50 2484.4
556.01 -111.20 2523.1
557.90 -110.28 2502.2
578.14 -112.97 2563.2
572.24 -110.55 2508.2
590.05 -110.23 2501.0
606.61 -112.09 2543.3
618.70 -113.10 2566.0
630.19 -113.97 2585.9
631.26 -112.96 2563.0
653.27 -114.49 2597.7
634.99 -110.15 2499.2
672.69 -113.23 2569.0
685.05 -114.17 2590.5
684.62 -113.00 2563.8
674.96 -109.28 2479.4
708.81 -112.61 2555.1
705.87 -110.09 2497.8
745.84 -115.27 2615.3
743.82 -113.92 2584.7
745.82 -113.20 2568.5
736.79 -110.84 2515.0
800.27 -111.51 2530.1
812.60 -112.31 2548.2
824.40 -113.02 2564.4
834.61 -111.72 2534.8
868.94 -111.91 2539.1
875.15 -111.86 2538.0
904.63 -114.77 2603.9
917.16 -109.80 2491.3
984.08 -115.38 2617.8
964.63 -110.80 2514.0
968.15 -110.46 2506.2
1018.70 -115.45 2619.5
1019.86 -114.82 2605.1
1009.96 -112.96 2562.9
1008.70 -112.08 2543.0
999.58 -109.63 2487.4
1050.08 -114.43 2596.4
1104.97 -110.50 2507.1
1157.38 -115.06 2610.6
1129.00 -110.94 2517.2
1142.23 -111.60 2532.0
1135.71 -110.33 2503.2
1199.99 -110.27 2501.9
1222.19 -111.71 2534.5
1219.67 -110.88 2515.7
1290.85 -114.29 2593.2
1321.80 -115.83 2628.0
1355.20 -115.77 2626.7
1337.30 -113.11 2566.3
1349.02 -113.53 2575.9
1353.32 -113.33 2571.4
1326.30 -110.53 2507.7
1351.54 -112.08 2543.0
1412.90 -115.48 2620.1
1353.89 -110.13 2498.6
1442.49 -115.67 2624.5
1455.44 -116.16 2635.6
1412.58 -110.16 2499.3
1484.94 -113.71 2580.0
1474.27 -111.39 2527.3
1526.13 -114.80 2604.6
1522.78 -113.04 2564.9
1558.91 -115.22 2614.3
1561.33 -114.90 2607.1
1577.12 -115.56 2622.1
1515.45 -110.57 2508.7
1590.37 -114.08 2588.3
1545.38 -110.38 2504.5
1604.29 -114.11 2589.1
1586.96 -112.41 2550.5
1642.69 -113.52 2575.6
1682.42 -115.33 2616.7
1642.77 -112.16 2544.7
1649.59 -112.17 2545.1
1638.64 -110.54 2508.1
1717.83 -114.52 2598.4
1784.31 -116.22 2636.9
1733.97 -112.51 2552.7
1779.11 -112.85 2560.6
1840.75 -116.33 2639.4
1765.11 -111.14 2521.6
1885.81 -115.74 2625.9
1845.30 -112.84 2560.3
1820.97 -110.96 2517.5
1832.45 -110.86 2515.3
1889.20 -113.89 2584.0
1920.76 -115.38 2617.9
1892.58 -113.29 2570.4
1911.15 -114.00 2586.5
1941.07 -115.38 2617.8
1927.55 -114.18 2590.5
1928.28 -113.82 2582.5
1900.81 -111.81 2536.9
1964.07 -113.18 2568.0
1975.87 -112.34 2548.9
1992.87 -112.93 2562.3
1987.79 -112.27 2547.2
2028.85 -114.21 2591.2
2058.81 -115.13 2612.2
2082.64 -114.58 2599.7
2108.65 -115.64 2623.7
2029.98 -110.96 2517.7
2061.34 -111.60 2532.1
-2054.66 -115.94 2484.4
-1981.61 -112.52 2411.2
-2041.84 -116.31 2492.3
-1960.76 -113.85 2439.7
-1931.29 -112.50 2410.8
-1908.61 -112.27 2405.8
-1915.93 -113.07 2423.0
-1910.18 -114.23 2447.8
-1909.29 -114.56 2454.8
-1923.07 -115.77 2480.8
-1899.49 -114.73 2458.6
-1895.93 -115.68 2478.9
-1810.35 -113.15 2424.6
-1824.80 -114.45 2452.4
-1712.39 -112.49 2410.6
-1675.52 -112.96 2420.5
-1612.79 -112.52 2411.2
-1650.02 -115.57 2476.4
-1597.02 -113.62 2434.8
-1654.64 -118.66 2542.7
-1556.10 -114.79 2459.9
-1559.52 -115.52 2475.4
-1551.20 -115.38 2472.4
-1555.71 -118.16 2531.9
-1544.67 -117.81 2524.6
-1507.67 -115.48 2474.6
-1468.83 -113.96 2442.0
-1459.55 -113.73 2437.1
-1439.42 -113.64 2435.1
-1435.12 -117.96 2527.6
-1369.89 -114.16 2446.2
-1331.54 -114.13 2445.7
-1365.19 -117.58 2519.5
-1327.41 -114.87 2461.5
-1334.07 -117.14 2510.1
-1349.54 -119.08 2551.6
-1310.39 -116.19 2489.8
-1283.16 -114.91 2462.3
-1312.16 -118.09 2530.6
-1277.66 -115.57 2476.4
-1254.53 -115.80 2481.5
-1253.44 -116.30 2492.1
-1254.67 -117.63 2520.5
-1253.38 -119.37 2557.9
-1221.29 -117.56 2519.1
-1146.04 -113.34 2428.8
-1126.03 -117.16 2510.5
-1085.61 -113.61 2434.5
-1030.22 -115.18 2468.1
-1043.66 -118.15 2531.8
-1022.20 -118.71 2543.7
-978.03 -115.06 2465.6
-1005.09 -119.02 2550.5
-943.93 -114.03 2443.5
-920.66 -115.89 2483.3
-927.42 -117.56 2519.1
-937.43 -119.67 2564.4
-924.74 -118.90 2547.8
-898.91 -116.41 2494.4
-888.11 -118.41 2537.5
-829.53 -113.98 2442.5
-827.04 -114.51 2453.8
-821.25 -115.49 2474.7
-842.02 -119.34 2557.3
-790.68 -114.78 2459.5
-729.30 -117.21 2511.6
-670.43 -114.93 2462.8
-628.28 -115.40 2472.8
-641.01 -118.95 2548.9
-629.72 -118.07 2530.1
-555.66 -119.07 2551.5
-533.78 -115.76 2480.6
-504.51 -114.95 2463.2
-447.69 -116.79 2502.6
-432.70 -116.25 2491.0
-419.18 -114.32 2449.8
-364.06 -114.97 2463.6
-317.96 -114.47 2452.8
-312.96 -114.97 2463.5
-313.58 -117.59 2519.8
-295.73 -115.72 2479.7
-278.35 -116.52 2496.8
-272.93 -116.97 2506.5
-141.18 -115.51 2475.3
-134.84 -115.58 2476.6
-129.42 -116.48 2495.9
-122.42 -115.98 2485.3
-70.25 -114.95 2463.3
45.86 -117.92 2526.8
67.31 -121.16 2596.3
72.22 -118.17 2532.2
76.97 -115.46 2474.1
132.42 -119.18 2553.8
137.77 -118.09 2530.5
142.21 -116.35 2493.2
172.52 -119.44 2559.4
178.43 -118.95 2549.0
212.17 -119.35 2557.4
228.58 -121.01 2593.1
238.01 -119.01 2550.2
250.72 -115.72 2479.7
262.85 -118.28 2534.7
268.93 -118.07 2530.0
273.14 -117.06 2508.5
293.56 -117.42 2516.2
310.52 -121.51 2603.7
307.75 -117.86 2525.6
306.92 -115.09 2466.3
323.10 -116.31 2492.5
350.96 -116.99 2506.9
430.60 -119.24 2555.2
433.33 -118.18 2532.5
432.19 -116.11 2488.1
499.96 -115.37 2472.3
508.32 -115.82 2481.8
525.24 -118.18 2532.4
532.15 -118.25 2534.0
538.23 -118.15 2531.7
538.62 -116.81 2503.0
574.22 -121.60 2605.7
584.89 -121.01 2593.1
613.61 -121.37 2600.8
614.27 -117.63 2520.6
629.75 -119.32 2556.9
657.09 -121.93 2612.9
630.00 -115.71 2479.6
638.02 -116.00 2485.8
686.32 -118.79 2545.4
681.97 -116.91 2505.2
707.87 -120.20 2575.8
725.55 -122.06 2615.5
716.76 -119.46 2559.9
717.21 -118.44 2537.9
722.75 -118.27 2534.3
727.71 -118.01 2528.7
735.43 -118.19 2532.7
730.53 -116.37 2493.6
770.67 -117.56 2519.1
794.01 -120.10 2573.6
801.99 -118.33 2535.6
823.13 -120.46 2581.3
856.39 -121.38 2601.0
840.75 -118.23 2533.5
836.84 -116.77 2502.2
863.41 -119.55 2561.8
855.23 -117.51 2518.1
866.26 -117.24 2512.3
910.11 -122.25 2619.7
885.10 -116.29 2491.9
969.63 -122.05 2615.4
954.10 -118.44 2538.0
966.23 -119.12 2552.7
996.20 -121.98 2613.9
968.11 -117.74 2523.1
972.97 -116.76 2501.9
990.62 -118.09 2530.4
1004.73 -118.98 2549.6
1109.90 -118.92 2548.2
1137.50 -121.15 2596.1
1150.79 -121.85 2611.0
1152.81 -121.35 2600.3
1119.79 -117.19 2511.1
1165.54 -120.57 2583.7
1154.66 -118.09 2530.5
1203.69 -121.04 2593.7
1221.05 -122.10 2616.5
1218.55 -121.18 2596.7
1213.71 -118.09 2530.5
1247.24 -120.70 2586.4
1236.55 -119.03 2550.6
1214.76 -116.31 2492.3
1227.88 -116.94 2505.9
1230.03 -116.53 2497.0
1269.37 -119.63 2563.4
1314.89 -122.63 2627.8
1293.23 -116.98 2506.6
1368.83 -121.97 2613.7
1380.65 -122.42 2623.3
1360.28 -120.02 2572.0
1429.36 -121.36 2600.6
1425.15 -119.87 2568.7
1409.00 -116.88 2504.5
1469.48 -121.33 2600.0
1518.70 -123.14 2638.7
1513.83 -122.19 2618.4
1503.77 -119.77 2566.5
1486.94 -116.88 2504.5
1521.93 -119.11 2552.3
1538.57 -118.86 2547.0
1617.96 -122.88 2633.2
1598.25 -120.88 2590.2
1670.93 -121.28 2598.8
1671.55 -118.92 2548.4
1681.87 -118.72 2544.0
1691.98 -118.97 2549.3
1856.59 -122.41 2623.1
1859.44 -120.83 2589.2
1859.18 -120.38 2579.5
1863.58 -120.23 2576.4
1891.44 -121.59 2605.6
1888.21 -120.95 2591.9
1929.75 -123.18 2639.5
1933.03 -122.95 2634.6
1870.51 -118.55 2540.4
1911.00 -120.69 2586.3
1964.14 -123.62 2648.9
1913.09 -119.98 2571.1
1881.50 -117.59 2519.9
1936.62 -120.62 2584.7
1940.97 -120.06 2572.7
1956.04 -119.35 2557.5
1995.44 -118.93 2548.6
1994.59 -118.49 2539.1
2018.51 -117.96 2527.8
2104.98 -122.62 2627.6
2084.09 -121.01 2593.1
2163.72 -122.86 2632.7
-2103.63 -124.90 2535.6
-2054.50 -122.37 2484.2
-1982.79 -119.22 2420.2
-1937.48 -120.70 2450.2
-1875.17 -119.16 2419.0
-1943.94 -123.94 2516.1
-1917.89 -122.69 2490.8
-1833.57 -123.10 2499.1
-1822.27 -122.78 2492.5
-1739.02 -120.15 2439.1
-1758.54 -121.94 2475.5
-1688.05 -118.79 2411.5
-1654.67 -120.45 2445.3
-1634.11 -119.42 2424.2
-1594.69 -119.76 2431.2
-1646.56 -124.15 2520.2
-1530.32 -119.16 2419.1
-1526.36 -119.35 2422.8
-1494.48 -120.32 2442.5
-1496.09 -120.96 2455.6
-1466.05 -119.04 2416.6
-1488.78 -121.93 2475.2
-1484.57 -122.11 2478.9
-1445.54 -119.41 2424.2
-1493.94 -123.95 2516.3
-1504.36 -125.36 2545.0
-1470.57 -123.09 2498.8
-1429.89 -120.21 2440.4
-1413.91 -119.93 2434.7
-1420.68 -123.26 2502.2
-1431.00 -124.72 2531.9
-1353.24 -119.59 2427.7
-1369.35 -124.49 2527.2
-1346.42 -123.58 2508.9
-1329.12 -122.59 2488.7
-1346.60 -124.81 2533.7
-1313.52 -122.94 2495.8
-1273.40 -120.97 2455.8
-1227.59 -120.85 2453.4
-1238.07 -122.52 2487.2
-1237.32 -123.08 2498.7
-1235.20 -123.52 2507.6
-1228.20 -123.47 2506.5
-1232.14 -124.53 2528.0
-1214.20 -123.37 2504.5
-1170.31 -119.55 2426.9
-1177.89 -122.97 2496.3
-1191.26 -125.05 2538.6
-1170.65 -123.57 2508.5
-1126.19 -119.54 2426.7
-1132.04 -124.33 2524.0
-1103.39 -121.89 2474.4
-1042.36 -120.03 2436.7
-1032.32 -119.60 2427.9
-1047.81 -123.65 2510.3
-1043.98 -125.54 2548.6
-1034.55 -125.20 2541.7
-975.95 -122.80 2493.0
-970.70 -122.95 2496.1
-909.21 -122.52 2487.2
-906.92 -123.08 2498.7
-889.67 -121.61 2468.8
-870.20 -119.81 2432.2
-874.93 -122.23 2481.4
-873.29 -123.83 2513.7
-835.43 -120.25 2441.2
-862.53 -125.10 2539.6
-853.74 -124.78 2533.1
-823.44 -121.28 2462.1
-813.60 -120.77 2451.7
-808.81 -121.00 2456.4
-759.77 -122.34 2483.5
-748.36 -121.53 2467.1
-741.92 -121.52 2467.0
-637.13 -126.10 2559.9
-633.26 -126.65 2571.1
-595.28 -120.32 2442.6
-576.73 -121.75 2471.7
-592.88 -126.57 2569.5
-556.87 -125.96 2557.0
-540.02 -123.62 2509.6
-527.57 -123.75 2512.2
-510.66 -122.82 2493.3
-487.18 -121.79 2472.5
-450.19 -125.79 2553.6
-427.35 -121.19 2460.2
-385.81 -122.17 2480.2
-372.98 -126.55 2569.0
-347.94 -124.73 2532.2
-257.32 -125.36 2545.0
-192.97 -126.43 2566.7
-178.47 -121.11 2458.6
-167.73 -122.57 2488.3
-167.70 -127.46 2587.4
-157.98 -125.07 2539.0
-149.17 -123.22 2501.5
-146.40 -126.43 2566.7
-140.09 -126.75 2573.1
-127.70 -121.31 2462.7
-77.49 -122.69 2490.8
-71.24 -123.05 2498.0
46.83 -127.11 2580.4
78.14 -123.73 2511.7
87.04 -127.21 2582.4
91.95 -124.79 2533.3
95.98 -121.58 2468.1
129.40 -122.93 2495.6
134.28 -121.49 2466.4
161.44 -122.69 2490.8
174.58 -127.58 2590.0
177.08 -124.61 2529.8
180.57 -122.53 2487.4
189.60 -124.22 2521.8
210.08 -124.74 2532.2
217.28 -125.10 2539.7
225.04 -125.76 2553.0
246.25 -126.45 2567.1
247.66 -123.83 2513.8
257.83 -125.61 2549.9
267.25 -126.94 2577.1
270.48 -125.34 2544.6
277.98 -125.75 2552.8
280.75 -124.05 2518.4
281.42 -121.52 2467.0
302.67 -127.79 2594.3
316.63 -125.33 2544.3
323.19 -122.81 2493.1
339.10 -121.56 2467.8
346.76 -122.01 2476.9
420.26 -122.85 2493.9
500.58 -123.52 2507.5
503.86 -122.73 2491.6
536.92 -124.41 2525.6
579.98 -126.66 2571.4
598.40 -124.94 2536.4
629.57 -127.25 2583.3
643.86 -126.12 2560.3
661.91 -124.52 2527.8
672.35 -124.03 2517.8
676.36 -123.57 2508.5
700.00 -126.67 2571.4
682.11 -122.27 2482.1
728.96 -125.91 2556.1
749.00 -127.06 2579.5
762.86 -123.88 2514.9
771.16 -124.17 2520.8
811.46 -127.42 2586.7
828.41 -129.01 2619.1
801.80 -123.85 2514.3
810.15 -124.14 2520.1
830.85 -126.29 2563.8
853.87 -126.75 2573.1
846.57 -124.69 2531.3
867.46 -126.78 2573.8
851.28 -123.47 2506.5
917.78 -128.22 2603.0
900.82 -124.03 2517.8
951.02 -125.48 2547.4
958.92 -125.65 2550.8
983.38 -122.92 2495.4
1045.93 -128.21 2602.8
1022.88 -123.79 2513.0
1038.30 -124.86 2534.7
1094.69 -124.55 2528.4
1100.61 -124.47 2526.9
1150.03 -126.30 2564.1
1176.10 -128.42 2607.1
1179.65 -128.08 2600.0
1152.05 -124.37 2524.8
1197.31 -124.31 2523.6
1233.23 -125.98 2557.4
1226.84 -124.65 2530.5
1224.70 -123.77 2512.7
1263.37 -127.01 2578.3
1246.68 -124.67 2530.9
1269.69 -126.30 2564.1
1284.87 -124.55 2528.5
1291.16 -123.90 2515.2
1346.74 -127.30 2584.4
1360.98 -127.38 2586.0
1331.66 -124.03 2517.8
1392.72 -127.83 2595.1
1420.27 -129.12 2621.1
1391.60 -125.91 2556.0
1398.63 -125.94 2556.7
1401.80 -125.63 2550.4
1383.21 -123.38 2504.8
1403.69 -124.63 2530.0
1403.35 -124.02 2517.6
1443.96 -127.01 2578.5
1499.62 -128.35 2605.5
1482.19 -126.29 2563.7
1517.27 -128.70 2612.6
1536.42 -129.74 2633.9
1506.95 -124.49 2527.2
1514.67 -123.51 2507.4
1580.57 -128.34 2605.3
1583.29 -126.93 2576.8
1601.78 -127.87 2595.9
1632.34 -127.11 2580.4
1638.90 -125.56 2549.0
1620.27 -123.64 2509.9
1678.42 -125.06 2538.8
1754.18 -128.19 2602.4
1748.18 -127.26 2583.5
1797.56 -128.88 2616.4
1730.69 -123.62 2509.6
1774.26 -125.79 2553.6
1790.72 -126.48 2567.7
1842.18 -129.64 2631.7
1790.63 -124.62 2529.9
1803.67 -124.17 2520.7
1869.19 -128.21 2602.8
1878.31 -128.37 2606.1
1889.20 -128.65 2611.8
1878.96 -127.50 2588.4
1844.52 -124.72 2531.9
1870.54 -124.27 2522.7
1931.08 -126.96 2577.3
1953.97 -128.02 2598.9
1987.68 -123.82 2513.7
2029.57 -126.02 2558.3
2000.65 -123.82 2513.6
2050.16 -124.45 2526.4
2145.58 -129.83 2635.6
2109.23 -127.22 2582.7
-2002.66 -125.17 2413.9
-1995.84 -125.52 2420.8
-1985.71 -127.29 2454.9
-1961.78 -126.16 2433.1
-1928.18 -126.03 2430.5
-1980.08 -129.84 2504.1
-1927.83 -126.83 2446.0
-1859.22 -125.20 2414.6
-1833.54 -126.02 2430.3
-1863.14 -128.49 2478.1
-1835.18 -129.69 2501.3
-1827.42 -129.60 2499.5
-1783.77 -126.96 2448.5
-1771.39 -126.53 2440.2
-1744.40 -125.05 2411.6
-1749.30 -127.22 2453.6
-1725.98 -125.98 2429.7
-1739.68 -127.45 2457.9
-1760.75 -129.47 2496.9
-1751.82 -129.29 2493.4
-1722.85 -127.62 2461.2
-1724.84 -128.24 2473.2
-1717.09 -128.14 2471.3
-1681.75 -126.45 2438.6
-1686.51 -127.28 2454.8
-1665.60 -127.14 2452.1
-1666.28 -127.68 2462.5
-1612.21 -128.98 2487.4
-1602.81 -131.38 2533.7
-1546.99 -127.32 2455.5
-1591.80 -131.55 2537.1
-1486.91 -125.48 2419.9
-1490.70 -128.51 2478.4
-1482.86 -130.08 2508.6
-1430.06 -127.12 2451.5
-1411.17 -128.87 2485.4
-1368.43 -125.54 2421.2
-1368.16 -126.68 2443.1
-1404.67 -130.67 2520.0
-1400.64 -130.90 2524.5
-1350.71 -126.83 2446.0
-1313.69 -126.93 2447.9
-1334.32 -130.82 2522.9
-1311.06 -129.17 2491.1
-1273.08 -126.05 2430.9
-1245.62 -130.43 2515.5
-1220.16 -129.12 2490.1
-1206.22 -129.01 2488.0
-1183.60 -128.65 2481.1
-1156.94 -126.44 2438.5
-1185.19 -130.96 2525.7
-1099.63 -127.12 2451.7
-1084.56 -126.11 2432.2
-1067.50 -126.33 2436.4
-1093.38 -130.94 2525.4
-1040.68 -126.14 2432.8
-1040.38 -129.24 2492.5
-1038.94 -131.51 2536.3
-957.55 -127.67 2462.3
-881.04 -132.49 2555.1
-868.97 -131.66 2539.2
-866.40 -133.29 2570.6
-737.67 -128.29 2474.2
-730.53 -130.45 2515.8
-704.83 -131.74 2540.8
-664.58 -127.80 2464.8
-662.85 -129.97 2506.6
-617.31 -132.76 2560.3
-584.39 -127.04 2450.1
-559.48 -128.62 2480.4
-549.22 -127.73 2463.3
-534.48 -127.26 2454.3
-551.93 -133.00 2564.9
-524.42 -129.49 2497.2
-507.79 -128.55 2479.3
-491.72 -127.72 2463.2
-485.77 -127.83 2465.3
-477.66 -130.87 2523.9
-460.71 -127.98 2468.1
-462.12 -130.17 2510.5
-468.12 -133.75 2579.5
-452.50 -131.16 2529.5
-431.75 -126.98 2449.0
-419.75 -127.20 2453.1
-396.87 -130.12 2509.5
-400.50 -133.50 2574.6
-381.29 -129.25 2492.7
-286.54 -127.35 2456.1
-280.48 -127.49 2458.8
-277.51 -132.15 2548.5
-242.98 -131.34 2533.0
-213.59 -129.45 2496.5
-211.05 -131.90 2543.9
-192.83 -128.55 2479.2
-174.06 -128.93 2486.6
-170.80 -131.38 2533.9
-163.35 -130.68 2520.3
-145.64 -132.40 2553.4
-139.20 -132.57 2556.8
-98.18 -130.91 2524.7
-65.64 -131.28 2531.7
-38.91 -129.70 2501.3
-32.10 -128.41 2476.5
-25.63 -128.15 2471.5
-19.25 -128.31 2474.6
-13.19 -131.94 2544.5
-6.58 -131.63 2538.6
86.08 -132.44 2554.1
93.38 -133.41 2572.9
97.87 -130.50 2516.7
193.32 -133.33 2571.3
218.70 -128.65 2481.1
225.26 -128.72 2482.5
238.59 -128.97 2487.3
252.52 -132.90 2563.2
255.08 -130.81 2522.8
256.30 -128.15 2471.4
270.37 -128.75 2483.0
284.14 -132.16 2548.8
295.99 -134.54 2594.7
299.16 -132.96 2564.2
300.39 -130.60 2518.8
314.56 -133.85 2581.5
317.57 -132.32 2551.9
341.31 -131.27 2531.7
361.26 -133.80 2580.4
415.06 -129.71 2501.5
420.87 -129.50 2497.5
435.42 -131.94 2544.6
445.24 -132.91 2563.2
451.69 -132.85 2562.1
465.45 -132.99 2564.7
485.86 -131.31 2532.5
491.17 -129.26 2492.8
512.25 -133.05 2566.0
508.74 -130.45 2515.8
515.61 -130.53 2517.4
525.52 -131.38 2533.7
605.70 -134.60 2595.9
600.39 -131.95 2544.8
593.42 -129.01 2488.0
607.27 -129.21 2491.8
637.48 -134.21 2588.3
636.57 -132.62 2557.6
642.32 -132.44 2554.1
650.26 -132.71 2559.4
646.56 -130.62 2519.1
644.41 -128.88 2485.6
655.00 -129.70 2501.4
660.30 -129.47 2496.9
667.37 -129.59 2499.2
699.42 -134.50 2594.0
688.63 -131.17 2529.7
730.25 -132.77 2560.6
761.81 -134.83 2600.4
768.30 -132.47 2554.7
768.28 -131.33 2532.8
760.26 -128.86 2485.1
774.10 -130.10 2509.1
793.68 -132.28 2551.1
809.57 -133.81 2580.7
796.08 -130.50 2516.9
802.01 -130.41 2515.0
850.63 -132.91 2563.3
854.72 -130.49 2516.6
890.31 -134.90 2601.6
875.83 -131.70 2540.0
921.00 -135.44 2612.1
932.24 -134.13 2586.9
982.53 -131.00 2526.5
1027.90 -134.37 2591.3
1023.47 -132.06 2546.9
1057.61 -135.59 2615.0
1050.95 -131.37 2533.5
1064.24 -132.20 2549.6
1046.27 -129.17 2491.1
1093.18 -133.31 2571.1
1112.57 -134.86 2600.8
1079.57 -130.07 2508.5
1102.11 -131.99 2545.5
1097.37 -129.10 2489.8
1162.42 -133.61 2576.8
1185.71 -135.51 2613.4
1182.20 -134.34 2590.9
1166.51 -131.81 2542.0
1154.78 -129.75 2502.3
1210.59 -133.03 2565.6
1197.47 -129.46 2496.7
1248.21 -132.79 2560.9
1312.88 -135.35 2610.3
1332.65 -135.29 2609.3
1313.84 -132.71 2559.4
1337.50 -132.43 2553.9
1351.58 -131.22 2530.7
1416.29 -136.18 2626.4
1406.80 -134.62 2596.3
1389.55 -132.34 2552.2
1400.88 -132.79 2560.9
1400.21 -132.10 2547.6
1436.28 -133.61 2576.7
1468.00 -135.30 2609.3
1447.71 -131.61 2538.2
1437.28 -130.07 2508.5
1465.45 -130.84 2523.4
1493.49 -132.75 2560.3
1534.09 -133.98 2583.9
1553.36 -135.07 2605.0
1526.52 -132.17 2548.9
1509.23 -130.11 2509.2
1550.16 -133.06 2566.2
1589.23 -135.83 2619.6
1615.30 -136.89 2640.0
1541.30 -130.07 2508.4
1618.83 -134.34 2590.9
1607.72 -132.87 2562.5
1630.65 -131.50 2536.1
1635.84 -131.39 2534.0
1623.62 -129.89 2505.0
1654.06 -131.27 2531.7
1656.77 -129.94 2506.0
1728.69 -135.05 2604.6
1733.46 -132.83 2561.8
1762.16 -134.52 2594.2
1802.37 -136.54 2633.3
1770.81 -133.65 2577.5
1827.07 -134.84 2600.5
1825.24 -134.21 2588.3
1816.89 -131.66 2539.1
1904.26 -136.51 2632.6
1821.28 -130.09 2508.9
1956.08 -135.37 2610.7
1980.82 -136.61 2634.6
1939.22 -131.03 2527.0
1967.45 -131.60 2538.0
1959.29 -130.62 2519.1
2020.99 -133.84 2581.2
2025.14 -133.67 2578.0
1994.01 -131.19 2530.0
2053.83 -134.68 2597.4
2095.23 -136.94 2641.0
2088.85 -136.08 2624.4
2055.60 -133.48 2574.3
2013.45 -130.32 2513.3
2066.14 -132.45 2554.3
2068.89 -132.20 2549.5
2093.73 -131.68 2539.6
2174.70 -136.34 2629.5
-1995.59 -131.37 2412.9
-2020.47 -133.43 2450.7
-2021.75 -133.93 2460.0
-1977.38 -133.09 2444.6
-1950.33 -131.69 2418.9
-1925.66 -131.72 2419.4
-1828.15 -132.38 2431.5
-1847.89 -137.61 2527.5
-1797.64 -134.82 2476.3
-1748.23 -132.54 2434.4
-1736.63 -133.59 2453.6
-1716.84 -132.55 2434.6
-1729.25 -135.00 2479.5
-1749.09 -138.09 2536.3
-1658.63 -131.44 2414.2
-1651.41 -132.36 2431.2
-1660.52 -133.61 2454.0
-1631.85 -136.53 2507.7
-1605.88 -135.44 2487.6
-1578.95 -135.34 2485.8
-1565.47 -135.29 2484.9
-1507.15 -133.55 2452.9
-1509.83 -134.92 2478.1
-1461.20 -132.26 2429.3
-1502.24 -136.57 2508.4
-1453.44 -132.71 2437.5
-1450.55 -135.38 2486.7
-1423.39 -134.04 2462.0
-1374.68 -132.42 2432.3
-1387.03 -134.23 2465.4
-1370.45 -133.24 2447.2
-1359.29 -132.77 2438.6
-1319.67 -131.97 2423.9
-1338.13 -134.45 2469.5
-1309.30 -132.83 2439.7
-1341.08 -136.71 2511.0
-1293.81 -132.54 2434.4
-1269.94 -134.01 2461.5
-1253.83 -137.14 2518.8
-1217.87 -136.04 2498.7
-1176.03 -132.07 2425.7
-1174.88 -133.36 2449.5
-1187.76 -135.56 2489.9
-1103.55 -137.94 2533.7
-1065.08 -133.93 2460.0
-1032.84 -135.56 2489.9
-1040.26 -137.39 2523.5
-1011.56 -134.45 2469.5
-923.55 -133.76 2456.7
-872.01 -132.70 2437.3
-909.86 -139.47 2561.6
-870.65 -135.43 2487.6
-865.87 -135.70 2492.4
-861.08 -135.96 2497.2
-840.41 -133.70 2455.7
-852.04 -136.59 2508.7
-850.48 -138.45 2543.0
-730.45 -133.39 2449.9
-725.17 -133.58 2453.6
-709.55 -133.04 2443.6
-705.63 -133.50 2452.0
-703.37 -135.51 2489.0
-713.00 -138.64 2546.4
-602.93 -134.70 2474.0
-611.15 -138.00 2534.7
-590.10 -134.70 2474.0
-549.13 -138.94 2551.9
-537.82 -137.73 2529.8
-523.75 -139.23 2557.2
-506.71 -138.19 2538.2
-488.12 -136.67 2510.3
-485.23 -137.70 2529.2
-463.25 -138.97 2552.6
-453.67 -138.07 2536.0
-428.62 -136.38 2504.9
-431.43 -139.39 2560.2
-411.08 -134.89 2477.5
-291.01 -135.81 2494.4
-290.18 -138.49 2543.8
-285.88 -139.61 2564.3
-266.77 -133.38 2449.9
-252.13 -135.76 2493.6
-238.20 -138.95 2552.1
-227.67 -136.60 2509.0
-225.77 -139.45 2561.3
-180.96 -135.72 2492.8
-180.10 -140.08 2572.9
-166.81 -134.74 2474.7
-142.21 -135.74 2493.3
-114.83 -133.97 2460.7
-101.93 -133.78 2457.3
-84.83 -137.03 2516.8
-79.40 -138.94 2552.0
-72.16 -137.76 2530.2
-66.53 -139.72 2566.3
-59.77 -139.46 2561.5
-39.32 -137.63 2528.0
-32.78 -137.69 2529.0
