ply
format ascii 1.0
element vertex 2169
property float x
property float y
property float z
end_header
-355.65 477.90 4286.8
-340.78 472.70 4240.1
-335.48 480.86 4313.3
-304.67 467.89 4197.0
-224.93 460.57 4131.3
-156.20 479.76 4303.5
-99.09 473.41 4246.5
-22.09 474.97 4260.5
-10.95 470.77 4222.8
11.06 475.75 4267.5
141.27 467.29 4191.7
406.29 472.17 4235.4
636.50 463.89 4161.1
823.17 478.33 4290.6
828.39 474.94 4260.3
837.49 473.85 4250.4
918.67 464.74 4168.8
1017.68 480.88 4313.6
1009.48 466.75 4186.8
1152.17 467.39 4192.5
1206.76 476.06 4270.3
1366.86 481.76 4321.5
1495.89 466.11 4181.1
1567.52 474.67 4257.9
1604.22 482.39 4327.1
1589.03 474.50 4256.3
1610.97 477.74 4285.3
1618.95 467.21 4190.9
1803.48 467.17 4190.5
1910.37 480.39 4309.1
2022.27 477.79 4285.8
-2239.36 450.02 4132.8
-2129.62 454.03 4169.7
-2062.08 444.14 4078.8
-1997.20 455.88 4186.7
-1984.49 455.46 4182.8
-1935.63 456.72 4194.4
-1837.70 443.58 4073.7
-1913.60 464.57 4266.5
-1815.20 443.25 4070.6
-1891.87 464.67 4267.4
-1755.37 457.92 4205.4
-1677.94 446.03 4096.2
-1465.06 452.45 4155.1
-1439.68 447.90 4113.4
-1386.41 444.50 4082.1
-1444.25 466.61 4285.2
-1299.48 466.48 4284.0
-1263.16 461.33 4236.7
-1208.80 445.35 4089.9
-1081.59 445.36 4090.0
-1074.33 460.43 4228.4
-936.52 446.97 4104.9
-925.31 462.65 4248.9
-920.84 465.97 4279.3
-867.13 455.24 4180.8
-817.23 457.65 4202.9
-801.66 455.00 4178.5
-783.25 450.64 4138.5
-677.73 459.10 4216.3
-675.29 464.96 4270.0
-656.54 459.58 4220.6
-536.42 450.60 4138.1
-343.83 451.27 4144.3
-243.20 464.29 4263.9
-232.23 464.47 4265.5
-166.19 465.34 4273.5
-98.07 457.66 4203.0
-22.24 466.98 4288.6
-10.95 459.95 4224.0
11.11 466.77 4286.6
55.11 462.94 4251.5
65.82 460.76 4231.5
133.08 465.79 4277.7
141.92 458.50 4210.7
216.93 455.56 4183.7
257.39 450.43 4136.6
341.83 463.13 4253.2
346.79 455.16 4180.0
355.34 452.26 4153.4
465.78 465.78 4277.6
484.11 451.83 4149.5
558.97 451.48 4146.2
581.03 460.44 4228.5
637.65 461.75 4240.5
658.77 468.96 4306.7
717.58 463.66 4258.1
813.39 467.98 4297.7
828.26 470.10 4317.2
814.57 456.16 4189.2
829.84 452.64 4156.9
1001.47 467.35 4292.0
1210.86 466.57 4284.8
1332.59 462.55 4247.9
1351.09 453.97 4169.1
1638.18 458.69 4212.5
1912.46 467.00 4288.7
1872.47 454.59 4174.8
2095.23 468.08 4298.7
-2356.27 429.36 4039.3
-2269.59 430.80 4052.8
-2307.62 440.06 4139.9
-2259.36 436.95 4110.7
-2293.90 452.16 4253.8
-2111.05 443.86 4175.7
-1994.92 430.48 4049.8
-2017.05 444.62 4182.8
-1984.98 439.91 4138.6
-2027.22 451.72 4249.6
-1953.79 437.73 4118.1
-1951.41 439.60 4135.6
-1946.84 441.00 4148.8
-1843.03 434.28 4085.5
-1839.46 441.04 4149.2
-1868.57 450.66 4239.6
-1735.84 442.05 4158.6
-1667.90 444.05 4177.5
-1642.02 440.02 4139.5
-1691.09 456.15 4291.3
-1542.43 436.14 4103.0
-1563.71 445.22 4188.5
-1564.19 448.47 4219.1
-1552.14 448.15 4216.1
-1518.91 441.67 4155.1
-1510.31 451.99 4252.2
-1491.56 449.66 4230.3
-1410.48 451.80 4250.3
-1296.15 435.59 4097.9
-1273.79 438.87 4128.7
-1271.28 449.33 4227.2
-1249.27 445.39 4190.1
-1217.00 437.69 4117.7
-1205.36 449.27 4226.6
-1149.43 448.82 4222.4
-1109.44 437.37 4114.7
-1005.68 438.65 4126.6
-1010.72 445.58 4191.9
-988.76 445.48 4191.0
-891.23 445.62 4192.2
-854.44 437.90 4119.6
-827.89 452.58 4257.7
-808.81 448.12 4215.8
-784.38 440.54 4144.5
-557.13 439.27 4132.5
-447.90 447.90 4213.7
-378.61 443.52 4172.4
-353.75 439.50 4134.7
-219.15 449.27 4226.5
-187.27 451.65 4249.0
-148.86 435.94 4101.2
-43.25 443.29 4170.3
-11.11 455.36 4283.9
99.84 454.81 4278.7
236.64 441.01 4148.9
249.43 444.64 4183.0
345.40 442.55 4163.3
461.39 450.40 4237.2
486.24 453.09 4262.5
515.32 449.53 4229.1
531.77 454.22 4273.1
702.99 457.50 4304.0
724.81 450.26 4235.9
743.81 441.97 4157.9
813.30 450.61 4239.2
925.27 457.06 4299.9
1093.81 452.99 4261.6
1126.01 443.91 4176.1
1387.16 447.82 4213.0
1410.00 448.14 4215.9
1429.95 447.54 4210.3
1537.62 453.54 4266.8
1545.03 452.47 4256.7
1661.18 448.08 4215.4
1829.91 451.97 4251.9
1899.46 442.49 4162.8
2025.01 448.79 4222.0
2040.40 449.77 4231.2
2325.96 445.63 4192.3
2389.06 455.59 4286.0
-2441.24 420.90 4058.7
-2525.09 437.24 4216.3
-2426.01 423.76 4086.2
-2285.15 423.18 4080.6
-2328.46 433.20 4177.3
-2295.33 433.08 4176.1
-2221.12 427.14 4118.8
-2162.63 432.53 4170.8
-2094.27 420.96 4059.2
-2042.41 425.50 4103.1
-1963.00 422.15 4070.7
-1931.45 424.49 4093.3
-1914.00 425.33 4101.4
-1780.26 418.89 4039.3
-1738.31 426.58 4113.5
-1720.93 430.23 4148.7
-1635.07 419.25 4042.8
-1595.15 419.78 4047.8
-1578.15 423.66 4085.3
-1570.69 424.51 4093.5
-1483.40 420.82 4057.9
-1489.28 431.67 4162.6
-1459.81 429.36 4140.2
-1446.62 441.72 4259.4
-1335.21 420.54 4055.2
-1390.90 441.56 4257.9
-1341.33 429.23 4139.0
-1284.77 428.26 4129.6
-1302.86 437.93 4222.9
-1221.25 428.51 4132.0
-1232.64 436.33 4207.5
-1166.53 420.37 4053.6
-1206.60 442.79 4269.7
-1168.16 432.65 4172.0
-1161.83 434.33 4188.2
-1171.51 442.08 4262.9
-1115.22 424.84 4096.7
-1097.95 426.39 4111.6
-1068.93 423.34 4082.2
-1012.89 422.04 4069.7
-889.72 428.78 4134.7
-867.05 422.95 4078.5
-898.22 443.57 4277.3
-877.69 438.84 4231.7
-836.62 423.60 4084.7
-820.92 426.45 4112.2
-769.60 421.70 4066.4
-747.51 433.34 4178.6
-708.05 429.12 4138.0
-702.91 432.56 4171.1
-658.98 425.15 4099.7
-620.24 427.75 4124.8
-589.09 428.43 4131.3
-222.84 424.46 4093.0
-137.74 423.81 4086.8
-132.57 441.89 4261.1
-118.07 429.35 4140.1
-97.80 434.66 4191.4
-87.21 436.03 4204.6
-76.15 435.12 4195.8
-65.38 435.86 4203.0
-10.70 428.18 4128.8
42.59 425.89 4106.8
55.48 443.82 4279.7
76.11 434.91 4193.8
210.82 443.84 4279.9
343.45 443.16 4273.4
505.00 439.13 4234.4
514.22 428.52 4132.1
533.77 427.02 4117.6
555.87 435.98 4204.1
575.41 426.23 4110.1
633.25 429.32 4139.9
735.96 432.92 4174.6
773.52 435.79 4202.2
811.81 427.27 4120.1
876.77 427.69 4124.2
903.33 435.34 4197.9
913.19 429.73 4143.9
936.50 430.57 4152.0
986.95 433.83 4183.3
1009.69 438.99 4233.2
1035.30 435.92 4203.5
1067.62 431.36 4159.6
1125.94 437.26 4216.4
1404.28 432.09 4166.5
1434.78 438.10 4224.5
1448.27 429.12 4137.9
1516.39 436.37 4207.9
1680.97 433.80 4183.1
1778.32 431.11 4157.1
1827.00 432.43 4169.8
1850.53 435.42 4198.7
1878.65 431.87 4164.5
1924.24 439.83 4241.2
1910.63 434.23 4187.3
2020.95 434.61 4190.9
-2414.50 405.89 4014.3
-2522.00 425.79 4211.1
-2438.69 415.32 4107.6
-2320.65 419.01 4144.0
-2326.50 422.02 4173.8
-2158.24 410.59 4060.8
-2151.62 419.57 4149.5
-2097.47 415.23 4106.7
-2029.26 405.85 4013.9
-2008.15 405.79 4013.3
-2110.75 428.75 4240.3
-2003.22 415.56 4110.0
-2023.12 424.20 4195.4
-1946.74 424.15 4194.9
-1939.55 427.36 4226.6
-1849.17 414.47 4099.2
-1800.23 415.44 4108.7
-1754.29 407.25 4027.7
-1768.03 412.89 4083.6
-1779.95 418.18 4135.9
-1641.79 410.45 4059.4
-1569.27 413.52 4089.8
-1567.80 415.95 4113.8
-1583.14 422.89 4182.5
-1566.27 421.27 4166.4
-1463.08 410.50 4059.9
-1422.31 423.44 4187.8
-1402.46 424.00 4193.4
-1346.23 423.41 4187.6
-1318.38 424.93 4202.6
-1311.09 429.69 4249.6
-1234.64 415.09 4105.3
-1237.09 419.53 4149.2
-1206.88 412.88 4083.4
-1170.40 411.22 4067.0
-1207.86 428.24 4235.4
-1170.08 418.65 4140.5
-1093.09 417.95 4133.5
-1029.63 413.98 4094.3
-1036.94 421.26 4166.3
-1001.53 411.15 4066.3
-985.00 417.56 4129.7
-947.36 415.13 4105.7
-875.89 427.00 4223.0
-784.66 413.54 4089.9
-720.87 419.61 4150.0
-624.25 419.75 4151.4
-562.66 414.03 4094.8
-563.00 422.25 4176.1
-515.50 410.29 4057.9
-499.83 423.76 4191.1
-455.27 422.75 4181.1
-436.04 414.77 4102.1
-422.95 412.38 4078.4
-174.10 424.36 4197.0
-128.80 418.59 4139.9
-117.05 415.00 4104.4
-84.40 411.46 4069.4
-77.14 429.79 4250.6
-54.24 423.08 4184.3
-42.83 417.56 4129.7
-32.96 428.43 4237.3
-22.04 429.85 4251.3
64.25 417.63 4130.4
86.82 423.23 4185.8
106.37 414.83 4102.7
192.20 416.43 4118.5
319.42 429.56 4248.4
467.42 423.94 4192.8
479.50 425.01 4203.4
503.92 418.14 4135.5
526.52 427.80 4231.0
540.17 421.34 4167.1
542.32 414.71 4101.6
671.63 422.48 4178.3
714.50 428.70 4239.9
772.39 418.38 4137.8
842.17 426.55 4218.7
930.98 427.15 4224.6
966.60 423.57 4189.1
1024.20 416.08 4115.1
1182.23 415.38 4108.1
1216.77 423.70 4190.4
1222.87 422.05 4174.1
1360.98 424.63 4199.6
1375.31 415.79 4112.2
1678.99 417.07 4124.9
1745.29 417.59 4130.0
1773.08 421.65 4170.1
1924.10 419.22 4146.1
2398.75 429.13 4244.2
2554.72 420.40 4157.8
-2425.09 400.67 4066.9
-2361.96 397.14 4031.1
-2333.56 394.11 4000.4
-2198.80 405.60 4117.0
-2077.23 402.73 4087.9
-2093.42 414.32 4205.5
-1981.57 398.41 4044.0
-1955.19 403.79 4098.6
-1989.20 413.06 4192.7
-1992.20 415.95 4222.1
-1929.58 414.26 4204.9
-1806.88 396.89 4028.5
-1770.19 395.69 4016.4
-1839.79 413.68 4199.0
-1803.58 407.95 4140.9
-1834.90 417.52 4238.0
-1791.24 412.53 4187.3
-1673.25 415.58 4218.3
-1537.30 397.40 4033.7
-1579.42 416.79 4230.6
-1546.58 410.98 4171.6
-1528.45 409.02 4151.7
-1479.29 398.67 4046.7
-1413.85 403.96 4100.3
-1375.57 399.02 4050.2
-1363.94 401.78 4078.2
-1332.44 405.06 4111.5
-1288.21 411.36 4175.5
-1273.94 410.25 4164.2
-1240.37 406.33 4124.4
-1208.36 399.28 4052.9
-1172.05 401.24 4072.8
-1173.55 412.92 4191.3
-1104.39 407.45 4135.7
-1031.82 404.22 4103.0
-997.01 398.80 4048.0
-1014.67 410.19 4163.6
-955.36 417.28 4235.6
-923.92 413.05 4192.6
-888.34 401.87 4079.1
-807.89 398.70 4046.9
-786.15 398.32 4043.1
-734.60 410.51 4166.9
-706.06 406.52 4126.3
-614.64 402.69 4087.5
-600.05 400.03 4060.5
-576.12 405.42 4115.1
-557.38 399.63 4056.4
-536.73 407.91 4140.5
-533.19 413.49 4197.1
-475.34 410.52 4166.9
-464.45 410.44 4166.1
-456.04 412.60 4188.1
-405.43 405.43 4115.3
-351.51 417.42 4237.0
-340.44 417.31 4235.9
-323.74 410.07 4162.3
-313.45 410.73 4169.1
-295.21 400.64 4066.7
-273.89 416.31 4225.7
-262.85 416.18 4224.4
-162.58 411.87 4180.6
-117.11 404.56 4106.5
-85.81 407.58 4137.1
-74.58 404.86 4109.4
73.62 399.66 4056.7
120.15 415.05 4212.9
129.76 410.90 4170.8
137.11 400.77 4068.0
173.19 411.34 4175.2
228.64 413.73 4199.5
239.21 413.18 4193.9
254.14 402.39 4084.4
266.87 405.65 4117.5
280.98 410.67 4168.4
349.87 415.47 4217.2
386.31 407.77 4139.1
396.95 407.68 4138.1
463.46 409.57 4157.2
510.06 412.39 4185.9
690.70 416.61 4228.8
759.14 406.30 4124.1
822.31 405.81 4119.2
874.69 415.48 4217.3
1142.17 413.36 4195.7
1372.65 417.29 4235.6
1351.36 407.55 4136.8
1355.76 405.66 4117.6
1392.04 413.26 4194.8
1405.67 407.75 4138.8
1446.24 416.34 4226.0
1494.13 408.47 4146.1
1527.49 411.67 4178.6
1721.78 416.74 4230.0
1763.33 408.58 4147.2
1800.40 407.23 4133.6
1864.17 419.16 4254.7
1824.82 407.90 4140.3
2144.72 407.50 4136.2
2188.16 413.68 4199.0
2313.86 408.96 4151.1
2342.03 412.02 4182.2
2365.93 414.31 4205.4
2580.76 413.79 4200.2
-2416.69 393.91 4106.4
-2253.28 397.01 4138.7
-2262.65 402.49 4195.8
-2227.40 400.07 4170.6
-2083.19 401.45 4185.0
-2089.94 404.86 4220.5
-1968.38 385.34 4017.1
-1935.86 389.28 4058.1
-1931.10 390.44 4070.2
-1874.01 383.09 3993.6
-1876.28 394.45 4112.0
-1836.15 388.21 4047.0
-1822.10 387.46 4039.1
-1851.69 396.03 4128.5
-1781.08 383.14 3994.1
-1800.70 391.92 4085.6
-1830.58 400.78 4178.0
-1796.06 405.21 4224.2
-1691.80 386.40 4028.1
-1678.31 390.55 4071.4
-1687.38 395.15 4119.3
-1606.80 391.13 4077.4
-1626.67 398.59 4155.2
-1536.24 389.32 4058.6
-1493.73 383.80 4001.1
-1540.34 398.55 4154.8
-1530.51 398.79 4157.3
-1462.18 383.69 3999.9
-1431.36 386.57 4029.9
-1474.72 401.21 4182.5
-1440.71 394.86 4116.3
-1397.93 388.90 4054.2
-1406.90 394.36 4111.1
-1331.19 384.80 4011.4
-1288.94 384.60 4009.4
-1325.24 405.24 4224.5
-1235.49 387.40 4038.5
-1265.49 400.20 4172.0
-1259.57 405.25 4224.6
-1200.24 403.72 4208.6
-1178.66 403.80 4209.5
-1127.62 401.17 4182.1
-1004.97 387.33 4037.8
-1006.29 391.92 4085.7
-1007.13 396.42 4132.6
-994.21 395.54 4123.4
-981.09 394.57 4113.2
-960.01 390.33 4069.1
-926.07 403.11 4202.3
-898.51 395.77 4125.8
-855.69 395.76 4125.7
-774.04 397.77 4146.7
-717.15 390.21 4067.9
-698.39 385.68 4020.6
-697.00 390.74 4073.4
-681.10 387.71 4041.7
-649.57 400.57 4175.8
-625.89 399.27 4162.3
-582.89 399.38 4163.5
-472.52 397.35 4142.2
-449.78 387.02 4034.6
-445.48 392.45 4091.1
-449.20 405.37 4225.9
-418.44 387.06 4034.9
-397.62 397.62 4145.0
-393.90 404.84 4220.4
-367.85 388.87 4053.8
-362.14 394.09 4108.3
-328.06 404.61 4218.0
-303.76 387.55 4040.1
-274.09 405.65 4228.8
-227.23 400.36 4173.7
-210.52 389.45 4059.9
-182.55 397.32 4142.0
-159.14 392.54 4092.1
-137.54 391.47 4081.0
-109.62 405.59 4228.2
-98.45 404.76 4219.5
-63.22 389.83 4063.9
-21.17 391.59 4082.2
-10.72 396.65 4135.0
0.00 401.24 4182.8
10.81 399.90 4168.8
108.20 400.34 4173.4
149.74 395.73 4125.4
180.63 393.13 4098.2
193.22 397.18 4140.5
232.81 391.54 4081.7
245.25 394.53 4112.8
253.27 390.46 4070.5
263.46 389.92 4064.9
300.18 396.67 4135.2
378.64 400.28 4172.8
395.43 395.43 4122.2
433.02 400.54 4175.5
451.66 388.64 4051.4
479.63 403.33 4204.6
479.54 394.29 4110.4
568.67 389.64 4061.9
636.41 392.46 4091.2
668.07 405.22 4224.3
676.74 397.45 4143.3
705.09 401.36 4184.1
768.51 400.49 4175.0
807.99 393.36 4100.7
811.20 389.80 4063.5
825.87 391.76 4084.0
850.62 398.39 4153.1
886.22 390.36 4069.4
913.86 397.80 4146.9
937.91 394.35 4111.0
1203.99 401.33 4183.7
1202.16 393.63 4103.5
1216.04 391.25 4078.6
1278.02 400.73 4177.5
1314.54 392.24 4089.0
1351.47 400.04 4170.3
1375.73 397.67 4145.6
1411.11 398.56 4154.8
1445.89 399.24 4161.9
1497.52 395.77 4125.8
1513.99 394.49 4112.4
1556.61 402.76 4198.7
1540.41 395.80 4126.1
1625.27 406.32 4235.7
1652.81 402.33 4194.2
1706.74 404.80 4220.0
1702.11 398.60 4155.2
1763.71 397.91 4148.1
1873.19 396.05 4128.7
1970.82 398.47 4154.0
1980.90 398.33 4152.5
2104.28 397.24 4141.1
2560.65 403.17 4202.9
-2332.19 369.86 3962.8
-2241.71 370.19 3966.3
-2130.67 370.55 3970.2
-2180.26 390.49 4183.9
-2074.27 388.93 4167.1
-2049.45 390.37 4182.5
-1738.26 383.91 4113.3
-1715.55 386.00 4135.7
-1671.44 378.44 4054.7
-1633.12 374.47 4012.2
-1615.55 380.13 4072.8
-1581.26 376.99 4039.2
-1458.73 372.44 3990.4
-1498.86 385.42 4129.5
-1483.35 389.79 4176.3
-1371.08 373.93 4006.4
-1359.18 379.31 4064.0
-1293.45 381.67 4089.4
-1272.17 378.50 4055.3
-1249.32 391.09 4190.3
-1190.20 375.85 4027.0
-1157.17 385.72 4132.8
-1102.59 385.37 4129.0
-1076.25 383.61 4110.1
-999.34 386.84 4144.7
-978.08 382.73 4100.6
-923.18 373.42 4000.9
-924.61 378.25 4052.7
-933.20 390.64 4185.5
-916.85 388.31 4160.5
-893.36 392.21 4202.2
-702.99 377.73 4047.1
-685.08 385.36 4128.8
-638.05 376.56 4034.5
-636.72 382.03 4093.2
-580.54 387.03 4146.7
-528.28 380.36 4075.3
-510.23 374.86 4016.4
-490.39 392.31 4203.3
-428.15 375.94 4027.9
-402.09 391.22 4191.6
-377.53 377.53 4044.9
-357.59 378.63 4056.7
-303.31 376.52 4034.1
-237.57 388.75 4165.2
-223.61 383.33 4107.1
-216.08 388.95 4167.3
-95.60 382.39 4097.1
-64.18 385.05 4125.6
-53.21 383.12 4104.8
-43.17 388.52 4162.7
-31.78 381.37 4086.1
-21.26 382.68 4100.1
41.87 376.81 4037.2
53.77 387.11 4147.6
63.53 381.15 4083.8
105.49 379.77 4069.0
158.75 381.00 4082.2
169.15 380.59 4077.8
223.77 383.61 4110.1
359.12 391.77 4197.5
381.87 381.87 4091.5
391.34 380.76 4079.6
420.90 378.81 4058.7
558.36 386.56 4141.7
634.12 380.47 4076.5
666.95 381.12 4083.4
781.85 380.36 4075.3
817.13 392.22 4202.4
969.83 383.67 4110.8
1039.85 381.99 4092.7
1063.44 386.70 4143.3
1101.95 381.44 4086.9
1118.25 379.78 4069.1
1465.82 393.80 4219.3
1528.39 379.46 4065.7
1605.39 387.88 4155.8
1794.34 391.49 4194.6
1991.29 391.73 4197.1
2107.82 381.31 4085.5
-2379.57 357.45 3939.2
-2387.60 363.33 4004.0
-2260.26 362.89 3999.2
-2215.51 367.50 4050.0
-2073.80 361.11 3979.6
-2040.58 358.90 3955.2
-2037.92 360.24 3970.0
-2085.21 372.36 4103.6
-2088.82 376.85 4153.0
-2028.79 375.70 4140.4
-1942.37 361.61 3985.1
-1945.30 364.09 4012.5
-1974.52 371.55 4094.6
-1992.60 376.98 4154.5
-1904.59 370.34 4081.3
-1877.84 367.17 4046.4
-1796.96 367.80 4053.3
-1749.53 368.88 4065.2
-1767.65 374.96 4132.2
-1735.37 379.61 4183.5
-1640.64 361.15 3980.0
-1587.01 365.43 4027.2
-1527.07 361.13 3979.8
-1494.01 363.13 4001.8
-1514.79 376.01 4143.8
-1427.17 370.01 4077.6
-1429.44 379.02 4176.9
-1415.56 378.20 4168.0
-1357.49 365.48 4027.7
-1387.91 376.56 4149.9
-1316.43 368.60 4062.1
-1284.62 362.60 3996.0
-1304.88 371.31 4092.0
-1220.29 361.95 3988.8
-1253.62 375.01 4132.8
-1176.64 364.45 4016.4
-1112.34 377.98 4165.5
-1101.23 377.87 4164.3
-1024.30 362.12 3990.8
-1020.46 364.45 4016.4
-994.15 370.16 4079.3
-963.88 370.72 4085.5
-922.79 375.56 4138.8
-818.55 367.30 4047.8
-811.77 368.99 4066.4
-734.25 361.95 3988.9
-732.36 376.95 4154.1
-694.86 380.00 4187.8
-660.20 366.78 4042.0
-648.88 366.30 4036.8
-639.14 366.72 4041.4
-621.71 362.66 3996.7
-618.66 367.00 4044.5
-560.49 370.14 4079.1
-537.23 368.69 4063.1
-474.44 377.40 4159.0
-455.62 370.86 4087.0
-440.84 367.37 4048.5
-432.25 369.00 4066.5
-422.23 369.45 4071.5
-388.30 367.31 4047.9
-340.24 372.14 4101.1
-320.19 373.55 4116.7
-291.17 363.96 4011.0
-287.64 372.86 4109.1
-268.68 376.15 4145.3
-217.42 380.49 4193.2
-42.37 370.77 4086.0
-32.38 377.82 4163.8
-21.20 370.96 4088.1
-10.83 379.19 4178.8
0.00 378.56 4171.9
31.95 372.76 4108.0
42.03 367.78 4053.1
167.75 366.95 4043.9
205.40 378.37 4169.8
219.82 366.36 4037.5
250.11 380.60 4194.3
383.07 372.43 4104.4
391.62 370.45 4082.6
408.75 376.48 4149.0
435.20 371.51 4094.2
468.34 372.55 4105.6
520.02 371.44 4093.4
543.77 380.64 4194.8
618.21 366.74 4041.6
698.67 370.51 4083.1
790.10 373.70 4118.3
797.35 372.10 4100.7
999.12 368.10 4056.6
1041.63 368.25 4058.3
1089.25 381.24 4201.4
1063.87 368.67 4062.9
1193.45 369.65 4073.7
1475.66 376.99 4154.6
1525.01 381.25 4201.6
1508.09 369.11 4067.8
1553.25 374.92 4131.8
1874.35 374.87 4131.2
2218.73 375.15 4134.3
-2390.28 348.80 3956.9
-2377.09 348.37 3952.1
-2293.91 348.18 3950.0
-2207.94 352.44 3998.3
-2132.34 348.56 3954.2
-2074.89 349.24 3962.0
-2109.53 365.94 4151.4
-2069.05 362.62 4113.7
-1930.07 349.06 3959.9
-1978.75 363.66 4125.6
-1949.00 360.14 4085.6
-1911.16 367.11 4164.7
-1839.29 357.35 4053.9
-1837.71 365.39 4145.2
-1735.46 357.61 4056.9
-1696.37 360.48 4089.5
-1690.34 361.46 4100.6
-1604.27 349.65 3966.6
-1515.32 352.88 4003.3
-1558.10 367.88 4173.5
-1385.00 348.81 3957.1
-1394.15 353.74 4013.0
-1365.69 349.12 3960.6
-1222.56 367.85 4173.1
-1160.96 355.61 4034.2
-1150.47 355.60 4034.1
-1148.37 358.21 4063.7
-1104.21 354.18 4018.0
-1112.83 360.34 4087.9
-1105.28 361.34 4099.3
-1060.96 353.65 4012.0
-1044.41 351.58 3988.6
-1014.53 355.61 4034.2
-934.34 352.97 4004.3
-909.98 355.62 4034.4
-873.37 357.77 4058.7
-882.37 365.86 4150.5
-848.99 360.82 4093.3
-805.07 360.16 4085.9
-772.81 350.34 3974.4
-723.68 351.50 3987.6
-729.06 364.53 4135.4
-665.17 353.37 4008.9
-645.23 353.84 4014.1
-652.66 363.78 4126.9
-570.26 352.52 3999.2
-559.95 352.56 3999.6
-566.72 363.56 4124.4
-542.58 361.72 4103.5
-473.76 366.08 4153.1
-436.56 362.03 4107.0
-397.42 365.20 4143.0
-327.92 359.65 4080.1
-197.02 352.56 3999.7
-129.91 368.09 4175.8
-93.62 353.68 4012.4
-10.40 353.60 4011.4
10.44 354.83 4025.4
20.91 355.53 4033.3
53.67 364.99 4140.6
96.48 364.48 4134.8
135.39 354.10 4017.2
147.10 357.23 4052.6
181.50 363.00 4118.0
192.11 362.87 4116.6
205.16 367.12 4164.8
304.94 357.52 4055.9
349.52 360.11 4085.3
426.56 353.73 4012.9
456.93 353.09 4005.6
593.72 360.48 4089.4
631.91 364.15 4131.1
719.38 359.69 4080.5
734.72 362.04 4107.1
751.26 364.90 4139.6
836.80 360.14 4085.7
853.57 353.92 4015.0
1165.65 357.05 4050.5
1199.19 357.65 4057.4
1299.40 359.18 4074.8
1331.86 365.19 4142.9
1608.15 359.72 4080.8
1721.10 359.00 4072.7
1760.48 364.98 4140.5
1834.65 358.49 4067.0
1928.89 362.33 4110.5
2219.60 364.57 4135.9
2399.57 364.22 4131.9
2385.47 360.47 4089.4
-2362.75 337.54 3945.2
-2354.72 340.82 3983.6
-2307.82 339.99 3973.9
-2264.22 338.10 3951.8
-2303.42 345.51 4038.5
-2280.72 343.67 4016.9
-2257.55 343.31 4012.8
-2061.38 336.76 3936.1
-2056.57 337.65 3946.5
-2005.80 341.19 3988.0
-1899.54 352.16 4116.2
-1868.68 348.40 4072.2
-1828.35 352.84 4124.1
-1717.00 337.27 3942.1
-1710.79 340.10 3975.2
-1722.64 353.09 4127.0
-1620.72 338.50 3956.5
-1679.56 353.03 4126.3
-1649.80 349.00 4079.2
-1535.16 337.74 3947.6
-1546.73 342.56 4004.0
-1508.62 343.34 4013.1
-1479.24 341.36 3989.9
-1422.36 340.13 3975.5
-1448.90 349.01 4079.3
-1455.41 355.77 4158.3
-1393.06 350.92 4101.7
-1351.29 351.12 4104.0
-1321.55 346.12 4045.6
-1288.46 345.68 4040.5
-1304.78 352.93 4125.2
-1254.33 350.79 4100.1
-1189.46 341.32 3989.5
-1170.58 344.90 4031.3
-1192.35 354.48 4143.3
-1077.20 338.55 3957.1
-1076.19 351.63 4109.9
-1010.43 347.33 4059.8
-1018.85 353.92 4136.7
-982.77 345.02 4032.7
-972.66 345.14 4034.1
-937.94 343.91 4019.7
-881.49 346.30 4047.7
-885.72 352.15 4116.1
-812.12 348.05 4068.2
-807.59 355.34 4153.3
-755.86 341.69 3993.8
-751.24 354.16 4139.5
-726.11 352.37 4118.7
-680.07 345.26 4035.6
-603.07 349.15 4080.9
-559.12 348.13 4069.0
-469.68 352.26 4117.4
-440.98 354.93 4148.6
-378.99 347.41 4060.6
-314.07 345.48 4038.1
-280.25 342.53 4003.6
-175.88 341.41 3990.6
-158.24 348.13 4069.1
-149.08 351.40 4107.3
-136.93 347.60 4062.9
-96.66 354.43 4142.7
-64.05 352.27 4117.5
-51.63 340.78 3983.1
21.32 351.80 4111.9
32.07 352.81 4123.8
63.29 348.10 4068.6
95.32 349.49 4085.0
126.75 348.57 4074.2
160.53 353.16 4127.8
177.72 344.99 4032.4
365.45 354.70 4145.8
366.30 345.36 4036.7
496.56 348.65 4075.1
558.57 347.79 4065.1
579.97 354.42 4142.6
648.85 345.36 4036.6
671.68 346.33 4048.1
708.11 343.64 4016.6
732.56 345.35 4036.6
754.77 350.81 4100.4
769.26 352.58 4121.0
902.59 346.34 4048.2
922.67 349.98 4090.7
1019.57 354.17 4139.6
1215.94 348.92 4078.3
1209.00 343.94 4020.1
1295.52 344.78 4029.9
1504.11 352.03 4114.6
1645.23 352.55 4120.7
1652.46 345.13 4034.0
1692.18 351.21 4105.0
1697.00 345.69 4040.5
1757.90 355.89 4159.8
1908.67 349.92 4090.0
2450.89 350.13 4092.4
-2270.12 324.30 3909.0
-2319.11 337.33 4066.0
-2193.74 329.58 3972.6
-2058.03 326.02 3929.8
-2101.18 336.19 4052.3
-1981.81 328.59 3960.7
-1913.48 330.98 3989.5
-1832.54 333.19 4016.1
-1800.88 331.20 3992.1
-1743.01 326.18 3931.6
-1723.29 328.25 3956.5
-1776.05 340.32 4102.1
-1709.29 337.64 4069.7
-1676.00 335.20 4040.4
-1595.67 325.23 3920.2
-1625.81 333.50 4019.9
-1606.42 331.65 3997.6
-1590.72 332.70 4010.2
-1557.86 332.34 4005.9
-1494.13 339.09 4087.3
-1428.97 326.62 3937.0
-1452.72 334.44 4031.2
-1468.31 340.48 4104.0
-1466.86 342.63 4129.9
-1415.84 335.61 4045.3
-1400.60 339.54 4092.7
-1370.72 337.41 4067.0
-1327.40 329.28 3969.0
-1335.03 336.38 4054.6
-1335.36 341.85 4120.6
-1228.62 333.19 4016.1
-1132.90 329.57 3972.5
-1140.46 341.07 4111.1
-1098.32 331.57 3996.6
-1111.19 338.65 4081.9
-1092.50 336.15 4051.9
-1016.27 328.49 3959.5
-1049.09 342.56 4129.1
-983.45 334.79 4035.4
-961.18 330.73 3986.4
-877.43 334.26 4029.0
-860.35 335.75 4047.0
-840.68 332.12 4003.2
-847.53 339.01 4086.3
-831.16 336.67 4058.1
-820.26 336.52 4056.2
-816.00 339.12 4087.6
-802.14 337.74 4071.0
-804.71 343.34 4138.5
-786.48 340.10 4099.4
-746.63 336.51 4056.1
-699.79 339.29 4089.7
-624.61 327.66 3949.5
-602.14 332.21 4004.4
-589.97 337.13 4063.6
-574.58 334.30 4029.5
-559.64 331.64 3997.4
-535.76 336.16 4051.9
-495.70 337.50 4068.0
-490.49 341.21 4112.8
-423.90 330.85 3987.9
-389.28 327.82 3951.4
-349.42 328.87 3964.1
-230.63 335.47 4043.6
-175.17 329.74 3974.5
-161.06 343.60 4141.7
-52.51 336.06 4050.7
-10.44 334.19 4028.1
0.00 341.38 4114.9
10.47 334.93 4037.1
30.93 329.96 3977.2
43.02 344.17 4148.5
52.34 334.99 4037.8
117.87 342.90 4133.1
127.12 338.99 4086.0
136.26 335.40 4042.8
198.92 335.02 4038.2
293.10 334.97 4037.5
442.64 337.25 4065.1
447.98 333.38 4018.4
470.12 341.91 4121.2
491.48 334.62 4033.4
544.90 341.90 4121.1
571.11 338.43 4079.3
598.39 335.94 4049.3
599.03 330.50 3983.7
670.19 335.09 4039.1
985.39 342.74 4131.3
1009.29 339.97 4097.9
1002.45 334.15 4027.7
1010.58 333.39 4018.5
1198.24 333.42 4018.9
1330.75 340.67 4106.3
1441.57 331.87 4000.2
1517.59 341.99 4122.2
1517.68 334.94 4037.2
1613.86 333.18 4016.1
1723.34 342.53 4128.7
1739.79 343.66 4142.4
1707.68 333.21 4016.3
1843.23 344.93 4157.7
1954.06 343.57 4141.3
2407.17 334.91 4036.9
-2205.04 323.96 4030.9
-2229.75 330.73 4115.1
-2204.91 328.62 4088.8
-2118.84 317.31 3948.2
-2120.71 323.85 4029.5
-2046.33 314.04 3907.4
-1944.57 317.27 3947.6
-1984.15 325.44 4049.3
-1905.89 322.86 4017.1
-1796.27 320.03 3981.9
-1614.13 314.70 3915.7
-1578.25 313.63 3902.3
-1591.84 318.37 3961.3
-1616.26 325.35 4048.1
-1577.30 325.97 4055.9
-1438.26 316.21 3934.4
-1439.81 321.11 3995.4
-1445.40 324.69 4039.9
-1436.43 325.03 4044.2
-1417.82 323.18 4021.1
-1404.51 327.37 4073.2
-1318.12 314.32 3910.9
-1336.83 321.25 3997.2
-1253.17 321.06 3994.8
-1204.99 327.67 4077.0
-1174.79 322.29 4010.0
-1137.96 314.97 3919.0
-1139.33 318.19 3959.1
-1131.75 318.95 3968.5
-1163.97 331.04 4118.9
-1040.21 329.05 4094.1
-979.21 319.53 3975.7
-985.90 328.63 4089.0
-959.68 323.37 4023.5
-884.95 318.99 3969.0
-864.46 319.03 3969.5
-863.43 322.49 4012.5
-848.71 320.85 3992.2
-860.92 329.49 4099.6
-849.52 329.19 4095.9
-814.32 319.54 3975.9
-817.86 325.05 4044.4
-777.05 316.96 3943.7
-778.56 326.15 4058.1
-759.32 322.45 4012.1
-733.22 324.71 4040.2
-700.27 319.24 3972.1
-695.57 326.71 4065.0
-660.29 324.90 4042.6
-645.80 322.90 4017.6
-545.24 318.91 3968.0
-536.39 326.04 4056.7
-516.69 320.35 3985.9
-401.19 327.29 4072.2
-389.30 326.17 4058.3
-358.61 317.63 3952.1
-358.25 326.64 4064.2
-315.83 326.36 4060.7
-208.22 322.74 4015.7
-95.24 328.05 4081.7
-83.46 323.42 4024.2
-52.44 325.15 4045.6
-31.06 321.00 3994.0
20.79 322.21 4009.0
51.69 320.50 3987.8
125.53 324.30 4035.0
191.72 330.19 4108.3
202.98 331.18 4120.7
228.30 321.69 4002.6
236.44 318.68 3965.2
249.97 322.87 4017.3
320.86 331.55 4125.3
380.07 327.29 4072.2
469.21 323.24 4021.8
507.67 327.87 4079.5
539.53 327.95 4080.4
553.78 330.14 4107.7
551.75 322.72 4015.4
586.51 324.68 4039.8
594.73 323.45 4024.5
599.30 320.31 3985.5
733.25 320.15 3983.4
748.90 322.44 4012.0
774.81 320.26 3984.8
864.90 323.03 4019.3
888.85 328.03 4081.5
876.42 319.64 3977.1
981.66 330.78 4115.6
1060.71 325.56 4050.8
1106.99 323.74 4028.1
1105.50 320.29 3985.1
1168.63 320.60 3989.0
1264.16 326.58 4063.4
1449.95 323.37 4023.5
1708.57 321.00 3994.1
1784.64 327.36 4073.2
2012.24 330.05 4106.6
1986.00 324.03 4031.7
2136.67 332.85 4141.4
2134.13 330.79 4115.8
2114.88 326.18 4058.4
-2364.70 305.78 3931.5
-2407.94 312.72 4020.7
-2322.84 306.98 3946.9
-2362.36 314.98 4049.8
-2098.45 301.21 3872.7
-2129.96 307.21 3949.8
-2117.57 311.41 4003.8
-2156.36 318.67 4097.2
-2033.24 301.97 3882.4
-1936.07 305.70 3930.4
-1937.95 307.61 3955.0
-1872.27 301.98 3882.6
-1900.75 308.23 3963.0
-1885.26 309.06 3973.6
-1862.01 308.62 3968.0
-1805.07 318.54 4095.5
-1703.18 304.14 3910.4
-1649.46 309.27 3976.4
-1525.62 303.10 3897.1
-1484.68 305.07 3922.3
-1522.01 319.30 4105.3
-1453.32 311.43 4004.0
-1443.11 311.46 4004.5
-1422.48 309.24 3975.9
-1411.99 309.20 3975.4
-1375.96 303.52 3902.4
-1395.66 314.81 4047.6
-1324.57 303.34 3900.1
-1328.23 306.52 3940.9
-1370.92 318.82 4099.1
-1310.77 307.21 3949.9
-1304.02 308.04 3960.5
-1258.32 309.42 3978.3
-1244.15 308.47 3966.0
-1233.73 316.34 4067.2
-1156.92 312.68 4020.2
-1115.38 306.99 3947.0
-1087.05 304.78 3918.6
-1107.20 313.36 4028.9
-1057.10 304.93 3920.6
-1014.53 304.36 3913.2
-1045.67 316.87 4074.0
-998.99 312.18 4013.8
-866.09 316.86 4073.9
-761.07 304.43 3914.1
-741.88 313.47 4030.3
-707.99 317.01 4075.8
-642.58 305.99 3934.1
-614.40 307.20 3949.7
-588.45 304.37 3913.3
-560.83 311.57 4006.0
-554.71 313.99 4037.0
-528.98 305.18 3923.8
-532.31 313.13 4025.9
-477.51 318.34 4093.0
-458.79 312.81 4021.8
-439.43 306.58 3941.8
-431.60 308.29 3963.7
-400.00 315.79 4060.1
-392.04 317.87 4087.0
-369.31 307.76 3956.9
-360.49 308.99 3972.7
-353.77 312.15 4013.4
-343.53 312.30 4015.2
-335.66 314.68 4045.9
-322.68 312.28 4015.0
-309.94 309.94 3985.0
-299.67 310.00 3985.7
-291.12 311.92 4010.4
-284.61 316.23 4065.8
-252.25 315.31 4053.9
-239.64 312.57 4018.7
-208.26 312.39 4016.5
-147.00 315.01 4050.1
-132.99 306.90 3945.8
-125.37 313.44 4029.9
-112.58 307.03 3947.5
-93.07 310.25 3988.9
10.25 307.54 3954.0
197.88 312.43 4017.0
216.15 308.79 3970.1
228.06 310.99 3998.4
238.81 311.49 4004.8
328.52 317.92 4087.5
496.86 317.15 4077.6
507.38 310.64 3993.9
639.23 319.61 4109.3
633.89 311.75 4008.2
650.52 314.77 4047.0
646.92 308.06 3960.7
712.18 314.20 4039.7
737.89 307.45 3953.0
762.62 313.41 4029.5
794.36 313.56 4031.5
799.44 307.48 3953.3
851.67 315.43 4055.6
865.26 309.02 3973.1
877.02 309.54 3979.8
1002.46 310.04 3986.2
1006.77 308.19 3962.5
1071.77 318.35 4093.0
1069.46 314.55 4044.2
1174.13 308.98 3972.6
1216.88 314.71 4046.3
1250.23 320.57 4121.6
1336.15 315.63 4058.0
1366.37 320.24 4117.4
1527.75 313.92 4036.1
1581.72 318.47 4094.6
1734.39 319.21 4104.2
1721.94 314.99 4049.9
1788.95 317.57 4083.0
1965.60 312.00 4011.4
-2302.44 295.45 3929.6
-2331.54 300.51 3996.9
-2263.65 297.04 3950.8
-2175.47 292.08 3884.8
-2245.03 302.82 4027.6
-2156.68 292.26 3887.2
-1889.30 304.39 4048.5
-1776.65 301.30 4007.5
-1643.62 297.91 3962.3
-1567.20 291.34 3874.9
-1491.61 292.28 3887.4
-1523.41 304.68 4052.4
-1464.36 296.97 3949.8
-1490.14 306.48 4076.4
-1472.63 305.04 4057.2
-1402.56 296.89 3948.8
-1386.81 302.39 4021.9
-1348.54 298.53 3970.6
-1318.82 303.54 4037.2
-1279.13 301.58 4011.2
-1225.30 298.60 3971.6
-1209.47 297.24 3953.5
-1123.14 296.10 3938.3
-1109.52 303.55 4037.3
-1050.63 295.81 3934.4
-1040.89 298.87 3975.1
-1020.47 295.94 3936.1
-990.01 292.96 3896.5
-992.67 296.78 3947.3
-919.02 292.87 3895.4
-933.23 300.71 3999.6
-917.47 305.82 4067.6
-857.26 299.52 3983.8
-837.90 303.74 4039.9
-818.64 300.51 3997.0
-734.80 300.13 3991.9
-711.94 299.22 3979.8
-698.29 297.80 3960.9
-684.23 300.65 3998.8
-684.43 305.36 4061.4
-662.59 300.24 3993.3
-620.77 295.12 3925.3
-537.17 293.92 3909.3
-538.69 306.32 4074.1
-518.82 300.91 4002.3
-505.97 299.45 3982.8
-477.56 301.07 4004.4
-453.68 299.02 3977.1
-436.11 301.12 4005.1
-401.17 298.31 3967.6
-392.65 299.65 3985.5
-354.28 302.18 4019.1
-318.99 298.41 3969.0
-308.84 298.55 3970.8
-301.90 301.90 4015.4
-273.23 304.75 4053.4
-252.42 305.01 4056.7
-242.71 306.03 4070.3
-228.56 301.28 4007.2
-193.50 295.34 3928.2
-184.31 296.95 3949.6
-141.93 294.00 3910.4
-125.96 304.40 4048.6
-114.99 303.15 4032.0
-102.42 297.02 3950.5
-94.28 303.79 4040.5
0.00 295.25 3926.9
41.33 299.65 3985.5
71.80 297.45 3956.2
114.76 302.55 4024.0
153.57 296.90 3948.9
218.91 302.30 4020.7
253.97 306.88 4081.6
258.31 299.64 3985.4
326.08 295.51 3930.4
344.02 302.32 4021.0
417.62 295.39 3928.8
445.82 300.67 3999.0
499.31 295.51 3930.4
510.87 296.30 3941.0
532.29 302.67 4025.7
572.84 296.65 3945.6
634.60 306.72 4079.6
635.57 302.16 4018.8
639.56 299.15 3978.8
706.59 305.84 4067.8
729.85 306.75 4079.9
727.94 297.33 3954.6
776.20 296.18 3939.3
812.24 301.99 4016.6
901.99 297.25 3953.5
1135.14 304.81 4054.1
1527.62 305.52 4063.6
1532.25 304.35 4048.0
1749.45 305.63 4065.0
1766.00 304.85 4054.6
2088.18 299.79 3987.3
-2338.41 278.62 3838.1
-2270.92 287.72 3963.5
-2158.87 281.15 3873.0
-2181.69 285.45 3932.3
-1987.77 285.42 3931.9
-1962.15 283.20 3901.2
-1886.71 288.68 3976.7
-1850.17 284.64 3921.1
-1830.47 292.88 4034.5
-1752.29 290.32 3999.3
-1743.81 294.14 4051.9
-1595.51 286.37 3944.9
-1394.45 285.00 3926.0
-1411.09 294.85 4061.8
-1335.98 281.26 3874.5
-1300.42 286.71 3949.5
-1319.73 295.62 4072.3
-1256.11 283.64 3907.3
-1242.82 285.24 3929.3
-1244.93 292.92 4035.2
-1219.89 289.47 3987.5
-1161.13 287.71 3963.4
-1108.17 287.30 3957.8
-1130.38 295.80 4074.8
-1106.54 292.29 4026.5
-1058.04 282.15 3886.7
-1052.81 283.45 3904.6
-999.66 288.56 3975.1
-1005.86 293.37 4041.4
-908.02 282.49 3891.5
-900.46 283.29 3902.5
-871.99 283.90 3910.9
-860.07 286.69 3949.3
-799.74 287.09 3954.7
-808.43 293.97 4049.6
-733.59 285.29 3930.0
-715.47 286.19 3942.4
-721.90 292.95 4035.5
-687.17 282.95 3897.8
-677.87 283.29 3902.4
-681.74 293.67 4045.5
-634.78 282.12 3886.4
-646.33 291.89 4020.9
-628.52 288.50 3974.3
-581.51 285.65 3935.0
-569.48 295.29 4067.7
-537.68 284.06 3913.0
-546.51 294.27 4053.8
-520.71 291.60 4016.9
-482.82 287.64 3962.3
-482.73 293.84 4047.7
-455.01 289.55 3988.7
-413.80 282.59 3892.9
-364.63 283.60 3906.8
-340.26 288.70 3977.0
-324.08 283.57 3906.3
-294.33 284.18 3914.7
-283.08 283.08 3899.5
-237.29 288.88 3979.5
-203.95 285.53 3933.4
-198.34 292.30 4026.5
-167.99 293.99 4049.9
-123.59 288.38 3972.6
-114.21 290.72 4004.8
-103.09 288.64 3976.2
-93.06 289.53 3988.4
-83.47 292.15 4024.5
-74.13 296.51 4084.6
0.00 291.93 4021.4
20.97 293.59 4044.3
30.40 283.74 3908.6
61.03 284.80 3923.2
73.06 292.24 4025.7
228.60 290.95 4008.0
273.50 283.63 3907.2
336.86 294.76 4060.4
347.06 294.48 4056.5
399.74 286.99 3953.5
419.25 293.47 4042.7
429.28 286.19 3942.4
436.62 284.31 3916.5
660.02 293.34 4041.0
665.65 291.22 4011.7
705.00 290.30 3999.0
732.40 288.84 3978.9
793.78 288.65 3976.3
828.33 289.91 3993.7
1377.38 292.17 4024.8
1487.91 289.32 3985.5
1709.50 288.35 3972.2
2012.19 294.98 4063.5
2134.31 297.32 4095.7
2122.16 292.71 4032.3
2182.10 289.57 3988.9
2296.18 294.92 4062.7
2389.64 292.18 4025.0
-2339.51 275.84 3940.5
-2226.72 279.63 3994.8
-2202.33 277.86 3969.5
-2153.11 278.15 3973.6
-2161.70 280.61 4008.7
-1998.87 271.20 3874.3
-2007.48 276.54 3950.6
-1922.63 268.97 3842.4
-1930.66 271.50 3878.5
-1895.95 269.42 3848.9
-1909.42 272.77 3896.8
-1687.92 272.90 3898.5
-1664.16 272.32 3890.2
-1696.38 281.00 4014.2
-1673.39 284.16 4059.4
-1506.01 269.29 3846.9
-1511.81 272.13 3887.5
-1537.50 280.49 4007.0
-1462.07 276.06 3943.6
-1366.78 277.47 3963.8
-1215.13 275.70 3938.6
-1204.26 277.91 3970.1
-1202.18 284.73 4067.5
-1132.44 270.58 3865.5
-1132.93 273.12 3901.7
-1148.80 284.57 4065.2
-1069.09 277.55 3965.0
-1024.15 279.31 3990.2
-999.20 275.29 3932.7
-942.08 270.60 3865.7
-871.70 270.53 3864.7
-887.34 278.58 3979.8
-862.69 274.03 3914.7
-842.38 270.77 3868.1
-816.25 272.08 3886.9
-802.52 281.40 4020.0
-774.63 282.64 4037.7
-712.21 274.71 3924.4
-719.75 281.64 4023.4
-684.34 271.72 3881.8
-676.11 272.46 3892.3
-634.25 276.21 3945.8
-621.31 275.01 3928.7
-595.68 272.60 3894.3
-553.12 281.78 4025.4
-493.96 272.18 3888.3
-478.45 280.83 4011.8
-417.67 275.05 3929.3
-407.94 282.42 4034.6
-354.67 281.65 4023.6
-340.24 278.37 3976.8
-290.13 279.77 3996.7
-269.84 280.22 4003.1
-192.93 274.17 3916.7
-187.87 281.80 4025.8
-178.99 284.28 4061.1
-165.21 278.80 3982.8
-126.31 284.21 4060.1
-42.05 283.84 4054.9
-31.21 280.91 4013.1
-10.33 278.83 3983.2
60.79 273.56 3908.0
83.38 281.42 4020.3
92.87 278.61 3980.2
161.66 272.80 3897.1
177.45 281.84 4026.2
182.48 273.71 3910.2
226.09 277.47 3963.9
256.22 276.71 3953.1
325.98 283.92 4056.0
335.77 283.31 4047.2
357.63 275.88 3941.2
366.55 274.92 3927.4
419.67 276.37 3948.2
436.92 274.34 3919.2
458.37 281.27 4018.2
478.92 275.13 3930.4
606.39 277.50 3964.3
662.46 275.18 3931.1
718.45 277.12 3958.8
725.49 275.89 3941.3
819.15 276.46 3949.5
1271.59 276.88 3955.4
1298.46 276.05 3943.6
1439.43 283.68 4052.6
1474.78 280.42 4006.0
1501.96 283.59 4051.2
1747.79 282.58 4036.8
-2163.50 259.22 3845.6
-2232.97 268.78 3987.4
-2175.51 264.31 3921.1
-2115.16 260.64 3866.6
-1991.91 258.95 3841.5
-2054.98 268.49 3983.1
-1805.49 269.79 4002.3
-1799.71 270.48 4012.6
-1724.97 266.96 3960.4
-1657.24 258.01 3827.7
-1690.62 268.03 3976.2
-1659.73 264.74 3927.5
-1631.39 265.10 3932.8
-1586.35 262.71 3897.3
-1514.25 260.73 3868.0
-1571.01 272.31 4039.7
-1519.58 272.48 4042.2
-1403.81 262.58 3895.5
-1336.79 263.31 3906.2
-1268.39 259.67 3852.3
-1256.27 259.23 3845.7
-1269.39 264.03 3917.0
-1209.45 264.25 3920.2
-1231.39 271.32 4025.1
-1182.98 267.46 3967.8
-1135.34 258.94 3841.4
-1130.34 272.12 4036.9
-1084.61 263.55 3909.8
-1057.73 259.44 3848.9
-1072.03 265.45 3938.1
-1067.19 266.80 3958.0
-1033.41 260.86 3869.9
-992.32 260.61 3866.2
-991.74 268.60 3984.7
-978.66 267.84 3973.5
-905.03 264.39 3922.3
-892.25 272.92 4048.9
-860.57 266.37 3951.6
-822.75 264.09 3917.8
-814.26 271.42 4026.5
-769.13 270.23 4009.0
-694.16 269.38 3996.2
-624.86 262.04 3887.4
-624.23 266.06 3947.1
-604.57 261.98 3886.5
-462.34 261.32 3876.8
-470.81 272.02 4035.5
-381.12 260.77 3868.5
-320.49 260.39 3863.0
-284.98 264.63 3925.8
-274.37 264.21 3919.5
-232.93 263.31 3906.2
-190.66 260.90 3870.5
-184.14 265.97 3945.8
-171.03 261.57 3880.4
-124.91 270.64 4015.0
-50.58 263.01 3901.8
-42.05 273.31 4054.6
-30.58 265.04 3932.0
0.00 262.56 3895.2
10.17 264.44 3923.1
73.01 271.19 4023.2
82.65 268.63 3985.1
92.38 266.86 3958.9
150.90 261.56 3880.3
161.77 262.88 3899.8
173.97 266.07 3947.2
233.70 264.18 3919.2
293.94 272.94 4049.2
295.10 264.58 3925.0
307.93 266.87 3959.1
343.26 262.49 3894.1
361.12 268.26 3979.7
419.71 272.81 4047.2
424.49 269.19 3993.5
450.26 272.25 4038.9
473.80 267.80 3972.9
485.53 268.59 3984.6
544.37 262.10 3888.3
554.39 262.08 3887.9
640.06 268.41 3982.0
652.49 265.07 3932.4
655.94 262.38 3892.4
673.66 265.38 3937.0
735.31 265.53 3939.2
776.22 265.55 3939.5
1141.19 264.92 3930.1
1222.12 271.58 4029.0
1197.23 263.80 3913.5
1223.57 267.33 3965.9
1220.20 264.38 3922.1
1434.64 272.27 4039.1
1475.70 270.20 4008.5
1496.65 272.12 4036.9
1515.61 273.65 4059.7
1579.38 264.93 3930.3
-2447.16 249.71 3852.7
-2333.36 251.44 3879.4
-2019.21 247.45 3817.8
-2023.08 249.15 3844.0
-2032.32 252.78 3900.0
-2079.96 259.99 4011.3
-2022.30 254.06 3919.8
-1963.87 257.05 3965.9
-1880.96 251.47 3879.8
-1788.98 254.12 3920.6
-1693.17 247.54 3819.2
-1671.75 247.30 3815.5
-1715.66 255.31 3939.0
-1582.67 247.29 3815.4
-1627.09 255.83 3947.1
-1642.17 259.84 4008.9
-1584.33 252.28 3892.3
-1489.48 248.25 3830.1
-1435.51 247.50 3818.6
-1423.58 252.41 3894.3
-1379.26 249.87 3855.1
-1363.70 248.85 3839.4
-1356.84 249.42 3848.2
-1376.97 254.99 3934.2
-1384.90 258.38 3986.4
-1381.52 259.68 4006.6
-1373.51 260.14 4013.5
-1245.40 253.13 3905.4
-1241.01 254.31 3923.6
-1158.93 251.94 3887.1
-1117.60 251.71 3883.6
-1107.74 251.76 3884.3
-1099.23 252.12 3889.8
-1107.09 261.11 4028.5
-1050.31 254.93 3933.2
-1017.31 249.34 3847.0
-941.57 253.11 3905.1
-950.05 258.17 3983.1
-895.71 257.39 3971.1
-826.79 252.07 3889.1
-843.19 260.24 4015.2
-792.17 250.69 3867.8
-788.67 252.78 3900.0
-765.27 248.47 3833.5
-739.83 260.50 4019.2
-691.85 254.36 3924.4
-679.76 253.64 3913.3
-678.15 256.87 3963.2
-647.93 249.20 3844.8
-651.95 254.67 3929.1
-635.89 256.41 3956.0
-568.52 253.80 3915.8
-548.69 258.82 3993.2
-530.13 254.87 3932.2
-404.23 252.65 3898.0
-402.76 258.18 3983.4
-350.94 258.04 3981.2
-336.44 254.88 3932.4
-308.21 256.84 3962.7
-292.31 251.99 3887.9
-249.85 249.85 3854.8
-201.84 252.30 3892.6
-181.19 251.65 3882.6
-150.50 250.83 3870.0
-120.28 250.58 3866.0
-112.79 256.35 3955.1
-102.57 256.43 3956.4
-93.11 258.65 3990.5
-82.30 257.17 3967.8
-72.08 257.45 3972.0
-60.33 251.38 3878.4
-50.68 253.39 3909.5
-40.69 254.30 3923.6
0.00 250.76 3868.9
192.71 253.56 3912.1
246.71 256.99 3965.0
291.39 260.17 4014.0
295.75 254.96 3933.7
307.90 256.59 3958.8
321.53 251.20 3875.6
349.19 256.75 3961.4
360.01 257.15 3967.4
366.96 254.83 3931.7
372.01 251.36 3878.1
401.04 250.65 3867.2
574.77 261.26 4030.9
592.24 255.28 3938.5
679.59 253.58 3912.3
764.97 251.63 3882.4
1020.61 252.63 3897.7
1066.02 258.74 3992.0
1168.72 258.57 3989.3
1269.96 258.12 3982.5
1268.67 253.73 3914.7
1600.93 253.31 3908.2
1720.01 260.61 4020.8
-2433.53 238.39 3831.2
-2282.62 237.16 3811.4
-2285.34 239.51 3849.3
-2157.49 235.36 3782.6
-2061.01 243.67 3916.1
-1975.81 243.18 3908.2
-1943.50 240.43 3864.1
-1956.72 249.79 4014.5
-1889.04 245.06 3938.5
-1886.07 247.35 3975.3
-1779.69 235.98 3792.6
-1773.30 236.44 3799.9
-1714.85 243.53 3913.9
-1731.04 247.29 3974.3
-1627.48 242.61 3899.0
-1600.31 241.56 3882.2
-1584.93 242.28 3893.8
-1579.46 244.56 3930.5
-1512.44 245.26 3941.7
-1440.14 236.74 3804.7
-1467.53 244.59 3930.9
-1440.17 241.71 3884.6
-1442.34 243.78 3917.8
-1429.61 243.34 3910.8
-1404.64 240.80 3869.9
-1388.32 239.71 3852.5
-1389.21 241.60 3882.9
-1344.81 240.86 3871.0
-1323.47 238.82 3838.2
-1324.90 242.73 3901.0
-1321.55 243.98 3921.1
-1283.76 242.60 3898.9
-1252.00 238.48 3832.6
-1244.67 242.86 3903.2
-1228.25 241.62 3883.2
-1155.97 241.25 3877.2
-1097.85 243.97 3920.9
-1082.85 247.51 3977.8
-1019.68 247.20 3972.8
-952.22 243.12 3907.3
-931.89 240.49 3865.0
-872.56 246.37 3959.5
-831.54 237.58 3818.3
-825.65 238.74 3836.9
-815.72 238.75 3837.0
-781.87 240.58 3866.4
-781.81 243.68 3916.3
-788.63 249.04 4002.5
-716.24 249.13 4003.8
-675.33 238.35 3830.6
-673.37 241.21 3876.6
-679.43 247.07 3970.7
-659.47 243.50 3913.4
-652.10 248.42 3992.5
-585.55 246.55 3962.4
-564.59 241.97 3888.8
-537.01 247.85 3983.3
-488.70 249.55 4010.6
-456.63 243.53 3913.9
-434.71 242.63 3899.3
-384.46 249.38 4007.9
-355.28 243.62 3915.4
-307.33 245.87 3951.4
-295.05 244.18 3924.4
-285.15 244.41 3928.1
-271.39 241.24 3877.0
-204.09 244.91 3936.1
-99.56 238.95 3840.3
-90.29 240.77 3869.5
-70.12 240.42 3863.9
-59.83 239.31 3846.1
-10.13 243.00 3905.4
0.00 246.36 3959.3
286.52 245.59 3947.0
295.95 244.93 3936.3
312.83 250.26 4022.1
336.15 244.48 3929.1
355.03 250.61 4027.6
382.72 241.72 3884.7
480.01 245.11 3939.3
487.98 243.99 3921.2
531.31 250.03 4018.3
536.96 243.15 3907.8
546.90 243.07 3906.4
616.35 250.72 4029.4
626.71 250.68 4028.8
626.61 246.54 3962.2
635.36 245.95 3952.7
755.01 241.60 3882.9
917.04 241.86 3887.0
993.87 240.94 3872.2
1036.20 246.22 3957.2
1050.63 242.45 3896.6
1091.12 247.05 3970.4
1079.87 242.21 3892.7
1119.68 244.29 3926.2
1269.54 247.72 3981.1
1245.60 241.08 3874.6
1300.42 243.83 3918.7
1325.71 246.64 3963.9
1522.00 248.49 3993.6
1780.95 245.65 3947.9
1882.87 245.59 3947.0
1904.15 247.03 3970.0
1927.36 242.18 3892.2
2187.23 249.97 4017.4
-2368.47 229.85 3854.7
-2372.17 236.19 3961.0
-2252.29 227.21 3810.3
-2222.95 226.23 3793.9
-2210.58 225.97 3789.6
-2223.79 228.34 3829.2
-2226.52 232.77 3903.6
-2163.54 230.38 3863.5
-2164.70 232.65 3901.7
-2084.23 226.12 3792.1
-2108.29 229.81 3854.0
-2052.38 226.95 3805.9
-2046.91 228.54 3832.6
-1990.75 226.67 3801.3
-1882.59 230.32 3862.5
-1788.86 235.11 3942.8
-1704.74 227.96 3822.9
-1727.62 232.37 3896.9
-1731.24 234.23 3928.0
-1635.91 232.26 3895.0
-1569.44 235.93 3956.6
-1480.12 226.95 3806.0
-1520.83 234.76 3936.9
-1501.56 233.35 3913.3
-1432.40 227.21 3810.3
-1445.23 235.75 3953.5
-1417.10 232.81 3904.3
-1397.99 231.32 3879.3
-1404.88 234.15 3926.7
-1332.87 228.78 3836.6
-1367.92 236.56 3967.1
-1355.81 236.24 3961.8
-1335.08 238.04 3991.9
-1272.61 228.67 3834.9
-1158.75 229.75 3853.0
-1124.43 228.87 3838.1
-1093.64 226.61 3800.3
-1013.20 233.04 3908.1
-1025.29 238.20 3994.6
-967.87 227.15 3809.4
-958.27 234.47 3932.1
-934.84 231.20 3877.2
-906.94 231.77 3886.9
-871.38 230.36 3863.3
-781.79 230.53 3866.0
-770.80 233.27 3912.0
-723.25 234.29 3929.1
-708.09 236.03 3958.2
-672.48 227.46 3814.5
-677.92 232.72 3902.7
-632.25 230.82 3870.9
-583.09 227.31 3812.0
-573.43 227.39 3813.4
-537.86 233.41 3914.3
-511.50 230.68 3868.5
-488.37 229.24 3844.3
-462.48 236.38 3964.1
-444.64 232.43 3897.8
-354.98 233.27 3912.0
-329.06 229.34 3846.1
-286.13 235.04 3941.6
-254.77 234.39 3930.8
-230.72 230.72 3869.3
-226.69 237.00 3974.5
-216.85 237.51 3983.0
-200.46 230.53 3865.9
-179.15 228.92 3839.0
-174.71 236.38 3964.1
-164.37 236.29 3962.6
-132.78 234.93 3939.8
-122.05 233.94 3923.1
-100.51 231.17 3876.8
30.26 232.02 3891.0
61.20 234.61 3934.5
72.49 238.18 3994.2
99.99 229.98 3856.9
141.25 232.05 3891.5
149.31 228.94 3839.3
159.08 228.67 3834.9
213.87 234.24 3928.2
222.09 232.18 3893.8
302.82 232.16 3893.3
313.25 232.41 3897.5
350.53 237.12 3976.5
375.08 233.16 3910.1
387.47 234.52 3933.0
403.90 238.19 3994.6
433.78 232.02 3891.0
451.32 235.92 3956.4
475.62 232.75 3903.2
495.94 237.64 3985.2
618.52 237.10 3976.2
617.56 229.09 3841.9
717.58 239.19 4011.3
741.07 233.49 3915.7
756.51 235.13 3943.2
800.00 235.90 3956.0
825.60 234.43 3931.4
933.43 230.85 3871.4
1058.19 238.61 4001.6
1058.84 234.17 3927.0
1077.50 236.02 3958.2
1101.38 236.75 3970.3
1098.20 231.73 3886.2
1134.36 237.18 3977.6
1222.55 232.38 3897.1
1308.99 231.59 3883.8
1502.55 236.70 3969.5
1477.41 231.16 3876.6
1665.30 236.43 3965.0
1776.48 233.48 3915.5
1903.42 231.63 3884.5
2148.55 234.20 3927.6
-2372.45 214.79 3765.8
-2463.12 223.92 3925.9
-2303.79 218.46 3830.2
-2218.37 216.91 3802.9
-2262.59 223.21 3913.5
-2207.65 223.82 3924.1
-2172.57 221.28 3879.6
-2068.60 214.67 3763.6
-2083.44 220.36 3863.5
-1963.53 217.07 3805.8
-1966.21 218.47 3830.3
-1896.51 224.32 3932.9
-1767.42 216.02 3787.3
-1771.66 226.61 3973.0
-1644.26 220.57 3867.2
-1664.52 224.66 3938.8
-1606.05 225.05 3945.7
-1530.37 221.50 3883.5
-1479.78 215.60 3779.9
-1483.21 217.54 3814.0
-1527.50 225.54 3954.2
-1513.20 224.94 3943.7
-1437.77 215.18 3772.6
-1414.53 217.62 3815.4
-1434.11 222.19 3895.5
-1346.56 216.24 3791.2
-1352.10 218.72 3834.7
-1336.31 217.77 3818.0
-1341.06 226.95 3979.0
-1287.44 219.56 3849.5
-1231.04 216.66 3798.6
-1209.22 227.37 3986.4
-1109.15 215.94 3786.0
-1127.38 221.45 3882.6
-1100.56 220.11 3859.1
-1018.83 217.61 3815.3
-984.53 216.60 3797.5
-926.26 216.78 3800.8
-897.13 216.89 3802.6
-904.23 223.52 3918.8
-865.35 226.64 3973.6
-842.32 225.99 3962.2
-813.40 220.92 3873.4
-804.86 227.01 3980.1
-743.80 218.18 3825.3
-720.01 220.00 3857.2
-735.47 227.89 3995.5
-699.77 219.93 3855.9
-712.58 227.20 3983.4
-575.81 226.21 3966.0
-556.43 222.57 3902.2
-535.44 218.14 3824.5
-484.14 226.62 3973.2
-445.54 217.82 3818.9
-442.25 226.27 3967.0
-423.87 222.03 3892.7
-405.77 217.73 3817.3
-348.08 218.80 3836.0
-315.29 223.76 3923.0
-267.15 217.68 3816.5
-172.67 223.46 3917.8
-164.65 226.39 3969.1
-141.20 221.88 3890.1
-121.14 222.09 3893.8
-101.07 222.35 3898.4
20.60 226.64 3973.5
40.39 222.13 3894.5
59.74 219.04 3840.3
90.01 220.03 3857.7
109.77 219.55 3849.2
123.97 227.27 3984.6
131.02 221.73 3887.5
344.88 223.16 3912.5
357.48 218.46 3830.2
398.23 224.64 3938.5
429.20 219.59 3849.9
466.42 223.07 3911.0
656.82 225.78 3958.5
678.02 222.63 3903.3
779.60 225.67 3956.6
789.27 225.51 3953.7
864.29 226.36 3968.7
934.96 223.58 3919.8
970.39 222.38 3898.9
966.51 219.21 3843.3
1048.71 224.00 3927.2
1062.89 224.84 3942.0
1068.44 219.68 3851.5
1076.36 219.26 3844.1
1183.71 222.58 3902.4
1210.46 220.08 3858.6
1319.78 219.96 3856.5
1408.39 226.17 3965.2
1499.70 227.54 3989.4
-2296.73 208.79 3835.0
-2327.25 212.49 3902.8
-2228.49 204.36 3753.5
-2235.33 210.50 3866.4
-2152.06 203.57 3739.1
-2189.46 208.05 3821.3
-2083.67 210.37 3863.9
-2078.91 211.93 3892.6
-1971.74 204.98 3765.0
-2011.61 210.17 3860.2
-2004.64 210.49 3866.1
-2035.31 215.87 3964.9
-1845.74 207.28 3807.1
-1883.28 212.63 3905.4
-1839.85 214.65 3942.5
-1843.21 216.24 3971.8
-1781.16 210.14 3859.6
-1745.30 211.86 3891.3
-1686.11 212.03 3894.4
-1659.23 211.18 3878.7
-1621.57 208.91 3837.2
-1637.08 214.87 3946.5
-1563.63 206.52 3793.2
-1527.81 205.67 3777.6
-1575.61 213.47 3920.9
-1546.23 215.04 3949.7
-1473.98 206.36 3790.2
-1453.20 204.81 3761.9
-1464.35 215.04 3949.8
-1408.07 208.24 3824.7
-1298.94 205.10 3767.1
-1269.81 208.33 3826.4
-1268.45 213.10 3914.1
-1241.22 210.21 3860.9
-1176.18 209.32 3844.7
-1091.67 208.41 3827.9
-1068.63 205.88 3781.5
-1041.08 208.22 3824.4
-1036.51 209.30 3844.2
-1039.32 211.90 3892.1
-1025.55 211.14 3878.1
-1016.40 211.33 3881.6
-1013.74 212.88 3910.1
-960.55 207.96 3819.6
-957.74 209.51 3848.1
-785.08 214.11 3932.7
-761.44 213.20 3916.0
-741.66 213.35 3918.7
-729.09 212.65 3905.8
-694.87 208.46 3828.9
-682.04 213.77 3926.5
-676.03 215.10 3950.8
-579.39 213.46 3920.7
-544.81 208.02 3820.8
-496.65 208.59 3831.3
-474.53 216.63 3979.0
-455.44 212.54 3903.8
-424.83 207.48 3810.8
-332.65 211.68 3888.1
-315.50 213.72 3925.5
-296.09 207.26 3806.9
-285.23 206.55 3793.7
-257.41 207.91 3818.7
-253.04 212.55 3904.0
-236.07 206.57 3794.1
-226.87 207.14 3804.6
-130.70 211.14 3878.1
-118.95 208.17 3823.5
-108.31 206.77 3797.8
-61.35 214.71 3943.7
-51.30 215.48 3957.8
-40.39 212.06 3895.0
-30.50 213.48 3921.1
-19.85 208.43 3828.3
-9.87 207.18 3805.4
92.17 215.06 3950.1
150.09 210.12 3859.4
237.69 207.98 3820.0
316.44 207.67 3814.3
334.94 213.15 3914.9
349.40 215.81 3963.8
354.99 213.00 3912.2
361.52 210.89 3873.5
399.02 209.49 3847.7
453.13 211.46 3883.9
494.08 207.52 3811.5
545.52 208.29 3825.7
854.78 216.27 3972.3
936.70 213.81 3927.2
946.10 213.63 3923.9
1109.40 209.89 3855.1
1271.16 210.19 3860.7
1349.05 214.62 3942.0
1361.56 211.80 3890.2
1386.14 214.04 3931.3
