ply
format ascii 1.0
element vertex 2020
property float x
property float y
property float z
end_header
1062.97 -1338.20 3660.7
1059.32 -1321.81 3615.9
1053.59 -1303.12 3564.8
1052.99 -1291.06 3531.8
1115.95 -1333.46 3647.8
1144.71 -1356.34 3710.4
1104.50 -1297.78 3550.2
1128.23 -1314.71 3596.5
1162.15 -1343.14 3674.2
1148.51 -1316.59 3601.6
1198.28 -1319.98 3610.9
1224.39 -1298.04 3550.9
1317.28 -1308.00 3578.1
1319.30 -1300.85 3558.6
1336.79 -1308.94 3580.7
1384.66 -1346.47 3683.3
1335.87 -1290.12 3529.2
1437.87 -1308.00 3578.1
1558.79 -1308.27 3578.9
1549.23 -1292.55 3535.9
-1432.93 -1312.75 3565.8
-1426.93 -1315.75 3574.0
-1409.73 -1308.38 3553.9
-1346.91 -1337.49 3633.0
-1353.52 -1353.52 3676.6
-1322.48 -1360.82 3696.4
-1228.68 -1302.03 3536.7
-1271.80 -1357.86 3688.3
-1247.23 -1341.72 3644.5
-1180.86 -1320.33 3586.4
-1135.96 -1300.86 3533.5
-1146.77 -1323.91 3596.1
-1136.78 -1323.14 3594.0
-1158.42 -1359.47 3692.7
-1135.87 -1344.12 3651.0
-1103.29 -1350.58 3668.6
-1069.96 -1321.16 3588.7
-1066.66 -1328.65 3609.0
-1086.07 -1364.79 3707.2
-1071.87 -1358.97 3691.4
-992.90 -1330.11 3613.0
-998.71 -1350.64 3668.7
-956.66 -1306.21 3548.0
-930.18 -1307.78 3552.3
-931.98 -1336.78 3631.1
-938.38 -1359.70 3693.3
-899.91 -1317.40 3578.5
-892.71 -1320.47 3586.8
-898.75 -1343.39 3649.1
-883.30 -1334.34 3624.5
-868.40 -1325.95 3601.7
-853.18 -1316.86 3577.0
-839.37 -1309.78 3557.8
-824.15 -1300.33 3532.1
-819.63 -1322.58 3592.5
-849.23 -1386.10 3765.1
-805.27 -1329.63 3611.7
-714.99 -1318.56 3581.6
-707.65 -1322.19 3591.5
-664.65 -1310.83 3560.6
-675.77 -1351.54 3671.2
-675.92 -1371.16 3724.5
-666.87 -1372.39 3727.8
-639.83 -1336.12 3629.3
-585.11 -1298.22 3526.3
-593.76 -1338.31 3635.2
-584.24 -1338.11 3634.7
-586.33 -1364.90 3707.5
-580.53 -1373.92 3732.0
-571.62 -1375.76 3737.0
-541.86 -1326.63 3603.5
-523.36 -1303.80 3541.5
-533.78 -1353.52 3676.6
-510.23 -1317.32 3578.2
-488.62 -1334.32 3624.4
-480.23 -1337.12 3632.0
-466.49 -1324.82 3598.6
-470.31 -1362.94 3702.2
-470.82 -1392.84 3783.4
-440.23 -1330.07 3612.9
-420.09 -1325.63 3600.8
-397.78 -1344.86 3653.0
-377.18 -1306.34 3548.4
-372.24 -1321.44 3589.4
-351.63 -1349.52 3665.7
-315.00 -1355.45 3681.8
-284.96 -1305.32 3545.6
-286.81 -1357.58 3687.6
-259.31 -1363.78 3704.4
-248.10 -1355.03 3680.7
-239.20 -1358.68 3690.6
-225.59 -1334.73 3625.5
-213.87 -1320.43 3586.7
-203.05 -1310.60 3560.0
-182.31 -1362.50 3701.0
-154.50 -1371.21 3724.6
-146.61 -1387.91 3770.0
-117.23 -1387.20 3768.1
-106.42 -1373.83 3731.7
-97.24 -1380.82 3750.7
-87.76 -1384.70 3761.2
-77.26 -1371.30 3724.8
-67.77 -1374.81 3734.4
-58.14 -1375.90 3737.4
-47.91 -1360.74 3696.2
-37.42 -1328.31 3608.1
-27.45 -1299.32 3529.3
-18.50 -1313.50 3567.9
9.53 -1353.24 3675.8
28.80 -1363.23 3702.9
38.33 -1360.78 3696.3
47.46 -1347.96 3661.5
55.36 -1310.27 3559.1
65.75 -1333.70 3622.7
117.40 -1389.27 3773.7
126.51 -1381.92 3753.7
134.67 -1365.93 3710.3
142.45 -1348.55 3663.1
149.72 -1328.75 3609.3
155.79 -1301.35 3534.8
164.33 -1296.38 3521.4
193.18 -1306.28 3548.3
209.04 -1349.24 3664.9
219.12 -1352.86 3674.8
226.99 -1343.01 3648.0
271.86 -1378.72 3745.0
276.95 -1356.09 3683.6
277.71 -1314.51 3570.6
296.24 -1356.99 3686.0
315.80 -1358.89 3691.2
350.66 -1310.34 3559.3
356.31 -1297.32 3523.9
366.91 -1302.52 3538.0
373.81 -1294.65 3516.7
422.49 -1333.19 3621.3
435.10 -1343.13 3648.3
448.75 -1355.81 3682.8
469.19 -1388.03 3770.3
476.94 -1382.15 3754.3
477.84 -1357.06 3686.2
488.73 -1360.77 3696.3
489.13 -1335.69 3628.1
484.95 -1299.30 3529.3
493.43 -1297.53 3524.5
504.92 -1303.62 3541.0
517.72 -1312.79 3565.9
531.46 -1323.99 3596.4
548.29 -1342.36 3646.3
566.08 -1362.43 3700.8
568.40 -1345.21 3654.0
569.15 -1324.91 3598.9
584.69 -1339.13 3637.5
587.54 -1324.30 3597.2
605.42 -1343.28 3648.7
630.58 -1377.58 3741.9
618.16 -1329.99 3612.6
626.32 -1327.43 3605.7
649.63 -1356.57 3684.8
655.44 -1348.88 3664.0
660.31 -1339.49 3638.4
670.66 -1341.33 3643.4
680.17 -1341.46 3643.8
705.60 -1301.24 3534.6
727.31 -1324.09 3596.6
776.52 -1344.71 3652.6
774.54 -1325.11 3599.4
820.06 -1308.41 3554.0
837.84 -1321.92 3590.7
899.20 -1344.07 3650.9
875.88 -1295.57 3519.2
916.53 -1314.61 3570.9
963.57 -1368.26 3716.6
965.02 -1356.76 3685.4
963.42 -1341.24 3643.2
959.43 -1322.71 3592.9
984.54 -1306.59 3549.1
1036.86 -1363.28 3703.1
1024.56 -1334.75 3625.6
1034.53 -1323.45 3594.9
1061.87 -1346.31 3657.0
1068.31 -1342.47 3646.6
1070.94 -1333.98 3623.5
1051.63 -1298.54 3527.2
1091.27 -1302.18 3537.1
1105.33 -1297.17 3523.5
1134.50 -1320.49 3586.8
1153.90 -1300.42 3532.3
1230.45 -1375.78 3737.0
1197.36 -1328.33 3608.1
1222.85 -1305.60 3546.4
1218.76 -1291.52 3508.2
1253.73 -1290.07 3504.2
1306.74 -1334.94 3626.1
1304.85 -1323.49 3595.0
1360.34 -1332.20 3618.7
1371.02 -1333.46 3622.1
1344.66 -1298.93 3528.3
1384.27 -1328.15 3607.7
1383.34 -1318.35 3581.0
1378.17 -1304.66 3543.9
1411.09 -1326.99 3604.5
1418.87 -1308.30 3553.7
1431.52 -1311.46 3562.3
1437.03 -1291.51 3508.1
1872.56 -1303.45 3540.6
1962.93 -1359.69 3693.3
1912.34 -1318.21 3580.7
-1788.32 -1311.43 3537.3
-1487.15 -1337.50 3607.6
-1449.96 -1312.31 3539.7
-1435.35 -1315.73 3548.9
-1457.97 -1345.09 3628.1
-1431.84 -1329.57 3586.2
-1394.39 -1303.26 3515.3
-1407.52 -1324.18 3571.7
-1420.38 -1345.13 3628.2
-1371.66 -1307.65 3527.1
-1366.32 -1338.24 3609.6
-1379.60 -1360.57 3669.9
-1330.63 -1340.01 3614.4
-1284.64 -1302.86 3514.2
-1264.23 -1310.04 3533.6
-1161.95 -1308.34 3529.0
-1156.73 -1333.97 3598.1
-1198.88 -1393.82 3759.5
-1142.72 -1339.42 3612.8
-1123.66 -1327.97 3581.9
-1136.11 -1353.87 3651.8
-1089.31 -1309.00 3530.8
-1099.74 -1344.12 3625.5
-1126.32 -1388.47 3745.1
-1083.39 -1347.17 3633.7
-1096.01 -1374.82 3708.3
-1011.05 -1302.53 3513.3
-981.38 -1323.94 3571.1
-984.07 -1340.21 3615.0
-963.99 -1325.49 3575.2
-937.54 -1301.63 3510.9
-932.17 -1346.47 3631.8
-946.02 -1394.64 3761.8
-898.59 -1338.52 3610.4
-869.00 -1308.08 3528.3
-823.49 -1308.43 3529.2
-821.52 -1319.96 3560.3
-783.54 -1302.87 3514.2
-807.79 -1358.99 3665.6
-741.29 -1308.69 3529.9
-735.14 -1314.07 3544.4
-722.51 -1307.83 3527.6
-709.58 -1300.90 3508.9
-692.91 -1303.76 3516.6
-661.44 -1332.20 3593.3
-661.95 -1352.27 3647.5
-654.90 -1357.27 3661.0
-632.13 -1329.33 3585.6
-549.45 -1309.53 3532.2
-545.31 -1321.68 3565.0
-543.65 -1340.37 3615.4
-555.45 -1393.50 3758.7
-515.77 -1341.00 3617.1
-492.37 -1303.86 3516.9
-501.03 -1351.84 3646.3
-494.11 -1358.81 3665.1
-475.04 -1331.96 3592.7
-460.91 -1318.21 3555.6
-464.72 -1356.21 3658.1
-444.07 -1351.10 3644.3
-417.85 -1298.95 3503.7
-416.48 -1323.49 3569.8
-414.03 -1345.61 3629.5
-396.51 -1318.64 3556.8
-382.72 -1303.06 3514.7
-374.29 -1305.45 3521.2
-379.57 -1356.96 3660.1
-371.49 -1362.12 3674.1
-346.78 -1304.97 3519.9
-358.42 -1385.23 3736.4
-315.61 -1367.66 3689.0
-278.21 -1326.12 3577.0
-277.91 -1370.39 3696.4
-248.59 -1367.24 3687.9
-209.28 -1301.19 3509.7
-205.55 -1336.08 3603.8
-199.95 -1361.59 3672.6
-184.63 -1320.09 3560.7
-181.05 -1362.61 3675.4
-155.38 -1388.73 3745.8
-145.28 -1385.04 3735.9
-134.66 -1375.43 3710.0
-121.64 -1338.02 3609.0
-113.72 -1355.14 3655.2
-105.05 -1365.66 3683.6
-92.66 -1325.08 3574.1
-55.51 -1322.90 3568.3
-47.40 -1355.62 3656.5
-37.56 -1342.79 3621.9
-28.15 -1341.78 3619.2
-19.04 -1361.61 3672.7
-9.40 -1343.89 3624.9
9.18 -1312.96 3541.4
38.91 -1391.11 3752.2
47.61 -1361.53 3672.4
55.20 -1315.60 3548.6
65.16 -1331.19 3590.6
76.43 -1366.23 3685.1
85.48 -1358.17 3663.4
113.78 -1355.84 3657.1
121.39 -1335.24 3601.5
132.31 -1351.46 3645.3
143.17 -1364.89 3681.5
150.84 -1348.09 3636.2
156.78 -1318.79 3557.2
163.54 -1299.20 3504.3
198.42 -1351.18 3644.5
208.22 -1353.44 3650.6
211.57 -1315.42 3548.1
224.76 -1339.19 3612.2
250.51 -1326.79 3578.8
261.99 -1338.02 3609.0
272.99 -1346.12 3630.9
272.83 -1300.47 3507.8
289.68 -1336.29 3604.4
315.21 -1365.93 3684.3
337.81 -1305.60 3521.6
360.94 -1358.28 3663.7
372.90 -1367.31 3688.1
379.76 -1357.66 3662.0
381.03 -1328.97 3584.6
380.99 -1297.18 3498.9
394.85 -1313.11 3541.8
408.50 -1327.63 3581.0
417.46 -1326.60 3578.2
419.40 -1303.79 3516.7
454.76 -1300.61 3508.1
483.03 -1354.39 3653.2
487.72 -1341.22 3617.7
487.36 -1314.95 3546.8
538.85 -1351.84 3646.3
530.39 -1307.67 3527.2
556.22 -1303.92 3517.1
562.60 -1297.61 3500.0
618.42 -1319.90 3560.2
634.25 -1333.79 3597.6
633.07 -1312.01 3538.9
660.61 -1349.53 3640.1
669.20 -1310.90 3535.9
749.50 -1307.06 3525.5
774.61 -1303.16 3515.0
785.59 -1306.27 3523.4
832.89 -1323.37 3569.5
838.91 -1318.29 3555.8
844.85 -1313.20 3542.1
851.83 -1309.80 3532.9
871.09 -1297.56 3499.9
883.59 -1302.61 3513.5
900.59 -1300.85 3508.8
931.15 -1331.54 3591.6
917.28 -1298.72 3503.0
948.22 -1329.37 3585.7
974.46 -1352.89 3649.1
989.97 -1361.21 3671.6
1010.53 -1376.25 3712.2
983.88 -1327.31 3580.2
979.74 -1309.37 3531.8
1012.68 -1340.87 3616.7
1014.96 -1307.56 3526.9
1046.07 -1335.60 3602.5
1051.84 -1331.09 3590.4
1067.97 -1339.64 3613.4
1065.35 -1324.74 3573.2
1055.75 -1301.49 3510.5
1204.38 -1294.93 3492.8
1258.10 -1342.60 3621.4
1235.71 -1308.93 3530.6
1270.36 -1297.58 3500.0
1274.26 -1292.34 3485.8
1310.79 -1292.71 3486.8
1363.31 -1335.29 3601.7
1376.97 -1339.50 3613.1
1398.81 -1351.55 3645.6
1372.43 -1317.17 3552.8
1476.18 -1344.55 3626.7
1482.59 -1341.84 3619.3
1491.32 -1292.47 3486.2
1508.82 -1299.77 3505.9
1712.94 -1302.92 3514.4
-1471.28 -1332.48 3569.2
-1440.65 -1313.00 3517.0
-1404.74 -1305.05 3495.7
-1399.01 -1334.15 3573.6
-1390.15 -1334.54 3574.7
-1314.78 -1305.72 3497.5
-1280.02 -1355.32 3630.3
-1256.88 -1340.68 3591.1
-1175.33 -1311.99 3514.3
-1171.47 -1317.91 3530.1
-1168.43 -1324.83 3548.6
-1179.48 -1369.72 3668.9
-1149.50 -1356.79 3634.3
-1099.67 -1308.69 3505.4
-1092.34 -1321.83 3540.6
-1130.43 -1379.50 3695.1
-1129.76 -1390.48 3724.5
-1104.01 -1370.49 3671.0
-1081.73 -1354.52 3628.2
-1038.16 -1334.77 3575.3
-1008.17 -1307.90 3503.3
-989.04 -1318.73 3532.3
-981.22 -1320.52 3537.1
-979.11 -1330.11 3562.8
-987.49 -1354.27 3627.5
-973.26 -1347.59 3609.6
-949.17 -1326.99 3554.4
-925.10 -1306.02 3498.3
-906.33 -1305.11 3495.8
-924.41 -1344.60 3601.6
-938.97 -1379.71 3695.6
-916.94 -1375.41 3684.1
-865.83 -1312.42 3515.4
-836.92 -1339.07 3586.8
-828.67 -1340.77 3591.3
-793.79 -1344.78 3602.1
-764.13 -1341.88 3594.3
-768.67 -1366.53 3660.3
-746.94 -1344.49 3601.3
-638.44 -1313.37 3517.9
-638.83 -1333.21 3571.1
-626.56 -1326.83 3554.0
-560.94 -1302.83 3489.7
-542.45 -1323.94 3546.3
-551.15 -1368.37 3665.3
-535.52 -1352.89 3623.8
-498.39 -1304.88 3495.2
-507.30 -1352.80 3623.6
-493.08 -1339.70 3588.5
-467.02 -1318.64 3532.1
-470.65 -1355.48 3630.8
-459.36 -1349.97 3616.0
-448.84 -1346.53 3606.8
-443.92 -1360.10 3643.1
-431.93 -1352.13 3621.8
-417.00 -1334.41 3574.3
-403.59 -1320.84 3538.0
-391.82 -1312.14 3514.6
-383.31 -1314.20 3520.2
-377.74 -1326.70 3553.7
-355.52 -1383.65 3706.2
-340.32 -1361.30 3646.3
-332.72 -1368.90 3666.7
-302.91 -1363.08 3651.1
-262.92 -1305.55 3497.0
-267.20 -1374.16 3680.8
-245.73 -1360.98 3645.5
-231.77 -1335.00 3575.9
-229.98 -1379.89 3696.1
-216.58 -1355.98 3632.1
-206.23 -1349.87 3615.7
-151.37 -1362.31 3649.1
-141.41 -1357.54 3636.3
-131.28 -1350.32 3616.9
-118.82 -1316.17 3525.5
-110.42 -1325.01 3549.1
-101.54 -1329.29 3560.6
-64.04 -1317.33 3528.6
-48.34 -1392.27 3729.3
-37.46 -1348.59 3612.3
-28.89 -1386.74 3714.5
9.55 -1375.58 3684.6
54.66 -1311.79 3513.7
65.38 -1344.96 3602.6
84.38 -1350.08 3616.3
93.43 -1345.46 3603.9
121.72 -1348.33 3611.6
130.06 -1337.74 3583.2
142.98 -1372.57 3676.5
153.23 -1379.09 3694.0
155.74 -1319.20 3533.6
186.02 -1339.38 3587.6
199.58 -1368.56 3665.8
203.19 -1329.97 3562.4
211.56 -1324.55 3547.9
230.50 -1383.03 3704.5
238.50 -1373.75 3679.7
270.51 -1343.23 3597.9
280.73 -1347.53 3609.4
284.56 -1321.83 3540.6
300.04 -1350.18 3616.5
309.44 -1350.27 3616.8
311.18 -1317.93 3530.2
318.15 -1308.96 3506.1
328.91 -1315.65 3524.1
337.89 -1315.02 3522.4
352.00 -1333.89 3572.9
367.50 -1356.92 3634.6
377.32 -1358.35 3638.4
379.72 -1333.66 3572.3
380.87 -1305.85 3497.8
432.75 -1298.24 3477.4
451.73 -1300.97 3484.7
491.60 -1388.06 3718.0
492.44 -1337.96 3583.8
532.77 -1345.96 3605.2
532.04 -1320.92 3538.2
545.10 -1308.25 3504.2
549.01 -1296.03 3471.5
585.72 -1297.61 3475.7
616.04 -1344.08 3600.2
634.93 -1364.63 3655.3
639.27 -1353.75 3626.1
640.50 -1299.05 3479.6
677.79 -1301.35 3485.8
699.60 -1325.56 3550.6
713.44 -1300.45 3483.3
721.95 -1299.51 3480.8
742.22 -1319.51 3534.4
764.32 -1342.23 3595.2
750.95 -1302.86 3489.8
815.56 -1304.90 3495.3
847.73 -1341.46 3593.2
878.85 -1375.58 3684.6
891.90 -1381.01 3699.1
887.89 -1360.17 3643.3
878.87 -1332.19 3568.4
902.41 -1353.61 3625.8
909.94 -1350.84 3618.3
888.26 -1305.19 3496.1
892.38 -1298.01 3476.8
958.15 -1339.55 3588.1
952.68 -1294.21 3466.6
981.94 -1309.25 3506.9
1041.62 -1376.09 3686.0
1053.38 -1354.35 3627.7
1022.43 -1302.92 3490.0
1132.76 -1315.47 3523.6
1150.45 -1304.44 3494.0
1163.07 -1298.31 3477.6
1186.40 -1294.25 3466.8
1245.36 -1328.38 3558.2
1290.69 -1366.61 3660.6
1267.03 -1331.77 3567.2
1263.28 -1299.37 3480.5
1492.02 -1294.28 3466.8
1501.24 -1294.48 3467.4
1882.01 -1315.58 3523.9
-1382.82 -1327.87 3532.3
-1374.05 -1328.25 3533.3
-1298.46 -1307.48 3478.0
-1266.50 -1350.32 3592.0
-1192.50 -1309.94 3484.6
-1237.32 -1369.55 3643.1
-1238.66 -1381.58 3675.1
-1235.36 -1388.58 3693.8
-1222.48 -1384.84 3683.8
-1214.64 -1386.80 3689.0
-1198.88 -1379.66 3670.0
-1190.75 -1381.27 3674.3
-1158.10 -1354.23 3602.4
-1102.86 -1343.82 3574.7
-1104.21 -1356.87 3609.4
-1065.78 -1320.84 3513.6
-1065.20 -1331.50 3541.9
-1069.86 -1348.95 3588.3
-1059.08 -1347.08 3583.4
-1002.17 -1309.14 3482.4
-983.26 -1308.00 3479.4
-985.97 -1323.76 3521.3
-967.12 -1322.94 3519.2
-990.16 -1367.36 3637.3
-972.97 -1356.55 3608.6
-946.71 -1332.75 3545.2
-900.31 -1318.64 3507.7
-912.53 -1350.17 3591.6
-916.77 -1370.43 3645.5
-910.76 -1375.62 3659.3
-877.26 -1338.98 3561.8
-835.39 -1331.12 3540.9
-821.73 -1323.89 3521.7
-773.89 -1304.82 3470.9
-769.10 -1312.00 3490.0
-749.06 -1324.56 3523.5
-751.26 -1344.85 3577.4
-731.08 -1325.08 3524.9
-686.51 -1309.79 3484.2
-631.72 -1308.56 3480.9
-623.11 -1309.42 3483.2
-628.32 -1339.80 3564.0
-622.85 -1347.96 3585.7
-610.15 -1340.48 3565.8
-594.43 -1326.04 3527.4
-567.95 -1307.19 3477.2
-572.97 -1340.02 3564.6
-561.74 -1335.27 3552.0
-545.37 -1317.98 3506.0
-548.51 -1348.04 3585.9
-550.27 -1375.67 3659.4
-523.56 -1331.86 3542.9
-496.39 -1308.66 3481.2
-496.61 -1333.50 3547.2
-454.84 -1319.04 3508.8
-443.51 -1312.43 3491.2
-438.05 -1323.28 3520.1
-435.84 -1344.62 3576.8
-429.24 -1353.03 3599.2
-417.74 -1346.04 3580.6
-407.82 -1343.94 3575.0
-397.61 -1340.78 3566.6
-387.95 -1339.37 3562.8
-386.53 -1367.00 3636.4
-384.44 -1393.59 3707.1
-366.25 -1361.68 3622.2
-348.58 -1330.10 3538.2
-334.92 -1312.52 3491.4
-325.24 -1310.00 3484.7
-322.79 -1337.27 3557.3
-321.19 -1369.80 3643.8
-311.01 -1366.56 3635.2
-301.41 -1365.77 3633.1
-286.27 -1339.00 3561.9
-261.30 -1306.48 3475.4
-254.77 -1319.33 3509.6
-244.86 -1314.98 3498.0
-240.80 -1342.93 3572.3
-214.11 -1349.83 3590.7
-197.26 -1300.12 3458.4
-182.13 -1320.47 3512.6
-177.15 -1351.91 3596.2
-153.68 -1392.76 3704.9
-144.27 -1394.65 3709.9
-133.04 -1377.88 3665.3
-119.29 -1330.51 3539.3
-111.31 -1345.03 3577.9
-102.71 -1353.92 3601.6
-93.48 -1355.41 3605.5
-86.58 -1394.88 3710.5
-47.51 -1377.87 3665.3
-36.81 -1334.28 3549.3
-28.06 -1356.47 3608.4
-19.04 -1380.42 3672.1
-9.36 -1356.86 3609.4
0.00 -1350.53 3592.5
9.38 -1360.02 3617.8
19.05 -1380.77 3673.0
46.89 -1359.93 3617.5
54.58 -1319.07 3508.9
124.36 -1387.14 3689.9
126.69 -1312.12 3490.4
146.04 -1323.49 3520.6
155.73 -1328.28 3533.4
163.35 -1315.84 3500.3
177.15 -1351.91 3596.2
185.04 -1341.56 3568.7
189.64 -1309.42 3483.2
208.09 -1311.89 3489.8
220.48 -1332.08 3543.5
242.11 -1300.24 3458.8
252.40 -1307.05 3476.9
265.79 -1328.94 3535.1
287.76 -1390.83 3699.8
301.57 -1366.47 3634.9
305.00 -1300.71 3460.0
320.17 -1326.40 3528.3
322.98 -1300.88 3460.5
354.28 -1317.19 3503.9
370.14 -1341.76 3569.2
380.00 -1343.89 3574.9
376.09 -1298.41 3453.9
404.06 -1301.97 3463.4
418.70 -1319.81 3510.8
433.01 -1335.88 3553.6
454.60 -1373.26 3653.0
457.68 -1354.36 3602.7
459.18 -1331.61 3542.2
484.44 -1377.32 3663.8
490.88 -1342.98 3572.5
482.97 -1296.86 3449.8
493.08 -1299.94 3458.0
526.16 -1315.39 3499.1
550.21 -1352.22 3597.0
562.81 -1360.11 3618.0
559.69 -1330.40 3539.0
557.80 -1304.53 3470.2
603.51 -1325.89 3527.0
635.48 -1355.07 3604.6
708.46 -1351.66 3595.5
728.49 -1371.82 3649.2
712.14 -1323.85 3521.6
709.09 -1301.49 3462.1
741.64 -1311.44 3488.6
860.92 -1356.88 3609.4
880.05 -1357.53 3611.2
850.75 -1298.52 3454.2
857.44 -1295.09 3445.1
905.13 -1312.43 3491.2
924.86 -1327.76 3532.0
916.67 -1303.11 3466.4
984.30 -1385.66 3686.0
995.49 -1387.94 3692.1
1014.20 -1349.17 3588.9
1048.68 -1382.35 3677.2
1008.41 -1317.30 3504.1
1024.48 -1326.34 3528.2
1042.51 -1337.74 3558.5
1045.96 -1307.45 3477.9
1046.66 -1297.14 3450.5
1069.01 -1302.58 3465.0
1095.47 -1323.69 3521.2
1115.15 -1336.33 3554.8
1138.38 -1353.00 3599.1
1163.26 -1371.32 3647.8
1141.68 -1335.03 3551.3
1206.39 -1377.38 3664.0
1242.23 -1364.57 3629.9
1252.59 -1365.61 3632.7
1226.48 -1327.16 3530.4
1261.21 -1354.63 3603.5
1294.71 -1380.39 3672.0
1253.76 -1326.97 3529.9
1233.72 -1296.30 3448.3
1258.05 -1312.36 3491.0
1322.15 -1304.16 3469.2
1327.08 -1300.18 3458.6
1392.85 -1294.64 3443.9
1515.92 -1316.22 3501.3
1498.41 -1293.27 3440.2
1894.14 -1333.26 3546.6
-1555.02 -1312.33 3467.0
-1541.90 -1324.22 3498.4
-1415.47 -1368.60 3615.7
-1370.28 -1333.74 3523.6
-1345.53 -1345.53 3554.7
-1349.94 -1359.25 3591.0
-1302.41 -1320.50 3488.6
-1239.86 -1321.31 3490.8
-1252.69 -1344.80 3552.8
-1232.24 -1332.64 3520.7
-1186.70 -1312.56 3467.6
-1219.40 -1359.03 3590.4
-1203.12 -1351.20 3569.7
-1234.10 -1396.73 3690.0
-1173.98 -1360.33 3593.8
-1186.63 -1385.98 3661.6
-1161.80 -1367.93 3613.9
-1112.49 -1353.52 3575.8
-1137.20 -1395.22 3686.0
-1109.94 -1373.31 3628.1
-1048.83 -1308.80 3457.7
-1010.76 -1305.94 3450.1
-1035.46 -1349.79 3566.0
-1035.94 -1362.58 3599.8
-986.25 -1309.02 3458.3
-953.64 -1313.51 3470.1
-978.75 -1360.93 3595.4
-970.48 -1362.40 3599.3
-942.31 -1335.71 3528.8
-913.29 -1307.25 3453.6
-905.32 -1308.68 3457.4
-923.25 -1347.94 3561.1
-921.06 -1358.32 3588.5
-914.10 -1361.82 3597.8
-894.73 -1346.71 3557.8
-866.03 -1317.09 3479.6
-852.31 -1309.86 3460.5
-741.39 -1336.33 3530.4
-736.57 -1344.24 3551.3
-706.43 -1305.56 3449.1
-690.08 -1308.46 3456.8
-679.05 -1304.50 3446.3
-678.64 -1321.08 3490.1
-686.83 -1355.09 3580.0
-680.10 -1360.19 3593.5
-672.60 -1363.89 3603.2
-657.09 -1351.19 3569.7
-628.51 -1310.90 3463.2
-620.28 -1312.47 3467.4
-626.33 -1344.77 3552.7
-613.67 -1337.25 3532.9
-592.89 -1311.55 3464.9
-593.93 -1334.07 3524.4
-589.00 -1343.66 3549.8
-568.83 -1318.25 3482.7
-558.82 -1315.92 3476.5
-546.19 -1307.29 3453.7
-536.87 -1328.51 3509.8
-547.16 -1377.34 3638.8
-521.20 -1335.01 3526.9
-482.56 -1304.71 3446.9
-482.19 -1328.28 3509.2
-477.98 -1342.03 3545.5
-432.13 -1314.40 3472.5
-421.78 -1310.19 3461.4
-405.89 -1316.88 3479.0
-404.61 -1342.56 3546.9
-401.94 -1364.73 3605.5
-397.66 -1382.33 3651.9
-383.73 -1366.46 3610.0
-369.05 -1347.05 3558.7
-357.46 -1338.19 3535.3
-344.15 -1322.28 3493.3
-330.88 -1305.64 3449.4
-321.23 -1302.75 3441.7
-315.16 -1314.66 3473.2
-309.09 -1327.27 3506.5
-303.57 -1343.06 3548.2
-299.07 -1364.49 3604.8
-293.60 -1382.74 3653.0
-283.31 -1378.75 3642.5
-266.75 -1342.97 3548.0
-250.22 -1304.70 3446.9
-242.30 -1310.21 3461.4
-240.22 -1348.92 3563.7
-233.37 -1362.90 3600.6
-216.00 -1313.97 3471.4
-205.58 -1304.97 3447.6
-198.00 -1313.97 3471.4
-188.00 -1307.07 3453.1
-181.64 -1325.97 3503.0
-170.37 -1309.14 3458.6
-162.73 -1319.90 3487.0
-141.97 -1381.84 3650.6
-111.30 -1354.21 3577.7
-104.54 -1387.57 3665.8
-76.18 -1390.28 3672.9
-47.25 -1379.82 3645.3
-37.78 -1379.15 3643.5
-28.67 -1395.46 3686.6
-9.45 -1379.91 3645.6
0.00 -1340.62 3541.8
9.12 -1331.77 3518.4
18.43 -1345.56 3554.8
28.54 -1389.09 3669.8
37.93 -1384.46 3657.6
45.05 -1315.39 3475.1
53.58 -1303.67 3444.1
65.85 -1373.35 3628.2
111.94 -1362.00 3598.2
120.00 -1347.74 3560.6
126.95 -1323.93 3497.7
142.50 -1300.35 3435.4
153.25 -1316.14 3477.1
162.12 -1314.95 3473.9
177.18 -1361.48 3596.9
186.43 -1360.97 3595.5
194.82 -1354.45 3578.3
205.35 -1362.76 3600.2
213.71 -1356.57 3583.9
223.32 -1358.50 3589.0
224.06 -1308.49 3456.9
247.72 -1339.53 3538.9
260.78 -1359.80 3592.4
265.91 -1338.73 3536.8
279.17 -1358.63 3589.3
290.00 -1365.80 3608.3
313.53 -1346.32 3556.8
320.99 -1339.00 3537.5
356.79 -1302.30 3440.5
378.98 -1349.55 3565.3
388.74 -1351.33 3570.1
387.11 -1314.38 3472.4
393.26 -1304.90 3447.4
405.89 -1316.88 3479.0
416.57 -1322.16 3493.0
424.04 -1317.23 3480.0
434.68 -1322.14 3492.9
443.96 -1322.82 3494.7
451.57 -1318.58 3483.5
470.77 -1347.70 3560.5
487.37 -1368.38 3615.1
497.99 -1371.82 3624.2
509.98 -1353.77 3576.5
541.31 -1362.62 3599.9
555.13 -1373.72 3629.2
559.17 -1360.64 3594.6
554.53 -1327.25 3506.4
597.79 -1322.38 3493.6
626.02 -1364.16 3603.9
610.06 -1309.84 3460.4
630.69 -1315.44 3475.2
662.69 -1362.70 3600.1
656.44 -1331.11 3516.6
655.35 -1310.69 3462.7
673.23 -1328.26 3509.1
700.54 -1328.29 3509.2
701.33 -1312.75 3468.1
710.57 -1313.21 3469.3
722.67 -1318.87 3484.3
776.32 -1317.94 3481.8
802.92 -1347.43 3559.8
799.23 -1326.00 3503.1
844.11 -1339.56 3539.0
843.78 -1296.75 3425.9
884.74 -1318.08 3482.2
905.42 -1335.26 3527.6
925.00 -1298.56 3430.6
1002.93 -1319.17 3485.1
1068.10 -1367.92 3613.9
1067.66 -1332.30 3519.8
1131.20 -1376.30 3636.0
1142.42 -1378.46 3641.7
1149.40 -1375.51 3633.9
1157.20 -1373.59 3628.8
1119.19 -1317.75 3481.3
1175.15 -1361.68 3597.4
1174.69 -1339.88 3539.8
1170.36 -1304.37 3446.0
1179.69 -1304.80 3447.1
1232.29 -1352.74 3573.8
1251.80 -1363.90 3603.2
1223.84 -1323.56 3496.7
1312.75 -1303.82 3444.5
1396.05 -1298.24 3429.8
1420.71 -1296.40 3424.9
-1709.76 -1336.88 3507.9
-1670.85 -1313.45 3446.4
-1522.48 -1308.80 3434.2
-1547.63 -1338.24 3511.4
-1421.66 -1331.11 3492.7
-1360.02 -1332.82 3497.2
-1378.82 -1360.31 3569.3
-1328.43 -1319.46 3462.1
-1317.12 -1317.12 3456.0
-1325.50 -1334.57 3501.8
-1296.87 -1314.76 3449.8
-1294.83 -1321.80 3468.3
-1269.96 -1393.17 3655.5
-1198.21 -1324.33 3474.9
-1214.40 -1352.40 3548.6
-1218.15 -1366.93 3586.7
-1184.16 -1339.01 3513.4
-1194.06 -1360.67 3570.3
-1159.34 -1352.56 3549.0
-1149.46 -1351.77 3546.9
-1154.84 -1369.05 3592.2
-1087.51 -1321.18 3466.7
-1122.49 -1375.05 3608.0
-1123.83 -1388.26 3642.7
-1099.16 -1369.29 3592.9
-1040.64 -1307.46 3430.7
-1016.30 -1333.89 3500.0
-1017.45 -1347.43 3535.5
-989.32 -1322.09 3469.0
-973.00 -1312.21 3443.1
-970.72 -1321.26 3466.9
-966.32 -1327.56 3483.4
-938.67 -1326.77 3481.3
-960.92 -1371.41 3598.4
-931.02 -1341.76 3520.7
-916.23 -1333.52 3499.0
-930.74 -1368.18 3590.0
-928.00 -1377.94 3615.6
-902.27 -1353.40 3551.2
-865.18 -1311.15 3440.3
-815.30 -1317.02 3455.7
-782.73 -1307.51 3430.8
-750.48 -1329.16 3487.6
-732.82 -1313.71 3447.1
-720.37 -1307.33 3430.3
-736.72 -1353.73 3552.0
-729.16 -1356.78 3560.1
-703.53 -1325.89 3479.0
-689.14 -1315.62 3452.1
-681.14 -1353.07 3550.3
-684.93 -1379.24 3619.0
-671.36 -1370.68 3596.5
-649.42 -1344.57 3528.0
-629.66 -1322.29 3469.6
-632.78 -1348.10 3537.3
-641.90 -1387.63 3641.0
-633.34 -1389.58 3646.1
-595.87 -1327.16 3482.3
-581.46 -1314.99 3450.4
-574.26 -1319.00 3460.9
-550.03 -1304.10 3421.8
-542.81 -1308.09 3432.3
-525.38 -1308.99 3434.7
-529.86 -1342.93 3523.7
-481.40 -1335.19 3503.4
-487.58 -1378.35 3616.7
-470.62 -1356.49 3559.3
-453.11 -1332.14 3495.4
-455.25 -1365.76 3583.6
-444.70 -1361.90 3573.5
-420.74 -1315.93 3452.9
-409.46 -1308.49 3433.4
-410.42 -1340.70 3517.9
-401.40 -1341.05 3518.8
-390.00 -1333.24 3498.3
-392.86 -1375.02 3607.9
-387.85 -1390.59 3648.8
-359.19 -1320.03 3463.6
-339.46 -1313.18 3445.7
-345.60 -1373.05 3602.8
-328.42 -1341.06 3518.8
-314.63 -1321.47 3467.4
-309.15 -1336.64 3507.2
-304.82 -1357.85 3562.9
-296.41 -1361.65 3572.9
-287.28 -1362.26 3574.4
-282.63 -1384.88 3633.8
-270.80 -1372.68 3601.8
-252.10 -1323.52 3472.8
-242.55 -1320.54 3465.0
-242.21 -1369.44 3593.3
-223.76 -1370.55 3596.2
-214.47 -1370.74 3596.7
-204.16 -1364.16 3579.4
-192.41 -1346.90 3534.1
-186.90 -1373.74 3604.6
-175.60 -1358.60 3564.8
-161.59 -1319.61 3462.5
-158.06 -1366.72 3586.1
-140.43 -1376.23 3611.1
-126.33 -1326.51 3480.7
-120.44 -1361.86 3573.4
-83.75 -1367.91 3589.3
-72.61 -1334.15 3500.7
-63.82 -1340.26 3516.7
9.36 -1375.71 3609.7
18.93 -1391.01 3649.9
45.52 -1338.22 3511.4
63.97 -1343.47 3525.1
74.78 -1374.03 3605.3
84.19 -1375.03 3607.9
102.45 -1369.17 3592.6
108.71 -1331.70 3494.3
120.81 -1366.13 3584.6
131.28 -1378.48 3617.0
137.20 -1344.55 3528.0
149.16 -1370.41 3595.8
160.57 -1388.42 3643.1
167.60 -1368.71 3591.4
188.31 -1384.06 3631.6
195.82 -1370.73 3596.7
205.65 -1374.12 3605.6
213.47 -1364.33 3579.9
226.43 -1386.90 3639.1
232.39 -1366.44 3585.4
232.15 -1312.57 3444.1
247.05 -1345.06 3529.3
253.86 -1332.76 3497.0
269.00 -1318.10 3458.6
281.44 -1334.56 3501.8
305.38 -1320.31 3464.4
337.99 -1307.50 3430.8
353.77 -1333.45 3498.8
355.14 -1305.14 3424.6
365.91 -1311.92 3442.4
389.22 -1362.27 3574.5
401.81 -1373.62 3604.2
400.13 -1336.80 3507.6
405.87 -1325.83 3478.9
417.10 -1332.91 3497.4
424.81 -1328.66 3486.3
431.19 -1320.52 3464.9
435.22 -1305.65 3425.9
443.85 -1304.92 3424.0
461.06 -1328.92 3487.0
488.45 -1380.82 3623.1
500.97 -1338.95 3513.3
496.87 -1304.29 3422.3
534.99 -1379.71 3620.2
547.40 -1387.37 3640.3
531.46 -1324.15 3474.4
550.35 -1348.36 3538.0
563.13 -1357.05 3560.8
550.33 -1304.81 3423.7
569.66 -1308.44 3433.2
606.81 -1372.33 3600.9
610.23 -1359.16 3566.3
597.45 -1310.83 3439.5
604.35 -1306.46 3428.0
620.25 -1321.41 3467.2
639.36 -1342.65 3523.0
661.96 -1370.54 3596.2
652.80 -1332.79 3497.1
651.84 -1312.61 3444.2
691.73 -1374.10 3605.5
700.06 -1372.12 3600.3
678.49 -1312.34 3443.5
751.50 -1299.65 3410.2
782.41 -1337.38 3509.2
781.64 -1320.70 3465.4
796.07 -1329.80 3489.3
798.82 -1319.39 3462.0
801.85 -1309.68 3436.5
828.00 -1337.54 3509.6
829.06 -1324.69 3475.9
832.36 -1315.67 3452.2
857.40 -1312.89 3444.9
865.18 -1311.15 3440.3
885.41 -1328.11 3484.8
892.32 -1324.96 3476.6
914.26 -1343.96 3526.4
935.72 -1361.89 3573.5
971.09 -1385.92 3636.5
940.62 -1329.53 3488.6
943.45 -1320.83 3465.7
1035.30 -1346.81 3533.9
1026.25 -1323.32 3472.3
1041.73 -1308.84 3434.3
1104.34 -1352.82 3549.7
1099.88 -1336.22 3506.1
1122.42 -1352.42 3548.6
1147.15 -1370.98 3597.3
1132.98 -1343.12 3524.2
1133.81 -1333.36 3498.6
1177.73 -1374.02 3605.3
1197.45 -1386.02 3636.8
1209.31 -1388.82 3644.1
1183.56 -1338.33 3511.6
1195.75 -1321.62 3467.8
1221.18 -1339.65 3515.1
1202.99 -1309.93 3437.1
1201.02 -1298.16 3406.3
1279.73 -1353.39 3551.2
1305.29 -1360.83 3570.7
1289.49 -1334.90 3502.6
1628.42 -1322.53 3470.2
1662.18 -1342.53 3522.7
1622.39 -1303.23 3419.6
-1708.51 -1330.84 3468.4
-1406.34 -1317.33 3433.2
-1444.74 -1361.92 3549.4
-1391.83 -1320.45 3441.3
-1341.91 -1315.25 3427.8
-1372.97 -1354.66 3530.5
-1365.21 -1356.05 3534.1
-1327.14 -1345.32 3506.2
-1309.12 -1336.20 3482.4
-1313.91 -1350.40 3519.4
-1310.01 -1355.82 3533.5
-1289.47 -1343.96 3502.6
-1257.44 -1319.87 3439.8
-1267.62 -1379.47 3595.2
-1201.56 -1337.07 3484.6
-1176.93 -1319.59 3439.1
-1201.17 -1357.05 3536.7
-1186.83 -1351.16 3521.4
-1145.13 -1313.79 3424.0
-1139.70 -1317.77 3434.4
-1130.31 -1338.28 3487.8
-1075.29 -1326.19 3456.3
-1089.16 -1354.59 3530.3
-1080.43 -1355.11 3531.7
-1056.42 -1336.33 3482.7
-1048.87 -1338.21 3487.6
-1035.92 -1333.18 3474.5
-1032.07 -1339.89 3492.0
-1027.88 -1346.24 3508.5
-1039.29 -1373.35 3579.2
-1041.28 -1388.37 3618.3
-1008.85 -1357.36 3537.5
-962.78 -1307.25 3406.9
-946.83 -1360.50 3545.7
-925.23 -1342.49 3498.8
-922.61 -1351.94 3523.4
-906.97 -1355.87 3533.6
-819.03 -1317.57 3433.8
-830.54 -1350.77 3520.4
-800.76 -1316.81 3431.8
-751.48 -1308.46 3410.1
-767.30 -1351.91 3523.3
-771.52 -1375.73 3585.4
-744.48 -1343.69 3501.9
-727.08 -1328.49 3462.3
-736.68 -1362.85 3551.8
-718.03 -1345.17 3505.8
-690.94 -1328.04 3461.1
-698.19 -1359.62 3543.4
-666.43 -1315.09 3427.4
-661.35 -1322.70 3447.2
-668.34 -1355.00 3531.4
-656.89 -1350.26 3519.0
-647.01 -1348.70 3514.9
-637.32 -1347.47 3511.7
-626.81 -1344.47 3503.9
-626.90 -1364.44 3556.0
-621.92 -1373.80 3580.4
-589.53 -1321.97 3445.3
-542.21 -1315.52 3428.5
-557.22 -1374.47 3582.1
-532.00 -1334.51 3478.0
-487.06 -1334.90 3479.0
-487.22 -1360.54 3545.8
-490.16 -1395.07 3635.8
-482.23 -1399.40 3647.1
-459.93 -1389.18 3620.5
-434.63 -1340.11 3492.6
-422.30 -1329.80 3465.7
-420.51 -1352.94 3526.0
-413.75 -1360.78 3546.4
-397.25 -1336.19 3482.4
-378.90 -1304.10 3398.7
-374.12 -1318.33 3435.8
-382.98 -1382.45 3602.9
-369.10 -1365.66 3559.2
-345.67 -1346.31 3508.7
-318.25 -1345.73 3507.2
-302.00 -1314.59 3426.0
-298.83 -1340.20 3492.8
-291.29 -1347.24 3511.1
-277.38 -1324.26 3451.3
-268.48 -1324.50 3451.9
-268.40 -1369.75 3569.8
-262.43 -1387.14 3615.1
-247.95 -1359.12 3542.1
-242.88 -1382.57 3603.2
-223.22 -1376.54 3587.5
-212.84 -1369.57 3569.3
-201.06 -1352.58 3525.1
-130.49 -1379.50 3595.2
-121.94 -1388.20 3617.9
-84.20 -1384.62 3608.6
-74.56 -1379.31 3594.7
-63.97 -1352.51 3524.9
-56.43 -1391.96 3627.7
9.42 -1394.26 3633.7
18.89 -1397.83 3643.0
46.40 -1373.38 3579.3
56.47 -1393.04 3630.5
65.14 -1377.23 3589.3
72.49 -1340.99 3494.9
79.78 -1311.91 3419.1
89.00 -1317.21 3432.9
102.87 -1384.10 3607.2
182.05 -1347.19 3511.0
185.60 -1308.03 3409.0
215.80 -1330.76 3468.2
225.60 -1335.57 3480.7
231.77 -1319.29 3438.3
247.10 -1354.47 3530.0
252.90 -1336.74 3483.8
277.16 -1323.19 3448.5
334.41 -1302.43 3394.4
356.10 -1351.35 3521.9
363.32 -1344.27 3503.4
367.97 -1328.27 3461.7
384.84 -1356.10 3534.2
405.40 -1395.32 3636.5
411.65 -1384.64 3608.6
402.81 -1324.81 3452.7
422.19 -1329.44 3464.8
440.86 -1359.32 3542.6
435.79 -1316.25 3430.4
454.41 -1318.69 3436.7
484.92 -1380.15 3596.9
493.07 -1376.89 3588.4
484.86 -1328.86 3463.3
488.66 -1314.95 3427.0
507.73 -1341.87 3497.1
528.66 -1372.66 3577.4
521.07 -1329.63 3465.3
541.84 -1336.53 3483.2
543.08 -1317.64 3434.0
567.95 -1313.40 3422.9
621.55 -1393.78 3632.4
598.39 -1321.82 3444.9
598.16 -1301.87 3392.9
610.67 -1309.84 3413.7
624.96 -1321.33 3443.6
638.54 -1331.04 3468.9
669.11 -1320.38 3441.1
737.84 -1315.67 3428.9
766.11 -1349.80 3517.8
780.30 -1358.64 3540.9
770.15 -1325.37 3454.1
803.00 -1335.33 3480.1
836.95 -1376.31 3586.9
840.44 -1366.87 3562.3
815.55 -1311.97 3419.2
857.26 -1349.73 3517.6
893.14 -1376.92 3588.5
861.96 -1315.15 3427.5
896.10 -1326.23 3456.4
893.87 -1309.83 3413.7
905.09 -1313.27 3422.6
922.64 -1325.74 3455.1
918.13 -1306.57 3405.1
932.34 -1314.15 3424.9
982.08 -1345.81 3507.4
992.37 -1347.44 3511.7
1009.62 -1358.40 3540.2
1036.61 -1382.14 3602.1
1015.74 -1342.23 3498.1
1022.51 -1315.93 3429.5
1036.70 -1322.69 3447.2
1041.44 -1317.37 3433.3
1060.93 -1330.66 3467.9
1086.95 -1351.84 3523.1
1086.73 -1340.30 3493.1
1075.68 -1315.70 3429.0
1089.52 -1321.71 3444.6
1114.28 -1340.76 3494.3
1107.64 -1322.02 3445.4
1130.98 -1317.99 3434.9
1181.42 -1366.02 3560.1
1201.83 -1368.24 3565.9
1173.66 -1325.97 3455.7
1199.45 -1344.84 3504.9
1202.17 -1337.75 3486.4
1178.26 -1301.37 3391.6
1216.92 -1305.10 3401.3
1252.91 -1334.03 3476.7
1256.50 -1328.30 3461.8
1258.09 -1320.54 3441.6
1267.04 -1320.58 3441.7
1262.91 -1307.07 3406.5
1316.44 -1325.40 3454.2
1316.96 -1316.96 3432.2
1332.98 -1324.04 3450.7
1346.01 -1328.06 3461.2
1323.37 -1297.08 3380.4
1467.18 -1340.39 3493.3
1440.52 -1307.96 3408.8
-1347.76 -1375.45 3560.6
-1328.02 -1374.13 3557.2
-1266.18 -1319.31 3415.3
-1256.31 -1318.25 3412.5
-1239.68 -1310.01 3391.2
-1224.81 -1361.92 3525.6
-1194.79 -1338.53 3465.0
-1163.38 -1323.23 3425.4
-1153.20 -1321.74 3421.6
-1120.77 -1325.36 3430.9
-1056.67 -1357.27 3513.5
-1044.98 -1390.20 3598.8
-975.89 -1321.89 3422.0
-962.76 -1316.06 3406.9
-943.72 -1352.06 3500.1
-956.80 -1397.68 3618.2
-877.82 -1321.16 3420.1
-869.01 -1334.87 3455.6
-853.05 -1324.00 3427.4
-852.45 -1337.00 3461.1
-835.50 -1324.35 3428.3
-759.51 -1331.38 3446.5
-766.46 -1359.56 3519.5
-763.40 -1370.44 3547.6
-757.66 -1376.73 3563.9
-750.11 -1379.84 3572.0
-740.43 -1379.05 3569.9
-709.55 -1338.26 3464.3
-676.08 -1308.26 3386.7
-693.44 -1359.51 3519.3
-674.79 -1340.59 3470.4
-668.54 -1346.12 3484.7
-673.52 -1374.72 3558.7
-645.52 -1335.88 3458.2
-609.33 -1315.80 3406.2
-601.38 -1317.74 3411.2
-590.21 -1312.55 3397.8
-549.27 -1364.03 3531.1
-532.54 -1344.88 3481.5
-483.41 -1333.84 3452.9
-486.42 -1367.49 3540.0
-472.77 -1354.68 3506.8
-450.97 -1317.53 3410.7
-457.98 -1364.77 3533.0
-458.60 -1394.51 3609.9
-432.87 -1343.71 3478.4
-420.24 -1332.26 3448.8
-404.01 -1308.63 3387.6
-392.57 -1329.37 3441.3
-397.19 -1376.30 3562.8
-375.92 -1333.62 3452.3
-367.95 -1337.17 3461.5
-368.40 -1372.27 3552.4
-355.98 -1360.03 3520.7
-346.66 -1359.26 3518.7
-331.15 -1370.61 3548.1
-293.48 -1325.10 3430.3
-293.59 -1367.02 3538.8
-285.21 -1370.87 3548.7
-275.56 -1368.59 3542.9
-227.16 -1353.86 3504.7
-210.63 -1307.65 3385.1
-195.15 -1321.68 3421.4
-167.52 -1386.73 3589.8
-136.24 -1353.28 3503.2
-125.68 -1337.55 3462.5
-119.54 -1370.07 3546.7
-109.07 -1354.33 3505.9
-98.47 -1333.88 3453.0
-92.60 -1379.72 3571.7
-56.25 -1396.91 3616.2
-45.83 -1365.61 3535.1
-37.34 -1390.87 3600.5
-9.26 -1379.03 3569.9
18.48 -1376.86 3564.3
27.55 -1368.55 3542.8
35.51 -1322.76 3424.2
55.19 -1370.61 3548.1
74.24 -1382.74 3579.5
81.56 -1350.25 3495.4
90.23 -1344.41 3480.3
175.89 -1379.39 3570.8
181.07 -1348.99 3492.1
190.86 -1354.23 3505.7
211.96 -1315.93 3406.5
223.78 -1333.72 3452.6
229.43 -1314.82 3403.7
243.37 -1343.03 3476.7
256.87 -1366.90 3538.5
262.64 -1349.42 3493.2
265.06 -1316.48 3408.0
271.16 -1303.31 3373.9
284.10 -1322.83 3424.4
300.96 -1358.86 3517.7
312.80 -1370.81 3548.6
317.13 -1350.07 3494.9
324.39 -1342.61 3475.6
332.17 -1337.66 3462.8
373.60 -1325.37 3431.0
401.74 -1392.07 3603.6
410.04 -1357.69 3514.6
413.35 -1310.42 3392.3
435.53 -1351.94 3499.8
436.59 -1327.59 3436.7
440.69 -1313.26 3399.6
463.08 -1352.93 3502.3
478.14 -1370.05 3546.6
472.44 -1328.17 3438.2
471.62 -1301.32 3368.7
507.02 -1302.51 3371.8
533.10 -1346.30 3485.2
537.21 -1334.08 3453.5
601.32 -1357.53 3514.2
607.64 -1351.32 3498.2
604.95 -1325.56 3431.5
613.78 -1325.40 3431.0
611.41 -1301.43 3369.0
718.97 -1339.07 3466.4
741.85 -1364.63 3532.6
731.60 -1329.37 3441.3
728.76 -1308.26 3386.7
754.32 -1338.02 3463.7
764.55 -1340.20 3469.4
800.65 -1340.41 3469.9
828.59 -1371.78 3551.1
827.92 -1355.61 3509.2
825.52 -1336.98 3461.0
839.33 -1344.73 3481.1
853.01 -1352.11 3500.2
865.21 -1357.02 3512.9
861.42 -1336.99 3461.1
860.66 -1308.56 3387.4
910.22 -1342.80 3476.1
918.72 -1342.05 3474.2
935.66 -1353.53 3503.9
915.43 -1311.53 3395.1
919.02 -1304.14 3376.0
951.33 -1337.24 3461.7
965.82 -1320.24 3417.7
996.73 -1314.27 3402.2
1016.42 -1305.57 3379.7
1044.96 -1330.76 3444.9
1052.39 -1328.87 3440.0
1068.38 -1337.72 3462.9
1096.73 -1361.77 3525.2
1114.14 -1371.95 3551.6
1080.73 -1319.90 3416.8
1089.24 -1308.84 3388.2
1120.16 -1303.94 3375.5
1147.80 -1325.75 3431.9
1298.42 -1307.20 3383.9
1372.30 -1372.30 3552.4
1380.78 -1371.58 3550.6
1350.83 -1332.94 3450.6
1429.56 -1323.01 3424.9
1434.34 -1319.24 3415.1
1636.01 -1310.57 3392.6
1716.82 -1311.83 3395.9
1779.70 -1352.93 3502.3
1779.94 -1300.06 3365.4
-1592.93 -1312.86 3375.9
-1381.37 -1311.43 3372.3
-1315.99 -1315.99 3384.0
-1346.85 -1355.89 3486.6
-1331.43 -1349.42 3469.9
-1332.55 -1378.50 3544.7
-1345.06 -1401.10 3602.8
-1268.46 -1330.55 3421.4
-1253.39 -1324.00 3404.6
-1249.03 -1328.75 3416.8
-1246.21 -1335.22 3433.4
-1242.35 -1340.67 3447.4
-1225.14 -1331.67 3424.3
-1161.85 -1330.36 3420.9
-1159.17 -1337.51 3439.3
-1151.64 -1339.12 3443.5
-1143.79 -1340.38 3446.7
-1109.52 -1310.46 3369.7
-1097.11 -1337.94 3440.4
-1095.13 -1346.47 3462.3
-1080.97 -1340.04 3445.8
-1022.73 -1334.00 3430.3
-1058.82 -1393.18 3582.5
-1057.82 -1404.18 3610.8
-992.41 -1329.12 3417.7
-1000.68 -1377.09 3541.1
-967.71 -1356.61 3488.4
-924.17 -1320.24 3394.9
-957.57 -1381.11 3551.4
-937.21 -1391.90 3579.2
-893.92 -1340.88 3448.0
-855.11 -1308.84 3365.6
-861.22 -1331.78 3424.6
-837.43 -1308.48 3364.7
-804.43 -1311.57 3372.6
-801.25 -1320.74 3396.2
-789.23 -1315.38 3382.4
-757.26 -1320.81 3396.4
-760.89 -1342.74 3452.8
-761.24 -1359.36 3495.5
-739.36 -1336.19 3435.9
-719.71 -1332.80 3427.2
-723.10 -1355.82 3486.4
-703.32 -1335.42 3433.9
-657.94 -1333.67 3429.4
-659.05 -1354.22 3482.3
-523.27 -1308.17 3363.9
-520.93 -1324.40 3405.6
-506.17 -1309.05 3366.1
-495.47 -1327.14 3412.7
-486.64 -1327.21 3412.8
-484.03 -1344.51 3457.3
-479.15 -1356.07 3487.0
-457.28 -1319.08 3391.9
-441.50 -1351.55 3475.4
-422.82 -1321.32 3397.7
-414.69 -1323.48 3403.2
-404.54 -1319.15 3392.1
-389.16 -1326.69 3411.5
-400.67 -1397.68 3594.0
-386.20 -1379.27 3546.7
-366.44 -1340.65 3447.4
-354.90 -1330.86 3422.2
-343.48 -1321.06 3397.0
-336.66 -1328.94 3417.3
-336.34 -1363.52 3506.2
-318.73 -1328.06 3415.0
-294.57 -1338.98 3443.1
-299.04 -1401.74 3604.5
-285.49 -1381.40 3552.2
-270.98 -1354.89 3484.0
-268.42 -1388.39 3570.1
-242.46 -1398.82 3597.0
-230.82 -1384.92 3561.2
-220.00 -1374.99 3535.7
-208.03 -1356.72 3488.7
-204.05 -1391.28 3577.6
-185.84 -1393.79 3584.0
-173.13 -1366.80 3514.6
-165.99 -1383.24 3556.9
-136.99 -1369.87 3522.5
-125.63 -1346.08 3461.3
-118.36 -1365.75 3511.9
-107.47 -1343.39 3454.4
-100.78 -1374.27 3533.8
-55.84 -1396.00 3589.7
-45.68 -1370.31 3523.7
-18.00 -1349.73 3470.7
-8.90 -1334.52 3431.6
0.00 -1399.40 3598.5
35.33 -1325.04 3407.3
55.03 -1375.70 3537.5
101.87 -1389.13 3572.0
108.98 -1362.23 3502.9
120.75 -1393.28 3582.7
137.39 -1373.86 3532.8
143.32 -1343.67 3455.2
174.27 -1375.85 3537.9
178.89 -1341.66 3450.0
184.82 -1320.14 3394.7
214.73 -1342.06 3451.0
227.26 -1363.57 3506.3
232.68 -1342.39 3451.9
238.99 -1327.72 3414.1
244.36 -1309.06 3366.2
269.43 -1303.69 3352.3
290.33 -1360.91 3499.5
301.01 -1368.24 3518.3
305.57 -1348.11 3466.6
321.91 -1379.62 3547.6
350.93 -1385.24 3562.1
340.57 -1309.88 3368.3
383.62 -1338.20 3441.1
390.64 -1331.73 3424.5
402.12 -1340.40 3446.7
407.41 -1328.52 3416.2
410.52 -1310.16 3369.0
424.67 -1327.08 3412.5
439.62 -1345.79 3460.6
457.10 -1371.31 3526.2
457.43 -1345.37 3459.5
478.08 -1303.85 3352.8
488.49 -1308.47 3364.6
505.89 -1308.33 3364.3
527.56 -1341.26 3449.0
528.14 -1320.36 3395.2
580.02 -1318.23 3389.7
605.21 -1354.94 3484.1
623.90 -1376.24 3538.9
629.37 -1368.20 3518.2
623.56 -1336.21 3436.0
628.50 -1327.81 3414.4
625.27 -1302.64 3349.6
653.72 -1307.43 3362.0
664.50 -1311.51 3372.5
672.58 -1310.23 3369.2
678.80 -1305.38 3356.7
793.48 -1322.46 3400.6
815.21 -1343.75 3455.3
836.76 -1364.29 3508.2
823.50 -1328.22 3415.4
839.66 -1325.78 3409.1
855.05 -1336.02 3435.5
851.18 -1316.25 3384.7
901.43 -1379.73 3547.9
907.54 -1361.32 3500.5
897.86 -1333.45 3428.9
936.63 -1377.40 3541.9
943.84 -1348.35 3467.2
955.76 -1352.48 3477.8
962.71 -1349.59 3470.4
984.86 -1307.33 3361.7
992.69 -1306.18 3358.7
1032.70 -1301.72 3347.3
1076.91 -1346.13 3461.5
1076.48 -1334.48 3431.5
1136.60 -1363.92 3507.2
1156.87 -1377.22 3541.4
1154.99 -1302.62 3349.6
1199.20 -1342.39 3451.9
1295.06 -1312.56 3375.2
1330.93 -1339.86 3445.4
1305.43 -1305.43 3356.8
1313.11 -1304.42 3354.2
1760.24 -1307.11 3361.1
-1387.09 -1325.63 3386.2
-1386.79 -1351.00 3451.0
-1373.01 -1346.26 3438.9
-1312.59 -1321.34 3375.2
-1293.72 -1319.94 3371.7
-1286.21 -1348.74 3445.2
-1283.45 -1355.26 3461.9
-1294.23 -1376.26 3515.5
-1312.49 -1405.58 3590.4
-1294.22 -1395.91 3565.7
-1277.64 -1387.94 3545.4
-1257.36 -1375.81 3514.4
-1198.59 -1321.08 3374.6
-1144.78 -1340.01 3422.9
-1153.51 -1360.78 3476.0
-1135.60 -1350.20 3448.9
-1125.09 -1348.32 3444.1
-1120.95 -1354.11 3458.9
-1144.27 -1393.43 3559.4
-1129.56 -1398.06 3571.2
-1059.90 -1322.69 3378.7
-1081.32 -1360.66 3475.7
-1087.08 -1379.41 3523.6
-1013.61 -1330.91 3399.7
-1026.91 -1360.21 3474.5
-1002.47 -1339.59 3421.8
-989.51 -1334.07 3407.8
-977.65 -1329.95 3397.2
-977.98 -1354.81 3460.7
-951.66 -1343.00 3430.6
-906.13 -1328.40 3393.3
-936.81 -1386.85 3542.6
-935.49 -1398.60 3572.6
-902.10 -1362.17 3479.5
-880.32 -1342.70 3429.8
-855.78 -1318.60 3368.2
-814.49 -1322.45 3378.1
-827.17 -1357.65 3468.0
-819.24 -1359.40 3472.5
-795.79 -1335.15 3410.5
-760.53 -1320.01 3371.8
-769.84 -1351.70 3452.8
-765.47 -1359.84 3473.6
-737.75 -1326.19 3387.6
-712.96 -1329.10 3395.1
-727.61 -1373.37 3508.1
-720.34 -1376.85 3517.0
-687.29 -1330.53 3398.7
-633.32 -1310.03 3346.3
-565.69 -1314.13 3356.8
-529.31 -1310.25 3346.9
-525.68 -1322.97 3379.4
-527.53 -1350.13 3448.8
-507.81 -1322.06 3377.1
-499.46 -1346.76 3440.2
-496.75 -1363.81 3483.7
-484.00 -1353.39 3457.1
-469.72 -1338.26 3418.5
-460.75 -1337.94 3417.6
-447.01 -1323.50 3380.8
-432.98 -1307.60 3340.1
-406.07 -1332.96 3404.9
-399.83 -1341.64 3427.1
-384.49 -1319.51 3370.6
-375.54 -1318.75 3368.6
-380.11 -1366.59 3490.8
-377.65 -1390.86 3552.8
-357.09 -1348.00 3443.3
-339.52 -1314.56 3357.9
-329.79 -1310.49 3347.5
-325.19 -1327.12 3390.0
-325.04 -1363.35 3482.5
-314.90 -1358.55 3470.3
-287.65 -1316.20 3362.1
-297.16 -1402.23 3581.8
-287.70 -1401.39 3579.7
-266.99 -1343.83 3432.7
-257.57 -1341.15 3425.8
-249.81 -1347.19 3441.3
-240.08 -1342.68 3429.7
-232.16 -1348.34 3444.2
-223.75 -1351.45 3452.1
-213.79 -1345.09 3435.9
-202.97 -1332.54 3403.8
-198.36 -1361.47 3477.7
-191.80 -1379.12 3522.8
-183.94 -1388.75 3547.4
-176.41 -1402.01 3581.3
-127.55 -1375.73 3514.2
-118.76 -1379.48 3523.7
-106.57 -1340.95 3425.3
-98.67 -1354.53 3460.0
-72.89 -1375.89 3514.6
-62.82 -1355.18 3461.7
-27.14 -1366.27 3490.0
-17.69 -1335.30 3410.9
-8.91 -1344.79 3435.1
0.00 -1375.05 3512.4
27.78 -1398.35 3571.9
36.41 -1374.63 3511.3
107.75 -1355.89 3463.5
115.75 -1344.50 3434.4
146.79 -1385.32 3538.7
179.60 -1355.98 3463.7
208.53 -1311.97 3351.3
221.64 -1338.72 3419.6
279.12 -1359.59 3472.9
293.62 -1385.51 3539.1
295.99 -1354.36 3459.6
306.12 -1359.55 3472.8
342.72 -1398.65 3572.7
355.93 -1378.07 3520.1
347.96 -1313.53 3355.3
379.05 -1331.08 3400.1
384.18 -1318.42 3367.8
394.10 -1322.43 3378.0
404.63 -1328.25 3392.9
412.75 -1326.08 3387.3
424.07 -1334.05 3407.7
436.78 -1345.98 3438.2
450.24 -1359.72 3473.3
446.40 -1321.69 3376.1
475.56 -1305.63 3335.1
494.64 -1333.76 3406.9
503.04 -1332.60 3404.0
507.95 -1322.42 3378.0
517.10 -1323.42 3380.5
521.24 -1311.79 3350.8
556.88 -1313.90 3356.2
564.60 -1311.61 3350.4
582.20 -1332.00 3402.5
606.77 -1367.49 3493.1
599.06 -1330.27 3398.0
618.67 -1315.77 3361.0
634.32 -1330.32 3398.2
637.66 -1319.00 3369.3
677.11 -1310.82 3348.4
690.36 -1319.55 3370.7
755.20 -1326.00 3387.1
759.30 -1317.86 3366.4
777.25 -1318.71 3368.5
813.41 -1364.72 3486.0
839.84 -1393.58 3559.8
847.12 -1390.39 3551.6
815.80 -1324.58 3383.5
838.29 -1332.44 3403.6
867.66 -1364.76 3486.1
881.25 -1371.84 3504.2
877.19 -1351.59 3452.5
858.70 -1309.73 3345.6
880.27 -1329.21 3395.3
918.43 -1373.10 3507.4
906.68 -1342.25 3428.6
903.72 -1324.87 3384.2
933.16 -1354.87 3460.9
934.22 -1343.50 3431.8
934.39 -1331.07 3400.1
936.41 -1321.47 3375.6
943.34 -1318.93 3369.1
964.49 -1336.13 3413.0
968.40 -1329.34 3395.7
970.92 -1320.80 3373.8
975.16 -1314.72 3358.3
992.21 -1325.87 3386.8
1012.85 -1341.58 3426.9
1006.38 -1321.43 3375.5
1038.23 -1351.49 3452.3
1063.92 -1373.09 3507.4
1052.61 -1346.98 3440.7
1075.21 -1364.34 3485.1
1066.30 -1341.76 3427.4
1073.45 -1317.82 3366.2
1082.61 -1318.34 3367.6
1102.46 -1331.77 3401.9
1112.47 -1312.36 3352.3
1162.63 -1319.98 3371.8
1174.86 -1323.91 3381.8
1205.52 -1300.24 3321.3
1235.80 -1323.45 3380.6
1229.70 -1307.64 3340.2
1293.90 -1366.28 3490.0
1298.69 -1361.82 3478.6
1281.61 -1316.48 3362.8
1289.01 -1315.14 3359.4
1339.15 -1339.15 3420.7
1334.92 -1326.13 3387.5
1550.36 -1300.58 3322.2
1689.24 -1308.07 3341.3
-1656.91 -1339.63 3399.4
-1648.77 -1340.18 3400.8
-1643.48 -1343.06 3408.1
-1382.58 -1313.45 3333.0
-1346.50 -1320.44 3350.7
-1379.61 -1361.69 3455.4
-1322.56 -1313.92 3334.2
-1314.95 -1314.95 3336.8
-1247.79 -1317.12 3342.3
-1255.05 -1334.04 3385.3
-1276.69 -1366.60 3467.9
-1294.39 -1395.37 3540.9
-1279.44 -1389.10 3525.0
-1200.97 -1313.29 3332.6
-1190.68 -1330.77 3376.9
-1194.54 -1344.96 3413.0
-1191.14 -1351.15 3428.7
-1189.19 -1359.08 3448.8
-1156.50 -1331.73 3379.4
-1155.44 -1361.45 3454.8
-1137.03 -1360.85 3453.3
-1095.10 -1321.08 3352.4
-1130.73 -1374.96 3489.1
-1100.41 -1371.01 3479.1
-1046.24 -1325.24 3362.9
-1097.51 -1401.86 3557.4
-1077.21 -1387.59 3521.1
-1029.10 -1336.95 3392.6
-1040.35 -1363.21 3459.3
-1029.08 -1360.18 3451.6
-986.30 -1315.06 3337.1
-991.92 -1334.27 3385.8
-1011.65 -1372.95 3484.0
-1017.96 -1393.97 3537.3
-1005.55 -1389.49 3526.0
-974.88 -1359.47 3449.8
-957.69 -1347.86 3420.3
-927.13 -1317.05 3342.1
-926.00 -1379.92 3501.7
-933.53 -1404.91 3565.1
-906.97 -1378.60 3498.3
-912.80 -1401.46 3556.3
-907.06 -1406.86 3570.0
-860.47 -1348.36 3421.6
-810.08 -1324.01 3359.8
-800.05 -1321.82 3354.2
-819.63 -1369.05 3474.1
-823.12 -1390.16 3527.7
-800.53 -1367.19 3469.4
-798.98 -1380.06 3502.0
-794.80 -1388.62 3523.8
-779.75 -1378.16 3497.2
-753.58 -1347.58 3419.6
-729.75 -1352.70 3432.6
-727.31 -1364.83 3463.4
-715.06 -1358.61 3447.6
-725.90 -1396.67 3544.2
-710.00 -1383.60 3511.0
-682.58 -1347.43 3419.2
-662.47 -1324.93 3362.1
-630.87 -1313.60 3333.4
-621.80 -1312.70 3331.1
-598.09 -1317.52 3343.3
-590.13 -1319.12 3347.4
-561.33 -1312.64 3331.0
-550.05 -1348.51 3422.0
-546.90 -1362.77 3458.2
-544.71 -1379.93 3501.7
-540.46 -1392.38 3533.3
-514.44 -1348.18 3421.1
-492.52 -1313.39 3332.8
-490.19 -1330.53 3376.3
-489.75 -1353.48 3434.6
-479.57 -1349.91 3425.5
-458.41 -1314.68 3336.1
-446.87 -1331.84 3379.7
-447.21 -1359.52 3449.9
-429.47 -1332.24 3380.7
-410.23 -1355.56 3439.9
-403.04 -1361.38 3454.6
-387.96 -1340.22 3400.9
-379.44 -1341.28 3403.6
-385.52 -1395.23 3540.5
-361.87 -1375.09 3489.4
-348.12 -1356.78 3443.0
-341.28 -1365.12 3464.1
-326.86 -1342.77 3407.4
-316.02 -1334.29 3385.9
-321.85 -1397.77 3547.0
-287.08 -1322.30 3355.4
-285.66 -1400.66 3554.3
-241.24 -1358.06 3446.2
-225.89 -1320.58 3351.1
-221.69 -1347.86 3420.3
-215.97 -1367.82 3471.0
-202.13 -1335.79 3389.7
-196.22 -1355.73 3440.3
-191.63 -1387.03 3519.7
-183.83 -1397.08 3545.2
-171.13 -1369.04 3474.1
-162.01 -1368.09 3471.6
-108.27 -1371.37 3480.0
-95.80 -1323.81 3359.3
-88.69 -1348.08 3420.9
-18.41 -1399.06 3550.2
-9.10 -1382.57 3508.4
0.00 -1385.87 3516.8
9.09 -1381.10 3504.7
17.93 -1362.39 3457.2
27.53 -1395.00 3539.9
108.61 -1375.76 3491.1
111.79 -1307.14 3317.0
124.67 -1353.57 3434.8
182.53 -1387.19 3520.1
185.91 -1345.65 3414.7
191.30 -1321.69 3353.9
200.52 -1325.17 3362.8
235.59 -1377.30 3495.0
235.45 -1325.50 3363.6
243.66 -1322.73 3356.6
253.44 -1328.37 3370.9
263.79 -1336.55 3391.6
280.14 -1373.61 3485.7
288.59 -1370.80 3478.5
295.17 -1359.57 3450.0
308.31 -1378.31 3497.6
319.25 -1386.44 3518.2
320.08 -1351.46 3429.4
323.66 -1329.63 3374.1
335.26 -1341.02 3403.0
345.22 -1345.47 3414.3
346.98 -1318.52 3345.9
363.45 -1315.35 3337.8
385.84 -1363.89 3461.0
395.77 -1367.20 3469.4
393.54 -1329.30 3373.2
417.72 -1322.77 3356.7
427.83 -1327.14 3367.7
437.27 -1329.31 3373.3
443.57 -1322.01 3354.7
448.03 -1309.62 3323.3
461.58 -1323.77 3359.2
476.99 -1342.63 3407.1
478.17 -1321.50 3353.4
482.16 -1308.73 3321.0
495.25 -1320.65 3351.3
503.35 -1319.13 3347.4
510.03 -1313.97 3334.3
553.81 -1315.30 3337.7
561.95 -1314.09 3334.6
580.28 -1336.41 3391.3
609.59 -1382.96 3509.4
607.29 -1357.47 3444.7
680.04 -1308.43 3320.3
690.43 -1311.81 3328.8
776.12 -1355.97 3440.9
807.85 -1334.71 3386.9
797.61 -1303.61 3308.0
826.20 -1321.91 3354.5
843.70 -1335.86 3389.9
859.78 -1347.29 3418.9
859.21 -1332.65 3381.7
876.02 -1331.55 3378.9
900.39 -1355.04 3438.5
877.02 -1306.94 3316.5
908.78 -1328.22 3370.5
919.45 -1331.02 3377.6
923.96 -1324.92 3362.1
969.37 -1377.05 3494.4
1023.91 -1389.59 3526.2
1000.86 -1346.29 3416.3
981.79 -1309.05 3321.8
993.80 -1313.54 3333.2
1051.13 -1377.34 3495.1
1066.58 -1385.65 3516.2
1044.36 -1345.28 3413.8
1079.58 -1378.95 3499.2
1083.78 -1372.79 3483.6
1047.84 -1316.29 3340.2
1071.05 -1334.43 3386.2
1107.85 -1369.05 3474.1
1104.66 -1354.10 3436.2
1137.90 -1361.90 3456.0
1144.91 -1359.58 3450.1
1147.42 -1352.00 3430.8
1170.18 -1368.21 3472.0
1158.62 -1304.52 3310.3
1235.26 -1380.58 3503.4
1226.19 -1360.45 3452.3
1242.32 -1348.81 3422.7
1286.02 -1386.35 3518.0
1293.21 -1384.28 3512.8
1297.44 -1379.10 3499.6
1251.40 -1320.93 3352.0
