ply
format ascii 1.0
element vertex 2193
property float x
property float y
property float z
end_header
666.18 545.70 2733.6
694.86 535.04 2680.2
704.86 537.37 2691.8
775.36 528.34 2646.6
1067.71 540.88 2709.4
1135.69 546.55 2737.8
1194.58 544.28 2726.4
1215.65 547.40 2742.1
1210.26 538.67 2698.4
1222.99 541.21 2711.1
1248.35 543.07 2720.4
1252.14 535.64 2683.2
1262.15 531.07 2660.3
1339.88 548.78 2749.0
1351.31 550.53 2757.8
1410.53 548.54 2747.8
1392.86 528.33 2646.5
1451.35 534.71 2678.5
1488.39 540.60 2708.0
1503.06 540.82 2709.1
1474.90 528.22 2646.0
1565.06 545.29 2731.5
1687.43 552.90 2769.7
1661.85 542.21 2716.1
1716.87 533.06 2670.2
1737.32 537.24 2691.2
1776.84 545.09 2730.5
1806.69 539.21 2701.0
1826.92 541.05 2710.3
1823.73 533.94 2674.7
1849.23 535.30 2681.5
1913.39 541.66 2713.3
1963.75 553.88 2774.5
1918.50 535.23 2681.1
1941.64 533.95 2674.7
2033.43 557.20 2791.2
1953.72 533.46 2672.3
2096.11 541.61 2713.1
2105.41 542.20 2716.0
2201.75 533.13 2670.6
2318.06 559.53 2802.8
-2067.60 503.65 2556.1
-1738.82 500.57 2540.5
-1712.94 504.59 2560.9
-1706.65 504.69 2561.4
-1657.28 499.82 2536.7
-1653.69 500.72 2541.2
-1514.89 513.98 2608.5
-1506.82 513.53 2606.3
-1463.83 501.13 2543.3
-1449.26 507.58 2576.0
-1425.84 501.68 2546.1
-1441.87 509.68 2586.7
-1415.66 502.76 2551.6
-1362.60 505.16 2563.8
-1306.43 506.57 2571.0
-1330.85 518.69 2632.5
-1253.86 509.59 2586.3
-1259.50 514.63 2611.9
-1206.05 514.94 2613.4
-1148.74 504.65 2561.2
-1147.85 513.16 2604.4
-1059.21 506.29 2569.5
-1006.24 516.72 2622.4
-978.29 509.25 2584.5
-888.65 515.55 2616.5
-899.18 525.67 2667.9
-854.80 519.72 2637.7
-850.08 521.02 2644.3
-811.61 514.02 2608.7
-818.74 522.89 2653.8
-796.62 513.08 2604.0
-711.16 514.75 2612.4
-702.02 513.02 2603.7
-660.67 523.03 2654.5
-635.28 524.80 2663.4
-618.13 516.24 2620.0
-609.67 514.83 2612.9
-592.17 523.31 2655.9
-577.56 516.41 2620.9
-573.16 518.57 2631.8
-481.90 508.67 2581.6
-401.32 516.95 2623.6
-398.75 522.49 2651.8
-301.43 520.65 2642.4
-218.64 519.28 2635.4
-138.30 525.54 2667.2
-127.54 510.16 2589.1
-124.73 526.63 2672.8
-118.98 531.91 2699.5
-110.65 525.59 2667.5
-101.30 513.28 2605.0
-81.28 514.76 2612.5
-76.80 530.65 2693.1
-68.84 523.15 2655.1
0.00 513.46 2605.9
6.78 515.58 2616.7
41.83 529.83 2689.0
47.52 515.89 2618.2
68.53 520.83 2643.3
75.21 519.63 2637.2
81.71 517.47 2626.3
104.13 527.57 2677.5
151.08 521.92 2648.8
163.67 518.29 2630.4
202.09 529.61 2687.9
211.00 534.52 2712.8
252.14 532.30 2701.5
256.65 527.17 2675.5
320.27 517.89 2628.4
370.49 531.27 2696.3
376.59 520.38 2641.0
394.22 516.57 2621.7
432.93 522.26 2650.6
449.91 534.26 2711.5
448.43 524.32 2661.0
481.99 515.94 2618.5
537.81 530.82 2694.0
565.72 537.43 2727.6
556.56 522.21 2650.3
581.58 520.00 2639.1
591.74 522.94 2654.0
620.67 530.01 2689.9
643.89 526.19 2670.5
655.56 530.03 2690.0
783.44 522.29 2650.7
818.16 522.52 2651.9
843.72 534.36 2712.0
874.92 519.48 2636.5
911.33 536.91 2724.9
924.23 528.13 2680.4
919.78 517.80 2627.9
955.38 522.37 2651.1
955.44 518.67 2632.3
1019.89 527.29 2676.1
1046.64 530.30 2691.4
1061.76 523.99 2659.3
1100.02 532.49 2702.5
1107.92 532.92 2704.7
1098.95 525.29 2665.9
1105.87 522.03 2649.4
1121.44 522.88 2653.7
1203.69 531.86 2699.3
1187.81 521.81 2648.3
1213.15 520.90 2643.7
1226.26 523.57 2657.2
1286.50 522.86 2653.6
1346.22 541.34 2747.4
1307.94 520.44 2641.3
1338.92 529.99 2689.8
1382.72 536.16 2721.1
1380.95 530.06 2690.2
1367.08 522.10 2649.8
1390.66 520.64 2642.3
1461.30 531.38 2696.9
1492.29 534.97 2715.1
1463.43 522.16 2650.1
1564.69 528.52 2682.3
1614.17 522.03 2649.4
1762.82 540.22 2741.7
1847.96 542.26 2752.1
1837.70 531.05 2695.2
1907.69 547.11 2776.7
1960.99 545.92 2770.6
1906.36 528.77 2683.6
2020.72 546.53 2773.7
1978.26 533.15 2705.8
2083.67 529.63 2688.0
2217.19 533.25 2706.3
2277.79 542.67 2754.2
-2058.89 494.93 2545.3
-2081.52 501.98 2581.6
-1866.95 496.53 2553.6
-1769.19 491.44 2527.4
-1741.64 494.78 2544.6
-1659.31 505.89 2601.7
-1638.59 501.61 2579.7
-1588.24 496.32 2552.5
-1561.37 498.31 2562.7
-1494.15 500.27 2572.8
-1459.21 509.03 2617.9
-1414.42 498.04 2561.3
-1396.94 494.20 2541.6
-1408.85 500.78 2575.4
-1319.44 502.33 2583.4
-1200.33 497.37 2557.9
-1137.62 496.06 2551.1
-1165.54 517.25 2660.2
-1066.15 496.65 2554.2
-1088.54 513.46 2640.7
-1091.97 518.34 2665.8
-1032.29 502.74 2585.5
-985.17 499.24 2567.5
-1014.37 517.54 2661.6
-987.41 507.23 2608.6
-963.36 505.26 2598.5
-955.03 504.42 2594.1
-950.76 505.72 2600.9
-956.86 512.61 2636.3
-964.13 520.21 2675.4
-877.34 502.29 2583.2
-846.42 503.82 2591.1
-727.44 514.70 2647.0
-723.10 516.50 2656.3
-700.30 505.02 2597.3
-653.13 499.85 2570.6
-633.53 522.14 2685.3
-611.74 509.78 2621.7
-572.06 516.92 2658.5
-494.81 508.37 2614.5
-490.60 511.04 2628.2
-479.73 506.76 2606.2
-479.85 514.13 2644.1
-467.32 507.96 2612.4
-461.56 516.67 2657.2
-389.88 504.16 2592.8
-348.58 502.76 2585.6
-345.85 508.60 2615.7
-255.08 503.46 2589.2
-226.71 515.25 2649.9
-222.08 520.50 2676.8
-190.56 510.43 2625.1
-179.58 518.03 2664.2
-129.15 509.79 2621.8
-122.96 512.33 2634.8
-114.63 505.71 2600.8
-20.63 515.71 2652.2
6.76 506.95 2607.2
40.44 505.55 2600.0
88.75 512.01 2633.2
98.02 525.13 2700.7
103.91 519.55 2672.0
130.84 516.46 2656.1
137.25 514.68 2646.9
183.15 528.32 2717.1
197.18 509.95 2622.6
210.34 525.84 2704.3
237.32 523.51 2692.3
257.39 508.02 2612.7
267.46 514.35 2645.2
287.39 513.19 2639.3
304.13 506.88 2606.8
310.45 506.17 2603.1
319.83 510.37 2624.8
356.79 524.69 2698.4
353.83 510.33 2624.5
364.46 506.20 2603.3
398.66 524.55 2697.7
417.97 522.46 2686.9
412.65 507.36 2609.3
431.23 513.37 2640.2
444.98 521.46 2681.8
439.67 507.31 2609.0
446.91 507.85 2611.8
458.53 513.28 2639.7
537.51 510.29 2624.4
599.46 510.90 2627.5
648.59 512.05 2633.4
682.61 517.13 2659.5
688.10 516.08 2654.1
717.43 512.45 2635.4
796.45 514.95 2648.3
834.34 517.15 2659.6
872.20 511.06 2628.3
885.53 514.84 2647.8
940.07 510.91 2627.5
1012.32 527.25 2711.6
1035.48 531.92 2735.6
1057.30 532.20 2737.0
1068.60 530.76 2729.6
1064.21 521.67 2682.9
1091.04 531.35 2732.7
1116.57 520.14 2675.0
1162.47 518.96 2668.9
1160.01 514.80 2647.5
1221.03 532.42 2738.2
1225.10 522.06 2684.9
1241.57 526.09 2705.6
1241.08 517.12 2659.5
1323.32 519.63 2672.4
1426.92 514.51 2646.1
1555.07 520.67 2677.7
1581.67 527.22 2711.4
1578.53 516.99 2658.8
1618.53 527.78 2714.3
1660.76 539.21 2773.1
1592.37 514.77 2647.4
1742.09 526.84 2709.5
1792.61 535.64 2754.7
1841.91 529.28 2722.0
1859.00 532.16 2736.8
1886.15 537.88 2766.2
1889.43 536.77 2760.5
1913.60 531.56 2733.7
1950.20 539.72 2775.7
1886.77 520.25 2675.6
1942.85 526.04 2705.4
1945.80 524.94 2699.7
2008.63 530.45 2728.0
2027.94 533.67 2744.6
2085.82 535.74 2755.2
2079.05 532.18 2736.9
2040.11 518.67 2667.5
2078.82 526.73 2708.9
2125.50 536.74 2760.4
2126.42 535.17 2752.3
2089.77 524.19 2695.8
2114.83 518.34 2665.7
-1938.04 486.15 2534.0
-1950.61 490.97 2559.1
-1896.71 497.72 2594.3
-1884.70 496.33 2587.0
-1745.67 494.94 2579.8
-1589.14 500.41 2608.3
-1499.64 486.73 2537.0
-1515.73 494.12 2575.5
-1496.76 490.09 2554.5
-1475.87 487.57 2541.4
-1438.74 490.63 2557.3
-1470.75 503.87 2626.3
-1435.75 494.16 2575.8
-1326.23 498.18 2596.7
-1341.38 506.44 2639.7
-1207.11 490.80 2558.2
-1201.16 493.81 2573.9
-1148.49 497.01 2590.6
-1147.60 499.54 2603.8
-1134.40 496.72 2589.1
-1100.73 505.92 2637.1
-1066.85 496.52 2588.0
-1057.72 495.39 2582.1
-1033.61 490.30 2555.6
-1047.32 503.26 2623.2
-978.49 506.35 2639.3
-969.75 508.95 2652.8
-926.51 493.25 2571.0
-883.42 506.77 2641.5
-864.53 499.81 2605.2
-849.18 502.72 2620.3
-843.91 503.62 2625.1
-819.19 492.84 2568.9
-819.05 496.80 2589.5
-824.69 504.36 2628.9
-793.12 505.96 2637.2
-778.68 501.06 2611.7
-777.19 513.50 2676.5
-771.31 514.20 2680.2
-738.44 496.77 2589.3
-741.03 503.08 2622.3
-730.22 505.01 2632.3
-666.06 497.86 2595.0
-628.18 510.83 2662.6
-618.27 508.36 2649.7
-428.27 503.05 2622.1
-424.21 514.61 2682.3
-409.56 505.12 2632.9
-407.04 510.53 2661.1
-397.08 506.62 2640.7
-385.78 500.84 2610.5
-286.88 505.46 2634.7
-279.61 504.66 2630.5
-270.63 500.67 2609.7
-264.72 502.30 2618.1
-255.40 497.36 2592.4
-248.64 497.29 2592.0
-225.48 505.62 2635.5
-218.29 504.79 2631.1
-198.68 506.97 2642.5
-177.69 505.73 2636.1
-168.09 497.54 2593.4
-162.98 502.51 2619.3
-155.04 498.82 2600.0
-129.11 502.86 2621.1
-87.83 499.97 2606.0
-54.03 499.76 2604.9
-33.92 502.09 2617.1
40.60 500.75 2610.1
47.79 505.25 2633.5
54.37 502.97 2621.6
61.67 507.08 2643.1
68.27 505.17 2633.1
80.99 499.45 2603.3
89.62 510.14 2659.0
95.86 506.70 2641.1
110.31 510.18 2659.3
130.76 509.26 2654.4
162.37 500.63 2609.5
169.55 501.87 2615.9
202.58 516.92 2694.4
209.14 515.89 2689.0
212.37 506.96 2642.4
217.23 502.35 2618.4
231.76 519.70 2708.9
258.96 504.29 2628.6
266.40 505.48 2634.8
279.55 517.16 2695.6
329.97 519.52 2707.9
345.28 521.45 2718.0
358.54 500.60 2609.3
400.29 519.67 2708.7
396.20 505.50 2634.9
407.19 510.72 2662.0
409.71 505.31 2633.9
422.21 512.19 2669.7
438.32 523.16 2726.9
443.63 521.09 2716.1
442.13 511.21 2664.6
460.60 508.72 2651.6
474.27 516.12 2690.2
467.54 501.42 2613.6
543.47 509.08 2653.5
557.27 515.47 2686.8
581.85 512.58 2671.7
599.29 503.95 2626.8
650.30 506.55 2640.3
715.17 504.02 2627.1
763.15 508.77 2651.9
777.19 513.50 2676.5
824.11 504.00 2627.0
902.77 517.87 2699.3
890.22 506.74 2641.3
959.03 514.26 2680.5
970.09 509.13 2653.7
1023.76 526.10 2742.2
1008.16 504.08 2627.4
1048.50 510.45 2660.7
1048.68 507.21 2643.7
1084.18 514.29 2680.7
1106.14 521.37 2717.5
1092.80 511.82 2667.8
1088.99 506.82 2641.7
1112.10 511.15 2664.3
1127.16 514.88 2683.7
1153.54 514.23 2680.3
1144.17 507.00 2642.7
1180.64 516.97 2694.6
1213.94 528.42 2754.3
1215.58 516.97 2694.6
1250.54 525.79 2740.6
1264.67 528.73 2755.9
1352.21 518.46 2702.4
1355.19 516.93 2694.4
1435.75 515.75 2688.3
1478.93 511.40 2665.6
1498.65 515.81 2688.6
1524.64 510.51 2661.0
1583.01 527.67 2750.4
1582.97 525.29 2738.0
1571.99 519.32 2706.9
1577.27 518.75 2703.9
1604.45 516.22 2690.7
1617.75 518.24 2701.3
1637.89 517.97 2699.8
1660.55 520.68 2714.0
1775.71 511.29 2665.0
1828.14 518.32 2701.7
1803.02 509.25 2654.4
1848.39 520.08 2710.8
1868.30 523.69 2729.7
1916.20 523.24 2727.3
1903.33 517.82 2699.0
1897.20 514.26 2680.5
1911.61 516.27 2691.0
1925.03 514.27 2680.6
1957.45 519.18 2706.2
1964.42 519.17 2706.1
1995.20 519.88 2709.8
2059.73 532.94 2777.9
2057.35 530.47 2765.0
2073.84 532.86 2777.5
2057.77 526.90 2746.4
2091.49 533.69 2781.8
2075.85 518.96 2705.0
2097.81 522.69 2724.4
2059.98 511.54 2666.3
2161.60 514.34 2680.9
2257.93 535.53 2791.4
2200.58 518.61 2703.2
-1929.03 478.98 2530.8
-1903.85 477.60 2523.5
-1872.53 477.95 2525.4
-1892.92 484.85 2561.8
-1719.12 480.83 2540.6
-1679.43 500.40 2644.0
-1623.28 485.65 2566.1
-1559.28 488.53 2581.3
-1581.29 497.56 2629.0
-1517.91 479.69 2534.5
-1514.66 482.84 2551.2
-1520.27 486.75 2571.9
-1452.47 481.96 2546.5
-1357.80 488.27 2579.9
-1299.46 483.98 2557.2
-1308.38 489.80 2588.0
-1305.09 498.81 2635.6
-1273.42 489.26 2585.1
-1265.12 491.24 2595.6
-1254.91 489.88 2588.4
-1171.86 483.31 2553.7
-1154.16 487.02 2573.3
-1124.67 491.62 2597.6
-1113.89 489.84 2588.2
-1097.47 488.51 2581.2
-1067.60 496.40 2622.9
-1020.06 486.70 2571.6
-997.64 492.08 2600.0
-984.37 488.84 2582.9
-983.73 505.72 2672.1
-959.61 503.97 2662.9
-909.06 487.95 2578.2
-914.72 505.87 2672.9
-878.10 489.32 2585.5
-849.86 488.50 2581.1
-833.13 490.47 2591.5
-846.15 502.19 2653.4
-814.06 487.10 2573.7
-781.28 491.67 2597.9
-732.91 495.40 2617.6
-698.11 499.63 2639.9
-691.45 499.76 2640.6
-652.78 496.39 2622.8
-634.36 487.46 2575.6
-627.95 492.91 2604.4
-617.90 490.29 2590.6
-535.16 488.33 2580.2
-537.61 496.78 2624.8
-472.75 493.01 2604.9
-460.83 487.55 2576.1
-433.38 502.17 2653.3
-429.32 505.49 2670.9
-415.79 505.88 2673.0
-385.12 502.03 2652.6
-368.10 488.58 2581.5
-301.11 488.47 2581.0
-242.92 492.58 2602.7
-233.24 500.77 2645.9
-222.99 493.28 2606.4
-216.12 493.01 2605.0
-130.48 501.31 2648.8
-55.01 501.98 2652.4
-27.21 496.67 2624.3
-20.60 501.33 2648.9
7.03 512.87 2709.9
75.12 498.54 2634.2
80.79 491.44 2596.7
100.92 491.13 2595.0
111.67 509.47 2691.9
118.85 510.35 2696.6
123.12 499.33 2638.3
128.59 494.07 2610.5
163.48 497.25 2627.4
170.01 496.43 2623.0
229.87 493.54 2607.8
238.53 497.51 2628.7
242.83 492.40 2601.7
259.18 497.90 2630.8
371.69 511.95 2705.0
382.12 507.18 2679.8
424.10 507.53 2681.6
428.39 504.39 2665.1
435.25 496.46 2623.2
471.08 505.71 2672.1
490.68 504.50 2665.7
505.85 512.87 2709.9
513.68 506.74 2677.5
537.80 496.96 2625.8
567.44 511.40 2702.1
555.34 494.39 2612.2
596.14 511.98 2705.2
627.48 497.89 2630.8
645.47 506.66 2677.1
649.01 504.02 2663.1
774.37 509.27 2690.9
791.25 515.72 2725.0
841.87 495.62 2618.7
869.27 507.66 2682.3
861.83 499.31 2638.2
889.35 499.40 2638.7
914.18 509.43 2691.7
924.28 511.16 2700.8
954.32 497.61 2629.2
1000.92 518.21 2738.1
1013.81 517.54 2734.6
996.64 505.24 2669.6
1027.29 513.64 2714.0
1059.81 502.38 2654.4
1098.45 517.33 2733.5
1083.15 506.86 2678.1
1108.55 499.53 2639.4
1146.55 507.26 2680.3
1138.82 500.81 2646.1
1201.88 504.24 2664.3
1351.03 513.67 2714.1
1327.14 501.98 2652.3
1337.99 503.47 2660.2
1509.14 514.80 2720.1
1517.57 512.88 2710.0
1589.49 522.67 2761.7
1561.65 508.93 2689.1
1705.63 510.29 2696.3
1693.72 504.66 2666.5
1730.55 513.54 2713.4
1720.68 508.54 2687.0
1844.32 519.83 2746.6
1804.55 506.66 2677.1
1862.77 515.08 2721.6
1825.10 502.76 2656.5
1922.36 514.04 2716.1
1923.67 512.51 2708.0
1933.69 504.14 2663.8
2028.93 514.28 2717.3
2046.97 515.27 2722.6
2162.94 510.99 2699.9
2229.97 521.75 2756.8
2191.85 509.57 2692.4
2233.74 511.17 2700.9
-1879.99 474.94 2544.3
-1731.31 477.60 2558.6
-1662.62 480.76 2575.5
-1612.37 487.78 2613.1
-1620.85 492.41 2637.9
-1539.39 484.00 2592.9
-1451.86 477.32 2557.1
-1476.42 487.63 2612.3
-1274.95 480.61 2574.7
-1208.90 478.24 2562.0
-1190.00 484.07 2593.2
-1177.93 493.09 2641.5
-1106.71 477.14 2556.1
-1119.40 485.52 2601.0
-1103.21 481.40 2578.9
-1111.66 494.07 2646.8
-1073.85 483.23 2588.8
-1050.01 490.91 2629.9
-990.99 482.11 2582.7
-969.18 481.25 2578.1
-960.47 483.59 2590.7
-929.85 478.21 2561.8
-907.13 494.80 2650.7
-903.80 496.75 2661.1
-862.54 489.00 2619.6
-842.32 481.33 2578.5
-777.81 478.65 2564.2
-744.11 478.35 2562.6
-713.73 489.42 2621.9
-704.31 487.60 2612.1
-637.70 483.31 2589.2
-642.77 492.34 2637.5
-638.38 494.23 2647.6
-595.40 498.47 2670.4
-559.89 491.61 2633.6
-531.73 484.62 2596.2
-479.86 486.62 2606.9
-472.13 492.65 2639.2
-397.21 501.74 2687.9
-384.73 494.65 2649.9
-370.22 484.65 2596.3
-365.79 487.73 2612.8
-357.13 485.16 2599.1
-309.14 483.87 2592.2
-312.31 499.69 2676.9
-228.60 484.09 2593.3
-188.48 484.67 2596.4
-131.31 497.61 2665.8
-122.68 490.71 2628.8
-90.80 502.87 2694.0
-81.83 490.99 2630.3
-27.03 486.61 2606.8
0.00 492.69 2639.4
47.63 489.86 2624.2
54.61 491.49 2633.0
62.12 496.96 2662.3
73.95 484.06 2593.2
83.33 499.98 2678.5
91.33 505.81 2709.7
103.07 494.71 2650.3
107.68 484.58 2596.0
114.79 486.18 2604.5
202.03 501.60 2687.1
217.06 504.15 2700.8
230.24 487.56 2611.9
263.16 498.61 2671.1
282.79 484.78 2597.0
412.00 486.30 2605.2
422.65 490.82 2629.4
442.86 498.22 2669.0
461.13 503.06 2694.9
476.63 497.35 2664.4
477.00 490.63 2628.4
497.32 490.51 2627.7
566.63 491.54 2633.2
593.05 508.33 2723.2
623.32 493.18 2642.0
656.87 492.66 2639.2
741.68 489.92 2624.6
774.43 502.34 2691.1
925.63 504.89 2704.8
921.97 499.11 2673.8
1021.34 496.87 2661.8
1024.18 494.91 2651.3
1052.81 495.44 2654.2
1112.04 513.25 2749.6
1095.51 496.08 2657.6
1109.97 496.38 2659.2
1171.35 502.01 2689.3
1176.45 501.21 2685.0
1182.31 500.74 2682.6
1232.70 504.29 2701.5
1210.15 492.26 2637.1
1307.78 492.98 2641.0
1472.35 493.07 2641.4
1488.70 496.23 2658.4
1545.74 501.32 2685.6
1577.19 509.23 2728.0
1759.82 515.07 2759.3
1739.37 507.02 2716.2
1788.31 499.06 2673.6
1840.52 511.65 2741.0
2032.15 497.67 2666.1
2090.05 510.11 2732.8
2154.30 503.60 2697.9
2140.06 498.65 2671.4
2199.30 497.95 2667.6
-2107.10 471.94 2563.8
-2096.17 470.98 2558.6
-1807.30 466.61 2534.9
-1658.79 471.10 2559.3
-1677.65 480.29 2609.2
-1673.87 481.15 2613.9
-1649.35 476.03 2586.1
-1620.52 475.44 2582.9
-1574.62 473.72 2573.5
-1522.84 474.22 2576.2
-1508.82 471.92 2563.8
-1462.12 474.02 2575.2
-1489.09 484.98 2634.7
-1377.01 467.79 2541.3
-1400.45 478.04 2597.0
-1393.79 478.06 2597.1
-1386.19 477.76 2595.5
-1382.76 478.91 2601.7
-1374.68 478.44 2599.2
-1328.80 471.72 2562.7
-1224.51 477.69 2595.1
-1155.62 468.85 2547.1
-1155.07 474.05 2575.3
-1137.04 474.88 2579.8
-1134.67 488.25 2652.5
-1130.75 489.53 2659.4
-1116.81 486.46 2642.8
-1084.24 475.19 2581.5
-1079.57 479.06 2602.5
-997.32 488.34 2653.0
-949.90 471.63 2562.2
-978.76 489.38 2658.6
-930.23 471.76 2562.9
-901.77 485.04 2635.0
-881.05 477.52 2594.2
-870.29 482.74 2622.5
-871.43 491.04 2667.6
-792.89 477.08 2591.8
-798.44 484.52 2632.2
-771.75 472.36 2566.1
-774.91 491.24 2668.7
-766.60 490.35 2663.9
-674.10 473.87 2574.3
-617.04 481.43 2615.4
-580.36 484.77 2633.6
-565.67 489.78 2660.8
-539.34 490.94 2667.1
-483.55 476.84 2590.5
-461.25 474.62 2578.4
-413.47 473.49 2572.3
-411.27 478.69 2600.5
-404.98 479.23 2603.5
-358.64 480.44 2610.0
-350.28 478.27 2598.2
-287.82 486.55 2643.2
-282.29 488.84 2655.7
-254.25 487.89 2650.5
-235.46 477.66 2594.9
-178.73 488.08 2651.5
-174.30 495.02 2689.3
-166.08 491.31 2669.1
-123.88 488.64 2654.6
-118.35 494.30 2685.3
-109.08 484.04 2629.6
-103.80 491.33 2669.2
-94.50 479.25 2603.6
-87.36 477.12 2592.0
-81.78 483.85 2628.6
-33.93 481.87 2617.8
-27.39 486.23 2641.5
6.96 493.86 2682.9
20.82 492.76 2676.9
61.44 484.68 2633.1
67.57 479.76 2606.4
76.06 490.95 2667.1
83.28 492.72 2676.8
88.95 485.81 2639.2
177.08 483.56 2627.0
244.09 495.15 2689.9
284.84 481.51 2615.8
322.79 498.23 2706.7
363.46 486.90 2645.1
453.87 488.26 2652.5
458.20 485.56 2637.8
579.91 490.16 2662.9
611.92 493.71 2682.1
619.77 488.93 2656.2
617.27 481.61 2616.4
660.35 493.52 2681.1
655.97 485.15 2635.6
692.43 481.99 2618.4
717.40 485.10 2635.4
745.34 481.09 2613.5
852.48 496.11 2695.2
878.66 487.38 2647.8
912.74 494.69 2687.4
936.22 503.57 2735.7
1002.09 504.60 2741.3
966.50 483.25 2625.3
1051.68 494.50 2686.4
1064.60 497.28 2701.5
1076.86 499.72 2714.8
1072.92 485.21 2635.9
1112.85 496.93 2699.6
1123.18 492.26 2674.2
1187.07 504.68 2741.7
1195.90 499.46 2713.4
1255.14 500.65 2719.8
1231.50 488.47 2653.7
1269.97 495.43 2691.5
1271.06 493.14 2679.0
1302.78 494.64 2687.2
1351.54 497.20 2701.1
1415.38 504.98 2743.4
1384.24 488.96 2656.3
1419.45 498.91 2710.4
1521.14 497.70 2703.8
1527.47 497.48 2702.6
1527.45 495.20 2690.2
1523.62 487.28 2647.2
1601.59 494.40 2685.9
1593.57 489.80 2660.9
1757.38 509.28 2766.7
1740.58 492.36 2674.8
1729.82 487.37 2647.7
1775.93 494.48 2686.3
1761.14 488.44 2653.5
1781.05 488.24 2652.4
1823.46 492.26 2674.3
1814.83 488.08 2651.5
1869.47 497.12 2700.7
1865.16 488.66 2654.7
1939.58 495.36 2691.1
1994.12 498.53 2708.3
2001.07 498.51 2708.2
2022.38 493.43 2680.6
2119.73 511.91 2781.0
2087.42 495.68 2692.8
2198.23 505.09 2744.0
2252.45 507.70 2758.1
2199.07 494.09 2684.2
-2105.77 460.64 2538.2
-2071.43 460.32 2536.4
-1805.93 458.02 2523.8
-1835.43 467.20 2574.4
-1806.88 461.61 2543.6
-1674.39 468.83 2583.3
-1659.48 468.40 2581.0
-1548.85 459.40 2531.4
-1552.76 462.53 2548.6
-1539.69 460.59 2538.0
-1496.36 463.47 2553.8
-1500.84 466.93 2572.9
-1486.89 464.65 2560.3
-1464.57 459.73 2533.2
-1393.77 460.21 2535.8
-1403.37 465.57 2565.4
-1396.79 465.60 2565.5
-1401.49 469.40 2586.5
-1394.39 469.27 2585.7
-1234.38 462.07 2546.1
-1139.06 463.57 2554.4
-1104.29 465.67 2565.9
-1123.08 476.46 2625.4
-1053.41 478.82 2638.4
-1008.63 464.50 2559.5
-1003.93 465.40 2564.4
-984.54 475.30 2619.0
-967.53 470.33 2591.6
-934.31 467.16 2574.1
-921.67 474.39 2614.0
-749.69 468.55 2581.8
-693.74 476.09 2623.4
-623.87 479.90 2644.3
-600.35 466.94 2572.9
-592.24 465.81 2566.7
-602.99 479.65 2643.0
-580.43 467.01 2573.3
-569.39 468.91 2583.8
-553.88 467.13 2574.0
-568.58 485.37 2674.5
-523.59 482.25 2657.3
-501.72 468.27 2580.3
-439.05 487.83 2688.0
-410.07 470.57 2592.9
-372.54 482.92 2661.0
-356.79 471.23 2596.6
-356.62 480.06 2645.2
-347.55 477.03 2628.6
-304.61 473.83 2610.9
-189.01 472.53 2603.7
-184.70 478.85 2638.5
-155.04 471.85 2600.0
-147.76 470.14 2590.5
-123.80 481.44 2652.8
-110.76 484.58 2670.1
-96.26 481.28 2652.0
-87.60 471.69 2599.1
-81.02 472.62 2604.2
-61.10 475.21 2618.5
-53.93 471.85 2600.0
-28.00 489.96 2699.8
-20.35 474.79 2616.2
0.00 473.20 2607.4
21.04 491.04 2705.7
62.61 487.00 2683.4
67.99 475.90 2622.3
94.65 473.25 2607.7
102.59 478.74 2637.9
152.58 485.47 2675.0
160.78 489.32 2696.2
161.69 471.60 2598.6
297.03 472.55 2603.9
332.89 485.46 2675.0
354.65 477.41 2630.6
380.59 493.36 2718.5
406.68 474.46 2614.4
485.93 472.44 2603.2
494.47 474.15 2612.7
522.13 474.66 2615.5
539.00 483.71 2665.4
548.40 485.93 2677.6
541.27 473.61 2609.7
614.66 494.56 2725.1
600.36 477.56 2631.5
647.77 482.38 2658.0
662.28 488.00 2689.0
727.54 485.03 2672.6
728.26 480.92 2650.0
731.49 478.55 2636.9
739.91 475.17 2618.3
767.27 488.27 2690.4
753.57 475.23 2618.6
790.52 485.41 2674.7
786.78 478.91 2638.9
817.52 476.89 2627.8
831.71 481.15 2651.3
855.30 482.83 2660.5
898.53 480.13 2645.6
962.35 491.71 2709.4
942.04 477.84 2633.0
952.14 476.07 2623.2
966.21 476.30 2624.5
1051.02 487.23 2684.7
1041.17 479.48 2642.1
1051.58 477.99 2633.8
1060.06 478.74 2637.9
1079.23 478.14 2634.7
1094.87 482.02 2656.0
1138.57 498.12 2744.8
1124.00 485.68 2676.2
1185.28 490.94 2705.2
1196.69 484.21 2668.1
1202.11 478.11 2634.5
1216.02 480.91 2649.9
1268.85 498.98 2749.5
1255.64 491.03 2705.7
1296.35 493.18 2717.5
1282.48 485.26 2673.9
1297.21 480.45 2647.4
1361.06 488.58 2692.2
1387.66 495.59 2730.8
1419.51 499.33 2751.4
1406.54 492.29 2712.6
1438.82 479.61 2642.7
1486.32 479.46 2641.9
1559.60 500.79 2759.4
1558.75 495.96 2732.9
1523.86 482.67 2659.6
1544.36 486.96 2683.2
1567.28 485.44 2674.9
1682.51 482.69 2659.7
1704.96 487.13 2684.2
1753.01 488.89 2693.9
1778.69 488.27 2690.4
1785.22 488.15 2689.8
1836.06 483.17 2662.4
1866.01 485.58 2675.6
1885.46 488.82 2693.5
1910.09 493.38 2718.6
1899.75 483.57 2664.6
1995.70 502.52 2769.0
1955.82 490.71 2703.9
1988.73 488.46 2691.5
2023.23 493.47 2719.1
2128.06 498.21 2745.2
2129.00 487.03 2683.6
2225.52 494.56 2725.1
2218.51 491.44 2707.9
2202.63 486.39 2680.1
2246.51 494.52 2724.9
-2118.17 458.16 2561.1
-2030.30 456.32 2550.9
-1742.77 455.50 2546.3
-1771.66 464.81 2598.3
-1755.34 462.28 2584.2
-1719.10 454.47 2540.5
-1633.81 454.57 2541.1
-1665.32 467.10 2611.1
-1629.17 458.83 2564.9
-1634.43 462.19 2583.7
-1593.75 452.55 2529.8
-1579.88 456.12 2549.7
-1578.69 457.69 2558.5
-1573.85 462.11 2583.2
-1566.36 461.87 2581.9
-1508.35 458.48 2563.0
-1457.29 463.38 2590.3
-1419.31 453.39 2534.5
-1313.79 467.28 2612.1
-1256.85 458.85 2565.0
-1135.92 461.05 2577.3
-1128.12 468.92 2621.3
-1071.37 459.16 2566.7
-1087.97 469.19 2622.8
-964.80 459.11 2566.5
-905.70 466.37 2607.0
-854.86 460.82 2576.0
-872.56 474.07 2650.1
-870.01 476.43 2663.3
-755.08 461.07 2577.4
-754.95 465.10 2600.0
-739.22 472.28 2640.1
-680.18 460.12 2572.1
-683.66 467.05 2610.9
-686.46 473.65 2647.8
-606.72 460.04 2571.6
-602.14 477.56 2669.6
-563.24 468.23 2617.5
-570.46 480.02 2683.4
-424.00 471.87 2637.8
-327.21 460.77 2575.7
-322.09 463.01 2588.3
-300.29 470.91 2632.4
-220.63 461.32 2578.8
-223.11 481.07 2689.2
-213.50 475.20 2656.4
-153.32 480.86 2688.0
-143.00 469.85 2626.5
-134.42 463.75 2592.4
-128.06 465.04 2599.6
-121.15 464.40 2596.0
-95.98 473.04 2644.3
-34.46 475.59 2658.6
-20.43 469.98 2627.2
0.00 462.42 2585.0
26.92 464.33 2595.7
40.36 464.13 2594.5
47.74 470.62 2630.8
76.10 477.38 2668.6
95.01 468.29 2617.7
101.41 466.48 2607.7
142.68 468.79 2620.6
157.74 473.23 2645.4
161.70 464.90 2598.8
168.03 463.77 2592.5
200.76 477.67 2670.2
201.69 463.88 2593.1
267.21 472.76 2642.8
273.59 471.94 2638.2
286.59 470.82 2631.9
302.07 473.71 2648.1
334.25 480.49 2686.0
348.09 480.36 2685.3
374.07 477.98 2671.9
406.03 474.85 2654.5
428.09 484.24 2706.9
496.70 469.49 2624.5
513.34 466.06 2605.3
540.01 477.70 2670.4
559.19 470.54 2630.4
623.78 467.84 2615.2
649.60 481.96 2694.2
665.87 483.63 2703.5
653.21 469.49 2624.5
737.10 470.92 2632.5
781.14 485.58 2714.4
767.87 473.06 2644.4
776.14 473.92 2649.3
809.07 485.44 2713.6
853.10 470.91 2632.4
959.69 479.84 2682.4
963.29 474.76 2654.0
996.38 474.14 2650.5
1058.99 483.91 2705.1
1177.44 483.59 2703.3
1173.85 479.26 2679.1
1279.41 479.78 2682.0
1315.07 480.10 2683.8
1403.70 491.65 2748.4
1439.37 484.47 2708.2
1480.42 486.42 2719.1
1480.62 477.40 2668.7
1524.87 476.09 2661.4
1535.03 477.10 2667.0
1572.06 482.10 2695.0
1619.28 494.38 2763.6
1599.08 486.06 2717.1
1616.57 480.79 2687.7
1640.20 481.59 2692.1
1625.72 475.32 2657.0
1793.14 490.98 2744.6
1754.76 476.69 2664.7
1879.64 485.75 2715.4
1926.58 494.18 2762.5
1906.46 481.85 2693.6
1896.83 477.67 2670.2
1922.22 480.55 2686.3
2015.55 484.58 2708.8
2039.07 488.53 2730.9
2032.97 485.38 2713.3
2031.03 479.94 2682.9
2018.13 475.26 2656.7
2101.08 481.64 2692.4
2084.10 476.17 2661.8
2121.60 478.40 2674.3
2129.59 478.64 2675.6
2177.26 476.92 2666.0
2225.39 485.92 2716.3
2285.63 497.50 2781.1
-2076.12 445.35 2526.1
-1917.82 459.20 2604.7
-1900.50 456.66 2590.3
-1877.38 452.70 2567.9
-1776.45 461.06 2615.3
-1781.74 464.21 2633.1
-1651.07 447.30 2537.2
-1655.21 457.54 2595.3
-1624.39 450.85 2557.4
-1626.49 453.28 2571.2
-1513.32 451.34 2560.1
-1528.41 457.85 2597.0
-1473.97 449.46 2549.5
-1464.37 456.78 2591.0
-1358.26 450.55 2555.6
-1365.53 455.18 2581.9
-1339.08 448.56 2544.4
-1343.50 452.27 2565.4
-1346.00 455.36 2582.9
-1340.69 455.84 2585.6
-1338.54 464.39 2634.1
-1231.36 460.07 2609.6
-1168.74 449.01 2546.9
-1197.69 468.06 2655.0
-1096.58 460.29 2610.9
-1063.23 457.59 2595.6
-999.50 456.15 2587.4
-988.69 454.26 2576.7
-976.99 458.17 2598.9
-967.60 456.92 2591.8
-967.05 466.38 2645.4
-944.48 458.75 2602.1
-893.57 456.86 2591.5
-889.30 465.17 2638.6
-872.81 460.08 2609.7
-851.16 452.18 2564.9
-794.80 454.17 2576.2
-783.49 451.50 2561.0
-800.29 465.13 2638.3
-733.57 453.48 2572.3
-744.55 464.49 2634.7
-723.05 455.25 2582.3
-672.39 457.23 2593.5
-610.60 456.27 2588.1
-611.84 462.28 2622.2
-557.05 456.38 2588.7
-526.96 459.40 2605.9
-528.17 466.44 2645.8
-449.25 469.98 2665.9
-437.84 465.21 2638.8
-422.76 456.31 2588.3
-419.03 459.58 2606.8
-383.37 457.36 2594.2
-243.44 472.96 2682.8
-217.18 461.50 2617.8
-213.67 468.69 2658.6
-154.82 457.74 2596.4
-150.75 465.95 2643.0
-127.39 455.91 2586.0
-62.39 471.42 2674.0
-40.76 461.95 2620.3
0.00 456.62 2590.1
27.31 464.23 2633.3
34.67 471.51 2674.5
55.34 470.41 2668.3
87.41 457.23 2593.6
93.99 456.50 2589.4
100.84 457.15 2593.1
116.91 467.64 2652.6
124.14 468.97 2660.1
149.18 461.10 2615.5
157.64 466.06 2643.6
171.23 465.74 2641.8
242.90 471.93 2676.9
246.22 465.07 2638.0
258.71 462.95 2626.0
286.07 463.16 2627.2
423.05 471.59 2675.0
423.72 464.72 2636.0
471.95 471.95 2677.1
481.89 468.12 2655.3
538.98 475.98 2699.9
544.34 474.56 2691.8
575.18 460.14 2610.1
627.71 463.96 2631.7
632.78 462.68 2624.4
657.49 460.92 2614.5
673.58 467.38 2651.1
750.18 468.00 2654.6
761.15 470.53 2669.0
800.95 473.61 2686.4
806.22 472.61 2680.8
854.13 460.96 2614.7
879.69 463.71 2630.3
881.42 461.05 2615.2
949.44 467.84 2653.7
984.65 481.70 2732.3
982.66 470.57 2669.2
1015.87 476.41 2702.3
1066.16 483.32 2741.5
1032.06 464.77 2636.3
1086.43 479.72 2721.1
1066.41 467.84 2653.7
1233.80 471.34 2673.6
1264.21 464.68 2635.8
1278.80 465.02 2637.7
1304.70 471.91 2676.8
1325.61 467.06 2649.3
1385.78 478.34 2713.3
1419.17 484.94 2750.7
1449.06 485.40 2753.3
1450.06 483.35 2741.7
1439.42 477.46 2708.3
1484.01 485.16 2751.9
1456.63 467.22 2650.2
1493.11 474.45 2691.2
1562.01 467.91 2654.1
1560.61 465.44 2640.1
1576.37 466.06 2643.6
1582.47 465.84 2642.3
1605.89 470.69 2669.9
1641.24 476.94 2705.3
1698.44 467.59 2652.3
1719.93 471.59 2675.0
1740.97 475.44 2696.9
1756.70 477.82 2710.3
1779.49 482.09 2734.6
1837.31 486.14 2757.5
1775.18 467.88 2653.9
1794.87 471.24 2673.0
1855.99 472.69 2681.2
1869.98 472.71 2681.3
2015.37 475.85 2699.2
2100.31 476.07 2700.4
2092.06 469.51 2663.2
2138.82 473.75 2687.2
2147.97 471.17 2672.6
2210.12 474.10 2689.2
2236.83 476.82 2704.6
-2062.65 437.34 2517.7
-1847.15 437.31 2517.6
-1850.46 439.65 2531.0
-1826.73 445.06 2562.2
-1790.16 437.74 2520.0
-1676.34 438.73 2525.7
-1726.33 453.58 2611.3
-1708.80 456.13 2625.9
-1669.63 451.07 2596.8
-1684.56 456.95 2630.6
-1530.42 449.73 2589.1
-1498.37 444.21 2557.3
-1491.37 446.08 2568.0
-1467.54 440.92 2538.3
-1445.70 440.28 2534.7
-1480.73 453.01 2607.9
-1436.65 441.54 2541.9
-1373.78 455.66 2623.2
-1330.06 454.66 2617.5
-1261.15 451.86 2601.3
-1192.86 456.69 2629.2
-1185.54 456.50 2628.1
-1144.28 443.16 2551.2
-1140.75 444.36 2558.2
-1101.18 449.87 2589.9
-1024.98 445.93 2567.2
-1027.58 449.99 2590.5
-1017.55 454.51 2616.6
-988.34 459.85 2647.4
-963.08 451.23 2597.7
-903.18 451.59 2599.8
-881.50 447.43 2575.8
-863.18 444.87 2561.1
-834.77 454.71 2617.8
-802.31 444.25 2557.5
-772.49 454.01 2613.7
-724.41 449.40 2587.2
-672.92 450.86 2595.5
-609.63 453.84 2612.7
-595.43 448.25 2580.5
-552.72 446.17 2568.6
-559.26 456.96 2630.7
-550.29 455.18 2620.4
-508.26 448.07 2579.5
-447.02 453.79 2612.5
-445.84 459.55 2645.6
-393.79 454.89 2618.8
-373.55 446.92 2572.9
-374.94 456.74 2629.4
-356.96 459.92 2647.7
-351.76 462.11 2660.3
-335.72 449.87 2589.9
-260.61 447.71 2577.5
-264.71 466.73 2686.9
-258.28 467.70 2692.5
-217.52 455.43 2621.9
-212.74 459.79 2647.0
-146.55 467.57 2691.8
-128.02 451.45 2599.0
-94.28 451.18 2597.4
-74.74 455.23 2620.7
-67.74 453.89 2613.0
-33.84 453.49 2610.7
-27.86 466.68 2686.6
13.55 454.03 2613.8
20.28 452.83 2606.9
40.32 450.22 2591.9
55.47 464.55 2674.4
61.94 461.10 2654.5
82.48 460.50 2651.0
90.21 464.90 2676.4
121.76 453.22 2609.1
149.81 456.23 2626.5
160.93 468.80 2698.9
172.32 461.82 2658.7
193.12 462.10 2660.3
235.71 451.21 2597.6
248.25 462.01 2659.8
254.52 460.88 2653.3
262.49 462.81 2664.4
273.60 470.02 2705.9
279.01 467.35 2690.5
279.87 457.35 2633.0
312.89 465.86 2681.9
370.34 451.15 2597.2
394.22 471.66 2715.3
395.93 465.39 2679.2
423.27 457.41 2633.3
434.38 461.96 2659.4
454.11 454.11 2614.3
469.25 462.35 2661.7
471.25 457.59 2634.3
540.77 452.89 2607.3
552.11 456.69 2629.1
656.08 453.17 2608.9
689.22 457.21 2632.1
691.08 453.94 2613.3
764.29 453.16 2608.8
799.73 461.91 2659.2
865.65 463.99 2671.2
866.47 457.11 2631.6
959.45 465.82 2681.7
976.67 470.77 2710.2
1006.65 471.65 2715.2
983.51 457.61 2634.4
1006.89 465.25 2678.4
1032.81 458.27 2638.2
1049.26 462.50 2662.6
1096.94 465.16 2677.9
1127.39 472.09 2717.8
1127.08 457.66 2634.7
1175.12 465.88 2682.0
1178.99 464.66 2675.0
1182.81 463.44 2668.0
1239.20 469.08 2700.4
1251.20 460.61 2651.7
1254.72 459.38 2644.6
1281.41 459.11 2643.1
1319.45 470.23 2707.1
1304.27 462.36 2661.8
1325.58 467.44 2691.0
1363.67 478.35 2753.9
1358.42 474.03 2729.0
1365.64 469.22 2701.3
1432.80 477.60 2749.5
1423.53 458.54 2639.8
1455.59 462.20 2660.9
1460.46 461.56 2657.2
1521.30 467.56 2691.7
1529.55 467.94 2693.9
1616.14 464.73 2675.4
1665.37 476.84 2745.1
1685.02 470.40 2708.1
1726.81 480.07 2763.7
1658.91 459.28 2644.1
1701.10 461.43 2656.4
1747.23 472.03 2717.5
1783.91 480.01 2763.4
1764.78 472.96 2722.8
1762.77 470.54 2708.9
1869.37 479.88 2762.6
1877.33 467.59 2691.9
1996.43 461.24 2655.3
2123.73 471.16 2712.4
2133.64 471.80 2716.1
2134.44 464.31 2673.0
2231.64 483.88 2785.7
2222.43 480.33 2765.2
2207.89 469.62 2703.5
2227.84 472.36 2719.3
-2093.35 437.22 2555.2
-2038.27 432.56 2527.9
-1969.07 439.05 2565.9
-1795.63 430.95 2518.6
-1806.74 435.20 2543.4
-1739.36 433.20 2531.7
-1730.93 432.73 2529.0
-1699.55 436.46 2550.7
-1742.00 449.11 2624.7
-1619.97 432.87 2529.7
-1593.16 434.50 2539.3
-1541.15 438.43 2562.3
-1520.85 440.25 2572.9
-1488.35 434.65 2540.2
-1459.09 433.78 2535.1
-1409.19 434.61 2539.9
-1439.97 446.19 2607.6
-1430.94 445.48 2603.5
-1326.93 446.82 2611.3
-1225.92 444.56 2598.1
-1207.36 440.25 2572.9
-1187.23 435.32 2544.1
-1182.52 438.46 2562.4
-1213.69 452.56 2644.8
-1188.41 450.78 2634.4
-1120.44 437.57 2557.2
-1131.73 449.96 2629.7
-1122.83 449.13 2624.8
-1089.22 438.34 2561.8
-1064.27 450.27 2631.4
-1010.13 435.74 2546.5
-1001.16 437.59 2557.4
-1008.19 449.60 2627.5
-965.51 445.62 2604.3
-957.50 445.03 2600.8
-879.61 439.80 2570.3
-873.94 440.30 2573.2
-856.00 444.85 2599.8
-787.00 440.19 2572.5
-786.90 443.89 2594.2
-773.33 440.00 2571.4
-767.48 440.47 2574.2
-769.72 445.63 2604.3
-773.48 451.77 2640.2
-743.21 437.96 2559.5
-727.89 444.82 2599.6
-731.38 451.13 2636.5
-706.46 444.06 2595.2
-714.56 453.47 2650.2
-700.75 449.03 2624.2
-706.24 456.98 2670.7
-654.70 440.92 2576.8
-657.79 447.57 2615.7
-619.30 444.28 2596.4
-604.08 438.13 2560.5
-552.33 439.20 2566.8
-559.08 449.99 2629.8
-545.20 449.79 2628.6
-503.21 454.95 2658.8
-433.90 440.57 2574.8
-369.11 442.93 2588.6
-362.39 442.92 2588.5
-328.14 441.98 2583.0
-326.65 449.15 2624.9
-299.56 449.35 2626.0
-293.06 449.81 2628.7
-273.64 451.51 2638.7
-243.50 446.41 2608.9
-211.72 450.76 2634.3
-159.07 456.45 2667.6
-153.69 461.06 2694.5
-138.68 457.65 2674.6
81.99 450.95 2635.4
94.57 445.82 2605.4
166.94 459.07 2682.9
170.42 449.91 2629.3
195.92 445.89 2605.9
204.86 450.69 2633.9
212.91 453.29 2649.1
217.61 448.82 2623.0
222.68 445.37 2602.8
231.37 449.14 2624.8
261.93 454.93 2658.7
284.83 447.58 2615.7
327.94 460.50 2691.3
331.52 455.84 2664.0
341.57 450.87 2635.0
377.18 452.62 2645.2
379.23 446.95 2612.0
391.34 453.13 2648.2
429.08 456.77 2669.4
433.29 453.92 2652.8
488.76 448.03 2618.4
499.72 451.80 2640.4
556.19 453.20 2648.5
576.31 463.86 2710.9
563.33 447.95 2617.9
625.48 448.71 2622.4
705.88 465.88 2722.7
684.26 447.14 2613.1
761.09 452.54 2644.7
781.47 452.43 2644.1
830.87 456.98 2670.7
826.83 447.30 2614.1
872.69 460.78 2692.9
877.79 459.79 2687.1
944.19 451.57 2639.0
998.74 457.75 2675.2
1025.88 457.49 2673.6
1012.01 448.27 2619.8
1021.51 449.47 2626.7
1032.84 451.44 2638.3
1042.77 452.78 2646.1
1081.50 466.53 2726.5
1076.76 449.79 2628.6
1118.62 458.57 2679.9
1183.10 451.36 2637.8
1210.86 454.07 2653.7
1223.58 456.25 2666.4
1226.82 454.89 2658.4
1232.94 454.60 2656.8
1255.60 452.84 2646.5
1270.58 455.75 2663.5
1307.18 463.84 2710.7
1291.35 455.77 2663.6
1325.17 460.32 2690.2
1347.48 465.62 2721.2
1326.30 455.91 2664.4
1391.22 454.56 2656.5
1389.74 451.84 2640.6
1393.28 450.77 2634.3
1518.30 451.39 2638.0
1602.82 457.95 2676.3
1654.90 457.00 2670.8
1698.10 466.98 2729.1
1687.83 460.32 2690.2
1735.55 465.64 2721.2
1728.63 458.19 2677.7
1736.26 458.37 2678.8
1795.03 453.91 2652.7
1826.57 456.64 2668.7
1878.41 454.12 2654.0
1888.76 454.96 2658.8
1890.50 453.72 2651.6
1952.58 455.37 2661.3
2050.07 460.22 2689.6
2031.65 454.54 2656.4
2136.25 457.77 2675.3
2176.46 464.88 2716.8
2246.65 469.24 2742.3
2199.46 455.06 2659.4
-2096.41 431.22 2558.9
-2052.87 423.61 2513.7
-2055.91 428.31 2541.6
-2081.75 435.09 2581.9
-1826.77 433.36 2571.6
-1699.33 426.47 2530.7
-1675.71 425.47 2524.8
-1679.31 428.06 2540.1
-1587.77 435.46 2584.1
-1560.65 429.84 2550.7
-1547.55 428.05 2540.1
-1492.36 431.13 2558.3
-1416.16 434.20 2576.6
-1442.80 444.46 2637.5
-1324.70 437.08 2593.7
-1248.63 429.42 2548.2
-1286.15 444.68 2638.8
-1278.87 446.92 2652.0
-1228.20 443.52 2631.9
-1230.88 446.97 2652.3
-1180.62 446.16 2647.6
-1127.09 436.08 2587.7
-1076.75 432.03 2563.7
-1051.00 429.66 2549.6
-963.75 429.07 2546.1
-956.60 434.82 2580.2
-975.94 446.73 2651.0
-931.88 429.59 2549.2
-893.92 430.41 2554.1
-912.63 442.69 2627.0
-853.86 437.02 2593.3
-790.78 435.60 2584.9
-799.25 444.03 2634.9
-773.23 444.78 2639.3
-723.97 431.73 2561.9
-733.50 441.46 2619.7
-690.18 431.36 2559.7
-580.43 438.69 2603.2
-585.66 447.86 2657.6
-555.44 451.30 2678.0
-520.69 445.33 2642.6
-501.85 434.93 2580.9
-394.05 434.12 2576.1
-365.75 448.56 2661.8
-272.54 442.87 2628.0
-249.19 449.93 2669.9
-194.75 436.51 2590.3
-126.97 434.37 2577.6
-81.38 440.82 2615.9
-33.48 435.18 2582.4
0.00 443.85 2633.9
6.87 446.68 2650.6
13.70 445.18 2641.7
20.65 447.50 2655.5
27.13 440.84 2616.0
41.21 446.46 2649.3
47.31 439.30 2606.8
74.58 440.69 2615.1
102.28 443.20 2630.0
109.33 444.15 2635.6
128.91 441.01 2617.0
137.67 447.42 2655.0
144.21 446.37 2648.8
189.50 439.90 2610.4
199.04 446.12 2647.3
227.40 447.91 2657.9
266.20 455.34 2702.0
313.39 452.67 2686.2
325.33 449.92 2669.9
338.92 440.60 2614.6
349.34 445.24 2642.1
383.86 437.74 2597.6
485.78 444.73 2639.1
498.74 450.25 2671.8
616.33 450.13 2671.1
633.00 457.17 2712.9
624.72 446.23 2648.0
656.36 453.87 2693.3
727.48 450.35 2672.4
739.43 453.42 2690.6
735.90 447.04 2652.8
759.48 444.74 2639.1
772.54 440.48 2613.9
837.23 442.44 2625.4
872.08 446.34 2648.6
908.72 447.48 2655.4
901.05 440.37 2613.2
919.04 442.50 2625.8
986.68 445.38 2642.9
1005.03 441.40 2619.3
1074.10 453.36 2690.2
1104.67 460.28 2731.3
1073.90 444.61 2638.3
1112.72 446.46 2649.3
1166.56 451.35 2678.3
1221.96 451.29 2678.0
1233.91 453.13 2688.9
1242.58 453.75 2692.6
1245.03 452.11 2682.8
1256.88 446.43 2649.2
1289.75 455.62 2703.7
1294.20 454.72 2698.3
1306.35 456.52 2709.0
1310.45 443.64 2632.6
1353.55 455.86 2705.1
1357.08 447.77 2657.1
1430.57 462.62 2745.2
1421.97 457.57 2715.2
1397.45 445.26 2642.2
1501.93 449.89 2669.7
1521.76 451.66 2680.2
1531.39 446.37 2648.8
1644.01 462.60 2745.1
1655.70 457.96 2717.6
1649.50 454.31 2695.9
1682.08 461.33 2737.6
1665.42 445.48 2643.5
1709.46 451.69 2680.3
1834.62 453.42 2690.6
1882.49 463.49 2750.4
1846.43 452.90 2687.5
1883.86 456.91 2711.3
1881.16 449.54 2667.6
1882.95 448.32 2660.4
1885.86 447.38 2654.8
2020.39 448.21 2659.7
2179.57 449.75 2668.9
2281.16 469.23 2784.4
2255.01 459.48 2726.6
-2150.25 430.05 2591.8
-1802.61 421.05 2537.6
-1765.61 420.07 2531.7
-1756.06 419.36 2527.4
-1602.48 425.56 2564.7
-1561.13 423.36 2551.5
-1601.61 436.18 2628.8
-1570.92 429.65 2589.4
-1494.33 425.05 2561.7
-1477.40 422.11 2544.0
-1469.17 427.40 2575.8
-1426.99 422.81 2548.2
-1383.14 423.55 2552.6
-1332.51 426.40 2569.8
-1292.04 428.45 2582.2
-1269.26 427.54 2576.7
-1272.56 430.92 2597.1
-1271.42 432.83 2608.5
-1260.82 438.55 2643.0
-1245.45 435.57 2625.1
-1218.34 428.43 2582.0
-1188.01 434.47 2618.5
-1111.61 426.00 2567.4
-1102.00 430.05 2591.8
-1085.66 437.00 2633.7
-1004.73 437.43 2636.3
-972.21 429.11 2586.2
-937.84 428.72 2583.8
-912.62 423.24 2550.8
-869.78 431.52 2600.7
-865.31 436.06 2628.1
-849.02 431.25 2599.0
-796.69 435.80 2626.4
-781.33 431.08 2598.0
-733.12 430.45 2594.3
-735.39 435.79 2626.4
-705.13 438.14 2640.6
-699.73 439.05 2646.1
-554.06 443.25 2671.4
-545.23 441.71 2662.1
-530.18 435.02 2621.8
-534.85 444.55 2679.2
-520.52 438.34 2641.8
-441.25 427.88 2578.8
-405.14 432.15 2604.5
-388.56 428.75 2584.0
-367.92 444.28 2677.6
-349.36 429.99 2591.4
-340.69 427.53 2576.6
-314.31 437.30 2635.5
-257.01 444.55 2679.2
-241.89 442.32 2665.7
-236.68 445.51 2685.0
-135.73 434.35 2617.7
-111.38 445.51 2685.0
-74.38 432.78 2608.3
-34.29 438.98 2645.6
0.00 435.57 2625.1
6.70 428.70 2583.7
41.24 439.94 2651.4
47.99 438.78 2644.4
74.05 430.82 2596.5
103.12 440.00 2651.8
109.62 438.48 2642.6
116.98 440.40 2654.2
137.01 438.44 2642.4
141.05 429.88 2590.8
150.67 438.32 2641.6
262.44 442.00 2663.9
270.67 444.17 2676.9
272.35 435.75 2626.2
309.87 431.13 2598.3
348.45 446.02 2688.1
357.50 448.63 2703.8
367.89 436.02 2627.8
388.20 435.88 2626.9
393.84 434.58 2619.1
444.58 431.11 2598.2
555.07 444.05 2676.2
588.76 448.58 2703.5
683.12 450.72 2716.4
734.86 435.47 2624.5
736.07 432.19 2604.7
761.15 434.94 2621.3
791.02 448.01 2700.1
786.56 441.58 2661.3
817.72 436.12 2628.4
869.66 452.50 2727.1
845.55 436.41 2630.2
993.71 444.74 2680.3
1019.18 452.97 2730.0
1022.28 451.21 2719.4
1022.17 448.08 2700.5
1013.12 435.16 2622.6
1053.14 440.53 2655.0
1087.69 452.03 2724.3
1097.85 453.31 2732.0
1067.64 438.01 2639.8
1143.04 454.38 2738.4
1215.00 441.82 2662.7
1205.06 435.73 2626.0
1246.71 445.75 2686.5
1296.41 455.88 2747.5
1298.29 451.58 2721.6
1263.85 437.22 2635.1
1315.30 438.43 2642.3
1369.85 438.35 2641.9
1409.11 448.67 2704.0
1408.65 437.64 2637.6
1412.12 436.60 2631.3
1424.01 438.16 2640.7
1485.44 454.87 2741.4
1474.87 449.48 2708.9
1480.21 442.68 2667.9
1484.56 441.92 2663.3
1592.82 457.13 2755.0
1605.90 443.01 2669.9
1765.03 442.99 2669.8
1972.43 446.06 2688.3
2054.81 450.37 2714.3
2050.32 447.85 2699.1
2120.76 443.56 2673.2
2159.48 444.39 2678.3
2230.46 457.53 2757.4
2251.07 460.28 2774.0
2220.77 449.78 2710.7
-1975.27 414.81 2539.6
-1959.58 412.89 2527.9
-1754.91 414.08 2535.2
-1649.56 412.39 2524.8
-1550.57 415.68 2545.0
-1576.28 428.04 2620.7
-1414.24 426.30 2610.0
-1376.62 425.13 2602.8
-1360.24 422.14 2584.6
-1367.11 430.64 2636.6
-1303.62 419.02 2565.4
-1299.18 421.90 2583.1
-1282.23 420.73 2575.9
-1301.87 429.41 2629.1
-1292.86 428.69 2624.6
-1241.64 413.88 2534.0
-1253.59 426.90 2613.7
-1222.06 418.42 2561.8
-1221.28 420.44 2574.1
-1163.23 421.17 2578.6
-1001.86 420.78 2576.2
-989.62 418.43 2561.8
-924.02 415.81 2545.8
-932.57 422.68 2587.8
-946.25 431.98 2644.8
-884.25 435.21 2664.6
-858.84 426.04 2608.4
-851.18 425.59 2605.7
-825.10 426.08 2608.6
-811.28 425.92 2607.7
-737.01 429.92 2632.2
-594.84 421.07 2578.0
-537.79 418.28 2560.9
-539.85 425.13 2602.8
-498.78 436.43 2672.0
-477.24 423.47 2592.6
-446.24 419.60 2569.0
-454.92 434.24 2658.6
-443.79 430.13 2633.5
-410.51 423.97 2595.8
-401.97 422.07 2584.1
-324.40 434.84 2662.3
-287.08 420.60 2575.1
-235.65 436.65 2673.3
-214.20 435.32 2665.2
-188.30 423.67 2593.9
-173.83 438.04 2681.9
-160.28 420.74 2575.9
-96.66 434.95 2663.0
40.66 426.96 2614.0
67.17 423.17 2590.8
94.79 426.58 2611.7
101.21 425.09 2602.6
107.33 422.63 2587.5
115.20 426.93 2613.9
157.27 430.78 2637.4
209.22 425.19 2603.2
233.05 431.83 2643.8
240.74 433.34 2653.1
241.69 422.96 2589.6
248.73 423.51 2592.9
256.35 425.01 2602.1
283.58 435.74 2667.8
317.95 435.45 2666.0
332.55 436.47 2672.2
335.88 431.85 2644.0
352.80 427.44 2617.0
361.62 429.85 2631.7
378.31 441.36 2702.2
373.47 427.79 2619.1
397.23 431.47 2641.7
413.48 441.51 2703.1
429.77 436.70 2673.7
429.37 429.37 2628.8
464.38 424.00 2595.9
484.21 429.65 2630.5
507.49 437.97 2681.5
639.50 442.73 2710.6
629.20 426.23 2609.6
636.77 426.77 2612.9
699.50 432.04 2645.2
708.21 433.18 2652.1
729.01 433.28 2652.7
774.31 443.47 2715.1
821.41 434.86 2662.4
839.93 437.32 2677.5
858.27 436.06 2669.7
871.56 439.27 2689.4
919.08 428.90 2625.9
943.29 427.54 2617.6
987.75 444.49 2721.4
969.84 430.28 2634.4
1005.04 439.70 2692.1
1036.19 447.12 2737.5
1051.25 444.49 2721.3
1039.48 436.58 2673.0
1030.74 430.04 2632.9
1122.84 433.98 2657.0
1149.59 441.61 2703.7
1165.30 434.40 2659.6
1231.43 440.80 2698.8
1265.77 440.57 2697.4
1310.66 448.76 2747.5
1273.72 431.42 2641.4
1297.43 437.10 2676.1
1346.05 439.38 2690.1
1434.05 432.27 2646.6
1502.17 448.51 2746.0
1491.25 439.01 2687.8
1508.65 442.07 2706.6
1495.17 436.09 2669.9
1480.56 429.84 2631.7
1586.10 444.11 2719.0
1629.71 433.21 2652.3
1651.37 437.13 2676.3
1689.29 445.29 2726.3
1702.01 443.09 2712.8
1697.38 431.19 2639.9
1703.86 431.10 2639.4
1866.46 437.13 2676.3
1960.59 449.15 2749.9
1972.49 447.00 2736.8
1938.27 437.67 2679.6
2030.52 439.60 2691.4
2166.25 438.82 2686.7
2147.43 433.62 2654.8
2213.31 442.66 2710.2
2242.08 447.00 2736.7
2218.65 440.93 2699.6
-2116.92 411.44 2559.6
-2060.89 404.35 2515.5
-2009.06 404.42 2516.0
-1873.58 407.59 2535.7
-1758.74 406.87 2531.2
-1797.72 417.45 2597.0
-1730.11 417.38 2596.6
-1604.58 407.72 2536.5
-1606.18 409.81 2549.5
-1552.25 407.79 2537.0
-1549.50 412.31 2565.1
-1505.11 409.28 2546.2
-1433.70 411.53 2560.2
-1429.46 420.03 2613.1
-1415.06 421.80 2624.1
-1339.47 409.10 2545.1
-1328.08 424.44 2640.5
-1093.45 408.40 2540.7
-1030.77 412.31 2565.1
-1004.36 420.74 2617.5
-917.95 412.41 2565.7
-811.10 412.20 2564.4
-746.69 417.07 2594.7
-718.37 412.40 2565.6
-706.26 417.03 2594.4
-649.16 410.70 2555.0
-646.78 413.41 2571.9
-635.96 410.73 2555.2
-605.24 416.94 2593.9
-593.96 413.77 2574.2
-488.04 414.50 2578.7
-481.03 414.22 2577.0
-410.22 416.94 2593.9
-400.61 413.96 2575.4
-346.09 412.64 2567.1
-295.13 415.87 2587.2
-297.70 429.24 2670.4
-284.23 419.57 2610.3
-210.49 420.99 2619.0
-193.29 413.24 2570.8
-143.10 422.49 2628.4
-134.93 418.27 2602.1
-125.33 431.69 2685.6
-88.13 420.33 2615.0
-27.15 420.86 2618.3
0.00 417.55 2597.7
48.30 427.80 2661.4
60.76 418.55 2603.9
147.25 414.99 2581.7
158.39 426.97 2656.2
166.91 431.18 2682.4
270.39 429.85 2674.2
271.55 420.90 2618.5
276.70 418.43 2603.1
295.47 416.35 2590.2
349.50 433.38 2696.1
361.13 430.57 2678.7
401.06 428.72 2667.2
409.61 430.44 2677.9
414.88 428.71 2667.1
419.01 425.88 2649.5
420.54 420.54 2616.3
477.26 428.84 2667.9
478.68 418.00 2600.5
504.78 434.67 2704.2
512.47 435.25 2707.8
499.71 418.67 2604.7
552.22 422.68 2629.6
572.92 433.18 2694.9
578.57 432.18 2688.7
587.55 433.66 2697.9
589.97 430.33 2677.2
634.95 427.90 2662.1
675.53 423.06 2632.0
804.41 422.65 2629.4
847.64 434.33 2702.1
945.87 434.40 2702.5
979.34 433.71 2698.2
994.44 434.19 2701.2
1004.71 420.89 2618.5
1035.91 428.18 2663.8
1108.60 421.68 2623.3
1162.56 436.84 2717.7
1139.20 425.49 2647.0
1157.98 429.91 2674.5
1183.19 436.65 2716.5
1177.21 431.88 2686.8
1252.16 436.15 2713.4
1247.04 429.54 2672.2
1286.53 431.16 2682.3
1318.00 439.33 2733.2
1337.19 429.56 2672.4
1414.55 429.91 2674.6
1448.34 438.03 2725.1
1412.36 425.08 2644.5
1447.96 431.60 2685.1
1451.49 430.58 2678.8
1454.51 429.43 2671.5
1469.85 431.90 2686.9
1488.88 429.35 2671.1
1512.57 434.16 2701.0
1491.70 426.20 2651.5
1508.64 423.24 2633.1
1574.08 439.61 2734.9
1590.43 430.60 2678.8
1681.02 439.76 2735.8
1635.52 424.28 2639.5
1716.32 441.54 2746.9
1668.51 425.71 2648.4
1711.15 429.52 2672.1
1768.62 442.15 2750.7
1765.63 439.63 2735.1
1751.92 427.63 2660.4
1821.32 441.10 2744.2
1841.28 430.79 2680.0
1852.08 428.47 2665.6
1924.26 443.51 2759.2
1874.74 427.33 2658.5
1912.19 431.11 2682.0
1907.03 428.39 2665.1
1960.21 438.75 2729.5
1929.50 428.78 2667.5
2014.59 427.75 2661.1
2143.26 428.65 2666.7
2183.73 429.81 2674.0
2258.99 443.22 2757.4
2205.96 431.45 2684.1
-1960.15 402.59 2545.7
-1995.23 411.18 2600.0
-1843.10 401.53 2539.0
-1824.79 398.97 2522.8
-1704.97 403.11 2549.0
-1628.90 405.56 2564.5
-1626.77 406.69 2571.6
-1557.36 402.54 2545.3
-1554.49 414.08 2618.3
-1437.28 404.03 2554.7
-1414.33 403.15 2549.2
-1397.11 403.90 2554.0
-1436.97 417.40 2639.3
-1383.03 407.56 2577.1
-1156.51 403.12 2549.0
-1186.81 416.07 2630.9
-1150.73 405.75 2565.6
-1096.18 407.73 2578.1
-1081.63 404.78 2559.5
-1035.19 407.40 2576.1
-984.26 402.95 2547.9
-995.14 410.16 2593.5
-950.77 405.57 2564.5
-788.22 407.47 2576.5
-774.28 414.31 2619.7
-728.53 404.01 2554.6
-648.68 403.77 2553.1
-627.17 415.84 2629.4
-628.42 421.25 2663.6
-616.03 417.53 2640.1
-581.99 412.80 2610.2
-567.23 407.07 2574.0
-514.78 407.81 2578.7
-396.66 417.18 2637.9
-390.98 418.42 2645.7
-330.30 411.19 2600.0
-324.76 412.72 2609.7
-317.61 412.22 2606.6
-293.46 406.84 2572.5
-280.92 408.00 2579.9
-274.83 408.89 2585.5
-268.50 409.46 2589.1
-269.41 421.38 2664.5
-168.15 410.30 2594.4
-121.01 410.08 2593.0
-114.99 412.62 2609.1
-73.69 408.63 2583.9
-61.24 415.09 2624.7
0.00 418.32 2645.1
13.38 408.01 2579.9
108.61 414.07 2618.2
117.38 421.20 2663.3
123.03 416.94 2636.4
128.54 412.68 2609.4
160.28 425.08 2687.9
247.86 419.98 2655.6
256.95 412.47 2608.1
265.23 414.85 2623.2
288.51 409.29 2588.0
303.43 420.66 2659.9
301.99 409.36 2588.5
333.66 415.38 2626.5
356.12 417.76 2641.6
385.35 412.39 2607.6
416.26 423.20 2676.0
452.45 418.17 2644.2
477.26 410.04 2592.7
488.47 413.85 2616.8
514.72 418.64 2647.1
519.61 417.06 2637.1
547.65 428.29 2708.2
547.76 412.51 2608.4
570.47 424.37 2683.4
577.34 424.31 2683.0
581.77 412.65 2609.3
720.29 418.46 2646.0
727.21 418.49 2646.2
797.59 419.42 2652.1
805.34 419.88 2655.0
808.75 418.08 2643.6
839.22 430.19 2720.2
838.19 422.56 2671.9
890.20 414.52 2621.1
905.91 418.64 2647.1
921.41 422.60 2672.2
958.09 417.45 2639.6
1049.36 432.51 2734.8
1020.26 417.69 2641.1
1036.88 418.87 2648.6
1132.19 421.12 2662.8
1170.47 417.53 2640.2
1262.94 428.00 2706.3
1276.71 430.27 2720.7
1266.35 419.82 2654.6
1271.11 419.12 2650.2
1299.51 426.18 2694.8
1322.90 431.54 2728.7
1293.95 419.84 2654.8
1316.60 418.30 2645.0
