ply
format ascii 1.0
element vertex 2100
property float x
property float y
property float z
end_header
-1907.04 -429.87 3014.6
-1912.22 -449.45 3152.0
-1896.45 -447.66 3139.4
-1816.78 -430.70 3020.5
-1793.64 -427.06 2995.0
-1771.11 -423.53 2970.2
-1769.69 -430.68 3020.3
-1715.82 -419.42 2941.4
-1696.24 -422.14 2960.5
-1768.11 -442.03 3099.9
-1719.38 -431.81 3028.3
-1718.85 -437.67 3069.4
-1688.11 -431.84 3028.5
-1546.85 -415.01 2910.4
-1560.41 -420.70 2950.4
-1571.96 -425.90 2986.8
-1591.63 -433.37 3039.2
-1502.41 -415.24 2912.1
-1510.91 -419.70 2943.3
-1502.48 -423.78 2971.9
-1472.24 -417.39 2927.1
-1472.36 -419.59 2942.5
-1476.41 -436.57 3061.7
-1457.07 -433.18 3037.9
-1394.69 -416.89 2923.7
-1372.65 -417.10 2925.1
-1306.92 -413.11 2897.1
-1259.92 -412.47 2892.7
-1217.51 -415.92 2916.8
-1209.15 -415.64 2914.9
-1154.22 -420.41 2948.3
-1167.32 -428.02 3001.7
-1128.03 -416.39 2920.1
-1121.42 -416.74 2922.6
-1081.62 -413.12 2897.2
-1102.23 -423.93 2973.0
-1094.74 -424.02 2973.6
-1068.19 -416.67 2922.1
-1045.93 -410.90 2881.6
-1053.42 -416.82 2923.1
-1044.68 -416.36 2919.9
-1027.33 -412.43 2892.4
-1032.28 -423.70 2971.4
-1025.71 -424.17 2974.7
-993.20 -420.20 2946.9
-1016.49 -433.39 3039.4
-974.12 -418.57 2935.4
-972.51 -421.16 2953.6
-950.50 -414.90 2909.7
-936.94 -412.25 2891.1
-928.09 -425.37 2983.1
-945.26 -436.89 3063.9
-905.52 -422.07 2959.9
-864.90 -420.97 2952.2
-816.33 -415.72 2915.5
-857.50 -440.77 3091.1
-840.75 -440.39 3088.5
-772.41 -408.49 2864.7
-772.70 -416.65 2922.0
-768.87 -418.69 2936.3
-733.95 -416.15 2918.5
-733.99 -420.52 2949.1
-733.41 -424.61 2977.8
-723.77 -423.48 2969.9
-706.04 -417.55 2928.3
-706.90 -422.60 2963.7
-714.40 -431.78 3028.1
-679.49 -415.24 2912.1
-649.86 -415.61 2914.6
-643.50 -416.38 2920.1
-626.71 -420.36 2947.9
-651.55 -442.41 3102.6
-582.80 -416.29 2919.4
-564.60 -408.59 2865.5
-562.17 -412.26 2891.1
-553.81 -411.62 2886.7
-558.19 -420.55 2949.3
-568.06 -433.93 3043.2
-536.22 -415.38 2913.1
-514.08 -415.80 2916.0
-506.51 -428.58 3005.6
-499.57 -429.32 3010.8
-496.27 -433.25 3038.4
-473.66 -420.18 2946.7
-478.89 -431.79 3028.1
-474.18 -442.03 3099.9
-426.81 -419.19 2939.7
-425.91 -425.91 2986.9
-422.15 -429.97 3015.4
-374.10 -411.51 2885.9
-374.72 -420.60 2949.7
-378.68 -433.91 3043.0
-372.46 -435.86 3056.7
-329.14 -431.02 3022.7
-303.81 -407.55 2858.1
-304.34 -418.47 2934.7
-311.15 -438.81 3077.3
-304.42 -440.60 3089.9
-288.44 -428.76 3006.9
-279.24 -426.62 2991.9
-267.16 -419.83 2944.2
-237.79 -408.71 2866.3
-235.88 -418.50 2934.9
-225.56 -413.52 2900.0
-212.73 -403.46 2829.5
-202.28 -412.06 2889.8
-199.21 -438.26 3073.5
-185.98 -426.22 2989.0
-179.91 -430.23 3017.2
-174.60 -436.49 3061.1
-150.02 -434.27 3045.5
-135.68 -414.58 2907.5
-128.33 -415.19 2911.7
-122.52 -421.16 2953.6
-89.40 -409.75 2873.6
-81.59 -407.94 2860.9
-66.12 -404.05 2833.6
-62.20 -427.64 2999.0
-54.05 -424.70 2978.4
-45.47 -416.81 2923.1
-36.73 -403.98 2833.1
-29.73 -408.79 2866.8
-23.11 -423.76 2971.9
-15.29 -420.52 2949.1
-7.76 -426.74 2992.7
0.00 -435.35 3053.1
7.62 -418.98 2938.3
37.94 -417.39 2927.1
45.49 -416.95 2924.1
65.82 -402.21 2820.7
118.21 -406.35 2849.7
129.60 -419.28 2940.4
139.47 -426.15 2988.6
141.64 -410.02 2875.5
192.69 -407.62 2858.7
207.23 -407.06 2854.7
221.64 -420.35 2947.9
229.14 -406.54 2851.1
253.92 -436.42 3060.6
248.55 -414.25 2905.1
254.72 -412.05 2889.7
270.03 -424.33 2975.8
281.26 -429.71 3013.6
284.94 -423.56 2970.5
280.54 -406.04 2847.5
293.22 -413.52 2900.0
308.63 -424.37 2976.1
313.75 -420.89 2951.7
312.74 -409.55 2872.1
323.72 -414.06 2903.8
343.50 -429.38 3011.2
347.88 -425.18 2981.8
344.37 -411.74 2887.5
343.00 -401.39 2814.9
359.24 -411.63 2886.8
379.71 -426.21 2989.0
395.48 -435.03 3050.9
401.11 -424.25 2975.3
397.39 -397.39 2786.9
416.99 -409.54 2872.1
424.86 -409.95 2875.0
426.12 -404.08 2833.8
432.70 -403.37 2828.8
451.13 -413.54 2900.1
449.04 -404.87 2839.3
486.19 -405.16 2841.4
486.74 -399.56 2802.1
514.35 -398.44 2794.3
549.34 -419.64 2942.9
575.31 -433.46 3039.8
579.75 -430.90 3021.9
559.90 -410.59 2879.5
568.88 -401.14 2813.2
583.64 -406.33 2849.6
582.08 -400.18 2806.5
583.97 -396.52 2780.8
610.03 -409.17 2869.5
659.66 -431.92 3029.1
645.42 -417.62 2928.8
626.36 -400.58 2809.3
634.28 -396.43 2780.1
666.97 -412.17 2890.6
653.38 -399.29 2800.2
654.35 -395.49 2773.5
663.92 -396.91 2783.5
711.72 -403.55 2830.1
739.36 -414.95 2910.0
738.32 -410.18 2876.6
719.46 -395.70 2775.1
740.79 -399.45 2801.3
771.09 -411.75 2887.6
776.27 -402.78 2824.7
823.54 -419.40 2941.2
855.41 -423.85 2972.5
842.91 -413.93 2902.9
850.41 -413.92 2902.8
850.89 -410.52 2879.0
842.75 -403.06 2826.6
847.49 -401.83 2818.0
879.79 -413.58 2900.4
906.10 -422.34 2961.8
878.08 -405.83 2846.1
889.60 -397.79 2789.7
905.27 -401.53 2815.9
900.89 -396.39 2779.9
955.58 -398.16 2792.3
971.43 -401.72 2817.3
987.19 -396.32 2779.4
1040.01 -414.50 2906.9
1024.52 -405.39 2843.0
1072.35 -403.97 2833.0
1070.31 -400.46 2808.4
1106.34 -400.32 2807.4
1096.56 -394.19 2764.4
1097.62 -392.01 2749.1
1119.30 -397.17 2785.4
1125.53 -396.82 2782.9
1124.78 -391.54 2745.8
1209.22 -400.64 2809.7
1256.35 -413.77 2901.7
1193.01 -390.57 2739.0
1297.19 -414.80 2909.0
1300.25 -413.37 2899.0
1262.88 -399.19 2799.5
1325.63 -391.99 2749.0
1402.39 -412.47 2892.6
1396.30 -408.49 2864.8
1392.28 -405.16 2841.4
1468.37 -425.05 2980.9
1468.00 -420.52 2949.1
1401.34 -399.35 2800.6
1422.71 -397.20 2785.6
1518.61 -421.84 2958.3
1436.24 -394.96 2769.9
1471.96 -400.78 2810.7
1533.14 -415.38 2913.1
1531.19 -412.82 2895.1
1544.99 -414.51 2906.9
1552.28 -414.44 2906.5
1510.77 -401.41 2815.1
1527.06 -396.17 2778.3
1796.18 -395.16 2771.3
1805.53 -389.43 2731.0
1954.96 -389.58 2732.1
2006.87 -388.65 2725.6
2061.24 -388.25 2722.8
2074.17 -389.35 2730.5
2166.06 -395.79 2775.7
-1919.91 -428.35 2950.4
-1902.08 -426.07 2934.6
-1859.55 -423.31 2915.7
-1859.48 -437.52 3013.6
-1797.66 -424.76 2925.7
-1800.01 -430.77 2967.1
-1791.27 -430.52 2965.3
-1763.59 -427.54 2944.8
-1800.62 -438.41 3019.7
-1705.13 -426.28 2936.1
-1653.09 -420.79 2898.3
-1676.77 -428.76 2953.2
-1645.07 -422.59 2910.7
-1652.86 -430.51 2965.3
-1675.35 -438.41 3019.7
-1606.51 -422.37 2909.2
-1610.34 -429.42 2957.8
-1662.99 -445.59 3069.1
-1620.55 -436.30 3005.1
-1545.76 -420.21 2894.3
-1578.53 -431.21 2970.0
-1562.75 -428.99 2954.8
-1563.19 -431.23 2970.2
-1558.51 -432.06 2975.9
-1474.50 -421.28 2901.7
-1499.36 -430.58 2965.8
-1461.56 -421.89 2905.9
-1504.77 -436.62 3007.3
-1511.31 -440.80 3036.1
-1469.77 -430.93 2968.1
-1452.16 -428.00 2948.0
-1423.28 -421.71 2904.7
-1441.09 -433.88 2988.4
-1394.96 -429.22 2956.4
-1381.50 -427.43 2944.0
-1366.44 -437.26 3011.7
-1403.95 -451.85 3112.2
-1305.53 -422.60 2910.8
-1268.24 -422.75 2911.8
-1295.74 -434.50 2992.7
-1278.59 -431.33 2970.9
-1173.57 -432.37 2978.0
-1184.20 -439.17 3024.9
-1121.34 -418.63 2883.4
-1086.39 -416.70 2870.1
-1087.20 -428.75 2953.2
-1095.74 -435.19 2997.5
-1108.81 -443.52 3054.9
-1068.86 -430.62 2966.0
-1033.63 -422.51 2910.1
-1041.07 -428.68 2952.6
-989.45 -429.53 2958.5
-989.08 -432.72 2980.5
-970.64 -428.00 2947.9
-902.90 -424.89 2926.6
-902.90 -428.50 2951.4
-880.07 -421.23 2901.3
-898.27 -433.65 2986.8
-880.39 -428.71 2952.9
-852.57 -418.81 2884.6
-841.77 -417.16 2873.3
-852.02 -426.01 2934.2
-813.64 -418.01 2879.2
-806.97 -418.43 2882.0
-847.68 -443.65 3055.7
-833.44 -444.50 3061.6
-767.76 -413.41 2847.5
-762.91 -414.79 2856.9
-820.79 -450.63 3103.8
-795.95 -441.32 3039.7
-749.29 -419.60 2890.1
-748.90 -423.62 2917.8
-769.58 -439.76 3029.0
-752.36 -448.21 3087.2
-705.33 -424.72 2925.3
-678.85 -413.22 2846.1
-703.46 -432.90 2981.7
-685.78 -426.70 2939.0
-642.85 -423.52 2917.1
-624.88 -416.59 2869.3
-627.93 -428.83 2953.7
-596.35 -428.15 2949.0
-579.50 -421.45 2902.9
-590.62 -435.20 2997.5
-584.64 -436.53 3006.7
-574.32 -434.62 2993.6
-564.80 -433.27 2984.3
-561.86 -437.00 3010.0
-536.21 -422.93 2913.0
-496.43 -448.39 3088.4
-472.21 -448.20 3087.1
-431.62 -439.47 3027.0
-401.89 -432.80 2981.1
-396.24 -435.09 2996.8
-373.84 -418.70 2883.9
-374.34 -427.81 2946.7
-379.52 -442.78 3049.7
-355.57 -423.66 2918.0
-340.72 -414.80 2857.0
-359.91 -447.89 3084.9
-325.67 -444.82 3063.8
-316.38 -442.93 3050.8
-289.38 -437.98 3016.7
-273.80 -425.92 2933.6
-263.22 -421.15 2900.8
-235.16 -424.81 2926.0
-230.54 -430.34 2964.1
-218.00 -420.96 2899.5
-206.37 -412.73 2842.8
-189.76 -408.72 2815.2
-182.94 -409.79 2822.5
-171.78 -418.24 2880.7
-171.94 -437.67 3014.5
-163.99 -437.30 3012.0
-152.56 -427.17 2942.2
-146.66 -432.25 2977.2
-141.72 -440.91 3036.9
-128.55 -423.45 2916.6
-117.76 -412.15 2838.8
-110.14 -411.19 2832.2
-94.74 -408.11 2810.9
-91.43 -426.67 2938.8
-83.31 -424.11 2921.2
-65.79 -409.38 2819.7
-60.33 -422.33 2908.9
-29.53 -413.49 2848.0
-23.20 -433.04 2982.6
-15.55 -435.48 2999.5
-7.75 -433.76 2987.7
0.00 -434.63 2993.6
7.70 -431.03 2968.9
14.78 -413.79 2850.1
36.87 -412.90 2843.9
46.10 -430.27 2963.6
50.71 -405.68 2794.2
66.97 -416.70 2870.1
87.55 -408.57 2814.1
95.44 -411.12 2831.7
116.90 -409.14 2818.1
126.24 -415.84 2864.2
133.83 -416.37 2867.8
138.23 -407.42 2806.2
154.25 -411.33 2833.1
169.24 -430.78 2967.1
174.37 -424.55 2924.2
173.38 -404.55 2786.5
210.81 -421.62 2904.0
227.05 -438.45 3019.9
218.72 -408.28 2812.1
269.57 -419.34 2888.3
290.79 -440.12 3031.4
307.26 -441.19 3038.8
308.42 -431.79 2974.0
323.37 -441.67 3042.1
319.77 -416.44 2868.3
327.57 -407.64 2807.7
332.99 -405.38 2792.1
372.09 -425.25 2929.0
382.32 -411.73 2835.9
389.75 -404.19 2783.9
405.21 -412.58 2841.8
419.40 -419.40 2888.7
415.45 -408.16 2811.3
453.71 -423.46 2916.7
467.43 -429.12 2955.7
458.25 -413.91 2850.9
453.33 -402.96 2775.5
486.23 -406.40 2799.2
491.89 -405.09 2790.2
513.09 -404.69 2787.4
529.16 -411.57 2834.8
541.79 -415.62 2862.7
536.64 -406.11 2797.2
550.63 -411.14 2831.8
562.49 -414.47 2854.7
560.89 -407.92 2809.7
578.89 -415.61 2862.6
621.82 -429.90 2961.0
613.73 -419.13 2886.9
652.69 -435.13 2997.0
633.26 -417.21 2873.6
642.21 -408.68 2814.9
680.76 -428.34 2950.3
670.25 -417.04 2872.5
658.22 -405.06 2789.9
690.69 -402.90 2775.1
718.24 -414.65 2856.0
751.05 -429.17 2956.0
729.65 -400.59 2759.2
750.23 -403.97 2782.5
799.36 -426.33 2936.4
787.03 -415.79 2863.9
777.79 -407.07 2803.8
854.78 -435.16 2997.3
864.98 -436.39 3005.7
871.35 -435.68 3000.8
869.06 -430.69 2966.5
862.39 -423.63 2917.9
860.87 -419.20 2887.4
869.17 -419.60 2890.1
867.42 -415.18 2859.6
859.15 -407.73 2808.4
867.27 -408.13 2811.1
870.69 -406.32 2798.7
887.39 -410.69 2828.8
928.13 -426.03 2934.4
950.40 -432.70 2980.3
950.14 -429.10 2955.5
894.49 -400.73 2760.1
938.59 -398.19 2742.6
989.85 -416.78 2870.7
992.28 -414.68 2856.2
979.58 -406.35 2798.8
981.11 -403.99 2782.6
975.60 -398.78 2746.7
980.26 -397.79 2739.9
1041.32 -419.52 2889.6
1075.68 -430.27 2963.6
1006.61 -399.79 2753.6
1053.42 -404.05 2783.0
1063.97 -405.32 2791.8
1111.79 -399.11 2748.9
1122.04 -400.22 2756.6
1158.24 -410.51 2827.5
1189.45 -418.93 2885.5
1159.78 -405.92 2795.9
1216.68 -410.45 2827.1
1267.77 -425.12 2928.1
1211.64 -403.88 2781.8
1237.37 -400.54 2758.8
1242.12 -399.76 2753.5
1255.02 -401.61 2766.2
1290.20 -410.52 2827.6
1334.71 -401.85 2767.8
1427.49 -427.48 2944.4
1428.47 -425.50 2930.8
1370.05 -405.94 2796.0
1392.13 -410.31 2826.1
1411.24 -413.77 2849.9
1355.76 -395.43 2723.6
1402.45 -398.67 2745.9
1464.73 -414.27 2853.4
1508.34 -424.46 2923.6
1450.94 -400.26 2756.9
1461.68 -399.29 2750.2
1486.42 -404.08 2783.2
1503.31 -406.69 2801.2
1478.83 -398.15 2742.3
1474.43 -395.06 2721.1
1535.40 -409.44 2820.1
1531.53 -406.47 2799.7
1543.53 -394.69 2718.6
1674.01 -395.55 2724.4
1694.79 -398.77 2746.7
2046.25 -399.27 2750.1
2094.25 -407.21 2804.8
-2043.85 -439.62 2974.9
-1989.79 -429.61 2907.2
-1852.04 -430.88 2915.8
-1821.28 -430.76 2914.9
-1820.94 -436.11 2951.1
-1851.11 -448.99 3038.3
-1799.52 -438.34 2966.2
-1776.36 -438.32 2966.1
-1827.05 -452.79 3064.0
-1803.79 -459.00 3106.0
-1706.53 -438.16 2965.0
-1737.51 -452.23 3060.2
-1650.95 -431.67 2921.1
-1627.24 -433.42 2932.9
-1590.70 -425.68 2880.6
-1591.64 -434.08 2937.4
-1622.43 -444.61 3008.6
-1621.98 -446.63 3022.3
-1517.48 -426.09 2883.3
-1563.57 -441.20 2985.6
-1488.43 -432.86 2929.1
-1454.63 -425.20 2877.3
-1419.74 -425.92 2882.2
-1457.75 -439.64 2975.0
-1445.82 -443.07 2998.2
-1409.76 -441.52 2987.7
-1329.98 -433.19 2931.4
-1376.62 -450.96 3051.6
-1288.09 -424.40 2871.9
-1279.37 -431.50 2919.9
-1319.29 -447.61 3029.0
-1284.31 -438.36 2966.3
-1246.85 -428.14 2897.2
-1168.92 -435.48 2946.9
-1165.20 -436.95 2956.8
-1110.20 -421.88 2854.8
-1126.59 -430.98 2916.4
-1116.08 -429.84 2908.7
-1141.59 -442.66 2995.4
-1133.03 -442.35 2993.3
-1056.75 -421.22 2850.4
-1074.52 -431.32 2918.7
-1061.03 -428.93 2902.5
-1054.37 -429.28 2904.9
-967.87 -424.38 2871.7
-988.81 -436.91 2956.6
-973.16 -433.36 2932.5
-940.89 -422.29 2857.6
-915.05 -442.02 2991.1
-888.86 -440.57 2981.3
-843.58 -421.79 2854.2
-846.34 -438.56 2967.7
-871.78 -455.88 3084.9
-806.43 -425.61 2880.1
-792.61 -422.23 2857.2
-815.09 -438.30 2966.0
-807.92 -438.59 2967.9
-790.43 -433.22 2931.6
-788.40 -444.94 3010.8
-754.99 -430.34 2912.1
-771.52 -444.21 3005.9
-759.32 -441.65 2988.6
-744.06 -437.23 2958.7
-741.37 -440.19 2978.7
-727.22 -436.33 2952.6
-727.96 -441.42 2987.0
-706.48 -433.00 2930.1
-671.36 -425.20 2877.3
-668.06 -427.86 2895.3
-645.73 -418.26 2830.3
-637.21 -417.49 2825.1
-631.96 -418.85 2834.4
-630.69 -422.94 2862.0
-642.77 -436.17 2951.5
-645.65 -443.40 3000.5
-642.53 -446.64 3022.3
-587.70 -429.48 2906.2
-582.20 -430.98 2916.4
-587.73 -440.80 2982.9
-575.93 -437.71 2961.9
-571.88 -440.50 2980.8
-563.68 -440.13 2978.3
-539.69 -427.25 2891.2
-529.75 -437.62 2961.3
-517.55 -440.30 2979.5
-516.88 -446.40 3020.8
-477.73 -432.23 2924.9
-465.63 -428.08 2896.8
-478.55 -447.17 3025.9
-415.68 -430.80 2915.2
-396.67 -426.61 2886.8
-404.01 -451.54 3055.5
-379.93 -433.12 2930.9
-379.69 -441.67 2988.8
-376.21 -446.75 3023.1
-345.03 -418.44 2831.5
-325.98 -422.29 2857.6
-326.01 -432.15 2924.3
-330.51 -448.55 3035.3
-317.71 -441.69 2988.9
-300.04 -427.55 2893.2
-296.30 -433.05 2930.4
-295.75 -443.63 3002.0
-281.05 -432.97 2929.9
-271.87 -430.45 2912.8
-266.25 -433.61 2934.2
-249.49 -418.27 2830.4
-235.66 -419.76 2840.5
-237.61 -436.90 2956.5
-226.23 -429.84 2908.7
-204.64 -416.59 2819.0
-201.10 -424.54 2872.8
-189.29 -414.99 2808.2
-139.79 -419.36 2837.8
-138.44 -438.40 2966.6
-128.89 -432.17 2924.4
-121.65 -433.38 2932.7
-118.13 -448.91 3037.7
-103.49 -421.34 2851.2
-87.98 -417.91 2827.9
-58.30 -415.38 2810.9
-51.01 -415.41 2811.0
-21.81 -414.44 2804.5
-14.88 -423.95 2868.8
-7.54 -429.65 2907.4
0.00 -425.71 2880.7
7.28 -414.89 2807.5
14.81 -422.19 2856.9
44.90 -426.53 2886.3
58.75 -418.60 2832.6
69.85 -442.40 2993.7
72.43 -412.85 2793.7
101.94 -415.06 2808.7
113.83 -432.55 2927.0
119.31 -425.06 2876.3
125.19 -419.75 2840.4
132.49 -419.56 2839.1
159.62 -433.26 2931.9
168.78 -437.29 2959.1
168.65 -417.96 2828.3
202.71 -412.66 2792.4
279.07 -429.91 2909.2
296.34 -444.50 3007.9
300.97 -439.88 2976.7
304.63 -434.10 2937.5
318.75 -443.14 2998.7
322.17 -427.06 2889.9
333.57 -413.34 2797.0
373.32 -425.58 2879.9
369.12 -412.54 2791.6
376.89 -413.13 2795.6
402.33 -432.69 2928.0
401.41 -423.71 2867.2
403.95 -418.64 2832.9
425.50 -433.10 2930.8
424.70 -424.70 2873.9
422.07 -407.76 2759.3
450.35 -427.83 2895.1
459.53 -429.40 2905.7
479.92 -441.21 2985.7
501.31 -446.48 3021.3
495.95 -434.91 2943.0
493.02 -425.79 2881.3
490.79 -417.54 2825.5
497.39 -416.93 2821.3
496.99 -410.56 2778.2
514.22 -418.72 2833.4
534.41 -429.03 2903.2
514.63 -407.41 2756.9
544.88 -408.66 2765.4
564.95 -418.21 2830.0
567.50 -414.71 2806.3
597.72 -431.27 2918.4
618.34 -435.13 2944.5
586.96 -408.01 2761.0
593.39 -407.51 2757.6
631.82 -428.73 2901.2
660.09 -442.65 2995.4
639.49 -423.85 2868.2
629.59 -412.49 2791.3
659.82 -427.38 2892.1
692.54 -443.54 3001.4
673.84 -426.76 2887.9
655.03 -410.29 2776.4
665.98 -412.62 2792.2
663.79 -406.84 2753.0
676.16 -410.01 2774.5
709.94 -425.96 2882.5
692.84 -411.37 2783.7
734.96 -410.71 2779.3
783.61 -421.38 2851.4
816.84 -431.11 2917.3
839.07 -415.89 2814.3
908.14 -427.80 2894.9
929.61 -434.32 2939.0
927.51 -429.82 2908.6
928.00 -426.58 2886.6
913.27 -406.69 2752.0
944.63 -411.02 2781.3
957.82 -407.43 2757.1
1018.85 -430.18 2911.0
991.99 -415.76 2813.4
1029.56 -422.19 2856.9
1043.69 -421.92 2855.1
1063.05 -406.67 2751.9
1062.45 -403.73 2732.0
1084.90 -404.18 2735.1
1148.59 -419.68 2839.9
1206.47 -438.02 2964.0
1184.91 -427.47 2892.6
1152.82 -413.28 2796.6
1175.74 -418.86 2834.4
1197.28 -423.88 2868.4
1178.30 -414.59 2805.5
1178.13 -406.99 2754.1
1203.41 -405.88 2746.6
1210.60 -405.91 2746.7
1235.05 -411.68 2785.8
1229.80 -407.55 2757.8
1254.83 -413.44 2797.7
1238.88 -405.84 2746.3
1288.57 -417.32 2824.0
1258.27 -405.21 2742.0
1287.60 -405.49 2743.9
1311.91 -406.41 2750.1
1367.82 -416.93 2821.3
1351.17 -409.66 2772.2
1458.69 -411.61 2785.3
1455.13 -408.58 2764.9
1452.88 -405.95 2747.1
1487.79 -413.68 2799.3
1457.96 -403.42 2729.9
1481.70 -406.04 2747.7
1548.65 -422.36 2858.1
1589.96 -431.56 2920.3
1570.60 -424.28 2871.1
1515.20 -407.39 2756.8
1568.62 -413.94 2801.1
1589.73 -417.58 2825.7
1674.74 -433.91 2936.2
1609.54 -404.16 2734.9
1605.23 -401.31 2715.6
1636.89 -400.44 2709.7
1698.99 -405.20 2741.9
1761.70 -406.55 2751.1
1750.68 -402.37 2722.8
1805.14 -403.50 2730.5
1830.27 -401.25 2715.2
1854.05 -404.91 2740.0
1970.17 -411.35 2783.6
1920.38 -399.50 2703.4
1991.39 -405.39 2743.2
2080.86 -422.10 2856.3
2121.67 -419.91 2841.5
2143.69 -422.80 2861.1
2088.31 -399.44 2703.0
-2165.81 -443.88 2951.9
-2217.03 -455.98 3032.4
-2203.67 -454.85 3024.9
-2144.85 -444.29 2954.6
-2118.84 -440.48 2929.3
-2110.33 -440.28 2928.0
-2027.39 -445.41 2962.1
-1913.24 -452.93 3012.1
-1831.79 -435.43 2895.7
-1842.86 -443.51 2949.4
-1814.43 -445.92 2965.5
-1852.66 -457.25 3040.8
-1738.66 -436.55 2903.1
-1734.60 -437.42 2909.0
-1790.26 -465.63 3096.5
-1732.26 -452.57 3009.7
-1704.21 -451.34 3001.6
-1649.50 -438.86 2918.5
-1583.06 -443.56 2949.8
-1594.36 -448.90 2985.3
-1524.47 -437.72 2910.9
-1542.33 -445.05 2959.7
-1434.24 -431.01 2866.3
-1469.33 -443.86 2951.8
-1414.78 -429.62 2857.1
-1448.65 -442.22 2940.9
-1516.17 -465.28 3094.2
-1473.63 -454.63 3023.4
-1399.61 -438.80 2918.1
-1446.75 -456.04 3032.8
-1440.31 -456.49 3035.8
-1397.91 -445.49 2962.6
-1343.19 -430.41 2862.4
-1316.07 -428.83 2851.8
-1390.93 -455.79 3031.1
-1401.68 -461.92 3071.9
-1362.55 -459.47 3055.6
-1378.00 -467.39 3108.3
-1343.66 -458.42 3048.6
-1295.66 -444.66 2957.1
-1246.87 -430.47 2862.7
-1171.46 -444.08 2953.3
-1162.27 -443.50 2949.4
-1101.60 -428.81 2851.7
-1089.46 -426.95 2839.3
-1130.98 -446.24 2967.6
-1136.86 -451.63 3003.4
-1010.78 -437.50 2909.5
-1021.13 -445.31 2961.4
-995.34 -437.34 2908.4
-984.10 -435.71 2897.6
-1019.40 -454.81 3024.6
-978.11 -439.77 2924.6
-902.49 -432.60 2876.9
-921.56 -445.42 2962.1
-893.23 -435.36 2895.2
-917.92 -451.18 3000.5
-886.25 -443.12 2946.9
-886.57 -447.14 2973.6
-899.11 -457.44 3042.1
-877.64 -450.47 2995.8
-825.49 -427.48 2842.9
-826.80 -439.95 2925.8
-775.21 -424.17 2820.8
-801.92 -442.97 2945.8
-822.36 -458.62 3050.0
-795.89 -457.04 3039.5
-741.81 -430.25 2861.3
-766.08 -448.82 2984.7
-756.37 -447.65 2977.0
-717.97 -429.30 2855.0
-695.56 -433.79 2884.8
-678.60 -427.81 2845.1
-682.72 -444.92 2958.8
-702.72 -463.15 3080.1
-688.36 -458.91 3051.9
-671.99 -453.20 3013.9
-607.94 -430.00 2859.6
-613.85 -439.54 2923.1
-627.07 -454.62 3023.4
-619.14 -454.56 3022.9
-581.22 -432.19 2874.1
-581.79 -438.23 2914.4
-592.68 -452.31 3008.0
-575.16 -444.79 2958.0
-565.89 -443.54 2949.6
-577.27 -458.65 3050.2
-571.98 -460.77 3064.2
-533.31 -435.67 2897.3
-527.45 -437.03 2906.4
-537.92 -452.16 3007.0
-522.11 -445.33 2961.5
-491.66 -438.71 2917.5
-494.49 -448.13 2980.2
-470.54 -433.20 2880.9
-468.12 -437.92 2912.3
-456.43 -433.98 2886.1
-446.38 -431.50 2869.6
-439.70 -455.40 3028.5
-421.81 -444.82 2958.2
-411.54 -442.03 2939.6
-406.22 -444.54 2956.3
-407.81 -454.86 3024.9
-381.04 -451.03 2999.4
-349.32 -422.09 2807.0
-353.99 -436.84 2905.1
-354.64 -447.16 2973.7
-327.10 -421.59 2803.7
-306.94 -423.87 2818.8
-305.88 -432.71 2877.6
-299.21 -433.86 2885.3
-288.42 -428.94 2852.5
-281.58 -429.79 2858.2
-278.21 -436.11 2900.2
-277.28 -446.73 2970.8
-248.44 -436.65 2903.9
-235.57 -426.97 2839.4
-234.67 -439.06 2919.9
-221.70 -428.62 2850.4
-204.99 -424.63 2823.9
-209.38 -449.78 2991.1
-204.65 -456.53 3036.1
-190.87 -442.81 2944.8
-178.22 -430.71 2864.3
-166.53 -419.94 2792.7
-137.01 -418.24 2781.4
-132.35 -426.46 2836.1
-126.84 -432.75 2877.9
-123.12 -446.32 2968.1
-117.05 -452.60 3009.9
-87.98 -425.23 2827.9
-82.57 -435.37 2895.3
-73.50 -426.33 2835.2
-51.35 -425.51 2829.7
-21.90 -423.33 2815.3
-14.98 -434.34 2888.5
-7.20 -417.40 2775.8
22.19 -428.98 2852.8
30.12 -436.70 2904.2
36.26 -420.63 2797.3
58.26 -422.36 2808.8
70.01 -451.18 3000.5
73.35 -425.44 2829.3
100.76 -417.43 2776.0
115.32 -445.92 2965.4
124.31 -450.62 2996.8
128.71 -439.14 2920.4
134.75 -434.18 2887.4
139.59 -426.11 2833.7
149.12 -432.44 2875.8
175.65 -442.95 2945.7
174.36 -421.36 2802.1
183.38 -425.45 2829.3
193.01 -430.57 2863.4
206.27 -443.10 2946.7
216.24 -447.92 2978.8
212.20 -424.40 2822.4
215.57 -416.76 2771.6
232.77 -435.50 2896.2
249.88 -452.90 3011.9
257.82 -439.82 2924.9
274.15 -429.74 2857.9
290.02 -442.66 2943.8
297.88 -442.99 2946.0
304.82 -441.99 2939.4
310.27 -438.92 2918.9
312.61 -431.70 2870.9
323.04 -435.72 2897.7
332.03 -437.67 2910.6
331.22 -426.91 2839.0
340.82 -429.73 2857.8
348.25 -429.75 2858.0
357.92 -415.19 2761.1
370.41 -421.25 2801.4
394.19 -439.68 2924.0
413.08 -452.05 3006.3
404.00 -433.93 2885.7
403.52 -425.53 2829.9
422.50 -437.59 2910.1
430.91 -438.46 2915.9
423.89 -423.89 2819.0
427.68 -413.43 2749.4
440.82 -419.14 2787.4
465.30 -435.28 2894.7
490.12 -444.17 2953.8
509.23 -440.83 2931.6
499.78 -426.28 2834.9
493.84 -415.12 2760.6
507.32 -420.35 2795.4
524.54 -428.50 2849.6
552.55 -416.20 2767.9
559.65 -416.15 2767.5
586.40 -419.89 2792.4
626.87 -443.39 2948.7
600.46 -419.60 2790.4
608.01 -419.82 2791.9
637.92 -435.29 2894.8
619.89 -418.06 2780.2
687.28 -438.05 2913.1
683.65 -431.00 2866.2
682.10 -425.40 2829.0
698.17 -430.79 2864.9
733.82 -448.02 2979.4
709.32 -428.55 2850.0
761.80 -437.47 2909.3
745.58 -423.96 2819.4
761.57 -416.71 2771.2
796.56 -431.78 2871.4
775.19 -416.31 2768.5
827.18 -417.19 2774.4
818.97 -409.49 2723.2
861.90 -413.14 2747.5
867.20 -412.27 2741.7
873.66 -411.97 2739.7
882.54 -412.80 2745.2
929.92 -414.89 2759.1
958.32 -424.29 2821.6
953.60 -412.75 2744.9
976.31 -419.45 2789.5
1004.29 -422.09 2807.0
1000.96 -408.84 2718.9
1044.05 -409.16 2721.0
1056.28 -411.17 2734.4
1099.82 -419.67 2790.9
1132.39 -429.27 2854.8
1128.51 -425.02 2826.5
1116.38 -417.74 2778.1
1154.52 -429.25 2854.6
1191.51 -440.18 2927.3
1152.98 -423.25 2814.7
1163.55 -411.50 2736.6
1190.22 -418.38 2782.3
1264.86 -441.94 2939.0
1281.29 -442.35 2941.7
1245.92 -417.71 2777.9
1251.93 -417.31 2775.2
1265.84 -407.88 2712.5
1319.19 -422.73 2811.2
1480.03 -427.07 2840.2
1500.10 -430.72 2864.4
1470.14 -413.92 2752.7
1507.11 -418.24 2781.4
1543.51 -426.30 2835.0
1484.97 -408.19 2714.6
1548.31 -415.75 2764.8
1545.52 -413.09 2747.1
1624.62 -432.24 2874.5
1569.60 -411.93 2739.4
1558.15 -407.08 2707.2
1564.43 -406.89 2705.9
1598.26 -410.17 2727.8
1604.55 -409.97 2726.4
1629.25 -405.56 2697.1
1768.18 -415.20 2761.2
1755.04 -410.45 2729.6
1782.53 -411.90 2739.2
1849.95 -425.78 2831.6
1870.90 -428.90 2852.3
1856.25 -420.56 2796.8
1838.55 -408.57 2717.1
1857.90 -411.29 2735.2
1861.66 -410.56 2730.3
1844.10 -405.14 2694.3
1882.60 -412.04 2740.2
1929.14 -420.64 2797.4
1878.16 -407.99 2713.2
1963.36 -417.12 2774.0
1943.47 -411.39 2735.8
1962.27 -410.87 2732.4
1955.94 -408.07 2713.8
2078.58 -429.03 2853.2
2054.74 -422.61 2810.4
2071.73 -415.78 2765.0
2067.63 -403.78 2685.2
2090.24 -406.82 2705.5
2278.22 -431.82 2871.7
2138.10 -403.94 2686.3
2246.37 -409.71 2724.7
-1819.62 -439.99 2876.5
-1946.94 -472.71 3090.4
-1859.46 -453.34 2963.7
-1850.15 -462.54 3023.8
-1861.94 -467.47 3056.1
-1766.62 -445.43 2912.0
-1659.74 -439.12 2870.8
-1692.69 -449.86 2941.0
-1626.09 -440.09 2877.1
-1535.52 -439.79 2875.1
-1503.32 -439.09 2870.6
-1491.49 -437.80 2862.1
-1529.86 -451.31 2950.5
-1576.95 -467.54 3056.5
-1526.31 -454.81 2973.3
-1474.14 -450.64 2946.1
-1496.25 -459.78 3005.9
-1430.17 -441.78 2888.2
-1453.89 -451.47 2951.5
-1523.55 -475.60 3109.3
-1514.84 -475.40 3108.0
-1450.38 -457.61 2991.6
-1410.47 -452.27 2956.7
-1425.00 -459.43 3003.5
-1384.79 -448.91 2934.8
-1333.93 -434.82 2842.6
-1307.90 -438.44 2866.3
-1291.53 -443.02 2896.3
-1258.34 -434.16 2838.4
-1268.93 -440.39 2879.1
-1261.86 -440.53 2880.0
-1249.63 -438.86 2869.0
-1237.05 -437.04 2857.2
-1212.90 -444.48 2905.8
-1217.84 -449.08 2935.9
-1115.79 -433.10 2831.4
-1071.99 -433.20 2832.1
-1054.58 -432.08 2824.8
-1089.76 -449.62 2939.4
-1048.15 -435.50 2847.1
-1039.25 -434.86 2842.9
-1043.53 -439.77 2875.0
-1033.89 -438.85 2869.0
-1010.61 -432.07 2824.7
-991.02 -433.11 2831.5
-1002.97 -441.60 2887.0
-984.00 -436.51 2853.7
-986.98 -441.15 2884.0
-1004.77 -452.53 2958.4
-982.38 -445.85 2914.8
-934.09 -448.06 2929.2
-904.49 -437.42 2859.6
-913.13 -445.25 2910.8
-932.99 -458.72 2998.9
-907.21 -449.79 2940.5
-862.60 -431.30 2819.6
-865.06 -443.81 2901.4
-893.46 -462.41 3023.0
-887.07 -463.16 3027.9
-884.87 -470.33 3074.8
-839.50 -450.28 2943.7
-797.71 -431.79 2822.8
-790.19 -435.71 2848.5
-796.69 -443.44 2899.0
-826.32 -464.31 3035.5
-825.93 -468.56 3063.2
-785.33 -458.76 2999.1
-734.09 -433.11 2831.5
-754.99 -449.94 2941.5
-759.02 -456.96 2987.4
-731.46 -444.91 2908.6
-725.31 -445.76 2914.2
-720.07 -447.20 2923.6
-709.87 -445.55 2912.8
-718.49 -455.81 2979.9
-714.38 -458.14 2995.1
-695.89 -451.18 2949.6
-672.90 -441.12 2883.9
-691.15 -458.18 2995.3
-684.19 -463.99 3033.4
-642.58 -446.03 2915.9
-609.68 -428.23 2799.6
-623.54 -443.24 2897.7
-616.56 -443.62 2900.2
-605.49 -441.04 2883.3
-599.52 -442.15 2890.6
-572.48 -427.55 2795.1
-568.26 -429.84 2810.1
-599.78 -459.57 3004.4
-547.56 -461.52 3017.2
-546.77 -467.53 3056.5
-504.98 -444.69 2907.1
-497.38 -458.52 2997.6
-493.95 -462.59 3024.2
-486.46 -462.93 3026.4
-468.30 -452.95 2961.2
-444.24 -436.84 2855.8
-436.55 -459.94 3006.9
-414.11 -444.23 2904.2
-399.19 -436.15 2851.3
-388.03 -431.96 2823.9
-391.01 -443.64 2900.3
-362.08 -435.98 2850.2
-352.18 -442.10 2890.2
-334.59 -448.65 2933.1
-321.60 -441.26 2884.8
-309.07 -434.17 2838.4
-295.73 -425.57 2782.1
-295.02 -435.15 2844.8
-289.41 -437.82 2862.3
-294.17 -456.74 2986.0
-279.01 -457.27 2989.4
-262.75 -442.91 2895.6
-262.50 -455.52 2977.9
-245.82 -439.49 2873.2
-222.46 -437.50 2860.2
-221.68 -451.01 2948.5
-215.87 -454.86 2973.7
-200.92 -455.93 2980.6
-181.39 -428.09 2798.6
-174.66 -429.36 2807.0
-169.11 -433.81 2836.0
-160.26 -429.80 2809.8
-154.50 -434.08 2837.8
-148.70 -438.67 2867.8
-142.31 -441.90 2888.9
-133.59 -437.88 2862.6
-124.57 -432.34 2826.4
-116.68 -430.27 2812.9
-96.50 -437.95 2863.1
-90.13 -443.12 2896.9
-81.10 -434.99 2843.8
-73.76 -435.17 2845.0
-64.98 -425.98 2784.9
-58.91 -434.47 2840.4
-52.82 -445.22 2910.7
-44.23 -434.96 2843.6
-36.77 -433.92 2836.8
-29.95 -441.80 2888.3
-23.04 -453.15 2962.5
-15.18 -447.86 2927.9
21.46 -422.00 2758.8
30.33 -447.39 2924.8
37.84 -446.47 2918.8
43.31 -425.89 2784.3
50.20 -423.15 2766.4
72.07 -425.20 2779.7
84.20 -451.62 2952.5
91.02 -447.50 2925.6
93.93 -426.31 2787.0
101.04 -425.82 2783.8
113.47 -446.33 2917.9
123.32 -454.74 2972.9
129.27 -448.65 2933.1
134.28 -440.14 2877.4
138.17 -429.06 2805.0
144.71 -426.89 2790.8
160.04 -449.64 2939.5
179.47 -460.37 3009.7
173.67 -426.95 2791.2
179.41 -423.41 2768.1
189.55 -430.13 2812.0
204.40 -446.65 2920.0
220.62 -433.89 2836.5
227.93 -433.80 2836.0
261.58 -440.96 2882.8
263.02 -431.07 2818.1
281.22 -448.43 2931.6
292.33 -453.88 2967.3
294.88 -446.10 2916.4
301.44 -444.63 2906.8
306.39 -440.90 2882.4
315.92 -443.79 2901.3
333.65 -457.80 2992.9
347.71 -455.88 2980.4
347.60 -445.84 2914.7
344.77 -432.79 2829.4
344.91 -423.96 2771.6
358.34 -431.47 2820.8
376.98 -444.83 2908.1
394.37 -456.23 2982.6
393.91 -446.94 2921.9
386.68 -430.46 2814.1
390.83 -427.01 2791.6
400.44 -429.56 2808.3
402.88 -424.47 2775.0
416.53 -423.71 2770.0
434.61 -434.61 2841.3
441.50 -434.15 2838.2
449.00 -434.28 2839.1
439.23 -417.98 2732.5
480.23 -442.71 2894.2
490.60 -432.02 2824.3
492.56 -427.36 2793.9
496.27 -424.35 2774.2
521.08 -439.19 2871.2
530.22 -434.48 2840.5
525.01 -424.33 2774.0
528.04 -421.01 2752.4
550.40 -427.29 2793.4
570.35 -437.02 2857.0
567.28 -429.10 2805.2
620.05 -446.14 2916.6
633.32 -450.19 2943.2
608.25 -417.29 2728.0
656.34 -445.10 2909.9
653.35 -428.31 2800.1
642.06 -416.28 2721.5
653.34 -418.99 2739.2
671.89 -426.25 2786.6
674.03 -423.06 2765.8
692.16 -429.87 2810.3
702.38 -431.67 2822.0
684.90 -416.59 2723.5
724.67 -436.28 2852.2
769.04 -449.24 2936.9
727.86 -421.02 2752.4
795.67 -419.15 2740.2
824.48 -430.48 2814.3
833.73 -431.49 2820.9
851.77 -436.99 2856.9
877.38 -446.26 2917.4
878.58 -443.05 2896.4
843.49 -421.75 2757.2
865.74 -422.14 2759.7
933.67 -414.19 2707.8
960.74 -423.01 2765.5
985.94 -421.53 2755.7
996.17 -413.90 2705.9
1009.93 -416.68 2724.1
1019.26 -417.62 2730.2
1028.62 -418.54 2736.2
1092.92 -424.23 2773.4
1119.60 -431.74 2822.5
1140.98 -437.13 2857.8
1145.17 -435.90 2849.7
1157.85 -437.91 2862.8
1172.83 -440.75 2881.4
1172.12 -437.69 2861.4
1135.47 -421.34 2754.5
1149.04 -415.91 2719.0
1175.57 -422.92 2764.8
1152.05 -411.95 2693.1
1166.97 -414.77 2711.6
1196.13 -422.58 2762.7
1173.70 -412.19 2694.7
1242.57 -421.33 2754.5
1283.30 -432.66 2828.5
1243.76 -416.94 2725.8
1334.27 -418.73 2737.5
1370.99 -410.60 2684.3
1376.98 -410.31 2682.4
1407.49 -417.30 2728.1
1446.39 -426.69 2789.5
1459.89 -428.53 2801.5
1456.43 -425.39 2781.0
1502.26 -436.62 2854.4
1546.99 -447.41 2925.0
1473.41 -424.05 2772.3
1462.96 -411.02 2687.1
1474.54 -412.31 2695.5
1557.53 -412.08 2694.0
1565.77 -412.41 2696.2
1570.02 -411.69 2691.5
1582.77 -413.20 2701.3
1666.94 -416.74 2724.4
1645.11 -409.54 2677.4
1683.12 -412.05 2693.8
1702.67 -410.03 2680.6
1727.38 -414.29 2708.4
1766.09 -421.86 2757.9
1756.17 -417.80 2731.4
1735.47 -409.57 2677.6
1801.52 -423.46 2768.4
1832.63 -429.07 2805.0
1811.64 -422.48 2762.0
1767.02 -410.45 2683.3
1888.08 -418.79 2737.8
1917.87 -420.65 2750.0
1892.53 -413.55 2703.6
2019.14 -433.20 2832.0
1956.47 -418.23 2734.2
1933.40 -411.81 2692.2
2025.79 -416.45 2722.6
2106.72 -417.10 2726.8
2104.49 -415.27 2714.8
2129.64 -418.83 2738.1
2102.94 -412.21 2694.8
2198.69 -423.93 2771.5
2232.58 -414.22 2708.0
-1896.50 -466.35 2998.0
-1854.20 -459.72 2955.3
-1797.96 -459.05 2951.1
-1795.42 -460.37 2959.5
-1773.37 -456.66 2935.7
-1746.80 -451.76 2904.2
-1700.17 -445.46 2863.7
-1775.84 -467.33 3004.2
-1719.25 -454.43 2921.3
-1656.28 -445.64 2864.8
-1609.71 -445.08 2861.2
-1663.59 -462.11 2970.7
-1494.73 -448.42 2882.7
-1593.72 -480.52 3089.1
-1514.74 -461.34 2965.8
-1429.51 -442.12 2842.2
-1421.82 -442.02 2841.5
-1474.69 -468.16 3009.6
-1491.82 -478.66 3077.1
-1396.28 -450.41 2895.5
-1361.41 -443.94 2853.9
-1370.21 -449.25 2888.0
-1334.06 -439.80 2827.3
-1328.45 -440.37 2830.9
-1332.45 -444.15 2855.2
-1329.67 -445.70 2865.2
-1249.75 -441.09 2835.6
-1239.99 -440.23 2830.1
-1276.37 -458.58 2948.0
-1293.38 -467.49 3005.3
-1235.38 -449.23 2887.9
-1211.20 -443.12 2848.6
-1187.33 -442.48 2844.5
-1190.13 -446.30 2869.1
-1168.66 -441.00 2835.0
-1186.62 -453.48 2915.3
-1183.54 -461.12 2964.3
-1125.79 -441.49 2838.1
-1099.65 -451.91 2905.1
-1095.58 -459.68 2955.1
-1112.74 -470.17 3022.5
-1066.75 -453.93 2918.1
-1031.69 -442.15 2842.4
-1035.21 -446.85 2872.6
-1024.93 -445.62 2864.7
-996.46 -436.41 2805.5
-985.77 -438.12 2816.5
-1000.02 -447.77 2878.5
-985.92 -444.77 2859.3
-985.99 -448.18 2881.2
-956.06 -437.89 2815.0
-971.21 -455.25 2926.6
-941.46 -444.78 2859.3
-956.90 -466.78 3000.7
-943.25 -463.89 2982.2
-913.70 -453.07 2912.6
-895.05 -447.52 2876.9
-866.06 -436.67 2807.2
-869.27 -453.53 2915.6
-886.41 -466.53 2999.1
-892.31 -473.79 3045.8
-880.72 -476.06 3060.4
-816.95 -445.61 2864.6
-810.60 -446.20 2868.5
-826.90 -459.39 2953.2
-818.23 -467.56 3005.7
-738.70 -438.83 2821.1
-769.31 -461.59 2967.3
-747.58 -453.08 2912.6
-713.69 -436.96 2809.0
-702.74 -434.68 2794.4
-711.43 -444.64 2858.4
-740.38 -467.61 3006.1
-723.07 -471.56 3031.5
-707.21 -466.29 2997.6
-689.05 -459.37 2953.1
-672.00 -453.03 2912.3
-645.90 -440.39 2831.1
-635.43 -438.23 2817.2
-647.83 -451.97 2905.5
-638.30 -450.56 2896.5
-627.34 -448.10 2880.6
-646.19 -467.12 3002.9
-643.46 -470.83 3026.7
-604.60 -459.19 2951.9
-581.96 -447.66 2877.8
-572.98 -470.94 3027.5
-567.20 -472.67 3038.6
-548.66 -463.66 2980.7
-532.53 -456.45 2934.3
-540.47 -469.97 3021.3
-526.61 -471.59 3031.7
-500.63 -455.12 2925.8
-478.97 -442.12 2842.2
-478.10 -448.22 2881.4
-481.18 -458.27 2946.0
-480.95 -465.43 2992.1
-436.65 -459.63 2954.8
-402.30 -431.04 2771.0
-397.91 -434.08 2790.5
-400.68 -445.20 2862.0
-404.02 -457.39 2940.3
-392.21 -470.65 3025.6
-367.30 -449.75 2891.3
-351.25 -439.06 2822.5
-357.19 -455.98 2931.3
-339.16 -462.50 2973.2
-330.45 -461.10 2964.2
-321.47 -459.24 2952.3
-304.60 -445.76 2865.6
-301.94 -452.91 2911.6
-292.38 -449.81 2891.7
-293.48 -463.39 2978.9
-258.62 -443.36 2850.2
-237.30 -431.45 2773.6
-230.32 -431.85 2776.2
-225.07 -435.62 2800.4
-230.57 -461.14 2964.5
-208.53 -463.40 2979.0
-183.24 -458.10 2945.0
-172.34 -449.58 2890.2
-158.51 -432.31 2779.1
-153.80 -439.43 2824.9
-148.44 -445.32 2862.8
-140.79 -444.61 2858.2
-130.96 -436.53 2806.2
-123.09 -434.43 2792.7
-116.15 -435.55 2799.9
-100.32 -429.95 2764.0
-59.97 -449.81 2891.6
-54.58 -467.81 3007.3
-46.55 -465.52 2992.7
-36.72 -440.64 2832.7
-21.76 -435.13 2797.3
-14.32 -429.61 2761.7
0.00 -430.38 2766.7
28.94 -434.05 2790.3
37.27 -447.25 2875.2
44.09 -440.93 2834.6
51.67 -442.91 2847.3
57.64 -432.29 2779.0
79.77 -435.13 2797.2
100.82 -432.10 2777.8
110.36 -441.43 2837.8
116.92 -438.47 2818.7
123.09 -434.43 2792.7
127.83 -426.08 2739.1
156.94 -428.01 2751.5
171.16 -446.51 2870.4
180.17 -450.43 2895.6
183.24 -439.78 2827.1
190.74 -440.16 2829.6
192.11 -426.90 2744.4
206.48 -427.20 2746.3
235.55 -441.66 2839.2
260.40 -459.53 2954.2
259.52 -444.89 2860.0
268.25 -447.08 2874.1
280.26 -454.47 2921.6
284.18 -448.70 2884.5
284.13 -437.12 2810.0
288.28 -432.42 2779.8
298.96 -437.50 2812.5
315.05 -450.07 2893.3
326.51 -455.60 2928.8
331.21 -451.65 2903.5
327.76 -437.02 2809.4
345.15 -431.43 2773.5
352.97 -432.21 2778.5
365.53 -438.63 2819.8
365.20 -429.65 2762.0
419.75 -434.22 2791.4
439.38 -446.82 2872.4
445.44 -445.44 2863.5
446.82 -439.49 2825.3
490.56 -459.90 2956.5
483.46 -439.51 2825.4
487.73 -424.11 2726.4
528.93 -440.77 2833.6
537.87 -442.08 2842.0
558.02 -452.45 2908.6
553.97 -443.18 2849.0
557.46 -440.10 2829.2
571.49 -445.32 2862.7
567.07 -436.20 2804.2
563.74 -428.16 2752.4
599.47 -438.64 2819.8
602.34 -425.18 2733.3
631.26 -440.41 2831.2
741.45 -453.95 2918.3
751.97 -446.72 2871.8
750.25 -420.70 2704.5
837.53 -444.71 2858.8
854.85 -446.01 2867.2
841.46 -435.24 2798.0
841.52 -431.55 2774.2
884.38 -438.54 2819.2
889.85 -437.63 2813.3
933.20 -437.44 2812.1
915.61 -425.87 2737.7
942.95 -419.09 2694.1
966.62 -426.45 2741.5
969.97 -424.80 2730.9
972.93 -423.01 2719.4
987.58 -426.29 2740.5
1019.87 -437.09 2809.9
1028.70 -437.74 2814.1
1048.13 -442.87 2847.0
1050.52 -440.78 2833.6
1046.60 -436.08 2803.4
1025.13 -424.19 2727.0
1046.65 -421.47 2709.4
1082.90 -433.16 2784.6
1062.49 -422.18 2714.0
1102.54 -424.05 2726.1
1110.12 -424.25 2727.3
1116.22 -421.22 2707.8
1146.51 -429.94 2763.9
1140.44 -425.01 2732.2
1128.08 -417.81 2685.9
1167.15 -429.63 2761.9
1194.55 -437.03 2809.5
1183.60 -430.40 2766.8
1211.98 -438.07 2816.1
1187.87 -426.78 2743.6
1282.08 -422.66 2717.1
1326.49 -434.91 2795.9
1285.95 -419.33 2695.7
1319.87 -423.49 2722.4
1358.15 -433.45 2786.5
1314.33 -417.25 2682.3
1369.52 -425.76 2737.0
1390.79 -430.14 2765.2
1486.46 -422.69 2717.3
1548.69 -438.31 2817.7
1487.27 -418.95 2693.2
1562.76 -414.89 2667.2
1575.98 -416.56 2677.9
1622.06 -421.31 2708.4
1639.04 -416.71 2678.8
1680.20 -420.05 2700.3
1726.25 -429.77 2762.8
1691.91 -419.48 2696.7
1741.34 -429.96 2764.0
1818.58 -447.19 2874.8
1763.86 -431.97 2776.9
1717.84 -418.98 2693.5
1760.79 -427.72 2749.6
1759.97 -425.80 2737.3
1733.29 -417.66 2685.0
1758.18 -421.96 2712.6
1782.09 -426.00 2738.6
1760.53 -419.17 2694.7
1839.20 -418.00 2687.1
1987.80 -445.03 2860.9
1909.98 -426.02 2738.7
2041.07 -445.32 2862.8
1996.95 -434.12 2790.8
2062.59 -431.20 2772.0
2016.82 -414.41 2664.1
2060.86 -422.02 2713.0
-2159.77 -459.05 2902.6
-2129.47 -454.19 2871.9
-1922.64 -463.56 2931.2
-1963.91 -475.39 3006.0
-1745.36 -453.05 2864.7
-1723.45 -449.28 2840.9
-1706.45 -448.68 2837.1
-1723.44 -459.08 2902.9
-1805.57 -483.07 3054.5
-1755.93 -471.86 2983.6
-1690.03 -456.16 2884.4
-1599.28 -447.51 2829.7
-1701.51 -478.31 3024.4
-1704.71 -481.42 3044.1
-1479.58 -458.14 2896.9
-1434.06 -448.60 2836.6
-1484.22 -466.69 2951.0
-1468.33 -464.08 2934.5
-1452.27 -471.22 2979.6
-1385.53 -451.96 2857.8
-1357.60 -447.64 2830.5
-1406.23 -473.92 2996.7
-1352.94 -458.50 2899.2
-1304.84 -447.16 2827.5
-1272.94 -451.45 2854.6
-1351.77 -482.21 3049.1
-1333.16 -478.37 3024.8
-1271.35 -458.89 2901.6
-1226.67 -445.40 2816.3
-1249.99 -456.58 2887.1
-1269.08 -466.35 2948.8
-1212.78 -448.36 2835.1
-1206.53 -448.77 2837.7
-1201.81 -449.76 2843.9
-1161.85 -445.74 2818.5
-1152.20 -444.84 2812.8
-1203.37 -467.55 2956.4
-1219.82 -483.17 3055.2
-1132.70 -451.60 2855.5
-1097.23 -446.21 2821.5
-1092.27 -447.17 2827.6
-1119.61 -464.60 2937.7
-1058.19 -445.17 2814.9
-1038.88 -446.28 2821.9
-1011.67 -450.45 2848.3
-982.81 -444.08 2808.0
-999.01 -454.78 2875.6
-987.18 -452.77 2862.9
-1022.47 -472.50 2987.7
-1023.14 -476.42 3012.5
-966.19 -460.45 2911.5
-934.62 -448.91 2838.6
-905.43 -441.85 2793.9
-898.27 -452.85 2863.4
-881.50 -448.10 2833.4
-842.86 -443.23 2802.6
-898.33 -476.51 3013.0
-840.75 -462.03 2921.5
-809.53 -457.24 2891.2
-837.18 -477.27 3017.9
-778.23 -456.46 2886.3
-748.79 -443.46 2804.1
-763.21 -456.43 2886.1
-792.76 -478.80 3027.5
-758.36 -467.27 2954.6
-750.18 -466.95 2952.6
-712.70 -472.55 2988.0
-662.07 -448.73 2837.4
-670.19 -459.34 2904.5
-640.60 -444.05 2807.8
-629.53 -441.40 2791.0
-651.67 -462.23 2922.8
-651.88 -467.82 2958.1
-630.67 -457.99 2895.9
-640.33 -470.60 2975.7
-629.24 -468.10 2959.9
-628.19 -473.08 2991.4
-624.16 -475.92 3009.3
-569.00 -444.99 2813.8
-549.99 -447.32 2828.5
-563.20 -464.26 2935.6
-565.72 -479.29 3030.6
-520.90 -447.54 2829.9
-505.50 -440.51 2785.4
-510.34 -451.17 2852.8
-503.67 -451.82 2857.0
-476.11 -440.04 2782.5
-481.24 -451.63 2855.7
-474.36 -452.12 2858.9
-476.37 -461.25 2916.6
-479.03 -471.31 2980.2
-419.58 -449.02 2839.3
-415.63 -452.74 2862.8
-378.48 -471.17 2979.3
-355.99 -452.41 2860.7
-354.30 -459.83 2907.6
-346.51 -459.51 2905.6
-324.43 -439.78 2780.8
-325.48 -451.24 2853.3
-334.81 -474.97 3003.3
-318.37 -473.67 2995.1
-302.53 -461.36 2917.3
-281.33 -440.03 2782.4
-279.71 -449.00 2839.1
-257.54 -448.86 2838.2
-236.87 -437.85 2768.6
-228.11 -434.83 2749.5
-223.00 -438.81 2774.7
-227.11 -461.79 2920.0
-221.51 -465.93 2946.2
-206.19 -449.19 2840.3
-188.28 -459.40 2904.9
-170.80 -453.00 2864.4
-149.34 -433.78 2742.9
-145.36 -443.36 2803.4
-139.04 -446.38 2822.5
-128.93 -436.92 2762.7
-120.91 -433.84 2743.3
-115.81 -441.54 2791.9
-108.05 -439.40 2778.4
-79.46 -440.64 2786.3
-74.44 -454.10 2871.4
-67.42 -456.94 2889.3
-61.10 -465.87 2945.8
-53.59 -466.98 2952.8
-46.27 -470.44 2974.7
-37.09 -452.49 2861.2
-7.15 -435.97 2756.7
0.00 -446.75 2824.9
7.26 -443.00 2801.2
14.24 -434.25 2745.8
21.50 -437.21 2764.6
28.33 -432.05 2731.9
57.29 -436.82 2762.1
63.85 -432.73 2736.3
106.36 -432.53 2735.0
115.98 -442.16 2795.9
125.65 -450.85 2850.8
128.93 -436.92 2762.7
141.89 -432.75 2736.4
154.01 -447.35 2828.7
158.51 -439.49 2779.0
167.16 -443.33 2803.2
180.72 -459.32 2904.4
189.43 -462.21 2922.6
193.92 -454.96 2876.8
191.55 -432.75 2736.4
197.96 -431.27 2727.0
211.29 -444.43 2810.2
217.15 -441.55 2792.0
227.83 -448.31 2834.7
231.37 -441.06 2788.9
244.95 -439.47 2778.8
254.60 -443.72 2805.7
256.48 -434.60 2748.0
260.91 -430.14 2719.9
301.14 -448.04 2833.0
319.52 -464.07 2934.4
334.78 -464.12 2934.7
328.43 -445.21 2815.2
343.06 -435.97 2756.7
353.21 -439.71 2780.4
392.44 -443.31 2803.2
410.31 -455.07 2877.5
408.82 -445.32 2815.8
415.39 -444.54 2810.9
423.84 -445.77 2818.7
418.74 -432.93 2737.5
424.61 -431.69 2729.6
453.12 -438.74 2774.2
466.27 -444.42 2810.1
462.53 -434.06 2744.7
504.42 -445.94 2819.7
533.44 -451.94 2857.7
536.56 -448.36 2835.0
557.25 -459.35 2904.6
549.23 -446.71 2824.6
542.15 -435.15 2751.5
539.54 -427.43 2702.7
560.58 -438.40 2772.1
586.72 -453.04 2864.6
586.23 -447.00 2826.4
591.42 -445.39 2816.3
599.24 -445.78 2818.7
615.38 -452.27 2859.8
641.61 -465.93 2946.2
628.27 -450.88 2851.0
665.22 -461.12 2915.7
678.63 -465.13 2941.1
640.73 -434.27 2746.0
638.64 -428.10 2706.9
675.12 -428.98 2712.5
696.21 -437.82 2768.4
698.34 -434.68 2748.6
695.70 -428.66 2710.5
722.88 -440.96 2788.3
745.94 -450.52 2848.7
755.26 -430.57 2722.6
756.49 -427.28 2701.7
828.33 -447.15 2827.4
864.71 -458.67 2900.3
814.67 -428.41 2708.9
861.27 -434.20 2745.5
892.21 -446.11 2820.8
934.73 -445.46 2816.7
927.83 -438.74 2774.2
907.46 -425.81 2692.5
929.00 -432.59 2735.3
936.33 -432.70 2736.0
982.54 -431.19 2726.5
1001.63 -436.42 2759.6
998.45 -431.95 2731.3
1038.20 -445.99 2820.1
1064.59 -454.13 2871.5
1022.02 -432.94 2737.5
1075.92 -446.47 2823.1
1083.39 -446.53 2823.5
1088.71 -445.71 2818.3
1110.50 -451.60 2855.6
1067.17 -431.11 2726.0
1053.72 -422.88 2673.9
1092.74 -430.05 2719.3
1144.88 -439.23 2777.3
1166.21 -444.62 2811.4
1147.29 -434.69 2748.6
1129.78 -422.80 2673.4
1216.21 -452.37 2860.4
1235.05 -453.84 2869.7
1227.75 -423.12 2675.5
1327.65 -454.98 2876.9
1339.23 -456.39 2885.8
1339.55 -453.96 2870.5
1359.39 -455.62 2881.0
1275.13 -425.04 2687.6
1277.00 -423.35 2676.9
1339.17 -432.22 2733.0
1355.89 -433.03 2738.1
1417.64 -450.40 2847.9
1455.04 -459.88 2907.9
1408.99 -438.51 2772.8
1544.95 -446.64 2824.2
1569.69 -451.66 2855.9
1469.10 -420.73 2660.3
1503.26 -420.64 2659.8
1585.37 -433.67 2742.1
1580.69 -422.90 2674.1
1623.79 -432.54 2735.0
1611.29 -427.34 2702.2
1622.09 -428.34 2708.5
1650.78 -434.04 2744.5
1632.97 -427.52 2703.3
1633.40 -422.19 2669.6
1644.68 -423.32 2676.7
1731.16 -432.79 2736.6
1773.12 -437.90 2768.9
1719.80 -423.02 2674.8
1743.23 -421.97 2668.2
1809.00 -436.16 2757.9
1781.31 -427.80 2705.0
1793.82 -425.77 2692.2
1874.75 -443.26 2802.8
1890.86 -445.34 2815.9
1852.40 -423.21 2676.0
1968.02 -447.95 2832.4
1887.25 -423.24 2676.3
1903.95 -425.42 2690.0
1986.59 -420.77 2660.6
2020.53 -425.01 2687.4
2133.16 -447.16 2827.5
2056.43 -429.60 2716.4
-2154.47 -465.43 2895.5
-2106.38 -458.23 2850.7
-1899.03 -456.36 2839.1
-1778.87 -455.74 2835.3
-1773.03 -456.13 2837.7
-1762.16 -459.05 2855.8
-1840.78 -481.55 2995.8
-1863.01 -489.44 3044.9
-1827.84 -482.24 3000.1
-1747.61 -463.04 2880.7
-1709.83 -454.98 2830.5
-1717.68 -459.04 2855.8
-1698.65 -459.90 2861.1
-1695.14 -460.96 2867.7
-1669.49 -455.98 2836.8
-1615.49 -453.21 2819.5
-1625.15 -458.00 2849.3
-1649.36 -466.94 2904.9
-1668.96 -474.66 2952.9
-1653.89 -472.54 2939.8
-1529.61 -458.14 2850.2
-1560.68 -469.72 2922.2
-1527.33 -461.92 2873.7
-1533.05 -465.93 2898.6
-1445.33 -454.88 2829.9
-1464.62 -468.07 2912.0
-1454.57 -467.27 2907.0
-1387.33 -452.71 2816.4
-1460.28 -486.76 3028.2
-1386.68 -464.73 2891.1
-1389.37 -475.92 2960.8
-1331.99 -458.80 2854.3
-1290.72 -449.58 2796.9
-1293.47 -466.25 2900.6
-1318.84 -478.17 2974.8
-1250.11 -455.92 2836.4
-1253.05 -459.70 2859.9
-1271.68 -469.31 2919.7
-1273.54 -472.81 2941.5
-1277.64 -477.19 2968.7
-1202.64 -451.90 2811.4
-1215.65 -462.39 2876.6
-1191.66 -456.07 2837.3
-1172.04 -451.35 2807.9
-1196.51 -463.65 2884.4
-1191.98 -464.80 2891.6
-1167.17 -458.00 2849.3
-1130.71 -449.38 2795.7
-1202.63 -481.05 2992.7
-1195.55 -481.33 2994.4
-1093.12 -448.83 2792.3
-1158.14 -478.70 2978.1
-1153.54 -480.00 2986.2
-1115.24 -467.20 2906.5
-1071.31 -451.85 2811.0
-1061.08 -456.85 2842.2
-1053.21 -456.64 2840.8
-999.22 -448.93 2792.9
-1019.91 -461.57 2871.5
-984.67 -448.89 2792.7
-980.48 -460.53 2865.1
-1020.86 -483.16 3005.8
-951.02 -453.56 2821.7
-853.85 -448.63 2791.0
-867.60 -463.72 2884.9
-898.00 -484.14 3011.9
-887.16 -482.49 3001.7
-873.04 -479.01 2980.0
-843.85 -467.13 2906.1
-798.07 -445.77 2773.2
-789.00 -461.49 2871.0
-805.20 -480.02 2986.3
-782.16 -470.81 2929.0
-784.45 -481.54 2995.8
-740.22 -458.93 2855.1
-727.86 -455.83 2835.8
-751.84 -475.66 2959.2
-705.56 -475.48 2958.1
-647.22 -445.86 2773.8
-679.70 -473.50 2945.7
-673.76 -474.69 2953.1
-657.77 -468.75 2916.2
-630.44 -476.67 2965.5
-603.58 -462.00 2874.2
-580.78 -450.11 2800.2
-566.48 -444.58 2765.8
-564.86 -460.81 2866.8
-560.75 -469.82 2922.8
-568.68 -482.99 3004.8
-518.19 -446.22 2776.0
-521.77 -455.63 2834.6
-535.36 -481.04 2992.7
-511.71 -466.56 2902.5
-489.69 -453.15 2819.1
-495.75 -465.70 2897.2
-499.44 -476.39 2963.7
-486.78 -471.57 2933.7
-480.17 -472.54 2939.8
-475.24 -475.24 2956.6
-475.47 -483.27 3006.5
-456.65 -479.87 2985.4
-428.52 -458.08 2849.8
-417.25 -453.85 2823.5
-398.33 -474.94 2954.7
-385.37 -468.49 2914.5
-375.97 -475.72 2959.5
-353.05 -456.02 2837.0
-352.01 -464.35 2888.8
-346.26 -466.70 2903.4
-322.47 -444.29 2764.0
-323.45 -455.77 2835.4
-329.21 -474.67 2953.0
-317.36 -468.49 2914.6
-293.40 -443.68 2760.2
-277.95 -453.50 2821.3
-272.40 -456.45 2839.7
-247.36 -451.08 2806.2
-234.59 -440.74 2741.9
-218.61 -467.37 2907.6
-214.68 -475.37 2957.4
-198.02 -454.71 2828.9
-192.25 -458.43 2852.0
-190.82 -473.24 2944.1
-181.56 -469.04 2918.0
-166.62 -449.15 2794.2
-143.72 -445.53 2771.7
-134.95 -440.36 2739.6
-114.58 -444.00 2762.2
-107.43 -444.04 2762.5
-90.17 -465.89 2898.4
-84.52 -476.40 2963.8
-73.52 -455.81 2835.7
-66.81 -460.28 2863.5
-60.70 -470.46 2926.8
-52.89 -468.42 2914.1
-45.33 -468.44 2914.2
-35.99 -446.24 2776.1
-7.27 -451.03 2806.0
0.00 -469.76 2922.5
7.36 -456.59 2840.5
14.13 -438.17 2726.0
21.39 -441.98 2749.6
28.22 -437.36 2720.9
56.73 -439.68 2735.3
101.35 -448.84 2792.3
109.16 -451.18 2806.9
117.08 -453.67 2822.4
129.81 -473.44 2945.4
135.96 -468.31 2913.5
139.85 -456.37 2839.2
151.18 -468.67 2915.7
161.41 -476.53 2964.6
163.50 -460.78 2866.6
168.56 -454.38 2826.8
179.17 -462.86 2879.5
189.67 -470.39 2926.4
195.63 -466.51 2902.2
200.85 -461.20 2869.2
230.92 -477.24 2969.0
221.09 -442.19 2750.9
250.39 -443.55 2759.4
257.39 -443.29 2757.8
265.04 -444.13 2763.0
274.27 -447.50 2784.0
293.19 -443.36 2758.3
306.57 -452.55 2815.4
330.08 -475.93 2960.9
355.47 -468.92 2917.2
360.85 -466.10 2899.7
368.13 -465.80 2897.8
361.68 -448.49 2790.1
369.83 -440.96 2743.3
376.01 -439.86 2736.5
387.22 -444.59 2765.9
413.21 -465.80 2897.9
419.16 -464.07 2887.1
422.59 -459.66 2859.6
426.32 -455.72 2835.1
428.73 -450.53 2802.8
442.66 -457.42 2845.7
439.22 -446.42 2777.3
435.43 -435.43 2708.9
454.06 -446.85 2779.9
460.92 -446.51 2777.8
454.14 -433.18 2694.9
471.61 -436.41 2715.0
491.47 -448.11 2787.8
514.66 -462.45 2877.0
563.35 -465.70 2897.2
558.94 -455.98 2836.7
539.33 -434.27 2701.7
564.30 -442.86 2755.1
570.35 -442.02 2749.9
579.22 -443.35 2758.2
597.37 -451.67 2809.9
591.45 -441.81 2748.6
593.43 -438.01 2724.9
611.02 -445.69 2772.7
605.84 -436.77 2717.2
625.19 -440.47 2740.3
670.15 -466.85 2904.3
666.75 -459.32 2857.5
682.18 -464.78 2891.5
684.24 -461.12 2868.7
661.84 -431.94 2687.2
687.27 -443.86 2761.3
695.70 -444.68 2766.4
686.39 -434.25 2701.5
720.38 -446.63 2778.6
756.17 -464.18 2887.8
728.06 -442.55 2753.2
729.36 -430.67 2679.3
769.36 -450.00 2799.5
762.11 -441.60 2747.3
785.01 -446.52 2777.9
818.52 -461.35 2870.1
822.74 -451.42 2808.4
833.16 -445.31 2770.4
836.25 -432.06 2688.0
846.76 -433.88 2699.2
858.30 -432.64 2691.5
909.41 -454.71 2828.8
936.18 -464.35 2888.8
920.25 -452.82 2817.1
919.02 -431.66 2685.5
983.90 -442.04 2750.0
1008.18 -437.11 2719.4
1065.62 -452.52 2815.2
1100.19 -464.03 2886.8
1055.02 -441.97 2749.6
1110.28 -452.88 2817.4
1102.03 -446.58 2778.2
1091.03 -439.25 2732.6
1111.91 -444.76 2767.0
1102.31 -432.55 2691.0
1152.02 -449.22 2794.7
1131.70 -438.53 2728.2
1135.08 -437.11 2719.4
1124.25 -430.27 2676.8
1148.94 -431.72 2685.8
1178.05 -434.76 2704.7
