ply
format ascii 1.0
element vertex 2251
property float x
property float y
property float z
end_header
-898.49 317.65 3500.6
-794.49 319.62 3522.4
-786.66 320.15 3528.2
-693.57 311.22 3429.8
-672.06 313.63 3456.3
-681.81 322.48 3553.8
-498.71 311.70 3435.0
-482.13 318.39 3508.7
-411.26 312.92 3448.5
-280.29 316.46 3487.5
-224.62 314.46 3465.5
-215.30 313.97 3460.1
-88.97 311.40 3431.8
-72.34 316.50 3487.9
-62.54 312.72 3446.3
-26.62 310.59 3422.8
100.47 319.69 3523.1
107.25 312.80 3447.2
177.20 310.10 3417.4
363.57 318.13 3505.9
363.40 310.22 3418.8
456.83 319.78 3524.2
453.02 310.90 3426.2
478.65 322.17 3550.4
485.92 320.89 3536.4
522.51 315.31 3474.8
561.14 311.74 3435.5
583.67 319.19 3517.6
575.33 309.79 3414.0
626.42 308.80 3403.1
680.62 317.62 3500.3
754.79 310.79 3425.1
758.91 308.86 3403.8
827.01 311.24 3430.0
825.74 307.46 3388.3
921.38 313.09 3450.4
948.40 319.17 3517.4
952.19 317.40 3497.8
946.64 312.57 3444.6
941.62 308.01 3394.4
1440.78 307.48 3388.6
1447.44 307.03 3383.6
-1614.95 315.56 3579.9
-1281.84 306.92 3481.9
-764.28 302.16 3427.9
-682.53 313.59 3557.6
-670.47 312.27 3542.6
-642.95 303.62 3444.4
-629.80 301.60 3421.5
-625.84 303.98 3448.5
-592.63 305.29 3463.4
-579.59 303.17 3439.4
-562.71 303.68 3445.2
-533.95 302.57 3432.6
-522.70 301.22 3417.2
-501.12 304.25 3451.6
-503.32 311.14 3529.7
-496.00 312.30 3542.8
-477.08 306.05 3472.0
-444.77 302.44 3431.1
-280.67 307.83 3492.2
-265.57 300.98 3414.5
-194.45 300.52 3409.3
-190.84 308.98 3505.2
-124.66 302.74 3434.4
-116.80 305.49 3465.6
-107.70 305.16 3461.9
-97.60 301.67 3422.3
0.00 303.38 3441.7
8.93 303.64 3444.6
100.81 311.59 3534.9
108.39 307.09 3483.8
264.34 299.58 3398.6
345.14 300.89 3413.4
367.35 312.25 3542.3
374.23 310.33 3520.6
389.06 307.63 3489.9
502.45 299.71 3400.0
520.26 304.98 3459.8
541.08 311.81 3537.3
542.17 302.19 3428.3
554.64 304.15 3450.5
574.75 310.18 3518.9
578.09 307.11 3484.0
594.16 310.79 3525.8
584.90 301.31 3418.3
626.02 299.78 3400.9
668.82 307.30 3486.1
696.87 299.92 3402.4
842.82 311.48 3533.5
903.03 301.01 3414.8
903.07 298.10 3381.8
975.51 298.80 3389.8
1827.83 295.93 3357.2
-755.12 300.23 3509.1
-737.09 296.63 3467.1
-623.84 294.10 3437.5
-600.15 300.08 3507.4
-581.05 294.99 3448.0
-553.19 299.27 3497.9
-537.29 295.51 3454.0
-486.02 297.01 3471.6
-487.50 303.54 3547.8
-330.84 303.27 3544.7
-309.10 300.01 3506.6
-282.73 300.97 3517.8
-268.80 295.68 3456.0
-123.78 291.77 3410.3
-115.22 292.48 3418.6
-44.81 295.77 3457.1
0.00 296.99 3471.3
9.03 297.84 3481.3
17.66 291.36 3405.5
88.42 291.78 3410.4
99.30 297.89 3481.9
107.20 294.80 3445.8
158.43 290.45 3394.9
258.47 294.12 3437.8
264.08 290.49 3395.4
407.94 299.15 3496.6
404.96 290.51 3395.6
469.86 292.56 3419.5
493.64 290.89 3400.1
516.54 299.05 3495.4
523.19 297.67 3479.3
532.76 297.98 3482.9
546.32 300.48 3512.1
544.94 294.80 3445.7
655.82 292.46 3418.4
766.11 290.60 3396.6
811.09 290.93 3400.5
876.20 298.09 3484.2
905.51 292.96 3424.2
1014.41 293.64 3432.2
1447.19 291.20 3403.7
1460.15 292.03 3413.3
1601.64 287.25 3357.5
1673.31 287.60 3361.6
1739.19 297.37 3475.8
1827.58 288.57 3372.8
-1691.13 286.33 3451.3
-1681.71 286.25 3450.3
-1661.99 285.93 3446.5
-1670.68 288.98 3483.3
-1638.42 284.94 3434.6
-787.72 283.22 3413.9
-752.91 283.45 3416.6
-772.02 294.10 3545.0
-730.19 284.95 3434.7
-716.75 283.16 3413.1
-733.56 293.43 3536.8
-707.26 290.16 3497.4
-611.47 283.58 3418.2
-607.55 285.91 3446.2
-602.46 287.74 3468.3
-598.77 290.31 3499.3
-468.74 283.01 3411.3
-423.25 288.17 3473.5
-422.63 294.00 3543.8
-376.62 286.95 3458.7
-367.65 286.94 3458.7
-367.51 294.01 3543.9
-358.62 294.25 3546.8
-341.01 287.17 3461.4
-326.51 282.38 3403.7
-323.04 287.14 3461.1
-316.66 289.52 3489.7
-275.13 284.00 3423.2
-264.37 282.00 3399.1
-53.12 283.31 3414.9
-36.35 290.77 3504.8
87.87 281.18 3389.2
98.86 287.61 3466.7
106.26 283.37 3415.6
144.07 288.14 3473.1
151.78 285.71 3443.8
158.56 281.88 3397.6
168.37 283.58 3418.1
176.54 282.47 3404.7
248.65 284.17 3425.3
260.02 286.92 3458.4
394.28 280.38 3379.5
417.56 290.47 3501.2
423.85 288.58 3478.4
486.13 288.07 3472.3
518.69 291.20 3510.0
543.07 289.64 3491.2
550.66 288.87 3481.9
555.82 286.88 3457.9
650.89 281.47 3392.7
657.85 280.68 3383.2
664.37 279.73 3371.8
713.36 288.96 3483.0
727.17 280.36 3379.3
743.26 279.81 3372.8
785.43 292.25 3522.7
790.39 287.41 3464.4
844.76 281.59 3394.1
1440.02 279.28 3366.3
1718.29 279.11 3364.3
1806.91 277.99 3350.7
1833.59 280.74 3383.9
-1476.76 277.45 3452.2
-1439.38 277.15 3448.4
-1360.10 275.58 3428.8
-882.23 273.49 3402.9
-799.76 278.57 3466.0
-799.64 281.69 3504.9
-787.26 280.52 3490.3
-773.00 278.64 3467.0
-768.29 280.20 3486.4
-754.15 278.32 3462.9
-698.71 274.18 3411.4
-695.94 276.59 3441.5
-691.46 278.38 3463.7
-669.32 273.01 3396.9
-614.93 276.27 3437.5
-607.50 276.95 3445.9
-598.32 276.83 3444.5
-585.61 275.06 3422.4
-551.67 275.83 3432.0
-521.28 283.50 3527.4
-497.87 280.62 3491.5
-478.07 274.45 3414.8
-407.02 274.30 3412.9
-353.81 274.20 3411.8
-345.46 274.59 3416.6
-317.73 273.60 3404.3
-308.80 273.51 3403.1
-196.57 276.98 3446.3
-187.66 277.02 3446.8
-176.68 273.86 3407.4
0.00 272.94 3396.0
9.06 280.87 3494.7
17.53 271.74 3381.1
71.12 275.61 3429.2
80.48 277.19 3448.9
88.87 275.49 3427.8
97.83 275.71 3430.5
105.51 272.57 3391.4
245.09 271.35 3376.3
297.94 271.65 3380.0
405.80 279.55 3478.3
411.62 277.40 3451.5
521.92 278.96 3470.9
536.14 281.70 3505.1
533.37 275.58 3428.8
536.13 272.46 3390.1
544.23 272.11 3385.8
569.53 271.62 3379.6
584.93 274.74 3418.5
640.31 271.91 3383.2
664.17 278.23 3461.9
667.88 276.06 3434.8
819.35 270.21 3362.1
847.12 276.43 3439.4
846.38 273.31 3400.6
858.81 274.46 3415.0
872.78 276.08 3435.1
1103.47 271.49 3378.0
1136.59 271.03 3372.3
1187.83 272.76 3393.8
1224.51 279.12 3472.9
1526.00 275.03 3422.1
1502.38 269.21 3349.6
1524.37 271.58 3379.1
1805.28 275.68 3430.2
1792.65 272.41 3389.5
1801.99 268.57 3341.6
2154.35 275.97 3433.7
2099.58 267.85 3332.7
-1458.84 271.83 3495.0
-1415.95 265.49 3413.4
-1320.44 265.86 3418.2
-1136.50 270.60 3479.1
-1054.61 272.74 3506.7
-1028.88 268.40 3450.9
-803.00 267.67 3441.4
-789.37 266.08 3421.0
-695.04 263.94 3393.5
-692.32 266.28 3423.6
-641.29 267.20 3435.5
-610.84 265.58 3414.6
-610.22 269.21 3461.3
-560.45 266.88 3431.3
-551.62 266.91 3431.7
-549.32 270.16 3473.5
-542.68 271.34 3488.6
-519.22 264.01 3394.4
-503.16 264.82 3404.8
-486.14 265.17 3409.3
-486.46 270.26 3474.7
-478.30 270.73 3480.9
-461.98 266.52 3426.7
-447.62 263.31 3385.4
-446.81 268.09 3446.8
-379.23 264.58 3401.7
-309.04 264.89 3405.8
8.87 266.21 3422.7
78.75 262.49 3374.9
97.09 264.78 3404.3
131.07 262.13 3370.3
158.95 264.91 3406.0
288.03 261.84 3366.6
303.26 267.58 3440.3
307.33 263.43 3386.9
396.52 270.36 3476.0
427.09 261.48 3361.9
447.07 268.24 3448.8
446.32 262.54 3375.5
478.03 265.57 3414.5
509.57 263.57 3388.8
572.95 264.44 3399.9
576.64 262.11 3370.0
619.95 265.69 3416.0
642.84 264.18 3396.6
670.29 268.12 3447.2
827.97 261.46 3361.7
897.63 264.01 3394.4
1073.96 264.09 3395.4
1081.05 263.67 3390.0
1130.43 260.87 3354.0
1167.76 261.44 3361.3
1197.87 264.24 3397.3
1484.04 261.89 3367.2
1504.32 262.38 3373.5
1652.63 260.94 3355.0
-1583.68 259.47 3451.1
-1538.90 260.98 3471.2
-1295.95 255.66 3400.4
-1199.74 255.83 3402.6
-1146.72 261.85 3482.7
-1140.11 262.41 3490.1
-807.03 257.19 3420.7
-799.75 257.70 3427.5
-727.62 260.51 3464.9
-722.65 261.96 3484.2
-702.38 257.83 3429.3
-630.80 265.12 3526.2
-613.63 261.69 3480.6
-567.42 257.11 3419.7
-491.45 259.13 3446.5
-488.21 262.19 3487.2
-478.26 261.69 3480.6
-438.35 259.43 3450.6
-371.34 256.40 3410.3
-370.61 262.14 3486.6
-353.03 255.94 3404.2
-309.19 256.19 3407.4
-281.61 263.44 3503.8
-264.53 255.72 3401.2
-236.06 253.54 3372.3
-228.83 255.23 3394.7
-220.65 255.95 3404.3
-167.89 256.25 3408.3
-159.16 256.43 3410.7
-149.51 255.04 3392.1
-140.56 254.77 3388.5
-134.08 259.21 3447.7
-126.89 262.84 3495.8
-114.34 255.07 3392.5
-99.66 262.75 3494.7
-90.14 261.42 3477.0
78.90 254.24 3381.5
89.89 260.67 3467.1
149.15 254.44 3384.2
159.77 257.41 3423.6
296.31 252.74 3361.5
305.23 252.90 3363.7
400.41 258.04 3432.1
403.16 254.17 3380.6
445.49 258.38 3436.6
461.18 262.24 3487.9
465.26 259.47 3451.1
478.50 252.30 3355.7
520.05 260.03 3458.5
538.80 260.42 3463.7
568.75 253.75 3375.0
581.29 255.42 3397.2
595.79 254.09 3379.5
640.13 257.83 3429.3
653.29 252.60 3359.8
779.59 262.89 3496.5
785.30 258.79 3442.1
959.35 255.24 3394.8
965.04 254.42 3383.9
1066.49 262.10 3486.1
1064.83 253.11 3366.6
1194.15 258.44 3437.3
1216.26 261.27 3475.0
1209.03 257.81 3429.0
1354.00 251.70 3347.8
1439.20 252.95 3364.4
1720.13 250.67 3334.1
-1474.02 248.63 3425.0
-1476.32 250.53 3451.1
-1444.14 246.56 3396.5
-1432.86 250.75 3454.2
-1413.03 248.84 3427.8
-806.03 248.01 3416.5
-794.68 247.23 3405.8
-723.08 246.90 3401.2
-733.29 253.48 3491.8
-726.43 254.25 3502.4
-699.90 248.07 3417.3
-678.73 253.39 3490.6
-675.45 255.58 3520.7
-622.68 249.07 3431.1
-572.01 246.40 3394.3
-569.32 249.08 3431.2
-534.14 249.27 3433.8
-498.83 245.04 3375.6
-487.03 247.94 3415.6
-479.04 248.39 3421.7
-455.12 249.87 3442.1
-446.34 249.95 3443.2
-428.51 244.86 3373.1
-371.19 247.46 3408.9
-364.67 249.04 3430.7
-325.91 246.63 3397.5
-327.28 254.55 3506.6
-319.89 255.91 3525.3
-302.50 249.12 3431.7
-268.84 250.92 3456.5
-238.54 247.37 3407.7
-236.92 255.15 3514.8
-225.59 252.66 3480.6
-168.46 248.26 3419.9
-162.31 252.48 3478.1
-152.12 250.56 3451.6
-142.49 249.36 3435.0
-135.77 253.43 3491.2
-116.01 249.86 3442.0
-106.66 248.87 3428.3
-99.20 252.51 3478.4
-87.89 246.08 3389.9
-52.56 245.27 3378.7
62.76 251.05 3458.3
80.55 250.59 3452.0
174.00 243.60 3355.7
312.04 249.64 3438.9
322.55 250.87 3455.9
392.72 249.91 3442.7
397.48 247.32 3407.0
435.19 243.70 3357.2
460.61 252.88 3483.6
474.68 250.77 3454.5
492.52 250.74 3454.1
524.60 253.25 3488.7
535.20 245.66 3384.1
553.88 250.14 3445.8
550.37 244.61 3369.6
580.46 250.04 3444.5
584.15 244.12 3362.9
601.94 244.26 3364.9
613.59 245.44 3381.0
640.67 252.66 3480.5
670.38 253.66 3494.2
710.83 248.79 3427.2
728.57 245.78 3385.8
737.81 243.04 3348.1
774.09 252.03 3471.8
787.05 253.30 3489.4
782.67 243.50 3354.3
805.57 247.87 3414.5
808.86 246.18 3391.2
809.46 243.71 3357.2
985.39 242.02 3334.0
1069.64 251.68 3467.0
1039.61 242.58 3341.6
1152.24 242.58 3341.6
1208.76 252.58 3479.4
1191.75 247.18 3405.0
1226.43 245.29 3379.0
1237.59 245.76 3385.5
1226.72 241.89 3332.1
1445.32 245.27 3378.7
1560.46 244.09 3362.5
1584.93 246.55 3396.3
1693.51 240.70 3315.8
1768.23 250.05 3444.6
1763.39 248.12 3417.9
1774.29 241.17 3322.2
1778.62 240.59 3314.2
-1462.81 237.93 3398.9
-1456.53 238.34 3404.9
-1444.76 237.86 3398.0
-1372.77 237.59 3394.2
-1148.82 240.45 3435.0
-887.60 237.28 3389.7
-780.61 236.81 3383.0
-704.27 237.69 3395.6
-658.47 240.25 3432.2
-662.12 244.89 3498.5
-639.81 239.93 3427.6
-633.20 240.80 3439.9
-617.80 238.29 3404.2
-607.84 237.85 3397.9
-611.74 246.52 3521.8
-555.29 237.98 3399.7
-543.53 236.70 3381.4
-553.06 244.80 3497.1
-538.36 246.37 3519.6
-451.80 239.19 3417.0
-442.96 239.20 3417.1
-396.98 238.19 3402.7
-341.71 236.57 3379.5
-321.68 241.26 3446.6
-317.69 245.08 3501.1
-275.16 239.65 3423.6
-268.66 241.79 3454.1
-255.04 237.45 3392.1
-231.06 239.95 3427.9
-219.37 236.92 3384.6
-215.22 242.12 3458.9
-209.25 245.64 3509.2
-123.68 238.52 3407.4
-113.24 235.19 3359.9
-95.75 235.02 3357.4
-87.54 236.36 3376.6
-79.40 238.19 3402.7
-52.52 236.34 3376.3
-43.55 235.16 3359.5
-26.09 234.83 3354.7
-17.85 240.98 3442.5
-8.98 242.38 3462.5
0.00 242.59 3465.5
8.78 237.07 3386.7
69.75 235.41 3363.0
174.13 235.08 3358.3
234.40 234.40 3348.6
243.47 234.78 3354.0
295.98 235.05 3357.8
316.97 244.52 3493.1
326.51 244.88 3498.3
382.65 240.27 3432.4
407.03 244.22 3488.9
405.44 237.98 3399.6
411.83 236.59 3379.8
417.51 234.85 3355.0
445.78 236.00 3371.5
453.57 235.51 3364.4
496.27 243.63 3480.4
524.54 244.18 3488.3
526.14 240.78 3439.7
547.65 238.49 3407.0
562.85 241.22 3446.0
564.65 234.55 3350.7
591.60 242.02 3457.4
623.99 237.29 3389.9
650.61 243.98 3485.4
656.18 242.70 3467.1
658.28 240.18 3431.2
718.45 239.48 3421.2
745.28 242.44 3463.4
773.88 234.77 3353.9
780.99 234.30 3347.1
798.12 234.23 3346.2
814.28 236.40 3377.2
821.60 235.99 3371.3
1109.35 235.85 3369.2
1161.80 234.09 3344.2
1223.47 232.63 3323.3
1232.44 232.70 3324.3
1254.24 233.55 3336.4
-1792.63 231.88 3440.0
-783.20 228.80 3394.3
-795.93 235.16 3488.6
-769.76 230.04 3412.7
-754.81 228.20 3385.4
-747.09 228.52 3390.1
-738.70 228.64 3392.0
-657.07 230.86 3424.9
-665.76 237.12 3517.7
-645.96 233.26 3460.5
-624.64 228.74 3393.4
-592.55 229.95 3411.3
-568.54 230.97 3426.5
-557.96 230.27 3416.1
-521.25 229.71 3407.7
-506.53 227.07 3368.6
-421.28 228.19 3385.3
-392.19 226.60 3361.6
-372.52 230.60 3421.1
-349.40 232.93 3455.6
-335.15 229.31 3401.8
-274.25 230.01 3412.3
-266.30 230.80 3423.9
-257.10 230.51 3419.6
-244.75 227.26 3371.5
-201.15 227.39 3373.4
-174.84 227.29 3371.8
-52.08 225.68 3348.0
-43.79 227.71 3378.1
-34.85 226.50 3360.2
-26.21 227.11 3369.3
-17.53 227.92 3381.3
43.51 226.23 3356.1
233.82 225.16 3340.3
298.05 227.92 3381.2
310.53 230.68 3422.2
311.82 225.20 3340.9
360.90 228.86 3395.2
374.24 231.67 3436.9
379.51 229.47 3404.2
380.53 224.86 3335.8
399.13 230.61 3421.1
414.02 234.01 3471.6
412.03 227.93 3381.4
435.98 226.71 3363.3
475.34 228.87 3395.3
481.85 227.78 3379.2
506.98 227.27 3371.5
524.88 231.30 3431.4
523.14 226.69 3363.0
538.56 225.85 3350.5
548.95 226.55 3360.9
642.79 225.84 3350.4
682.14 227.38 3373.2
712.74 225.99 3352.6
730.29 228.77 3393.8
729.35 225.75 3349.1
897.79 233.43 3462.9
878.90 226.25 3356.5
1244.39 224.68 3333.2
1849.09 224.66 3332.8
-1687.24 223.18 3443.4
-1054.06 223.32 3445.5
-653.99 220.94 3408.8
-635.80 217.74 3359.4
-627.39 217.84 3361.0
-618.24 217.69 3358.6
-576.31 225.12 3473.3
-559.18 221.90 3423.5
-538.97 217.32 3353.0
-532.67 218.31 3368.2
-525.37 218.90 3377.4
-527.23 223.40 3446.8
-520.86 224.51 3463.9
-508.72 223.12 3442.5
-502.27 224.23 3459.5
-478.41 217.46 3355.1
-473.76 219.33 3384.0
-466.10 219.86 3392.1
-409.56 217.85 3361.1
-384.44 223.51 3448.4
-367.60 224.15 3458.3
-334.22 219.88 3392.5
-333.32 225.22 3474.8
-275.65 222.30 3429.8
-265.34 221.12 3411.6
-254.15 219.10 3380.4
-244.14 217.98 3363.1
-176.67 220.84 3407.3
-52.10 217.10 3349.6
369.50 225.31 3476.2
387.20 225.12 3473.2
459.58 216.78 3344.6
471.40 218.24 3367.2
510.48 216.30 3337.3
523.53 218.14 3365.5
533.76 218.75 3375.1
547.52 220.77 3406.2
548.24 217.56 3356.6
573.63 220.63 3404.0
590.12 223.53 3448.7
589.07 219.80 3391.2
590.14 216.97 3347.5
608.74 217.41 3354.3
623.48 219.53 3387.1
648.53 219.10 3380.4
656.60 218.87 3376.8
684.43 219.37 3384.5
688.65 217.93 3362.3
708.02 218.53 3371.5
716.60 218.47 3370.8
724.95 218.36 3369.0
732.23 217.93 3362.3
761.43 216.31 3337.4
860.92 219.62 3388.5
888.61 215.68 3327.7
1247.04 218.01 3363.7
1259.59 218.68 3373.9
1349.50 214.89 3315.4
-1704.16 216.40 3477.9
-1114.53 215.72 3466.9
-1092.42 213.16 3425.7
-855.15 209.42 3365.8
-694.56 211.01 3391.2
-687.50 211.54 3399.7
-624.30 211.03 3391.6
-622.20 213.33 3428.5
-604.45 210.24 3378.9
-594.57 209.85 3372.6
-582.67 208.72 3354.4
-558.92 209.60 3368.5
-559.43 213.12 3425.1
-554.89 214.80 3452.1
-547.25 215.31 3460.4
-540.03 216.01 3471.6
-521.12 211.98 3406.9
-500.19 210.61 3384.8
-507.95 217.69 3498.6
-473.37 214.36 3445.0
-457.40 211.11 3392.8
-446.27 210.01 3375.2
-437.02 209.77 3371.3
-380.63 212.44 3414.3
-377.39 215.65 3465.9
-344.16 217.36 3493.4
-334.43 216.92 3486.3
-269.78 208.86 3356.7
43.33 207.96 3342.3
52.04 208.14 3345.1
340.38 209.46 3366.4
346.85 208.11 3344.6
361.44 211.57 3400.3
416.12 208.06 3343.8
448.47 206.98 3326.5
471.33 213.43 3430.2
468.16 208.07 3344.0
547.61 211.98 3406.8
609.90 212.14 3409.4
612.94 210.15 3377.4
660.70 211.43 3397.9
655.68 207.06 3327.7
719.83 213.28 3427.7
710.69 208.01 3343.0
736.83 213.06 3424.1
731.86 206.64 3321.0
757.26 208.90 3357.3
778.20 212.24 3410.9
774.48 208.85 3356.5
810.69 209.21 3362.3
827.91 211.38 3397.2
857.14 207.79 3339.5
939.25 210.67 3385.8
945.78 210.17 3377.8
996.44 206.16 3313.3
1046.42 205.85 3308.4
1174.35 208.77 3355.3
1181.43 208.49 3350.7
1314.13 206.14 3312.9
-1151.17 200.58 3363.8
-1043.09 199.93 3352.8
-1063.71 205.59 3447.8
-862.41 202.40 3394.3
-821.18 200.93 3369.6
-790.30 204.24 3425.1
-774.76 202.49 3395.9
-703.11 199.65 3348.1
-689.59 203.34 3410.0
-678.74 202.74 3400.0
-608.40 199.90 3352.4
-580.88 199.41 3344.1
-574.98 200.37 3360.3
-576.46 203.98 3420.8
-564.40 202.83 3401.5
-551.95 201.51 3379.3
-551.49 204.59 3430.9
-547.34 206.37 3460.9
-522.62 200.34 3359.7
-486.88 203.60 3414.5
-444.66 204.54 3430.3
-434.65 204.02 3421.5
-374.83 200.49 3362.2
-372.70 204.10 3422.7
-348.66 205.62 3448.3
-334.38 207.86 3485.8
-139.01 199.83 3351.2
-131.04 200.92 3369.5
-122.38 201.06 3371.8
189.46 198.07 3321.7
391.11 199.90 3352.3
401.45 200.73 3366.2
409.69 200.49 3362.2
420.25 201.37 3377.0
451.20 199.57 3346.8
463.12 200.98 3370.4
473.21 201.55 3380.1
533.93 201.32 3376.1
537.71 199.47 3345.2
575.82 200.67 3365.2
626.04 205.70 3449.6
633.43 205.20 3441.2
634.54 202.70 3399.3
673.15 203.72 3416.4
673.66 201.22 3374.5
707.56 203.42 3411.5
747.97 204.80 3434.5
780.31 203.94 3420.2
793.00 204.93 3436.7
780.58 199.48 3345.4
817.83 202.26 3391.9
835.59 204.45 3428.7
911.39 197.75 3316.4
970.06 204.69 3432.7
999.74 198.22 3324.3
1004.45 197.46 3311.4
1066.14 200.99 3370.7
1095.66 198.43 3327.6
1111.30 199.69 3348.8
1106.45 197.27 3308.3
1538.33 196.56 3296.4
1550.43 197.02 3304.0
1666.54 196.57 3296.5
1715.41 201.30 3375.8
1707.37 199.34 3342.9
1954.20 198.00 3320.5
-1251.38 192.52 3375.4
-1036.48 191.62 3359.5
-824.84 193.05 3384.6
-780.69 190.84 3345.8
-788.40 194.88 3416.8
-724.60 194.41 3408.4
-711.22 193.17 3386.7
-673.56 192.45 3374.0
-661.86 191.59 3359.1
-567.76 192.16 3369.1
-546.33 197.04 3454.5
-505.37 191.69 3360.8
-496.67 198.67 3483.2
-485.88 197.95 3470.6
-466.21 197.24 3458.1
-388.74 190.05 3332.0
-391.52 195.76 3432.2
-375.77 192.25 3370.7
-338.27 190.82 3345.5
-337.22 195.23 3422.9
-321.95 196.75 3449.4
-269.46 191.23 3352.8
-181.55 190.20 3334.6
-173.35 190.68 3343.1
-165.24 191.33 3354.5
-35.19 193.54 3393.3
-26.39 193.55 3393.4
77.74 190.03 3331.7
198.67 190.03 3331.7
215.27 197.33 3459.7
219.17 192.87 3381.4
506.18 188.75 3309.2
537.12 196.94 3452.9
529.48 190.96 3348.0
584.89 192.05 3367.2
605.45 190.29 3336.2
629.00 194.90 3417.1
643.43 196.60 3447.0
687.36 191.42 3356.0
756.39 191.27 3353.4
757.33 189.33 3319.4
787.05 194.55 3411.0
801.34 195.88 3434.3
780.89 188.79 3309.9
798.76 188.95 3312.8
883.07 188.62 3306.9
892.63 188.83 3310.6
992.12 188.16 3298.9
1015.60 190.97 3348.1
1011.57 188.60 3306.6
2212.33 187.92 3294.7
-1061.61 182.74 3356.4
-1053.09 182.77 3357.0
-824.39 182.23 3347.2
-817.15 182.55 3353.0
-738.40 186.83 3431.5
-723.25 185.22 3402.0
-659.06 182.11 3344.8
-655.13 185.91 3414.8
-608.75 182.62 3354.3
-516.67 183.90 3377.8
-483.35 184.55 3389.7
-483.59 188.06 3454.2
-454.45 187.13 3437.0
-393.77 183.76 3375.1
-392.37 187.27 3439.6
-372.39 181.87 3340.4
-327.57 181.03 3325.0
-320.94 182.16 3345.7
-315.31 183.93 3378.3
-291.79 185.68 3410.5
-241.97 181.48 3333.3
-234.00 182.00 3342.9
-181.31 181.31 3330.1
-173.78 182.47 3351.5
-166.69 184.23 3383.9
-60.68 182.03 3343.5
-26.82 187.71 3447.8
-17.53 184.02 3379.9
-8.65 181.57 3335.0
77.31 180.38 3313.2
87.13 182.98 3360.9
147.16 181.78 3338.8
242.62 181.97 3342.3
254.09 183.99 3379.5
449.20 181.41 3332.0
541.10 186.28 3421.5
553.29 181.55 3334.5
580.54 184.72 3392.7
599.34 185.09 3399.6
624.21 184.63 3391.1
673.15 186.00 3416.3
673.46 183.67 3373.5
689.19 185.55 3408.1
694.38 182.27 3347.9
711.31 179.97 3305.5
732.66 183.17 3364.3
757.96 187.26 3439.5
767.92 185.36 3404.6
765.87 182.76 3356.9
787.61 185.84 3413.4
785.34 183.25 3365.7
837.32 179.43 3295.6
845.59 179.37 3294.5
892.23 180.16 3309.1
1308.85 182.03 3343.3
1317.82 182.07 3344.1
1326.72 178.60 3280.4
1449.73 181.22 3328.5
1458.58 181.24 3329.0
-1343.39 173.34 3343.0
-1045.15 172.75 3331.6
-962.60 173.44 3344.9
-859.35 173.61 3348.1
-856.18 176.53 3404.6
-835.81 174.13 3358.2
-835.01 175.79 3390.3
-825.29 175.59 3386.5
-803.19 172.73 3331.2
-734.21 172.75 3331.7
-755.29 179.83 3468.2
-659.14 173.46 3345.3
-661.42 178.76 3447.6
-612.00 172.39 3324.8
-627.55 179.30 3457.9
-595.65 172.65 3329.7
-535.56 172.76 3331.8
-545.85 178.97 3451.5
-535.89 178.63 3445.0
-459.10 173.25 3341.2
-461.13 177.36 3420.5
-438.67 172.03 3317.7
-403.75 175.54 3385.5
-391.39 173.95 3354.8
-365.61 174.10 3357.7
-300.89 171.94 3315.9
-296.31 174.30 3361.5
-294.47 178.46 3441.8
-272.10 175.55 3385.5
-240.63 171.88 3314.8
-191.99 174.53 3366.0
-180.52 171.92 3315.6
-166.42 175.17 3378.4
-160.24 178.04 3433.7
-147.62 173.66 3349.3
-139.28 174.10 3357.6
-60.76 173.60 3348.0
-53.46 178.21 3437.0
-26.34 175.59 3386.3
-17.25 172.54 3327.5
137.08 171.36 3304.7
148.71 174.96 3374.2
154.14 171.27 3303.0
278.83 174.27 3361.0
286.21 173.46 3345.3
351.83 171.63 3309.9
378.96 172.25 3322.0
390.46 173.54 3346.8
396.89 172.56 3328.0
404.91 172.30 3323.0
417.96 174.15 3358.6
426.41 174.04 3356.6
431.11 172.45 3325.7
438.02 171.77 3312.8
451.26 173.56 3347.3
461.82 174.27 3360.9
536.19 172.97 3335.8
540.43 171.57 3308.8
574.38 174.05 3356.8
594.97 177.60 3425.2
610.25 174.36 3362.6
625.02 176.06 3395.5
627.48 174.30 3361.5
639.98 175.34 3381.5
643.92 174.03 3356.4
683.73 173.10 3338.3
700.50 170.85 3295.0
726.74 175.12 3377.3
742.11 176.69 3407.7
750.97 176.70 3407.8
752.00 174.88 3372.8
751.32 172.72 3331.0
753.08 171.16 3300.9
772.44 173.58 3347.7
870.28 175.81 3390.7
851.95 170.39 3286.1
926.10 171.50 3307.5
936.76 171.88 3314.9
1321.38 175.02 3375.3
1323.11 174.09 3357.5
1315.83 169.78 3274.4
1331.00 170.64 3290.9
1350.38 172.02 3317.6
1433.09 169.60 3270.8
1479.52 170.06 3279.7
1545.30 172.66 3329.8
1589.99 176.67 3407.1
-1165.02 167.69 3404.3
-1139.76 165.31 3355.9
-994.03 165.67 3363.3
-986.00 165.79 3365.6
-886.76 163.58 3320.7
-845.15 163.86 3326.4
-830.57 166.11 3372.3
-835.09 168.80 3426.7
-823.19 168.18 3414.1
-644.95 165.59 3361.7
-628.73 163.64 3322.1
-623.35 169.20 3434.8
-595.73 164.04 3330.2
-558.19 163.16 3312.3
-558.66 165.85 3366.9
-536.74 164.48 3339.1
-489.30 163.10 3311.1
-484.48 164.38 3337.0
-402.98 166.45 3379.0
-375.07 169.67 3444.5
-366.66 169.92 3449.4
-347.72 165.17 3353.0
-291.70 163.01 3309.2
-287.61 165.59 3361.7
-286.55 170.14 3454.0
-274.45 168.21 3414.9
-193.09 166.76 3385.4
-160.40 169.31 3437.1
-131.61 166.71 3384.3
-97.01 167.56 3401.5
-86.98 165.26 3354.8
25.67 162.55 3299.9
42.77 162.54 3299.7
68.47 162.62 3301.3
77.47 163.54 3320.1
95.87 165.59 3361.6
121.55 164.96 3348.7
131.57 166.66 3383.3
139.96 166.20 3374.0
147.63 165.00 3349.7
250.78 164.31 3335.6
278.62 165.43 3358.4
289.23 166.52 3380.6
292.40 163.40 3317.1
299.40 162.53 3299.5
312.42 164.89 3347.4
366.85 165.96 3369.0
383.76 165.71 3364.1
397.92 168.01 3410.8
405.10 167.33 3396.8
416.93 168.54 3421.6
424.55 168.05 3411.6
424.95 164.78 3345.1
456.30 163.58 3320.8
493.38 167.40 3398.3
504.09 165.13 3352.3
515.30 165.94 3368.8
542.92 166.38 3377.6
538.41 162.38 3296.4
611.56 168.40 3418.7
632.69 166.96 3389.4
627.25 163.26 3314.2
654.98 163.74 3324.1
710.23 162.58 3300.5
725.41 164.08 3331.0
735.80 164.47 3338.9
800.24 163.49 3319.0
874.11 166.08 3371.6
886.60 166.79 3385.9
905.17 163.79 3325.1
976.64 161.36 3275.7
1466.87 161.10 3270.5
1564.30 164.21 3333.6
1628.66 163.73 3323.8
1616.62 161.66 3281.9
-1694.17 155.59 3334.0
-1455.00 155.89 3340.6
-1139.24 156.54 3354.4
-1122.18 155.38 3329.5
-924.80 160.06 3429.9
-895.89 156.56 3354.9
-863.43 155.42 3330.4
-828.76 157.03 3364.9
-817.69 156.58 3355.3
-819.54 158.62 3399.0
-794.98 155.54 3333.0
-779.14 157.58 3376.7
-783.71 160.30 3435.1
-770.62 159.44 3416.5
-761.75 159.44 3416.5
-730.94 154.79 3316.9
-684.30 155.92 3341.1
-677.37 156.32 3349.6
-650.67 158.27 3391.5
-641.25 158.12 3388.2
-561.08 155.38 3329.5
-564.78 158.84 3403.8
-538.07 156.21 3347.4
-524.97 157.49 3374.8
-517.93 158.01 3386.0
-512.17 158.95 3406.0
-493.30 155.78 3338.2
-385.58 154.23 3305.0
-356.46 156.50 3353.5
-354.46 159.51 3418.0
-343.07 158.34 3393.0
-336.12 159.22 3411.8
-321.54 156.43 3352.0
-278.24 156.51 3353.8
-156.74 156.74 3358.7
-146.55 155.17 3325.2
-96.79 158.38 3393.9
-85.64 154.15 3303.3
25.75 154.53 3311.3
35.29 158.81 3403.1
44.31 159.51 3418.0
128.45 154.14 3302.9
136.79 153.89 3297.6
173.33 156.00 3342.9
246.55 158.50 3396.4
256.16 153.70 3293.5
273.29 153.73 3294.1
288.84 157.55 3376.0
297.17 157.33 3371.3
299.43 153.99 3299.9
307.26 153.63 3292.1
346.01 155.70 3336.5
369.22 154.56 3311.9
374.30 153.12 3281.2
427.65 157.09 3366.3
442.43 153.15 3281.8
512.76 159.13 3410.0
517.48 157.87 3383.0
545.24 155.78 3338.2
617.92 154.48 3310.3
653.23 156.78 3359.5
716.20 155.32 3328.3
743.41 157.43 3373.5
754.82 154.40 3308.5
797.76 154.41 3308.7
806.10 154.36 3307.7
860.64 153.38 3286.7
892.42 152.99 3278.3
1041.06 152.35 3264.6
1053.32 152.90 3276.5
1335.12 155.05 3322.4
1333.16 153.83 3296.3
1585.53 151.81 3253.0
1615.20 153.83 3296.3
1686.08 151.75 3251.7
-1191.15 146.74 3329.3
-1178.80 146.27 3318.8
-1119.74 146.43 3322.3
-1116.44 147.13 3338.2
-926.47 151.44 3436.1
-901.66 148.82 3376.5
-890.34 149.86 3400.2
-882.33 150.00 3403.3
-806.90 145.93 3311.0
-830.40 151.79 3444.1
-805.96 148.93 3379.0
-765.80 147.94 3356.6
-769.83 150.43 3413.0
-769.23 152.06 3450.0
-745.22 149.04 3381.7
-681.80 148.60 3371.5
-675.55 149.15 3384.0
-658.46 149.25 3386.4
-654.70 150.40 3412.5
-622.57 147.00 3335.2
-615.30 147.32 3342.7
-523.42 145.87 3309.7
-510.59 149.66 3395.6
-477.95 147.73 3351.9
-465.14 146.43 3322.4
-438.18 146.06 3314.0
-441.42 150.08 3405.2
-435.38 151.05 3427.2
-389.91 147.30 3342.1
-336.98 146.89 3332.8
-329.11 147.23 3340.6
-273.57 145.33 3297.5
-233.63 147.10 3337.6
-229.25 149.90 3401.0
-215.50 146.54 3324.8
-163.48 146.27 3318.8
129.12 146.34 3320.3
172.48 146.60 3326.3
246.94 149.93 3401.8
265.41 150.40 3412.4
274.68 150.63 3417.7
273.40 145.25 3295.5
353.12 146.42 3322.1
381.66 150.89 3423.5
382.04 147.61 3349.1
417.50 147.86 3354.9
487.68 150.74 3420.1
486.90 147.81 3353.6
483.72 144.27 3273.3
506.36 145.90 3310.3
531.02 150.45 3413.7
540.47 145.84 3309.0
575.69 146.07 3314.2
596.75 147.02 3335.9
616.54 149.73 3397.3
668.93 145.79 3307.9
679.91 144.48 3278.1
766.97 149.87 3400.4
836.98 145.19 3294.2
857.91 147.32 3342.5
906.24 145.34 3297.7
923.80 146.77 3330.1
933.28 145.56 3302.6
932.44 144.10 3269.6
1068.21 145.28 3296.2
1125.22 146.02 3313.1
1209.38 143.77 3262.1
1215.41 143.49 3255.6
1305.60 144.12 3270.0
1325.20 145.34 3297.7
1333.67 145.34 3297.5
-1131.76 138.23 3332.3
-1110.53 137.74 3320.5
-1071.94 139.44 3361.5
-1051.36 137.88 3324.0
-889.99 139.61 3365.5
-877.27 138.97 3350.3
-841.00 137.31 3310.1
-804.96 138.49 3338.5
-694.15 142.39 3432.6
-661.96 139.36 3359.6
-652.23 139.14 3354.3
-620.71 141.88 3420.2
-549.45 141.79 3418.2
-537.21 140.91 3396.9
-527.54 140.68 3391.3
-522.12 141.59 3413.4
-489.39 139.83 3370.8
-472.67 140.05 3376.2
-444.42 142.21 3428.4
-437.19 142.75 3441.4
-390.19 138.73 3344.5
-266.39 137.49 3314.5
-264.66 141.15 3402.8
-250.80 138.37 3335.7
-240.68 137.53 3315.4
-231.01 136.89 3300.1
-215.13 137.68 3319.2
-8.54 136.65 3294.2
0.00 138.26 3333.1
8.70 139.22 3356.1
17.25 137.97 3326.1
129.99 138.66 3342.6
137.56 137.56 3316.3
241.91 138.23 3332.4
275.25 137.63 3317.8
366.64 136.42 3288.8
378.68 137.70 3319.6
396.32 140.91 3397.1
403.71 140.42 3385.1
401.12 136.55 3291.8
433.37 138.68 3343.2
447.13 140.28 3381.7
441.33 135.79 3273.6
530.92 141.58 3413.1
551.80 140.14 3378.4
558.55 137.49 3314.5
588.19 136.39 3288.0
626.86 139.30 3358.2
666.82 136.78 3297.5
676.03 136.92 3300.7
703.74 135.66 3270.4
735.83 135.33 3262.3
789.03 135.75 3272.5
845.08 136.58 3292.5
911.61 136.32 3286.2
925.98 137.18 3307.1
942.07 138.29 3333.7
935.82 136.12 3281.5
1224.09 136.96 3301.7
1228.11 136.46 3289.6
1313.57 134.72 3247.8
1530.00 137.53 3315.4
1504.69 134.50 3242.3
1565.27 135.38 3263.5
1606.44 138.19 3331.3
1656.48 135.92 3276.6
1697.19 138.55 3340.0
1669.52 135.60 3268.8
1849.90 137.67 3318.8
1817.39 134.62 3245.3
2330.12 133.63 3221.4
2407.22 137.56 3316.1
-1238.01 128.96 3316.1
-1147.37 130.38 3352.7
-1120.94 128.35 3300.5
-1111.58 129.25 3323.7
-1079.93 131.70 3386.5
-1061.70 130.54 3356.7
-1028.45 130.74 3361.8
-1020.47 130.83 3364.2
-845.02 129.34 3325.9
-725.80 128.08 3293.5
-683.12 129.71 3335.3
-685.31 131.79 3388.9
-599.90 128.55 3305.5
-588.81 131.82 3389.7
-575.72 130.85 3364.6
-553.35 129.69 3334.9
-534.81 133.70 3438.1
-509.48 129.53 3330.8
-490.54 129.09 3319.5
-477.43 132.62 3410.2
-442.20 130.06 3344.4
-429.31 128.79 3311.8
-376.09 131.19 3373.6
-366.80 131.00 3368.6
-350.98 128.41 3301.9
-271.97 127.49 3278.3
-263.45 131.73 3387.2
-231.38 128.54 3305.4
-138.12 129.49 3329.6
-103.04 128.80 3311.9
-96.28 131.29 3376.1
-85.75 128.62 3307.4
0.00 127.96 3290.5
8.60 128.94 3315.5
17.49 131.15 3372.4
25.88 129.40 3327.4
77.08 128.47 3303.6
118.59 127.06 3267.4
146.12 128.93 3315.3
171.12 128.34 3300.1
179.97 128.55 3305.6
232.29 129.05 3318.4
242.15 129.72 3335.7
251.87 130.28 3350.0
260.20 130.10 3345.4
263.13 127.32 3274.0
272.22 127.60 3281.3
309.04 128.77 3311.1
316.50 128.31 3299.4
393.45 128.30 3299.1
402.97 128.61 3307.1
433.93 130.18 3347.5
456.33 131.63 3384.8
459.77 130.12 3346.1
473.41 131.50 3381.5
484.56 129.79 3337.5
520.99 130.25 3349.2
532.20 126.72 3258.4
563.75 130.10 3345.3
568.64 129.24 3323.2
591.51 126.75 3259.3
650.26 126.67 3257.3
676.00 130.00 3342.9
674.50 128.07 3293.2
728.94 127.14 3269.3
742.17 126.51 3253.0
779.47 128.48 3303.9
788.27 128.52 3304.9
799.88 129.01 3317.5
799.25 127.54 3279.6
868.87 127.78 3285.7
872.96 127.13 3269.1
926.68 127.52 3279.2
940.84 128.30 3299.1
984.56 127.31 3273.8
1030.66 126.72 3258.5
1045.02 127.44 3277.1
1091.35 128.90 3314.6
1091.23 127.88 3288.3
1492.86 125.80 3234.9
1600.93 129.11 3319.9
1594.82 127.93 3289.6
2341.04 125.41 3224.9
-1335.23 121.38 3344.3
-1121.34 120.76 3327.0
-1105.02 119.92 3304.0
-1028.54 122.03 3362.1
-1007.10 121.55 3348.7
-835.29 120.56 3321.5
-819.45 119.50 3292.5
-785.72 122.22 3367.4
-780.58 122.79 3382.9
-751.57 119.57 3294.2
-696.14 121.83 3356.4
-673.15 119.29 3286.7
-595.36 124.40 3427.5
-529.57 119.58 3294.6
-519.05 119.13 3282.1
-487.91 121.98 3360.6
-476.09 123.43 3400.6
-437.79 120.18 3311.0
-367.05 119.50 3292.4
-359.48 119.83 3301.3
-270.28 122.06 3362.9
-234.47 121.58 3349.6
-224.08 120.66 3324.3
-171.80 120.26 3313.4
-103.11 120.29 3314.2
-94.78 120.63 3323.5
77.95 121.26 3340.9
122.38 122.38 3371.6
130.17 121.49 3347.3
170.92 119.65 3296.4
332.46 119.35 3288.1
345.33 120.87 3330.0
350.17 119.57 3294.3
390.65 118.89 3275.6
421.77 118.10 3253.7
435.43 119.53 3293.2
450.16 118.91 3276.1
474.84 123.11 3391.7
488.34 122.08 3363.5
485.77 119.31 3287.2
502.13 121.20 3339.3
501.68 119.04 3279.7
545.22 119.27 3285.9
570.38 120.99 3333.4
597.81 119.56 3294.1
638.73 122.50 3374.9
636.44 120.41 3317.4
657.75 119.59 3294.9
681.61 122.34 3370.6
702.64 122.96 3387.7
708.59 122.47 3374.2
712.80 121.70 3352.9
699.04 117.91 3248.5
752.24 119.67 3297.2
773.80 119.05 3279.9
793.63 119.47 3291.6
808.08 120.35 3315.8
841.71 117.84 3246.6
855.92 118.64 3268.7
865.63 118.81 3273.4
918.33 117.95 3249.7
952.72 121.25 3340.7
1046.63 119.13 3282.1
1093.64 120.56 3321.5
1081.25 118.26 3258.2
1107.67 117.48 3236.7
1117.78 117.66 3241.7
1572.28 117.71 3243.0
1590.02 118.41 3262.2
1605.62 117.08 3225.6
2063.92 116.98 3223.0
-1729.44 111.85 3318.7
-1348.11 114.55 3398.6
-1131.42 112.28 3331.3
-1117.60 111.76 3315.9
-1013.98 112.66 3342.8
-945.12 111.70 3314.1
-848.28 113.69 3373.1
-821.04 112.35 3333.5
-807.61 115.37 3423.1
-788.96 115.24 3419.3
-762.53 112.65 3342.3
-706.96 114.88 3408.6
-694.07 114.21 3388.8
-599.11 111.26 3301.2
-606.31 114.23 3389.3
-598.31 114.38 3393.8
-551.40 110.28 3272.0
-468.12 110.65 3282.9
-464.90 111.92 3320.7
-343.45 114.48 3396.8
-313.79 110.25 3271.1
-292.15 111.70 3314.3
-290.35 114.38 3393.7
-234.42 112.87 3348.9
-223.63 111.82 3317.6
-169.65 110.27 3271.7
-8.50 110.49 3278.1
16.90 109.88 3260.1
110.15 110.15 3268.3
121.33 112.67 3342.9
346.50 109.87 3259.8
364.64 110.24 3270.9
372.11 109.94 3262.0
428.75 113.75 3375.0
428.36 111.37 3304.5
452.10 110.89 3290.2
463.52 111.59 3310.8
466.43 110.25 3271.1
488.38 113.37 3363.8
506.48 113.52 3368.2
558.46 110.00 3263.7
574.19 109.77 3257.0
599.09 112.87 3349.0
599.83 111.40 3305.2
616.08 112.80 3346.9
632.28 112.60 3340.8
635.37 111.62 3311.8
631.81 109.51 3249.3
642.63 109.92 3261.5
675.81 114.10 3385.3
677.71 112.95 3351.3
673.01 110.75 3286.0
719.26 110.00 3263.9
939.61 112.06 3325.0
952.52 112.57 3340.0
992.37 109.33 3243.8
1328.51 110.71 3284.8
1453.90 110.53 3279.5
1459.36 110.30 3272.7
1469.71 110.44 3276.8
1455.40 108.74 3226.2
1556.21 111.77 3316.3
1895.12 108.53 3220.2
2356.59 109.41 3246.3
-1316.89 102.62 3298.3
-1310.61 102.79 3304.1
-1183.38 102.16 3283.8
-1124.43 103.00 3310.7
-1013.18 103.92 3340.2
-975.71 103.61 3330.5
-855.08 104.70 3365.5
-857.61 106.10 3410.2
-821.76 102.72 3301.7
-823.26 103.99 3342.5
-821.70 104.90 3371.7
-789.63 103.00 3310.6
-769.03 103.69 3332.9
-737.17 102.86 3306.3
-738.68 104.28 3352.0
-712.94 101.85 3273.7
-679.61 101.94 3276.7
-670.86 101.90 3275.5
-645.20 101.87 3274.5
-642.93 102.87 3306.5
-642.95 104.26 3351.3
-625.27 102.78 3303.8
-597.55 102.44 3292.6
-593.16 103.16 3315.8
-566.56 104.60 3362.0
-547.44 102.65 3299.3
-536.63 105.57 3393.2
-507.76 101.55 3264.2
-493.59 102.12 3282.5
-459.82 102.18 3284.4
-436.03 102.60 3297.7
-441.12 105.87 3402.9
-368.44 102.82 3304.9
-335.54 105.96 3405.9
-314.39 101.96 3277.4
-290.77 102.62 3298.6
-288.75 105.00 3375.0
-239.68 102.72 3301.7
-237.44 105.53 3392.1
-225.20 103.94 3340.8
-214.95 103.18 3316.4
-204.71 102.36 3290.0
-196.10 102.31 3288.6
-161.49 102.00 3278.4
-127.20 101.76 3270.9
-92.77 101.21 3253.1
-84.99 101.99 3278.3
-76.08 101.44 3260.5
33.97 101.90 3275.2
42.25 101.40 3259.1
134.88 101.16 3251.6
144.84 102.24 3286.2
223.25 103.04 3311.9
232.35 103.27 3319.3
295.33 104.23 3350.4
303.04 103.90 3339.7
303.45 101.15 3251.3
347.38 101.67 3268.0
364.30 104.09 3345.6
375.86 104.89 3371.5
378.71 103.28 3319.9
412.27 103.07 3312.9
429.54 105.19 3381.2
475.21 101.83 3273.1
498.27 104.90 3371.8
491.22 101.63 3266.7
529.76 104.21 3349.8
537.50 102.38 3290.8
547.46 101.07 3248.6
570.31 103.69 3333.0
564.67 101.14 3250.8
576.32 101.70 3269.0
581.89 101.20 3252.8
627.63 104.61 3362.3
619.14 101.78 3271.4
662.17 103.19 3317.0
666.47 102.53 3295.7
831.47 100.78 3239.5
848.87 101.86 3274.2
1054.43 103.71 3333.7
1048.31 102.27 3287.4
1199.69 101.38 3258.7
1423.10 100.45 3228.9
1470.61 103.20 3317.2
1444.00 100.74 3238.2
1455.08 100.93 3244.2
1537.63 101.94 3276.7
1803.35 102.56 3296.6
-1373.14 93.82 3289.7
-1371.61 94.30 3306.6
-1327.33 94.20 3303.0
-1319.95 94.28 3306.0
-1221.10 93.93 3293.7
-1208.40 93.61 3282.4
-987.18 93.61 3282.5
-1001.36 95.78 3358.6
-976.64 94.24 3304.4
-866.60 93.46 3277.1
-848.43 93.33 3272.5
-876.51 97.39 3415.0
-857.42 97.23 3409.5
-822.30 94.22 3303.9
-828.34 95.91 3363.2
-792.01 94.70 3320.5
-776.74 93.89 3292.3
-777.05 94.97 3330.2
-759.19 93.83 3290.2
-730.05 93.38 3274.3
-744.33 96.32 3377.6
-732.35 95.90 3362.8
-645.08 94.61 3317.5
-625.11 95.50 3348.8
-604.23 93.61 3282.5
-595.10 93.52 3279.1
-585.10 93.28 3270.8
-575.84 93.15 3266.3
-572.88 95.48 3348.0
-550.11 96.05 3368.0
-533.55 96.21 3373.7
-520.40 95.41 3345.4
-511.47 97.00 3401.4
-483.70 93.35 3273.1
-470.17 94.03 3297.3
-456.94 93.08 3263.9
-442.88 95.52 3349.5
-439.86 96.77 3393.2
-344.49 94.73 3321.8
-321.16 92.97 3259.9
-317.08 94.27 3305.5
-247.39 93.84 3290.4
-241.15 94.74 3321.9
-204.11 93.55 3280.3
-200.45 95.87 3361.7
-190.00 95.00 3331.2
-177.64 93.05 3262.8
-171.33 94.23 3304.2
-165.54 95.84 3360.6
-156.66 95.74 3357.0
-147.80 95.63 3353.4
-136.72 93.99 3295.8
-127.68 93.63 3283.2
-118.31 92.96 3259.5
-67.34 92.60 3247.0
42.26 92.98 3260.4
111.05 93.96 3294.8
119.40 93.81 3289.5
128.42 94.17 3302.2
162.93 94.33 3307.6
171.54 94.35 3308.2
176.61 92.51 3243.9
190.35 95.17 3337.2
208.27 95.46 3347.2
212.45 93.48 3277.8
221.99 93.92 3293.2
226.78 92.39 3239.8
247.24 93.78 3288.4
253.00 92.77 3252.9
278.98 92.99 3260.8
292.72 94.70 3320.8
295.03 92.72 3251.3
312.31 92.85 3255.7
319.98 92.63 3248.0
360.43 94.40 3310.1
387.23 94.66 3319.1
385.89 92.28 3235.8
398.76 93.33 3272.5
415.38 95.19 3337.9
413.07 92.73 3251.6
476.11 93.52 3279.3
485.89 93.77 3288.0
498.39 94.52 3314.4
514.04 95.84 3360.6
537.86 93.91 3293.0
539.30 92.69 3250.3
590.42 95.51 3349.0
579.30 92.35 3238.3
602.60 93.36 3273.7
626.99 93.20 3268.1
647.15 92.45 3241.7
747.81 94.55 3315.4
752.64 94.08 3298.9
752.23 92.97 3260.0
763.88 93.36 3273.8
832.52 92.50 3243.6
842.16 92.64 3248.3
933.30 92.49 3243.1
1034.01 93.23 3269.1
1034.41 92.51 3243.8
1188.37 92.06 3228.0
1197.12 92.09 3229.0
1352.52 91.84 3220.3
1416.17 92.18 3232.2
1501.67 92.80 3254.0
1637.99 94.83 3325.2
1595.23 91.87 3221.5
1737.87 91.47 3207.3
1799.26 94.25 3304.8
1788.55 92.37 3238.8
1831.78 92.43 3241.0
1925.58 91.30 3201.4
-1505.21 85.04 3280.1
-1496.52 85.03 3279.7
-1488.55 86.54 3338.1
-1517.39 88.74 3422.7
-1458.75 85.81 3309.8
-1406.05 85.22 3286.9
-1393.75 84.98 3278.0
-1115.59 85.81 3310.0
-888.78 86.29 3328.3
-866.91 84.99 3278.2
-856.93 86.56 3338.7
-860.62 87.82 3387.3
-832.86 85.86 3311.8
-807.38 85.89 3313.0
-800.67 86.09 3320.8
-770.06 85.56 3300.3
-786.44 88.36 3408.3
-774.71 88.03 3395.6
-737.52 84.77 3269.8
-738.36 85.86 3311.6
-744.38 87.57 3377.8
-724.32 86.23 3326.0
-711.03 85.67 3304.3
-695.77 84.85 3272.8
-640.73 85.43 3295.2
-607.53 85.57 3300.5
-572.45 88.07 3397.0
-558.16 87.21 3363.9
-530.85 85.62 3302.5
-511.05 86.62 3341.0
-498.72 85.99 3316.6
-443.30 86.92 3352.7
-428.59 85.72 3306.2
-372.04 86.52 3337.2
-360.24 85.77 3308.3
-359.37 87.65 3380.8
-346.47 86.62 3341.0
-320.83 86.71 3344.5
-269.73 87.01 3356.1
-262.47 87.49 3374.7
-248.90 85.83 3310.5
-211.56 84.62 3264.1
-206.86 86.19 3324.5
-199.87 86.90 3351.9
-186.54 84.79 3270.6
-159.75 84.08 3243.0
-154.53 85.85 3311.3
-145.91 85.83 3310.7
-136.06 85.04 3280.1
0.00 86.02 3317.9
8.56 85.55 3299.9
101.68 84.73 3268.3
110.52 85.01 3279.0
127.38 84.92 3275.4
160.98 84.72 3267.9
170.20 85.10 3282.5
210.85 84.34 3253.1
235.95 84.27 3250.4
245.68 84.72 3267.7
269.77 84.30 3251.7
278.91 84.52 3260.0
285.37 83.93 3237.4
294.78 84.22 3248.6
308.61 85.72 3306.5
318.92 86.19 3324.6
324.03 85.27 3289.0
340.51 87.31 3367.7
347.53 84.76 3269.5
358.94 85.46 3296.4
384.71 85.49 3297.5
413.60 84.41 3255.7
427.69 85.54 3299.3
434.26 85.15 3284.3
444.63 85.51 3298.1
458.87 86.58 3339.5
475.85 86.52 3337.1
473.70 84.59 3262.7
496.01 87.02 3356.4
510.15 86.47 3335.1
502.76 83.79 3232.1
525.15 86.09 3320.6
526.25 84.88 3273.9
527.75 83.77 3231.1
554.56 86.65 3342.2
549.20 84.49 3259.0
573.45 84.33 3252.8
585.14 84.80 3271.0
598.53 85.50 3298.0
615.49 86.69 3343.7
625.92 85.74 3307.2
647.58 84.10 3243.9
651.90 83.58 3223.7
685.38 84.62 3263.7
693.48 84.57 3262.0
710.19 85.57 3300.4
723.04 86.08 3320.1
723.94 85.17 3285.1
755.20 84.85 3272.9
925.03 84.09 3243.6
933.36 84.09 3243.3
954.03 83.69 3227.9
1115.90 85.18 3285.6
1207.62 84.45 3257.3
1219.93 84.72 3267.7
1356.97 83.25 3211.1
1392.97 84.94 3276.1
1521.12 84.51 3259.5
1583.79 82.92 3198.4
1637.22 85.27 3289.1
1610.04 83.42 3217.7
1703.18 85.16 3284.7
1716.81 85.41 3294.5
-1482.75 77.14 3305.9
-1460.95 76.44 3276.2
-1398.52 76.75 3289.2
-1147.91 79.47 3405.9
-1107.31 77.25 3310.9
-1030.91 76.68 3286.2
-996.74 76.02 3258.1
-970.63 75.96 3255.5
-920.39 77.42 3317.8
-925.38 78.57 3367.3
-909.37 77.95 3340.6
-764.88 76.49 3278.1
-744.16 76.98 3299.2
-650.31 78.04 3344.5
-646.28 78.60 3368.7
-618.15 76.21 3266.1
-609.05 76.13 3262.8
-532.94 77.36 3315.5
-518.63 76.52 3279.4
-505.79 77.16 3306.7
-492.80 76.47 3277.3
-445.95 78.70 3372.7
-412.97 77.43 3318.5
-403.53 77.27 3311.6
-386.89 75.70 3244.1
-336.28 75.66 3242.7
-289.77 76.71 3287.4
-275.00 77.34 3314.7
-227.93 75.98 3256.1
-222.55 77.04 3301.6
-213.77 76.96 3298.2
-202.09 75.78 3247.8
-142.75 75.58 3239.0
-134.62 75.72 3245.3
-125.87 75.52 3236.7
0.00 76.79 3291.1
16.97 76.37 3273.1
137.77 77.50 3321.2
145.79 77.18 3307.9
160.99 76.26 3268.1
169.02 76.06 3259.7
204.57 76.71 3287.7
314.83 76.58 3282.0
323.85 76.70 3287.2
356.43 78.24 3353.2
352.04 75.44 3233.0
381.28 77.99 3342.4
384.27 76.85 3293.8
425.97 78.24 3353.1
434.01 78.12 3348.1
434.03 76.59 3282.5
439.05 75.99 3256.7
448.29 76.12 3262.5
466.29 77.71 3330.6
470.94 77.06 3302.7
501.13 77.76 3332.6
544.77 76.61 3283.2
550.89 76.28 3269.0
567.58 75.12 3219.5
576.20 75.16 3221.0
591.43 76.04 3258.9
611.19 77.47 3320.3
612.54 76.57 3281.4
678.65 75.41 3231.7
730.36 76.43 3275.7
765.19 78.26 3353.9
795.09 76.94 3297.6
828.67 76.10 3261.5
899.42 76.37 3272.8
917.72 77.19 3308.2
912.95 75.38 3230.6
920.15 75.29 3226.5
945.54 75.31 3227.5
982.06 76.86 3293.9
1493.63 75.10 3218.5
1497.95 74.90 3209.9
1622.60 76.06 3259.7
1637.86 75.59 3239.7
1688.93 77.55 3323.7
1638.01 74.83 3207.1
-1094.05 67.85 3271.2
-1010.83 68.53 3304.2
-1004.44 68.68 3311.3
-985.05 67.93 3275.4
-979.82 68.16 3286.4
-966.59 69.04 3328.8
-893.67 68.09 3282.9
-878.97 67.61 3259.9
-850.70 67.38 3248.8
-760.23 68.34 3294.7
-771.02 70.09 3379.5
-744.20 68.43 3299.4
-729.96 67.90 3273.9
-702.52 69.38 3345.3
-693.80 69.38 3345.1
-611.10 67.90 3273.8
-547.77 67.42 3250.5
-552.17 69.02 3327.8
-549.41 69.77 3363.7
-511.12 68.15 3285.8
-497.66 67.48 3253.5
-476.77 68.11 3283.9
-408.99 69.62 3356.5
-388.22 67.52 3255.2
-358.12 68.21 3288.9
-293.46 67.08 3234.0
-293.30 69.01 3327.4
-226.83 67.21 3240.4
-221.09 68.03 3279.9
-210.61 67.40 3249.5
-153.24 68.11 3283.7
33.75 67.49 3254.1
43.53 69.65 3358.0
51.92 69.23 3337.9
136.37 68.18 3287.5
147.96 69.63 3357.0
155.76 69.23 3337.7
159.42 67.12 3236.4
185.20 67.35 3247.0
206.88 68.96 3324.9
259.41 69.17 3335.2
260.31 67.18 3238.9
308.93 66.80 3220.5
337.64 69.26 3339.3
333.72 66.74 3218.1
380.17 69.12 3332.7
395.32 68.75 3314.8
407.19 67.87 3272.1
424.27 67.88 3272.9
431.95 67.76 3266.9
446.02 68.62 3308.4
464.62 67.58 3258.3
481.51 68.79 3316.5
505.52 68.55 3304.9
553.25 68.09 3283.0
594.14 67.90 3273.8
594.21 66.95 3228.1
626.69 66.85 3223.0
745.63 69.36 3344.2
787.51 68.48 3301.7
807.79 69.49 3350.3
866.40 69.31 3341.8
855.01 67.72 3265.2
897.08 67.70 3264.3
918.57 68.68 3311.3
961.26 66.87 3224.1
1095.81 66.41 3202.0
1151.53 66.76 3218.6
1178.91 67.85 3271.4
1373.86 66.21 3192.3
1501.90 67.50 3254.5
1484.44 66.34 3198.7
1516.29 66.29 3195.9
1577.71 68.60 3307.3
1547.93 66.94 3227.4
1536.92 66.10 3187.2
1604.73 66.17 3190.6
1628.01 66.79 3220.2
1633.29 66.67 3214.2
1763.68 66.24 3193.8
1789.90 66.91 3226.1
1877.12 66.74 3217.9
-1426.98 59.46 3276.2
-1425.79 59.76 3293.1
-1401.59 59.10 3256.7
-952.94 59.03 3252.8
-952.31 60.06 3309.2
-908.24 58.87 3243.7
-904.71 59.19 3261.3
-836.14 59.72 3290.9
-777.38 59.80 3295.0
-758.60 59.00 3251.1
-738.92 60.14 3314.1
-713.04 60.14 3313.6
-705.45 60.22 3318.3
-709.13 61.28 3376.8
-661.12 59.33 3269.3
-617.28 59.19 3261.6
-626.36 60.90 3355.5
-600.21 59.18 3260.7
-555.14 58.88 3244.3
-561.58 60.48 3332.5
-559.40 61.18 3371.4
-550.72 61.19 3371.8
-522.12 59.91 3301.4
-478.55 58.77 3238.3
-446.29 58.94 3248.0
-412.89 60.21 3317.9
-394.86 58.81 3240.5
-343.23 60.07 3309.7
-327.80 58.84 3241.9
-293.56 58.71 3235.2
-192.29 58.52 3224.7
-161.94 59.66 3287.5
-156.09 60.70 3344.8
-127.36 59.43 3275.0
-119.68 59.84 3297.3
-109.56 58.99 3250.6
-101.11 58.98 3249.9
-92.09 58.60 3229.2
-25.17 58.73 3236.4
51.97 60.63 3341.0
60.30 60.30 3322.9
67.86 59.38 3271.8
75.82 58.97 3249.6
133.68 58.49 3222.7
144.13 59.35 3270.3
150.73 58.62 3230.0
193.06 58.76 3237.7
206.02 60.09 3311.1
210.11 58.83 3241.7
256.55 59.86 3298.5
275.63 58.47 3221.7
284.63 58.60 3229.0
312.96 59.21 3262.5
331.12 59.43 3274.8
335.39 58.69 3234.1
351.40 59.99 3305.8
359.11 59.85 3298.0
405.87 60.45 3330.8
405.48 59.13 3258.3
425.42 58.39 3217.5
457.86 60.47 3332.1
482.11 60.26 3320.6
478.11 58.72 3235.3
525.86 59.37 3271.5
569.64 60.42 3329.1
716.83 60.46 3331.2
724.01 60.33 3324.5
732.45 60.32 3323.7
743.70 59.16 3259.7
742.06 58.36 3216.0
768.82 59.80 3295.0
787.94 60.61 3339.8
784.40 59.04 3253.3
835.94 59.11 3256.9
863.18 60.42 3329.4
838.59 58.12 3202.5
927.42 58.49 3222.7
940.98 58.81 3240.6
973.43 58.24 3209.1
1039.80 59.18 3260.7
1038.29 58.61 3229.7
1060.00 57.97 3194.2
1072.53 58.20 3206.9
1139.82 58.24 3209.1
1146.53 58.16 3204.6
1327.28 58.80 3240.2
1321.13 58.16 3204.9
1396.85 58.90 3245.7
1380.50 57.87 3188.5
1519.35 58.12 3202.4
1581.22 60.16 3314.7
1553.62 58.79 3239.2
1739.98 57.72 3180.7
1763.17 58.22 3207.9
1783.56 58.61 3229.8
1763.78 57.69 3179.0
1909.62 59.68 3288.3
1911.45 59.47 3276.8
1874.81 58.07 3199.7
2244.28 58.19 3206.1
2275.14 58.77 3238.2
-1468.68 50.64 3255.7
-1166.97 51.11 3285.5
-1183.34 52.21 3356.1
-1144.87 50.88 3271.1
-1065.87 51.57 3315.5
-1057.46 51.58 3316.1
-1003.31 51.02 3279.6
-903.41 50.66 3256.6
-778.96 52.51 3375.9
-735.69 50.74 3261.7
-724.47 51.75 3326.6
-717.74 52.52 3376.2
-686.76 50.87 3270.3
-674.91 51.26 3295.2
-664.72 51.13 3287.1
-636.14 50.22 3228.5
-636.86 50.95 3275.3
-621.13 50.36 3237.6
-594.62 50.25 3230.3
-577.02 51.67 3321.9
-567.64 51.60 3317.4
-549.98 50.77 3263.6
-471.07 50.47 3244.6
-448.76 50.80 3265.9
-427.39 51.29 3297.0
-423.39 51.84 3332.8
-406.12 50.76 3263.4
-343.80 50.31 3234.4
-334.99 50.25 3230.3
-331.83 51.05 3281.9
-322.04 50.85 3268.8
-297.19 50.95 3275.1
-196.70 51.31 3298.7
-181.50 51.86 3333.7
-173.97 52.19 3355.1
-163.62 51.67 3321.6
-135.93 50.97 3276.8
-127.68 51.07 3283.1
-25.27 50.53 3248.5
-16.71 50.14 3223.6
41.85 50.22 3228.3
51.88 51.88 3335.2
77.55 51.70 3323.7
91.78 50.06 3218.3
100.99 50.49 3246.0
133.32 49.99 3213.8
143.22 50.55 3249.5
185.22 50.51 3247.3
193.01 50.35 3236.9
208.56 50.06 3217.9
218.69 50.47 3244.2
267.27 50.11 3221.5
282.47 51.36 3301.5
293.24 51.75 3326.7
316.41 51.31 3298.5
317.92 50.20 3227.0
326.50 50.23 3229.1
343.66 51.55 3313.8
360.32 51.47 3309.0
399.45 49.93 3209.9
412.30 50.49 3245.5
425.98 51.12 3286.1
445.90 50.48 3245.1
453.60 50.40 3240.0
486.04 50.28 3232.3
503.15 51.17 3289.3
508.56 50.86 3269.3
522.14 51.36 3301.6
536.83 51.95 3339.7
532.86 50.75 3262.4
541.50 49.98 3213.3
564.10 51.28 3296.7
582.80 50.68 3257.9
650.65 50.70 3259.3
654.02 50.31 3234.2
684.68 50.10 3220.6
709.92 51.32 3299.1
701.70 50.12 3222.1
711.39 50.22 3228.2
739.62 49.86 3205.4
746.14 49.74 3197.7
773.05 50.97 3276.7
791.30 51.61 3317.5
802.73 50.70 3259.2
820.66 50.24 3230.0
833.24 50.50 3246.4
913.70 49.84 3203.9
935.48 50.57 3250.7
973.76 49.94 3210.2
1022.51 50.29 3232.8
1061.11 51.76 3327.5
1064.34 51.50 3310.7
1042.21 50.03 3216.0
1161.39 51.24 3293.9
1168.31 51.17 3289.3
1254.99 49.87 3205.7
1351.90 50.38 3238.8
1367.18 50.64 3255.2
1383.07 49.99 3213.7
1409.05 49.44 3178.3
1434.66 50.05 3217.3
1557.86 49.72 3196.2
1600.62 50.81 3266.6
1565.90 49.45 3178.9
1667.68 49.54 3184.4
1976.54 50.90 3272.0
2065.54 49.57 3186.8
2096.98 50.13 3222.5
-1550.76 42.14 3250.8
-1151.95 42.04 3243.2
-1142.48 42.00 3240.2
-999.02 41.98 3238.1
-993.11 42.08 3246.2
-887.14 42.65 3290.2
-868.35 42.15 3251.8
-786.50 41.84 3227.3
-765.95 43.03 3319.5
-718.95 42.29 3262.5
-733.43 43.66 3367.8
-717.72 43.24 3335.4
-656.42 42.08 3246.0
-645.98 41.95 3235.9
-641.38 42.20 3255.1
-633.64 42.24 3258.7
-619.46 41.86 3228.8
-605.67 42.06 3244.7
-610.75 43.01 3318.0
-603.32 43.09 3324.4
-580.53 42.07 3245.2
-525.59 43.08 3323.4
-517.03 43.09 3323.8
-493.19 41.80 3224.2
-466.51 42.41 3271.6
-449.87 42.44 3274.0
-438.46 42.16 3252.3
-442.89 43.42 3349.6
-426.30 43.50 3355.8
-413.91 43.12 3326.1
-397.92 42.33 3265.6
-345.30 42.11 3248.4
-318.42 41.90 3232.1
-312.50 42.23 3257.8
-279.66 42.37 3268.8
-192.66 41.88 3231.0
-186.19 42.32 3264.4
-134.77 42.12 3248.9
-125.62 41.87 3230.3
0.00 41.58 3207.7
8.44 42.22 3256.7
16.76 41.89 3231.7
25.06 41.76 3221.6
41.71 41.71 3217.5
51.34 42.78 3300.3
60.22 43.01 3318.2
68.32 42.70 3294.0
99.72 41.55 3205.2
110.11 42.35 3266.9
177.48 42.26 3259.9
185.74 42.21 3256.4
