ply
format ascii 1.0
element vertex 1987
property float x
property float y
property float z
end_header
-1251.99 -1022.27 4430.4
-1321.58 -1089.08 4719.9
-1206.23 -1032.25 4473.6
-1195.87 -1033.33 4478.3
-1071.28 -1025.20 4443.1
-1066.92 -1032.13 4473.1
-975.18 -1021.08 4425.2
-964.62 -1022.04 4429.4
-961.84 -1031.37 4469.8
-956.20 -1037.83 4497.8
-934.33 -1052.60 4561.8
-940.73 -1073.40 4652.0
-918.23 -1061.33 4599.7
-881.65 -1032.46 4474.6
-818.99 -1026.62 4449.2
-821.91 -1045.00 4528.9
-796.09 -1026.84 4450.2
-787.77 -1031.05 4468.4
-793.36 -1053.87 4567.3
-731.01 -1032.70 4475.6
-583.47 -1081.84 4688.6
-572.78 -1084.62 4700.6
-493.25 -1045.23 4529.9
-478.65 -1039.02 4503.0
-436.75 -1050.56 4553.0
-323.98 -1067.95 4628.4
-310.66 -1063.42 4608.7
-289.24 -1029.71 4462.6
-269.55 -1043.04 4520.4
-256.37 -1037.13 4494.8
-164.07 -1043.02 4520.3
-105.54 -1043.63 4523.0
-1801.54 -1039.35 4454.4
-1787.16 -1037.70 4447.3
-1600.75 -1021.75 4378.9
-1515.42 -1065.53 4566.5
-1458.58 -1033.64 4429.9
-1063.62 -1029.31 4411.3
-1061.14 -1038.07 4448.9
-1053.77 -1042.19 4466.5
-1025.92 -1025.92 4396.8
-912.30 -1039.33 4454.3
-839.89 -1049.86 4499.4
-839.18 -1063.75 4558.9
-829.81 -1066.90 4572.4
-743.80 -1062.57 4553.9
-715.27 -1038.29 4449.8
-563.80 -1035.54 4438.0
-588.79 -1103.98 4731.4
-544.63 -1065.59 4566.8
-512.53 -1048.35 4492.9
-502.96 -1052.70 4511.6
-498.99 -1069.26 4582.5
-470.66 -1033.15 4427.8
-435.48 -1059.28 4539.8
-379.78 -1035.76 4439.0
-276.23 -1035.86 4439.4
-267.66 -1047.35 4488.7
-115.72 -1041.52 4463.6
-104.86 -1048.62 4494.1
46.80 -1052.93 4512.6
57.66 -1037.90 4448.2
-1938.11 -1031.39 4371.7
-1790.38 -1044.39 4426.8
-1637.27 -1027.53 4355.3
-1602.17 -1041.41 4414.1
-1661.16 -1087.52 4609.6
-1559.41 -1028.31 4358.6
-1502.04 -1027.71 4356.1
-1486.02 -1048.28 4443.2
-1503.29 -1077.16 4565.7
-1418.00 -1032.31 4375.5
-1410.66 -1035.24 4388.0
-1396.14 -1032.91 4378.1
-1394.30 -1040.01 4408.2
-1366.72 -1036.43 4393.0
-1388.48 -1061.78 4500.5
-1366.35 -1053.71 4466.3
-1340.13 -1042.33 4418.0
-1058.07 -1046.57 4436.0
-1067.07 -1067.07 4522.9
-815.43 -1045.13 4429.9
-728.74 -1036.18 4392.0
-703.12 -1032.00 4374.2
-628.90 -1040.55 4410.5
-547.58 -1038.11 4400.2
-533.97 -1033.86 4382.1
-504.73 -1043.88 4424.6
-519.28 -1098.95 4658.0
-502.92 -1089.65 4618.6
-231.75 -1054.46 4469.5
-225.74 -1081.20 4582.8
-209.08 -1057.01 4480.3
-125.91 -1041.62 4415.0
-57.59 -1048.14 4442.7
46.61 -1060.34 4494.4
149.57 -1046.97 4437.7
164.62 -1070.06 4535.6
264.43 -1046.23 4434.6
279.76 -1060.75 4496.1
392.01 -1049.19 4447.1
517.41 -1046.32 4435.0
615.32 -1056.50 4478.1
630.10 -1061.83 4500.7
1399.99 -1070.58 4537.8
1441.77 -1093.35 4634.3
-2315.02 -1038.94 4355.8
-2286.43 -1031.13 4323.1
-1745.21 -1084.86 4548.3
-1571.97 -1040.44 4362.1
-1528.68 -1049.54 4400.3
-1545.46 -1069.04 4482.0
-1528.37 -1065.23 4466.0
-1476.53 -1036.95 4347.5
-1461.30 -1050.31 4403.5
-1386.30 -1071.76 4493.4
-1414.68 -1102.97 4624.3
-1362.05 -1071.02 4490.3
-1303.60 -1033.89 4334.6
-1061.99 -1050.57 4404.6
-1094.44 -1106.46 4638.9
-990.73 -1047.66 4392.4
-1022.03 -1093.34 4583.9
-994.95 -1076.89 4514.9
-944.67 -1047.11 4390.0
-945.71 -1061.04 4448.5
-859.34 -1054.13 4419.5
-758.37 -1041.35 4365.9
-761.81 -1061.92 4452.1
-653.03 -1072.84 4497.9
-644.62 -1078.27 4520.7
-486.21 -1040.27 4361.4
-375.94 -1048.08 4394.1
-364.78 -1048.76 4397.0
-227.48 -1046.43 4387.2
-221.69 -1073.44 4500.4
-205.06 -1048.07 4394.1
-56.72 -1043.73 4375.9
319.64 -1050.25 4403.2
524.78 -1072.89 4498.1
632.59 -1098.08 4603.8
647.28 -1102.77 4623.4
629.37 -1052.76 4413.7
1390.04 -1074.65 4505.5
1408.28 -1079.68 4526.6
-2029.44 -1072.37 4447.6
-2083.95 -1107.47 4593.2
-1939.83 -1036.81 4300.1
-1670.22 -1049.53 4352.9
-1541.69 -1038.96 4309.1
-1344.08 -1059.31 4393.5
-1237.05 -1075.19 4459.3
-1233.23 -1081.99 4487.5
-1179.38 -1044.60 4332.4
-1134.28 -1044.44 4331.8
-1158.92 -1077.79 4470.1
-1155.51 -1085.48 4502.0
-1124.13 -1066.78 4424.4
-1093.84 -1048.73 4349.6
-1121.29 -1086.25 4505.2
-1120.02 -1096.44 4547.5
-1052.61 -1041.42 4319.2
-1059.57 -1059.57 4394.5
-1095.30 -1107.20 4592.1
-1044.42 -1067.38 4426.9
-980.36 -1060.16 4397.0
-926.96 -1051.31 4360.3
-878.65 -1061.23 4401.4
-830.20 -1057.65 4386.6
-817.40 -1055.81 4378.9
-794.30 -1070.58 4440.2
-776.37 -1061.79 4403.8
-763.60 -1059.93 4396.0
-756.94 -1066.60 4423.7
-720.42 -1063.48 4410.8
-697.99 -1046.99 4342.4
-641.20 -1064.85 4416.4
-631.34 -1067.54 4427.6
-541.66 -1049.47 4352.6
-532.65 -1053.97 4371.3
-517.09 -1045.43 4335.9
-414.58 -1071.00 4441.9
-401.57 -1067.04 4425.5
-388.65 -1063.07 4409.0
-386.33 -1088.75 4515.6
-371.57 -1079.86 4478.7
-285.81 -1063.21 4409.6
-194.47 -1063.88 4412.4
-170.53 -1057.30 4385.1
-157.87 -1048.73 4349.6
-69.13 -1071.53 4444.1
-58.87 -1095.00 4541.5
-11.75 -1092.51 4531.1
56.88 -1057.97 4387.9
90.35 -1050.34 4356.3
308.37 -1062.16 4405.3
388.22 -1061.90 4404.2
403.16 -1071.24 4442.9
515.91 -1066.22 4422.1
594.38 -1063.03 4408.9
609.19 -1068.95 4433.4
624.12 -1074.87 4458.0
732.69 -1064.69 4415.7
795.62 -1088.13 4513.0
1785.47 -1106.99 4591.2
1748.20 -1076.71 4465.6
-2167.70 -1066.83 4377.6
-2054.68 -1103.66 4528.7
-2017.54 -1089.94 4472.4
-1644.55 -1044.51 4286.0
-1665.69 -1065.13 4370.6
-1625.68 -1046.67 4294.9
-1574.33 -1049.55 4306.7
-1558.09 -1053.67 4323.6
-1396.20 -1084.65 4450.7
-1339.34 -1049.15 4305.0
-1322.94 -1072.04 4398.9
-1234.81 -1084.78 4451.2
-1207.79 -1071.06 4394.9
-1162.00 -1081.47 4437.6
-1163.40 -1093.59 4487.4
-1162.61 -1103.89 4529.7
-1124.22 -1078.34 4424.8
-1077.33 -1044.01 4283.9
-1074.59 -1052.20 4317.6
-1122.65 -1110.84 4558.1
-1126.44 -1126.44 4622.2
-1064.45 -1075.90 4414.8
-1024.70 -1046.97 4296.1
-886.72 -1082.48 4441.8
-857.37 -1060.43 4351.3
-838.58 -1079.82 4430.9
-834.42 -1089.38 4470.1
-781.74 -1049.76 4307.5
-784.26 -1068.41 4384.0
-679.16 -1046.57 4294.4
-706.08 -1106.19 4539.1
-680.46 -1084.12 4448.5
-651.24 -1055.46 4330.9
-612.30 -1065.85 4373.5
-479.94 -1049.17 4305.1
-391.50 -1051.46 4314.5
-384.84 -1063.96 4365.8
-377.90 -1076.45 4417.0
-340.14 -1065.76 4373.2
-294.93 -1066.28 4375.3
-292.11 -1098.35 4506.9
-208.08 -1086.62 4458.8
-197.99 -1094.79 4492.3
-70.01 -1096.85 4500.7
-59.14 -1111.80 4562.1
-44.87 -1054.54 4327.1
-22.80 -1071.63 4397.2
-12.12 -1139.12 4674.2
0.00 -1057.91 4341.0
59.09 -1110.86 4558.2
72.47 -1135.44 4659.1
80.65 -1083.07 4444.2
294.27 -1063.91 4365.6
314.36 -1094.45 4490.9
319.83 -1073.71 4405.8
520.23 -1086.70 4459.1
527.03 -1076.98 4419.2
588.40 -1084.51 4450.1
601.05 -1086.51 4458.3
634.54 -1065.12 4370.6
841.44 -1068.86 4385.9
-2126.46 -1046.70 4249.8
-2127.98 -1052.90 4275.0
-2081.44 -1092.47 4435.6
-1991.84 -1051.25 4268.2
-1746.25 -1070.28 4345.5
-1715.50 -1058.26 4296.7
-1703.29 -1057.60 4294.0
-1745.04 -1090.65 4428.2
-1675.68 -1054.23 4280.3
-1661.14 -1066.27 4329.2
-1661.34 -1073.65 4359.2
-1687.26 -1097.88 4457.5
-1620.84 -1061.93 4311.6
-1588.47 -1047.95 4254.8
-1633.71 -1108.59 4501.0
-1471.05 -1058.71 4298.5
-1522.70 -1104.25 4483.4
-1463.06 -1069.16 4341.0
-1343.74 -1046.35 4248.3
-1393.10 -1093.76 4440.8
-1383.42 -1095.21 4446.7
-1314.59 -1049.47 4261.0
-1308.12 -1062.15 4312.5
-1351.08 -1106.49 4492.5
-1191.60 -1048.17 4255.7
-1249.46 -1109.34 4504.1
-1231.86 -1104.03 4482.5
-1200.30 -1085.99 4409.3
-1136.71 -1069.18 4341.0
-1147.61 -1090.23 4426.5
-1161.96 -1115.01 4527.1
-1083.11 -1049.95 4263.0
-1051.54 -1051.54 4269.4
-1076.99 -1088.44 4419.2
-1046.30 -1068.80 4339.5
-982.15 -1060.27 4304.9
-890.16 -1084.17 4401.9
-919.31 -1134.22 4605.1
-886.75 -1108.44 4500.4
-856.57 -1084.98 4405.2
-829.30 -1094.22 4442.7
-813.92 -1089.05 4421.7
-791.70 -1074.45 4362.4
-771.82 -1062.65 4314.5
-740.82 -1066.34 4329.5
-721.34 -1054.26 4280.5
-681.34 -1061.10 4308.2
-697.01 -1103.59 4480.8
-662.58 -1066.86 4331.6
-645.66 -1057.55 4293.8
-614.97 -1062.21 4312.7
-625.81 -1100.96 4470.1
-599.88 -1075.25 4365.7
-593.68 -1084.62 4403.7
-591.37 -1101.57 4472.5
-555.35 -1055.17 4284.2
-544.60 -1100.78 4469.3
-517.29 -1068.32 4337.5
-421.75 -1054.38 4280.9
-427.72 -1098.20 4458.9
-409.49 -1080.59 4387.4
-389.51 -1057.25 4292.6
-379.66 -1060.81 4307.1
-369.15 -1062.71 4314.7
-355.95 -1056.73 4290.5
-350.50 -1074.10 4361.0
-344.30 -1090.29 4426.7
-202.25 -1067.42 4333.9
-169.57 -1073.97 4360.5
-55.72 -1058.63 4298.2
57.04 -1083.74 4400.1
68.17 -1079.40 4382.5
129.99 -1122.62 4558.0
142.64 -1129.23 4584.8
146.57 -1071.06 4348.6
202.88 -1070.77 4347.5
258.03 -1065.78 4327.2
302.24 -1063.44 4317.7
313.10 -1062.30 4313.1
357.56 -1061.49 4309.8
605.76 -1106.67 4493.2
621.17 -1113.42 4520.6
993.96 -1085.36 4406.7
-2261.12 -1053.73 4233.7
-2212.62 -1083.73 4354.3
-2099.48 -1107.42 4449.5
-2113.97 -1121.22 4504.9
-1964.41 -1065.44 4280.8
-1773.89 -1051.19 4223.5
-1818.03 -1097.68 4410.3
-1775.65 -1078.88 4334.8
-1789.08 -1093.96 4395.4
-1790.90 -1102.09 4428.1
-1765.68 -1093.58 4393.9
-1686.78 -1051.50 4224.8
-1705.69 -1084.41 4357.0
-1633.95 -1052.74 4229.8
-1665.49 -1080.32 4340.6
-1592.05 -1061.36 4264.4
-1615.10 -1084.26 4356.4
-1462.09 -1071.45 4304.9
-1394.93 -1097.65 4410.2
-1395.08 -1116.07 4484.2
-1197.75 -1064.67 4277.7
-1238.10 -1110.82 4463.1
-1209.52 -1095.42 4401.2
-1183.79 -1082.32 4348.6
-1086.37 -1053.45 4232.6
-1053.96 -1065.06 4279.2
-1046.68 -1068.95 4294.9
-1020.64 -1053.56 4233.1
-1006.79 -1073.91 4314.8
-1018.86 -1099.00 4415.6
-973.58 -1062.09 4267.3
-959.61 -1058.88 4254.4
-870.98 -1058.41 4252.5
-897.54 -1104.66 4438.4
-849.58 -1087.46 4369.3
-804.58 -1072.77 4310.2
-819.77 -1108.43 4453.5
-824.19 -1130.31 4541.4
-797.88 -1110.09 4460.2
-763.71 -1078.18 4332.0
-741.49 -1062.44 4268.7
-740.55 -1077.17 4327.9
-728.50 -1075.93 4322.9
-639.63 -1077.27 4328.3
-652.07 -1117.83 4491.3
-648.32 -1131.61 4546.7
-625.30 -1111.65 4466.5
-602.43 -1091.19 4384.3
-599.82 -1107.36 4449.2
-590.38 -1111.30 4465.1
-553.28 -1062.29 4268.1
-543.48 -1064.77 4278.1
-509.51 -1063.32 4272.3
-473.99 -1058.21 4251.7
-472.23 -1079.39 4336.8
-451.46 -1057.08 4247.2
-433.30 -1094.65 4398.2
-427.74 -1109.82 4459.1
-390.95 -1072.31 4308.4
-395.54 -1116.82 4487.2
-376.71 -1095.87 4403.1
-358.06 -1074.19 4315.9
-346.16 -1071.99 4307.1
-336.57 -1077.02 4327.3
-321.41 -1063.97 4274.9
-265.85 -1063.41 4272.6
-256.08 -1068.87 4294.6
-253.77 -1107.37 4449.2
-241.06 -1101.97 4427.6
-220.66 -1059.18 4255.6
-173.02 -1107.31 4449.0
-157.66 -1081.10 4343.7
56.20 -1079.03 4335.4
116.57 -1119.09 4496.4
130.63 -1140.02 4580.5
133.47 -1067.76 4290.1
199.96 -1066.43 4284.8
211.04 -1066.30 4284.3
378.32 -1068.21 4291.9
389.98 -1069.66 4297.8
411.34 -1067.25 4288.1
430.35 -1087.20 4368.2
782.39 -1072.99 4311.1
928.80 -1087.37 4368.9
1027.60 -1133.90 4555.9
1018.33 -1110.90 4463.5
1566.77 -1089.92 4379.2
1730.19 -1092.75 4390.5
-2276.13 -1071.77 4261.8
-2136.59 -1073.83 4270.0
-2093.71 -1057.76 4206.1
-2075.97 -1059.84 4214.4
-1869.69 -1079.52 4292.7
-1775.22 -1062.94 4226.7
-1873.88 -1128.98 4489.3
-1808.32 -1110.17 4414.5
-1731.90 -1076.88 4282.2
-1745.50 -1092.35 4343.6
-1724.88 -1086.45 4320.2
-1733.44 -1098.98 4370.0
-1613.11 -1064.43 4232.6
-1563.81 -1060.77 4218.1
-1533.14 -1069.89 4254.3
-1499.37 -1053.90 4190.8
-1492.97 -1080.73 4297.4
-1555.57 -1134.52 4511.3
-1534.65 -1127.73 4484.4
-1468.79 -1087.58 4324.7
-1435.36 -1071.00 4258.8
-1359.38 -1072.03 4262.9
-1371.28 -1090.28 4335.4
-1230.11 -1094.69 4353.0
-1223.01 -1098.45 4367.9
-1182.32 -1071.82 4262.0
-1139.50 -1083.64 4309.0
-1082.35 -1082.35 4303.9
-1053.04 -1064.01 4231.0
-1026.30 -1059.05 4211.2
-999.66 -1065.57 4237.2
-980.82 -1057.11 4203.5
-959.26 -1069.52 4252.9
-944.50 -1065.31 4236.2
-894.33 -1057.93 4206.8
-890.25 -1066.10 4239.3
-872.39 -1057.77 4206.2
-851.40 -1058.79 4210.2
-864.07 -1088.50 4328.4
-868.63 -1108.65 4408.5
-836.10 -1081.36 4300.0
-799.20 -1061.95 4222.8
-814.43 -1097.22 4363.0
-816.30 -1115.23 4434.6
-815.38 -1129.88 4492.9
-783.22 -1101.05 4378.2
-751.13 -1071.46 4260.6
-725.54 -1066.33 4240.2
-712.42 -1063.15 4227.5
-670.68 -1066.49 4240.8
-648.14 -1065.59 4237.3
-654.27 -1094.21 4351.1
-657.26 -1118.50 4447.7
-622.51 -1118.21 4446.5
-596.39 -1091.50 4340.3
-577.03 -1076.38 4280.2
-546.09 -1081.03 4298.6
-547.21 -1105.81 4397.2
-520.00 -1073.20 4267.5
-495.24 -1067.51 4244.9
-472.74 -1066.40 4240.5
-462.07 -1067.17 4243.5
-393.86 -1091.57 4340.6
-390.70 -1114.65 4432.3
-364.82 -1072.35 4264.1
-351.75 -1066.25 4239.9
-345.49 -1081.05 4298.7
-336.81 -1089.04 4330.5
-320.27 -1071.24 4259.7
-268.34 -1084.55 4312.6
-267.42 -1127.80 4484.6
-248.87 -1097.28 4363.3
-142.70 -1064.73 4233.8
-57.06 -1106.92 4401.6
-44.47 -1078.42 4288.3
33.65 -1087.95 4326.2
44.23 -1072.56 4265.0
110.04 -1067.40 4244.5
199.52 -1075.18 4275.4
213.73 -1091.13 4338.8
220.98 -1071.75 4261.8
322.06 -1115.71 4436.5
327.98 -1097.02 4362.2
417.02 -1093.26 4347.3
439.60 -1122.14 4462.1
757.87 -1081.08 4298.8
809.20 -1137.57 4523.5
823.70 -1141.41 4538.7
809.80 -1106.34 4399.3
805.17 -1084.74 4313.4
913.31 -1080.38 4296.1
994.95 -1109.31 4411.1
1003.48 -1106.11 4398.4
1731.41 -1104.91 4393.6
-1973.60 -1056.90 4159.8
-1987.19 -1100.25 4330.4
-2026.74 -1128.53 4441.7
-1994.20 -1123.17 4420.6
-1765.24 -1067.86 4202.9
-1760.75 -1071.76 4218.3
-1729.33 -1059.22 4168.9
-1740.79 -1072.94 4222.9
-1686.42 -1073.18 4223.9
-1743.99 -1117.07 4396.6
-1685.88 -1086.95 4278.1
-1510.21 -1064.75 4190.7
-1472.25 -1068.75 4206.4
-1485.00 -1102.50 4339.3
-1437.96 -1075.72 4233.9
-1419.97 -1070.44 4213.1
-1394.98 -1059.75 4171.0
-1353.27 -1060.96 4175.8
-1346.08 -1063.84 4187.1
-1333.52 -1062.48 4181.8
-1245.54 -1070.73 4214.2
-1257.56 -1090.62 4292.5
-1274.88 -1115.52 4390.5
-1239.60 -1094.43 4307.5
-1253.48 -1116.73 4395.3
-1141.36 -1065.27 4192.8
-1137.43 -1137.43 4476.8
-1115.59 -1127.09 4436.1
-1063.14 -1120.30 4409.3
-1058.59 -1140.02 4487.0
-979.14 -1090.40 4291.7
-923.56 -1077.49 4240.9
-850.07 -1081.90 4258.2
-872.25 -1124.74 4426.8
-851.53 -1112.67 4379.3
-812.59 -1076.14 4235.5
-802.51 -1077.35 4240.3
-808.78 -1100.84 4332.8
-802.11 -1107.14 4357.6
-793.06 -1110.29 4369.9
-767.55 -1090.14 4290.6
-695.44 -1064.89 4191.3
-697.85 -1121.13 4412.6
-693.22 -1132.27 4456.4
-645.70 -1072.52 4221.3
-605.78 -1079.40 4248.4
-613.93 -1114.17 4385.2
-577.94 -1068.65 4206.1
-538.55 -1077.09 4239.3
-528.31 -1078.64 4245.4
-511.68 -1114.32 4385.8
-515.94 -1149.14 4522.9
-396.76 -1080.08 4251.0
-393.89 -1102.88 4340.8
-379.99 -1095.27 4310.8
-363.60 -1079.79 4249.9
-358.43 -1097.69 4320.3
-351.72 -1111.90 4376.3
-338.26 -1104.99 4349.1
-324.65 -1097.09 4318.0
-305.86 -1070.51 4213.4
-294.11 -1067.50 4201.5
-295.58 -1114.12 4385.0
-273.79 -1073.26 4224.2
-256.93 -1094.73 4308.7
-240.66 -1072.01 4219.3
-141.89 -1069.63 4209.9
-109.67 -1074.79 4230.2
-55.58 -1089.32 4287.4
34.02 -1111.30 4373.9
43.82 -1073.60 4225.5
77.61 -1086.53 4276.4
91.83 -1124.89 4427.4
131.38 -1072.92 4222.9
197.09 -1073.05 4223.4
208.64 -1076.12 4235.5
242.59 -1080.62 4253.2
257.44 -1096.94 4317.4
268.18 -1095.06 4310.0
303.65 -1102.14 4337.9
341.29 -1153.33 4539.4
331.50 -1082.89 4262.1
561.84 -1147.09 4514.8
566.16 -1132.33 4456.7
758.76 -1093.51 4303.9
766.86 -1089.17 4286.8
912.77 -1090.87 4293.5
937.53 -1106.96 4356.8
1385.45 -1112.91 4380.2
-2331.71 -1063.78 4144.6
-1961.31 -1061.04 4133.9
-1962.43 -1067.47 4159.0
-1939.84 -1061.02 4133.8
-1961.43 -1078.78 4203.1
-2004.84 -1108.82 4320.1
-1949.92 -1109.44 4322.5
-1958.83 -1120.95 4367.3
-1824.21 -1114.80 4343.4
-1841.52 -1132.37 4411.8
-1673.51 -1097.20 4274.8
-1720.91 -1135.80 4425.2
-1629.20 -1082.49 4217.5
-1520.00 -1067.24 4158.1
-1511.08 -1068.55 4163.2
-1495.20 -1064.93 4149.1
-1522.48 -1116.49 4350.0
-1508.54 -1122.90 4374.9
-1420.61 -1065.46 4151.1
-1270.78 -1075.28 4189.4
-1227.62 -1075.53 4190.4
-1250.05 -1104.95 4305.0
-1221.44 -1089.39 4244.4
-1207.22 -1086.50 4233.1
-1233.98 -1120.77 4366.6
-1242.28 -1138.76 4436.7
-1137.13 -1072.15 4177.2
-1067.84 -1067.84 4160.4
-1102.43 -1136.88 4429.4
-1067.90 -1112.87 4335.8
-1023.94 -1078.41 4201.6
-1028.63 -1094.99 4266.2
-975.26 -1072.79 4179.7
-975.32 -1097.24 4275.0
-870.57 -1077.32 4197.4
-858.04 -1117.71 4354.7
-865.65 -1142.65 4451.9
-802.24 -1073.27 4181.6
-779.25 -1102.09 4293.9
-782.96 -1123.38 4376.8
-702.79 -1087.14 4235.6
-691.77 -1087.07 4235.3
-687.44 -1134.28 4419.3
-687.37 -1153.38 4493.7
-633.73 -1081.72 4214.5
-627.44 -1129.40 4400.2
-615.44 -1128.30 4396.0
-570.13 -1106.72 4311.9
-563.86 -1116.44 4349.7
-548.47 -1108.14 4317.4
-542.71 -1119.34 4361.1
-532.38 -1121.40 4369.1
-511.68 -1101.22 4290.5
-513.61 -1129.94 4402.4
-369.29 -1075.30 4189.5
-360.41 -1081.22 4212.5
-347.71 -1075.74 4191.2
-297.17 -1089.63 4245.3
-297.03 -1131.00 4406.5
-256.42 -1103.72 4300.2
-242.93 -1093.20 4259.2
32.94 -1086.89 4234.6
78.86 -1115.33 4345.5
90.63 -1121.49 4369.5
266.57 -1099.59 4284.1
278.45 -1102.64 4296.0
307.28 -1086.47 4233.0
316.31 -1079.83 4207.1
421.30 -1097.59 4276.3
515.38 -1085.60 4229.6
541.03 -1115.88 4347.6
744.85 -1152.18 4489.0
736.21 -1121.30 4368.7
935.40 -1089.47 4244.7
1078.46 -1089.46 4244.7
1198.06 -1129.60 4401.1
1196.47 -1096.77 4273.1
1208.90 -1097.99 4277.9
1321.17 -1089.96 4246.6
1366.72 -1118.23 4356.7
1396.68 -1133.37 4415.7
-2406.05 -1064.63 4106.4
-2403.76 -1107.72 4272.7
-2043.15 -1135.08 4378.2
-1865.26 -1071.99 4134.8
-1867.57 -1105.07 4262.4
-1873.52 -1121.87 4327.2
-1801.59 -1091.87 4211.5
-1837.17 -1120.22 4320.9
-1795.20 -1115.03 4300.8
-1734.18 -1083.86 4180.6
-1709.27 -1075.01 4146.5
-1705.88 -1079.67 4164.5
-1631.45 -1094.94 4223.3
-1541.84 -1093.50 4217.8
-1509.90 -1078.50 4159.9
-1458.72 -1072.59 4137.1
-1503.66 -1113.82 4296.2
-1481.54 -1105.63 4264.6
-1476.35 -1110.04 4281.6
-1447.48 -1096.58 4229.6
-1377.08 -1067.50 4117.5
-1375.97 -1074.98 4146.3
-1360.14 -1070.98 4130.9
-1251.45 -1069.62 4125.7
-1221.18 -1090.34 4205.6
-1203.62 -1114.47 4298.7
-1203.09 -1124.38 4336.9
-1160.45 -1094.77 4222.7
-1111.68 -1068.93 4123.0
-1106.67 -1074.44 4144.3
-1056.33 -1077.88 4157.6
-1114.75 -1149.22 4432.7
-1069.69 -1114.26 4297.9
-1043.61 -1098.54 4237.2
-1006.81 -1071.07 4131.3
-993.00 -1079.35 4163.2
-990.99 -1088.99 4200.4
-948.81 -1090.59 4206.6
-972.78 -1131.14 4363.0
-978.45 -1151.11 4440.0
-949.48 -1130.34 4359.9
-897.62 -1108.17 4274.4
-884.80 -1106.00 4266.0
-845.33 -1127.11 4347.4
-814.53 -1100.72 4245.6
-785.15 -1075.54 4148.5
-780.24 -1083.67 4179.9
-759.40 -1084.86 4184.5
-759.11 -1100.16 4243.5
-697.61 -1090.01 4204.3
-681.98 -1082.51 4175.4
-659.92 -1081.84 4172.8
-646.16 -1114.08 4297.2
-624.77 -1096.09 4227.8
-642.14 -1146.67 4422.9
-581.22 -1076.33 4151.5
-573.58 -1124.67 4338.0
-552.77 -1128.11 4351.3
-533.28 -1111.01 4285.3
-537.32 -1143.24 4409.6
-526.04 -1143.57 4410.9
-508.47 -1129.93 4358.3
-490.72 -1115.27 4301.8
-303.66 -1084.49 4183.0
-294.69 -1091.44 4209.8
-282.06 -1084.86 4184.5
-261.65 -1090.21 4205.1
-262.77 -1142.49 4406.7
-248.74 -1130.62 4361.0
-226.94 -1080.65 4168.2
-215.31 -1076.53 4152.3
-204.99 -1078.92 4161.5
-155.30 -1109.32 4278.8
-143.34 -1102.64 4253.1
-130.22 -1085.17 4185.7
328.98 -1096.61 4229.8
346.09 -1116.42 4306.2
352.62 -1101.94 4250.3
408.15 -1133.75 4373.0
410.14 -1108.50 4275.6
422.56 -1083.50 4179.2
925.35 -1101.60 4249.0
945.07 -1111.84 4288.5
1210.17 -1163.63 4488.3
1329.35 -1107.79 4272.9
-2344.52 -1076.35 4110.5
-2234.04 -1079.61 4123.0
-2114.95 -1073.42 4099.3
-2121.55 -1082.20 4132.9
-1978.74 -1104.16 4216.7
-1933.04 -1084.65 4142.2
-1883.43 -1080.83 4127.6
-1920.68 -1108.50 4233.3
-1857.46 -1078.18 4117.5
-1865.62 -1141.99 4361.2
-1715.71 -1069.67 4085.0
-1726.49 -1096.70 4188.2
-1652.95 -1077.08 4113.3
-1632.00 -1091.60 4168.8
-1613.73 -1086.58 4149.6
-1631.95 -1106.22 4224.6
-1641.81 -1120.43 4278.9
-1610.60 -1106.61 4226.1
-1574.47 -1089.19 4159.6
-1536.93 -1070.55 4088.4
-1543.48 -1090.15 4163.2
-1569.80 -1116.55 4264.0
-1567.31 -1122.69 4287.5
-1526.61 -1101.34 4206.0
-1405.24 -1083.43 4137.6
-1364.18 -1076.42 4110.8
-1354.81 -1077.45 4114.7
-1348.43 -1080.88 4127.8
-1265.36 -1111.32 4244.1
-1248.60 -1106.21 4224.6
-1267.37 -1132.78 4326.0
-1257.24 -1133.76 4329.8
-1166.87 -1081.23 4129.2
-1186.97 -1110.03 4239.2
-1164.28 -1098.99 4197.0
-1127.65 -1074.46 4103.3
-1114.56 -1082.41 4133.7
-1131.28 -1109.31 4236.4
-1084.01 -1094.85 4181.2
-1097.90 -1120.08 4277.5
-997.19 -1082.97 4135.8
-983.19 -1079.37 4122.1
-948.97 -1076.92 4112.7
-919.27 -1079.61 4123.0
-934.28 -1110.14 4239.6
-953.65 -1146.65 4379.0
-907.31 -1104.07 4216.4
-870.10 -1098.50 4195.1
-858.86 -1098.04 4193.4
-805.25 -1084.41 4141.3
-817.50 -1115.78 4261.1
-831.67 -1150.67 4394.3
-800.65 -1138.96 4349.6
-786.78 -1135.21 4335.3
-762.05 -1115.47 4259.9
-735.69 -1092.71 4173.0
-728.32 -1097.91 4192.9
-715.13 -1094.36 4179.3
-707.31 -1099.05 4197.2
-707.16 -1115.99 4261.9
-682.18 -1093.66 4176.6
-654.68 -1083.97 4139.6
-636.84 -1108.98 4235.1
-610.09 -1081.04 4128.4
-605.44 -1091.95 4170.1
-570.31 -1129.43 4313.3
-556.69 -1124.51 4294.4
-495.46 -1087.85 4154.4
-485.94 -1090.67 4165.2
-476.26 -1093.24 4175.0
-437.61 -1104.97 4219.8
-446.05 -1155.16 4411.5
-417.83 -1110.55 4241.1
-325.25 -1095.01 4181.8
-321.79 -1120.73 4280.0
-303.47 -1094.65 4180.4
-278.50 -1081.88 4131.6
-275.22 -1111.88 4246.2
-267.97 -1127.73 4306.7
-253.87 -1165.49 4450.9
-232.84 -1119.86 4276.7
-217.32 -1097.49 4191.2
-203.39 -1081.17 4129.0
-170.38 -1147.20 4381.1
-158.75 -1145.28 4373.8
-141.20 -1097.02 4189.5
-131.16 -1103.94 4215.9
-121.62 -1116.68 4264.5
-111.35 -1124.60 4294.8
-103.35 -1159.87 4429.5
-90.93 -1148.03 4384.3
66.84 -1125.08 4296.6
79.57 -1148.08 4384.5
86.20 -1088.26 4156.0
118.53 -1088.32 4156.2
135.73 -1142.42 4362.9
149.35 -1160.31 4431.2
158.05 -1140.21 4354.4
169.36 -1140.36 4355.0
202.54 -1136.46 4340.1
211.67 -1125.20 4297.1
215.52 -1088.38 4156.5
247.75 -1087.94 4154.8
262.15 -1103.20 4213.1
279.04 -1127.30 4305.1
283.77 -1102.35 4209.8
315.85 -1100.01 4200.9
341.76 -1150.58 4394.0
355.33 -1157.69 4421.1
351.60 -1109.74 4238.0
395.03 -1108.29 4232.5
399.45 -1090.38 4164.1
467.50 -1098.07 4193.5
907.72 -1104.57 4218.3
931.18 -1119.63 4275.8
1294.96 -1099.09 4197.4
1403.37 -1116.06 4262.2
-2209.62 -1073.24 4058.5
-2219.00 -1082.96 4095.2
-2163.99 -1076.72 4071.6
-1979.27 -1109.26 4194.7
-1955.87 -1108.33 4191.1
-1900.99 -1101.71 4166.1
-1809.77 -1079.51 4082.2
-1821.98 -1093.19 4133.9
-1752.25 -1083.21 4096.2
-1753.81 -1090.78 4124.8
-1797.60 -1124.88 4253.7
-1722.30 -1084.41 4100.7
-1738.99 -1108.60 4192.2
-1761.08 -1129.75 4272.2
-1668.33 -1097.87 4151.6
-1546.09 -1080.15 4084.6
-1557.92 -1095.92 4144.2
-1596.63 -1130.94 4276.7
-1559.81 -1112.59 4207.3
-1521.97 -1093.24 4134.1
-1521.77 -1100.86 4162.9
-1489.65 -1085.32 4104.1
-1306.88 -1083.76 4098.2
-1278.77 -1096.09 4144.9
-1312.85 -1134.84 4291.4
-1239.86 -1080.90 4087.4
-1256.59 -1114.54 4214.6
-1245.66 -1114.54 4214.7
-1238.28 -1117.74 4226.7
-1196.77 -1089.92 4121.5
-1173.73 -1088.37 4115.7
-1190.42 -1113.97 4212.5
-1176.59 -1111.23 4202.1
-1188.19 -1132.67 4283.2
-1180.39 -1135.85 4295.2
-1123.91 -1091.80 4128.7
-1107.34 -1086.04 4106.9
-1121.85 -1110.96 4201.1
-1078.69 -1078.69 4079.1
-1118.19 -1152.07 4356.6
-1109.93 -1155.23 4368.5
-954.36 -1081.60 4090.1
-960.59 -1100.90 4163.1
-843.18 -1088.67 4116.8
-853.63 -1116.28 4221.2
-804.94 -1094.72 4139.7
-828.31 -1141.72 4317.4
-821.80 -1148.26 4342.2
-794.20 -1125.12 4254.7
-790.00 -1134.92 4291.7
-736.97 -1121.96 4242.7
-687.06 -1112.38 4206.5
-686.39 -1129.23 4270.2
-658.50 -1101.10 4163.8
-668.47 -1136.40 4297.3
-671.17 -1160.33 4387.8
-628.10 -1104.58 4177.0
-613.95 -1098.65 4154.6
-624.52 -1137.51 4301.5
-627.09 -1162.98 4397.8
-591.93 -1161.09 4390.7
-552.73 -1127.57 4263.9
-481.83 -1092.14 4129.9
-481.99 -1117.35 4225.3
-456.06 -1081.81 4090.9
-448.57 -1115.94 4220.0
-419.94 -1127.20 4262.5
-395.41 -1090.04 4122.0
-397.03 -1124.92 4253.9
-390.19 -1137.14 4300.1
-383.37 -1150.12 4349.2
-369.78 -1142.97 4322.2
-350.58 -1117.46 4225.7
-333.34 -1096.78 4147.5
-313.18 -1101.53 4165.4
-263.60 -1120.31 4236.5
-261.40 -1159.27 4383.8
-244.29 -1132.63 4283.0
-225.07 -1093.21 4134.0
-202.40 -1086.59 4108.9
-174.99 -1115.55 4218.5
-172.03 -1169.82 4423.7
-156.02 -1136.72 4298.5
-139.19 -1092.10 4129.8
-129.90 -1104.19 4175.5
-121.90 -1130.34 4274.4
-113.46 -1157.25 4376.1
-76.01 -1107.59 4188.4
-63.83 -1085.14 4103.5
-55.09 -1123.78 4249.6
-45.23 -1153.46 4361.8
-32.06 -1090.09 4122.2
-10.64 -1085.77 4105.9
32.64 -1109.77 4196.6
43.74 -1115.37 4217.8
53.37 -1088.75 4117.1
80.54 -1173.54 4437.7
96.70 -1095.98 4144.4
139.77 -1096.69 4147.2
155.53 -1133.14 4285.0
163.24 -1110.04 4197.6
175.67 -1119.90 4234.9
193.23 -1159.37 4384.2
206.74 -1171.50 4430.1
210.20 -1128.47 4267.3
268.47 -1140.98 4314.6
316.51 -1152.99 4360.0
321.88 -1132.13 4281.2
331.19 -1126.06 4258.2
346.43 -1139.86 4310.4
342.18 -1090.71 4124.5
450.07 -1093.03 4133.3
469.34 -1113.33 4210.1
486.53 -1102.81 4170.3
527.33 -1169.30 4421.7
510.09 -1107.01 4186.2
758.29 -1104.94 4178.4
793.85 -1140.46 4312.7
787.45 -1115.56 4218.5
799.49 -1102.00 4167.2
846.88 -1151.76 4355.4
830.08 -1114.06 4212.8
925.45 -1097.63 4150.7
980.00 -1098.47 4153.9
993.60 -1101.60 4165.7
1163.58 -1109.21 4194.5
1833.27 -1133.29 4285.6
1816.62 -1116.24 4221.1
1915.63 -1122.96 4246.5
-2175.00 -1098.16 4112.4
-2249.93 -1141.59 4275.0
-2225.76 -1134.92 4250.0
-2061.59 -1083.39 4057.1
-1844.22 -1110.85 4159.9
-1891.83 -1153.01 4317.8
-1798.93 -1102.91 4130.2
-1746.98 -1077.48 4034.9
-1756.88 -1090.11 4082.3
-1758.16 -1097.52 4110.0
-1718.57 -1099.46 4117.2
-1712.72 -1102.57 4128.9
-1657.81 -1094.58 4099.0
-1637.36 -1088.05 4074.5
-1555.58 -1089.96 4081.7
-1548.65 -1092.54 4091.3
-1534.30 -1097.45 4109.7
-1500.12 -1144.53 4286.0
-1478.55 -1145.04 4287.9
-1402.61 -1094.46 4098.5
-1349.60 -1094.55 4098.9
-1325.55 -1110.01 4156.8
-1311.31 -1107.09 4145.8
-1292.77 -1100.46 4121.0
-1251.16 -1082.94 4055.4
-1321.53 -1163.40 4356.7
-1233.83 -1095.55 4102.6
-1208.51 -1082.40 4053.4
-1196.87 -1081.38 4049.6
-1157.87 -1104.26 4135.3
-1124.57 -1113.75 4170.8
-1081.71 -1081.71 4050.8
-1089.92 -1100.61 4121.5
-1092.88 -1114.52 4173.7
-1053.54 -1085.15 4063.7
-1046.99 -1089.29 4079.2
-1076.83 -1131.77 4238.3
-1025.38 -1088.80 4077.3
-1030.38 -1117.15 4183.5
-965.85 -1093.21 4093.9
-979.50 -1120.99 4197.9
-950.64 -1100.18 4120.0
-914.71 -1082.94 4055.4
-925.94 -1108.97 4152.9
-893.57 -1082.79 4054.8
-866.75 -1088.72 4077.0
-842.86 -1098.91 4115.2
-858.85 -1134.12 4247.1
-811.69 -1085.76 4066.0
-787.51 -1096.13 4104.8
-771.46 -1088.50 4076.2
-761.58 -1089.49 4079.9
-768.49 -1114.85 4174.9
-768.87 -1131.34 4236.6
-747.99 -1116.57 4181.3
-725.54 -1098.98 4115.4
-688.91 -1091.66 4088.0
-671.04 -1097.10 4108.4
-673.53 -1118.93 4190.2
-647.51 -1093.34 4094.3
-665.52 -1142.48 4278.4
-621.92 -1164.69 4361.5
-585.49 -1137.84 4261.0
-575.28 -1139.49 4267.2
-546.04 -1124.85 4212.3
-506.38 -1109.72 4155.7
-497.35 -1113.63 4170.3
-496.53 -1136.50 4256.0
-492.31 -1152.46 4315.7
-460.80 -1103.78 4133.4
-440.41 -1106.40 4143.3
-442.76 -1169.35 4379.0
-428.48 -1161.41 4349.3
-398.59 -1173.00 4392.6
-374.64 -1134.95 4250.1
-285.36 -1088.58 4076.5
-255.93 -1098.37 4113.2
-252.72 -1131.76 4238.2
-240.78 -1127.28 4221.4
-224.24 -1099.87 4118.8
-211.69 -1090.22 4082.6
-203.13 -1101.17 4123.7
-195.39 -1118.05 4186.9
-187.23 -1134.42 4248.2
-176.16 -1134.02 4246.7
-165.35 -1135.42 4251.9
-154.41 -1136.04 4254.2
-142.52 -1129.17 4228.5
-127.81 -1097.02 4108.1
-107.47 -1106.97 4145.4
-100.56 -1150.89 4309.8
-89.23 -1148.89 4302.3
-74.52 -1096.58 4106.5
-54.06 -1113.68 4170.5
-45.23 -1164.80 4361.9
-32.48 -1115.29 4176.5
21.42 -1102.92 4130.2
32.76 -1124.83 4212.3
43.33 -1115.78 4178.4
89.29 -1149.66 4305.2
97.50 -1115.81 4178.5
139.49 -1105.19 4138.7
148.45 -1092.20 4090.1
275.18 -1133.74 4245.6
288.22 -1141.80 4275.8
345.74 -1148.76 4301.9
347.64 -1118.95 4190.3
435.36 -1121.06 4198.1
455.74 -1144.90 4287.4
448.00 -1098.68 4114.3
489.47 -1120.35 4195.5
531.87 -1165.58 4364.9
548.81 -1108.38 4150.6
556.55 -1102.40 4128.3
612.01 -1105.91 4141.4
736.45 -1115.51 4177.4
784.78 -1171.48 4387.0
760.41 -1118.89 4190.0
834.24 -1130.62 4233.9
1148.13 -1105.21 4138.8
1824.91 -1118.85 4189.9
-2408.51 -1098.62 4074.6
-2083.91 -1083.63 4019.0
-2102.32 -1098.70 4074.8
-2057.87 -1080.90 4008.8
-1792.05 -1089.90 4042.2
-1823.12 -1115.32 4136.5
-1820.65 -1120.40 4155.3
-1768.47 -1094.77 4060.3
-1742.10 -1091.43 4047.9
-1801.09 -1135.23 4210.3
-1765.16 -1119.37 4151.5
-1759.34 -1122.52 4163.2
-1793.87 -1158.77 4297.6
-1700.61 -1105.40 4099.7
-1683.46 -1129.55 4189.3
-1685.27 -1145.55 4248.6
-1584.62 -1084.21 4021.1
-1577.12 -1100.81 4082.7
-1616.10 -1135.64 4211.8
-1561.94 -1105.05 4098.4
-1445.71 -1105.54 4100.2
-1471.39 -1133.52 4204.0
-1456.83 -1130.67 4193.4
-1427.14 -1115.96 4138.9
-1373.50 -1090.42 4044.1
-1405.54 -1133.15 4202.6
-1351.42 -1098.03 4072.4
-1359.40 -1113.21 4128.7
-1319.47 -1115.65 4137.7
-1331.86 -1135.35 4210.8
-1304.76 -1121.44 4159.2
-1269.30 -1128.27 4184.5
-1269.62 -1138.28 4221.6
-1242.36 -1123.53 4166.9
-1223.59 -1116.26 4140.0
-1183.45 -1089.19 4039.6
-1148.96 -1086.29 4028.8
-1129.32 -1097.66 4071.0
-1145.80 -1145.80 4249.5
-1077.80 -1088.27 4036.2
-1105.45 -1138.28 4221.7
-1102.44 -1146.53 4252.3
-1060.06 -1113.60 4130.1
-1045.91 -1109.95 4116.6
-1014.48 -1110.59 4118.9
-1007.80 -1115.01 4135.3
-967.03 -1105.18 4098.9
-986.81 -1140.31 4229.2
-991.59 -1158.71 4297.4
-947.34 -1132.46 4200.0
-921.37 -1114.21 4132.4
-946.91 -1158.58 4296.9
-894.65 -1121.00 4157.6
-857.46 -1100.93 4083.1
-849.25 -1104.02 4094.6
-863.09 -1136.22 4214.0
-864.45 -1152.60 4274.7
-845.25 -1141.63 4234.1
-826.06 -1130.40 4192.4
-804.49 -1115.56 4137.4
-798.86 -1122.72 4163.9
-792.37 -1128.85 4186.7
-791.61 -1143.44 4240.8
-783.76 -1148.04 4257.8
-766.84 -1139.30 4225.4
-739.69 -1114.90 4134.9
-714.68 -1093.03 4053.8
-721.16 -1119.42 4151.7
-688.06 -1135.85 4212.6
-639.26 -1108.04 4109.5
-661.85 -1166.65 4326.9
-646.56 -1159.34 4299.8
-642.13 -1171.61 4345.2
-609.71 -1132.31 4199.5
-558.52 -1117.04 4142.9
-569.23 -1160.77 4305.1
-543.34 -1130.14 4191.4
-514.86 -1092.76 4052.8
-492.23 -1112.86 4127.4
-490.95 -1134.64 4208.2
-489.92 -1157.99 4294.7
-464.14 -1122.58 4163.4
-441.97 -1094.39 4058.9
-423.33 -1100.65 4082.1
-414.59 -1105.58 4100.4
-407.75 -1115.95 4138.8
-402.19 -1130.47 4192.7
-380.73 -1099.87 4079.2
-330.05 -1107.25 4106.6
-331.67 -1149.78 4264.3
-305.10 -1094.16 4058.0
-261.88 -1134.83 4208.8
-252.04 -1139.67 4226.8
-235.84 -1114.88 4134.8
-221.27 -1095.79 4064.1
-181.59 -1110.87 4120.0
-174.08 -1131.54 4196.6
-158.83 -1101.21 4084.2
-140.34 -1122.74 4164.0
-132.65 -1149.63 4263.7
-95.88 -1107.95 4109.2
-32.08 -1112.11 4124.6
-21.43 -1114.21 4132.4
10.56 -1098.08 4072.5
21.35 -1110.30 4117.9
31.97 -1108.46 4111.1
118.08 -1116.40 4140.5
134.69 -1167.33 4329.4
145.25 -1162.03 4309.7
172.88 -1123.74 4167.7
179.59 -1098.65 4074.7
320.06 -1109.54 4115.0
344.75 -1156.56 4289.5
340.79 -1107.55 4107.7
364.65 -1115.40 4136.8
373.98 -1111.27 4121.5
442.68 -1122.90 4164.6
448.45 -1110.45 4118.4
511.31 -1131.41 4196.2
516.55 -1119.19 4150.8
549.85 -1121.26 4158.5
558.39 -1116.78 4141.9
561.58 -1101.96 4087.0
680.68 -1106.11 4102.3
701.32 -1122.12 4161.7
703.84 -1109.08 4113.4
852.78 -1108.61 4111.6
866.00 -1111.90 4123.8
1266.55 -1135.53 4211.4
1299.10 -1154.75 4282.7
1338.01 -1131.32 4195.8
1424.71 -1194.92 4431.7
1382.02 -1149.84 4264.5
1501.50 -1115.40 4136.8
1619.70 -1186.26 4399.6
-2370.66 -1091.75 4010.5
-2193.00 -1091.30 4008.9
-2105.06 -1099.66 4039.6
-2149.93 -1128.72 4146.3
-2103.00 -1109.62 4076.2
-2011.44 -1088.66 3999.2
-2082.16 -1132.78 4161.2
-2031.84 -1111.16 4081.8
-1795.00 -1121.87 4121.2
-1852.59 -1164.80 4278.9
-1797.88 -1137.21 4177.5
-1769.17 -1125.84 4135.7
-1698.13 -1087.22 3993.9
-1700.64 -1102.27 4049.1
-1678.54 -1094.70 4021.3
-1612.37 -1092.25 4012.3
-1605.47 -1094.64 4021.1
-1542.68 -1087.12 3993.5
-1556.84 -1104.52 4057.4
-1519.78 -1100.53 4042.8
-1515.59 -1105.12 4059.6
-1484.71 -1090.17 4004.7
-1486.20 -1098.95 4037.0
-1465.26 -1091.15 4008.3
-1447.57 -1109.45 4075.5
-1435.52 -1108.31 4071.3
-1409.73 -1096.46 4027.8
-1402.89 -1099.28 4038.2
-1387.16 -1095.12 4022.9
-1368.35 -1088.46 3998.4
-1433.42 -1148.92 4220.5
-1405.32 -1143.87 4202.0
-1371.66 -1125.19 4133.3
-1398.26 -1156.04 4246.7
-1371.42 -1142.85 4198.2
-1335.84 -1122.10 4122.0
-1287.28 -1090.04 4004.2
-1332.23 -1146.59 4212.0
-1296.68 -1134.60 4167.9
-1248.53 -1101.64 4046.8
-1225.29 -1090.30 4005.2
-1226.12 -1100.37 4042.2
-1225.10 -1108.93 4073.6
-1196.82 -1092.75 4014.2
-1205.30 -1110.15 4078.1
-1187.63 -1103.55 4053.8
-1168.51 -1157.48 4252.0
-1147.02 -1147.02 4213.5
-1128.73 -1139.59 4186.2
-1087.37 -1108.48 4072.0
-1060.65 -1091.85 4010.9
-1084.93 -1127.89 4143.3
-1009.50 -1092.75 4014.2
-985.43 -1100.74 4043.6
-988.40 -1140.47 4189.5
-966.21 -1127.24 4140.9
-928.60 -1095.54 4024.4
-980.78 -1170.25 4298.9
-946.45 -1155.55 4244.9
-906.06 -1160.19 4261.9
-877.37 -1137.34 4178.0
-845.18 -1109.30 4075.0
-835.60 -1110.60 4079.8
-860.07 -1157.79 4253.1
-860.98 -1174.06 4312.9
-849.44 -1173.57 4311.1
-836.25 -1170.75 4300.7
-804.23 -1172.83 4308.4
-778.36 -1151.10 4228.5
-740.55 -1143.50 4200.6
-729.79 -1143.71 4201.4
-681.40 -1135.66 4171.8
-605.22 -1095.66 4024.9
-612.07 -1127.51 4141.9
-607.79 -1139.60 4186.3
-593.87 -1133.75 4164.8
-584.60 -1136.73 4175.7
-584.48 -1157.93 4253.6
-563.19 -1137.21 4177.5
-540.64 -1113.08 4088.9
-550.80 -1156.69 4249.1
-536.72 -1174.08 4312.9
-493.12 -1101.64 4046.8
-480.45 -1121.06 4118.2
-484.24 -1155.57 4245.0
-463.09 -1130.81 4154.0
-443.77 -1109.43 4075.4
-431.28 -1104.49 4057.3
-369.21 -1107.62 4068.8
-345.53 -1170.33 4299.2
-310.33 -1123.61 4127.6
-296.96 -1113.59 4090.7
-291.19 -1132.39 4159.8
-252.54 -1104.88 4058.7
-243.20 -1110.28 4078.6
-233.10 -1112.54 4086.9
-222.43 -1112.16 4085.5
-217.31 -1140.90 4191.1
-211.93 -1171.21 4302.4
-194.05 -1131.98 4158.3
-183.12 -1131.06 4154.9
-172.57 -1132.49 4160.2
-129.47 -1132.88 4161.6
-94.49 -1102.38 4049.6
-84.44 -1108.22 4071.0
-73.34 -1100.13 4041.3
-41.76 -1096.30 4027.2
-33.54 -1173.81 4312.0
11.08 -1163.33 4273.5
22.03 -1156.49 4248.3
32.34 -1131.79 4157.6
119.63 -1141.89 4194.7
131.57 -1151.26 4229.1
136.09 -1099.19 4037.8
162.81 -1139.68 4186.6
186.95 -1154.68 4241.7
191.67 -1118.08 4107.2
205.95 -1138.15 4181.0
278.76 -1125.76 4135.5
300.15 -1167.25 4287.8
311.07 -1166.52 4285.2
324.73 -1175.75 4319.1
329.73 -1154.05 4239.4
329.83 -1117.17 4103.9
354.13 -1161.98 4268.5
368.86 -1106.57 4065.0
433.32 -1109.71 4076.5
457.67 -1144.17 4203.1
456.46 -1114.62 4094.5
498.37 -1113.38 4090.0
521.22 -1140.18 4188.4
517.93 -1109.85 4077.0
528.84 -1110.56 4079.6
551.90 -1136.27 4174.0
562.93 -1136.69 4175.6
573.31 -1135.80 4172.3
687.39 -1110.41 4079.0
697.04 -1108.93 4073.6
945.91 -1168.47 4292.3
956.12 -1167.36 4288.3
1012.23 -1118.78 4109.8
1334.68 -1130.18 4151.7
1510.77 -1141.23 4192.3
1489.06 -1116.79 4102.5
1509.16 -1123.84 4128.4
-2273.98 -1105.70 4023.4
-2290.24 -1118.74 4070.9
-2236.94 -1097.76 3994.5
-2084.65 -1099.37 4000.4
-2125.54 -1126.54 4099.3
-2096.10 -1116.51 4062.8
-2028.47 -1114.08 4053.9
-2063.79 -1163.63 4234.2
-1876.30 -1130.05 4112.0
-1869.76 -1132.54 4121.1
-1804.14 -1099.07 3999.3
-1801.37 -1103.73 4016.3
-1781.13 -1097.67 3994.2
-1739.62 -1091.12 3970.4
-1830.36 -1161.79 4227.5
-1716.76 -1096.25 3989.0
-1566.27 -1099.50 4000.9
-1588.78 -1122.74 4085.4
-1601.48 -1139.31 4145.7
-1580.58 -1132.03 4119.3
-1493.71 -1099.53 4001.0
-1448.33 -1120.61 4077.7
-1497.77 -1167.38 4247.9
-1452.71 -1140.64 4150.6
-1443.67 -1142.01 4155.6
-1429.24 -1139.09 4145.0
-1409.84 -1132.14 4119.7
-1374.68 -1112.33 4047.6
-1332.35 -1094.80 3983.8
-1374.49 -1138.25 4141.9
-1363.67 -1156.39 4207.9
-1309.90 -1119.75 4074.6
-1275.27 -1099.01 3999.1
-1310.71 -1138.81 4143.9
-1330.98 -1165.98 4242.8
-1264.00 -1116.53 4062.9
-1237.22 -1102.06 4010.2
-1236.71 -1110.94 4042.5
-1209.38 -1095.67 3987.0
-1192.78 -1099.43 4000.6
-1248.15 -1160.56 4223.1
-1230.40 -1154.18 4199.8
-1162.88 -1100.58 4004.8
-1051.21 -1103.25 4014.5
-1087.25 -1152.49 4193.7
-1013.82 -1107.88 4031.4
-985.73 -1111.57 4044.8
-1011.56 -1152.96 4195.4
-935.69 -1127.08 4101.2
-960.61 -1170.40 4258.9
-953.63 -1175.40 4277.1
-922.45 -1150.34 4185.9
-914.73 -1154.30 4200.3
-838.16 -1124.63 4092.3
-810.53 -1101.49 4008.1
-823.57 -1133.75 4125.5
-816.43 -1138.70 4143.5
-806.79 -1140.26 4149.2
-814.94 -1167.35 4247.8
-804.65 -1168.39 4251.6
-781.22 -1150.13 4185.1
-761.09 -1136.27 4134.7
-774.31 -1172.52 4266.6
-766.46 -1177.45 4284.5
-719.63 -1121.78 4081.9
-709.01 -1121.71 4081.7
-725.41 -1165.05 4239.4
-712.78 -1162.37 4229.7
-690.39 -1143.47 4160.9
-668.20 -1124.28 4091.0
-653.25 -1116.85 4064.0
-661.95 -1150.28 4185.6
-664.25 -1173.50 4270.1
-637.07 -1144.57 4164.9
-629.65 -1150.74 4187.3
-598.93 -1154.30 4200.3
-561.48 -1102.17 4010.6
-571.23 -1142.46 4157.2
-565.40 -1152.55 4193.9
-491.82 -1133.32 4123.9
-494.67 -1165.23 4240.1
-488.73 -1177.41 4284.4
-462.90 -1141.10 4152.3
-437.84 -1105.03 4021.0
-388.57 -1144.11 4163.2
-377.94 -1144.63 4165.1
-351.42 -1164.09 4235.9
-338.89 -1158.77 4216.6
-311.56 -1100.86 4005.8
-298.86 -1131.39 4116.9
-288.76 -1177.25 4283.8
-211.43 -1120.57 4077.5
-167.94 -1112.60 4048.5
-93.46 -1100.76 4005.4
-84.46 -1119.10 4072.2
-74.06 -1121.53 4081.1
-44.03 -1166.69 4245.4
-33.50 -1183.68 4307.2
-22.00 -1166.21 4243.6
11.12 -1179.20 4290.9
22.11 -1171.77 4263.9
32.02 -1131.21 4116.3
94.25 -1110.03 4039.2
107.34 -1137.78 4140.2
120.98 -1165.78 4242.1
129.93 -1147.69 4176.2
183.26 -1142.67 4158.0
288.05 -1174.34 4273.2
292.88 -1149.83 4184.0
309.40 -1130.93 4115.2
329.29 -1163.49 4233.7
323.20 -1105.14 4021.4
342.73 -1135.30 4131.2
362.99 -1131.67 4117.9
464.37 -1171.97 4264.6
463.01 -1141.36 4153.2
492.84 -1135.68 4132.5
535.73 -1113.49 4051.8
550.58 -1122.33 4084.0
566.24 -1132.48 4120.9
757.93 -1147.72 4176.3
900.21 -1122.61 4085.0
1051.28 -1137.10 4137.7
1049.14 -1123.32 4087.6
-2334.41 -1090.75 3931.9
-2221.87 -1095.58 3949.3
-1984.97 -1123.77 4051.0
-1975.52 -1124.36 4053.1
-1848.99 -1117.75 4029.3
-1815.69 -1103.86 3979.2
-1830.31 -1145.28 4128.5
-1646.47 -1108.00 3994.1
-1660.28 -1124.36 4053.1
-1602.83 -1099.38 3963.0
-1598.59 -1103.55 3978.1
-1577.40 -1103.15 3976.6
-1570.17 -1105.31 3984.4
-1566.07 -1109.73 4000.4
-1575.22 -1123.66 4050.6
-1563.21 -1122.58 4046.7
-1581.04 -1143.05 4120.5
-1520.95 -1107.09 3990.8
-1524.01 -1140.34 4110.7
-1414.76 -1104.96 3983.2
-1453.12 -1143.26 4121.2
-1425.63 -1129.95 4073.2
-1402.49 -1119.90 4037.0
-1367.84 -1100.45 3966.9
-1320.67 -1104.00 3979.7
-1327.93 -1118.81 4033.1
-1337.04 -1135.42 4093.0
-1313.06 -1123.98 4051.7
-1309.10 -1129.63 4072.1
-1322.96 -1150.87 4148.7
-1259.48 -1104.62 3982.0
-1310.27 -1178.14 4247.0
-1286.07 -1176.15 4239.8
-1233.90 -1138.17 4102.9
-1233.74 -1147.92 4138.0
-1212.92 -1169.21 4214.8
-1146.58 -1115.31 4020.5
-1124.54 -1145.96 4131.0
-1110.74 -1142.78 4119.5
-1066.33 -1107.74 3993.2
-1062.54 -1114.63 4018.0
-1071.59 -1135.25 4092.3
-1041.25 -1114.13 4016.2
-1015.83 -1097.92 3957.8
-1074.16 -1172.81 4227.8
-1054.16 -1162.83 4191.8
-979.16 -1114.58 4017.8
-1013.64 -1166.23 4204.0
-961.00 -1129.97 4073.3
-930.16 -1130.99 4077.0
-945.98 -1163.45 4194.0
-905.34 -1126.41 4060.5
-867.25 -1174.63 4234.3
-841.19 -1153.94 4159.7
-790.67 -1158.93 4177.7
-784.96 -1166.54 4205.2
-782.78 -1179.68 4252.5
-740.27 -1164.83 4199.0
-733.81 -1171.90 4224.5
-698.00 -1166.97 4206.7
-669.63 -1137.31 4099.8
-658.64 -1136.69 4097.6
-672.97 -1180.46 4255.3
-624.08 -1151.32 4150.3
-587.03 -1101.97 3972.4
-606.44 -1158.74 4177.0
-594.46 -1156.49 4168.9
-548.41 -1107.17 3991.1
-543.52 -1118.39 4031.6
-510.82 -1115.46 4021.0
-488.86 -1112.93 4011.9
-476.88 -1109.26 3998.7
-454.87 -1106.16 3987.5
-443.26 -1103.00 3976.1
-424.55 -1164.78 4198.8
-405.17 -1171.71 4223.8
-382.31 -1168.78 4213.2
-354.88 -1116.82 4025.9
-359.55 -1165.80 4202.5
-312.48 -1114.51 4017.6
-291.75 -1114.91 4019.0
-299.28 -1186.04 4275.5
-284.81 -1172.10 4225.2
-242.20 -1126.73 4061.7
-229.06 -1114.08 4016.0
-200.75 -1130.53 4075.3
-167.27 -1118.61 4032.4
-83.46 -1116.34 4024.2
-76.58 -1170.65 4220.0
-63.58 -1133.81 4087.2
-52.78 -1129.57 4071.9
-44.21 -1182.53 4262.8
-32.15 -1146.74 4133.8
-10.54 -1127.79 4065.5
0.00 -1148.37 4139.7
10.61 -1135.01 4091.5
21.43 -1146.49 4132.9
31.60 -1127.23 4063.4
64.25 -1145.84 4130.5
78.16 -1194.70 4306.7
86.58 -1158.03 4174.5
94.70 -1125.90 4058.7
104.39 -1117.02 4026.6
114.25 -1111.33 4006.1
126.60 -1128.89 4069.4
134.48 -1106.89 3990.1
194.61 -1156.83 4170.1
198.19 -1116.11 4023.4
266.36 -1140.01 4109.5
286.04 -1177.17 4243.5
325.54 -1123.62 4050.5
398.26 -1121.41 4042.5
455.29 -1159.92 4181.3
446.57 -1111.24 4005.8
485.86 -1155.26 4164.5
500.97 -1165.30 4200.7
488.04 -1111.07 4005.2
550.38 -1111.14 4005.5
702.61 -1122.07 4044.9
756.92 -1157.01 4170.8
753.79 -1135.99 4095.0
785.33 -1135.55 4093.4
789.88 -1126.89 4062.2
933.02 -1147.51 4136.6
941.32 -1144.56 4125.9
1730.22 -1142.80 4119.6
1734.86 -1138.83 4105.3
-2463.73 -1094.99 3910.7
-2331.93 -1095.00 3910.7
-2394.78 -1129.41 4033.6
-2319.11 -1098.53 3923.3
-1928.60 -1096.25 3915.2
-1867.90 -1120.74 4002.6
-1833.00 -1118.44 3994.4
-1800.19 -1104.66 3945.2
-1782.94 -1126.07 4021.7
-1632.19 -1101.73 3934.7
-1650.31 -1120.97 4003.5
-1645.74 -1124.93 4017.6
-1580.34 -1101.14 3932.6
-1614.52 -1132.26 4043.8
-1577.55 -1113.56 3977.0
-1500.76 -1102.60 3937.9
-1489.14 -1124.67 4016.7
-1491.59 -1134.45 4051.6
-1444.51 -1114.33 3979.8
-1460.22 -1134.56 4052.0
-1430.96 -1119.88 3999.6
-1393.40 -1123.04 4010.8
-1345.35 -1109.15 3961.2
-1364.47 -1133.56 4048.4
-1324.92 -1109.23 3961.5
-1330.45 -1131.40 4040.7
-1347.41 -1164.16 4157.7
-1326.93 -1155.72 4127.6
-1330.37 -1168.13 4171.9
-1248.21 -1104.98 3946.3
-1270.49 -1143.44 4083.7
-1259.21 -1152.50 4116.1
-1261.44 -1164.41 4158.6
-1234.53 -1149.39 4105.0
-1201.80 -1128.64 4030.9
-1220.60 -1156.36 4129.8
-1211.50 -1157.89 4135.3
-1201.29 -1158.39 4137.1
-1216.17 -1183.30 4226.1
-1190.09 -1168.46 4173.1
-1146.94 -1136.42 4058.6
-1104.07 -1104.07 3943.1
-1120.03 -1152.03 4114.4
-1116.32 -1159.26 4140.2
-1052.21 -1103.29 3940.3
-1047.20 -1119.78 3999.2
-1033.49 -1150.68 4109.6
-983.09 -1105.98 3949.9
-1011.90 -1162.61 4152.2
-991.06 -1150.90 4110.4
-958.55 -1125.26 4018.8
-953.08 -1131.12 4039.7
-928.86 -1114.63 3980.8
-909.05 -1103.12 3939.7
-934.50 -1146.89 4096.0
-932.89 -1171.54 4184.1
-848.55 -1104.14 3943.3
-828.28 -1118.18 3993.5
-828.96 -1133.26 4047.4
-849.63 -1176.41 4201.5
-846.87 -1187.81 4242.2
-828.05 -1176.70 4202.5
-797.36 -1163.71 4156.1
-775.28 -1146.99 4096.4
-786.40 -1179.60 4212.9
-764.47 -1162.85 4153.0
-756.78 -1167.60 4170.0
-718.48 -1158.15 4136.2
-705.77 -1154.89 4124.6
-704.00 -1169.72 4177.6
-694.70 -1172.31 4186.8
-657.70 -1127.48 4026.7
-638.48 -1112.19 3972.1
-636.55 -1127.00 4025.0
-641.75 -1155.15 4125.5
-631.55 -1175.99 4200.0
-591.01 -1119.82 3999.3
-611.45 -1179.22 4211.5
-567.86 -1157.14 4132.7
-527.43 -1139.24 4068.7
-517.09 -1188.20 4243.6
-483.52 -1135.23 4054.4
-450.55 -1131.61 4041.5
-451.97 -1162.20 4150.7
-446.31 -1175.65 4198.7
-434.74 -1173.79 4192.1
-392.03 -1144.29 4086.8
-382.95 -1148.85 4103.0
-384.49 -1186.43 4237.3
-327.06 -1177.41 4205.0
-304.59 -1134.33 4051.2
-308.64 -1190.48 4251.7
-261.51 -1129.71 4034.7
-251.50 -1131.76 4042.0
-246.85 -1159.12 4139.7
-231.82 -1138.01 4064.3
-216.23 -1112.04 3971.6
-199.05 -1131.44 4040.9
-174.54 -1178.15 4207.7
-158.52 -1141.35 4076.3
-149.01 -1149.54 4105.5
-138.35 -1149.37 4104.9
-125.35 -1128.16 4029.2
-86.22 -1164.03 4157.3
-77.09 -1189.43 4247.9
-62.05 -1116.95 3989.1
-41.05 -1108.39 3958.5
-30.83 -1110.04 3964.4
-10.41 -1123.81 4013.6
0.00 -1135.14 4054.1
10.32 -1114.38 3979.9
20.76 -1120.84 4003.0
31.57 -1136.46 4058.8
62.70 -1128.54 4030.5
74.51 -1149.53 4105.5
105.22 -1136.41 4058.6
155.19 -1117.37 3990.6
191.92 -1151.51 4112.5
252.34 -1135.53 4055.5
361.34 -1114.99 3982.1
391.95 -1113.96 3978.4
402.56 -1114.77 3981.3
465.55 -1117.33 3990.5
526.32 -1114.55 3980.5
536.72 -1114.73 3981.2
566.02 -1153.40 4119.3
583.32 -1166.65 4166.6
603.41 -1143.31 4083.2
640.87 -1193.34 4261.9
647.90 -1185.98 4235.6
642.79 -1157.02 4132.2
749.46 -1140.02 4071.5
773.66 -1160.49 4144.6
773.84 -1144.86 4088.8
785.91 -1147.01 4096.5
794.70 -1144.37 4087.1
847.48 -1144.09 4086.0
858.65 -1144.86 4088.8
879.07 -1130.24 4036.6
919.40 -1168.18 4172.1
937.09 -1176.81 4202.9
923.58 -1120.75 4002.7
1545.86 -1143.51 4084.0
1587.58 -1166.39 4165.7
1550.65 -1131.55 4041.3
-2135.32 -1103.08 3903.4
-1943.12 -1108.90 3924.0
-1925.84 -1166.20 4126.8
-1899.80 -1156.86 4093.7
-1854.82 -1135.81 4019.3
-1897.00 -1168.21 4133.9
-1851.83 -1146.87 4058.4
-1679.80 -1144.37 4049.5
-1660.19 -1152.62 4078.7
-1596.72 -1130.14 3999.2
-1554.50 -1107.46 3918.9
-1517.08 -1124.91 3980.7
-1498.05 -1118.41 3957.7
-1459.02 -1112.12 3935.4
-1504.72 -1155.03 4087.3
-1463.77 -1131.57 4004.2
-1463.75 -1139.64 4032.8
-1446.89 -1134.61 4015.0
-1435.96 -1134.20 4013.5
-1414.35 -1125.29 3982.0
-1398.35 -1120.74 3965.9
-1451.68 -1172.10 4147.7
-1430.60 -1163.70 4117.9
-1337.53 -1104.48 3908.4
-1384.92 -1152.34 4077.7
-1368.57 -1147.49 4060.6
-1302.32 -1109.01 3924.4
-1298.40 -1160.05 4105.0
-1271.31 -1145.23 4052.6
-1262.53 -1146.80 4058.1
-1214.16 -1112.13 3935.4
-1203.93 -1112.10 3935.3
-1234.32 -1149.92 4069.2
-1208.46 -1135.54 4018.3
-1182.02 -1120.35 3964.5
-1192.75 -1140.44 4035.6
-1177.37 -1135.69 4018.8
-1153.35 -1142.87 4044.2
-1180.07 -1180.07 4175.9
-1149.95 -1160.59 4107.0
-1070.16 -1110.93 3931.2
-1085.73 -1137.93 4026.7
-1048.98 -1132.06 4006.0
-1040.65 -1134.31 4013.9
-1010.23 -1112.27 3935.9
-1015.56 -1129.55 3997.1
-1032.36 -1160.07 4105.1
-1007.85 -1144.33 4049.4
-1009.91 -1158.74 4100.4
-1010.54 -1184.39 4191.2
-957.49 -1134.42 4014.3
-929.22 -1113.02 3938.6
-920.16 -1114.41 3943.5
-916.48 -1122.44 3971.9
-934.97 -1158.09 4098.1
-897.02 -1150.30 4070.5
-871.94 -1131.45 4003.8
-858.75 -1127.75 3990.7
-831.55 -1118.99 3959.7
-820.50 -1117.93 3956.0
-819.85 -1145.69 4054.2
-809.71 -1146.22 4056.1
-733.91 -1111.05 3931.6
-714.30 -1112.27 3936.0
-745.28 -1177.33 4166.2
-714.38 -1145.10 4052.1
-707.09 -1167.77 4132.3
-656.02 -1135.02 4016.5
-632.10 -1111.27 3932.4
-627.10 -1120.55 3965.3
-612.46 -1112.63 3937.2
-609.46 -1125.95 3984.3
-589.59 -1168.47 4134.8
-569.99 -1150.53 4071.3
-543.49 -1117.74 3955.3
-513.96 -1120.42 3964.8
-512.81 -1140.74 4036.7
-523.90 -1189.68 4209.9
-477.83 -1183.73 4188.8
-441.39 -1118.88 3959.3
-440.93 -1144.32 4049.4
-429.12 -1140.83 4037.0
-419.45 -1143.01 4044.7
-423.20 -1182.80 4185.5
-387.52 -1173.33 4152.0
-373.27 -1162.48 4113.6
-362.69 -1162.73 4114.5
-347.74 -1148.61 4064.5
-340.78 -1160.77 4107.6
-337.90 -1188.10 4204.3
-327.29 -1189.14 4208.0
-302.44 -1177.36 4166.3
-284.03 -1146.63 4057.5
-280.74 -1176.94 4164.8
-266.62 -1162.47 4113.6
-247.33 -1123.29 3974.9
-203.83 -1110.86 3931.0
-140.69 -1179.61 4174.2
-126.10 -1145.45 4053.4
-86.21 -1174.56 4156.4
-75.24 -1171.62 4146.0
-62.49 -1135.23 4017.2
-52.29 -1139.89 4033.7
-10.40 -1133.45 4010.9
0.00 -1160.11 4105.2
10.65 -1161.19 4109.1
20.85 -1136.16 4020.5
30.96 -1124.72 3980.0
61.76 -1121.91 3970.1
72.61 -1130.57 4000.7
91.99 -1114.14 3942.6
105.35 -1148.33 4063.5
112.48 -1114.55 3944.0
123.02 -1117.46 3954.3
132.71 -1112.75 3937.6
181.07 -1160.97 4108.3
194.75 -1179.31 4173.2
249.60 -1133.60 4011.4
258.16 -1125.56 3983.0
268.57 -1125.92 3984.3
284.97 -1150.43 4071.0
294.99 -1148.33 4063.6
301.14 -1131.86 4005.3
328.84 -1120.10 3963.7
344.54 -1138.04 4027.1
355.42 -1139.43 4032.0
361.44 -1125.64 3983.3
489.84 -1136.01 4019.9
495.24 -1124.61 3979.6
547.42 -1125.83 3983.9
577.73 -1166.16 4126.6
568.25 -1126.17 3985.1
628.70 -1181.52 4181.0
649.36 -1199.67 4245.2
659.09 -1197.35 4237.0
634.92 -1134.53 4014.7
732.57 -1124.65 3979.8
755.65 -1143.97 4048.1
756.85 -1130.10 3999.0
851.23 -1159.80 4104.2
859.87 -1157.11 4094.6
854.83 -1136.30 4021.0
875.58 -1149.85 4068.9
916.53 -1135.24 4017.2
1039.18 -1167.73 4132.2
1013.43 -1127.18 3988.7
-2237.21 -1103.56 3869.6
-2233.61 -1132.25 3970.2
-2175.15 -1133.96 3976.2
-2077.10 -1114.54 3908.1
-1907.85 -1122.26 3935.2
-1904.08 -1126.07 3948.6
-1865.42 -1121.29 3931.8
-1835.48 -1109.36 3889.9
-1857.60 -1135.20 3980.6
-1849.00 -1136.26 3984.3
-1820.50 -1125.03 3944.9
