ply
format ascii 1.0
element vertex 2174
property float x
property float y
property float z
end_header
-1669.03 704.12 3353.0
-1630.99 699.00 3328.6
-1614.92 695.79 3313.3
-1608.14 700.32 3334.9
-1638.45 717.38 3416.1
-1594.80 702.06 3343.1
-1559.46 690.25 3286.9
-1591.43 708.27 3372.7
-1558.75 697.56 3321.7
-1527.45 695.07 3309.9
-1510.07 691.05 3290.7
-1507.26 701.65 3341.2
-1540.59 721.32 3434.8
-1527.52 719.35 3425.5
-1500.67 715.03 3404.9
-1465.24 702.27 3344.2
-1466.02 724.07 3448.0
-1441.19 716.17 3410.4
-1435.91 717.96 3418.8
-1438.91 723.92 3447.2
-1394.00 705.71 3360.5
-1375.28 700.62 3336.3
-1384.21 709.63 3379.2
-1399.22 721.89 3437.6
-1373.12 712.97 3395.1
-1373.19 717.60 3417.1
-1364.32 722.29 3439.5
-1337.85 712.93 3394.9
-1250.24 698.41 3325.8
-1274.56 716.94 3414.0
-1214.83 692.97 3299.9
-1208.94 694.50 3307.1
-1187.91 702.34 3344.5
-1155.05 687.93 3275.9
-1154.58 692.75 3298.8
-1182.64 714.88 3404.2
-1122.03 699.11 3329.1
-1127.31 707.84 3370.7
-1137.01 719.51 3426.3
-1098.60 700.68 3336.6
-1076.55 697.60 3321.9
-1027.35 711.24 3386.9
-940.88 692.83 3299.2
-904.60 691.25 3291.7
-895.86 691.10 3290.9
-881.51 686.56 3269.3
-887.99 698.32 3325.4
-854.12 691.84 3294.5
-843.68 711.86 3389.8
-840.77 716.87 3413.6
-829.61 714.88 3404.2
-801.35 713.29 3396.6
-782.96 704.67 3355.5
-649.80 701.78 3341.8
-650.66 712.21 3391.5
-644.89 715.57 3407.5
-626.64 704.97 3357.0
-569.47 698.89 3328.1
-561.56 699.79 3332.3
-558.59 706.97 3366.5
-554.98 713.54 3397.8
-549.80 718.29 3420.4
-440.04 698.89 3328.1
-250.89 700.77 3337.0
-105.97 715.28 3406.1
-78.51 706.59 3364.7
17.05 690.32 3287.3
25.49 688.26 3277.4
129.19 697.64 3322.1
173.73 703.61 3350.5
177.13 683.20 3253.3
187.15 689.05 3281.2
209.03 705.47 3359.4
213.65 692.23 3296.3
227.95 710.16 3381.7
360.69 712.59 3393.3
361.44 697.07 3319.4
369.95 696.88 3318.5
380.89 701.18 3339.0
392.39 706.30 3363.3
498.82 708.85 3375.5
492.10 687.25 3272.6
502.62 690.04 3285.9
517.87 699.13 3329.2
593.39 696.59 3317.1
587.39 679.70 3236.6
615.55 702.25 3344.1
629.16 707.80 3370.5
725.81 699.89 3332.8
727.54 693.30 3301.4
747.65 704.18 3353.2
830.90 701.07 3338.4
845.52 706.05 3362.1
874.59 687.79 3275.2
905.75 705.44 3359.2
979.78 702.32 3344.4
977.78 694.74 3308.3
988.77 696.43 3316.4
1009.39 704.83 3356.3
983.24 680.70 3241.4
1040.85 708.48 3373.7
1073.37 706.86 3366.0
1047.40 684.19 3258.1
1083.75 696.70 3317.6
1145.82 703.12 3348.2
1148.51 699.47 3330.8
1208.26 694.11 3305.3
1249.34 707.67 3369.9
1207.77 674.69 3212.8
1279.62 700.33 3334.9
1247.94 678.41 3230.5
1295.81 699.74 3332.1
1322.34 700.06 3333.6
1355.26 686.10 3267.1
1416.73 704.02 3352.5
1444.34 704.77 3356.0
1412.32 685.02 3262.0
1401.83 675.88 3218.5
1428.98 684.90 3261.4
1464.32 689.59 3283.8
1445.06 672.70 3203.3
1513.68 700.62 3336.3
1539.80 700.69 3336.6
1539.97 689.16 3281.7
1575.92 701.37 3339.9
1568.73 694.35 3306.4
1538.17 673.47 3207.0
1629.75 694.79 3308.5
1612.27 683.74 3255.9
1659.19 692.75 3298.8
1700.56 692.19 3296.1
1771.58 703.42 3349.6
1747.96 690.66 3288.9
1781.25 683.80 3256.2
1842.28 703.89 3351.8
1829.99 695.91 3313.9
1812.77 686.14 3267.3
1831.27 689.92 3285.3
1821.96 683.24 3253.5
1812.04 676.38 3220.9
1892.98 703.35 3349.3
1900.10 702.78 3346.6
1855.54 683.18 3253.2
1903.05 697.50 3321.4
1914.63 695.45 3311.7
1944.49 696.92 3318.7
1978.93 703.04 3347.8
1936.69 685.03 3262.1
1984.69 695.93 3314.0
1939.93 674.40 3211.4
1944.56 673.12 3205.3
1955.82 674.13 3210.2
2048.96 700.28 3334.7
2039.44 679.81 3237.2
2131.19 701.73 3341.6
2119.36 695.01 3309.6
2094.42 675.89 3218.5
2101.93 672.95 3204.5
2096.42 668.54 3183.5
2156.83 677.14 3224.5
2247.24 700.10 3333.8
2236.69 694.14 3305.4
2240.26 684.76 3260.8
2251.67 685.66 3265.0
2265.89 687.40 3273.4
2234.58 675.38 3216.1
2283.68 687.65 3274.5
2278.24 678.45 3230.7
2313.52 686.43 3268.7
2322.66 686.63 3269.6
2279.33 666.52 3173.9
2333.98 670.40 3192.4
2433.24 689.14 3281.6
2446.32 685.65 3265.0
2469.01 689.62 3283.9
2421.06 673.90 3209.1
2445.49 678.37 3230.3
2462.22 676.07 3219.4
2505.98 683.45 3254.5
2527.48 682.42 3249.6
2506.71 674.56 3212.2
2536.70 678.13 3229.2
2530.32 669.79 3189.5
2564.96 676.75 3222.6
2566.46 674.95 3214.0
2549.41 668.29 3182.3
2592.22 677.32 3225.3
2674.81 696.66 3317.4
2601.90 675.49 3216.6
-1692.14 701.41 3381.8
-1623.89 687.36 3314.1
-1603.11 682.18 3289.1
-1608.60 688.17 3318.0
-1656.22 712.35 3434.6
-1640.34 713.19 3438.6
-1599.31 699.15 3370.9
-1595.75 705.30 3400.6
-1535.11 689.94 3326.5
-1531.62 692.26 3337.7
-1535.39 705.92 3403.6
-1542.87 713.47 3439.9
-1504.57 699.80 3374.0
-1478.10 691.51 3334.1
-1484.76 711.26 3429.3
-1403.60 706.21 3405.0
-1361.37 689.30 3323.4
-1395.41 711.04 3428.2
-1386.62 711.09 3428.5
-1342.32 692.81 3340.3
-1330.07 690.95 3331.4
-1326.19 693.43 3343.3
-1336.29 703.31 3391.0
-1319.59 713.29 3439.1
-1300.45 712.58 3435.6
-1240.80 684.58 3300.6
-1262.78 701.54 3382.4
-1245.89 706.89 3408.2
-1191.09 695.52 3353.4
-1155.91 679.95 3278.3
-1158.68 686.62 3310.5
-1191.24 711.19 3429.0
-1171.75 704.81 3398.2
-1134.60 687.64 3315.4
-1163.16 710.32 3424.8
-1131.36 707.10 3409.2
-1115.69 702.80 3388.5
-1111.68 705.83 3403.1
-1110.93 710.99 3428.0
-1083.67 710.60 3426.1
-1057.64 699.27 3371.5
-1020.72 697.93 3365.0
-1024.84 706.79 3407.7
-941.03 697.06 3360.8
-941.30 703.78 3393.2
-912.52 695.26 3352.1
-913.72 709.69 3421.7
-874.22 699.38 3372.0
-854.87 697.85 3364.7
-762.74 709.52 3420.9
-735.56 700.53 3377.6
-692.04 683.50 3295.5
-691.40 691.40 3333.6
-682.95 709.56 3421.1
-659.43 694.14 3346.7
-639.09 681.70 3286.8
-645.26 697.58 3363.3
-531.89 686.31 3309.0
-525.35 688.98 3321.9
-529.73 706.31 3405.4
-495.28 707.54 3411.4
-480.66 699.14 3370.9
-455.04 700.05 3375.3
-434.92 695.87 3355.1
-398.04 707.62 3411.7
-383.31 696.92 3360.1
-379.15 705.39 3401.0
-258.64 689.71 3325.4
-248.38 685.18 3303.6
-78.57 698.43 3367.4
-69.79 697.86 3364.7
-61.51 702.97 3389.3
0.00 704.30 3395.7
26.08 695.55 3353.5
138.43 692.15 3337.2
205.06 683.54 3295.6
212.30 679.38 3275.6
250.21 690.25 3328.0
263.96 703.89 3393.7
292.03 687.12 3312.9
297.54 680.09 3279.0
314.53 698.95 3369.9
377.20 685.82 3306.6
384.87 684.21 3298.9
508.96 702.01 3384.7
550.83 699.47 3372.5
558.23 697.79 3364.3
584.18 697.53 3363.1
585.85 689.23 3323.1
594.38 689.14 3322.6
604.13 690.44 3328.9
615.86 693.93 3345.7
614.01 682.23 3289.3
626.27 686.32 3309.0
692.60 692.60 3339.3
695.87 687.28 3313.7
690.66 673.81 3248.7
712.13 686.39 3309.4
727.42 692.79 3340.2
719.25 676.94 3263.8
729.46 678.57 3271.7
756.74 695.86 3355.0
898.79 698.09 3365.8
927.67 693.59 3344.1
973.24 682.98 3292.9
1080.03 696.79 3359.5
1065.86 682.15 3288.9
1137.28 694.52 3348.6
1115.22 675.89 3258.8
1185.14 677.22 3265.2
1181.52 670.37 3232.1
1239.13 698.10 3365.8
1242.87 685.72 3306.2
1258.76 675.85 3258.5
1281.80 683.63 3296.1
1330.07 690.95 3331.4
1336.17 680.85 3282.7
1337.40 664.54 3204.1
1364.28 673.72 3248.3
1361.15 668.05 3221.0
1385.95 676.07 3259.6
1455.41 693.05 3341.5
1424.48 674.31 3251.1
1429.61 672.76 3243.7
1491.77 693.85 3345.3
1439.13 665.49 3208.6
1467.71 667.14 3216.6
1498.05 673.28 3246.2
1518.22 674.76 3253.3
1571.11 694.41 3348.1
1599.71 695.53 3353.4
1572.41 679.96 3278.4
1617.36 695.64 3354.0
1621.09 675.46 3256.7
1605.91 665.66 3209.4
1764.84 688.72 3320.6
1788.28 694.48 3348.4
1789.04 691.42 3333.6
1793.93 689.97 3326.7
1814.44 691.21 3332.6
1832.01 694.60 3349.0
1843.09 692.24 3337.6
1831.16 684.54 3300.5
1812.84 674.54 3252.3
1888.25 680.45 3280.7
1894.69 679.71 3277.2
1861.57 664.85 3205.5
1878.07 664.80 3205.3
1937.95 677.01 3264.2
1919.05 667.50 3218.3
2017.53 686.82 3311.4
2010.56 664.65 3204.6
2060.68 678.41 3270.9
2072.34 671.20 3236.2
2049.58 661.15 3187.7
2073.12 666.06 3211.4
2105.40 671.04 3235.4
2190.40 689.89 3326.3
2144.47 664.95 3206.0
2257.93 692.09 3336.8
2256.69 681.27 3284.7
2353.73 687.22 3313.4
2322.12 670.65 3233.5
2325.41 669.18 3226.4
2403.81 689.26 3323.2
2400.27 685.79 3306.5
2350.74 664.52 3203.9
2403.00 676.90 3263.6
2388.04 670.33 3231.9
2389.58 666.08 3211.5
2420.63 667.76 3219.6
2419.50 665.15 3207.0
2482.63 680.17 3279.4
2484.53 678.37 3270.7
2460.67 669.57 3228.3
2442.65 662.41 3193.8
2447.95 661.61 3189.9
2491.15 671.02 3235.3
2500.44 666.79 3214.9
2492.70 660.32 3183.7
2562.09 672.02 3240.1
2546.74 663.64 3199.7
2576.52 669.23 3226.6
2582.32 668.56 3223.4
2645.00 682.58 3291.0
2662.65 684.93 3302.3
2615.56 658.00 3172.5
2712.41 680.23 3279.7
-1691.09 674.73 3294.3
-1701.17 689.19 3365.0
-1680.45 684.31 3341.1
-1641.49 675.40 3297.6
-1652.03 683.30 3336.2
-1641.97 682.72 3333.3
-1632.79 682.49 3332.2
-1614.56 678.46 3312.5
-1624.71 686.38 3351.2
-1627.87 691.41 3375.8
-1601.99 684.09 3340.1
-1619.86 695.48 3395.7
-1566.35 683.65 3337.9
-1503.57 671.09 3276.6
-1364.52 677.97 3310.2
-1340.75 670.37 3273.1
-1378.99 693.89 3387.9
-1359.24 688.33 3360.8
-1317.19 675.70 3299.1
-1334.75 689.19 3364.9
-1325.00 688.65 3362.3
-1344.26 703.29 3433.8
-1304.00 696.05 3398.5
-1309.21 703.59 3435.3
-1289.22 697.59 3406.0
-1232.72 671.62 3279.2
-1222.47 670.66 3274.5
-1261.41 696.86 3402.4
-1227.42 697.60 3406.0
-1201.36 687.74 3357.9
-1167.64 673.31 3287.4
-1159.38 673.46 3288.1
-1189.37 696.00 3398.2
-1174.85 697.84 3407.2
-1133.43 688.77 3362.9
-1064.05 689.01 3364.1
-1064.31 694.88 3392.7
-1028.57 677.14 3306.1
-1015.22 673.97 3290.6
-1034.95 692.89 3383.0
-1026.90 693.37 3385.4
-1023.63 697.13 3403.7
-983.47 687.56 3357.0
-955.99 674.32 3292.3
-985.54 701.42 3424.6
-906.26 681.85 3329.1
-909.10 697.27 3404.4
-879.62 688.02 3359.2
-872.18 689.02 3364.1
-786.47 698.10 3408.5
-753.58 700.38 3419.6
-704.09 695.29 3394.7
-698.58 698.58 3410.8
-667.34 693.68 3386.9
-648.39 682.97 3334.6
-640.59 683.88 3339.0
-641.71 694.45 3390.6
-484.64 696.12 3398.8
-441.00 683.12 3335.3
-428.59 677.17 3306.3
-415.46 698.32 3409.5
-375.39 674.00 3290.8
-360.22 677.56 3308.2
-356.92 687.72 3357.8
-237.54 695.02 3393.4
-60.95 687.92 3358.7
-52.75 694.57 3391.2
69.98 691.09 3374.2
76.31 669.79 3270.2
85.52 675.57 3298.4
130.85 689.13 3364.7
140.53 693.88 3387.8
260.52 686.04 3349.6
271.62 670.57 3274.0
282.64 676.63 3303.6
313.44 669.23 3267.5
325.48 676.66 3303.7
333.96 676.49 3302.9
406.57 683.38 3336.6
421.26 693.33 3385.1
558.19 689.02 3364.1
578.97 662.88 3236.5
598.13 675.03 3295.8
621.67 691.72 3377.3
626.91 687.86 3358.4
651.57 686.32 3350.9
705.89 688.46 3361.4
692.22 666.90 3256.1
709.38 675.19 3296.6
842.03 685.78 3348.3
907.55 682.82 3333.9
899.49 670.38 3273.1
915.00 675.56 3298.4
1028.64 688.66 3362.4
1117.05 689.43 3366.1
1145.93 685.82 3348.5
1133.25 673.13 3286.5
1117.69 658.94 3217.2
1161.81 679.87 3319.4
1194.13 678.68 3313.6
1300.53 684.95 3344.2
1278.02 668.63 3264.6
1301.59 676.49 3302.9
1318.81 680.96 3324.7
1325.93 680.18 3321.0
1303.72 664.47 3244.3
1306.94 661.85 3231.4
1373.61 665.74 3250.4
1388.10 668.66 3264.7
1459.56 678.27 3311.6
1486.31 686.66 3352.6
1479.20 679.40 3317.1
1457.63 661.80 3231.2
1483.31 669.61 3269.3
1479.76 664.21 3243.0
1520.38 678.59 3313.2
1534.11 680.87 3324.3
1540.02 679.67 3318.5
1541.31 676.47 3302.8
1513.30 660.50 3224.9
1544.53 670.43 3273.3
1613.13 681.48 3327.3
1609.82 676.47 3302.8
1629.76 681.22 3326.0
1617.64 672.60 3283.9
1616.94 665.30 3248.3
1658.12 671.75 3279.8
1678.31 676.46 3302.8
1706.78 667.50 3259.1
1724.92 671.27 3277.5
1750.20 667.95 3261.2
1792.57 674.35 3292.5
1759.60 652.62 3186.4
1789.38 660.56 3225.2
1818.83 668.31 3263.0
1848.94 670.03 3271.4
1923.85 684.61 3342.6
1933.06 678.72 3313.8
1900.20 664.23 3243.1
1963.46 683.32 3336.3
1955.78 674.70 3294.2
1897.59 651.78 3182.3
1968.00 673.04 3286.1
2024.21 683.39 3336.6
2000.47 664.02 3242.1
2005.57 662.93 3236.7
2046.74 665.40 3248.8
2051.31 656.09 3203.3
2148.15 660.33 3224.0
2154.55 659.73 3221.1
2204.35 672.37 3282.8
2239.49 680.46 3322.3
2204.59 667.29 3258.0
2178.87 656.99 3207.7
2190.73 658.05 3212.9
2190.91 655.61 3201.0
2190.48 653.01 3188.3
2224.71 660.72 3226.0
2246.72 664.76 3245.7
2293.33 671.01 3276.2
2262.24 659.47 3219.9
2285.50 661.37 3229.1
2333.70 663.17 3237.9
2321.68 655.05 3198.2
2413.17 671.27 3277.4
2443.38 677.29 3306.8
2498.34 675.92 3300.2
2441.76 658.36 3214.4
2441.13 655.95 3202.7
2440.46 653.55 3190.9
2471.59 659.65 3220.7
2523.88 671.34 3277.8
2542.57 674.04 3291.0
2479.80 650.84 3177.7
2544.44 663.40 3239.0
2530.72 653.36 3190.0
2578.58 661.39 3229.2
2654.14 678.57 3313.1
2629.75 670.16 3272.0
2569.28 652.65 3186.5
2601.68 658.76 3216.4
2618.00 660.77 3226.2
2628.31 652.94 3188.0
2724.58 674.74 3294.4
-1707.16 669.14 3308.9
-1698.97 669.29 3309.7
-1701.42 680.57 3365.4
-1689.54 679.30 3359.2
-1666.67 673.58 3330.9
-1693.02 687.79 3401.2
-1673.67 683.49 3379.9
-1620.91 665.43 3290.6
-1636.06 675.20 3338.9
-1655.31 686.78 3396.2
-1606.50 670.09 3313.6
-1613.71 680.38 3364.5
-1547.27 663.12 3279.1
-1539.42 663.40 3280.5
-1469.74 662.66 3276.9
-1476.62 669.63 3311.4
-1498.10 683.34 3379.2
-1482.39 680.16 3363.4
-1439.91 664.58 3286.4
-1461.77 678.68 3356.1
-1460.86 690.59 3415.0
-1432.55 681.33 3369.2
-1382.87 669.96 3313.0
-1346.76 660.67 3267.1
-1394.24 688.30 3403.7
-1388.95 694.48 3434.2
-1319.76 672.82 3327.1
-1316.58 675.61 3340.9
-1323.72 683.78 3381.3
-1254.31 670.11 3313.7
-1224.40 663.21 3279.6
-1226.79 669.16 3309.0
-1247.38 685.18 3388.2
-1225.09 682.55 3375.2
-1199.99 673.38 3329.9
-1185.03 669.80 3312.2
-1185.26 674.82 3337.0
-1189.75 692.54 3424.7
-1176.35 689.89 3411.5
-1107.91 664.74 3287.2
-1109.54 692.35 3423.7
-1087.64 684.16 3383.2
-1019.92 674.19 3333.9
-1011.42 674.28 3334.3
-1006.86 677.02 3347.9
-997.53 682.52 3375.1
-948.26 666.35 3295.1
-916.74 681.01 3367.6
-878.13 664.99 3288.4
-872.40 667.13 3299.0
-861.89 665.62 3291.5
-789.03 668.96 3308.0
-782.47 670.68 3316.6
-645.52 671.34 3319.8
-624.83 658.60 3256.8
-621.23 663.78 3282.4
-627.03 679.29 3359.1
-617.34 687.89 3401.7
-608.78 688.19 3403.1
-565.37 689.04 3407.4
-483.38 673.28 3329.4
-480.03 680.78 3366.5
-422.93 687.25 3398.5
-407.95 677.03 3348.0
-385.14 682.74 3376.2
-370.08 671.31 3319.6
-140.72 686.03 3392.5
-127.45 662.73 3277.2
-119.89 667.94 3303.0
-113.41 680.48 3365.0
-69.71 679.72 3361.3
34.91 680.82 3366.7
43.92 685.16 3388.1
226.39 679.17 3358.5
248.92 669.52 3310.8
273.14 665.77 3292.3
285.79 675.51 3340.4
303.55 657.69 3252.3
326.14 652.29 3225.6
385.03 682.54 3375.2
394.35 683.53 3380.1
398.93 676.44 3345.1
404.40 671.13 3318.8
451.43 677.15 3348.5
465.35 672.17 3323.9
476.76 664.05 3283.8
510.50 674.89 3337.4
518.65 674.25 3334.2
593.41 670.82 3317.2
607.71 677.16 3348.6
646.45 681.40 3369.5
641.40 667.06 3298.7
659.70 677.06 3348.1
723.35 679.77 3361.5
751.73 681.81 3371.6
750.57 672.93 3327.7
753.55 667.92 3302.9
839.80 675.31 3339.4
852.79 678.75 3356.5
898.88 674.16 3333.7
903.60 671.24 3319.3
906.16 666.80 3297.3
917.27 668.67 3306.6
981.98 660.29 3265.2
1000.59 667.06 3298.6
1007.87 660.62 3266.8
1017.96 661.67 3272.0
1054.18 673.98 3332.9
1102.08 666.38 3295.3
1088.77 653.26 3230.4
1133.90 675.15 3338.6
1216.66 673.04 3328.2
1248.13 671.41 3320.2
1302.53 677.32 3349.4
1250.28 645.84 3193.7
1270.47 647.69 3202.9
1286.43 651.57 3222.0
1306.49 657.46 3251.2
1350.26 675.13 3338.5
1364.74 669.50 3310.7
1378.89 672.21 3324.1
1397.07 672.66 3326.4
1347.80 644.96 3189.4
1371.77 652.43 3226.3
1411.75 667.38 3300.2
1423.30 668.78 3307.1
1438.38 671.82 3322.2
1437.81 667.56 3301.1
1424.16 645.84 3193.7
1483.53 661.23 3269.8
1506.93 667.84 3302.5
1557.81 671.32 3319.7
1565.32 670.85 3317.4
1614.01 676.84 3347.0
1606.93 670.27 3314.5
1610.05 668.00 3303.3
1595.36 658.40 3255.8
1652.14 667.70 3301.8
1632.06 656.19 3244.9
1617.02 643.51 3182.2
1713.02 671.44 3320.3
1732.15 672.18 3324.0
1702.90 657.55 3251.6
1703.14 654.41 3236.1
1752.10 669.92 3312.8
1761.14 663.62 3281.6
1743.96 653.99 3234.0
1744.88 651.20 3220.2
1772.66 649.14 3210.1
1804.67 654.72 3237.6
1783.22 643.94 3184.3
1823.00 652.27 3225.5
1882.75 664.50 3286.0
1916.73 673.45 3330.2
1907.40 658.31 3255.4
1893.75 650.72 3217.8
1877.94 642.45 3177.0
1904.45 643.06 3180.0
1931.39 649.35 3211.1
2010.01 658.74 3257.5
2016.18 658.00 3253.8
2019.65 648.28 3205.8
2112.66 667.16 3299.1
2092.13 658.01 3253.9
2149.49 673.33 3329.7
2151.89 671.39 3320.1
2095.63 651.23 3220.4
2153.33 666.51 3295.9
2123.76 644.57 3187.4
2148.50 647.04 3199.6
2160.34 648.10 3204.9
2214.85 649.47 3211.6
2209.32 645.42 3191.6
2257.20 656.94 3248.6
2279.98 658.66 3257.1
2223.89 640.09 3165.3
2278.30 650.94 3218.9
2394.36 659.93 3263.4
2401.01 654.82 3238.1
2446.13 653.42 3231.2
2468.07 648.18 3205.3
2518.03 659.08 3259.2
2563.35 657.70 3252.4
2620.08 670.05 3313.4
2521.70 642.79 3178.6
2580.62 653.53 3231.8
2613.60 659.74 3262.5
2547.04 640.87 3169.1
2588.68 649.25 3210.6
2684.42 666.83 3297.5
2592.15 641.87 3174.1
2712.08 665.23 3289.6
-1700.55 661.32 3312.8
-1680.70 656.92 3290.7
-1659.70 658.75 3299.8
-1658.97 661.87 3315.5
-1666.51 668.34 3347.9
-1629.79 657.03 3291.3
-1623.30 661.34 3312.9
-1644.77 673.66 3374.5
-1603.72 660.36 3307.9
-1615.23 672.28 3367.7
-1567.98 659.75 3304.9
-1581.03 672.59 3369.2
-1592.53 681.25 3412.6
-1575.27 677.63 3394.4
-1553.54 672.04 3366.4
-1538.48 669.28 3352.6
-1508.37 659.91 3305.7
-1521.14 669.30 3352.7
-1513.88 669.93 3355.9
-1474.78 656.41 3288.1
-1504.89 673.70 3374.8
-1465.79 667.84 3345.4
-1418.93 662.17 3317.0
-1394.29 654.64 3279.3
-1422.26 671.87 3365.6
-1379.86 664.06 3326.4
-1384.82 670.64 3359.4
-1356.98 678.49 3398.8
-1346.43 677.62 3394.4
-1309.58 663.41 3323.2
-1286.31 655.93 3285.7
-1317.71 676.43 3388.4
-1269.83 669.70 3354.7
-1245.92 661.63 3314.3
-1232.84 659.23 3302.3
-1215.72 654.62 3279.2
-1217.37 660.12 3306.7
-1217.20 664.71 3329.7
-1213.56 667.46 3343.5
-1220.52 676.12 3386.9
-1217.67 679.43 3403.4
-1181.68 674.00 3376.2
-1175.78 675.63 3384.4
-1176.23 680.98 3411.2
-1157.47 675.19 3382.2
-1160.32 682.02 3416.4
-1081.87 666.43 3338.4
-1081.52 671.59 3364.2
-1069.70 680.72 3409.9
-1037.39 665.66 3334.5
-1003.90 660.68 3309.6
-986.67 654.95 3280.8
-989.78 662.72 3319.8
-1004.39 678.41 3398.3
-967.02 664.82 3330.3
-947.89 657.54 3293.8
-967.98 677.59 3394.2
-908.66 666.35 3337.9
-876.29 648.79 3250.0
-902.35 674.58 3379.1
-902.43 681.25 3412.6
-797.60 667.56 3344.0
-742.27 680.41 3408.4
-716.47 664.67 3329.5
-721.67 677.66 3394.6
-642.14 668.18 3347.1
-624.27 658.47 3298.5
-623.20 666.47 3338.6
-621.21 673.71 3374.8
-600.64 660.71 3309.7
-586.10 654.05 3276.3
-587.05 664.75 3329.9
-583.03 670.05 3356.5
-581.52 678.44 3398.5
-571.48 676.98 3391.2
-558.10 671.46 3363.5
-423.01 678.58 3399.2
-395.10 647.30 3242.5
-387.86 649.24 3252.2
-385.45 659.54 3303.8
-380.66 666.15 3336.9
-338.74 668.79 3350.1
-326.19 660.96 3311.0
-315.62 656.83 3290.3
-309.53 662.06 3316.4
-306.50 674.30 3377.7
-95.30 667.11 3341.7
-86.21 663.83 3325.3
-68.98 663.90 3325.7
-34.83 670.47 3358.6
-25.75 660.89 3310.6
33.83 651.28 3262.5
43.07 663.20 3322.2
52.45 673.16 3372.1
60.98 670.79 3360.2
224.85 665.92 3335.8
232.92 664.24 3327.4
267.60 643.90 3225.5
281.92 657.81 3295.2
299.14 658.11 3296.7
306.16 654.84 3280.3
329.07 666.81 3340.2
333.11 657.68 3294.5
381.99 668.49 3348.6
388.86 665.38 3333.1
453.88 672.09 3366.7
468.50 655.90 3285.6
480.94 661.29 3312.6
498.82 673.84 3375.4
507.24 673.40 3373.2
503.92 657.66 3294.4
517.85 664.58 3329.0
591.11 659.65 3304.3
603.03 644.91 3230.5
620.07 654.05 3276.3
625.69 651.05 3261.3
631.41 648.25 3247.3
649.21 657.75 3294.8
702.94 668.23 3347.3
733.60 664.56 3329.0
744.40 666.50 3338.7
753.31 666.72 3339.8
764.61 669.04 3351.4
802.36 664.32 3327.8
810.06 663.56 3324.0
836.85 664.30 3327.7
869.42 649.96 3255.8
883.96 654.47 3278.4
911.79 662.34 3317.8
909.82 654.73 3279.7
934.68 666.39 3338.1
986.30 666.18 3337.1
989.36 651.11 3261.6
1002.38 643.19 3221.9
1038.96 650.40 3258.1
1074.61 667.30 3342.7
1104.32 669.55 3354.0
1111.88 668.86 3350.5
1101.34 657.39 3293.0
1081.73 640.72 3209.5
1124.30 660.85 3310.4
1284.57 659.41 3303.2
1290.19 640.93 3210.6
1331.67 657.30 3292.6
1365.39 665.41 3333.2
1339.09 648.49 3248.5
1332.38 641.21 3212.0
1338.76 640.28 3207.3
1382.43 657.08 3291.5
1382.83 653.24 3272.2
1379.67 647.77 3244.9
1398.82 652.78 3270.0
1418.81 646.44 3238.2
1468.74 665.25 3332.4
1453.28 654.40 3278.1
1462.02 654.51 3278.6
1498.13 666.80 3340.2
1447.93 640.75 3209.7
1480.62 644.11 3226.5
1578.15 667.68 3344.6
1557.34 648.19 3247.0
1588.59 657.64 3294.3
1623.21 664.83 3330.3
1574.79 641.58 3213.9
1570.68 636.54 3188.6
1591.58 634.98 3180.8
1638.91 650.49 3258.5
1660.35 655.63 3284.2
1633.23 638.37 3197.8
1711.79 665.69 3334.6
1740.96 660.37 3308.0
1685.57 636.22 3187.0
1730.10 646.69 3239.4
1764.63 656.41 3288.1
1768.95 654.85 3280.3
1796.24 661.77 3315.0
1774.67 650.71 3259.6
1777.45 648.64 3249.2
1808.45 650.70 3259.6
1843.74 660.32 3307.7
1871.70 661.10 3311.6
1892.11 662.24 3317.3
1817.83 633.36 3172.7
1844.59 636.92 3190.5
1854.80 637.59 3193.9
1852.60 634.00 3175.9
1927.55 656.73 3289.7
1960.89 662.23 3317.3
1895.37 637.31 3192.4
1927.28 645.22 3232.1
1995.30 665.10 3331.7
1925.51 633.61 3173.9
2071.47 659.10 3301.6
2058.28 646.89 3240.4
2109.17 657.51 3293.7
2092.88 649.81 3255.1
2132.07 659.32 3302.7
2150.51 662.36 3317.9
2119.51 650.21 3257.1
2099.07 641.38 3212.9
2101.71 639.65 3204.2
2145.01 650.26 3257.3
2112.34 637.84 3195.1
2149.90 631.84 3165.1
2253.40 659.74 3304.8
2205.81 643.36 3222.8
2226.09 646.83 3240.1
2249.22 651.09 3261.5
2321.26 654.72 3279.7
2283.82 637.15 3191.7
2310.78 637.74 3194.6
2361.51 649.42 3253.1
2325.25 637.17 3191.7
2319.06 633.22 3172.0
2409.75 655.66 3284.4
2394.53 646.94 3240.7
2355.92 634.29 3177.3
2370.14 635.89 3185.4
2406.83 643.49 3223.4
2423.51 645.71 3234.5
2390.97 634.84 3180.1
2478.50 642.57 3218.8
2539.32 653.94 3275.8
2466.46 633.06 3171.2
2537.86 642.81 3220.0
2530.21 638.77 3199.8
2570.99 646.95 3240.7
2634.44 658.61 3299.2
2552.63 636.09 3186.4
2567.15 635.60 3183.9
2588.38 638.80 3199.9
2581.04 628.92 3150.5
2692.15 651.87 3265.4
2609.07 629.78 3154.7
-1683.23 656.03 3329.5
-1720.99 674.20 3421.7
-1682.55 662.56 3362.6
-1649.62 652.98 3314.0
-1653.16 657.80 3338.5
-1671.83 668.73 3393.9
-1634.78 657.37 3336.3
-1620.69 658.68 3342.9
-1650.82 674.53 3423.4
-1536.96 652.56 3311.9
-1541.39 658.12 3340.1
-1559.23 669.50 3397.8
-1559.66 673.49 3418.1
-1500.22 651.52 3306.6
-1493.89 660.09 3350.1
-1467.98 660.16 3350.4
-1469.68 664.85 3374.3
-1463.26 673.99 3420.6
-1451.09 672.46 3412.8
-1431.29 667.35 3386.9
-1419.97 666.16 3380.9
-1395.90 663.05 3365.1
-1352.79 646.62 3281.7
-1349.57 649.16 3294.6
-1368.91 662.66 3363.1
-1372.81 668.81 3394.3
-1330.33 660.82 3353.8
-1302.95 660.16 3350.5
-1308.12 667.23 3386.3
-1289.86 662.36 3361.6
-1304.29 674.32 3422.3
-1262.03 661.48 3357.1
-1238.88 653.86 3318.4
-1244.28 661.30 3356.2
-1203.43 667.60 3388.2
-1163.72 660.02 3349.7
-1102.42 664.95 3374.8
-1098.42 667.84 3389.4
-1001.79 650.73 3302.6
-1012.69 669.26 3396.6
-964.35 660.28 3351.0
-962.50 665.00 3375.0
-907.79 657.07 3334.7
-892.30 664.85 3374.3
-858.97 646.35 3280.4
-852.95 648.24 3290.0
-832.21 665.77 3378.9
-752.08 649.53 3296.5
-761.22 664.98 3374.9
-739.90 669.44 3397.5
-714.12 653.89 3318.6
-716.49 664.07 3370.3
-686.60 668.99 3395.3
-678.31 669.51 3397.9
-640.08 666.39 3382.0
-604.01 665.29 3376.5
-590.23 659.67 3348.0
-585.50 664.14 3370.7
-453.05 662.15 3360.6
-434.58 647.61 3286.7
-434.27 660.09 3350.1
-405.39 655.52 3326.9
-397.34 656.48 3331.8
-358.85 649.34 3295.5
-360.66 668.55 3393.0
-342.46 667.35 3386.9
-326.45 652.89 3313.6
-311.47 639.77 3246.9
-302.75 639.15 3243.8
-302.66 657.20 3335.4
-270.73 663.73 3368.6
-257.71 652.88 3313.5
-249.83 654.74 3322.9
-245.95 667.58 3388.1
-147.54 659.57 3347.5
-127.65 646.76 3282.5
-95.43 659.35 3346.3
-87.02 661.33 3356.4
-76.19 643.39 3265.3
-34.40 653.58 3317.0
-25.22 638.90 3242.6
17.54 666.56 3382.9
26.27 665.58 3378.0
34.96 664.21 3371.0
252.48 661.68 3358.1
261.52 662.51 3362.4
327.99 655.97 3329.2
331.50 646.00 3278.6
428.34 651.08 3304.3
438.82 653.94 3318.8
467.48 645.97 3278.4
480.61 652.25 3310.3
489.87 653.17 3314.9
492.30 645.09 3273.9
497.93 641.41 3255.3
519.61 658.17 3340.4
584.32 662.81 3363.9
568.59 635.48 3225.2
578.60 637.30 3234.4
593.57 644.45 3270.7
609.96 652.91 3313.7
642.63 660.00 3349.6
649.33 657.99 3339.4
673.95 656.67 3332.7
748.18 661.18 3355.6
802.08 662.59 3362.7
804.35 657.32 3336.0
816.95 660.51 3352.2
870.58 642.37 3260.2
894.34 653.56 3316.9
921.58 660.76 3353.5
913.92 649.14 3294.5
935.37 658.23 3340.6
944.76 658.73 3343.2
943.90 652.15 3309.8
958.65 656.37 3331.2
977.65 657.54 3337.1
969.20 646.14 3279.3
959.63 634.19 3218.6
976.37 639.69 3246.5
978.68 635.72 3226.4
1002.17 645.46 3275.9
1039.61 658.42 3341.6
1060.47 660.62 3352.8
1078.40 660.95 3354.5
1090.98 652.87 3313.4
1102.78 654.77 3323.1
1121.16 660.53 3352.3
1129.00 660.03 3349.8
1111.21 644.67 3271.8
1127.11 648.94 3293.5
1193.37 657.22 3335.5
1200.72 656.51 3331.9
1190.95 646.51 3281.2
1196.46 644.90 3273.0
1209.07 647.11 3284.2
1281.21 649.15 3294.5
1258.54 633.43 3214.8
1302.57 651.29 3305.4
1320.54 655.95 3329.1
1317.81 650.35 3300.6
1348.82 648.80 3292.8
1349.04 644.82 3272.6
1371.02 651.24 3305.1
1349.94 637.24 3234.1
1355.21 635.78 3226.7
1363.88 635.92 3227.4
1367.54 633.74 3216.3
1426.11 656.87 3333.8
1431.11 655.21 3325.3
1403.23 638.60 3241.0
1442.17 652.41 3311.1
1437.18 646.30 3280.1
1416.96 633.46 3214.9
1429.55 635.36 3224.6
1464.63 647.16 3284.5
1466.74 640.65 3251.4
1507.15 643.50 3265.9
1547.39 653.34 3315.8
1534.83 644.46 3270.8
1565.77 653.84 3318.3
1576.08 650.99 3303.9
1526.04 626.91 3181.7
1550.75 633.64 3215.8
1609.95 654.31 3320.8
1580.72 639.02 3243.1
1570.23 631.41 3204.5
1603.51 641.40 3255.2
1600.72 636.94 3232.6
1595.21 631.44 3204.7
1589.13 625.77 3175.9
1612.12 631.55 3205.3
1651.68 643.73 3267.1
1631.25 632.52 3210.2
1643.28 633.96 3217.4
1712.91 657.48 3336.8
1687.61 628.72 3190.9
1766.24 648.47 3291.1
1750.38 633.47 3215.0
1754.29 628.90 3191.8
1797.37 641.32 3254.8
1829.22 649.63 3297.0
1833.89 648.26 3290.0
1839.00 647.05 3283.9
1861.57 643.09 3263.8
1953.95 648.47 3291.1
1977.48 653.43 3316.3
2010.37 655.74 3328.0
1936.44 628.93 3191.9
2053.97 647.73 3287.3
2080.37 647.98 3288.6
2092.86 649.22 3294.9
2058.16 635.85 3227.1
2051.40 631.20 3203.5
2037.07 624.26 3168.2
2098.58 640.53 3250.8
2129.80 647.46 3286.0
2103.57 636.94 3232.6
2089.55 630.18 3198.3
2105.80 625.16 3172.8
2154.12 629.67 3195.7
2168.72 631.51 3205.0
2246.79 639.53 3245.8
2199.59 623.76 3165.7
2246.88 627.80 3186.2
2295.80 639.12 3243.7
2321.48 643.91 3268.0
2326.02 642.83 3262.5
2296.49 625.57 3174.9
2336.72 629.76 3196.1
2414.63 648.45 3291.0
2436.63 652.06 3309.3
2380.05 634.68 3221.1
2343.74 622.81 3160.9
2381.65 626.32 3178.7
2383.98 622.62 3159.9
2455.45 639.09 3243.5
2497.31 647.77 3287.5
2417.14 624.84 3171.2
2476.56 629.49 3194.8
2534.57 642.09 3258.7
2502.82 631.94 3207.2
2536.50 632.05 3207.8
2548.91 628.95 3192.0
2598.68 628.98 3192.2
2593.10 625.64 3175.2
2626.29 631.64 3205.7
-1743.34 637.81 3280.1
-1683.43 637.66 3279.4
-1655.44 636.71 3274.5
-1711.48 661.65 3402.8
-1690.71 657.01 3378.9
-1647.20 643.44 3309.1
-1642.01 644.77 3316.0
-1660.30 655.38 3370.5
-1625.03 644.85 3316.4
-1590.40 637.86 3280.4
-1642.92 662.47 3407.0
-1515.74 645.91 3321.8
-1497.17 641.64 3299.9
-1477.66 644.33 3313.7
-1473.72 654.02 3363.5
-1444.34 644.79 3316.1
-1452.64 660.29 3395.8
-1432.44 655.08 3369.0
-1402.38 645.27 3318.5
-1390.08 643.55 3309.7
-1399.03 651.72 3351.7
-1394.22 653.54 3361.1
-1381.11 651.47 3350.4
-1347.19 656.10 3374.2
-1332.34 653.11 3358.9
-1299.96 645.68 3320.6
-1309.39 659.09 3389.6
-1287.60 652.50 3355.7
-1299.24 662.88 3409.1
-1287.64 661.46 3401.8
-1249.42 646.25 3323.6
-1263.85 658.25 3385.3
-1148.68 633.47 3257.8
-1154.13 641.18 3297.5
-1142.60 639.51 3288.9
-1143.61 644.89 3316.6
-1148.65 662.68 3408.1
-1124.64 658.97 3389.0
-1107.46 654.01 3363.5
-1050.89 656.80 3377.8
-1023.45 645.03 3317.3
-993.79 642.54 3304.5
-983.38 641.33 3298.3
-896.98 659.55 3391.9
-850.65 631.67 3248.6
-847.18 635.38 3267.7
-845.29 653.58 3361.3
-837.78 654.52 3366.1
-705.62 653.35 3360.1
-703.24 659.29 3390.6
-686.12 651.38 3350.0
-662.00 636.54 3273.6
-651.33 634.41 3262.7
-666.15 657.39 3380.9
-593.07 654.12 3364.1
-580.73 650.07 3343.2
-528.17 649.39 3339.7
-520.76 650.96 3347.8
-479.07 653.28 3359.7
-448.81 647.32 3329.1
-439.04 645.64 3320.4
-422.36 633.54 3258.2
-418.87 641.13 3297.2
-394.35 657.26 3380.2
-358.70 640.54 3294.2
-315.58 657.46 3381.2
-195.40 637.18 3276.9
-192.91 657.66 3382.3
-173.80 651.74 3351.8
-163.05 643.62 3310.1
-148.60 655.60 3371.6
-126.65 633.23 3256.6
-120.88 647.59 3330.5
-113.42 654.32 3365.1
252.83 653.86 3362.7
257.69 644.22 3313.1
499.11 645.40 3319.2
498.77 634.02 3260.7
515.33 644.16 3312.8
539.58 652.72 3356.8
540.47 643.41 3309.0
554.45 649.75 3341.6
591.88 652.81 3357.3
673.49 647.58 3330.4
737.46 650.70 3346.5
737.19 642.90 3306.3
744.93 642.18 3302.7
745.44 635.32 3267.4
774.04 652.28 3354.6
780.54 629.47 3237.3
812.68 648.41 3334.7
869.13 651.85 3352.4
936.63 644.47 3314.4
957.64 635.60 3268.8
984.54 631.12 3245.7
994.75 626.94 3224.3
1096.39 647.47 3329.9
1098.31 643.54 3309.6
1104.19 641.97 3301.6
1119.44 645.83 3321.4
1118.02 640.09 3291.9
1094.81 622.05 3199.1
1113.79 628.08 3230.1
1128.08 631.39 3247.1
1131.06 628.37 3231.6
1196.21 650.11 3343.4
1162.23 627.10 3225.1
1218.14 638.89 3285.7
1264.31 649.47 3340.2
1261.75 643.75 3310.7
1275.69 637.85 3280.3
1266.60 629.11 3235.4
1356.48 643.90 3311.5
1364.61 643.68 3310.4
1369.46 637.95 3280.9
1387.76 634.64 3263.9
1375.98 625.45 3216.6
1394.74 630.15 3240.8
1382.69 620.97 3193.6
1444.73 644.97 3317.0
1443.69 640.69 3295.0
1414.36 623.98 3209.1
1421.76 623.58 3207.0
1442.38 628.94 3234.6
1476.80 640.23 3292.6
1470.99 634.05 3260.8
1483.89 628.77 3233.7
1510.65 636.51 3273.5
1519.76 636.77 3274.8
1541.77 642.40 3303.8
1553.86 643.87 3311.3
1543.28 635.97 3270.7
1539.28 630.85 3244.4
1561.87 636.63 3274.1
1552.21 629.27 3236.3
1549.23 624.69 3212.7
1586.96 636.48 3273.3
1570.13 626.38 3221.4
1580.82 627.31 3226.2
1658.62 647.90 3332.0
1612.24 626.52 3222.1
1667.15 637.94 3280.8
1684.33 634.80 3264.7
1686.06 632.27 3251.7
1743.69 644.22 3313.1
1677.66 616.79 3172.1
1800.10 639.85 3290.6
1822.38 644.71 3315.6
1792.48 622.39 3200.9
1842.54 633.90 3260.1
1848.99 633.22 3256.5
1858.35 633.53 3258.2
1841.74 625.02 3214.4
1847.56 624.18 3210.1
1883.97 633.62 3258.6
1913.52 635.02 3265.8
1965.24 643.64 3310.1
1967.59 641.61 3299.7
1966.35 638.43 3283.3
1959.96 633.61 3258.5
1934.59 622.72 3202.6
1942.11 617.20 3174.2
2024.38 629.99 3240.0
2042.33 630.35 3241.8
2081.43 637.17 3276.9
2088.60 636.77 3274.8
2113.32 641.70 3300.1
2072.47 626.76 3223.3
2103.06 633.45 3257.7
2163.69 643.96 3311.8
2085.85 618.34 3180.0
2187.31 640.81 3295.6
2221.07 640.69 3295.0
2160.05 620.70 3192.2
2233.52 634.52 3263.3
2240.79 629.44 3237.1
2282.33 631.64 3248.4
2306.24 635.91 3270.4
2318.24 636.88 3275.4
2290.21 626.88 3224.0
2254.54 614.87 3162.2
2324.67 627.16 3225.4
2323.29 624.54 3211.9
2311.41 619.13 3184.1
2369.81 632.51 3252.9
2370.13 630.35 3241.8
2380.93 630.99 3245.1
2381.81 618.12 3178.9
2393.09 618.90 3182.9
2447.22 630.73 3243.7
2501.81 636.05 3271.1
2437.43 617.59 3176.2
2426.39 612.72 3151.2
2434.00 612.58 3150.4
2526.98 633.86 3259.8
2461.93 615.48 3165.3
2531.76 622.56 3201.8
2569.17 627.65 3227.9
2731.00 642.09 3302.2
-1712.41 627.32 3269.8
-1683.17 625.90 3262.4
-1694.88 633.44 3301.7
-1616.09 629.43 3280.8
-1653.85 647.54 3375.2
-1660.12 653.45 3406.0
-1598.76 632.66 3297.7
-1578.82 631.53 3291.7
-1614.67 649.38 3384.8
-1593.10 644.21 3357.8
-1582.58 643.46 3354.0
-1581.27 646.48 3369.7
-1556.97 640.09 3336.4
-1563.50 646.36 3369.1
-1562.86 649.73 3386.6
-1514.07 633.00 3299.4
-1512.26 635.84 3314.2
-1541.25 655.47 3416.6
-1486.27 635.75 3313.7
-1484.68 638.76 3329.4
-1491.00 645.23 3363.2
-1443.94 628.54 3276.2
-1457.72 638.29 3327.0
-1447.43 649.15 3383.6
-1418.38 640.00 3335.9
-1434.01 651.02 3393.4
-1411.02 652.60 3401.6
-1378.69 645.71 3365.7
-1341.10 632.11 3294.8
-1317.48 624.96 3257.5
-1288.92 648.85 3382.0
-1232.79 624.84 3256.9
-1214.82 624.28 3254.0
-1179.91 651.59 3396.3
-1126.14 626.58 3265.9
-1105.54 624.50 3255.1
-1095.73 623.73 3251.1
-1115.59 639.95 3335.6
-1116.45 645.45 3364.3
-1109.79 646.65 3370.6
-1053.79 633.99 3304.6
-1062.59 649.85 3387.3
-1037.24 645.01 3362.0
-976.23 628.18 3274.3
-930.52 643.54 3354.3
-710.79 649.37 3384.7
-697.58 645.26 3363.3
-688.61 645.03 3362.1
-672.82 638.32 3327.2
-653.94 628.46 3275.8
-663.80 646.33 3368.9
-642.31 642.31 3348.0
-640.50 649.28 3384.3
-606.76 641.43 3343.4
-594.89 638.00 3325.5
-592.50 644.77 3360.8
-573.94 633.90 3304.1
-578.70 648.85 3382.0
-551.33 647.60 3375.5
-531.10 633.89 3304.1
-520.74 631.72 3292.8
-522.37 644.26 3358.1
-514.45 645.24 3363.2
-500.08 638.03 3325.6
-486.29 642.59 3349.4
-455.50 635.98 3314.9
-442.72 642.38 3348.3
-413.62 624.65 3255.9
-378.83 622.97 3247.1
-371.78 639.80 3334.9
-302.42 639.40 3332.8
-292.12 635.79 3313.9
-285.51 640.24 3337.2
-250.96 640.38 3337.9
-196.55 632.37 3296.1
-190.55 640.93 3340.7
-184.15 648.92 3382.4
-173.42 641.67 3344.6
-165.45 644.38 3358.7
-139.05 643.09 3352.0
-131.32 647.87 3376.9
-43.75 647.53 3375.2
-34.84 644.54 3359.6
270.44 645.58 3365.0
272.62 630.42 3286.0
298.16 630.39 3285.8
382.66 643.56 3354.5
414.40 638.87 3330.0
496.42 633.37 3301.3
502.71 630.52 3286.5
536.60 630.29 3285.3
536.86 620.74 3235.5
669.14 643.07 3351.9
675.16 640.54 3338.7
678.95 635.98 3314.9
678.22 627.35 3270.0
698.07 637.74 3324.1
738.23 642.69 3349.9
768.65 639.11 3331.2
775.14 616.77 3214.8
800.94 630.53 3286.5
819.11 638.04 3325.7
808.01 622.84 3246.5
842.32 642.60 3349.4
855.73 639.64 3334.0
849.04 628.29 3274.9
877.43 642.87 3350.9
892.18 640.98 3341.0
897.20 638.39 3327.5
940.53 638.52 3328.2
941.25 633.20 3300.5
943.69 617.99 3221.2
953.90 619.20 3227.5
1086.90 638.34 3327.2
1150.20 639.96 3335.7
1149.43 630.06 3284.1
1198.76 638.19 3326.5
1203.06 635.90 3314.5
1197.11 619.48 3229.0
1229.52 627.48 3270.6
1221.97 615.14 3206.3
1229.60 614.80 3204.6
1287.59 639.48 3333.2
1285.15 634.01 3304.7
1268.21 621.51 3239.5
1312.34 638.90 3330.2
1314.90 631.84 3293.4
1333.31 636.55 3317.9
1383.30 635.80 3314.0
1423.03 638.21 3326.6
1393.36 621.14 3237.6
1374.65 609.13 3175.0
1423.30 626.93 3267.8
1444.69 625.19 3258.7
1430.24 611.78 3188.8
1463.58 618.89 3225.9
1539.86 636.59 3318.1
1531.55 629.64 3281.9
1549.88 633.65 3302.8
1546.84 628.93 3278.2
1533.55 620.12 3232.3
1540.43 619.52 3229.2
1565.18 626.07 3263.3
1594.35 634.31 3306.3
1564.09 612.40 3192.0
1620.80 621.45 3239.2
1644.57 620.91 3236.4
1694.92 630.27 3285.2
1690.79 625.59 3260.8
1695.67 624.28 3254.0
1688.17 618.44 3223.5
1700.28 619.81 3230.7
1701.35 617.16 3216.8
1689.40 609.83 3178.7
1747.89 627.88 3272.7
1828.81 626.54 3265.7
1856.11 624.33 3254.2
1895.37 634.65 3308.0
1864.59 613.24 3196.4
1889.77 618.78 3225.3
1972.85 634.74 3308.5
1965.03 629.49 3281.1
1958.62 624.73 3256.3
1959.77 622.42 3244.3
1948.07 616.06 3211.1
1987.57 625.87 3262.3
2010.44 617.32 3217.7
2006.21 610.95 3184.5
2074.97 629.29 3280.1
2120.38 630.15 3284.6
2109.31 616.95 3215.8
2140.30 606.83 3163.0
2211.67 615.28 3207.0
2236.56 617.56 3218.9
2305.53 634.23 3305.9
2226.38 610.19 3180.5
2221.02 604.25 3149.6
2301.87 623.95 3252.3
2349.32 634.49 3307.2
2336.15 628.64 3276.7
2286.64 613.08 3195.6
2287.56 611.12 3185.4
2347.95 625.00 3257.7
2311.29 613.03 3195.3
2346.12 617.84 3220.4
2349.89 616.64 3214.1
2356.31 611.81 3189.0
2394.94 615.37 3207.5
2441.82 625.24 3259.0
2431.26 620.39 3233.7
2483.11 631.44 3291.3
2501.98 627.62 3271.4
2464.97 612.11 3190.5
2531.99 626.65 3266.3
2487.92 607.61 3167.1
2494.89 607.31 3165.5
2552.15 619.21 3227.5
2600.38 628.85 3277.8
2585.34 623.18 3248.2
2566.49 616.62 3214.1
2553.09 611.42 3186.9
2588.54 617.91 3220.8
2619.13 623.20 3248.3
2663.58 623.75 3251.2
2637.28 615.64 3208.9
2666.86 618.64 3224.6
-1742.34 629.66 3327.0
-1774.70 644.54 3405.6
-1718.22 627.15 3313.7
-1691.94 620.66 3279.4
-1728.40 637.24 3367.0
-1721.88 638.06 3371.3
-1617.59 621.49 3283.8
-1674.01 646.58 3416.4
-1608.84 628.05 3318.5
-1578.38 626.20 3308.7
-1567.53 625.30 3303.9
-1553.33 623.04 3292.0
-1548.81 624.66 3300.5
-1566.33 635.24 3356.4
-1520.83 627.24 3314.2
-1499.77 622.06 3286.8
-1525.24 636.24 3361.7
-1531.73 642.62 3395.5
-1492.51 629.79 3327.6
-1474.84 625.95 3307.4
-1470.03 627.56 3315.9
-1447.24 625.14 3303.1
-1480.53 643.32 3399.2
-1457.80 637.24 3367.0
-1398.29 634.01 3349.9
-1375.75 627.68 3316.5
-1386.38 636.51 3363.2
-1398.30 646.05 3413.6
-1367.88 640.10 3382.1
-1334.23 628.38 3320.2
-1311.80 621.83 3285.6
-1342.53 640.56 3384.5
-1316.38 640.64 3385.0
-1255.48 615.10 3250.1
-1280.92 631.80 3338.3
-1284.90 638.08 3371.5
-1278.62 639.31 3378.0
-1228.76 622.91 3291.3
-1220.48 627.43 3315.2
-1233.49 638.62 3374.3
-1202.68 640.84 3386.1
-1193.21 640.47 3384.1
-1163.53 638.63 3374.4
-1147.70 634.71 3353.7
-1144.63 637.85 3370.2
-1128.90 633.92 3349.5
-1044.95 625.26 3303.7
-1040.01 637.99 3371.0
-988.91 633.25 3345.9
-985.88 636.89 3365.2
-943.08 631.61 3337.3
-947.51 640.45 3384.0
-920.68 628.12 3318.9
-732.00 628.66 3321.7
-673.49 638.50 3373.7
-637.24 628.62 3321.5
-627.82 627.82 3317.2
-631.23 639.99 3381.6
-610.99 628.20 3319.3
-603.18 629.03 3323.6
-470.01 635.39 3357.2
-443.32 634.55 3352.8
-420.23 613.54 3241.8
-427.94 637.54 3368.6
-383.28 635.90 3359.9
-306.82 639.95 3381.3
-294.15 631.57 3337.0
-284.73 629.85 3328.0
-278.27 634.80 3354.1
-261.06 635.24 3356.5
-245.48 617.93 3265.0
-225.29 632.55 3342.2
-139.15 634.89 3354.6
-42.77 624.40 3299.2
-34.38 627.39 3315.0
208.88 635.35 3357.0
218.19 637.10 3366.3
223.97 628.83 3322.6
229.80 621.31 3282.8
242.75 632.88 3344.0
268.84 633.08 3345.0
278.11 615.21 3250.6
374.13 635.15 3356.0
376.38 624.44 3299.4
392.34 636.46 3362.9
411.69 626.11 3308.2
476.33 632.22 3340.5
483.55 630.34 3330.6
488.70 625.88 3307.0
495.49 623.63 3295.1
530.88 625.07 3302.7
560.47 629.45 3325.9
582.87 625.73 3306.2
668.29 633.57 3347.6
667.48 624.69 3300.7
664.86 614.36 3246.1
667.55 609.14 3218.5
695.16 626.50 3310.3
720.70 633.87 3349.2
713.10 619.72 3274.4
733.48 629.93 3328.4
751.46 630.53 3331.6
804.30 631.33 3335.8
795.25 617.59 3263.2
841.52 614.31 3245.9
838.71 606.19 3203.0
858.05 614.10 3244.7
855.27 606.16 3202.8
884.73 615.10 3250.0
898.06 618.48 3267.9
912.00 622.20 3287.6
938.70 622.95 3291.5
961.29 632.20 3340.4
970.39 626.89 3312.3
940.66 602.35 3182.7
980.03 622.11 3287.1
1018.18 629.89 3328.2
1024.93 628.74 3322.1
1082.17 626.97 3312.8
1117.42 608.74 3216.4
1160.97 627.79 3317.1
1183.57 630.66 3332.3
1151.46 609.11 3218.4
1179.24 619.31 3272.3
1207.54 616.43 3257.1
1237.84 618.92 3270.2
1291.75 628.65 3321.6
1266.27 604.17 3192.3
1298.23 611.43 3230.6
1346.83 630.25 3330.1
1344.78 609.75 3221.8
1338.95 603.36 3188.0
1377.84 617.07 3260.4
1387.35 617.54 3262.9
1369.74 606.01 3202.0
1487.13 613.33 3240.7
1527.14 626.30 3309.2
1531.34 624.51 3299.8
1529.50 610.13 3223.8
1538.88 603.97 3191.2
1611.85 629.23 3324.7
1558.19 601.84 3180.0
1622.56 616.91 3259.6
1607.30 607.94 3212.2
1602.93 603.16 3187.0
1619.34 606.22 3203.1
1659.98 615.12 3250.2
1745.93 627.85 3317.4
1784.75 626.38 3309.6
1753.84 612.59 3236.8
1770.75 615.55 3252.4
1794.41 612.11 3234.3
1767.72 600.20 3171.3
1807.30 610.80 3227.3
1787.59 601.35 3177.4
1867.05 619.52 3273.4
1884.35 619.63 3274.0
1842.37 603.11 3186.7
1884.78 614.24 3245.5
1842.39 597.75 3158.4
1929.76 620.58 3279.0
1946.49 620.50 3278.6
1970.01 625.26 3303.7
1945.07 612.03 3233.8
1971.32 612.37 3235.6
1996.04 617.42 3262.3
1976.40 608.76 3216.6
2003.75 614.60 3247.4
2048.36 623.04 3292.0
2027.96 609.22 3219.0
2041.90 610.90 3227.8
2038.93 607.52 3210.0
2147.04 626.94 3312.6
2132.13 620.10 3276.5
2138.19 616.95 3259.8
2150.64 615.67 3253.1
2172.56 607.65 3210.7
2191.57 603.72 3189.9
2223.61 610.24 3224.4
2261.39 618.28 3266.8
2233.34 608.33 3214.3
2268.80 604.46 3193.8
2272.63 603.28 3187.6
2271.84 600.89 3174.9
2328.07 613.54 3241.8
2352.58 615.55 3252.4
2311.54 598.38 3161.7
2316.35 597.50 3157.1
2335.21 600.25 3171.6
2405.81 616.22 3256.0
2388.95 609.77 3221.9
2389.08 607.68 3210.8
2385.03 604.54 3194.2
2468.39 619.22 3271.8
2460.72 615.18 3250.5
2435.03 606.68 3205.6
2515.89 624.69 3300.7
2421.04 599.10 3165.5
2579.94 613.47 3241.4
2523.42 598.08 3160.1
2573.81 606.09 3202.4
2578.40 603.28 3187.6
2640.45 611.91 3233.2
2626.70 602.99 3186.0
-1704.24 610.47 3270.4
-1684.90 612.69 3282.3
-1724.77 630.37 3377.0
-1699.00 624.12 3343.5
-1660.01 612.93 3283.5
-1653.06 619.90 3320.9
-1625.09 612.60 3281.8
-1616.03 612.39 3280.7
-1616.07 615.65 3298.1
-1575.90 606.77 3250.5
-1599.44 619.14 3316.8
-1549.54 609.65 3266.0
-1590.12 629.06 3370.0
-1577.06 627.34 3360.7
-1585.29 634.12 3397.1
-1566.38 630.05 3375.3
-1474.62 617.28 3306.9
-1503.37 633.00 3391.1
-1487.23 629.89 3374.4
-1469.96 626.26 3354.9
-1465.37 628.02 3364.4
-1434.10 618.30 3312.3
-1434.22 622.07 3332.5
-1389.10 617.38 3307.4
-1382.53 618.27 3312.2
-1403.09 635.36 3403.7
-1373.46 625.88 3352.9
-1387.15 636.14 3407.9
-1368.94 635.89 3406.6
-1349.98 635.29 3403.3
-1343.04 636.18 3408.1
-1262.75 610.19 3268.9
-1274.39 619.97 3321.3
-1297.36 635.44 3404.2
-1257.00 632.90 3390.5
-1219.63 618.40 3312.9
-1230.29 628.23 3365.5
-1194.94 628.00 3364.3
-1178.32 623.81 3341.9
-1143.09 623.50 3340.2
-1093.05 629.60 3372.8
-1074.25 623.76 3341.6
-1008.83 610.38 3269.9
-1014.01 618.72 3314.6
-990.45 625.55 3351.1
-992.12 632.15 3386.5
-921.01 608.38 3259.2
-919.80 613.20 3285.0
-914.65 633.22 3392.2
-894.49 625.28 3349.7
-867.83 624.84 3347.3
-784.72 627.77 3363.1
-742.71 629.12 3370.3
-723.50 627.62 3362.2
-689.79 605.67 3244.6
-609.95 627.38 3361.0
-450.49 623.76 3341.6
-359.10 615.60 3297.9
-257.83 618.78 3314.9
-244.93 608.10 3257.7
-234.61 603.27 3231.8
-227.98 607.96 3256.9
-104.54 627.27 3360.4
-93.79 613.92 3288.9
69.55 625.96 3353.4
164.54 623.53 3340.3
170.84 615.02 3294.7
234.57 625.53 3351.1
256.30 615.12 3295.3
268.81 624.33 3344.6
280.42 611.82 3277.6
289.98 614.07 3289.6
351.79 617.77 3309.5
350.27 600.46 3216.7
365.92 612.70 3282.3
473.91 620.39 3323.5
482.64 620.54 3324.3
530.50 616.06 3300.3
533.65 600.36 3216.2
616.35 616.35 3301.9
620.60 612.10 3279.1
639.75 622.46 3334.6
680.16 619.89 3320.8
685.23 616.71 3303.8
701.53 623.59 3340.6
715.82 606.34 3248.2
725.82 600.68 3217.9
788.93 624.20 3344.0
794.63 621.89 3331.5
839.67 604.57 3238.7
847.55 604.19 3236.8
873.28 616.43 3302.3
875.70 612.14 3279.3
886.72 613.89 3288.7
901.66 618.28 3312.2
903.93 613.99 3289.2
902.66 607.40 3253.9
929.35 619.57 3319.1
948.92 615.52 3297.4
936.24 601.87 3224.3
954.48 608.16 3258.0
974.83 615.68 3298.3
980.45 613.85 3288.5
984.04 610.79 3272.1
1010.70 621.97 3332.0
1052.53 621.16 3327.7
1048.72 613.89 3288.7
1036.59 601.89 3224.4
1055.07 593.48 3179.3
1090.31 608.54 3260.1
1114.28 617.14 3306.1
1129.58 602.44 3227.4
1139.56 598.89 3208.4
1186.12 618.84 3315.2
1201.10 622.15 3333.0
1225.41 621.34 3328.6
1215.91 612.21 3279.7
1203.77 601.89 3224.4
1200.39 596.05 3193.1
1220.04 593.53 3179.6
1266.21 607.78 3256.0
1278.42 601.61 3222.9
1266.66 592.21 3172.5
1288.11 598.35 3205.4
1323.37 610.78 3272.1
1333.18 596.20 3194.0
1358.98 596.63 3196.2
1364.87 591.99 3171.4
1454.14 619.52 3318.8
1467.68 610.83 3272.3
1461.80 604.88 3240.4
1459.75 593.80 3181.0
1489.60 599.17 3209.8
1562.35 618.07 3311.1
1529.25 601.67 3223.2
1517.85 593.94 3181.8
1564.31 605.54 3244.0
1584.08 609.91 3267.4
1548.19 592.93 3176.4
1571.37 598.62 3206.9
1623.44 615.20 3295.7
1596.65 601.88 3224.3
1592.02 593.92 3181.7
1651.40 612.89 3283.3
1694.36 616.13 3300.7
1788.22 619.00 3316.1
1760.13 606.36 3248.4
1794.52 615.26 3296.1
1809.91 608.94 3262.2
1759.23 589.14 3156.1
1782.39 594.13 3182.8
1780.49 590.76 3164.8
1823.26 588.67 3153.6
1900.60 605.50 3243.8
1931.94 612.77 3282.7
1897.11 599.09 3209.4
1881.19 588.89 3154.8
1970.47 614.17 3290.2
1944.73 603.54 3233.2
2010.64 613.42 3286.2
2007.06 609.74 3266.5
1992.99 595.42 3189.7
2005.81 596.77 3197.0
2093.29 617.69 3309.1
2075.10 609.83 3266.9
2089.73 599.45 3211.3
2071.86 591.96 3171.2
2139.99 609.01 3262.5
2144.81 605.59 3244.2
2116.29 595.21 3188.6
2224.94 616.14 3300.7
2190.44 604.26 3237.1
2140.16 588.14 3150.7
2188.27 596.80 3197.1
2206.83 599.59 3212.1
2202.44 596.15 3193.7
2263.24 610.31 3269.5
2263.95 608.22 3258.3
2274.22 608.71 3261.0
2287.90 610.11 3268.4
2254.99 599.11 3209.5
2223.02 588.45 3152.4
2266.22 597.68 3201.9
2324.48 610.81 3272.2
2324.43 608.58 3260.2
2319.16 605.00 3241.1
2323.04 603.82 3234.8
2346.55 607.74 3255.7
2375.34 612.99 3283.9
2328.12 598.66 3207.1
2369.71 602.90 3229.8
2351.98 592.11 3172.0
2455.31 597.24 3199.5
2468.40 592.42 3173.7
2529.58 605.08 3241.5
2486.07 592.71 3175.2
2587.80 614.92 3294.2
2583.12 609.78 3266.7
2601.83 604.30 3237.3
2599.68 599.93 3213.9
2550.52 586.70 3143.0
2632.97 603.74 3234.3
2671.88 610.71 3271.7
2670.75 608.53 3260.0
2672.10 606.91 3251.3
2674.67 605.59 3244.2
-1688.68 602.49 3273.1
-1643.26 598.32 3250.4
-1640.49 606.64 3295.6
-1610.38 598.62 3252.1
-1582.53 600.85 3264.2
-1629.61 622.06 3379.4
-1596.00 612.52 3327.6
-1550.28 598.21 3249.8
-1572.54 610.11 3314.5
-1603.78 625.65 3398.9
-1585.62 621.98 3379.0
-1560.04 615.35 3342.9
-1511.76 599.64 3257.6
-1506.46 611.19 3320.4
-1504.95 614.09 3336.1
-1503.77 617.15 3352.7
-1498.09 618.40 3359.5
-1496.37 621.30 3375.3
-1485.03 620.22 3369.4
-1466.58 616.14 3347.2
-1365.60 598.51 3251.4
-1378.90 608.09 3303.5
-1402.91 622.54 3382.0
-1355.56 605.31 3288.4
-1375.88 618.28 3358.8
-1356.62 621.42 3375.9
-1328.76 620.67 3371.9
-1330.50 625.60 3398.6
-1297.85 622.62 3382.4
-1269.11 612.97 3330.0
-1261.53 613.48 3332.8
-1249.98 620.62 3371.6
-1241.92 620.96 3373.4
-1196.17 624.47 3392.5
-1151.34 614.62 3339.0
-1157.92 622.82 3383.5
-1048.18 600.17 3260.5
-1063.07 618.67 3361.0
-1011.82 624.69 3393.7
-999.81 622.69 3382.8
-941.17 618.73 3361.3
-790.65 623.74 3388.5
-704.78 602.88 3275.2
-703.26 616.44 3348.9
-609.17 617.88 3356.7
-594.50 611.73 3323.3
-596.38 622.69 3382.8
-580.79 615.47 3343.6
-523.09 618.99 3362.7
-502.96 605.26 3288.1
-504.57 617.66 3355.5
-425.98 617.23 3353.2
-355.97 601.75 3269.1
-355.69 615.96 3346.2
-266.65 610.71 3317.7
-257.87 610.29 3315.5
-250.94 614.38 3337.7
-180.88 611.56 3322.3
-169.24 600.79 3263.9
-163.46 610.81 3318.3
159.34 595.44 3234.8
167.40 594.28 3228.5
225.63 616.15 3347.3
232.97 612.61 3328.1
255.20 603.97 3281.1
263.26 602.95 3275.6
275.27 610.77 3318.0
280.38 603.24 3277.2
287.35 600.04 3259.8
338.42 616.09 3347.0
360.44 609.31 3310.1
390.99 616.89 3351.3
499.69 601.32 3266.7
503.43 595.73 3236.3
515.47 599.97 3259.4
535.74 613.50 3332.9
546.38 615.76 3345.2
543.72 603.19 3276.9
559.67 611.34 3321.1
602.67 611.28 3320.8
602.10 602.10 3271.0
618.80 610.20 3315.0
723.97 604.73 3285.3
711.97 587.79 3193.2
737.40 601.79 3269.3
817.37 610.88 3318.7
837.04 600.30 3261.2
838.06 595.03 3232.5
929.71 605.59 3289.9
965.20 611.87 3324.0
944.65 593.54 3224.5
973.85 606.52 3295.0
989.60 610.97 3319.1
985.60 603.25 3277.2
1009.70 612.72 3328.7
1027.08 588.08 3194.8
1065.57 605.25 3288.1
1087.16 603.03 3276.0
1104.09 598.40 3250.9
1134.31 610.12 3314.5
1130.46 603.48 3278.5
1122.45 585.99 3183.4
1144.32 593.04 3221.8
1233.88 612.63 3328.2
1247.92 606.87 3296.9
1247.70 602.63 3273.9
1271.37 609.92 3313.4
1262.19 601.45 3267.4
1288.38 597.88 3248.0
1276.67 588.60 3197.6
1298.92 594.99 3232.3
1293.22 588.58 3197.5
1327.87 600.50 3262.3
1406.20 608.78 3307.3
1410.77 607.06 3297.9
1406.88 594.58 3230.1
1454.93 597.11 3243.9
1431.55 584.14 3173.4
1480.47 593.86 3226.2
1488.23 593.62 3224.9
1548.33 607.36 3299.5
1570.24 605.91 3291.7
1529.45 586.98 3188.8
1584.19 604.72 3285.2
1600.60 607.72 3301.5
1643.22 610.83 3318.4
1632.95 597.63 3246.7
1689.58 605.86 3291.4
1666.05 594.42 3229.2
1701.78 604.13 3282.0
1783.36 602.95 3275.6
1765.79 594.18 3227.9
1814.12 607.56 3300.6
1768.88 586.87 3188.2
1795.09 590.05 3205.5
1847.45 604.46 3283.8
1793.71 584.19 3173.7
1853.22 595.38 3234.5
1894.09 603.05 3276.1
1830.07 580.07 3151.3
1868.56 589.64 3203.3
1937.21 608.59 3306.2
1949.03 606.94 3297.2
1932.72 599.23 3255.4
1913.71 590.75 3209.3
