ply
format ascii 1.0
element vertex 2078
property float x
property float y
property float z
end_header
-1391.97 -674.90 2324.3
-1394.89 -679.25 2339.3
-1473.53 -720.68 2481.9
-1402.17 -697.97 2403.7
-1383.08 -700.93 2413.9
-1384.51 -704.84 2427.4
-1351.90 -691.38 2381.0
-1350.00 -693.58 2388.6
-1410.33 -727.91 2506.8
-1359.65 -708.28 2439.2
-1279.04 -672.55 2316.2
-1317.76 -696.17 2397.5
-1311.03 -695.90 2396.6
-1301.52 -694.14 2390.5
-1292.03 -692.38 2384.5
-1282.10 -690.36 2377.5
-1268.98 -686.60 2364.6
-1268.24 -689.53 2374.6
-1257.45 -687.00 2365.9
-1264.80 -694.40 2391.4
-1281.97 -707.29 2435.8
-1254.91 -695.79 2396.2
-1260.69 -702.47 2419.2
-1299.35 -727.64 2505.9
-1278.15 -719.36 2477.4
-1277.41 -722.57 2488.5
-1260.90 -724.21 2494.1
-1158.67 -668.92 2303.7
-1209.33 -705.44 2429.5
-1230.26 -725.21 2497.5
-1142.79 -677.21 2332.2
-1144.62 -681.90 2348.4
-1216.01 -728.31 2508.2
-1159.81 -698.38 2405.1
-1111.16 -672.70 2316.7
-1159.02 -717.18 2469.9
-1066.80 -678.87 2338.0
-1060.58 -682.67 2351.0
-1080.36 -699.42 2408.7
-1075.09 -700.06 2410.9
-1038.46 -680.16 2342.4
-1045.00 -688.47 2371.0
-1062.67 -704.25 2425.4
-1048.83 -699.22 2408.0
-1023.16 -686.19 2363.2
-1022.89 -690.15 2376.8
-1045.36 -709.58 2443.7
-1025.57 -700.39 2412.1
-1003.66 -689.63 2375.0
-1039.89 -718.93 2475.9
-1042.17 -724.99 2496.8
-1026.22 -718.36 2473.9
-1029.88 -725.45 2498.4
-978.15 -693.37 2387.9
-960.52 -689.61 2374.9
-953.00 -716.35 2467.0
-896.89 -678.73 2337.5
-932.45 -710.44 2446.7
-933.00 -715.73 2464.9
-902.56 -697.15 2400.9
-929.78 -723.17 2490.5
-888.25 -715.72 2464.8
-874.42 -709.67 2444.0
-838.31 -711.29 2449.6
-849.00 -725.87 2499.8
-831.45 -721.88 2486.1
-763.88 -679.00 2338.4
-748.10 -675.70 2327.0
-744.34 -677.77 2334.2
-747.23 -685.98 2362.4
-743.92 -688.59 2371.4
-747.44 -697.61 2402.5
-761.04 -716.27 2466.7
-761.35 -722.64 2488.7
-747.58 -715.63 2464.5
-702.28 -678.06 2335.2
-682.89 -670.91 2310.5
-706.32 -700.07 2411.0
-704.01 -704.01 2424.5
-677.93 -684.04 2355.7
-637.13 -666.90 2296.7
-644.20 -687.14 2366.4
-671.29 -722.93 2489.7
-655.53 -726.92 2503.4
-642.66 -719.77 2478.8
-632.77 -715.86 2465.3
-619.63 -708.15 2438.8
-606.38 -700.15 2411.2
-602.33 -702.71 2420.1
-604.90 -713.15 2456.0
-594.31 -708.11 2438.7
-573.20 -690.30 2377.3
-565.33 -688.23 2370.2
-569.87 -701.38 2415.5
-567.19 -705.84 2430.8
-569.84 -717.10 2469.6
-559.02 -711.49 2450.3
-535.60 -689.51 2374.6
-527.20 -686.59 2364.5
-533.34 -702.76 2420.2
-520.37 -693.83 2389.5
-511.20 -689.81 2375.6
-526.89 -719.65 2478.4
-515.77 -713.17 2456.1
-487.38 -682.33 2349.9
-482.29 -683.75 2354.8
-493.57 -708.71 2440.7
-488.97 -711.23 2449.4
-463.88 -683.61 2354.3
-453.57 -677.34 2332.7
-457.33 -692.17 2383.8
-458.50 -703.45 2422.6
-455.24 -708.15 2438.8
-441.10 -695.82 2396.3
-424.26 -678.81 2337.7
-423.45 -687.34 2367.1
-420.99 -693.40 2388.0
-412.01 -688.73 2371.9
-415.91 -705.79 2430.7
-417.44 -719.28 2477.1
-411.02 -719.29 2477.1
-400.11 -711.30 2449.6
-382.16 -690.35 2377.5
-369.08 -677.65 2333.7
-372.17 -694.72 2392.5
-380.63 -722.56 2488.4
-345.92 -691.83 2382.6
-336.06 -684.33 2356.8
-339.35 -717.13 2469.7
-323.43 -696.62 2399.1
-293.70 -699.88 2410.3
-290.15 -706.46 2432.9
-275.29 -700.75 2413.3
-261.66 -681.52 2347.1
-242.50 -678.99 2338.4
-244.42 -701.92 2417.3
-243.95 -719.02 2476.2
-237.77 -719.74 2478.7
-229.61 -714.34 2460.1
-219.46 -702.28 2418.6
-212.31 -699.37 2408.5
-172.24 -714.48 2460.6
-166.02 -715.15 2462.9
-133.51 -712.05 2452.2
-126.52 -708.52 2440.1
-120.21 -708.61 2440.4
-111.84 -695.88 2396.5
-109.86 -723.81 2492.7
-83.75 -721.57 2485.0
-70.19 -714.71 2461.4
-63.94 -716.15 2466.3
-50.52 -707.31 2435.9
-43.32 -693.12 2387.0
-25.31 -708.81 2441.0
-18.36 -685.40 2360.4
-12.65 -708.28 2439.2
12.80 -716.64 2468.0
19.11 -713.28 2456.5
36.19 -675.58 2326.6
49.69 -695.60 2395.6
63.22 -708.07 2438.5
70.22 -714.99 2462.3
81.39 -701.23 2414.9
89.27 -666.55 2295.5
101.70 -711.90 2451.7
107.12 -705.70 2430.3
113.99 -709.25 2442.6
139.79 -711.68 2450.9
144.53 -703.79 2423.8
154.31 -720.11 2480.0
160.50 -665.79 2292.9
192.99 -675.47 2326.2
201.11 -682.56 2350.7
212.22 -699.09 2407.6
222.41 -711.72 2451.1
242.82 -715.69 2464.7
248.09 -712.46 2453.6
252.51 -707.02 2434.9
256.01 -699.35 2408.5
257.72 -687.25 2366.8
270.71 -705.09 2428.3
286.60 -713.30 2456.5
292.54 -712.27 2453.0
301.26 -717.89 2472.3
301.88 -704.39 2425.8
298.88 -683.14 2352.7
306.36 -686.26 2363.4
326.00 -715.92 2465.5
329.33 -709.34 2442.9
318.42 -672.89 2317.4
322.06 -667.98 2300.4
345.16 -666.52 2295.4
353.60 -671.24 2311.7
373.76 -664.47 2288.3
391.35 -684.87 2358.6
401.31 -691.48 2381.4
399.21 -677.45 2333.1
425.61 -671.39 2312.2
444.83 -691.96 2383.0
454.75 -697.69 2402.8
463.31 -701.22 2414.9
447.88 -668.84 2303.4
476.60 -684.35 2356.8
475.53 -674.18 2321.8
476.44 -667.02 2297.1
493.04 -681.73 2347.8
504.48 -689.05 2373.0
493.99 -666.59 2295.7
508.71 -670.29 2308.4
520.08 -677.32 2332.6
530.31 -682.69 2351.1
534.63 -680.43 2343.3
539.60 -664.13 2287.2
545.91 -664.58 2288.7
605.73 -685.27 2360.0
629.37 -704.89 2427.6
656.89 -662.80 2282.6
723.25 -680.71 2344.3
747.73 -697.88 2403.4
733.25 -678.71 2337.4
748.69 -676.23 2328.9
753.30 -674.96 2324.5
850.35 -705.47 2429.6
822.25 -672.21 2315.0
902.11 -701.64 2416.4
895.43 -691.64 2381.9
901.85 -664.52 2288.5
903.83 -661.63 2278.6
923.84 -667.55 2299.0
950.75 -682.59 2350.8
932.37 -665.13 2290.6
949.99 -664.99 2290.2
989.76 -663.79 2286.0
994.42 -662.95 2283.1
1026.67 -668.53 2302.3
1097.61 -690.63 2378.4
1107.23 -692.79 2385.9
1090.04 -670.79 2310.1
1142.68 -699.35 2408.5
1102.03 -670.80 2310.2
1138.68 -678.36 2336.2
1201.19 -704.36 2425.7
1215.80 -709.22 2442.5
1149.48 -667.06 2297.3
1187.91 -665.23 2291.0
1238.76 -690.25 2377.2
1283.67 -711.74 2451.1
1247.23 -688.13 2369.8
1214.99 -667.05 2297.2
1231.99 -673.09 2318.0
1255.10 -672.59 2316.3
1262.60 -673.39 2319.1
1283.12 -681.09 2345.6
1264.54 -668.06 2300.7
1262.56 -660.78 2275.6
1434.71 -664.00 2286.7
1592.07 -680.58 2343.8
1577.97 -659.45 2271.1
1622.11 -675.38 2325.9
1648.19 -661.64 2278.6
1752.17 -660.75 2275.5
-1955.11 -694.74 2371.4
-1901.14 -682.00 2327.9
-1895.55 -682.16 2328.5
-1880.74 -678.99 2317.7
-1936.47 -701.35 2394.0
-2017.04 -732.88 2501.6
-1986.10 -723.97 2471.2
-1883.34 -688.73 2350.9
-1926.95 -706.96 2413.2
-1997.05 -735.07 2509.1
-1936.00 -714.93 2440.3
-1865.49 -691.15 2359.2
-1820.58 -676.73 2309.9
-1906.32 -718.05 2451.0
-1917.15 -724.54 2473.2
-1783.73 -687.92 2348.2
-1820.30 -704.43 2404.5
-1812.11 -703.67 2401.9
-1772.41 -695.43 2373.8
-1706.92 -686.41 2343.0
-1718.27 -693.44 2367.0
-1657.29 -688.51 2350.1
-1657.58 -691.17 2359.2
-1624.92 -680.06 2321.3
-1635.23 -686.92 2344.7
-1584.05 -680.60 2323.2
-1587.47 -684.67 2337.1
-1600.63 -693.00 2365.5
-1656.06 -719.75 2456.8
-1570.31 -685.12 2338.6
-1584.34 -696.62 2377.8
-1668.06 -736.29 2513.3
-1545.02 -684.66 2337.0
-1543.15 -691.97 2362.0
-1507.50 -678.67 2316.6
-1555.18 -705.76 2409.1
-1566.02 -716.44 2445.5
-1501.37 -689.65 2354.1
-1478.19 -681.78 2327.2
-1474.30 -682.77 2330.6
-1539.21 -715.76 2443.2
-1485.04 -693.43 2366.9
-1487.80 -700.50 2391.1
-1472.00 -698.89 2385.6
-1422.84 -690.05 2355.4
-1390.77 -677.40 2312.2
-1373.30 -674.71 2303.1
-1429.08 -711.39 2428.3
-1431.16 -715.58 2442.6
-1393.61 -699.90 2389.1
-1377.05 -707.30 2414.3
-1412.42 -728.78 2487.6
-1360.71 -705.32 2407.6
-1363.48 -710.02 2423.6
-1387.96 -726.11 2478.5
-1278.78 -681.62 2326.6
-1274.06 -682.31 2329.0
-1255.42 -675.54 2305.9
-1242.88 -671.99 2293.8
-1250.14 -679.16 2318.3
-1249.97 -682.35 2329.1
-1231.66 -685.61 2340.3
-1242.54 -695.08 2372.6
-1288.61 -724.44 2472.8
-1269.01 -720.59 2459.7
-1247.97 -712.22 2431.1
-1269.30 -728.07 2485.2
-1259.27 -726.01 2478.2
-1169.83 -677.90 2313.9
-1208.65 -711.34 2428.1
-1222.99 -731.21 2495.9
-1182.52 -710.77 2426.1
-1205.61 -728.53 2486.7
-1188.55 -722.07 2464.7
-1181.18 -721.48 2462.7
-1178.10 -731.46 2496.8
-1158.76 -723.42 2469.3
-1101.52 -691.51 2360.4
-1076.07 -679.31 2318.8
-1143.94 -726.21 2478.8
-1113.97 -711.18 2427.5
-1059.56 -688.10 2348.8
-1107.80 -723.59 2469.9
-1077.99 -708.22 2417.4
-1021.80 -675.22 2304.8
-1009.72 -671.16 2291.0
-1009.32 -674.87 2303.6
-998.46 -671.58 2292.4
-1008.54 -686.54 2343.4
-1066.01 -730.05 2492.0
-1045.74 -720.54 2459.5
-1014.71 -703.45 2401.2
-1035.52 -722.31 2465.5
-1029.65 -722.67 2466.8
-1018.95 -719.63 2456.4
-1030.74 -732.54 2500.4
-996.13 -721.55 2462.9
-996.33 -726.35 2479.3
-944.08 -715.98 2443.9
-883.90 -674.87 2303.6
-917.45 -705.25 2407.3
-885.09 -719.53 2456.0
-878.42 -719.28 2455.2
-845.27 -723.60 2469.9
-824.17 -727.59 2483.5
-776.74 -691.11 2359.1
-745.10 -673.57 2299.2
-758.53 -691.24 2359.5
-762.01 -700.06 2389.6
-745.59 -690.59 2357.3
-726.44 -678.41 2315.7
-728.66 -686.15 2342.1
-743.80 -706.30 2410.9
-753.82 -721.88 2464.1
-746.54 -721.01 2461.1
-744.53 -725.28 2475.7
-722.83 -716.49 2445.7
-696.93 -696.93 2378.9
-701.41 -707.67 2415.6
-681.48 -693.76 2368.1
-649.58 -686.00 2341.6
-657.57 -714.48 2438.8
-641.45 -717.66 2449.7
-623.88 -704.99 2406.4
-609.15 -695.30 2373.3
-614.25 -708.26 2417.6
-620.99 -723.42 2469.3
-601.00 -707.43 2414.7
-587.25 -698.52 2384.3
-603.94 -726.01 2478.2
-591.96 -727.08 2481.8
-587.38 -729.39 2489.7
-577.74 -725.39 2476.0
-574.00 -728.79 2487.7
-561.22 -720.66 2459.9
-535.88 -696.02 2375.8
-519.11 -682.08 2328.2
-519.75 -690.96 2358.5
-535.57 -720.47 2459.3
-498.04 -694.80 2371.6
-478.07 -675.28 2305.0
-480.81 -687.74 2347.5
-488.66 -707.93 2416.5
-480.17 -704.67 2405.3
-460.22 -684.27 2335.7
-456.57 -687.90 2348.1
-448.15 -684.33 2335.9
-435.85 -674.68 2302.9
-439.94 -690.47 2356.8
-432.11 -687.72 2347.5
-422.60 -682.19 2328.6
-428.75 -702.15 2396.7
-437.22 -726.56 2480.0
-379.21 -726.29 2479.1
-354.93 -716.19 2444.6
-324.74 -692.37 2363.3
-315.00 -684.51 2336.5
-320.23 -723.71 2470.3
-305.81 -705.24 2407.3
-288.36 -708.36 2417.9
-278.50 -699.34 2387.1
-271.51 -697.29 2380.1
-267.33 -702.51 2398.0
-259.41 -697.94 2382.4
-255.23 -703.43 2401.1
-251.84 -711.44 2428.4
-248.98 -721.41 2462.5
-224.25 -724.02 2471.4
-212.50 -706.25 2410.7
-210.96 -722.36 2465.7
-205.32 -725.03 2474.8
-196.10 -714.80 2439.9
-170.31 -712.79 2433.0
-156.99 -682.32 2329.0
-155.14 -701.23 2393.6
-138.60 -711.92 2430.1
-127.36 -685.34 2339.4
-124.60 -703.96 2402.9
-122.16 -726.51 2479.9
-114.09 -716.21 2444.7
-95.14 -716.71 2446.4
-87.24 -704.13 2403.5
-57.65 -723.77 2470.5
-18.86 -710.44 2425.0
-12.27 -693.02 2365.5
-6.02 -680.65 2323.3
0.00 -698.37 2383.8
6.35 -717.20 2448.1
12.59 -711.57 2428.9
18.98 -714.94 2440.4
31.93 -721.65 2463.3
37.24 -701.38 2394.1
44.61 -720.19 2458.3
57.69 -724.33 2472.4
63.18 -713.89 2436.8
81.98 -712.61 2432.4
84.10 -678.84 2317.1
122.02 -725.67 2477.0
132.74 -714.26 2438.1
137.13 -704.34 2404.2
146.94 -721.93 2464.2
149.67 -704.70 2405.4
155.14 -701.23 2393.6
161.67 -676.60 2309.5
195.64 -690.84 2358.1
242.94 -722.42 2465.9
245.79 -712.17 2430.9
250.85 -708.64 2418.9
256.04 -705.67 2408.7
265.34 -713.88 2436.8
293.36 -720.65 2459.9
295.47 -710.40 2424.9
304.64 -717.17 2448.0
311.86 -719.19 2454.9
317.14 -716.74 2446.5
330.39 -717.97 2450.7
313.63 -668.68 2282.5
324.10 -678.22 2315.0
331.89 -681.89 2327.6
337.27 -668.62 2282.3
347.92 -677.85 2313.8
354.23 -678.45 2315.8
372.27 -667.72 2279.2
391.16 -669.72 2286.0
395.78 -667.51 2278.5
438.18 -687.70 2347.4
449.61 -695.98 2375.7
458.47 -700.10 2389.7
444.65 -669.93 2286.8
474.91 -696.94 2378.9
482.76 -699.38 2387.3
466.15 -666.77 2276.0
518.27 -680.98 2324.5
536.72 -697.12 2379.6
545.61 -700.61 2391.5
536.17 -680.75 2323.7
537.32 -674.63 2302.8
553.38 -687.16 2345.6
565.40 -694.46 2370.5
564.48 -685.87 2341.1
565.45 -679.74 2320.2
579.89 -689.76 2354.4
579.39 -681.99 2327.9
610.61 -689.98 2355.2
627.32 -701.85 2395.7
649.12 -672.94 2297.0
681.66 -669.80 2286.3
710.16 -680.07 2321.3
748.34 -710.61 2425.6
764.13 -719.56 2456.1
737.97 -689.18 2352.5
746.15 -679.96 2321.0
838.67 -702.00 2396.2
863.80 -717.72 2449.8
807.22 -665.81 2272.7
853.32 -669.62 2285.7
875.96 -668.80 2282.9
907.67 -674.78 2303.3
901.86 -666.08 2273.6
922.67 -668.35 2281.3
997.87 -704.74 2405.6
989.49 -694.48 2370.6
979.45 -683.20 2332.0
982.01 -680.78 2323.8
977.24 -665.23 2270.7
1040.20 -703.85 2402.5
1031.62 -693.89 2368.5
1031.57 -677.72 2313.3
1071.71 -669.08 2283.8
1072.09 -665.64 2272.1
1131.79 -683.92 2334.5
1175.33 -702.71 2398.6
1125.83 -666.06 2273.5
1165.97 -686.22 2342.4
1236.17 -701.95 2396.0
1222.44 -690.68 2357.6
1230.02 -691.50 2360.4
1245.68 -696.84 2378.6
1217.37 -667.78 2279.4
1252.72 -683.85 2334.3
1252.21 -670.62 2289.1
1264.32 -673.91 2300.3
1286.30 -682.41 2329.3
1309.81 -691.63 2360.8
1448.52 -668.09 2280.5
1616.95 -697.39 2380.5
1627.30 -699.18 2386.6
1549.83 -663.37 2264.4
1716.34 -671.10 2290.7
1767.43 -672.46 2295.4
1756.38 -666.01 2273.4
-2003.52 -713.75 2415.0
-1971.71 -704.62 2384.1
-2018.15 -723.49 2447.9
-1946.76 -700.10 2368.8
-1945.44 -701.84 2374.6
-2003.29 -725.00 2453.0
-1960.57 -711.80 2408.3
-1856.50 -680.52 2302.5
-1834.90 -679.15 2297.9
-1953.70 -725.48 2454.6
-1941.80 -723.41 2447.6
-1860.43 -695.37 2352.8
-1804.09 -676.53 2289.0
-1782.30 -677.27 2291.5
-1867.96 -712.20 2409.7
-1798.45 -688.00 2327.8
-1758.56 -681.89 2307.1
-1774.67 -690.49 2336.2
-1751.32 -683.73 2313.4
-1729.80 -677.65 2292.8
-1811.86 -712.25 2409.9
-1878.93 -741.17 2507.7
-1784.98 -706.56 2390.6
-1711.76 -679.93 2300.5
-1729.24 -689.28 2332.1
-1713.65 -685.46 2319.2
-1706.19 -687.30 2325.5
-1743.49 -704.81 2384.7
-1735.90 -704.24 2382.8
-1690.03 -688.09 2328.1
-1661.63 -688.82 2330.6
-1631.63 -686.37 2322.3
-1679.87 -709.28 2399.8
-1671.13 -708.21 2396.2
-1607.50 -683.79 2313.6
-1572.32 -681.54 2306.0
-1555.21 -679.29 2298.3
-1605.84 -704.10 2382.3
-1604.72 -706.33 2389.8
-1600.34 -707.13 2392.5
-1648.16 -731.09 2473.6
-1614.93 -721.97 2442.7
-1556.47 -698.58 2363.6
-1520.67 -685.20 2318.4
-1540.78 -697.02 2358.3
-1540.62 -699.72 2367.5
-1504.52 -686.06 2321.3
-1484.63 -685.21 2318.4
-1592.96 -738.20 2497.7
-1574.71 -732.72 2479.1
-1577.28 -736.92 2493.4
-1561.69 -732.64 2478.9
-1437.36 -677.10 2291.0
-1523.32 -726.60 2458.4
-1470.22 -704.22 2382.7
-1453.45 -699.13 2365.5
-1467.62 -708.93 2398.6
-1421.62 -689.64 2333.4
-1427.16 -695.28 2352.5
-1445.15 -707.07 2392.3
-1387.04 -681.56 2306.0
-1404.34 -696.07 2355.1
-1479.89 -736.71 2492.6
-1453.80 -726.90 2459.4
-1346.49 -682.22 2308.3
-1348.25 -686.16 2321.6
-1374.68 -702.75 2377.7
-1395.09 -716.40 2423.9
-1371.96 -714.17 2416.4
-1387.61 -725.63 2455.1
-1314.78 -690.72 2337.0
-1314.26 -700.12 2368.8
-1291.68 -691.32 2339.1
-1257.56 -676.24 2288.0
-1274.28 -688.48 2329.4
-1279.26 -694.46 2349.7
-1254.64 -684.35 2315.5
-1252.20 -686.30 2322.1
-1236.46 -680.95 2304.0
-1209.11 -675.68 2286.1
-1235.93 -694.07 2348.4
-1242.74 -701.35 2373.0
-1268.22 -719.29 2433.7
-1277.86 -728.38 2464.4
-1262.97 -723.51 2448.0
-1261.40 -726.26 2457.3
-1237.35 -716.03 2422.7
-1181.02 -686.92 2324.2
-1146.02 -676.92 2290.3
-1209.25 -717.99 2429.3
-1201.54 -717.15 2426.4
-1136.60 -681.96 2307.4
-1123.62 -677.74 2293.1
-1123.82 -681.47 2305.7
-1137.46 -693.43 2346.2
-1112.31 -681.74 2306.6
-1161.65 -723.65 2448.5
-1105.96 -696.57 2356.8
-1105.63 -708.10 2395.8
-1114.12 -717.57 2427.9
-1053.12 -682.14 2308.0
-1032.33 -676.35 2288.4
-1065.65 -702.22 2375.9
-1029.78 -682.53 2309.3
-1009.51 -676.96 2290.5
-1022.28 -689.58 2333.2
-1023.30 -694.38 2349.4
-1047.91 -724.01 2449.7
-1043.22 -725.17 2453.6
-1023.11 -715.55 2421.0
-958.69 -691.71 2340.4
-971.97 -705.76 2387.9
-972.01 -710.32 2403.3
-947.89 -697.16 2358.8
-948.28 -701.97 2375.1
-928.68 -691.96 2341.2
-916.66 -687.49 2326.1
-951.04 -732.56 2478.6
-929.59 -720.90 2439.1
-918.88 -717.48 2427.6
-851.75 -693.57 2346.7
-840.11 -689.01 2331.2
-850.57 -723.62 2448.3
-850.19 -728.73 2465.6
-780.89 -695.48 2353.1
-780.16 -700.30 2369.4
-789.51 -714.32 2416.9
-783.21 -714.29 2416.8
-783.97 -720.75 2438.6
-789.59 -731.82 2476.1
-772.98 -722.29 2443.8
-745.85 -702.70 2377.6
-743.05 -705.90 2388.4
-751.83 -720.24 2436.9
-756.71 -731.06 2473.5
-751.08 -731.82 2476.1
-736.20 -729.79 2469.2
-691.55 -691.55 2339.8
-675.38 -681.36 2305.3
-689.69 -702.00 2375.2
-699.93 -718.85 2432.2
-682.19 -707.00 2392.1
-658.63 -688.84 2330.7
-681.78 -719.66 2434.9
-654.69 -704.10 2382.3
-621.88 -675.19 2284.5
-642.62 -704.41 2383.3
-649.23 -718.56 2431.2
-624.13 -697.56 2360.2
-614.48 -693.57 2346.7
-608.03 -693.15 2345.3
-601.10 -692.18 2342.0
-615.50 -715.98 2422.5
-608.96 -723.14 2446.7
-585.94 -703.13 2379.0
-593.52 -719.80 2435.4
-597.89 -732.90 2479.7
-586.88 -727.22 2460.5
-585.01 -732.86 2479.6
-572.11 -732.81 2479.4
-553.79 -717.41 2427.3
-526.43 -689.80 2333.9
-508.93 -674.63 2282.6
-512.37 -687.17 2325.0
-532.97 -723.31 2447.3
-516.19 -717.63 2428.1
-487.84 -686.58 2323.0
-478.53 -681.91 2307.2
-470.85 -679.45 2298.9
-469.86 -686.72 2323.5
-483.23 -715.44 2420.6
-484.79 -727.18 2460.4
-461.21 -701.04 2371.9
-432.88 -676.00 2287.2
-448.98 -710.89 2405.3
-441.37 -708.68 2397.8
-432.77 -704.80 2384.6
-435.22 -719.06 2432.9
-409.36 -729.18 2467.1
-396.31 -717.13 2426.4
-390.47 -717.96 2429.2
-380.27 -710.66 2404.5
-357.20 -678.69 2296.3
-351.81 -679.77 2300.0
-356.68 -701.05 2372.0
-350.93 -701.86 2374.7
-340.89 -693.96 2348.0
-338.30 -701.21 2372.5
-332.13 -701.16 2372.4
-320.60 -689.59 2333.2
-328.50 -720.17 2436.7
-303.85 -692.77 2344.0
-291.57 -678.35 2295.2
-299.69 -711.76 2408.2
-294.52 -729.91 2469.6
-286.42 -725.60 2455.0
-282.09 -730.87 2472.9
-270.54 -717.26 2426.8
-255.28 -692.92 2344.5
-248.86 -691.96 2341.2
-243.05 -692.70 2343.7
-242.73 -709.51 2400.6
-223.85 -708.87 2398.4
-219.68 -715.52 2420.9
-205.41 -709.60 2400.9
-189.23 -674.15 2280.9
-178.22 -677.23 2291.4
-180.87 -710.99 2405.6
-172.92 -704.05 2382.1
-168.92 -713.22 2413.1
-164.63 -721.82 2442.2
-155.28 -708.07 2395.7
-150.88 -716.67 2424.8
-139.93 -725.08 2453.3
-127.59 -692.62 2343.5
-124.56 -709.98 2402.2
-114.14 -722.89 2445.9
-106.21 -712.20 2409.7
-96.95 -690.75 2337.1
-90.75 -689.69 2333.5
-88.22 -718.36 2430.5
-18.60 -706.87 2391.7
-11.91 -679.10 2297.7
-6.00 -683.93 2314.0
0.00 -719.08 2433.0
12.67 -722.47 2444.4
18.00 -683.91 2314.0
31.04 -707.68 2394.4
44.65 -727.18 2460.4
49.06 -699.10 2365.4
73.90 -702.04 2375.3
80.92 -709.63 2401.0
112.63 -675.81 2286.6
125.87 -683.28 2311.9
148.32 -704.50 2383.6
150.50 -686.29 2322.0
160.05 -701.74 2374.3
167.58 -707.56 2394.0
170.70 -695.00 2351.5
172.45 -677.92 2293.7
202.55 -699.72 2367.5
242.39 -727.17 2460.4
248.23 -725.59 2455.0
261.64 -727.49 2461.4
273.84 -725.99 2456.4
266.76 -691.14 2338.5
270.97 -686.45 2322.6
279.30 -692.17 2341.9
282.97 -686.34 2322.2
292.93 -695.72 2353.9
300.28 -698.60 2363.7
306.93 -699.80 2367.7
313.22 -700.15 2368.9
321.22 -678.13 2294.4
335.59 -695.60 2353.5
341.86 -695.92 2354.6
353.45 -706.91 2391.8
365.95 -719.29 2433.7
366.76 -708.66 2397.7
366.71 -674.26 2281.3
371.86 -672.89 2276.7
398.80 -678.55 2295.8
407.83 -673.80 2279.8
419.91 -683.85 2313.8
423.64 -680.21 2301.5
430.66 -681.88 2307.1
430.02 -671.54 2272.1
457.31 -685.96 2320.9
488.50 -723.23 2447.0
491.76 -718.72 2431.8
472.58 -681.95 2307.4
514.02 -689.39 2332.5
531.29 -696.17 2355.5
533.81 -668.73 2262.6
553.43 -685.77 2320.3
569.62 -683.54 2312.7
582.03 -691.16 2338.5
599.87 -677.08 2290.9
610.37 -682.18 2308.1
620.45 -686.71 2323.5
658.11 -688.30 2328.8
663.46 -687.59 2326.4
693.59 -687.55 2326.3
696.66 -684.65 2316.5
701.92 -683.92 2314.0
724.34 -699.78 2367.7
733.11 -702.30 2376.2
723.04 -686.89 2324.1
716.76 -675.29 2284.8
733.64 -669.08 2263.8
755.73 -683.76 2313.5
785.58 -705.16 2385.9
786.04 -700.07 2368.7
779.09 -688.50 2329.5
780.87 -684.76 2316.9
786.41 -669.03 2263.6
817.14 -690.03 2334.7
798.55 -669.37 2264.8
839.46 -688.47 2329.4
845.17 -688.21 2328.5
867.45 -672.72 2276.1
879.56 -677.50 2292.3
903.55 -691.30 2339.0
892.80 -678.53 2295.8
918.86 -671.47 2271.9
998.00 -711.08 2405.9
969.94 -686.79 2323.7
979.92 -685.34 2318.8
969.59 -673.99 2280.4
1021.29 -701.37 2373.1
1045.71 -713.84 2415.3
999.02 -677.90 2293.7
1022.70 -677.84 2293.4
1030.09 -678.79 2296.7
1102.65 -675.82 2286.6
1132.40 -690.34 2335.7
1134.41 -687.89 2327.4
1112.99 -671.33 2271.4
1210.35 -711.24 2406.4
1207.99 -706.21 2389.4
1160.87 -675.20 2284.5
1205.76 -690.74 2337.1
1183.91 -674.83 2283.3
1237.20 -684.67 2316.5
1248.36 -687.50 2326.1
1250.97 -669.53 2265.3
1287.02 -685.61 2319.7
1284.63 -681.15 2304.6
1270.81 -670.71 2269.3
1400.31 -676.42 2288.6
1411.70 -670.56 2268.8
1419.63 -671.53 2272.1
1459.74 -679.23 2298.1
1446.34 -670.26 2267.8
1561.14 -674.13 2280.9
1598.23 -669.85 2266.4
1647.75 -670.87 2269.9
-1965.31 -706.28 2368.9
-2021.79 -728.86 2444.6
-2044.01 -743.87 2495.0
-1997.84 -731.69 2454.1
-1863.12 -684.53 2296.0
-1823.51 -685.31 2298.5
-1834.83 -691.82 2320.4
-1841.85 -696.75 2336.9
-1877.08 -712.42 2389.5
-1880.32 -716.02 2401.5
-1884.11 -719.84 2414.4
-1851.41 -709.71 2380.4
-1839.68 -707.57 2373.2
-1822.02 -703.13 2358.3
-1758.29 -694.86 2330.6
-1749.05 -693.59 2326.3
-1722.91 -685.59 2299.5
-1756.22 -701.27 2352.1
-1810.81 -725.59 2433.6
-1748.12 -702.92 2357.6
-1731.76 -706.21 2368.7
-1741.37 -712.66 2390.3
-1757.19 -721.70 2420.6
-1748.39 -720.66 2417.1
-1708.92 -706.93 2371.1
-1717.79 -713.16 2392.0
-1695.47 -706.45 2369.5
-1656.88 -692.88 2323.9
-1656.14 -695.09 2331.4
-1621.13 -682.89 2290.4
-1619.85 -684.86 2297.1
-1691.71 -717.89 2407.8
-1682.40 -716.58 2403.4
-1605.30 -686.28 2301.8
-1590.64 -682.55 2289.3
-1593.71 -686.43 2302.3
-1595.62 -689.84 2313.7
-1585.39 -688.00 2307.6
-1589.43 -692.37 2322.2
-1606.55 -702.48 2356.2
-1573.89 -690.83 2317.1
-1577.83 -695.21 2331.8
-1631.63 -721.68 2420.5
-1627.73 -722.74 2424.1
-1601.69 -713.93 2394.6
-1623.66 -726.54 2436.8
-1617.33 -729.38 2446.4
-1574.90 -713.05 2391.6
-1547.57 -703.44 2359.4
-1502.32 -685.58 2299.5
-1547.44 -732.33 2456.3
-1505.66 -715.50 2399.8
-1467.69 -700.35 2349.0
-1463.85 -710.31 2382.4
-1492.14 -727.10 2438.7
-1451.62 -710.37 2382.6
-1416.85 -696.32 2335.5
-1398.29 -690.14 2314.8
-1379.31 -683.71 2293.2
-1381.81 -687.91 2307.3
-1362.91 -681.46 2285.6
-1358.44 -682.18 2288.1
-1443.16 -727.91 2441.4
-1443.76 -731.42 2453.2
-1337.59 -689.79 2313.6
-1386.12 -718.04 2408.3
-1331.27 -692.74 2323.5
-1352.09 -710.00 2381.4
-1346.37 -710.24 2382.2
-1335.75 -714.47 2396.4
-1351.56 -726.31 2436.1
-1300.79 -702.31 2355.6
-1282.97 -695.95 2334.2
-1324.65 -721.97 2421.5
-1290.99 -713.77 2394.0
-1216.32 -682.32 2288.5
-1211.60 -683.01 2290.8
-1200.11 -679.87 2280.3
-1193.60 -679.52 2279.1
-1201.38 -687.36 2305.4
-1228.18 -706.20 2368.6
-1232.11 -712.03 2388.2
-1253.18 -727.85 2441.3
-1251.59 -730.62 2450.5
-1208.37 -708.99 2378.0
-1192.04 -703.00 2357.9
-1217.04 -721.44 2419.7
-1217.59 -729.29 2446.1
-1173.97 -714.32 2395.9
-1122.75 -686.79 2303.5
-1107.04 -684.46 2295.7
-1114.66 -692.90 2324.0
-1095.96 -684.97 2297.4
-1142.35 -717.87 2407.8
-1071.27 -680.64 2282.9
-1087.81 -698.87 2344.0
-1141.78 -737.67 2474.2
-1094.54 -711.14 2385.2
-1048.89 -685.35 2298.7
-1027.35 -679.00 2277.4
-1050.41 -698.25 2341.9
-1044.49 -698.35 2342.3
-1043.65 -701.87 2354.1
-1064.54 -720.13 2415.3
-1086.32 -739.21 2479.3
-1069.61 -736.56 2470.4
-1013.81 -702.34 2355.7
-1024.52 -714.06 2395.0
-949.69 -691.23 2318.4
-937.57 -686.76 2303.4
-988.40 -728.63 2443.8
-962.35 -718.64 2410.3
-935.70 -737.02 2472.0
-849.02 -692.47 2322.6
-837.41 -687.87 2307.2
-878.42 -726.75 2437.6
-879.91 -733.25 2459.4
-867.75 -728.40 2443.1
-843.08 -723.54 2426.8
-841.18 -727.33 2439.5
-840.58 -737.91 2475.0
-800.87 -713.95 2394.6
-777.96 -698.95 2344.3
-812.15 -735.42 2466.6
-770.70 -732.49 2456.8
-765.71 -733.81 2461.2
-711.26 -711.26 2385.6
-672.57 -678.47 2275.6
-663.86 -675.61 2266.0
-679.05 -697.24 2338.6
-689.10 -713.93 2394.6
-697.83 -729.54 2446.9
-686.52 -731.01 2451.8
-665.42 -715.17 2398.7
-658.08 -713.95 2394.6
-657.57 -720.20 2415.6
-663.21 -733.36 2459.7
-656.48 -732.97 2458.4
-653.20 -736.45 2470.1
-618.87 -726.23 2435.8
-596.74 -707.47 2372.9
-588.83 -705.37 2365.8
-574.06 -694.92 2330.8
-582.21 -712.27 2389.0
-587.59 -726.58 2437.0
-561.08 -701.35 2352.4
-545.14 -688.91 2310.6
-540.96 -691.23 2318.4
-531.35 -686.57 2302.8
-550.43 -719.31 2412.6
-524.47 -701.33 2352.3
-509.13 -688.82 2310.3
-523.61 -716.85 2404.4
-524.91 -727.28 2439.3
-499.26 -717.69 2407.2
-477.46 -695.04 2331.2
-480.20 -707.98 2374.6
-478.66 -733.95 2461.7
-452.78 -703.65 2360.1
-456.50 -719.14 2412.0
-444.72 -720.32 2416.0
-443.44 -728.51 2443.4
-424.79 -729.12 2445.5
-419.11 -730.26 2449.3
-414.35 -733.09 2458.8
-384.26 -712.75 2390.6
-357.98 -674.88 2263.6
-363.03 -707.59 2373.3
-348.73 -691.44 2319.1
-323.72 -676.86 2270.2
-328.18 -698.89 2344.1
-327.69 -711.02 2384.8
-324.04 -716.63 2403.6
-312.13 -703.81 2360.6
-301.42 -693.26 2325.2
-301.52 -707.65 2373.5
-292.25 -700.19 2348.5
-276.62 -676.84 2270.2
-292.39 -730.97 2451.7
-270.67 -723.89 2428.0
-252.20 -690.55 2316.1
-240.68 -675.09 2264.3
-241.10 -693.17 2324.9
-246.90 -728.03 2441.8
-236.08 -733.78 2461.1
-218.26 -697.23 2338.5
-215.45 -707.91 2374.4
-208.78 -727.57 2440.3
-198.29 -712.62 2390.2
-191.60 -710.76 2383.9
-184.04 -705.48 2366.2
-179.73 -712.74 2390.5
-174.05 -714.86 2397.7
-127.00 -730.25 2449.3
-120.76 -730.91 2451.5
-112.76 -720.44 2416.4
-104.99 -710.24 2382.2
-101.17 -727.15 2438.9
-82.35 -728.49 2443.4
-38.14 -731.07 2452.1
-31.38 -721.67 2420.5
-25.34 -728.55 2443.6
-18.80 -720.56 2416.8
-12.18 -700.58 2349.8
-6.22 -715.44 2399.6
12.57 -722.58 2423.5
30.51 -701.67 2353.4
37.29 -714.79 2397.4
55.33 -706.98 2371.2
70.02 -732.03 2455.2
73.73 -706.56 2369.8
81.64 -722.21 2422.3
88.23 -724.72 2430.7
114.68 -694.10 2328.0
124.79 -683.37 2292.0
151.37 -725.30 2432.7
157.65 -725.19 2432.3
164.25 -726.50 2436.7
169.20 -720.68 2417.2
189.47 -726.28 2436.0
182.15 -675.72 2266.4
205.55 -695.25 2331.9
214.76 -705.64 2366.7
226.19 -722.56 2423.5
233.61 -726.09 2435.3
235.36 -712.27 2389.0
243.23 -717.23 2405.6
251.78 -723.88 2427.9
255.38 -716.31 2402.5
272.48 -728.72 2444.2
262.55 -686.21 2301.6
263.78 -674.10 2260.9
290.91 -727.28 2439.3
301.61 -722.61 2423.7
290.64 -682.12 2287.9
301.05 -692.40 2322.4
311.25 -701.83 2354.0
308.92 -683.19 2291.4
316.98 -687.79 2306.9
325.25 -692.66 2323.2
324.53 -678.56 2275.9
337.07 -692.20 2321.7
356.01 -718.27 2409.1
356.57 -707.00 2371.3
345.04 -672.54 2255.7
364.42 -687.02 2304.3
374.22 -694.11 2328.1
370.68 -676.63 2269.4
391.24 -692.19 2321.6
397.75 -693.04 2324.5
391.95 -672.75 2256.4
400.97 -678.12 2274.4
420.39 -700.65 2350.0
433.84 -712.74 2390.6
436.90 -707.66 2373.5
444.80 -710.45 2382.9
447.39 -704.80 2363.9
436.87 -678.92 2277.1
450.32 -681.40 2285.4
472.57 -705.78 2367.2
484.57 -714.44 2396.2
475.73 -692.51 2322.7
469.43 -674.81 2263.3
475.67 -675.33 2265.1
493.08 -691.52 2319.4
492.59 -682.51 2289.2
510.37 -690.50 2316.0
531.16 -710.27 2382.3
567.95 -680.36 2281.9
575.65 -682.47 2289.0
594.60 -677.02 2270.8
621.22 -680.38 2282.0
630.80 -671.68 2252.8
653.49 -689.46 2312.5
675.68 -706.39 2369.3
668.63 -692.72 2323.4
678.30 -678.30 2275.0
688.18 -682.24 2288.3
699.23 -687.28 2305.2
719.82 -673.00 2257.3
811.83 -671.66 2252.8
852.85 -700.56 2349.7
865.22 -705.68 2366.9
852.15 -671.22 2251.3
895.73 -700.74 2350.3
998.50 -717.67 2407.1
984.20 -703.00 2357.9
952.13 -675.89 2267.0
978.57 -690.40 2315.6
966.37 -677.63 2272.8
1000.85 -693.36 2325.6
1015.19 -699.08 2344.8
999.46 -672.15 2254.4
1035.84 -692.57 2322.9
1025.13 -681.45 2285.6
1048.76 -677.57 2272.6
1085.37 -697.31 2338.8
1083.61 -684.70 2296.5
1096.41 -689.00 2310.9
1178.22 -702.05 2354.7
1205.75 -714.75 2397.3
1193.17 -669.34 2245.0
1268.86 -708.34 2375.8
1275.56 -708.65 2376.8
1263.84 -682.36 2288.6
1291.94 -694.27 2328.6
1280.62 -684.98 2297.5
1283.83 -683.52 2292.6
1313.56 -671.38 2251.8
1332.20 -677.89 2273.7
1325.87 -671.69 2252.9
1367.42 -669.16 2244.4
1394.51 -679.53 2279.2
1464.37 -684.56 2296.1
1441.50 -671.14 2251.0
1631.55 -670.10 2247.5
1688.08 -683.55 2292.7
1687.42 -680.89 2283.7
1733.83 -680.51 2282.5
1797.85 -703.24 2358.7
1766.37 -688.58 2309.5
1771.94 -670.31 2248.2
1770.81 -667.68 2239.4
-1902.37 -693.95 2307.5
-1954.34 -715.15 2378.0
-1971.51 -723.72 2406.5
-1981.81 -729.81 2426.7
-1910.27 -705.70 2346.6
-1889.30 -700.19 2328.2
-1887.98 -701.94 2334.0
-1830.38 -696.14 2314.8
-1896.44 -723.64 2406.2
-1938.14 -742.00 2467.2
-1937.65 -744.26 2474.8
-1867.69 -719.77 2393.3
-1768.72 -683.91 2274.1
-1820.36 -706.23 2348.3
-1864.60 -725.82 2413.4
-1806.55 -705.59 2346.2
-1775.95 -695.98 2314.2
-1746.76 -693.92 2307.4
-1773.87 -707.11 2351.2
-1742.39 -696.96 2317.5
-1714.09 -690.40 2295.7
-1779.78 -719.35 2391.9
-1722.98 -698.83 2323.7
-1755.93 -714.70 2376.4
-1775.29 -727.68 2419.6
-1705.12 -701.40 2332.2
-1717.65 -709.07 2357.7
-1742.07 -721.72 2399.8
-1735.02 -721.37 2398.7
-1693.89 -706.80 2350.2
-1702.22 -712.84 2370.3
-1685.61 -708.44 2355.7
-1625.06 -685.48 2279.3
-1612.48 -685.16 2278.2
-1654.88 -705.76 2346.7
-1710.98 -732.38 2435.2
-1679.34 -721.50 2399.1
-1582.42 -687.49 2286.0
-1673.63 -729.85 2426.9
-1625.82 -711.68 2366.4
-1594.67 -700.69 2329.9
-1616.14 -712.82 2370.2
-1579.65 -699.39 2325.5
-1557.46 -692.20 2301.7
-1585.79 -707.51 2352.5
-1592.84 -713.39 2372.1
-1574.45 -707.89 2353.8
-1570.12 -708.69 2356.5
-1577.04 -714.59 2376.1
-1586.01 -721.48 2399.0
-1590.10 -726.19 2414.7
-1522.32 -697.98 2320.9
-1471.34 -682.70 2270.1
-1580.33 -742.18 2467.8
-1524.75 -721.92 2400.5
-1502.07 -714.10 2374.5
-1521.83 -726.47 2415.6
-1532.17 -734.43 2442.1
-1512.11 -727.82 2420.1
-1461.92 -706.60 2349.5
-1441.60 -699.69 2326.6
-1501.74 -731.94 2433.8
-1465.61 -717.35 2385.3
-1388.72 -682.59 2269.7
-1389.37 -685.82 2280.4
-1399.52 -693.78 2306.9
-1400.05 -697.02 2317.7
-1396.04 -698.02 2321.0
-1379.57 -692.77 2303.6
-1399.78 -715.31 2378.5
-1369.65 -703.00 2337.6
-1317.44 -697.82 2320.3
-1313.82 -708.85 2357.0
-1309.99 -710.09 2361.1
-1323.91 -721.00 2397.4
-1346.19 -740.08 2460.9
-1321.75 -730.11 2427.7
-1230.96 -689.81 2293.7
-1210.18 -684.79 2277.0
-1191.33 -680.76 2263.6
-1200.54 -689.42 2292.4
-1204.27 -695.00 2311.0
-1217.25 -706.01 2347.6
-1216.79 -709.29 2358.5
-1232.16 -721.87 2400.3
-1238.57 -729.31 2425.0
-1207.67 -714.74 2376.6
-1181.33 -702.74 2336.7
-1197.68 -716.14 2381.2
-1214.73 -733.90 2440.3
-1153.87 -700.78 2330.2
-1205.67 -736.10 2447.6
-1139.92 -707.12 2351.3
-1099.27 -685.56 2279.6
-1154.49 -723.90 2407.0
-1136.30 -720.28 2395.0
-1092.85 -696.54 2316.1
-1066.95 -683.79 2273.7
-1067.34 -687.84 2287.2
-1064.83 -690.06 2294.5
-1037.97 -680.25 2261.9
-1046.26 -689.58 2292.9
-1037.28 -687.57 2286.2
-1058.06 -705.37 2345.5
-1091.61 -731.94 2433.8
-1094.13 -737.90 2453.6
-1052.40 -713.91 2373.8
-1037.84 -708.17 2354.8
-1070.57 -734.83 2443.4
-1047.11 -731.71 2433.0
-994.83 -712.35 2368.6
-1020.34 -735.15 2444.5
-994.38 -734.70 2443.0
-978.53 -737.08 2450.9
-917.94 -695.96 2314.1
-929.64 -709.46 2359.1
-941.48 -723.26 2404.9
-939.85 -726.81 2416.7
-938.85 -730.92 2430.4
-919.09 -730.24 2428.1
-896.59 -717.27 2385.0
-874.61 -704.55 2342.7
-895.73 -736.92 2450.3
-847.58 -712.46 2369.0
-869.13 -735.90 2447.0
-828.70 -728.25 2421.5
-802.92 -710.99 2364.1
-788.77 -703.83 2340.3
-818.65 -736.15 2447.8
-778.83 -728.59 2422.6
-763.74 -720.28 2395.0
-739.22 -702.86 2337.1
-725.03 -695.07 2311.2
-732.09 -707.69 2353.2
-751.42 -732.47 2435.6
-712.44 -718.64 2389.6
-674.57 -686.41 2282.4
-669.90 -687.69 2286.6
-687.44 -711.99 2367.5
-694.49 -725.77 2413.3
-700.52 -738.73 2456.4
-684.14 -728.08 2421.0
-650.06 -698.21 2321.6
-633.66 -686.95 2284.2
-630.92 -690.44 2295.8
-634.18 -700.61 2329.6
-641.27 -715.26 2378.3
-639.44 -720.15 2394.6
-641.22 -729.23 2424.8
-595.52 -704.90 2343.9
-575.03 -687.66 2286.6
-569.19 -687.77 2286.9
-569.77 -695.72 2313.4
-593.86 -732.85 2436.8
-567.16 -715.11 2377.8
-538.60 -686.56 2282.9
-520.63 -678.57 2256.3
-547.28 -721.41 2398.8
-533.51 -719.62 2392.8
-505.68 -690.11 2294.7
-509.37 -703.42 2339.0
-522.33 -730.00 2427.3
-496.78 -720.33 2395.2
-479.06 -703.43 2339.0
-486.90 -724.11 2407.8
-482.08 -735.81 2446.7
-456.11 -734.84 2443.4
-431.05 -704.24 2341.7
-422.76 -700.57 2329.5
-419.41 -726.15 2414.5
-407.98 -717.06 2384.3
-409.92 -731.56 2432.5
-381.72 -714.18 2374.7
-372.40 -708.18 2354.8
-358.75 -717.49 2385.7
-334.61 -680.96 2264.3
-329.68 -682.90 2270.7
-331.07 -698.25 2321.8
-333.26 -715.90 2380.4
-333.72 -730.40 2428.7
-322.33 -733.15 2437.8
-313.03 -726.23 2414.8
-300.22 -710.72 2363.2
-281.40 -709.62 2359.6
-271.86 -733.40 2438.6
-262.29 -724.42 2408.8
-248.72 -703.69 2339.9
-247.26 -717.05 2384.3
-227.28 -732.34 2435.1
-218.42 -723.89 2407.0
-215.84 -736.39 2448.6
-163.68 -730.28 2428.3
-101.10 -732.95 2437.2
-81.29 -725.38 2412.0
-30.78 -714.18 2374.7
-23.88 -692.60 2303.0
-18.35 -709.61 2359.5
-12.40 -719.12 2391.2
-6.25 -725.47 2412.3
18.75 -725.16 2411.2
36.89 -713.29 2371.8
41.18 -682.45 2269.2
46.96 -680.98 2264.4
55.07 -709.74 2360.0
75.88 -733.49 2439.0
125.62 -728.60 2422.7
126.37 -698.02 2321.0
130.62 -688.73 2290.1
140.82 -710.20 2361.5
147.57 -713.26 2371.7
188.07 -727.20 2418.0
199.00 -699.51 2326.0
204.82 -678.85 2257.2
225.94 -728.04 2420.8
232.08 -727.59 2419.3
231.91 -707.92 2353.9
239.88 -713.49 2372.4
247.16 -716.76 2383.3
255.00 -721.45 2398.9
259.43 -683.96 2274.3
269.70 -695.22 2311.7
289.21 -698.92 2324.0
302.31 -701.37 2332.1
329.41 -707.62 2352.9
325.39 -686.27 2281.9
335.18 -694.31 2308.7
349.46 -711.18 2364.8
344.64 -689.27 2291.9
357.44 -691.06 2297.9
369.86 -703.34 2338.7
377.00 -705.35 2345.4
381.70 -702.81 2336.9
391.22 -709.08 2357.8
401.48 -716.49 2382.4
397.47 -698.58 2322.9
390.20 -675.58 2246.4
396.53 -676.44 2249.2
408.95 -687.52 2286.1
416.25 -689.79 2293.6
422.02 -689.49 2292.7
431.83 -695.72 2313.4
448.69 -712.99 2370.8
455.54 -714.09 2374.4
453.07 -700.75 2330.1
462.80 -706.38 2348.8
468.11 -705.21 2344.9
464.66 -691.03 2297.8
464.24 -681.66 2266.6
466.97 -677.11 2251.5
482.44 -690.90 2297.3
508.91 -719.92 2393.8
518.90 -725.21 2411.4
518.77 -716.39 2382.1
501.76 -684.75 2276.9
518.46 -683.43 2272.5
536.16 -698.82 2323.7
530.78 -684.12 2274.8
534.63 -681.51 2266.1
554.39 -676.94 2250.9
583.10 -704.58 2342.8
589.08 -704.46 2342.4
609.28 -699.77 2326.8
614.75 -679.15 2258.3
620.48 -679.02 2257.8
641.25 -676.22 2248.5
665.53 -695.51 2312.7
665.74 -689.52 2292.7
657.48 -674.93 2244.2
674.85 -686.69 2283.3
682.24 -688.18 2288.3
678.59 -678.59 2256.4
683.43 -677.59 2253.1
772.02 -678.44 2255.9
788.90 -688.06 2287.9
853.44 -702.12 2334.6
863.15 -705.11 2344.6
860.82 -683.94 2274.2
919.17 -725.33 2411.8
892.60 -699.61 2326.3
922.81 -677.51 2252.8
949.90 -693.01 2304.3
990.50 -718.12 2387.8
1001.41 -721.51 2399.1
992.22 -710.48 2362.4
1024.11 -728.82 2423.4
1012.54 -716.18 2381.4
991.59 -688.77 2290.3
977.02 -674.61 2243.2
1002.38 -679.97 2261.0
1033.25 -696.85 2317.1
1069.90 -717.39 2385.4
1083.44 -722.30 2401.7
1045.30 -681.21 2265.1
1060.36 -687.16 2284.9
1084.59 -687.50 2286.0
1150.19 -694.91 2310.6
1167.16 -701.51 2332.6
1177.67 -676.29 2248.7
1212.93 -693.10 2304.7
1186.06 -674.43 2242.6
1206.10 -682.48 2269.3
1270.87 -715.64 2379.6
1260.44 -702.94 2337.3
1277.63 -695.80 2313.6
1267.76 -687.20 2285.0
1270.02 -685.22 2278.4
1286.90 -691.11 2298.0
1312.86 -701.81 2333.6
1306.12 -695.00 2311.0
1301.99 -677.27 2252.0
1339.01 -693.42 2305.7
1353.81 -697.97 2320.8
1335.88 -685.67 2279.9
1315.33 -672.15 2235.0
1368.21 -675.37 2245.7
1408.44 -692.28 2301.9
1435.75 -682.57 2269.6
1467.59 -694.86 2310.5
1469.87 -693.11 2304.7
1470.55 -690.62 2296.4
1446.56 -676.62 2249.8
1493.20 -673.97 2241.0
1522.67 -684.61 2276.4
1512.25 -677.30 2252.1
1536.25 -682.78 2270.3
1547.48 -685.14 2278.2
1548.63 -680.46 2262.6
1570.31 -687.38 2285.6
1557.35 -679.15 2258.2
1702.15 -676.20 2248.4
1730.69 -680.54 2262.9
1723.84 -675.56 2246.3
1766.99 -672.04 2234.6
-1918.82 -701.57 2312.9
-1918.86 -703.78 2320.2
-1911.44 -703.26 2318.5
-1926.89 -711.19 2344.6
-1916.96 -709.76 2339.9
-1887.95 -701.24 2311.8
-1889.75 -704.14 2321.3
-1938.74 -724.71 2389.1
-1939.77 -727.41 2398.1
-1866.85 -702.32 2315.3
-1812.45 -686.27 2262.4
-1839.10 -698.62 2303.1
-1855.32 -707.08 2331.0
-1828.51 -699.14 2304.8
-1828.94 -701.59 2312.9
-1834.15 -705.91 2327.2
-1805.66 -697.24 2298.6
-1840.82 -713.17 2351.1
-1814.18 -705.18 2324.8
-1773.37 -696.26 2295.4
-1734.87 -685.74 2260.7
-1742.87 -691.24 2278.8
-1742.79 -695.93 2294.3
-1818.09 -728.48 2401.6
-1818.69 -731.22 2410.6
-1795.88 -724.55 2388.6
-1759.16 -712.19 2347.9
-1727.23 -701.69 2313.3
-1746.45 -711.97 2347.2
-1756.30 -718.49 2368.6
-1779.45 -743.56 2451.3
-1667.02 -699.07 2304.6
-1615.17 -689.69 2273.7
-1693.00 -725.57 2392.0
-1668.61 -717.75 2366.2
-1656.57 -715.20 2357.8
-1679.07 -727.60 2398.7
-1617.04 -703.32 2318.6
-1611.66 -708.89 2337.0
-1567.33 -691.99 2281.3
-1596.61 -707.59 2332.7
-1673.79 -744.62 2454.8
-1620.82 -723.80 2386.2
-1584.39 -710.25 2341.5
-1587.70 -714.46 2355.4
-1574.19 -711.12 2344.4
-1595.76 -723.66 2385.7
-1644.59 -748.70 2468.3
-1618.05 -739.50 2437.9
-1592.15 -730.52 2408.3
-1587.15 -731.09 2410.2
-1511.96 -699.21 2305.1
-1501.25 -699.78 2307.0
-1502.73 -703.28 2318.5
-1482.64 -705.16 2324.7
-1503.70 -718.09 2367.3
-1463.47 -701.75 2313.5
-1464.24 -705.00 2324.2
-1525.70 -737.63 2431.8
-1501.33 -741.16 2443.4
-1425.37 -706.64 2329.6
-1434.97 -714.43 2355.3
-1431.91 -715.95 2360.3
-1425.82 -715.97 2360.3
-1447.17 -729.82 2406.0
-1453.41 -736.14 2426.9
-1446.19 -735.67 2425.3
-1400.44 -715.51 2358.8
-1426.12 -738.30 2434.0
-1406.77 -734.79 2422.4
-1329.83 -697.72 2300.2
-1321.88 -696.67 2296.7
-1336.54 -707.58 2332.7
-1293.55 -687.94 2267.9
-1263.51 -684.40 2256.3
-1290.02 -702.01 2314.3
-1260.02 -688.89 2271.1
-1250.75 -687.03 2264.9
-1303.91 -726.47 2394.9
-1297.18 -726.17 2394.0
-1296.50 -732.81 2415.8
-1236.47 -702.27 2315.2
-1229.90 -701.94 2314.1
-1258.54 -721.81 2379.6
-1282.29 -742.71 2448.5
-1259.36 -733.06 2416.7
-1203.22 -703.88 2320.5
-1175.90 -694.85 2290.7
-1208.87 -717.96 2366.9
-1177.67 -703.00 2317.6
-1155.82 -693.49 2286.2
-1166.19 -703.32 2318.6
-1211.40 -734.37 2421.0
-1204.11 -741.48 2444.4
-1206.56 -746.92 2462.4
-1195.83 -744.21 2453.4
-1112.74 -696.20 2295.2
-1085.63 -682.89 2251.3
-1146.30 -724.96 2390.0
-1164.15 -744.29 2453.7
-1105.78 -710.86 2343.5
-1072.05 -692.98 2284.6
-1058.14 -687.79 2267.4
-1060.44 -704.95 2324.0
-1074.88 -718.64 2369.1
-1081.60 -727.28 2397.6
-1100.02 -743.94 2452.6
-1067.77 -730.58 2408.5
-1015.06 -698.60 2303.1
-1013.85 -701.90 2313.9
-1027.98 -715.91 2360.2
-999.03 -699.92 2307.4
-1008.76 -711.00 2343.9
-1008.38 -728.28 2400.9
-994.39 -745.79 2458.7
-951.51 -718.24 2367.8
-956.86 -726.97 2396.6
-965.28 -738.15 2433.5
-957.64 -737.13 2430.1
-951.06 -736.92 2429.4
-936.46 -730.44 2408.1
-921.27 -723.41 2384.9
-890.31 -703.83 2320.3
-888.39 -726.87 2396.3
-864.53 -732.97 2416.4
-823.19 -729.64 2405.4
-808.89 -722.45 2381.7
-784.27 -705.84 2327.0
-801.97 -727.36 2397.9
-803.29 -740.03 2439.7
-753.62 -711.08 2344.2
-714.69 -685.40 2259.5
-745.54 -720.90 2376.6
-745.31 -726.67 2395.6
-738.09 -731.83 2412.6
-705.28 -705.28 2325.1
-711.05 -717.18 2364.3
-698.25 -710.40 2342.0
-676.58 -694.38 2289.2
-685.92 -710.20 2341.3
-697.69 -728.84 2402.8
-698.81 -736.58 2428.3
-691.26 -741.99 2446.1
-654.02 -708.53 2335.8
-634.77 -694.09 2288.2
-625.41 -690.31 2275.7
-620.14 -691.01 2278.1
-613.60 -690.30 2275.7
-600.89 -682.56 2250.2
-620.92 -712.23 2348.0
-596.30 -711.91 2347.0
-568.09 -685.22 2259.0
-587.57 -716.10 2360.8
-563.88 -717.11 2364.1
-533.39 -685.78 2260.8
-525.19 -682.75 2250.8
-532.13 -699.54 2306.2
-538.80 -716.36 2361.6
-535.90 -720.70 2375.9
-518.61 -722.35 2381.4
-489.50 -690.01 2274.8
-513.34 -732.45 2414.7
-483.97 -707.81 2333.4
-467.19 -691.91 2281.0
-484.10 -726.14 2393.9
-473.60 -729.09 2403.6
-465.38 -725.99 2393.4
-433.17 -713.82 2353.3
-414.76 -693.25 2285.4
-426.72 -723.57 2385.4
-415.68 -725.88 2393.0
-407.37 -722.16 2380.8
-412.02 -741.64 2445.0
-397.03 -737.34 2430.8
-381.14 -719.26 2371.2
-381.27 -731.29 2410.8
-370.59 -722.65 2382.4
-350.06 -694.19 2288.5
-353.37 -712.83 2350.0
-356.50 -731.75 2412.4
-345.13 -721.08 2377.2
-336.92 -716.72 2362.8
-342.06 -741.12 2443.3
-304.71 -727.58 2398.6
-288.41 -703.01 2317.6
-280.52 -698.31 2302.1
-284.04 -722.44 2381.7
-270.82 -736.89 2429.3
-259.47 -740.44 2441.0
-253.20 -740.62 2441.6
-233.19 -737.39 2430.9
-224.71 -730.32 2407.7
-219.47 -733.66 2418.7
-188.26 -710.52 2342.4
-186.52 -727.44 2398.2
-164.89 -714.50 2355.5
-154.62 -695.79 2293.8
-155.07 -725.74 2392.5
-151.39 -738.02 2433.0
-113.81 -739.75 2438.7
-100.63 -692.56 2283.2
-92.60 -722.28 2381.1
-81.52 -733.72 2418.9
-73.38 -715.50 2358.8
-65.17 -693.20 2285.3
-60.10 -703.12 2318.0
-56.39 -733.05 2416.6
-31.57 -738.69 2435.2
-24.38 -713.17 2351.1
-18.74 -730.89 2409.5
-12.51 -731.77 2412.4
-6.21 -726.55 2395.2
0.00 -722.49 2381.8
6.15 -719.00 2370.3
12.43 -727.12 2397.1
18.96 -739.30 2437.3
49.89 -729.60 2405.3
132.36 -737.45 2431.2
137.34 -730.40 2407.9
146.45 -713.97 2353.7
150.55 -704.59 2322.8
171.03 -714.67 2356.1
173.16 -698.62 2303.2
181.85 -709.21 2338.0
220.71 -717.31 2364.8
229.81 -726.69 2395.7
229.11 -705.43 2325.6
236.82 -710.46 2342.2
244.02 -713.76 2353.1
251.58 -717.91 2366.7
258.17 -719.18 2370.9
249.71 -679.45 2239.9
277.94 -722.64 2382.3
279.01 -694.56 2289.8
303.08 -709.22 2338.1
330.22 -728.99 2403.3
329.57 -714.08 2354.1
330.83 -703.78 2320.1
357.16 -708.27 2334.9
371.18 -723.80 2386.2
383.81 -736.17 2426.9
386.01 -728.44 2401.4
384.67 -714.40 2355.2
376.20 -687.75 2267.3
420.98 -684.09 2255.2
444.64 -712.64 2349.4
446.20 -705.47 2325.7
439.04 -684.90 2257.9
448.95 -691.15 2278.5
454.47 -690.55 2276.6
452.56 -678.84 2237.9
463.73 -678.20 2235.8
486.64 -702.92 2317.3
510.15 -727.90 2399.7
516.93 -728.68 2402.2
511.27 -712.12 2347.7
492.34 -677.69 2234.1
522.82 -703.10 2317.9
536.66 -713.52 2352.3
532.35 -699.83 2307.1
550.14 -692.11 2281.7
565.07 -703.33 2318.7
586.36 -722.15 2380.7
587.57 -716.10 2360.8
564.34 -680.70 2244.1
581.29 -686.98 2264.8
582.49 -681.51 2246.7
587.48 -680.55 2243.6
594.42 -681.84 2247.8
620.39 -691.29 2279.0
626.43 -691.43 2279.4
663.79 -687.28 2265.8
691.62 -691.62 2280.1
739.34 -686.53 2263.3
759.41 -699.61 2306.4
742.75 -678.92 2238.2
787.11 -677.15 2232.3
806.56 -678.90 2238.1
854.29 -703.89 2320.5
876.69 -717.29 2364.7
864.30 -702.24 2315.1
865.21 -698.14 2301.6
857.21 -686.94 2264.6
860.34 -684.76 2257.4
866.87 -685.30 2259.2
881.01 -687.19 2265.5
893.53 -692.34 2282.4
933.92 -691.57 2279.9
979.77 -720.96 2376.8
989.89 -723.86 2386.3
968.52 -703.83 2320.3
951.70 -687.34 2266.0
974.00 -699.13 2304.8
1004.75 -716.81 2363.1
988.03 -700.60 2309.7
1010.75 -691.56 2279.9
1015.75 -690.95 2277.8
1023.11 -691.93 2281.1
1035.23 -696.10 2294.8
1065.28 -700.21 2308.4
1078.40 -704.87 2323.8
1073.72 -679.05 2238.6
1098.80 -676.63 2230.6
1144.20 -700.90 2310.7
1146.08 -698.39 2302.4
1153.98 -685.36 2259.4
1184.17 -685.88 2261.1
1180.75 -680.53 2243.5
1201.34 -685.64 2260.4
1244.21 -706.66 2329.7
1258.13 -711.12 2344.3
1206.53 -678.67 2237.4
1257.29 -690.62 2276.8
1252.05 -684.53 2256.7
1260.84 -686.13 2262.0
1258.79 -681.84 2247.8
1264.73 -681.91 2248.0
1286.84 -690.65 2276.9
1321.60 -693.40 2285.9
1343.62 -701.80 2313.6
1341.37 -697.51 2299.5
1309.23 -677.79 2234.5
1386.61 -708.44 2335.5
1355.99 -689.79 2274.0
1423.89 -708.91 2337.1
1399.60 -693.87 2287.5
1409.19 -684.13 2255.4
1405.25 -679.40 2239.8
1402.80 -675.42 2226.7
1438.10 -689.58 2273.3
1451.75 -693.29 2285.6
1473.76 -686.97 2264.7
1484.34 -689.16 2272.0
1467.73 -676.08 2228.8
1567.24 -697.21 2298.5
1569.22 -695.45 2292.7
1550.84 -684.71 2257.3
1556.58 -684.66 2257.1
1558.44 -682.91 2251.4
1605.67 -683.14 2252.1
1715.11 -680.23 2242.5
1734.28 -685.51 2259.9
1742.97 -677.50 2233.5
1792.85 -694.58 2289.8
1811.07 -699.32 2305.5
-1921.08 -708.40 2315.6
-1919.87 -710.17 2321.4
-1917.39 -711.49 2325.7
-1926.03 -716.94 2343.5
-1899.45 -709.29 2318.5
-1932.03 -723.74 2365.8
-1997.01 -750.47 2453.1
-1984.46 -748.14 2445.5
-1924.82 -727.98 2379.6
-1848.90 -701.51 2293.1
-1826.61 -702.09 2295.0
-1811.96 -698.73 2284.0
-1823.27 -705.40 2305.8
-1838.12 -713.48 2332.2
-1817.44 -707.78 2313.6
-1860.95 -727.13 2376.8
-1843.83 -722.83 2362.8
-1747.95 -699.18 2285.5
-1799.45 -722.23 2360.8
-1764.89 -710.77 2323.4
-1760.35 -711.38 2325.3
-1746.44 -708.18 2314.9
-1709.22 -695.47 2273.3
-1740.27 -710.56 2322.7
-1776.38 -727.82 2379.1
-1763.01 -724.86 2369.4
-1745.62 -720.22 2354.2
-1691.35 -700.28 2289.0
-1709.25 -712.69 2329.6
-1793.73 -753.24 2462.2
-1645.16 -695.80 2274.4
-1718.34 -729.37 2384.1
-1654.71 -704.89 2304.1
-1711.22 -739.65 2417.7
-1720.89 -746.56 2440.3
-1656.86 -721.44 2358.2
-1630.39 -712.54 2329.1
-1656.18 -726.50 2374.8
-1612.06 -709.79 2320.1
-1563.49 -698.83 2284.3
-1662.90 -751.81 2457.5
-1632.94 -741.10 2422.5
-1573.92 -717.08 2344.0
-1555.07 -711.23 2324.8
-1606.13 -737.44 2410.5
-1595.78 -735.55 2404.4
-1550.18 -717.34 2344.8
-1525.58 -708.74 2316.7
-1516.49 -707.30 2312.0
-1542.92 -722.48 2361.6
-1515.26 -712.35 2328.5
-1455.58 -687.04 2245.8
-1486.56 -704.48 2302.8
-1486.95 -707.50 2312.7
-1469.53 -702.04 2294.8
-1534.97 -736.29 2406.8
-1516.92 -730.60 2388.2
-1438.37 -695.61 2273.8
-1418.91 -691.86 2261.5
-1514.09 -741.34 2423.3
-1472.66 -733.22 2396.7
-1451.87 -725.94 2372.9
-1469.93 -738.09 2412.7
-1478.30 -745.47 2436.8
-1455.06 -736.90 2408.7
-1459.35 -742.25 2426.3
-1466.04 -748.89 2447.9
-1455.31 -746.64 2440.6
-1429.79 -736.75 2408.3
-1344.36 -695.77 2274.3
-1368.63 -714.60 2335.8
-1383.77 -732.22 2393.5
-1348.63 -716.84 2343.2
-1376.16 -734.78 2401.8
-1347.90 -722.96 2363.2
-1364.64 -735.29 2403.5
-1341.25 -729.34 2384.0
-1327.95 -725.45 2371.3
-1310.93 -719.49 2351.8
-1278.48 -711.61 2326.1
-1318.52 -744.43 2433.4
-1276.02 -749.11 2448.7
-1171.87 -691.40 2260.0
-1190.19 -709.31 2318.6
-1220.89 -731.29 2390.4
-1187.47 -714.91 2336.9
-1169.50 -707.70 2313.3
-1182.41 -719.20 2350.9
-1162.59 -729.71 2385.2
-1146.57 -723.50 2365.0
-1149.53 -745.30 2436.2
-1091.46 -711.56 2325.9
-1057.10 -692.99 2265.2
-1093.16 -720.63 2355.6
-1127.62 -747.52 2443.5
-1118.29 -745.53 2436.9
-1109.26 -747.96 2444.9
-1094.80 -742.45 2426.9
-1082.40 -738.28 2413.3
-1057.10 -725.22 2370.6
-1055.35 -736.87 2408.7
-999.28 -701.87 2294.3
-1027.48 -726.01 2373.1
-1034.64 -744.43 2433.4
-1003.28 -739.92 2418.6
-1006.66 -747.08 2442.0
-943.38 -718.19 2347.6
-932.72 -714.68 2336.1
-961.47 -741.53 2423.9
-945.20 -738.63 2414.4
-913.21 -718.40 2348.3
-896.42 -709.92 2320.6
-865.63 -690.17 2256.0
-864.08 -708.07 2314.5
-860.76 -710.27 2321.7
-858.72 -713.59 2332.5
-889.63 -744.52 2433.7
-862.03 -737.10 2409.4
-829.96 -725.45 2371.3
-782.49 -689.06 2252.4
-782.87 -694.57 2270.4
-789.99 -706.20 2308.4
-798.79 -719.52 2351.9
-795.72 -722.27 2360.9
-789.56 -722.23 2360.8
-789.14 -727.49 2378.0
-747.80 -694.80 2271.2
-734.09 -687.48 2247.2
-772.88 -729.60 2384.9
-733.73 -698.23 2282.3
-733.32 -709.28 2318.5
-759.70 -740.87 2421.7
-753.36 -740.81 2421.5
-734.01 -727.84 2379.1
-685.37 -685.37 2240.3
-684.60 -696.40 2276.4
-690.66 -708.67 2316.5
-688.91 -713.08 2330.9
-697.33 -728.19 2380.3
-707.39 -745.29 2436.2
-679.50 -722.35 2361.2
-659.59 -707.56 2312.9
-673.05 -728.62 2381.7
-662.64 -723.99 2366.6
-654.85 -722.18 2360.6
-656.50 -730.82 2388.9
-645.67 -725.60 2371.8
-633.16 -718.39 2348.3
-621.51 -712.02 2327.4
-642.07 -742.79 2428.0
-614.09 -724.63 2368.6
-619.51 -738.40 2413.7
-605.34 -728.87 2382.5
-564.19 -686.34 2243.5
-572.12 -703.23 2298.7
-548.86 -711.71 2326.4
-534.63 -700.96 2291.3
-529.83 -702.47 2296.2
-526.06 -705.40 2305.8
-542.28 -735.51 2404.2
-520.50 -731.17 2390.0
-491.07 -706.66 2309.9
-505.59 -736.54 2407.6
-487.72 -719.39 2351.5
-457.56 -692.20 2262.7
-483.96 -741.66 2424.3
-469.56 -729.06 2383.1
-458.47 -721.33 2357.9
-445.18 -739.87 2418.5
-439.61 -741.05 2422.3
-431.82 -738.47 2413.9
-418.92 -726.95 2376.2
-410.80 -723.49 2364.9
-413.55 -739.37 2416.8
-405.85 -736.77 2408.3
-390.83 -720.59 2355.4
-395.98 -741.67 2424.4
-384.89 -744.54 2433.7
-359.88 -707.77 2313.5
-346.78 -693.55 2267.1
-357.81 -727.96 2379.5
-335.33 -719.43 2351.7
-327.62 -715.90 2340.1
-325.30 -724.25 2367.4
-312.62 -709.40 2318.8
-298.55 -690.75 2257.9
-301.84 -726.89 2376.0
-292.35 -734.00 2399.3
