ply
format ascii 1.0
element vertex 2104
property float x
property float y
property float z
end_header
1175.90 -908.94 2451.7
1179.53 -906.85 2446.0
1237.90 -907.79 2448.6
1284.37 -937.07 2527.5
1295.32 -940.26 2536.2
1276.80 -922.14 2487.3
1265.48 -909.37 2452.8
1348.66 -936.21 2525.2
1342.65 -927.53 2501.8
1341.28 -913.35 2463.6
1390.78 -938.12 2530.4
1349.98 -906.32 2444.6
1365.12 -912.21 2460.5
1391.91 -925.78 2497.1
1379.32 -913.16 2463.1
1421.20 -919.60 2480.4
1452.80 -915.20 2468.6
1540.66 -902.93 2435.5
1594.96 -930.93 2511.0
1546.89 -899.21 2425.4
1589.68 -916.63 2472.4
1575.74 -904.94 2440.9
1664.37 -933.35 2517.5
1681.64 -932.07 2514.1
1683.11 -929.28 2506.6
1662.65 -914.45 2466.6
-1348.19 -942.43 2524.4
-1315.25 -942.27 2523.9
-1330.06 -957.64 2565.1
-1280.70 -945.75 2533.3
-1265.53 -939.36 2516.1
-1275.53 -956.65 2562.5
-1272.59 -959.44 2569.9
-1241.12 -940.64 2519.6
-1206.05 -954.24 2556.0
-1225.86 -975.27 2612.3
-1170.17 -957.41 2564.5
-1149.55 -951.35 2548.3
-1107.93 -938.48 2513.8
-1070.20 -939.68 2517.0
-1094.37 -966.81 2589.7
-1077.58 -957.85 2565.7
-1010.53 -951.09 2547.6
-1012.69 -959.39 2569.8
-972.64 -965.93 2587.3
-948.17 -948.17 2539.7
-812.94 -951.74 2549.3
-806.16 -967.39 2591.2
-795.79 -962.98 2579.4
-785.21 -958.22 2566.7
-780.75 -969.21 2596.1
-752.51 -950.54 2546.1
-735.24 -945.31 2532.1
-702.84 -937.11 2510.1
-701.77 -944.44 2529.8
-670.80 -937.82 2512.0
-668.51 -943.78 2528.0
-678.30 -967.08 2590.4
-668.89 -963.20 2580.0
-616.04 -933.79 2501.2
-601.02 -940.72 2519.8
-607.13 -971.41 2602.0
-575.58 -963.76 2581.5
-442.09 -936.20 2507.7
-432.71 -930.00 2491.1
-422.76 -936.58 2508.7
-422.71 -951.10 2547.6
-422.91 -966.66 2589.3
-373.73 -961.02 2574.2
-360.02 -942.61 2524.8
-336.44 -931.69 2495.6
-336.59 -950.36 2545.6
-323.82 -932.59 2498.0
-323.58 -950.92 2547.1
-318.91 -956.74 2562.7
-305.66 -936.51 2508.5
-303.79 -951.01 2547.3
-302.05 -966.56 2589.0
-285.53 -934.47 2503.0
-260.70 -938.52 2513.9
-241.31 -939.15 2515.6
-212.84 -928.77 2487.8
-163.04 -939.11 2515.5
-160.03 -960.19 2571.9
-147.32 -964.30 2582.9
-139.42 -956.03 2560.8
-132.51 -954.05 2555.5
-125.07 -947.87 2538.9
-117.45 -939.59 2516.8
-71.98 -942.25 2523.9
-64.56 -929.72 2490.3
-19.32 -927.52 2484.4
-12.90 -928.59 2487.3
33.16 -955.11 2558.3
45.83 -942.80 2525.4
52.24 -940.31 2518.7
72.73 -952.04 2550.1
80.21 -962.46 2578.0
103.49 -931.39 2494.8
128.97 -928.55 2487.2
134.63 -923.20 2472.9
186.48 -925.95 2480.2
199.85 -959.28 2569.5
199.27 -925.63 2479.4
245.02 -928.50 2487.0
253.77 -936.99 2509.8
283.73 -928.56 2487.2
296.40 -948.48 2540.6
301.35 -943.36 2526.9
357.56 -919.43 2462.8
398.33 -925.16 2478.1
428.47 -934.85 2504.1
441.22 -948.30 2540.1
439.98 -931.71 2495.7
439.49 -917.20 2456.8
479.58 -946.02 2534.0
492.67 -958.70 2568.0
482.62 -926.64 2482.1
513.85 -924.94 2477.5
527.38 -937.56 2511.3
525.24 -922.37 2470.6
558.20 -934.66 2503.5
566.69 -937.96 2512.4
564.14 -923.14 2472.7
571.95 -925.41 2478.8
581.51 -930.41 2492.2
609.48 -914.22 2448.8
624.67 -927.34 2483.9
638.17 -937.72 2511.8
634.98 -923.61 2473.9
660.27 -914.22 2448.8
680.57 -933.35 2500.0
676.42 -918.92 2461.4
678.88 -913.64 2447.2
730.63 -922.90 2472.1
756.22 -946.91 2536.4
743.06 -922.41 2470.8
761.79 -929.64 2490.1
774.69 -937.44 2511.0
799.78 -921.35 2467.9
817.89 -920.13 2464.6
838.07 -935.52 2505.8
846.69 -937.87 2512.1
1013.87 -912.48 2444.1
1036.85 -927.37 2484.0
1039.50 -924.00 2475.0
1041.73 -920.30 2465.1
1052.06 -923.76 2474.4
1044.57 -911.63 2441.9
1099.79 -942.68 2525.0
1095.90 -933.78 2501.2
1079.31 -914.24 2448.8
1118.80 -925.90 2480.1
1117.72 -909.33 2435.7
1153.60 -933.25 2499.8
1129.95 -909.01 2434.8
1141.66 -913.33 2446.4
1180.78 -939.41 2516.3
1174.18 -909.04 2434.9
1241.36 -912.02 2442.9
1270.69 -928.83 2487.9
1272.46 -925.42 2478.8
1277.67 -924.55 2476.5
1258.84 -906.36 2427.8
1336.56 -934.29 2502.6
1326.02 -922.45 2470.8
1324.48 -908.22 2432.7
1358.21 -926.93 2482.9
1337.67 -908.60 2433.8
1354.07 -911.15 2440.6
1373.85 -920.16 2464.7
1392.17 -911.24 2440.8
1416.48 -922.95 2472.2
1488.07 -943.97 2528.5
1484.85 -937.80 2512.0
1514.65 -912.59 2444.4
1600.61 -940.76 2519.9
1578.24 -923.85 2474.6
1560.27 -902.32 2416.9
1603.26 -923.48 2473.6
1614.18 -926.06 2480.5
1577.62 -901.50 2414.7
1610.85 -913.24 2446.2
1595.43 -900.95 2413.3
1635.69 -916.49 2454.9
1659.19 -922.49 2470.9
-1326.18 -956.70 2544.9
-1356.21 -983.26 2615.6
-1337.24 -974.37 2591.9
-1290.64 -945.16 2514.2
-1281.95 -953.25 2535.7
-1253.94 -946.99 2519.1
-1259.51 -956.17 2543.5
-1251.56 -955.14 2540.8
-1195.50 -952.46 2533.6
-1177.53 -943.32 2509.3
-1187.79 -978.57 2603.1
-1175.56 -979.64 2605.9
-1116.90 -947.08 2519.3
-1133.44 -966.76 2571.7
-1080.69 -961.35 2557.3
-1074.95 -962.15 2559.4
-1009.51 -963.02 2561.7
-996.08 -956.50 2544.4
-958.34 -964.99 2567.0
-950.76 -964.06 2564.5
-899.33 -944.95 2513.7
-780.74 -951.32 2530.6
-764.15 -955.18 2540.9
-765.03 -964.60 2565.9
-753.78 -958.76 2550.4
-750.54 -963.09 2561.9
-715.45 -943.10 2508.7
-731.11 -972.58 2587.2
-706.53 -966.48 2570.9
-676.33 -952.11 2532.7
-666.78 -947.87 2521.4
-668.71 -960.02 2553.8
-667.17 -977.17 2599.4
-643.21 -951.69 2531.6
-622.37 -940.04 2500.6
-624.76 -953.57 2536.6
-606.94 -936.24 2490.5
-596.17 -939.62 2499.5
-608.97 -970.34 2581.2
-603.87 -972.89 2588.0
-550.29 -949.90 2526.8
-559.59 -977.60 2600.5
-532.73 -953.65 2536.8
-507.56 -943.53 2509.9
-508.98 -958.48 2549.6
-435.40 -942.28 2506.6
-421.59 -955.17 2540.8
-414.52 -969.43 2578.8
-393.92 -936.36 2490.8
-397.68 -961.06 2556.5
-375.57 -972.46 2586.8
-362.63 -956.03 2543.1
-312.51 -944.05 2511.3
-304.61 -939.77 2499.9
-307.98 -970.80 2582.4
-279.92 -943.90 2510.9
-265.05 -937.36 2493.5
-259.32 -940.04 2500.6
-219.37 -963.89 2564.0
-211.37 -957.76 2547.7
-202.55 -947.41 2520.2
-192.78 -931.78 2478.6
-142.72 -940.65 2502.2
-140.78 -972.05 2585.7
-131.81 -955.65 2542.1
-122.43 -934.31 2485.4
-116.83 -941.09 2503.4
-97.35 -941.02 2503.2
-92.15 -954.46 2539.0
-83.78 -934.49 2485.8
-38.84 -938.72 2497.1
-32.19 -933.48 2483.1
-12.80 -927.91 2468.3
-6.49 -940.93 2503.0
38.55 -931.69 2478.4
65.53 -950.16 2527.5
73.06 -963.11 2562.0
79.67 -962.70 2560.9
86.24 -961.92 2558.8
91.92 -952.00 2532.4
96.44 -932.22 2479.8
115.95 -934.06 2484.7
125.42 -957.16 2546.1
133.07 -964.78 2566.4
138.49 -956.23 2543.7
140.59 -926.60 2464.8
243.25 -928.20 2469.1
254.50 -946.21 2517.0
261.64 -948.44 2522.9
262.08 -926.86 2465.5
282.96 -932.47 2480.5
295.17 -951.12 2530.1
298.88 -942.12 2506.1
352.64 -946.91 2518.9
357.61 -942.78 2507.9
362.11 -937.60 2494.1
398.00 -930.81 2476.0
416.18 -928.40 2469.6
424.32 -932.22 2479.8
491.90 -926.31 2464.1
543.44 -927.05 2466.0
547.53 -923.16 2455.7
565.14 -931.20 2477.1
608.99 -919.82 2446.8
614.54 -918.64 2443.7
629.79 -931.84 2478.8
627.46 -919.01 2444.7
639.58 -927.39 2466.9
653.71 -938.49 2496.5
813.49 -928.79 2470.7
827.94 -937.90 2494.9
844.29 -949.01 2524.4
855.96 -954.72 2539.7
832.86 -921.86 2452.2
862.83 -919.93 2447.1
869.17 -919.93 2447.1
872.66 -916.92 2439.1
937.65 -950.76 2529.1
948.33 -948.33 2522.7
1018.25 -917.06 2439.5
1103.14 -952.11 2532.7
1114.37 -950.49 2528.4
1123.80 -952.93 2534.9
1113.99 -939.12 2498.1
1128.01 -945.45 2515.0
1125.77 -938.14 2495.5
1127.79 -918.71 2443.8
1140.93 -914.01 2431.3
1234.05 -912.95 2428.5
1240.91 -913.36 2429.6
1292.41 -918.63 2443.6
1317.09 -931.60 2478.2
1352.64 -952.10 2532.7
1321.08 -925.39 2461.6
1322.22 -912.96 2428.6
1329.95 -913.95 2431.2
1329.45 -909.29 2418.8
1346.71 -912.49 2427.3
1347.49 -908.77 2417.4
1463.32 -910.65 2422.4
1523.12 -931.87 2478.9
1512.94 -921.75 2451.9
1565.46 -922.73 2454.6
1583.51 -929.59 2472.8
1764.32 -907.19 2413.2
1823.07 -902.20 2399.9
1970.42 -904.15 2405.1
1975.56 -903.65 2403.8
-1209.98 -970.65 2564.3
-1157.89 -949.73 2509.1
-1164.55 -966.05 2552.2
-1174.57 -979.93 2588.9
-1135.84 -953.06 2517.9
-1015.62 -981.99 2594.3
-1005.58 -978.76 2585.8
-951.02 -964.22 2547.4
-964.78 -985.02 2602.3
-937.59 -964.00 2546.8
-782.90 -960.53 2537.6
-773.24 -956.72 2527.5
-704.72 -943.94 2493.8
-716.97 -978.30 2584.6
-702.72 -967.90 2557.1
-677.31 -950.83 2512.0
-683.05 -968.21 2557.9
-668.40 -956.73 2527.6
-629.35 -957.13 2528.6
-627.17 -963.85 2546.4
-606.67 -942.27 2489.4
-602.65 -956.38 2526.7
-591.45 -948.92 2506.9
-539.21 -948.48 2505.8
-540.56 -962.47 2542.7
-540.19 -973.68 2572.3
-524.44 -957.09 2528.5
-507.14 -949.26 2507.8
-508.52 -976.89 2580.8
-490.77 -955.37 2524.0
-479.67 -946.37 2500.2
-477.39 -954.78 2522.4
-471.73 -956.57 2527.1
-453.24 -973.12 2570.9
-435.52 -949.04 2507.3
-417.86 -938.57 2479.6
-391.14 -967.91 2557.1
-387.57 -975.60 2577.4
-382.79 -980.48 2590.3
-375.39 -978.70 2585.6
-358.10 -950.59 2511.3
-321.22 -937.98 2478.0
-292.97 -950.53 2511.2
-284.84 -945.14 2497.0
-277.50 -942.21 2489.2
-275.67 -958.30 2531.7
-251.74 -942.41 2489.7
-233.74 -947.97 2504.4
-225.37 -967.76 2556.7
-215.03 -951.36 2513.4
-206.70 -943.07 2491.5
-201.33 -948.19 2505.0
-194.72 -947.65 2503.6
-155.23 -944.31 2494.7
-134.81 -937.26 2476.1
-115.29 -935.10 2470.4
-95.92 -933.61 2466.5
-90.58 -944.65 2495.7
-52.17 -952.10 2515.3
-45.18 -942.23 2489.3
-32.20 -940.17 2483.8
-25.96 -947.63 2503.5
-12.96 -946.25 2499.9
-6.53 -952.98 2517.7
70.71 -938.49 2479.4
77.74 -945.86 2498.8
84.47 -948.62 2506.1
90.18 -940.41 2484.4
118.91 -964.46 2548.0
141.21 -937.14 2475.8
163.13 -952.65 2516.8
172.65 -969.47 2561.2
176.97 -956.96 2528.2
180.85 -943.03 2491.4
210.81 -932.66 2464.0
254.09 -951.22 2513.0
263.64 -962.28 2542.2
265.61 -945.85 2498.8
268.58 -933.64 2466.6
278.95 -947.14 2502.2
292.90 -971.90 2567.6
290.80 -943.49 2492.6
325.34 -931.38 2460.6
332.25 -932.86 2464.5
347.71 -957.85 2530.5
371.35 -968.17 2557.8
372.25 -953.48 2519.0
376.98 -948.96 2507.0
381.80 -944.78 2496.0
389.64 -932.57 2463.7
400.94 -944.15 2494.3
420.49 -930.18 2457.4
425.26 -926.68 2448.2
432.74 -929.11 2454.6
440.41 -931.89 2461.9
447.79 -933.96 2467.4
492.03 -945.21 2497.1
498.47 -945.15 2497.0
547.44 -940.30 2484.2
550.55 -934.65 2469.2
567.18 -941.01 2486.0
587.48 -963.72 2546.0
587.17 -952.52 2516.4
598.78 -960.68 2538.0
603.60 -927.63 2450.7
621.65 -926.14 2446.7
638.86 -942.15 2489.1
663.60 -949.86 2509.4
670.45 -950.35 2510.7
682.20 -957.70 2530.1
677.01 -941.36 2487.0
811.97 -940.86 2485.6
809.03 -930.07 2457.1
851.94 -928.23 2452.3
886.61 -958.86 2533.2
890.35 -955.81 2525.1
880.80 -938.66 2479.8
905.68 -931.20 2460.1
925.79 -945.22 2497.1
918.71 -931.47 2460.8
1009.38 -926.85 2448.6
1042.38 -951.18 2512.9
1043.31 -946.11 2499.5
1085.73 -943.55 2492.7
1105.67 -955.20 2523.5
1108.60 -952.09 2515.3
1103.44 -942.12 2489.0
1087.35 -917.65 2424.3
1116.67 -926.33 2447.2
1147.35 -925.48 2445.0
1166.89 -925.91 2446.1
1234.87 -915.18 2417.8
1244.29 -917.51 2423.9
1301.78 -918.17 2425.7
1319.86 -926.44 2447.5
1322.65 -923.96 2441.0
1332.67 -926.52 2447.8
1348.18 -932.86 2464.5
1352.78 -931.63 2461.2
1466.54 -930.94 2459.4
1447.45 -914.84 2416.9
1478.07 -914.40 2415.7
1483.28 -913.75 2414.0
1545.00 -916.95 2422.5
1582.00 -935.11 2470.4
1611.34 -922.57 2437.3
1620.12 -923.98 2441.0
1621.51 -921.17 2433.6
1682.07 -930.24 2457.6
1703.89 -938.74 2480.0
1692.71 -929.08 2454.5
1673.28 -914.98 2417.3
1962.67 -906.80 2395.7
-1253.86 -959.99 2518.9
-1187.33 -958.99 2516.3
-1172.89 -968.62 2541.6
-1180.33 -980.27 2572.1
-1168.41 -975.89 2560.6
-1141.71 -959.04 2516.4
-1015.59 -963.18 2527.3
-1013.69 -967.61 2538.9
-991.57 -952.69 2499.8
-974.42 -954.93 2505.6
-931.84 -951.25 2496.0
-903.15 -955.13 2506.2
-838.79 -955.83 2508.0
-791.30 -961.33 2522.4
-780.32 -972.10 2550.7
-764.93 -961.07 2521.8
-742.88 -949.59 2491.6
-696.32 -956.63 2510.1
-690.96 -958.22 2514.3
-634.31 -951.47 2496.6
-648.54 -982.84 2578.9
-620.23 -949.72 2492.0
-611.91 -967.21 2537.9
-566.09 -945.63 2481.2
-561.17 -948.18 2487.9
-527.06 -944.85 2479.2
-523.18 -949.48 2491.4
-528.57 -971.24 2548.4
-526.33 -979.37 2569.8
-520.64 -981.21 2574.6
-509.55 -985.57 2586.0
-489.47 -959.36 2517.3
-477.15 -947.85 2487.1
-472.64 -951.75 2497.3
-471.00 -961.62 2523.2
-449.44 -957.51 2512.4
-445.09 -976.53 2562.3
-431.97 -976.92 2563.3
-410.69 -958.27 2514.4
-372.77 -944.78 2479.0
-374.67 -966.26 2535.4
-372.12 -976.81 2563.0
-360.17 -962.64 2525.9
-333.04 -959.94 2518.8
-325.28 -956.33 2509.3
-279.03 -953.88 2502.9
-278.78 -975.73 2560.2
-251.62 -948.41 2488.5
-235.72 -962.51 2525.5
-232.09 -974.78 2557.7
-221.81 -959.00 2516.3
-213.02 -948.89 2489.8
-206.21 -947.30 2485.6
-201.45 -955.29 2506.6
-193.47 -948.00 2487.5
-160.02 -940.94 2468.9
-159.39 -976.27 2561.6
-148.21 -947.25 2485.5
-122.22 -945.58 2481.1
-117.93 -963.11 2527.1
-109.33 -945.42 2480.7
-64.42 -947.01 2484.9
-57.55 -939.95 2466.3
-51.58 -947.83 2487.0
-32.53 -956.48 2509.7
-25.84 -949.74 2492.0
19.15 -938.36 2462.2
25.82 -949.03 2490.2
32.07 -942.95 2474.2
83.70 -946.47 2483.4
89.96 -944.61 2478.6
116.71 -953.15 2501.0
124.10 -960.16 2519.4
139.62 -977.37 2564.5
152.95 -936.81 2458.1
172.87 -977.41 2564.6
173.10 -942.43 2472.8
179.75 -943.70 2476.2
191.00 -935.92 2455.8
198.16 -939.66 2465.6
243.39 -941.53 2470.5
267.27 -958.25 2514.3
269.26 -942.43 2472.8
278.82 -953.17 2501.0
290.53 -970.64 2546.9
302.29 -945.46 2480.8
305.63 -936.00 2456.0
336.09 -950.11 2493.0
369.75 -953.56 2502.0
375.00 -950.42 2493.8
380.48 -947.98 2487.4
398.82 -945.59 2481.1
413.31 -934.71 2452.6
424.24 -944.91 2479.3
426.02 -934.70 2452.6
436.11 -942.78 2473.8
447.96 -954.35 2504.1
443.40 -931.15 2443.2
473.16 -952.81 2500.1
479.44 -952.41 2499.0
482.68 -946.05 2482.3
501.40 -969.81 2544.7
504.66 -963.44 2528.0
495.76 -934.32 2451.6
534.23 -934.90 2453.1
544.16 -941.08 2469.3
553.15 -945.51 2480.9
551.48 -931.81 2445.0
595.07 -930.59 2441.8
610.28 -944.33 2477.8
613.88 -940.01 2466.5
626.81 -949.91 2492.5
635.72 -934.50 2452.1
642.67 -935.37 2454.3
727.82 -938.51 2462.6
749.26 -933.41 2449.2
751.53 -928.36 2435.9
812.79 -948.26 2488.1
801.63 -927.87 2434.6
825.81 -926.67 2431.5
845.41 -927.43 2433.5
852.35 -928.12 2435.3
864.93 -934.89 2453.1
864.68 -927.80 2434.5
931.86 -925.57 2428.6
988.66 -925.69 2428.9
1005.82 -924.10 2424.8
1037.55 -941.48 2470.4
1057.05 -953.29 2501.4
1070.38 -942.19 2472.2
1098.12 -960.86 2521.2
1086.29 -944.88 2479.3
1083.41 -936.83 2458.2
1075.08 -924.19 2425.0
1123.31 -938.22 2461.8
1112.15 -923.65 2423.6
1185.15 -931.65 2444.6
1207.40 -944.08 2477.2
1198.09 -922.09 2419.5
1209.58 -926.08 2430.0
1238.76 -929.07 2437.8
1263.72 -942.98 2474.3
1241.69 -921.86 2418.9
1332.21 -923.75 2423.8
1333.96 -920.62 2415.6
1394.94 -923.67 2423.6
1422.62 -937.78 2460.6
1416.10 -929.32 2438.4
1408.06 -919.93 2413.8
1421.52 -924.61 2426.1
1426.35 -923.67 2423.6
1427.30 -920.23 2414.6
1476.72 -947.94 2487.3
1494.78 -955.36 2506.8
1517.29 -921.66 2418.3
1551.37 -938.48 2462.5
1526.59 -919.71 2413.2
1605.76 -929.32 2438.4
1650.81 -951.64 2497.0
1631.24 -936.69 2457.8
1614.97 -920.16 2414.4
1632.69 -919.56 2412.8
1679.95 -921.46 2417.8
1673.43 -914.48 2399.5
1694.17 -915.60 2402.4
1718.36 -925.27 2427.8
1894.53 -913.10 2395.9
-1357.17 -965.68 2516.7
-1259.85 -961.12 2504.9
-1256.22 -963.32 2510.6
-1249.60 -963.23 2510.4
-1203.60 -962.88 2509.4
-1221.77 -982.73 2561.2
-1211.36 -979.68 2553.2
-1186.87 -965.15 2515.3
-1162.53 -966.60 2519.1
-1168.04 -976.67 2545.4
-1154.62 -970.93 2530.4
-1102.78 -960.07 2502.1
-1096.57 -971.81 2532.7
-1003.58 -958.26 2497.4
-989.08 -956.76 2493.5
-909.89 -955.06 2489.1
-906.03 -957.80 2496.2
-906.92 -965.64 2516.6
-894.86 -981.03 2556.7
-895.35 -988.89 2577.2
-858.34 -955.15 2489.3
-857.80 -984.15 2564.9
-855.59 -989.27 2578.2
-839.20 -977.96 2548.7
-843.36 -990.62 2581.7
-829.12 -981.68 2558.4
-775.03 -972.07 2533.4
-743.08 -956.32 2492.3
-751.98 -976.25 2544.3
-734.23 -961.65 2506.2
-708.07 -952.68 2482.8
-705.12 -957.41 2495.2
-707.16 -969.07 2525.6
-706.79 -977.61 2547.8
-685.18 -956.67 2493.3
-668.27 -969.65 2527.1
-624.70 -963.08 2509.9
-603.06 -959.70 2501.2
-607.10 -976.63 2545.3
-600.25 -987.08 2572.5
-581.66 -967.26 2520.9
-578.96 -973.70 2537.6
-572.45 -973.83 2538.0
-556.77 -958.16 2497.1
-518.81 -959.80 2501.4
-523.45 -980.64 2555.7
-499.78 -986.23 2570.3
-488.92 -977.83 2548.4
-486.34 -986.00 2569.7
-469.17 -977.98 2548.8
-457.73 -967.78 2522.2
-443.63 -951.55 2479.9
-436.07 -963.25 2510.4
-435.87 -977.42 2547.3
-435.49 -991.58 2584.2
-428.49 -990.89 2582.4
-406.72 -955.48 2490.1
-402.71 -977.07 2546.4
-386.52 -969.58 2526.9
-373.43 -952.88 2483.4
-370.94 -963.13 2510.1
-364.55 -963.45 2510.9
-366.07 -985.06 2567.2
-349.68 -958.37 2497.7
-327.12 -949.29 2474.0
-323.32 -957.03 2494.2
-278.27 -957.77 2496.1
-266.15 -960.73 2503.8
-227.59 -962.36 2508.1
-222.52 -968.62 2524.4
-213.71 -958.46 2497.9
-206.66 -955.78 2490.9
-203.15 -969.89 2527.7
-195.48 -964.34 2513.3
-172.56 -945.88 2465.1
-169.96 -967.48 2521.4
-123.54 -962.28 2507.9
-119.66 -983.86 2564.1
-111.46 -970.36 2528.9
-71.84 -966.54 2519.0
-65.00 -961.94 2507.0
-32.36 -957.86 2496.3
12.79 -946.45 2466.6
19.41 -957.54 2495.5
26.20 -969.35 2526.3
32.13 -951.05 2478.6
83.35 -948.86 2472.9
116.35 -956.66 2493.2
135.44 -954.55 2487.7
139.91 -941.19 2452.9
153.28 -945.23 2463.4
162.78 -963.69 2511.5
200.08 -955.24 2489.5
203.49 -941.14 2452.8
225.64 -954.15 2486.7
241.29 -965.17 2515.4
265.21 -981.28 2557.4
265.46 -958.24 2497.3
270.15 -951.95 2480.9
273.09 -939.95 2449.7
293.25 -943.50 2458.9
303.73 -956.41 2492.6
338.34 -944.81 2462.3
346.70 -950.20 2476.4
353.93 -952.39 2482.1
380.59 -954.69 2488.1
380.01 -937.35 2442.9
398.93 -952.28 2481.8
399.64 -938.83 2446.8
439.84 -943.43 2458.7
455.84 -937.00 2442.0
485.67 -958.38 2497.7
489.22 -952.69 2482.9
490.68 -943.12 2457.9
612.47 -954.16 2486.7
625.15 -963.77 2511.8
618.07 -943.03 2457.7
715.50 -937.12 2442.3
732.83 -951.39 2479.5
743.08 -956.32 2492.3
752.05 -959.51 2500.7
752.60 -952.01 2481.1
755.26 -947.27 2468.8
749.27 -931.86 2428.6
820.96 -949.23 2473.9
813.69 -933.54 2433.0
825.44 -939.73 2449.1
828.79 -936.34 2440.3
949.53 -930.67 2425.5
1001.48 -950.12 2476.2
1031.25 -972.13 2533.6
1024.48 -959.64 2501.0
1044.88 -948.73 2472.6
1048.60 -929.30 2421.9
1065.29 -938.47 2445.8
1085.76 -939.72 2449.1
1106.55 -952.14 2481.5
1144.54 -930.72 2425.6
1146.56 -927.27 2416.6
1171.11 -926.87 2415.6
1189.55 -936.46 2440.6
1200.20 -939.84 2449.4
1218.81 -949.39 2474.3
1236.27 -957.95 2496.6
1225.16 -944.39 2461.3
1207.12 -925.67 2412.4
1214.80 -926.75 2415.3
1253.64 -951.48 2479.7
1336.28 -941.76 2454.4
1353.68 -940.58 2451.3
1380.31 -954.60 2487.9
1345.22 -926.01 2413.4
1395.42 -930.28 2424.5
1410.27 -935.96 2439.3
1455.06 -924.24 2408.7
1496.74 -926.85 2415.5
1527.04 -941.68 2454.2
1588.06 -955.42 2490.0
1569.21 -940.26 2450.5
1598.30 -927.64 2417.6
1609.96 -919.98 2397.6
1630.61 -924.64 2409.8
1644.88 -925.64 2412.4
1715.55 -961.75 2506.5
1674.60 -921.34 2401.2
1718.98 -931.90 2428.7
1745.86 -932.81 2431.1
1728.99 -920.47 2398.9
1823.42 -921.04 2400.4
1840.45 -917.13 2390.2
1947.23 -917.80 2392.0
1970.77 -917.22 2390.4
-1554.95 -985.91 2552.2
-1522.85 -969.68 2510.2
-1268.53 -969.29 2509.2
-1275.94 -979.98 2536.9
-1276.47 -985.46 2551.0
-1164.45 -974.74 2523.3
-1149.87 -967.97 2505.8
-1144.77 -969.15 2508.8
-1130.62 -968.18 2506.3
-1130.50 -973.67 2520.5
-1114.51 -976.83 2528.7
-1106.62 -975.66 2525.7
-1096.11 -972.15 2516.6
-1079.65 -963.28 2493.6
-1053.63 -963.14 2493.3
-1059.34 -974.33 2522.2
-1067.45 -987.89 2557.3
-1051.58 -979.29 2535.1
-1042.27 -976.72 2528.4
-1029.06 -970.44 2512.2
-984.36 -964.93 2497.9
-982.77 -969.75 2510.4
-973.95 -967.45 2504.4
-880.46 -979.02 2534.4
-867.47 -971.82 2515.7
-832.66 -976.90 2528.9
-827.83 -978.94 2534.2
-805.03 -959.59 2484.1
-738.88 -965.73 2500.0
-732.06 -965.28 2498.8
-673.47 -983.80 2546.7
-644.80 -980.37 2537.9
-630.35 -968.27 2506.5
-629.84 -977.56 2530.6
-624.73 -979.83 2536.5
-610.94 -968.40 2506.9
-602.34 -965.04 2498.2
-573.89 -971.71 2515.4
-578.15 -990.17 2563.2
-568.93 -985.71 2551.7
-549.70 -963.59 2494.4
-520.47 -969.37 2509.4
-528.64 -997.06 2581.1
-517.55 -988.65 2559.3
-509.30 -985.54 2551.2
-506.70 -993.41 2571.6
-498.82 -990.99 2565.4
-481.46 -969.42 2509.5
-471.15 -961.66 2489.4
-451.50 -961.06 2487.9
-420.17 -978.22 2532.3
-414.81 -981.07 2539.7
-394.49 -963.58 2494.4
-399.93 -993.16 2571.0
-384.50 -971.02 2513.7
-372.14 -956.00 2474.8
-370.76 -969.17 2508.9
-320.76 -955.88 2474.5
-327.50 -995.87 2578.0
-312.37 -969.66 2510.2
-283.51 -982.41 2543.1
-265.52 -964.96 2498.0
-251.66 -986.79 2554.5
-246.34 -992.03 2568.1
-230.63 -954.55 2471.0
-221.51 -970.74 2512.9
-218.38 -986.01 2552.5
-205.55 -957.10 2477.6
-195.38 -970.38 2512.0
-190.58 -979.17 2534.8
-180.32 -959.56 2484.0
-173.97 -960.08 2485.3
-168.75 -967.06 2503.4
-115.60 -956.89 2477.1
-63.90 -952.11 2464.7
-59.04 -977.38 2530.1
-51.18 -953.29 2467.8
6.39 -952.03 2464.5
13.04 -971.48 2514.9
19.73 -979.75 2536.3
26.23 -977.21 2529.7
45.30 -964.14 2495.9
78.24 -971.44 2514.8
90.69 -965.17 2498.5
116.38 -963.37 2493.9
122.33 -959.31 2483.3
139.94 -947.81 2453.6
147.79 -957.40 2478.4
152.68 -947.91 2453.8
208.25 -969.67 2510.2
217.90 -983.86 2546.9
218.23 -956.37 2475.7
229.67 -977.72 2531.0
241.08 -970.85 2513.2
245.44 -962.39 2491.3
251.75 -961.82 2489.8
273.07 -946.21 2449.4
280.83 -950.99 2461.8
289.73 -959.34 2483.4
291.45 -944.04 2443.8
325.09 -968.76 2507.8
333.08 -973.12 2519.1
332.90 -953.89 2469.3
337.55 -948.95 2456.5
343.03 -946.52 2450.2
348.62 -944.43 2444.8
398.44 -957.54 2478.8
402.61 -952.21 2465.0
470.36 -947.07 2451.7
475.62 -944.90 2446.1
480.13 -941.31 2436.8
580.32 -950.19 2459.7
610.61 -947.72 2453.4
623.79 -938.83 2430.3
639.14 -952.32 2465.3
654.55 -946.88 2451.2
662.97 -949.83 2458.8
666.50 -945.80 2448.4
668.98 -940.36 2434.3
700.98 -958.21 2480.5
717.30 -945.82 2448.4
737.84 -939.64 2432.4
745.05 -940.78 2435.4
828.29 -964.18 2496.0
834.49 -963.87 2495.2
838.28 -960.80 2487.2
834.48 -949.14 2457.0
831.44 -938.52 2429.5
856.44 -959.47 2483.8
871.52 -969.08 2508.6
885.46 -956.05 2474.9
890.28 -954.32 2470.4
880.95 -937.58 2427.1
904.37 -942.31 2439.4
946.94 -953.34 2467.9
977.02 -977.02 2529.2
963.03 -956.61 2476.4
1003.36 -946.20 2449.4
995.97 -933.33 2416.1
1016.66 -940.88 2435.6
1091.90 -945.89 2448.6
1137.67 -957.70 2479.2
1113.84 -932.37 2413.6
1169.24 -941.71 2437.8
1207.29 -941.81 2438.1
1224.28 -950.09 2459.5
1234.17 -952.81 2466.5
1258.85 -956.99 2477.3
1253.34 -947.96 2454.0
1271.41 -933.20 2415.8
1276.89 -932.63 2414.3
1326.69 -945.82 2448.4
1322.68 -934.02 2417.9
1372.24 -942.23 2439.1
1382.05 -931.79 2412.1
1410.00 -933.73 2417.1
1458.25 -940.60 2434.9
1455.23 -934.61 2419.4
1503.54 -941.29 2436.7
1522.29 -949.04 2456.8
1519.72 -939.58 2432.3
1548.18 -937.72 2427.5
1579.66 -926.65 2398.8
1655.67 -938.00 2428.2
1697.81 -958.24 2480.6
1759.84 -946.63 2450.5
1970.92 -923.48 2390.6
1981.52 -925.54 2395.9
-1131.20 -980.81 2522.1
-1123.94 -991.71 2550.1
-1090.67 -968.05 2489.3
-1066.03 -981.01 2522.6
-1079.69 -1005.93 2586.7
-1040.33 -975.31 2507.9
-983.04 -976.53 2511.1
-992.52 -999.18 2569.3
-959.34 -972.31 2500.2
-948.90 -968.27 2489.8
-940.84 -966.61 2485.6
-936.42 -968.71 2491.0
-881.00 -986.19 2535.9
-879.32 -991.72 2550.1
-865.73 -983.78 2529.7
-813.18 -968.08 2489.3
-771.27 -972.20 2499.9
-761.17 -967.59 2488.1
-745.95 -990.20 2546.2
-670.76 -986.42 2536.5
-673.10 -999.65 2570.5
-657.64 -986.46 2536.6
-635.37 -962.68 2475.5
-610.11 -963.34 2477.2
-605.34 -965.96 2483.9
-604.91 -975.66 2508.8
-600.66 -979.34 2518.3
-559.77 -965.12 2481.7
-556.25 -970.20 2494.8
-549.84 -970.31 2495.1
-519.38 -986.17 2535.9
-509.89 -980.55 2521.4
-494.06 -962.45 2474.9
-486.27 -972.55 2500.8
-478.76 -970.46 2495.5
-464.66 -968.05 2489.3
-464.82 -982.02 2525.2
-437.44 -964.94 2481.3
-431.49 -966.03 2484.1
-413.41 -984.30 2531.1
-407.58 -986.09 2535.6
-404.65 -995.04 2558.7
-387.13 -984.24 2530.9
-375.76 -988.84 2542.7
-370.09 -991.32 2549.1
-338.72 -977.08 2512.5
-322.65 -967.94 2489.0
-311.99 -974.97 2507.1
-309.07 -986.40 2536.5
-291.97 -973.23 2502.6
-283.44 -966.27 2484.7
-281.72 -982.74 2527.0
-271.90 -971.08 2497.1
-269.24 -985.02 2532.9
-266.58 -999.68 2570.6
-230.78 -961.56 2472.6
-219.76 -969.54 2493.1
-217.47 -988.52 2541.9
-205.68 -964.13 2479.2
-38.69 -967.27 2487.3
12.77 -957.57 2462.3
19.29 -964.44 2480.0
25.53 -957.54 2462.2
32.26 -967.66 2488.3
51.78 -970.81 2496.4
58.07 -967.87 2488.8
64.83 -972.52 2500.8
70.07 -955.43 2456.8
77.97 -974.57 2506.0
86.31 -995.87 2560.8
89.29 -956.67 2460.0
120.62 -952.23 2448.6
212.00 -993.76 2555.4
222.63 -982.18 2525.6
221.71 -950.20 2443.4
288.62 -962.06 2473.9
292.97 -955.32 2456.5
299.71 -956.51 2459.6
310.38 -969.93 2494.1
320.05 -979.74 2519.3
336.98 -972.05 2499.6
342.59 -969.60 2493.3
348.95 -969.30 2492.5
371.53 -977.71 2514.1
413.11 -983.58 2529.2
412.57 -952.07 2448.2
424.46 -950.28 2443.6
524.19 -958.88 2465.7
535.84 -968.38 2490.1
539.06 -962.60 2475.3
539.18 -951.49 2446.7
570.30 -972.09 2499.7
572.29 -964.53 2480.2
572.69 -954.48 2454.4
593.58 -978.43 2516.0
618.19 -955.96 2458.2
631.60 -966.73 2485.9
633.51 -959.86 2468.2
641.81 -943.84 2427.0
654.26 -952.80 2450.1
705.24 -970.52 2495.6
705.12 -961.53 2472.5
720.66 -956.63 2459.9
733.50 -965.13 2481.8
805.00 -950.79 2444.9
835.02 -978.54 2516.2
812.40 -944.65 2429.1
843.85 -958.92 2465.8
856.99 -966.53 2485.4
860.97 -963.78 2478.3
861.82 -957.58 2462.3
873.20 -963.09 2476.5
872.71 -955.52 2457.0
921.30 -966.40 2485.0
920.15 -958.49 2464.7
911.95 -943.40 2425.9
927.86 -953.28 2451.3
927.82 -946.75 2434.5
936.11 -948.76 2439.7
966.44 -972.92 2501.8
954.45 -954.45 2454.3
1007.51 -944.54 2428.8
1017.33 -947.83 2437.3
1107.13 -943.58 2426.3
1155.32 -979.08 2517.6
1117.36 -941.60 2421.3
1148.90 -936.60 2408.4
1159.00 -939.73 2416.4
1268.75 -937.50 2410.7
1352.26 -934.74 2403.6
1394.21 -933.62 2400.7
1424.33 -949.55 2441.7
1411.00 -936.50 2408.1
1433.52 -934.90 2404.0
1448.02 -940.27 2417.8
1468.69 -941.47 2420.9
1473.71 -936.68 2408.6
1499.29 -948.92 2440.1
1510.53 -952.01 2448.0
1571.36 -950.42 2443.9
1567.76 -944.44 2428.5
1598.75 -959.25 2466.6
1571.79 -939.32 2415.4
1598.38 -940.22 2417.7
1732.08 -937.95 2411.9
1814.56 -938.56 2413.4
1811.84 -933.94 2401.6
1979.09 -960.73 2470.4
1982.60 -959.32 2466.8
1954.99 -925.07 2378.8
-1455.58 -981.21 2506.4
-1461.92 -989.91 2528.6
-1171.20 -977.08 2495.8
-1162.97 -975.60 2492.1
-1131.79 -999.42 2552.9
-1130.69 -1004.31 2565.4
-966.31 -972.75 2484.8
-961.62 -981.12 2506.2
-976.34 -1009.77 2579.4
-961.46 -1001.24 2557.6
-943.40 -989.26 2527.0
-875.08 -978.80 2500.2
-873.83 -984.69 2515.3
-861.39 -985.38 2517.1
-856.97 -987.81 2523.3
-822.24 -977.62 2497.2
-809.62 -970.26 2478.4
-772.73 -972.35 2483.8
-770.10 -977.18 2496.1
-748.82 -991.86 2533.6
-734.02 -980.86 2505.5
-705.17 -976.89 2495.4
-693.82 -970.06 2477.9
-684.53 -993.88 2538.8
-666.85 -996.98 2546.7
-654.75 -988.67 2525.5
-635.54 -969.36 2476.1
-606.38 -974.08 2488.2
-616.67 -1001.26 2557.6
-609.70 -1000.71 2556.2
-587.50 -974.87 2490.2
-575.61 -965.74 2466.9
-572.86 -971.93 2482.7
-555.98 -976.21 2493.6
-552.80 -982.03 2508.5
-558.28 -1003.57 2563.5
-554.84 -1009.40 2578.4
-473.96 -967.13 2470.4
-467.92 -967.89 2472.4
-461.70 -968.29 2473.4
-441.51 -966.21 2468.1
-445.98 -990.33 2529.7
-434.48 -979.19 2501.3
-426.11 -974.88 2490.2
-426.78 -991.45 2532.6
-424.34 -1001.18 2557.4
-380.31 -973.35 2486.3
-366.03 -969.66 2476.9
-371.11 -1000.68 2556.1
-358.55 -984.37 2514.5
-345.03 -964.80 2464.5
-348.26 -992.22 2534.5
-322.97 -975.36 2491.5
-273.83 -961.60 2456.3
-263.49 -970.41 2478.8
-260.39 -982.97 2510.9
-255.06 -987.55 2522.6
-251.41 -999.03 2551.9
-236.66 -965.84 2467.1
-223.04 -962.24 2458.0
-220.06 -977.33 2496.5
-215.30 -985.15 2516.5
-83.19 -966.29 2468.3
-77.46 -974.74 2489.9
-38.48 -968.49 2473.9
31.84 -961.59 2456.3
39.00 -981.61 2507.4
209.58 -988.97 2526.2
213.00 -974.61 2489.6
219.41 -974.43 2489.1
225.39 -972.41 2483.9
299.67 -962.78 2459.3
307.12 -966.13 2467.9
312.25 -962.24 2458.0
320.45 -967.76 2472.0
338.87 -965.46 2466.2
343.99 -961.91 2457.1
357.23 -980.76 2505.3
373.80 -990.24 2529.5
397.17 -967.29 2470.8
414.69 -963.36 2460.8
430.48 -970.20 2478.3
432.53 -960.47 2453.4
436.26 -954.70 2438.7
472.86 -952.02 2431.8
522.58 -974.20 2488.5
524.33 -965.53 2466.3
537.41 -966.06 2467.7
550.79 -978.46 2499.4
552.33 -969.78 2477.2
568.76 -987.15 2521.6
571.18 -969.07 2475.4
629.87 -951.11 2429.5
652.64 -975.73 2492.4
667.10 -987.57 2522.7
665.29 -965.95 2467.4
719.29 -961.17 2455.2
726.80 -962.69 2459.1
748.28 -949.50 2425.4
788.37 -960.03 2452.3
784.96 -948.23 2422.1
815.75 -962.33 2458.2
831.64 -951.34 2430.1
847.44 -962.13 2457.7
858.14 -967.00 2470.1
867.64 -970.48 2479.0
870.33 -966.32 2468.4
859.14 -946.94 2418.9
870.42 -945.57 2415.4
895.77 -945.89 2416.2
920.16 -951.67 2430.9
931.44 -956.79 2444.0
957.27 -957.27 2445.3
959.07 -952.76 2433.7
962.20 -949.62 2425.7
1007.35 -956.67 2443.7
1015.03 -957.94 2446.9
1166.68 -962.67 2459.0
1160.64 -952.48 2433.0
1276.41 -944.80 2413.4
1319.59 -971.99 2482.9
1313.17 -962.57 2458.8
1352.45 -945.46 2415.1
1358.29 -945.17 2414.3
1542.10 -946.57 2417.9
1547.69 -938.56 2397.5
1678.59 -942.26 2406.9
1710.28 -956.49 2443.3
1736.62 -967.64 2471.7
1738.35 -965.04 2465.1
1767.69 -939.86 2400.8
1934.93 -945.55 2415.3
1944.93 -947.37 2420.0
1943.08 -931.44 2379.3
1984.58 -948.33 2422.4
1961.20 -934.20 2386.3
1985.19 -942.65 2407.9
1988.50 -941.26 2404.4
-1325.30 -982.66 2493.6
-964.23 -990.29 2513.0
-982.84 -1016.27 2578.9
-944.35 -983.15 2494.8
-940.90 -986.32 2502.9
-935.11 -987.06 2504.8
-847.25 -983.06 2494.6
-814.25 -974.54 2473.0
-804.64 -986.33 2502.9
-798.52 -1011.45 2566.7
-703.57 -981.13 2489.7
-713.66 -1004.42 2548.8
-690.73 -981.22 2489.9
-675.36 -996.64 2529.1
-672.52 -1002.19 2543.1
-647.80 -1004.75 2549.6
-622.85 -976.02 2476.7
-599.52 -979.86 2486.5
-599.22 -990.02 2512.3
-580.35 -991.16 2515.2
-579.09 -1000.25 2538.2
-560.78 -1014.75 2575.0
-529.31 -981.17 2489.8
-460.31 -985.46 2500.7
-462.50 -1004.29 2548.5
-422.70 -988.47 2508.3
-426.57 -1013.11 2570.9
-407.62 -999.33 2535.9
-371.59 -973.83 2471.2
-365.71 -975.24 2474.8
-361.15 -980.27 2487.5
-353.37 -976.59 2478.2
-344.34 -969.26 2459.6
-346.94 -995.01 2524.9
-339.18 -1010.89 2565.2
-318.38 -967.86 2456.0
-305.61 -988.34 2508.0
-297.97 -984.60 2498.5
-258.72 -983.14 2494.8
-230.03 -971.22 2464.6
-223.35 -969.96 2461.4
-216.11 -966.13 2451.7
-212.41 -978.38 2482.7
-162.34 -987.02 2504.6
-152.86 -968.12 2456.7
-82.49 -964.50 2447.5
-63.37 -963.23 2444.3
-25.44 -966.77 2453.3
6.44 -978.17 2482.2
44.35 -963.01 2443.7
51.76 -983.49 2495.7
102.74 -975.98 2476.7
108.98 -974.42 2472.7
203.32 -965.77 2450.7
220.91 -959.37 2434.5
293.40 -991.05 2514.9
303.47 -981.42 2490.5
342.76 -983.01 2494.5
352.48 -992.16 2517.7
350.35 -968.23 2457.0
363.67 -969.79 2460.9
365.36 -957.49 2429.7
409.84 -988.82 2509.2
413.30 -981.58 2490.9
421.50 -956.24 2426.5
473.34 -959.31 2434.3
511.95 -972.70 2468.3
536.69 -994.83 2524.5
551.93 -986.98 2504.5
552.05 -964.50 2447.5
640.13 -973.00 2469.1
662.04 -996.33 2528.3
675.60 -997.00 2530.0
687.39 -985.70 2501.3
682.98 -970.22 2462.0
768.43 -957.38 2429.4
772.51 -954.65 2422.5
786.34 -956.19 2426.4
790.65 -953.80 2420.4
804.47 -955.31 2424.2
815.26 -960.61 2437.6
822.21 -961.35 2439.5
837.77 -950.30 2411.5
861.07 -969.50 2460.2
878.99 -982.40 2492.9
875.40 -971.25 2464.6
879.26 -968.46 2457.6
891.99 -975.41 2475.2
890.07 -966.36 2452.2
894.16 -963.92 2446.0
907.61 -971.53 2465.4
937.32 -949.82 2410.3
959.95 -966.31 2452.1
949.38 -949.38 2409.1
999.42 -955.42 2424.5
1012.09 -961.49 2439.9
1069.55 -950.71 2412.5
1092.38 -948.81 2407.7
1117.60 -965.20 2449.3
1115.51 -957.95 2430.9
1178.26 -952.63 2417.4
1196.72 -962.44 2442.3
1209.02 -957.14 2428.8
1293.83 -959.33 2434.4
1293.56 -954.47 2422.1
1332.92 -946.75 2402.5
1344.12 -945.86 2400.2
1365.23 -956.29 2426.7
1359.20 -943.37 2393.9
1375.29 -950.20 2411.2
1523.17 -948.86 2407.8
1563.41 -969.95 2461.4
1561.11 -956.81 2428.0
1568.48 -942.33 2391.2
1623.50 -941.88 2390.1
1826.88 -938.13 2380.6
1881.70 -943.96 2395.4
1895.21 -935.30 2373.4
1991.54 -970.24 2462.1
1973.31 -958.29 2431.7
1942.30 -940.22 2385.9
1965.83 -939.64 2384.4
2005.08 -955.40 2424.4
-1233.89 -988.41 2491.8
-1229.39 -989.98 2495.7
-1232.74 -997.93 2515.8
-1213.71 -987.75 2490.1
-1081.60 -996.90 2513.2
-1095.56 -1015.88 2561.0
-963.44 -982.71 2477.4
-970.93 -997.00 2513.4
-959.78 -992.21 2501.4
-933.71 -992.07 2501.0
-930.85 -995.95 2510.8
-911.43 -982.03 2475.7
-821.50 -989.68 2495.0
-819.16 -1010.74 2548.1
-799.16 -994.08 2506.1
-795.87 -1006.35 2537.0
-748.46 -987.19 2488.7
-711.42 -980.60 2472.1
-702.75 -995.56 2509.8
-689.65 -986.14 2486.1
-641.51 -1001.54 2524.9
-630.98 -995.26 2509.0
-568.11 -976.65 2462.1
-570.51 -991.91 2500.6
-544.23 -979.62 2469.6
-549.20 -1000.32 2521.8
-531.73 -980.18 2471.0
-524.21 -978.10 2465.8
-517.48 -977.46 2464.2
-466.50 -1005.26 2534.3
-455.45 -995.48 2509.6
-407.60 -974.43 2456.5
-405.13 -983.89 2480.4
-403.87 -996.64 2512.5
-396.18 -993.71 2505.1
-375.85 -974.67 2457.2
-379.44 -1000.93 2523.3
-373.15 -1001.62 2525.1
-369.53 -1009.62 2545.2
-362.92 -1009.57 2545.1
-331.38 -975.01 2458.0
-302.41 -984.45 2481.8
-296.94 -987.65 2489.9
-259.55 -992.78 2502.8
-204.20 -1007.85 2540.8
-196.43 -1001.77 2525.5
-149.76 -996.22 2511.5
-144.59 -1005.56 2535.0
-137.83 -1004.21 2531.6
-130.76 -1000.28 2521.7
-123.59 -995.23 2509.0
-115.02 -977.66 2464.7
-84.17 -990.63 2497.4
-63.41 -970.18 2445.8
-58.05 -986.83 2487.8
-25.53 -976.69 2462.2
19.01 -969.70 2444.6
25.44 -973.00 2452.9
37.98 -968.52 2441.6
45.57 -996.13 2511.3
52.45 -1003.10 2528.8
127.87 -978.18 2466.0
134.40 -979.17 2468.5
160.33 -981.22 2473.7
164.22 -966.36 2436.2
176.79 -966.06 2435.4
202.04 -997.18 2513.9
209.14 -999.94 2520.9
210.16 -974.40 2456.5
258.70 -965.40 2433.8
290.44 -966.02 2435.4
298.47 -971.63 2449.5
305.89 -975.03 2458.0
311.36 -972.19 2450.9
336.76 -972.15 2450.8
342.23 -969.66 2444.5
358.59 -962.53 2426.6
386.88 -970.36 2446.3
447.77 -964.92 2432.6
455.10 -967.08 2438.0
509.43 -974.28 2456.2
521.31 -984.70 2482.4
522.27 -974.48 2456.7
552.66 -994.79 2507.9
554.25 -974.71 2457.3
630.53 -974.46 2456.6
646.63 -989.34 2494.1
651.79 -987.36 2489.1
663.13 -994.69 2507.6
658.41 -978.03 2465.6
672.47 -970.64 2447.0
780.77 -979.17 2468.5
791.21 -984.18 2481.1
777.36 -959.16 2418.0
792.04 -961.76 2424.6
803.06 -967.46 2439.0
827.11 -988.65 2492.4
818.86 -963.73 2429.6
831.74 -956.81 2412.1
844.29 -956.86 2412.3
876.42 -985.97 2485.6
888.18 -991.91 2500.6
882.35 -978.26 2466.2
886.83 -976.15 2460.9
891.60 -974.39 2456.4
903.75 -980.66 2472.3
911.43 -982.03 2475.7
1018.98 -956.47 2411.3
1049.50 -961.52 2424.0
1135.50 -987.11 2488.5
1117.63 -960.66 2421.8
1213.82 -972.33 2451.2
1217.38 -970.10 2445.6
1417.21 -959.44 2418.8
1436.92 -968.49 2441.6
1436.97 -964.28 2431.0
1438.90 -961.36 2423.6
1468.69 -960.30 2420.9
1538.57 -953.04 2402.6
1636.36 -955.58 2409.0
1793.13 -942.78 2376.8
1815.09 -951.06 2397.6
1875.20 -943.77 2379.3
1958.74 -963.62 2429.3
2010.24 -985.79 2485.2
1943.89 -950.21 2395.5
-1731.12 -1009.82 2529.2
-1703.44 -997.45 2498.3
-1325.27 -1010.35 2530.6
-1245.49 -1014.85 2541.8
-1217.71 -1002.82 2511.7
-1090.47 -999.60 2503.6
-1089.73 -1004.90 2516.9
-1099.33 -1019.86 2554.4
-1075.89 -1004.16 2515.1
-1029.58 -990.97 2482.0
-1020.75 -988.65 2476.2
-953.13 -1005.36 2518.1
-928.53 -986.16 2470.0
-904.62 -995.08 2492.3
-838.50 -993.31 2487.9
-837.37 -999.65 2503.8
-843.52 -1014.86 2541.9
-839.83 -1018.38 2550.7
-806.78 -986.07 2469.7
-796.76 -1005.75 2519.0
-794.10 -1010.67 2531.4
-780.00 -1001.00 2507.1
-720.64 -999.80 2504.1
-707.40 -990.37 2480.5
-595.83 -997.37 2498.1
-580.66 -982.66 2461.2
-566.09 -990.65 2481.2
-542.97 -983.73 2463.9
-525.70 -987.29 2472.8
-455.48 -987.93 2474.4
-399.38 -992.01 2484.6
-404.27 -1020.61 2556.3
-398.06 -1021.69 2559.0
-377.36 -984.96 2467.0
-356.56 -998.37 2500.6
-353.80 -1008.98 2527.1
-303.27 -993.70 2488.9
-295.25 -988.43 2475.7
-270.45 -991.65 2483.7
-265.45 -997.05 2497.2
-254.14 -978.46 2450.7
-215.40 -975.64 2443.6
-210.53 -982.48 2460.8
-209.57 -1008.55 2526.0
-192.72 -989.31 2477.9
-135.69 -995.06 2492.3
-124.21 -1006.77 2521.6
-114.66 -980.95 2456.9
-107.52 -974.01 2439.5
-84.60 -1002.15 2510.0
-76.25 -978.50 2450.8
-58.78 -1005.74 2519.0
-51.82 -997.63 2498.7
-44.46 -978.03 2449.6
-38.64 -991.78 2484.1
-32.36 -996.63 2496.2
-25.85 -995.17 2492.6
-19.31 -991.12 2482.4
-12.79 -985.20 2467.6
-6.32 -972.97 2436.9
19.17 -984.07 2464.7
25.89 -996.66 2496.3
50.71 -976.13 2444.8
69.39 -971.52 2433.3
77.69 -997.03 2497.2
82.50 -977.31 2447.8
120.92 -980.11 2454.8
128.33 -988.14 2474.9
160.25 -987.13 2472.4
165.63 -981.06 2457.2
193.23 -991.89 2484.3
204.02 -1013.54 2538.5
206.03 -991.54 2483.4
212.35 -990.98 2482.1
219.89 -995.97 2494.5
252.51 -972.18 2435.0
268.30 -1007.75 2524.0
268.64 -985.01 2467.1
312.84 -983.21 2462.6
318.42 -980.72 2456.4
415.90 -970.44 2430.6
424.43 -975.56 2443.4
434.64 -984.34 2465.4
442.50 -987.62 2473.6
456.88 -1005.15 2517.5
446.88 -969.29 2427.7
539.36 -977.19 2447.5
545.65 -977.09 2447.3
546.40 -967.18 2422.4
576.17 -975.06 2442.2
592.37 -991.58 2483.5
589.11 -975.51 2443.3
590.06 -966.69 2421.2
636.59 -970.64 2431.1
661.38 -998.55 2501.0
670.37 -1002.31 2510.4
658.28 -974.76 2441.4
759.14 -966.18 2419.9
792.82 -1000.77 2506.6
792.83 -992.65 2486.2
798.65 -976.13 2444.9
810.97 -968.14 2424.8
863.57 -977.87 2449.2
868.68 -976.47 2445.7
874.69 -969.08 2427.2
891.53 -980.68 2456.2
888.24 -970.13 2429.8
980.33 -967.77 2423.9
993.97 -974.98 2442.0
1032.76 -981.76 2459.0
1032.81 -975.78 2444.0
1063.33 -986.46 2470.7
1073.32 -989.77 2479.0
1113.96 -974.72 2441.3
1142.79 -988.70 2476.3
1130.23 -961.63 2408.5
1138.68 -963.50 2413.2
1159.25 -975.54 2443.4
1212.71 -972.69 2436.2
1204.04 -955.79 2393.9
1349.62 -962.23 2410.0
1359.16 -964.57 2415.9
1396.15 -955.59 2393.4
1464.99 -998.27 2500.3
1442.65 -978.71 2451.3
1526.82 -951.95 2384.3
1792.50 -951.88 2384.1
1802.39 -953.84 2389.0
1890.76 -964.16 2414.9
1864.20 -947.48 2373.1
-1418.27 -999.24 2486.6
-1410.43 -998.25 2484.1
-1356.95 -1021.00 2540.7
-1318.92 -997.23 2481.6
-1342.77 -1025.27 2551.4
-1354.03 -1038.98 2585.5
-1231.28 -1015.15 2526.2
-1220.09 -1011.30 2516.6
-1091.13 -1012.73 2520.1
-1088.84 -1016.68 2530.0
-1037.40 -1004.98 2500.9
-998.66 -1025.11 2551.0
-959.55 -991.53 2467.4
-962.65 -1021.99 2543.2
-936.68 -1001.28 2491.7
-894.32 -990.14 2463.9
-826.06 -1000.30 2489.2
-819.57 -1000.26 2489.1
-791.32 -1005.37 2501.8
-795.96 -1019.62 2537.3
-779.91 -1007.38 2506.8
-623.90 -986.79 2455.6
-628.78 -1004.74 2500.3
-595.76 -1003.72 2497.7
-566.52 -986.63 2455.2
-456.93 -997.53 2482.3
-429.47 -993.56 2472.4
-402.33 -989.86 2463.2
-383.57 -990.89 2465.8
-375.20 -985.69 2452.9
-343.44 -985.79 2453.1
-319.57 -990.66 2465.2
-316.43 -1000.94 2490.8
-275.96 -994.73 2475.4
-271.52 -1002.02 2493.5
-263.74 -997.07 2481.2
-262.35 -1016.60 2529.8
-256.22 -1018.31 2534.1
-229.76 -989.25 2461.7
-223.76 -990.94 2465.9
-220.51 -1005.26 2501.6
-216.91 -1018.84 2535.4
-206.93 -1002.30 2494.2
-127.35 -986.97 2456.0
-38.75 -1001.06 2491.1
-32.74 -1014.88 2525.5
-25.52 -988.81 2460.6
19.25 -994.80 2475.5
26.29 -1018.64 2534.9
31.58 -979.09 2436.4
51.47 -997.25 2481.6
58.72 -1011.36 2516.8
63.25 -980.37 2439.6
77.79 -1004.84 2500.5
83.08 -990.61 2465.1
89.43 -990.16 2464.0
98.88 -1021.75 2542.6
111.02 -1012.25 2519.0
114.29 -984.20 2449.2
158.30 -981.49 2442.4
167.23 -996.97 2481.0
171.89 -986.78 2455.6
184.01 -983.48 2447.4
190.82 -985.92 2453.4
214.64 -978.50 2435.0
265.79 -980.88 2440.9
339.83 -975.44 2427.4
353.10 -995.10 2476.3
430.07 -980.30 2439.5
451.12 -1013.40 2521.8
458.15 -1014.47 2524.5
511.62 -979.02 2436.3
537.49 -980.13 2439.0
580.17 -988.20 2459.1
588.41 -991.34 2466.9
649.14 -986.44 2454.7
654.66 -985.16 2451.6
656.76 -978.82 2435.8
683.81 -972.39 2419.8
718.84 -968.87 2411.0
748.58 -975.04 2426.4
774.42 -983.90 2448.4
777.14 -979.32 2437.0
786.98 -968.11 2409.1
884.11 -978.83 2435.8
892.34 -980.94 2441.1
946.46 -965.14 2401.7
992.70 -1005.68 2502.6
974.65 -968.40 2409.8
993.54 -980.89 2440.9
1015.95 -978.09 2434.0
1052.17 -994.43 2474.6
1071.73 -1006.78 2505.4
1078.83 -1001.31 2491.7
1096.20 -982.14 2444.0
1088.08 -969.27 2412.0
1112.73 -979.96 2438.6
1138.85 -997.30 2481.7
1120.67 -975.86 2428.4
1195.88 -991.24 2466.7
1176.47 -969.96 2413.7
1192.11 -962.38 2394.9
1271.15 -961.12 2391.7
1362.04 -977.39 2432.2
1348.49 -963.21 2396.9
1420.99 -974.57 2425.2
1760.30 -964.12 2399.2
1862.68 -959.19 2386.9
1900.23 -975.29 2427.0
1887.38 -952.91 2371.3
1979.86 -986.75 2455.5
-1167.22 -1006.00 2487.4
-1113.40 -1003.99 2482.4
-1077.62 -1006.64 2488.9
-1058.37 -1000.64 2474.1
-1015.69 -1002.83 2479.5
-983.20 -1015.75 2511.5
-969.97 -1008.77 2494.2
-881.79 -996.81 2464.6
-820.09 -999.48 2471.2
-809.15 -1017.96 2516.9
-786.42 -997.41 2466.1
-777.71 -1002.67 2479.1
-767.34 -997.55 2466.5
-633.23 -1018.40 2518.0
-546.84 -1003.61 2481.4
-451.82 -992.74 2454.6
-400.78 -992.40 2453.7
-352.66 -1000.26 2473.2
-348.93 -1008.01 2492.3
-317.32 -1010.23 2497.8
-305.42 -992.63 2454.3
-281.53 -998.15 2467.9
-277.87 -1008.09 2492.5
-256.37 -999.85 2472.2
-247.66 -1016.73 2513.9
-222.47 -991.59 2451.7
-214.51 -1014.03 2507.2
-186.14 -1001.28 2475.7
-173.87 -1004.60 2483.9
-154.39 -1003.55 2481.3
-147.04 -997.32 2465.9
-107.37 -985.27 2436.1
-101.99 -994.36 2458.6
-38.34 -996.86 2464.8
-32.10 -1001.39 2476.0
6.33 -987.96 2442.8
12.78 -996.58 2464.1
19.19 -997.69 2466.8
25.48 -993.54 2456.6
31.93 -996.14 2463.0
38.11 -990.86 2449.9
44.09 -982.58 2429.5
51.17 -997.91 2467.3
59.13 -1024.85 2534.0
64.66 -1008.67 2494.0
88.11 -981.79 2427.5
96.30 -1001.56 2476.4
101.75 -992.11 2453.0
106.96 -981.52 2426.8
140.03 -992.95 2455.1
145.83 -989.08 2445.5
157.68 -983.94 2432.8
169.95 -1019.72 2521.3
170.89 -987.39 2441.3
259.05 -1010.30 2498.0
321.68 -983.98 2432.9
326.28 -978.85 2420.2
340.95 -984.95 2435.3
356.98 -1012.53 2503.5
403.65 -983.89 2432.7
407.18 -977.24 2416.2
431.92 -976.50 2414.4
440.16 -980.93 2425.4
482.42 -1017.00 2514.6
483.59 -1005.87 2487.1
477.98 -981.11 2425.8
488.79 -990.27 2448.5
501.92 -1003.85 2482.0
496.38 -980.20 2423.6
502.26 -979.40 2421.6
527.80 -1016.50 2513.3
519.96 -989.19 2445.8
535.83 -983.40 2431.5
538.03 -975.96 2413.1
587.07 -974.28 2408.9
598.79 -983.28 2431.2
611.30 -993.36 2456.1
610.76 -982.25 2428.6
642.12 -991.78 2452.2
662.88 -1013.81 2506.7
652.90 -988.86 2445.0
675.71 -994.45 2458.8
677.96 -988.42 2443.9
681.13 -983.86 2432.6
682.73 -977.11 2415.9
752.64 -986.65 2439.5
749.33 -974.13 2408.6
772.94 -988.35 2443.7
780.47 -989.86 2447.5
881.16 -981.86 2427.7
887.13 -981.50 2426.8
900.72 -969.05 2396.0
977.62 -1003.35 2480.8
969.16 -981.74 2427.4
1020.64 -982.83 2430.1
1015.89 -972.26 2403.9
1030.72 -974.50 2409.5
1072.78 -1002.12 2477.8
1071.62 -971.93 2403.1
1099.97 -991.88 2452.4
1094.74 -970.34 2399.2
1120.36 -987.44 2441.5
1116.13 -967.31 2391.7
1181.87 -985.95 2437.8
1173.95 -974.13 2408.6
1195.51 -981.57 2427.0
1189.44 -971.48 2402.0
1267.44 -969.22 2396.4
1299.40 -988.81 2444.9
1285.86 -973.76 2407.6
1280.62 -965.11 2386.3
1286.02 -964.52 2384.8
1339.21 -962.75 2380.4
1516.60 -969.63 2397.4
1697.06 -959.21 2371.7
1934.42 -970.32 2399.1
-1341.68 -1022.54 2512.2
-1357.20 -1039.42 2553.6
-1258.62 -1013.35 2489.6
-1271.48 -1028.98 2528.0
-1159.72 -1011.53 2485.1
-1161.39 -1018.65 2502.6
-1105.35 -1014.85 2493.3
-1089.81 -1018.46 2502.1
-1086.83 -1021.75 2510.2
-1042.49 -1016.59 2497.5
-1041.87 -1022.33 2511.6
-1029.05 -1016.11 2496.4
-1024.46 -1017.98 2500.9
-958.08 -1009.52 2480.2
-946.01 -1003.54 2465.5
-896.95 -1013.10 2489.0
-913.47 -1039.24 2553.2
-892.19 -1022.44 2511.9
-823.48 -1002.22 2462.2
-824.99 -1011.90 2486.0
-791.07 -1001.59 2460.7
-774.18 -1012.89 2488.4
-782.78 -1032.74 2537.2
-662.67 -1000.38 2457.7
-661.23 -1007.89 2476.2
-652.56 -1004.43 2467.7
-601.98 -1005.43 2470.1
-597.54 -1019.71 2505.2
-572.80 -1033.67 2539.5
-556.76 -1028.37 2526.5
-513.78 -995.85 2446.6
-457.09 -996.71 2448.7
-400.27 -997.51 2450.7
-345.92 -1005.72 2470.8
-336.84 -997.79 2451.4
-319.48 -1003.16 2464.5
-307.21 -1004.85 2468.7
-278.44 -993.53 2440.9
-253.66 -995.61 2446.0
-255.67 -1029.24 2528.6
-244.99 -1012.19 2486.7
-223.44 -1002.31 2462.5
-209.49 -996.69 2448.6
-171.32 -996.21 2447.5
-155.81 -1019.23 2504.0
-150.33 -1026.15 2521.0
-138.96 -991.64 2436.2
-101.97 -1000.58 2458.2
-94.89 -993.13 2439.9
-69.79 -996.07 2447.1
-50.59 -992.84 2439.2
-44.89 -1006.83 2473.6
-38.87 -1017.05 2498.7
-32.10 -1008.03 2476.5
0.00 -1004.71 2468.4
6.52 -1023.18 2513.7
12.93 -1015.26 2494.3
19.08 -998.65 2453.5
37.85 -990.28 2432.9
44.91 -1007.21 2474.5
51.07 -1002.27 2462.3
57.88 -1009.75 2480.7
65.18 -1023.27 2513.9
70.42 -1005.12 2469.3
75.49 -987.71 2426.6
82.03 -990.66 2433.8
119.46 -987.10 2425.1
138.80 -990.51 2433.5
144.65 -987.37 2425.8
168.31 -1016.31 2496.8
221.94 -995.55 2445.8
260.35 -1021.88 2510.5
262.78 -1006.26 2472.1
325.41 -1001.75 2461.1
340.61 -1028.39 2526.5
340.90 -991.14 2435.0
388.02 -982.57 2414.0
401.47 -1000.49 2458.0
414.23 -1016.16 2496.5
412.38 -996.05 2447.1
443.92 -995.65 2446.1
479.17 -989.87 2431.9
482.18 -983.15 2415.4
497.44 -1001.25 2459.8
495.02 -983.77 2416.9
513.21 -994.74 2443.9
522.98 -1001.32 2460.0
545.80 -984.96 2419.8
630.96 -980.80 2409.6
656.84 -1011.02 2483.9
654.27 -997.28 2450.1
656.13 -990.50 2433.4
688.46 -1019.70 2505.2
670.91 -984.42 2418.5
719.64 -999.85 2456.4
757.81 -983.27 2415.7
768.36 -988.79 2429.2
815.30 -977.11 2400.5
836.97 -995.49 2445.7
881.75 -995.94 2446.8
880.45 -987.36 2425.7
945.94 -983.52 2416.3
965.87 -997.64 2451.0
956.64 -981.65 2411.7
972.20 -991.14 2435.0
973.21 -985.77 2421.8
1039.38 -983.03 2415.1
1133.35 -994.06 2442.2
1162.50 -1013.96 2491.1
1165.14 -1010.65 2482.9
1150.60 -981.77 2412.0
1151.36 -977.10 2400.5
1162.37 -970.70 2384.8
1177.42 -978.07 2402.9
1222.84 -1010.45 2482.5
1220.65 -1003.36 2465.0
1210.28 -974.43 2394.0
1214.51 -972.85 2390.1
1288.22 -972.36 2388.9
1307.07 -981.87 2412.2
1326.49 -977.74 2402.1
1439.91 -970.24 2383.7
1533.39 -982.62 2414.1
1575.83 -977.88 2402.4
1580.89 -977.16 2400.7
1567.14 -964.87 2370.5
1599.37 -965.78 2372.7
1609.63 -968.25 2378.8
1614.59 -967.52 2377.0
1708.70 -971.98 2387.9
1821.22 -975.88 2397.5
-1460.44 -1021.02 2492.5
-1450.21 -1018.37 2486.1
-1350.03 -1040.51 2540.1
-1317.90 -1020.73 2491.8
-1273.18 -1026.34 2505.5
-1295.85 -1055.38 2576.4
-1251.69 -1024.70 2501.5
-1162.40 -1020.33 2490.9
-1153.00 -1017.74 2484.5
-1093.86 -1010.70 2467.4
-1048.97 -1010.60 2467.1
-1027.53 -1021.06 2492.7
-1052.01 -1052.01 2568.2
-1010.58 -1017.01 2482.8
-916.80 -1020.10 2490.3
-911.32 -1021.20 2493.0
-895.65 -1010.80 2467.6
-873.97 -1007.94 2460.6
-877.83 -1019.83 2489.6
-860.89 -1007.56 2459.7
-856.34 -1009.72 2464.9
-841.41 -1022.64 2496.5
-821.32 -1005.95 2455.8
-776.58 -1022.49 2496.1
-785.69 -1043.19 2546.7
-675.42 -1016.35 2481.1
-666.71 -1012.88 2472.7
-657.55 -1008.66 2462.4
-610.70 -1026.49 2505.9
-596.37 -1024.21 2500.3
-574.71 -1008.93 2463.0
-566.30 -1005.35 2454.3
-561.66 -1008.43 2461.8
-565.35 -1026.73 2506.5
-555.28 -1020.17 2490.5
-548.48 -1019.54 2488.9
-532.80 -1002.18 2446.5
-407.03 -1004.86 2453.1
-410.68 -1029.96 2514.4
-399.15 -1017.20 2483.2
-389.23 -1008.17 2461.2
-389.54 -1025.78 2504.2
-337.92 -1007.39 2459.3
-330.41 -1003.93 2450.8
-320.50 -1012.79 2472.5
-320.37 -1033.03 2521.9
-274.00 -1030.75 2516.3
-263.82 -1016.66 2481.9
-255.53 -1009.35 2464.1
-252.27 -1022.03 2495.0
-220.57 -995.70 2430.7
-214.71 -997.78 2435.8
-211.44 -1012.33 2471.3
-209.89 -1036.33 2529.9
-203.74 -1038.41 2535.0
-179.22 -1011.33 2468.9
-171.56 -1003.92 2450.8
-147.82 -1015.47 2479.0
-140.68 -1010.30 2466.4
-89.16 -1006.22 2456.4
-83.54 -1015.39 2478.8
-64.21 -1014.45 2476.5
-37.94 -999.10 2439.0
-31.83 -1005.95 2455.8
-12.80 -1011.32 2468.9
-6.45 -1018.53 2486.5
0.00 -1029.15 2512.4
6.49 -1026.11 2505.0
12.58 -993.88 2426.3
57.62 -1011.47 2469.2
70.49 -1012.50 2471.7
94.33 -993.63 2425.7
104.26 -1029.53 2513.3
109.05 -1013.52 2474.2
113.73 -998.27 2437.0
122.26 -1016.72 2482.0
127.68 -1008.66 2462.4
139.52 -1001.98 2446.1
147.00 -1009.80 2465.1
188.73 -993.98 2426.5
221.15 -998.34 2437.2
252.57 -997.65 2435.5
276.93 -994.43 2427.6
303.39 -998.67 2438.0
311.15 -1003.29 2449.3
