ply
format ascii 1.0
element vertex 2366
property float x
property float y
property float z
end_header
82.74 301.42 2279.7
-12.75 318.68 2458.4
0.00 312.51 2410.8
6.03 301.33 2324.5
12.22 305.57 2357.2
24.15 301.83 2328.4
29.17 291.66 2250.0
35.17 293.07 2260.8
41.89 299.23 2308.3
47.69 298.05 2299.3
52.93 294.05 2268.4
59.06 295.32 2278.2
66.72 303.27 2339.5
72.75 303.11 2338.3
76.90 295.77 2281.6
84.43 301.52 2326.0
-19.03 310.77 2446.3
-12.54 307.24 2418.5
-6.31 309.39 2435.4
0.00 307.12 2417.6
6.19 303.09 2385.8
12.15 297.79 2344.1
18.02 294.26 2316.3
23.88 292.49 2302.4
29.48 288.95 2274.5
34.45 281.38 2214.9
39.80 278.59 2193.0
45.94 281.35 2214.7
51.63 281.08 2212.6
59.06 289.38 2277.9
78.80 297.00 2337.9
-12.75 306.01 2459.0
6.30 302.18 2428.3
12.26 294.15 2363.7
17.87 286.00 2298.2
23.28 279.32 2244.6
29.34 281.66 2263.4
34.99 279.92 2249.4
41.07 281.64 2263.2
48.05 288.29 2316.6
53.03 282.84 2272.9
59.69 286.53 2302.5
67.27 293.55 2358.9
71.25 285.01 2290.2
78.32 289.18 2323.8
-12.65 297.19 2438.9
-6.33 297.55 2441.9
0.00 294.77 2419.1
6.07 285.46 2342.7
11.88 279.29 2292.0
17.44 273.23 2242.3
28.80 270.68 2221.4
34.99 274.06 2249.1
41.77 280.45 2301.6
48.80 286.73 2353.1
53.77 280.79 2304.3
58.43 274.60 2253.6
63.70 272.17 2233.6
69.45 272.02 2232.4
78.61 284.21 2332.4
-18.94 290.48 2435.7
-12.70 292.14 2449.6
-6.25 287.64 2411.9
0.00 279.83 2346.4
5.99 275.33 2308.6
11.92 274.26 2299.7
17.67 270.94 2271.8
23.28 267.73 2245.0
28.79 264.88 2221.1
34.21 262.27 2199.2
41.73 274.22 2299.3
55.08 281.53 2360.6
59.91 275.59 2310.9
66.52 278.18 2332.5
73.95 283.48 2377.0
80.27 284.05 2381.8
-25.04 281.69 2414.5
-18.56 278.34 2385.7
-12.33 277.41 2377.8
-6.02 270.93 2322.2
0.00 268.96 2305.4
6.01 270.58 2319.3
11.98 269.65 2311.3
17.76 266.40 2283.4
23.80 267.79 2295.3
29.87 268.82 2304.2
34.84 261.28 2239.5
41.74 268.34 2300.0
60.70 273.16 2341.3
67.05 274.30 2351.1
-25.35 278.80 2444.0
-18.78 275.41 2414.3
-12.48 274.62 2407.4
-6.16 270.88 2374.6
0.00 271.67 2381.6
6.09 267.93 2348.8
11.90 261.81 2295.1
17.72 259.88 2278.2
23.80 261.80 2295.0
30.56 268.93 2357.5
36.39 266.88 2339.5
40.78 256.33 2247.1
46.15 253.83 2225.1
53.35 260.84 2286.6
60.05 264.22 2316.2
65.77 263.07 2306.1
73.10 268.03 2349.6
-6.30 270.78 2428.9
0.00 270.67 2428.0
6.19 266.02 2386.2
11.87 255.16 2288.8
17.29 247.84 2223.2
23.45 252.05 2260.9
30.32 260.79 2339.3
35.43 253.91 2277.6
51.56 246.34 2209.7
57.77 248.43 2228.5
62.90 245.87 2205.4
72.60 260.13 2333.4
-19.07 267.04 2452.4
-12.55 263.47 2419.7
-6.23 261.75 2403.8
0.00 263.91 2423.7
6.17 259.26 2380.9
11.83 248.43 2281.5
17.59 246.26 2261.6
24.34 255.56 2347.0
30.33 254.80 2340.0
34.11 238.77 2192.8
39.22 235.30 2160.9
46.57 244.48 2245.2
51.95 242.41 2226.2
72.24 252.86 2322.2
-31.37 257.25 2420.2
-25.06 256.84 2416.3
-18.78 256.63 2414.3
-12.42 254.63 2395.5
-6.21 254.42 2393.5
0.00 258.02 2427.3
6.20 254.10 2390.5
11.94 244.69 2302.0
17.83 243.74 2293.0
23.86 244.58 2300.9
28.70 235.38 2214.3
34.15 233.36 2195.4
41.55 243.39 2289.7
48.81 250.14 2353.2
53.95 245.79 2312.3
59.10 242.29 2279.4
66.70 248.61 2338.9
73.81 252.19 2372.5
-31.03 248.26 2394.0
-24.53 245.28 2365.2
-18.46 246.11 2373.2
-12.26 245.19 2364.3
-6.01 240.55 2319.6
0.00 239.62 2310.6
6.04 241.78 2331.5
11.92 238.48 2299.6
17.43 232.39 2240.9
22.76 227.64 2195.1
28.27 226.19 2181.1
34.75 231.65 2233.8
41.55 237.41 2289.3
48.10 240.50 2319.1
55.01 244.50 2357.7
67.37 244.99 2362.4
71.45 238.16 2296.6
78.13 240.41 2318.3
-42.89 238.98 2363.6
-36.24 235.57 2329.8
-30.18 235.38 2327.9
-23.66 230.66 2281.2
-17.60 228.75 2262.4
-12.04 234.69 2321.1
-6.09 237.51 2349.0
0.00 227.75 2252.5
5.67 221.11 2186.8
11.43 222.92 2204.7
17.09 222.11 2196.7
22.44 218.79 2163.9
28.05 218.78 2163.8
34.23 222.50 2200.5
40.67 226.61 2241.2
47.25 230.32 2277.9
54.26 235.14 2325.5
60.57 236.23 2336.3
64.50 228.67 2261.6
70.17 228.05 2255.4
78.72 236.17 2335.8
84.95 236.65 2340.5
90.08 234.22 2316.4
98.39 239.82 2371.9
-48.35 229.67 2331.2
-41.53 225.46 2288.5
-36.22 229.40 2328.4
-30.13 229.01 2324.6
-23.59 224.12 2274.9
-17.26 218.63 2219.2
-11.62 220.79 2241.1
-6.01 228.34 2317.8
0.00 224.03 2274.0
5.63 213.83 2170.5
11.16 211.97 2151.6
16.56 209.71 2128.6
27.60 209.80 2129.5
34.38 217.73 2210.0
40.63 220.56 2238.8
46.93 222.90 2262.6
53.74 226.91 2303.2
59.84 227.39 2308.1
64.85 224.04 2274.1
71.67 226.96 2303.7
79.35 231.94 2354.3
84.54 229.47 2329.2
90.53 229.35 2328.0
-105.89 230.48 2402.6
-54.89 225.67 2352.6
-48.24 223.11 2325.8
-43.08 227.70 2373.7
-30.17 223.23 2327.1
-23.92 221.23 2306.3
-17.70 218.28 2275.5
-11.47 212.27 2212.8
-5.72 211.70 2206.9
0.00 214.94 2240.7
5.75 212.65 2216.8
11.37 210.26 2191.9
16.86 207.97 2168.0
22.31 206.34 2151.0
28.88 213.68 2227.6
35.49 218.83 2281.3
41.34 218.54 2278.2
47.81 221.10 2304.9
54.80 225.29 2348.6
60.16 222.60 2320.6
64.33 216.38 2255.7
71.19 219.52 2288.4
78.83 224.37 2338.9
84.60 223.58 2330.8
91.25 225.09 2346.5
-103.38 218.92 2345.5
-98.55 221.73 2375.6
-87.22 224.28 2403.0
-80.36 222.53 2384.3
-61.44 221.19 2369.9
-55.05 220.18 2359.1
-43.03 221.32 2371.3
-35.85 215.11 2304.7
-29.97 215.76 2311.8
-24.32 218.84 2344.7
-17.91 214.94 2302.9
-11.57 208.25 2231.3
-5.58 200.82 2151.6
0.00 196.45 2104.9
5.57 200.63 2149.7
11.40 205.28 2199.4
17.28 207.32 2221.3
23.40 210.57 2256.1
28.73 206.84 2216.2
33.56 201.35 2157.4
38.90 200.04 2143.3
44.80 201.61 2160.1
51.86 207.46 2222.7
57.62 207.44 2222.6
62.76 205.38 2200.5
70.69 212.06 2272.0
78.58 217.61 2331.5
84.47 217.22 2327.4
91.39 219.34 2350.0
-112.77 219.27 2416.5
-105.07 216.32 2383.9
-97.87 214.08 2359.3
-91.99 214.65 2365.5
-85.76 214.40 2362.7
-79.91 215.14 2370.9
-74.17 216.33 2384.1
-67.65 215.26 2372.3
-59.99 209.95 2313.7
-53.36 207.52 2287.0
-48.08 210.34 2318.0
-41.65 208.27 2295.2
-34.91 203.67 2244.5
-29.30 205.12 2260.5
-23.80 208.29 2295.4
-17.57 204.95 2258.7
-11.54 201.88 2224.8
-5.66 198.18 2184.0
0.00 194.29 2141.2
5.66 198.27 2185.0
11.42 199.80 2201.9
17.09 199.44 2197.9
22.95 200.79 2212.8
27.93 195.54 2155.0
49.44 192.25 2118.7
56.45 197.57 2177.3
63.31 201.44 2220.0
70.89 206.76 2278.5
78.50 211.35 2329.1
85.07 212.68 2343.8
92.61 216.09 2381.4
99.02 216.61 2387.1
104.94 216.05 2380.9
-140.00 216.36 2454.5
-133.22 215.69 2446.9
-124.21 211.16 2395.5
-117.08 209.52 2376.9
-111.63 210.86 2392.1
-102.99 205.97 2336.7
-95.08 202.05 2292.1
-91.16 206.63 2344.1
-86.72 210.60 2389.2
-79.66 208.34 2363.5
-72.73 206.07 2337.8
-66.85 206.62 2344.0
-59.77 203.21 2305.3
-52.61 198.74 2254.6
-46.83 199.02 2257.8
-41.07 199.47 2262.9
-34.86 197.54 2241.0
-29.05 197.55 2241.1
-23.42 199.05 2258.1
-17.41 197.30 2238.3
-11.53 195.98 2223.3
-5.86 199.23 2260.2
0.00 202.31 2295.1
5.94 202.04 2292.1
11.75 199.67 2265.2
17.01 192.73 2186.5
22.01 187.11 2122.7
28.16 191.49 2172.4
34.49 195.44 2217.1
39.93 193.94 2200.1
45.63 193.93 2200.0
50.80 191.90 2177.0
56.23 191.18 2168.9
63.10 195.03 2212.5
70.72 200.37 2273.1
78.42 205.09 2326.7
85.06 206.56 2343.4
92.01 208.56 2366.0
98.05 208.37 2363.8
104.70 209.40 2375.5
-139.63 209.45 2448.1
-131.90 207.26 2422.6
-124.81 205.93 2407.0
-119.42 207.41 2424.2
-104.59 203.03 2373.0
-91.03 200.26 2340.7
-86.20 203.17 2374.8
-78.84 200.13 2339.1
-65.81 197.43 2307.6
-59.39 196.00 2290.9
-52.76 193.45 2261.1
-46.49 191.76 2241.3
-40.41 190.49 2226.5
-33.97 186.83 2183.8
-28.04 185.05 2162.9
-22.91 188.98 2208.8
-17.28 190.09 2221.8
-11.52 190.09 2221.9
-5.90 194.61 2274.7
0.00 193.16 2257.8
5.72 188.82 2206.9
11.49 189.58 2215.9
16.91 186.00 2174.0
21.76 179.51 2098.2
27.61 182.24 2130.0
34.09 187.51 2191.7
39.90 188.10 2198.6
45.87 189.20 2211.4
51.30 188.08 2198.4
56.66 186.96 2185.3
63.45 190.36 2225.0
69.77 191.88 2242.7
75.85 192.54 2250.5
82.44 194.31 2271.2
89.13 196.08 2291.9
96.92 199.90 2336.5
116.62 202.55 2367.5
-140.51 204.38 2463.5
-132.52 201.94 2434.0
-125.56 200.89 2421.4
-117.92 198.60 2393.9
-110.06 195.65 2358.3
-106.02 199.56 2405.4
-91.94 196.13 2364.1
-83.03 189.79 2287.6
-75.97 187.00 2254.0
-69.29 184.78 2227.3
-64.46 187.52 2260.3
-59.04 188.94 2277.4
-53.17 189.04 2278.6
-47.55 190.20 2292.6
-40.43 184.84 2228.0
-33.20 177.08 2134.4
-27.35 175.02 2109.6
-22.30 178.41 2150.5
-17.05 181.89 2192.4
-11.53 184.45 2223.3
-5.76 184.29 2221.4
0.00 178.59 2152.6
5.50 176.11 2122.7
11.15 178.34 2149.6
17.01 181.39 2186.4
22.71 181.72 2190.4
27.55 176.34 2125.5
38.53 176.16 2123.4
44.86 179.46 2163.1
50.56 179.78 2167.0
56.31 180.18 2171.8
62.78 182.65 2201.5
68.74 183.29 2209.3
75.26 185.26 2233.1
82.27 188.05 2266.7
89.81 191.59 2309.3
98.22 196.44 2367.8
104.39 196.50 2368.6
107.59 191.28 2305.6
113.75 191.58 2309.3
124.27 198.83 2396.6
-165.12 196.87 2449.6
-156.47 194.03 2414.2
-152.59 197.10 2452.4
-139.41 196.44 2444.2
-122.49 189.85 2362.2
-106.08 182.70 2273.2
-98.86 191.54 2383.3
-82.04 181.66 2260.2
-75.31 179.59 2234.5
-68.10 175.92 2188.9
-62.77 176.90 2201.0
-57.66 178.75 2224.1
-51.92 178.84 2225.2
-46.44 179.97 2239.3
-39.52 175.02 2177.6
-32.90 169.98 2114.9
-27.44 170.14 2117.0
-22.37 173.35 2156.9
-17.11 176.80 2199.8
-11.41 176.89 2200.9
-5.62 174.08 2166.0
0.00 171.92 2139.1
5.57 172.72 2149.1
11.39 176.56 2196.9
17.57 181.53 2258.6
28.48 176.55 2196.7
32.93 170.14 2116.9
38.20 169.17 2104.9
44.34 171.80 2137.6
49.83 171.63 2135.5
56.16 174.11 2166.3
63.31 178.42 2219.9
69.18 178.72 2223.8
75.55 180.15 2241.5
81.82 181.18 2254.3
88.43 182.76 2274.0
97.83 189.54 2358.4
109.15 187.98 2338.9
115.89 189.08 2352.6
-172.03 191.15 2457.6
-164.41 189.71 2439.1
-144.09 187.94 2416.4
-111.64 176.28 2266.4
-104.01 173.36 2228.9
-98.11 173.14 2226.1
-92.77 173.94 2236.3
-87.48 174.96 2249.5
-81.58 174.82 2247.7
-76.07 175.54 2256.9
-69.97 174.93 2249.1
-62.01 169.13 2174.6
-54.81 164.42 2113.9
-49.07 163.57 2103.1
-43.60 163.50 2102.2
-38.66 165.68 2130.2
-33.53 167.63 2155.2
-27.53 165.15 2123.4
-22.04 165.31 2125.5
-16.55 165.47 2127.5
-10.85 162.76 2092.7
-5.55 166.49 2140.5
0.00 170.98 2198.4
5.67 169.97 2185.4
11.46 171.83 2209.3
28.43 170.58 2193.2
32.69 163.44 2101.4
38.08 163.20 2098.3
44.35 166.30 2138.1
50.23 167.45 2152.9
57.00 171.00 2198.6
63.98 174.48 2243.3
69.66 174.16 2239.2
75.80 174.92 2248.9
81.66 174.98 2249.7
87.67 175.35 2254.5
96.32 180.60 2322.0
102.99 181.74 2336.7
106.48 177.46 2281.6
113.55 179.30 2305.3
123.03 184.54 2372.7
129.38 184.82 2376.3
-165.52 184.62 2455.5
-130.89 172.54 2294.8
-123.66 170.76 2271.2
-111.81 170.66 2269.8
-103.24 166.34 2212.4
-96.38 164.41 2186.7
-90.22 163.53 2175.0
-84.24 162.87 2166.3
-79.90 165.51 2201.3
-75.71 168.90 2246.4
-69.80 168.68 2243.6
-62.11 163.75 2178.0
-56.39 163.54 2175.1
-51.85 167.07 2222.1
-45.43 164.68 2190.3
-39.66 164.32 2185.5
-33.98 164.25 2184.6
-27.48 159.38 2119.8
-21.85 158.41 2106.9
-16.30 157.59 2096.0
-10.86 157.44 2094.1
-5.63 163.37 2172.9
0.00 166.74 2217.7
5.68 164.64 2189.8
11.30 163.82 2178.8
17.09 165.24 2197.7
22.70 164.56 2188.7
27.31 158.41 2106.9
44.66 161.91 2153.5
51.31 165.35 2199.2
56.62 164.21 2184.1
61.71 162.70 2164.0
68.44 165.39 2199.7
75.78 169.04 2248.4
81.82 169.48 2254.2
87.89 169.91 2259.9
95.14 172.44 2293.6
100.33 171.15 2276.4
106.36 171.35 2279.1
116.28 177.47 2360.5
123.26 178.72 2377.1
126.96 175.33 2332.0
134.69 177.55 2361.5
-183.28 176.96 2437.7
-171.47 177.82 2449.6
-142.40 166.13 2288.6
-134.83 164.14 2261.0
-125.75 160.04 2204.6
-120.37 160.50 2210.9
-116.88 163.63 2254.0
-112.67 166.03 2287.2
-106.15 165.12 2274.5
-98.50 162.24 2235.0
-91.60 160.31 2208.3
-84.80 158.30 2180.6
-79.81 159.61 2198.8
-75.26 162.09 2232.9
-69.10 161.23 2221.1
-62.95 160.23 2207.3
-58.39 163.50 2252.3
-53.12 165.25 2276.4
-46.10 161.35 2222.7
-38.98 155.93 2148.0
-32.31 150.80 2077.3
-27.11 151.81 2091.3
-22.34 156.38 2154.2
-16.68 155.66 2144.3
-11.09 155.30 2139.3
-5.65 158.20 2179.3
0.00 158.49 2183.3
5.64 157.98 2176.3
11.32 158.49 2183.2
16.72 156.09 2150.3
21.71 151.96 2093.4
27.32 152.97 2107.3
33.48 156.22 2152.1
38.86 155.42 2141.0
44.94 157.30 2166.8
51.51 160.25 2207.6
56.61 158.51 2183.5
61.58 156.76 2159.4
68.05 158.77 2187.2
75.26 162.09 2232.9
81.22 162.44 2237.6
86.24 160.97 2217.5
92.14 161.25 2221.3
99.38 163.69 2254.9
107.82 167.72 2310.4
116.74 172.04 2369.9
122.66 171.73 2365.6
126.01 168.01 2314.5
133.02 169.29 2332.1
141.42 172.16 2371.6
-152.77 158.64 2266.3
-145.95 157.62 2251.8
-140.07 157.58 2251.1
-131.88 154.82 2211.7
-124.52 152.82 2183.1
-120.56 155.00 2214.3
-115.66 156.14 2230.6
-110.09 156.44 2234.8
-105.37 158.06 2258.0
-99.31 157.73 2253.3
-92.41 155.93 2227.6
-85.55 154.00 2200.0
-79.03 152.41 2177.2
-73.15 151.93 2170.5
-68.43 153.97 2199.6
-63.61 156.14 2230.6
-56.83 153.43 2191.9
-49.89 149.67 2138.2
-44.85 151.36 2162.2
-39.37 151.85 2169.3
-32.61 146.76 2096.6
-27.31 147.47 2106.7
-22.44 151.45 2163.6
-16.72 150.48 2149.7
-10.96 147.90 2112.8
-5.50 148.39 2119.8
0.00 151.04 2157.7
5.66 152.93 2184.6
11.47 154.81 2211.6
17.08 153.76 2196.6
22.41 151.24 2160.6
28.51 153.96 2199.4
34.26 154.16 2202.3
39.01 150.46 2149.4
44.49 150.17 2145.3
50.22 150.65 2152.1
56.67 153.01 2185.9
63.19 155.10 2215.7
69.80 157.04 2243.4
77.18 160.31 2290.1
82.03 158.20 2260.0
85.90 154.63 2208.9
91.70 154.75 2210.7
98.83 156.96 2242.3
106.07 159.11 2273.0
113.52 161.32 2304.6
120.77 163.04 2329.2
125.82 161.77 2310.9
131.05 160.84 2297.7
137.17 161.02 2300.3
145.15 163.30 2332.8
-149.44 149.44 2216.9
-144.81 150.61 2234.3
-140.78 152.51 2262.5
-133.03 150.38 2231.0
-126.13 149.06 2211.4
-121.34 150.23 2228.6
-115.63 150.32 2230.0
-109.52 149.86 2223.3
-104.37 150.76 2236.5
-97.70 149.43 2216.8
-90.27 146.69 2176.2
-83.59 144.89 2149.5
-77.12 143.23 2124.8
-72.33 144.65 2145.9
-68.57 148.56 2203.9
-63.14 149.25 2214.1
-55.98 145.56 2159.4
-48.74 140.79 2088.7
-43.41 141.07 2092.8
-39.20 145.58 2159.7
-33.47 145.05 2151.9
-27.22 141.56 2100.1
-21.68 140.89 2090.1
-16.48 142.84 2119.1
-11.02 143.32 2126.1
-5.49 142.78 2118.2
0.00 144.13 2138.1
5.58 145.07 2152.1
11.22 145.81 2163.1
17.10 148.16 2197.9
22.96 149.23 2213.9
28.87 150.10 2226.8
34.28 148.55 2203.7
38.91 144.51 2143.8
44.19 143.63 2130.7
50.48 145.84 2163.5
57.56 149.66 2220.2
62.91 148.71 2206.1
68.10 147.55 2189.0
75.05 150.10 2226.7
79.51 147.66 2190.6
84.60 146.64 2175.4
91.93 149.38 2216.1
97.88 149.70 2220.8
103.72 149.82 2222.5
111.53 152.62 2264.1
119.04 154.75 2295.7
122.59 151.77 2251.6
126.42 149.40 2216.4
134.81 152.40 2260.9
145.12 157.21 2332.2
-189.04 157.54 2430.6
-148.46 142.75 2202.4
-142.38 142.38 2196.8
-140.43 146.28 2256.9
-134.72 146.43 2259.3
-126.72 144.00 2221.7
-121.09 144.15 2224.0
-114.82 143.52 2214.4
-108.41 142.64 2200.7
-103.18 143.30 2211.0
-96.49 141.90 2189.3
-89.34 139.59 2153.6
-82.79 137.99 2128.9
-77.68 138.71 2140.1
-74.09 142.47 2198.1
-68.36 142.42 2197.3
-61.30 139.33 2149.6
-56.33 140.82 2172.7
-50.79 141.09 2176.8
-44.70 139.68 2155.0
-39.85 142.34 2196.0
-33.73 140.53 2168.2
-27.16 135.81 2095.4
-10.91 136.34 2103.6
-5.55 138.67 2139.5
0.00 138.93 2143.5
5.55 138.74 2140.5
11.03 137.89 2127.5
16.62 138.54 2137.5
22.33 139.57 2153.4
28.11 140.54 2168.3
33.79 140.79 2172.2
38.88 138.84 2142.2
44.51 139.09 2146.0
51.12 142.00 2190.8
57.86 144.64 2231.6
62.73 142.56 2199.5
66.65 138.86 2142.5
72.04 138.53 2137.3
78.22 139.68 2155.1
85.31 142.19 2193.7
93.60 146.24 2256.3
100.53 147.84 2281.0
105.32 146.27 2256.8
111.79 147.10 2269.5
118.39 147.98 2283.1
121.20 144.28 2226.0
125.41 142.52 2198.8
134.07 145.72 2248.3
141.86 147.77 2279.8
146.77 146.77 2264.5
154.43 148.49 2291.0
-194.30 150.42 2417.5
-148.88 137.43 2208.7
-140.41 134.79 2166.3
-136.55 136.55 2194.5
-131.59 137.31 2206.8
-124.35 135.66 2180.2
-118.23 135.12 2171.6
-111.48 133.78 2150.0
-104.59 132.12 2123.3
-99.10 132.13 2123.6
-94.05 132.77 2133.8
-88.19 132.29 2126.1
-82.88 132.61 2131.3
-78.85 135.17 2172.4
-74.16 136.92 2200.5
-67.53 135.07 2170.8
-61.00 133.09 2139.0
-56.36 135.28 2174.1
-51.71 137.89 2216.1
-46.32 138.95 2233.2
-34.57 138.28 2222.4
-27.48 131.89 2119.7
-11.04 132.52 2129.9
-5.61 134.64 2163.8
0.00 134.70 2164.8
5.57 133.64 2147.8
11.00 131.97 2120.9
16.64 133.14 2139.8
22.46 134.75 2165.7
27.94 134.13 2155.7
33.22 132.88 2135.6
38.85 133.19 2140.5
45.16 135.48 2177.3
50.75 135.35 2175.2
56.24 134.96 2169.1
62.51 136.38 2191.9
68.06 136.12 2187.7
71.95 132.82 2134.7
83.39 133.42 2144.2
91.58 137.38 2207.8
99.49 140.46 2257.4
105.47 140.63 2260.2
112.11 141.61 2275.8
118.97 142.77 2294.5
121.81 139.21 2237.4
126.06 137.52 2210.1
135.57 141.47 2273.6
144.36 144.36 2320.0
150.28 144.27 2318.7
-164.21 134.88 2262.0
-156.00 132.89 2228.6
-148.97 131.79 2210.1
-144.37 132.82 2227.4
-136.94 131.24 2200.8
-128.82 128.82 2160.3
-123.29 128.90 2161.7
-118.47 129.75 2175.9
-111.70 128.46 2154.3
-104.76 126.81 2126.6
-98.42 125.76 2109.0
-92.65 125.36 2102.2
-87.75 126.14 2115.4
-83.28 127.70 2141.6
-78.14 128.37 2152.8
-72.56 128.38 2153.0
-67.20 128.81 2160.1
-61.61 128.82 2160.3
-55.88 128.53 2155.4
-50.27 128.48 2154.6
-44.81 128.84 2160.7
-39.52 129.86 2177.8
-33.60 128.79 2159.9
-26.99 124.16 2082.1
-16.53 126.72 2125.2
-11.25 129.34 2169.1
-5.65 129.94 2179.1
0.00 129.46 2171.1
5.56 127.92 2145.2
11.13 127.97 2146.2
17.05 130.71 2192.0
22.86 131.42 2204.0
28.26 129.99 2179.9
33.88 129.87 2177.9
39.98 131.35 2202.7
45.77 131.58 2206.6
50.67 129.49 2171.6
56.43 129.78 2176.4
63.09 131.91 2212.2
67.79 129.94 2179.1
82.51 126.51 2121.6
88.45 127.15 2132.4
93.84 126.96 2129.2
100.88 128.91 2161.8
108.64 131.51 2205.4
117.44 135.06 2264.9
122.65 134.33 2252.7
124.89 130.56 2189.6
132.21 132.21 2217.1
141.59 135.69 2275.6
148.43 136.56 2290.1
159.85 141.41 2371.4
-214.17 138.58 2429.6
-207.58 138.38 2426.2
-174.50 127.97 2243.6
-164.15 124.53 2183.3
-157.65 123.87 2171.8
-153.45 125.03 2192.1
-150.07 126.98 2226.3
-144.45 127.12 2228.7
-136.22 124.87 2189.2
-128.54 122.95 2155.7
-123.26 123.26 2161.0
-118.92 124.58 2184.2
-112.70 123.97 2173.6
-105.41 122.06 2139.9
-98.81 120.76 2117.3
-93.94 121.57 2131.5
-89.75 123.41 2163.6
-84.46 123.87 2171.8
-78.55 123.43 2164.1
-72.47 122.65 2150.3
-66.69 122.26 2143.5
-62.07 124.15 2176.6
-57.11 125.63 2202.7
-50.51 123.48 2164.9
-44.28 121.78 2135.1
-38.88 122.18 2142.2
-32.94 120.76 2117.3
-27.10 119.23 2090.4
-22.02 121.11 2123.4
-16.99 124.59 2184.4
-11.56 127.16 2229.3
-5.66 124.48 2182.4
0.00 120.72 2116.6
5.58 122.83 2153.5
11.49 126.42 2216.4
23.11 127.09 2228.3
28.29 124.47 2182.3
33.57 123.10 2158.2
39.80 125.09 2193.1
45.79 125.93 2207.9
51.00 124.67 2185.9
57.11 125.63 2202.7
70.16 128.63 2255.2
72.91 123.39 2163.3
77.39 121.61 2132.1
84.89 124.50 2182.8
91.24 125.46 2199.5
94.47 122.26 2143.4
99.08 121.10 2123.2
106.93 123.82 2170.8
115.80 127.39 2233.4
122.99 128.85 2259.0
127.52 127.52 2235.7
132.40 126.65 2220.5
139.13 127.54 2236.0
147.36 129.68 2273.5
-175.15 122.60 2251.9
-168.37 121.92 2239.4
-158.76 119.07 2187.0
-151.72 118.01 2167.5
-148.75 120.14 2206.7
-143.51 120.54 2214.1
-135.43 118.50 2176.6
-128.03 116.89 2147.0
-122.99 117.40 2156.3
-119.04 119.04 2186.5
-113.75 119.44 2193.8
-107.44 118.75 2181.1
-99.89 116.54 2140.5
-94.09 116.23 2134.8
-89.02 116.84 2146.0
-82.96 116.14 2133.2
-78.38 117.57 2159.4
-73.39 118.55 2177.5
-67.47 118.08 2168.7
-62.68 119.66 2197.9
-51.17 119.41 2193.2
-44.58 117.02 2149.4
-38.88 116.65 2142.5
-33.08 115.78 2126.6
-27.36 114.92 2110.7
-22.18 116.44 2138.7
-17.05 119.38 2192.7
-11.41 119.76 2199.7
-5.49 115.31 2117.9
5.46 114.76 2107.9
11.25 118.08 2168.8
17.02 119.11 2187.7
22.49 118.07 2168.7
27.44 115.24 2116.7
32.66 114.31 2099.6
38.83 116.48 2139.5
45.51 119.47 2194.3
51.62 120.44 2212.1
56.44 118.53 2177.0
62.28 118.90 2183.9
68.93 120.63 2215.6
73.05 118.01 2167.6
77.91 116.86 2146.4
85.87 120.22 2208.1
92.00 120.75 2217.8
95.06 117.42 2156.7
99.75 116.38 2137.5
107.64 118.97 2185.1
116.39 122.21 2244.7
123.50 123.50 2268.3
128.22 122.39 2248.0
133.61 121.99 2240.7
141.26 123.60 2270.3
150.87 126.73 2327.7
159.90 129.15 2372.1
165.95 129.07 2370.7
169.75 127.31 2338.4
176.15 127.56 2342.9
186.84 130.79 2402.2
-180.49 116.45 2245.8
-170.29 113.53 2189.5
-165.17 113.91 2196.9
-157.05 112.18 2163.4
-149.23 110.54 2131.9
-145.34 111.80 2156.2
-137.97 110.38 2128.7
-124.71 108.45 2091.5
-123.18 111.98 2159.6
-117.27 111.68 2153.9
-110.30 110.30 2127.3
-105.64 111.20 2144.5
-99.76 110.85 2137.8
-93.09 109.52 2112.1
-87.04 108.80 2098.4
-81.38 108.51 2092.6
-77.16 110.22 2125.7
-72.32 111.27 2145.9
-66.49 110.81 2137.1
-61.69 112.17 2163.2
-56.76 113.52 2189.3
-51.04 113.42 2187.5
-45.10 112.76 2174.6
-38.81 110.90 2138.8
-32.54 108.47 2091.9
-27.08 108.32 2089.0
-22.10 110.50 2131.0
-16.78 111.90 2158.0
-11.09 110.86 2138.1
-5.43 108.64 2095.2
0.00 107.86 2080.2
5.43 108.54 2093.2
10.99 109.88 2119.1
16.47 109.78 2117.1
21.55 107.75 2078.1
27.21 108.84 2099.0
33.55 111.84 2156.8
39.20 111.99 2159.7
45.10 112.76 2174.6
51.39 114.20 2202.4
56.42 112.85 2176.3
61.55 111.91 2158.2
67.39 112.31 2166.0
72.73 111.89 2157.9
79.08 112.97 2178.6
85.57 114.09 2200.4
89.86 112.32 2166.2
93.92 110.50 2131.1
99.67 110.75 2135.8
106.42 112.02 2160.5
113.92 113.92 2197.1
120.80 115.05 2218.7
125.51 114.10 2200.5
131.55 114.39 2206.1
139.98 116.65 2249.6
145.85 116.68 2250.3
151.05 116.20 2240.9
159.76 118.34 2282.4
166.66 119.05 2295.9
173.41 119.59 2306.4
184.46 122.97 2371.7
194.09 125.22 2415.0
200.64 125.40 2418.5
-181.56 111.28 2259.0
-171.78 108.80 2208.7
-167.14 109.51 2223.0
-158.30 107.42 2180.6
-149.53 105.23 2136.2
-144.56 105.64 2144.5
-136.18 103.50 2101.0
-118.53 102.37 2078.1
-98.66 104.14 2114.1
-94.77 105.92 2150.3
-87.84 104.31 2117.6
-81.20 102.85 2087.9
-75.57 102.56 2082.1
-64.51 102.14 2073.5
-60.33 104.21 2115.6
-55.34 105.15 2134.7
-49.63 104.77 2126.8
-44.76 106.30 2157.9
-39.31 106.70 2166.0
-33.46 105.96 2151.1
-28.25 107.34 2179.2
-22.64 107.54 2183.2
-16.90 107.06 2173.3
-11.42 108.53 2203.3
-5.72 108.73 2207.3
0.00 106.07 2153.4
5.52 104.89 2129.4
11.08 105.29 2137.4
16.47 104.30 2117.4
21.87 103.90 2109.3
28.02 106.46 2161.2
33.70 106.70 2166.1
38.46 104.38 2119.1
44.24 105.07 2133.0
50.35 106.29 2157.8
56.02 106.43 2160.7
61.87 106.87 2169.5
67.24 106.47 2161.3
72.13 105.42 2140.2
77.78 105.56 2143.0
83.45 105.70 2145.8
89.70 106.52 2162.5
96.00 107.30 2178.2
101.36 106.99 2172.0
107.76 107.76 2187.7
116.01 110.21 2237.3
123.58 111.81 2269.9
126.15 108.95 2211.7
129.66 107.11 2174.5
139.69 110.58 2244.9
147.81 112.33 2280.5
152.28 111.28 2259.1
160.48 112.93 2292.6
169.43 114.97 2334.0
178.60 117.01 2375.4
186.58 118.17 2398.9
192.84 118.19 2399.4
202.65 120.32 2442.7
-189.54 106.62 2284.7
-180.14 104.60 2241.3
-172.27 103.36 2214.9
-168.81 104.78 2245.2
-160.78 103.36 2214.8
-151.71 101.14 2167.3
-146.52 101.44 2173.7
-141.04 101.55 2176.1
-132.88 99.66 2135.6
-125.64 98.33 2107.0
-120.42 98.53 2111.3
-115.24 98.77 2116.6
-110.38 99.35 2128.8
-105.03 99.50 2132.1
-101.05 101.05 2165.3
-95.44 101.06 2165.5
-87.11 98.00 2099.9
-81.71 98.05 2101.1
-77.14 99.18 2125.3
-70.43 97.51 2089.5
-64.67 97.01 2078.7
-60.40 98.83 2117.8
-55.35 99.63 2135.0
-49.05 98.10 2102.1
-43.75 98.43 2109.3
-39.31 101.09 2166.3
-34.24 102.73 2201.3
-28.28 101.80 2181.4
-22.17 99.75 2137.6
-16.74 100.45 2152.6
-11.44 102.97 2206.6
0.00 102.23 2190.6
5.53 99.52 2132.7
10.92 98.31 2106.7
16.36 98.17 2103.6
21.92 98.63 2113.6
27.82 100.17 2146.5
33.19 99.56 2133.4
38.35 98.62 2113.4
44.76 100.72 2158.2
50.54 101.08 2166.1
55.74 100.33 2149.9
60.94 99.72 2136.8
65.54 98.31 2106.7
71.97 99.66 2135.5
79.46 102.16 2189.2
84.23 101.08 2166.0
89.47 100.65 2156.8
98.30 104.09 2230.4
106.63 106.63 2285.0
110.14 104.34 2235.9
115.14 103.63 2220.6
122.89 105.34 2257.2
125.60 102.76 2202.0
130.22 101.91 2183.7
141.44 106.08 2273.1
151.51 109.09 2337.6
158.28 109.58 2348.1
164.27 109.51 2346.7
170.61 109.68 2350.3
182.51 113.28 2427.5
193.82 112.54 2411.6
196.56 110.57 2369.3
-212.43 103.18 2341.1
-180.56 99.02 2246.6
-172.68 97.85 2220.1
-169.13 99.14 2249.5
-159.71 96.97 2200.1
-149.43 94.09 2134.7
-146.07 95.51 2167.0
-142.09 96.62 2192.3
-135.50 95.98 2177.7
-129.87 95.99 2178.0
-123.28 95.26 2161.4
-116.82 94.57 2145.7
-112.57 95.68 2171.0
-107.69 96.36 2186.2
-101.38 95.75 2172.5
-93.78 93.78 2127.9
-86.21 91.59 2078.2
-81.53 92.40 2096.4
-78.78 95.66 2170.5
-73.60 96.24 2183.6
-64.83 91.85 2084.0
-54.71 93.01 2110.2
-49.82 94.11 2135.3
-43.71 92.89 2107.5
-38.65 93.86 2129.6
-33.53 95.01 2155.6
-27.58 93.78 2127.8
-21.90 93.08 2111.8
-16.76 94.97 2154.8
-11.37 96.65 2192.8
-5.70 96.87 2197.9
0.00 97.13 2203.9
5.68 96.60 2191.9
10.95 93.04 2110.9
26.83 91.23 2069.8
33.11 93.82 2128.7
39.64 96.28 2184.5
45.76 97.24 2206.4
51.13 96.58 2191.3
56.37 95.82 2174.2
61.57 95.16 2159.0
66.64 94.40 2141.9
73.73 96.42 2187.6
81.90 99.45 2256.3
87.23 98.86 2243.1
91.51 97.23 2206.0
99.24 99.24 2251.6
112.12 100.31 2276.0
115.05 97.79 2218.9
120.52 97.56 2213.6
126.18 97.50 2212.3
134.10 99.11 2248.8
141.27 100.07 2270.4
146.55 99.65 2261.1
154.87 101.26 2297.6
162.68 102.43 2324.1
170.13 103.29 2343.6
182.98 107.27 2433.8
192.72 105.69 2397.9
191.71 101.85 2310.8
201.32 103.71 2353.1
-219.78 97.68 2354.7
-199.30 96.63 2329.5
-180.50 93.16 2245.8
-174.09 92.85 2238.3
-170.04 93.82 2261.7
-160.23 91.56 2207.3
-149.66 88.68 2137.9
-145.75 89.69 2162.2
-139.98 89.58 2159.6
-131.79 87.86 2118.1
-127.75 88.87 2142.4
-122.84 89.34 2153.7
-116.46 88.73 2139.0
-112.32 89.86 2166.2
-106.72 89.87 2166.5
-99.77 88.68 2137.8
-95.55 89.93 2168.0
-90.94 90.94 2192.2
-82.66 88.17 2125.6
-76.80 87.77 2115.8
-71.82 88.40 2131.0
-53.65 85.85 2069.5
-49.97 88.84 2141.6
-44.75 89.50 2157.7
-38.74 88.56 2134.8
-32.88 87.69 2113.9
-27.57 88.23 2127.0
-22.32 89.27 2152.0
-16.79 89.56 2159.1
-11.21 89.65 2161.1
-5.66 90.56 2183.1
0.00 91.47 2205.1
5.73 91.68 2210.1
11.14 89.11 2148.1
16.26 86.74 2091.1
21.70 86.78 2092.1
26.92 86.16 2077.0
32.65 87.07 2098.9
38.78 88.64 2136.8
44.38 88.76 2139.7
49.92 88.75 2139.6
55.39 88.62 2136.4
61.32 89.20 2150.3
67.36 89.81 2165.1
72.80 89.60 2159.9
78.97 90.25 2175.7
85.88 91.61 2208.4
91.97 91.97 2217.2
97.01 91.30 2201.0
102.61 91.21 2198.7
110.01 92.64 2233.4
116.72 93.38 2251.0
121.45 92.54 2230.8
126.19 91.78 2212.5
133.04 92.55 2231.1
139.24 92.83 2237.8
145.66 93.22 2247.4
155.02 95.40 2299.8
162.28 96.17 2318.3
169.13 96.65 2329.9
179.63 99.11 2389.2
187.26 99.87 2407.7
191.78 98.99 2386.3
196.19 98.10 2364.8
205.01 99.40 2396.2
-203.03 89.57 2303.3
-192.93 87.70 2255.1
-188.45 88.34 2271.5
-181.72 87.93 2261.0
-170.31 85.16 2189.7
-161.75 83.66 2151.3
-155.98 83.56 2148.7
-148.97 82.76 2128.2
-145.16 83.75 2153.5
-139.34 83.61 2149.9
-132.92 83.08 2136.3
-130.50 85.11 2188.5
-124.67 85.00 2185.8
-117.55 83.97 2159.2
-112.28 84.21 2165.5
-105.70 83.45 2145.8
-99.73 83.11 2137.1
-96.40 85.06 2187.2
-83.83 83.83 2155.7
-76.98 82.48 2121.0
-71.22 82.18 2113.2
-64.57 80.71 2075.4
-59.68 81.38 2092.6
-54.80 82.20 2113.7
-49.60 82.67 2125.8
-44.69 83.80 2154.9
-38.93 83.42 2145.0
-33.28 83.19 2139.1
-28.11 84.32 2168.2
-22.45 84.20 2165.2
-16.69 83.43 2145.3
-10.94 82.07 2110.4
-5.43 81.49 2095.4
0.00 82.42 2119.4
5.51 82.69 2126.4
11.03 82.73 2127.4
16.61 83.04 2135.3
22.14 83.04 2135.3
27.48 82.45 2120.2
32.93 82.33 2117.1
38.62 82.76 2128.0
43.97 82.44 2119.9
49.16 81.93 2106.8
54.80 82.20 2113.7
60.96 83.13 2137.5
67.71 84.63 2176.3
74.08 85.48 2198.1
78.87 84.50 2172.9
84.22 84.22 2165.7
89.12 83.55 2148.5
100.01 83.34 2143.0
109.48 86.44 2222.6
116.27 87.20 2242.3
121.09 86.49 2224.0
126.09 85.97 2210.7
133.17 86.85 2233.3
140.99 88.12 2265.9
149.04 89.42 2299.4
155.24 89.56 2303.0
158.88 88.27 2269.7
168.35 90.19 2319.1
181.82 94.05 2418.4
189.06 94.53 2430.8
193.17 93.47 2403.4
198.45 93.02 2392.0
207.92 94.51 2430.3
-224.34 84.89 2338.7
-202.70 83.47 2299.6
-189.29 80.30 2212.5
-181.44 79.38 2187.1
-180.29 81.42 2243.3
-173.97 81.19 2236.8
-164.08 79.21 2182.4
-157.08 78.54 2163.9
-148.78 77.14 2125.4
-143.97 77.52 2135.8
-140.33 78.58 2165.0
-135.85 79.25 2183.3
-130.27 79.30 2184.7
-121.50 77.32 2130.1
-115.23 76.82 2116.5
-110.74 77.52 2135.7
-105.07 77.42 2133.0
-99.93 77.72 2141.3
-94.43 77.77 2142.5
-88.10 77.09 2123.8
-83.14 77.60 2138.0
-79.24 79.24 2183.1
-73.59 79.25 2183.3
-67.06 78.24 2155.5
-60.25 76.69 2112.8
-53.74 75.24 2072.9
-48.53 75.50 2080.1
-43.68 76.45 2106.2
-38.97 77.94 2147.2
-34.12 79.61 2193.3
-28.25 79.10 2179.4
-22.15 77.51 2135.5
-16.57 77.33 2130.5
-10.96 76.72 2113.6
-5.44 76.14 2097.6
0.00 76.97 2120.6
5.48 76.75 2114.6
10.90 76.28 2101.6
16.32 76.17 2098.6
21.67 75.84 2089.5
27.36 76.60 2110.4
33.37 77.87 2145.3
39.04 78.08 2151.2
44.31 77.53 2136.1
49.82 77.49 2135.0
55.79 78.10 2151.9
61.34 78.06 2150.7
67.43 78.67 2167.5
73.75 79.43 2188.3
78.48 78.48 2162.2
85.12 79.45 2188.9
91.54 80.09 2206.7
95.66 78.78 2170.5
103.51 80.51 2218.1
111.36 82.06 2260.8
116.12 81.29 2239.5
120.83 80.55 2219.3
125.65 79.96 2203.0
132.53 80.67 2222.6
140.20 81.78 2253.2
145.89 81.70 2250.8
149.34 80.42 2215.5
155.34 80.55 2219.1
167.07 83.53 2301.4
179.44 86.63 2386.7
185.98 86.79 2391.2
190.62 86.09 2371.8
196.48 85.96 2368.3
205.30 87.10 2399.7
-212.52 78.94 2342.1
-199.74 76.37 2265.9
-183.94 72.46 2149.9
-178.07 72.34 2146.4
-178.31 74.77 2218.6
-175.46 76.03 2255.9
-168.67 75.61 2243.4
-160.42 74.48 2209.9
-151.09 72.75 2158.5
-144.18 72.09 2138.9
-138.79 72.17 2141.3
-132.02 71.51 2121.7
-124.33 70.28 2085.1
-119.06 70.35 2087.4
-115.89 71.74 2128.6
-111.37 72.39 2147.9
-105.67 72.30 2145.2
-98.86 71.40 2118.5
-91.93 70.30 2085.8
-87.15 70.81 2101.0
-83.62 72.47 2150.2
-79.07 73.42 2178.3
-72.99 72.99 2165.5
-67.13 72.72 2157.7
-60.88 71.95 2134.9
-55.04 71.56 2123.1
-50.29 72.64 2155.2
-44.79 72.78 2159.3
-39.55 73.45 2179.4
-34.21 74.13 2199.5
-28.02 72.85 2161.6
-22.06 71.71 2127.7
-16.59 71.88 2132.7
-11.10 72.12 2139.8
-5.57 72.35 2146.8
0.00 72.86 2161.8
5.58 72.52 2151.8
11.06 71.92 2133.8
16.53 71.64 2125.7
21.85 71.00 2106.7
27.44 71.34 2116.6
32.96 71.40 2118.5
37.94 70.46 2090.5
43.81 71.19 2112.3
50.08 72.33 2146.2
55.82 72.57 2153.1
61.11 72.22 2142.9
66.10 71.61 2124.8
71.20 71.20 2112.6
77.11 71.60 2124.4
85.21 73.85 2191.1
93.08 75.62 2243.8
98.88 75.62 2243.5
104.78 75.67 2245.3
110.10 75.33 2235.0
115.25 74.92 2222.8
120.40 74.53 2211.5
124.75 73.72 2187.2
131.18 74.14 2199.8
140.21 75.95 2253.4
147.39 76.64 2273.9
150.43 75.22 2231.7
156.12 75.17 2230.3
164.84 76.53 2270.7
173.47 77.76 2307.2
182.67 79.16 2348.6
190.32 79.81 2368.0
198.98 80.84 2398.4
-204.05 72.02 2314.9
-187.79 68.29 2194.9
-181.48 68.05 2187.4
-177.28 68.63 2205.8
-170.28 68.11 2189.3
-164.56 68.09 2188.8
-157.33 67.43 2167.3
-149.92 66.63 2141.7
-144.93 66.89 2150.1
-137.64 66.07 2123.5
-125.77 65.62 2109.2
-124.53 67.93 2183.4
-118.46 67.69 2175.7
-111.17 66.70 2144.1
-105.63 66.71 2144.4
-99.06 66.04 2122.7
-92.25 65.11 2093.0
-87.53 65.65 2110.2
-82.85 66.28 2130.4
-77.37 66.32 2131.6
-72.96 67.35 2164.7
-68.47 68.47 2200.9
-62.66 68.35 2197.0
-57.17 68.61 2205.2
-34.53 69.06 2219.7
-28.37 68.09 2188.8
-22.39 67.16 2158.8
-16.75 67.01 2153.9
-11.14 66.86 2148.9
-5.54 66.51 2138.0
0.00 66.48 2137.0
5.54 66.48 2137.0
11.03 66.20 2127.9
16.78 67.10 2156.9
22.57 67.72 2176.8
27.89 66.94 2151.8
32.93 65.85 2116.7
37.98 65.10 2092.6
43.90 65.85 2116.5
50.04 66.71 2144.4
55.59 66.71 2144.2
61.26 66.83 2148.1
66.64 66.64 2141.9
72.39 66.82 2147.7
79.14 67.84 2180.5
85.37 68.30 2195.3
91.10 68.32 2196.1
97.88 69.09 2220.8
104.93 69.95 2248.5
110.84 70.01 2250.2
116.66 70.00 2249.9
121.12 69.21 2224.6
124.82 68.08 2188.4
132.38 69.07 2220.0
142.52 71.26 2290.5
148.17 71.12 2286.1
149.50 69.00 2217.9
156.76 69.67 2239.4
167.46 71.77 2306.8
174.68 72.28 2323.3
181.91 72.76 2338.8
192.26 74.42 2392.1
-204.78 64.36 2256.8
-196.35 63.52 2227.5
-185.67 61.89 2170.2
-178.84 61.48 2155.7
-174.25 61.83 2168.1
-167.81 61.53 2157.6
-162.78 61.74 2165.0
-156.90 61.64 2161.4
-150.98 61.51 2156.8
-147.50 62.40 2188.1
-141.72 62.36 2186.5
-133.40 61.14 2144.0
-130.07 62.21 2181.2
-126.48 63.24 2217.5
-118.19 61.91 2170.9
-111.24 61.18 2145.2
-105.83 61.27 2148.5
-99.72 60.94 2136.8
-93.31 60.38 2117.1
-88.74 61.01 2139.3
-84.17 61.73 2164.5
-77.63 60.99 2138.7
-72.39 61.26 2147.9
-68.97 63.23 2217.0
-57.46 63.21 2216.4
-51.44 62.87 2204.5
-45.73 62.87 2204.6
-40.07 62.96 2207.7
-28.56 62.82 2202.9
-22.70 62.43 2189.0
-17.11 62.74 2200.0
-11.20 61.57 2159.1
-5.48 60.23 2112.1
0.00 60.52 2122.1
5.53 60.81 2132.1
10.99 60.46 2120.1
16.71 61.29 2149.1
22.55 62.00 2174.0
27.87 61.31 2149.9
33.57 61.54 2157.9
39.54 62.13 2178.8
44.61 61.33 2150.7
49.62 60.65 2126.6
55.85 61.44 2154.4
62.35 62.35 2186.2
67.39 61.77 2166.1
72.70 61.51 2156.9
79.55 62.50 2191.7
85.92 63.01 2209.4
91.64 63.00 2209.2
98.46 63.71 2233.9
104.24 63.70 2233.7
108.79 62.98 2208.4
114.39 62.92 2206.1
118.74 62.20 2180.9
124.94 62.47 2190.6
135.18 64.65 2267.1
141.72 64.96 2277.7
143.34 63.07 2211.5
146.96 62.18 2180.2
156.35 63.70 2233.6
167.11 65.65 2302.0
174.54 66.21 2321.5
180.22 66.08 2317.1
188.83 67.00 2349.5
200.58 68.95 2417.7
-202.63 57.89 2233.1
-190.65 56.07 2162.9
-183.55 55.62 2145.4
-180.01 56.25 2169.8
-175.47 56.60 2183.2
-169.07 56.36 2173.7
-164.21 56.62 2184.1
-158.72 56.69 2186.5
-152.53 56.49 2178.9
-148.79 57.23 2207.3
-144.06 57.62 2222.6
-136.83 57.01 2199.0
-127.58 55.47 2139.5
-118.75 53.98 2081.9
-114.18 54.37 2097.2
-110.36 55.18 2128.4
-106.04 55.81 2152.7
-100.80 56.00 2159.9
-93.45 54.97 2120.2
-88.00 55.00 2121.5
-83.01 55.34 2134.7
-76.11 54.36 2096.9
-70.11 53.93 2080.1
-66.12 55.10 2125.3
-61.84 56.22 2168.4
-55.88 55.88 2155.6
-49.93 55.47 2139.7
-44.26 55.32 2133.8
-38.56 55.09 2124.9
-33.12 55.20 2129.0
-27.81 55.61 2145.1
-22.46 56.16 2166.2
-16.85 56.16 2166.2
-10.97 54.84 2115.3
-5.46 54.58 2105.3
0.00 55.83 2153.3
5.55 55.54 2142.3
10.96 54.79 2113.3
16.72 55.72 2149.2
22.60 56.50 2179.2
27.82 55.64 2146.1
33.32 55.53 2142.0
39.25 56.08 2162.9
44.38 55.48 2139.8
49.95 55.50 2140.7
56.79 56.79 2190.5
63.32 57.56 2220.4
68.39 56.99 2198.2
73.17 56.29 2171.0
79.45 56.75 2188.8
85.93 57.29 2209.6
91.85 57.41 2214.4
98.69 58.05 2239.1
104.43 58.02 2237.8
108.65 57.18 2205.6
113.93 56.97 2197.3
118.80 56.57 2182.0
125.69 57.13 2203.7
136.56 59.37 2290.2
143.53 59.81 2306.8
146.32 58.53 2257.5
151.34 58.21 2245.2
156.50 57.96 2235.8
162.34 57.98 2236.4
173.21 59.73 2303.7
182.71 60.90 2349.1
186.92 60.30 2325.7
193.73 60.54 2335.2
204.01 61.82 2384.5
-204.99 52.71 2259.1
-192.16 50.87 2180.0
-184.42 50.30 2155.5
-178.37 50.17 2150.0
-171.47 49.78 2133.5
-165.90 49.77 2133.0
-162.05 50.29 2155.3
-158.88 51.07 2188.6
-154.98 51.66 2214.0
-147.32 50.99 2185.4
-139.02 50.05 2144.9
-133.79 50.17 2150.3
-126.51 49.51 2121.7
-113.32 48.56 2081.4
-109.49 49.27 2111.6
-105.11 49.79 2133.8
-102.85 51.43 2204.0
-88.75 49.92 2139.6
-80.38 48.23 2066.9
-64.38 48.29 2069.4
-60.33 49.36 2115.6
-54.59 49.13 2105.7
-48.88 48.88 2094.9
-43.47 48.91 2096.0
-38.02 48.89 2095.1
-32.27 48.40 2074.2
-26.78 48.21 2066.3
-21.64 48.68 2086.3
-16.21 48.64 2084.4
-10.75 48.38 2073.4
-5.46 49.13 2105.4
0.00 49.92 2139.4
5.48 49.36 2115.4
10.81 48.64 2084.4
16.50 49.50 2121.4
22.68 51.04 2187.3
28.38 51.08 2189.2
33.29 49.94 2140.2
38.38 49.35 2115.1
43.74 49.21 2109.0
49.67 49.67 2128.8
56.46 50.81 2177.7
62.90 51.46 2205.5
68.64 51.48 2206.3
74.22 51.38 2202.2
80.14 51.52 2207.9
86.17 51.70 2215.7
91.53 51.49 2206.5
97.59 51.67 2214.2
104.02 52.01 2229.0
109.05 51.65 2213.7
114.82 51.67 2214.4
120.33 51.57 2210.1
124.56 50.96 2183.9
132.40 51.81 2220.5
141.55 53.08 2275.0
146.78 52.84 2264.6
150.74 52.18 2236.3
154.98 51.66 2214.0
161.12 51.79 2219.6
172.09 53.41 2288.9
183.88 55.17 2364.2
190.70 55.36 2372.7
193.00 54.28 2326.4
198.05 54.01 2314.9
-190.65 46.22 2228.4
-178.96 44.74 2157.1
-170.04 43.88 2115.7
-159.51 44.00 2121.6
-156.86 44.82 2160.9
-151.78 44.97 2168.2
-142.89 43.96 2119.7
-136.96 43.83 2113.1
-133.93 44.64 2152.4
-128.72 44.77 2158.7
-121.78 44.28 2135.1
-115.34 43.94 2118.4
-109.91 43.96 2119.7
-105.56 44.45 2142.9
-103.19 45.86 2211.1
-90.04 45.02 2170.7
-81.70 43.58 2101.0
-75.03 42.88 2067.2
-65.47 43.65 2104.5
-61.39 44.65 2152.7
-55.63 44.51 2145.8
-49.42 43.93 2118.0
-43.70 43.70 2107.1
-38.73 44.26 2134.2
-33.29 44.39 2140.3
-27.27 43.63 2103.4
-21.71 43.42 2093.4
-16.38 43.67 2105.5
-10.95 43.79 2111.5
-5.49 43.92 2117.5
0.00 44.13 2127.5
5.52 44.19 2130.5
11.04 44.15 2128.5
16.45 43.88 2115.5
22.13 44.27 2134.4
28.12 44.99 2169.4
33.48 44.64 2152.3
38.64 44.16 2129.2
44.08 44.08 2125.1
49.09 43.64 2104.0
54.80 43.84 2113.8
61.56 44.77 2158.7
67.74 45.16 2177.5
73.52 45.24 2181.3
79.64 45.51 2194.1
84.89 45.27 2182.9
89.30 44.65 2152.7
95.40 44.89 2164.4
102.02 45.34 2186.2
107.08 45.09 2173.9
113.07 45.23 2180.6
120.72 45.99 2217.2
127.47 46.35 2234.9
133.66 46.49 2241.5
141.00 47.00 2266.1
145.30 46.50 2241.8
148.33 45.64 2200.5
153.52 45.49 2193.2
160.70 45.91 2213.7
169.10 46.65 2249.2
177.92 47.45 2287.6
186.78 48.20 2324.0
191.77 47.94 2311.6
201.47 48.84 2354.9
-210.82 40.99 2258.8
-193.47 41.04 2261.4
-184.18 40.29 2220.0
-177.42 40.06 2207.5
-167.00 38.97 2147.2
-160.87 38.83 2139.6
-158.17 39.54 2178.9
-152.69 39.59 2181.3
-146.86 39.54 2178.7
-143.69 40.23 2217.0
-136.29 39.75 2190.4
-127.12 38.69 2131.9
-122.41 38.95 2146.2
-117.95 39.32 2166.4
-112.40 39.34 2167.7
-107.93 39.76 2191.0
-101.70 39.55 2179.3
-93.90 38.67 2130.6
-88.80 38.85 2140.8
-83.73 39.07 2153.0
-77.50 38.75 2135.2
-72.11 38.83 2139.4
-65.76 38.36 2113.6
-59.51 37.87 2086.8
-54.91 38.44 2117.9
-49.70 38.66 2130.1
-43.91 38.42 2117.2
-38.88 38.88 2142.3
-33.17 38.70 2132.4
-26.93 37.70 2077.5
-21.77 38.10 2099.5
-16.68 38.92 2144.6
-11.04 38.63 2128.6
-5.48 38.36 2113.6
0.00 38.72 2133.6
5.57 38.96 2146.6
11.06 38.72 2133.6
16.43 38.34 2112.6
22.07 38.63 2128.5
27.98 39.17 2158.5
33.68 39.30 2165.4
39.33 39.33 2167.3
45.36 39.69 2187.2
51.10 39.75 2190.0
55.45 38.82 2138.9
60.48 38.49 2120.8
66.66 38.88 2142.6
72.54 39.06 2152.4
78.26 39.13 2156.2
83.03 38.75 2135.0
87.10 38.11 2099.8
92.89 38.25 2107.6
100.81 39.21 2160.3
107.63 39.65 2185.0
112.92 39.52 2177.7
119.74 39.91 2199.4
127.36 40.52 2233.0
134.32 40.88 2252.6
141.20 41.18 2269.2
145.12 40.63 2238.9
149.89 40.35 2223.6
156.95 40.69 2242.1
162.73 40.68 2241.7
169.49 40.91 2254.3
177.55 41.43 2282.7
185.75 41.94 2311.2
195.26 42.71 2353.5
-216.06 35.04 2252.4
-207.21 34.53 2220.1
-206.02 35.32 2270.4
-201.14 35.50 2281.9
-189.30 34.42 2212.7
-181.46 34.02 2187.2
-180.15 34.87 2241.5
-174.76 34.95 2246.9
-167.25 34.60 2224.5
-163.46 35.03 2251.8
-135.55 33.89 2178.5
-126.06 32.88 2114.0
-121.22 33.06 2125.3
-118.55 33.87 2177.5
-114.43 34.33 2206.8
-107.49 33.94 2182.1
-99.05 33.02 2122.4
-93.34 32.94 2117.7
-90.05 33.77 2170.9
-84.98 33.99 2185.1
-78.81 33.78 2171.3
-72.99 33.69 2165.5
-66.23 33.11 2128.7
-59.91 32.68 2100.9
-55.27 33.16 2132.0
-49.80 33.20 2134.2
-43.75 32.81 2109.3
-38.52 33.02 2122.4
-32.61 32.61 2096.5
-21.56 32.33 2078.6
-16.72 33.44 2149.7
-11.19 33.56 2157.7
-5.49 32.91 2115.7
0.00 32.80 2108.7
5.54 33.24 2136.7
11.10 33.30 2140.7
16.52 33.04 2123.7
22.22 33.33 2142.6
27.94 33.53 2155.6
33.34 33.34 2143.5
38.79 33.25 2137.4
44.60 33.45 2150.3
50.92 33.94 2182.1
56.00 33.60 2160.0
60.66 33.08 2126.9
66.41 33.21 2134.7
71.54 33.02 2122.5
76.34 32.72 2103.4
83.58 33.43 2149.1
90.51 33.94 2181.9
94.30 33.28 2139.7
99.89 33.30 2140.4
107.05 33.80 2173.1
112.77 33.83 2174.8
119.21 34.06 2189.5
126.29 34.44 2214.1
130.28 33.99 2184.9
133.94 33.48 2152.6
143.44 34.43 2213.1
154.40 35.63 2290.5
160.03 35.56 2286.1
164.26 35.20 2262.8
171.97 35.58 2287.3
181.12 36.22 2328.7
-209.17 29.05 2241.1
-204.22 29.17 2250.6
-200.98 29.56 2280.0
-190.25 28.83 2223.7
-181.05 28.29 2182.3
-178.31 28.76 2218.7
-172.75 28.79 2221.1
-165.15 28.47 2196.6
-160.50 28.66 2211.0
-154.45 28.60 2206.4
-147.68 28.40 2190.8
-140.21 28.04 2163.3
-133.57 27.83 2146.7
-127.67 27.75 2141.0
-122.02 27.73 2139.3
-118.56 28.23 2177.6
-112.67 28.17 2172.9
-104.29 27.45 2117.3
-98.07 27.24 2101.5
-94.31 27.74 2139.7
-90.30 28.22 2176.9
-84.55 28.18 2174.2
-78.23 27.94 2155.4
-72.35 27.83 2146.6
-66.79 27.83 2146.8
-61.40 27.91 2152.9
-55.51 27.76 2141.1
-49.03 27.24 2101.3
-43.23 27.02 2084.4
-38.19 27.28 2104.5
-32.80 27.33 2108.6
-27.11 27.11 2091.6
-21.92 27.40 2113.7
-16.91 28.18 2173.8
-11.15 27.88 2150.8
-5.38 26.92 2076.8
0.00 27.34 2108.8
5.64 28.22 2176.8
11.27 28.18 2173.8
16.74 27.89 2151.8
22.28 27.85 2148.7
27.77 27.77 2142.6
33.36 27.80 2144.6
39.08 27.92 2153.5
44.56 27.85 2148.4
50.52 28.07 2165.2
55.69 27.85 2148.1
60.49 27.49 2121.0
66.73 27.80 2144.8
72.38 27.84 2147.6
77.25 27.59 2128.4
84.47 28.16 2172.2
93.16 29.11 2245.9
98.97 29.11 2245.6
102.97 28.60 2206.4
108.23 28.48 2197.2
112.46 28.12 2168.9
117.36 27.94 2155.6
125.27 28.47 2196.2
130.41 28.35 2186.9
134.13 27.94 2155.7
143.58 28.72 2215.2
154.20 29.65 2287.6
159.48 29.53 2278.2
164.63 29.40 2267.8
173.47 29.91 2307.3
204.74 31.02 2393.1
-206.57 22.95 2213.3
-200.70 22.94 2211.8
-196.59 23.13 2230.2
-190.00 23.03 2220.8
-184.20 23.02 2220.3
-176.16 22.73 2191.8
-165.70 22.09 2130.5
-161.11 22.22 2142.8
-159.13 22.73 2192.1
-153.55 22.75 2193.5
-147.35 22.67 2185.9
-139.18 22.27 2147.4
-132.08 22.01 2122.8
-127.97 22.26 2146.1
-123.79 22.51 2170.4
-118.51 22.57 2176.7
-111.02 22.20 2141.0
-105.13 22.13 2134.3
-101.20 22.49 2168.5
-95.10 22.38 2157.8
-89.06 22.27 2147.0
-83.78 22.34 2154.3
-77.87 22.25 2145.5
-72.89 22.43 2162.7
-68.13 22.71 2189.8
-61.66 22.42 2162.0
-54.89 21.96 2117.2
-49.45 21.98 2119.3
-44.44 22.22 2142.4
-38.76 22.15 2135.5
-32.89 21.93 2114.6
-27.41 21.93 2114.7
-22.34 22.34 2153.8
-17.05 22.73 2191.8
-11.12 22.24 2144.9
-5.36 21.44 2067.9
0.00 21.74 2095.9
5.63 22.50 2169.9
11.27 22.53 2172.9
16.79 22.39 2158.8
22.46 22.46 2165.8
28.35 22.68 2186.7
34.48 22.99 2216.6
39.79 22.74 2192.5
44.68 22.34 2154.4
50.20 22.31 2151.3
54.89 21.96 2117.2
60.49 22.00 2121.0
67.72 22.57 2176.8
73.50 22.61 2180.6
78.53 22.44 2163.5
84.55 22.55 2174.2
91.80 22.95 2213.0
98.80 23.25 2241.7
104.18 23.15 2232.5
108.68 22.88 2206.2
112.00 22.40 2160.0
116.44 22.18 2138.7
123.90 22.53 2172.4
132.08 22.97 2214.9
139.29 23.21 2238.6
146.81 23.49 2265.1
155.01 23.85 2299.7
161.99 24.00 2314.2
169.12 24.16 2329.7
174.15 24.02 2316.3
179.89 23.99 2312.9
-206.20 17.18 2209.3
-196.01 16.80 2160.1
-195.37 17.24 2216.3
-191.88 17.44 2242.7
-182.30 17.09 2197.4
-170.71 16.52 2124.1
-165.09 16.51 2122.5
-164.94 17.06 2193.7
-162.10 17.37 2233.1
-155.57 17.29 2222.5
-148.96 17.19 2209.9
-140.54 16.87 2168.4
-131.34 16.42 2110.9
-125.41 16.36 2103.2
-120.26 16.40 2108.5
-114.16 16.31 2096.8
-109.36 16.40 2109.1
-105.97 16.73 2151.3
-101.15 16.86 2167.6
-94.27 16.64 2138.9
-89.06 16.70 2147.1
-84.48 16.90 2172.3
-77.37 16.58 2131.5
-71.38 16.47 2117.7
-67.73 16.93 2176.9
-62.20 16.96 2181.0
-55.51 16.65 2141.2
-50.10 16.70 2147.4
-44.83 16.81 2161.5
-38.90 16.67 2143.6
-33.27 16.63 2138.7
-27.94 16.77 2155.8
-22.06 16.54 2126.8
-16.32 16.32 2098.9
-11.04 16.56 2128.9
-5.51 16.53 2125.9
0.00 16.48 2118.9
5.59 16.78 2156.9
11.20 16.81 2160.9
16.71 16.71 2148.9
22.18 16.64 2138.8
27.76 16.66 2141.8
33.83 16.91 2174.7
39.05 16.73 2151.6
43.46 16.30 2095.5
48.43 16.14 2075.4
54.50 16.35 2102.2
61.83 16.86 2168.1
68.19 17.05 2191.9
72.96 16.84 2164.7
77.08 16.52 2123.5
82.15 16.43 2112.3
89.69 16.82 2162.1
96.91 17.10 2198.8
103.90 17.32 2226.5
110.25 17.41 2238.2
114.80 17.22 2214.0
120.47 17.21 2212.7
126.24 17.21 2213.3
132.62 17.30 2224.0
139.35 17.42 2239.6
146.36 17.56 2258.2
153.74 17.74 2280.8
159.83 17.76 2283.3
164.06 17.58 2260.0
165.76 17.15 2204.7
174.31 17.43 2241.2
-201.79 11.53 2223.8
-197.48 11.62 2240.3
-189.32 11.47 2212.9
-175.86 10.99 2119.7
-167.49 11.17 2153.5
-163.07 11.25 2168.8
-156.31 11.17 2153.3
-150.97 11.18 2156.7
-145.20 11.17 2154.1
-140.03 11.20 2160.4
-133.89 11.16 2151.8
-127.86 11.12 2144.2
-122.83 11.17 2153.5
-114.71 10.92 2106.9
-108.22 10.82 2087.2
-103.96 10.94 2110.4
-98.40 10.93 2108.7
-91.89 10.81 2084.9
-87.08 10.88 2099.2
-82.89 11.05 2131.4
-76.10 10.87 2096.6
-69.93 10.76 2074.8
-66.14 11.02 2125.9
-61.18 11.12 2145.1
-55.00 11.00 2121.3
-49.55 11.01 2123.4
-44.25 11.06 2133.5
-38.87 11.10 2141.6
-33.63 11.21 2161.7
-28.32 11.33 2184.8
-22.37 11.18 2156.9
-16.57 11.05 2130.9
-11.22 11.22 2162.9
-5.59 11.18 2157.0
0.00 11.12 2145.0
5.54 11.09 2138.0
10.88 10.88 2098.9
16.63 11.09 2137.9
22.57 11.29 2176.9
27.52 11.01 2122.8
32.71 10.90 2102.7
38.61 11.03 2127.6
43.96 10.99 2119.5
48.92 10.87 2096.4
54.87 10.97 2116.3
61.49 11.18 2156.1
67.04 11.17 2154.9
72.93 11.22 2163.7
78.42 11.20 2160.5
82.07 10.94 2110.4
87.99 11.00 2121.1
95.24 11.20 2160.9
102.23 11.36 2190.6
109.91 11.57 2231.3
115.94 11.59 2236.0
120.14 11.44 2206.7
124.31 11.30 2179.4
130.12 11.31 2182.1
136.31 11.36 2190.7
142.16 11.37 2193.4
148.16 11.40 2198.0
154.67 11.46 2209.6
159.57 11.40 2198.2
165.54 11.42 2201.8
178.89 11.93 2300.0
190.98 12.32 2376.3
-217.62 5.88 2268.6
-212.16 5.89 2273.1
-204.69 5.85 2255.7
-196.95 5.79 2234.3
-186.09 5.64 2175.0
-177.92 5.56 2144.6
-175.77 5.67 2186.9
-170.13 5.67 2187.4
-162.02 5.59 2154.9
-154.00 5.50 2121.4
-147.55 5.46 2107.8
-143.59 5.52 2130.2
-140.09 5.60 2161.5
-133.77 5.57 2149.8
-127.68 5.55 2141.2
-124.14 5.64 2176.5
-117.43 5.59 2156.8
-108.07 5.40 2084.2
-98.55 5.47 2111.7
-94.40 5.55 2141.9
-87.41 5.46 2107.2
-81.37 5.42 2092.4
-76.14 5.44 2097.6
-71.24 5.48 2113.8
-66.05 5.50 2123.0
-60.01 5.46 2104.1
-54.14 5.41 2088.3
-48.94 5.44 2097.4
-43.77 5.47 2110.5
-38.50 5.50 2121.6
-33.74 5.62 2168.7
-5.52 5.52 2131.0
0.00 5.45 2103.0
5.39 5.39 2078.0
10.70 5.35 2063.0
16.56 5.52 2128.9
22.60 5.65 2178.9
27.67 5.53 2134.8
32.74 5.46 2104.7
38.50 5.50 2121.6
44.09 5.51 2125.5
49.27 5.47 2111.4
54.81 5.48 2114.3
61.00 5.55 2139.1
66.61 5.55 2141.0
72.62 5.59 2154.8
78.89 5.64 2173.6
83.43 5.56 2145.4
88.28 5.52 2128.2
94.36 5.55 2140.9
99.76 5.54 2137.7
105.58 5.56 2143.4
113.45 5.67 2188.1
119.76 5.70 2199.7
123.85 5.63 2171.5
129.58 5.63 2173.1
136.07 5.67 2186.8
142.36 5.69 2196.4
151.32 5.82 2244.9
161.17 5.97 2302.4
164.35 5.87 2264.0
168.24 5.80 2237.7
181.92 6.06 2338.9
199.09 6.22 2399.7
-217.43 -0.00 2266.6
-208.63 -0.00 2235.3
-200.35 -0.00 2207.9
-191.60 -0.00 2173.6
-186.68 -0.00 2182.0
-183.88 -0.00 2216.4
-178.25 -0.00 2217.8
-169.43 -0.00 2178.4
-163.74 -0.00 2177.9
-157.98 -0.00 2176.3
-149.43 -0.00 2134.8
-143.52 -0.00 2129.2
-139.77 -0.00 2156.5
-133.33 -0.00 2142.9
-125.95 -0.00 2112.2
-121.06 -0.00 2122.6
-116.61 -0.00 2141.8
-109.47 -0.00 2111.2
-103.32 -0.00 2097.5
-100.78 -0.00 2159.6
-97.00 -0.00 2200.9
-90.39 -0.00 2179.1
-83.28 -0.00 2141.4
-77.08 -0.00 2123.6
-71.11 -0.00 2109.8
-64.99 -0.00 2089.0
-60.18 -0.00 2110.1
-55.33 -0.00 2134.3
-49.64 -0.00 2127.4
-44.00 -0.00 2121.5
-38.32 -0.00 2111.7
-33.24 -0.00 2136.7
-28.24 -0.00 2178.8
-22.81 -0.00 2199.9
-17.06 -0.00 2192.9
-10.99 -0.00 2120.0
-5.44 -0.00 2100.0
0.00 -0.00 2132.0
5.49 -0.00 2116.0
10.94 -0.00 2110.0
16.35 -0.00 2101.9
21.57 -0.00 2079.9
27.38 -0.00 2111.8
33.56 -0.00 2157.7
38.92 -0.00 2144.6
43.92 -0.00 2117.5
49.97 -0.00 2141.4
56.63 -0.00 2184.3
61.83 -0.00 2168.1
66.23 -0.00 2129.0
72.05 -0.00 2137.8
78.02 -0.00 2149.6
83.70 -0.00 2152.4
89.90 -0.00 2167.1
96.91 -0.00 2198.9
103.35 -0.00 2214.6
106.86 -0.00 2169.4
112.26 -0.00 2165.1
120.96 -0.00 2221.7
128.01 -0.00 2244.4
132.26 -0.00 2218.1
137.12 -0.00 2203.7
141.32 -0.00 2180.4
148.16 -0.00 2198.0
159.56 -0.00 2279.4
164.71 -0.00 2269.0
167.49 -0.00 2227.7
179.75 -0.00 2311.0
-211.51 -5.88 2266.1
-197.37 -5.64 2175.1
-190.98 -5.62 2166.6
-187.96 -5.70 2197.0
-182.14 -5.69 2195.5
-174.00 -5.61 2165.0
-168.89 -5.63 2171.4
-166.59 -5.74 2215.7
-160.30 -5.72 2208.2
-151.18 -5.60 2159.7
-144.40 -5.55 2142.1
-139.90 -5.60 2158.5
-135.26 -5.64 2173.8
-129.52 -5.63 2172.1
-123.11 -5.60 2158.5
-117.32 -5.59 2154.8
-110.55 -5.53 2132.1
-104.75 -5.51 2126.4
-101.39 -5.63 2172.6
-96.87 -5.70 2197.9
-91.80 -5.74 2213.1
-86.00 -5.73 2211.3
-79.36 -5.67 2186.6
-72.99 -5.61 2165.8
-66.30 -5.52 2131.0
-61.00 -5.55 2139.1
-56.40 -5.64 2175.3
-50.83 -5.65 2178.4
-44.60 -5.58 2150.5
-38.41 -5.49 2116.6
-32.79 -5.46 2107.7
-27.48 -5.50 2119.8
