ply
format ascii 1.0
element vertex 2120
property float x
property float y
property float z
end_header
734.69 -749.68 1927.8
748.55 -758.67 1950.9
715.43 -720.23 1852.0
784.58 -779.38 2004.1
764.25 -749.27 1926.7
733.07 -714.03 1836.1
781.47 -737.23 1895.7
816.58 -729.09 1874.8
852.54 -730.75 1879.1
863.43 -723.54 1860.5
901.08 -730.61 1878.7
902.68 -727.96 1871.9
931.09 -723.65 1860.8
972.49 -729.36 1875.5
995.78 -721.58 1855.5
981.10 -697.47 1793.5
1003.61 -703.46 1808.9
1013.30 -703.68 1809.5
1021.68 -681.12 1751.4
1068.31 -709.06 1823.3
1092.94 -719.04 1849.0
1070.47 -701.18 1803.0
1046.36 -682.41 1754.8
1111.68 -715.67 1840.3
1113.33 -713.67 1835.2
1120.39 -715.14 1838.9
1145.69 -701.44 1803.7
1154.77 -704.13 1810.6
1130.56 -686.57 1765.5
1132.13 -682.01 1753.7
1177.86 -706.72 1817.3
1193.29 -685.80 1763.5
1179.98 -675.56 1737.2
1178.36 -672.07 1728.2
1213.82 -689.67 1773.4
1219.77 -690.44 1775.4
1231.14 -694.25 1785.2
1243.09 -698.36 1795.8
1236.43 -684.37 1759.8
1295.09 -714.20 1836.5
1286.85 -707.06 1818.1
1312.69 -710.84 1827.9
1307.04 -705.23 1813.5
1306.92 -702.64 1806.8
1295.65 -679.54 1747.4
1329.42 -690.01 1774.3
1346.72 -691.81 1778.9
1360.20 -696.35 1790.6
1380.66 -704.42 1811.4
1415.05 -714.67 1837.7
1410.59 -710.03 1825.8
1416.22 -708.11 1820.8
1459.89 -727.52 1870.8
1500.19 -745.13 1916.0
1506.06 -743.12 1910.9
1536.85 -753.36 1937.2
1574.93 -762.06 1959.6
1546.94 -746.11 1918.6
-1704.75 -835.77 2134.9
-1733.73 -858.34 2192.5
-1709.92 -849.33 2169.5
-1712.01 -856.00 2186.6
-1760.62 -901.20 2302.0
-1737.66 -895.52 2287.5
-1711.80 -885.21 2261.2
-1719.95 -892.48 2279.8
-1689.61 -879.76 2247.3
-1687.41 -881.65 2252.1
-1664.63 -872.78 2229.4
-1670.45 -881.95 2252.9
-1597.60 -852.43 2177.4
-1556.26 -860.79 2198.8
-1558.23 -874.69 2234.3
-1544.91 -870.45 2223.5
-1517.99 -871.55 2226.3
-1533.93 -908.33 2320.2
-1545.24 -918.63 2346.5
-1513.50 -906.90 2316.6
604.33 -747.99 1910.7
747.69 -784.04 2002.7
760.54 -781.23 1995.6
735.86 -745.74 1904.9
785.10 -779.94 1992.3
772.67 -762.57 1947.9
816.14 -779.99 1992.4
805.24 -764.72 1953.4
812.53 -766.82 1958.8
813.03 -744.04 1900.6
829.49 -745.56 1904.5
843.93 -754.04 1926.1
850.86 -755.77 1930.5
842.17 -743.67 1899.6
831.07 -708.99 1811.0
996.23 -733.81 1874.4
972.52 -712.87 1821.0
983.21 -713.77 1823.3
1003.57 -718.19 1834.6
990.48 -705.48 1802.1
1024.61 -709.71 1812.9
1042.40 -705.84 1803.0
1041.74 -702.24 1793.8
1046.76 -702.49 1794.4
1066.63 -712.66 1820.4
1069.30 -711.30 1816.9
1075.81 -712.49 1820.0
1063.95 -701.55 1792.0
1038.37 -681.71 1741.4
1143.04 -719.16 1837.0
1173.87 -717.63 1833.1
1160.42 -706.55 1804.8
1163.74 -670.70 1713.2
1202.28 -690.28 1763.3
1217.36 -696.29 1778.6
1196.88 -679.43 1735.5
1244.51 -701.20 1791.1
1294.62 -726.72 1856.3
1265.78 -707.90 1808.3
1277.83 -712.00 1818.7
1287.16 -714.56 1825.3
1316.62 -710.04 1813.7
1306.93 -702.30 1794.0
1274.09 -682.23 1742.7
1330.68 -702.56 1794.6
1302.50 -685.29 1750.5
1302.89 -680.75 1738.9
1371.87 -714.32 1824.7
1414.71 -734.09 1875.2
1405.86 -727.00 1857.1
1382.50 -712.48 1820.0
1390.85 -714.35 1824.7
1369.63 -701.06 1790.8
1432.55 -725.89 1854.2
1445.08 -729.79 1864.2
1418.33 -713.89 1823.6
1462.42 -728.80 1861.6
1531.24 -760.58 1942.8
1564.50 -772.02 1972.1
1517.78 -746.53 1906.9
1557.37 -763.51 1950.3
1578.84 -769.05 1964.5
1589.55 -769.30 1965.1
1563.26 -754.16 1926.4
-1749.81 -857.97 2177.2
-1714.37 -854.37 2168.1
-1692.38 -846.19 2147.3
-1685.70 -848.43 2153.0
-1716.71 -866.91 2199.9
-1707.41 -879.75 2232.4
-1675.22 -866.10 2197.8
-1711.82 -888.04 2253.5
-1655.52 -870.73 2209.5
-1647.39 -881.70 2237.4
-1638.29 -886.19 2248.8
-1612.46 -875.33 2221.2
-1623.57 -884.53 2244.6
-1617.95 -894.28 2269.3
-1591.01 -899.01 2281.3
-1553.72 -881.22 2236.2
-1531.74 -898.94 2281.1
-1545.18 -917.45 2328.1
-1509.18 -913.92 2319.2
-1487.73 -904.54 2295.4
393.46 -757.04 1921.1
518.28 -750.27 1903.9
611.47 -761.83 1933.2
704.12 -753.71 1912.6
744.05 -774.63 1965.7
748.47 -763.54 1937.6
781.39 -781.39 1982.9
767.57 -762.55 1935.1
800.74 -760.71 1930.4
836.38 -756.72 1920.3
838.76 -754.39 1914.3
834.29 -745.95 1892.9
858.76 -758.90 1925.8
868.29 -749.88 1902.9
857.93 -736.76 1869.6
903.41 -746.29 1893.8
935.32 -748.26 1898.8
979.35 -744.31 1888.8
961.00 -702.27 1782.1
992.89 -715.25 1815.0
990.71 -700.41 1777.4
983.25 -691.92 1755.8
1038.37 -707.77 1796.0
1059.56 -718.99 1824.5
1047.96 -707.95 1796.5
1052.51 -707.88 1796.3
1064.26 -712.63 1808.4
1081.83 -721.22 1830.2
1082.57 -718.56 1823.4
1071.15 -707.89 1796.3
1070.05 -689.19 1748.9
1149.20 -730.87 1854.7
1133.77 -718.05 1822.1
1138.81 -718.25 1822.6
1154.43 -725.10 1840.0
1161.52 -726.55 1843.7
1140.73 -710.62 1803.3
1177.71 -724.75 1839.1
1135.77 -687.79 1745.3
1173.35 -707.74 1795.9
1197.06 -719.18 1825.0
1172.30 -701.53 1780.2
1193.38 -705.81 1791.1
1186.16 -698.82 1773.3
1206.88 -697.51 1770.0
1243.20 -705.10 1789.2
1303.85 -731.31 1855.8
1246.32 -696.47 1767.4
1253.32 -687.74 1745.2
1285.96 -703.11 1784.2
1303.10 -709.93 1801.5
1296.80 -703.97 1786.4
1296.04 -701.06 1779.0
1273.89 -686.64 1742.4
1293.89 -694.95 1763.5
1355.77 -725.63 1841.3
1304.57 -690.92 1753.3
1324.75 -699.18 1774.2
1342.15 -705.90 1791.3
1388.83 -727.94 1847.2
1348.53 -694.84 1763.2
1388.75 -713.14 1809.7
1395.93 -714.42 1812.9
1393.20 -710.62 1803.3
1421.42 -722.60 1833.7
1415.17 -717.02 1819.5
1532.13 -761.06 1931.3
1591.40 -777.79 1973.7
1561.00 -760.49 1929.8
1568.33 -752.01 1908.3
-1735.14 -873.28 2201.5
-1708.14 -885.92 2233.4
-1655.15 -861.35 2171.5
-1728.84 -912.11 2299.4
-1709.97 -905.28 2282.2
-1652.04 -890.01 2243.7
-1579.01 -872.16 2198.7
-1551.21 -863.04 2175.7
-1569.08 -889.15 2241.5
-1581.31 -899.41 2267.4
-1553.84 -887.08 2236.3
-1557.30 -905.96 2283.9
-1524.33 -907.48 2287.8
-1529.42 -932.27 2350.3
352.01 -780.55 1967.8
379.82 -745.04 1878.2
476.21 -735.95 1855.3
560.00 -765.00 1928.6
592.69 -762.03 1921.1
601.27 -741.89 1870.3
645.76 -754.21 1901.4
647.51 -750.52 1892.1
723.75 -763.68 1925.3
723.88 -758.59 1912.4
770.81 -775.88 1956.0
773.68 -763.70 1925.3
788.61 -773.44 1949.9
755.17 -735.93 1855.3
813.22 -740.61 1867.1
807.49 -726.74 1832.1
826.96 -731.36 1843.8
844.80 -738.60 1862.0
870.84 -748.53 1887.1
901.12 -749.30 1889.0
907.91 -738.88 1862.7
909.01 -735.86 1855.1
950.43 -727.08 1833.0
989.59 -742.19 1871.1
965.14 -720.33 1815.9
1000.92 -722.36 1821.1
1000.14 -711.73 1794.3
991.34 -702.20 1770.2
1027.80 -718.05 1810.2
1019.75 -709.19 1787.9
1008.78 -692.12 1744.8
1042.69 -712.19 1795.4
1044.38 -710.18 1790.4
1037.92 -702.66 1771.4
1037.61 -699.36 1763.1
1059.43 -710.93 1792.3
1065.89 -712.14 1795.3
1093.69 -727.54 1834.1
1098.78 -727.76 1834.7
1127.47 -712.82 1797.0
1142.57 -719.39 1813.6
1176.48 -737.71 1859.8
1160.22 -724.55 1826.6
1200.42 -737.61 1859.5
1156.48 -707.77 1784.3
1164.81 -707.20 1782.9
1203.06 -727.54 1834.1
1212.78 -730.54 1841.7
1219.39 -731.64 1844.5
1133.60 -677.50 1708.0
1170.62 -694.20 1750.1
1194.53 -705.65 1779.0
1175.02 -691.45 1743.2
1203.81 -705.68 1779.0
1209.32 -690.40 1740.5
1206.25 -681.02 1716.9
1226.45 -677.43 1707.8
1269.59 -698.73 1761.5
1296.17 -710.80 1791.9
1284.26 -701.76 1769.1
1282.36 -698.22 1760.2
1274.80 -691.65 1743.7
1309.44 -707.93 1784.7
1336.88 -720.22 1815.7
1339.06 -708.91 1787.2
1355.35 -715.06 1802.7
1356.76 -713.35 1798.4
1371.49 -701.80 1769.2
1433.09 -730.88 1842.5
1455.01 -739.59 1864.5
1496.97 -753.41 1899.4
1510.24 -757.59 1909.9
1476.06 -738.03 1860.6
1433.38 -714.35 1800.9
1493.61 -741.95 1870.5
1558.49 -769.19 1939.1
1516.13 -745.88 1880.4
1552.90 -761.52 1919.8
1567.52 -766.23 1931.7
1605.70 -774.99 1953.8
-1719.72 -857.08 2146.7
-1738.86 -880.87 2206.3
-1681.27 -860.18 2154.4
-1679.36 -862.07 2159.2
-1657.97 -880.44 2205.2
-1704.38 -908.22 2274.8
-1634.30 -873.89 2188.8
-1594.59 -864.67 2165.7
-1571.38 -873.62 2188.1
-1585.71 -884.78 2216.1
-1609.95 -908.18 2274.7
-1553.35 -930.80 2331.3
342.77 -799.79 2003.2
341.21 -750.66 1880.1
364.51 -758.57 1899.9
439.03 -751.23 1881.6
573.66 -748.67 1875.2
570.44 -738.22 1849.0
587.36 -753.77 1887.9
583.33 -724.46 1814.5
608.24 -737.55 1847.3
638.53 -768.23 1924.1
635.91 -747.56 1872.4
671.44 -738.58 1849.9
671.24 -733.13 1836.2
699.73 -748.32 1874.3
701.42 -744.96 1865.9
732.11 -761.79 1908.0
750.67 -775.86 1943.3
752.07 -772.13 1933.9
728.14 -742.61 1860.0
768.18 -763.22 1911.6
771.12 -761.23 1906.6
744.68 -730.45 1829.5
840.21 -761.13 1906.4
834.26 -738.37 1849.4
839.50 -738.76 1850.3
845.78 -719.61 1802.4
864.55 -731.54 1832.2
850.79 -715.96 1793.2
857.91 -718.04 1798.4
896.80 -746.53 1869.8
898.80 -744.16 1863.9
864.43 -704.35 1764.1
894.68 -713.89 1788.0
919.64 -730.03 1828.5
925.66 -731.03 1831.0
900.41 -703.88 1763.0
916.56 -702.24 1758.9
929.00 -708.25 1773.9
990.27 -712.63 1784.9
987.03 -706.99 1770.7
1024.17 -707.27 1771.5
1049.56 -721.57 1807.3
1050.33 -718.89 1800.6
1042.94 -710.68 1780.0
1032.11 -700.20 1753.7
1042.34 -704.04 1763.4
1021.70 -687.08 1720.9
1081.99 -721.33 1806.7
1108.00 -735.48 1842.1
1166.21 -721.27 1806.5
1155.21 -711.61 1782.3
1141.04 -691.81 1732.7
1189.30 -718.25 1798.9
1148.61 -690.96 1730.6
1164.59 -695.14 1741.1
1204.88 -716.42 1794.4
1200.80 -711.24 1781.4
1237.63 -730.25 1829.0
1229.82 -722.87 1810.5
1190.37 -697.02 1745.8
1204.86 -702.84 1760.4
1236.62 -718.64 1799.9
1222.13 -707.55 1772.2
1181.58 -681.51 1706.9
1209.65 -695.10 1741.0
1248.71 -714.87 1790.5
1197.66 -678.08 1698.4
1211.72 -683.53 1712.0
1223.62 -687.73 1722.5
1272.34 -694.82 1740.3
1291.42 -688.16 1723.6
1309.88 -695.59 1742.2
1301.44 -688.73 1725.0
1332.47 -695.59 1742.2
1386.54 -721.37 1806.8
1377.21 -706.97 1770.7
1445.95 -739.79 1852.9
1422.04 -725.15 1816.2
1396.90 -705.32 1766.6
1444.95 -727.20 1821.4
1445.04 -724.87 1815.5
1556.49 -778.24 1949.2
1572.81 -778.82 1950.7
1528.60 -754.50 1889.7
1540.75 -758.07 1898.7
1564.05 -762.23 1909.1
-1752.83 -870.80 2167.0
-1699.63 -852.57 2121.6
-1722.04 -875.14 2177.8
-1673.95 -859.14 2138.0
-1720.75 -886.10 2205.0
-1681.88 -868.97 2162.4
-1704.16 -892.38 2220.7
-1660.03 -881.18 2192.8
-1606.17 -885.96 2204.7
-1557.10 -871.30 2168.2
-1612.94 -905.82 2254.1
-1606.12 -905.27 2252.7
-1556.24 -883.58 2198.8
-1580.18 -900.47 2240.8
-1540.62 -901.12 2242.4
-1558.46 -915.01 2277.0
-1548.95 -916.37 2280.4
161.68 -808.38 2011.6
169.39 -820.50 2041.8
174.89 -821.46 2044.2
180.97 -825.02 2053.0
320.21 -787.83 1960.5
320.16 -775.39 1929.5
351.73 -790.12 1966.2
359.01 -794.96 1978.2
367.37 -780.04 1941.1
424.71 -774.46 1927.2
474.30 -750.16 1866.8
464.51 -727.27 1809.8
482.98 -748.62 1862.9
521.23 -741.19 1844.4
555.12 -782.21 1946.5
557.77 -771.91 1920.9
562.80 -765.22 1904.2
577.88 -772.17 1921.5
585.21 -775.28 1929.3
582.65 -740.25 1842.1
590.16 -743.70 1850.7
607.15 -758.93 1888.6
615.09 -762.72 1898.0
635.36 -769.38 1914.6
685.48 -753.54 1875.2
685.31 -748.05 1861.5
685.71 -733.01 1824.1
724.48 -758.75 1888.1
717.35 -746.24 1857.0
725.34 -749.52 1865.2
746.42 -756.18 1881.7
756.97 -761.88 1895.9
755.35 -755.35 1879.7
773.67 -768.72 1912.9
763.88 -754.15 1876.7
742.49 -719.28 1789.9
813.01 -777.88 1935.7
780.12 -741.83 1846.0
845.98 -753.61 1875.3
852.83 -755.36 1879.7
846.05 -745.10 1854.2
848.33 -726.47 1807.8
866.71 -738.13 1836.8
852.16 -721.78 1796.1
872.07 -715.19 1779.7
904.55 -726.45 1807.8
917.13 -714.34 1777.6
950.35 -736.52 1832.8
966.39 -745.23 1854.5
961.11 -737.48 1835.2
939.50 -717.35 1785.1
974.31 -722.57 1798.1
990.65 -731.19 1819.6
1014.75 -734.98 1829.0
1012.98 -730.29 1817.3
962.28 -690.53 1718.4
1039.13 -715.85 1781.4
1070.88 -734.45 1827.7
1074.32 -730.35 1817.5
1099.00 -721.80 1796.2
1089.14 -712.31 1772.6
1137.18 -707.88 1761.6
1157.55 -717.68 1785.9
1126.36 -681.98 1697.1
1184.24 -714.23 1777.3
1222.90 -734.69 1828.3
1224.73 -732.95 1823.9
1200.02 -715.40 1780.3
1218.76 -723.78 1801.1
1235.43 -730.89 1818.8
1220.62 -719.38 1790.2
1236.26 -725.84 1806.2
1256.93 -732.42 1822.6
1219.74 -708.09 1762.1
1192.63 -689.77 1716.5
1257.53 -711.38 1770.2
1252.67 -700.95 1744.3
1245.18 -684.41 1703.1
1269.02 -695.04 1729.6
1316.64 -718.59 1788.2
1323.76 -719.94 1791.5
1304.80 -707.15 1759.7
1298.80 -701.44 1745.5
1283.07 -690.54 1718.4
1298.06 -696.19 1732.5
1313.67 -702.14 1747.3
1302.38 -693.71 1726.3
1301.35 -690.79 1719.0
1285.90 -680.25 1692.8
1291.71 -681.00 1694.7
1372.76 -721.28 1794.9
1386.29 -725.93 1806.5
1330.17 -687.26 1710.2
1394.66 -718.18 1787.2
1458.24 -748.43 1862.5
1455.50 -744.56 1852.8
1370.68 -698.87 1739.1
1391.95 -707.38 1760.3
1475.53 -747.41 1859.9
1522.02 -768.45 1912.3
1528.01 -764.01 1901.2
1538.96 -767.01 1908.7
1481.50 -736.00 1831.5
1477.92 -731.88 1821.3
-1697.46 -856.97 2118.9
-1741.51 -882.06 2180.9
-1719.15 -890.99 2203.0
-1716.56 -892.61 2207.0
-1702.56 -897.29 2218.6
-1658.82 -877.21 2168.9
-1717.53 -914.45 2261.0
-1669.55 -895.01 2212.9
-1644.53 -884.64 2187.3
-1573.19 -870.27 2151.8
-1561.07 -882.35 2181.6
-1535.19 -893.62 2209.5
-1542.69 -904.73 2237.0
-1529.21 -907.06 2242.7
-1516.80 -931.58 2303.3
154.01 -828.48 2048.4
162.57 -818.10 2022.8
172.52 -815.56 2016.5
183.34 -841.19 2079.9
189.47 -821.05 2030.1
314.84 -779.61 1927.6
344.52 -802.16 1983.4
351.79 -807.04 1995.4
363.51 -810.11 2003.0
365.75 -792.47 1959.4
364.46 -778.85 1925.7
421.14 -772.91 1911.0
425.28 -771.44 1907.4
442.20 -775.09 1916.4
469.02 -731.67 1809.1
491.85 -759.69 1878.3
486.92 -744.70 1841.3
477.48 -723.18 1788.1
479.66 -719.49 1779.0
495.75 -736.54 1821.1
499.19 -734.66 1816.5
502.51 -712.65 1762.0
506.26 -711.50 1759.2
547.20 -742.29 1835.3
558.87 -751.59 1858.3
581.75 -775.66 1917.8
569.55 -722.35 1786.0
569.23 -716.13 1770.6
586.97 -732.53 1811.2
685.82 -748.17 1849.9
699.92 -758.24 1874.8
698.33 -751.31 1857.6
713.54 -762.42 1885.1
710.23 -753.71 1863.6
754.40 -744.85 1841.7
750.36 -736.20 1820.3
806.57 -781.52 1932.3
787.90 -754.07 1864.5
762.39 -725.20 1793.1
814.70 -734.65 1816.4
851.90 -763.77 1888.4
836.28 -745.49 1843.2
901.77 -728.89 1802.2
916.60 -737.06 1822.4
888.21 -699.80 1730.3
909.12 -712.68 1762.1
927.13 -723.16 1788.0
947.85 -735.65 1818.9
951.24 -734.62 1816.4
955.92 -734.60 1816.3
969.43 -727.08 1797.7
996.95 -744.13 1839.9
968.31 -719.32 1778.5
977.89 -712.86 1762.6
982.42 -712.83 1762.5
979.44 -704.11 1740.9
1030.32 -737.29 1823.0
984.43 -698.05 1725.9
1043.27 -736.43 1820.8
1034.36 -701.56 1734.6
1078.93 -719.29 1778.5
1082.43 -718.55 1776.6
1092.82 -722.38 1786.1
1117.11 -735.31 1818.1
1118.73 -703.72 1740.0
1128.73 -707.15 1748.5
1125.74 -696.89 1723.1
1121.44 -683.38 1689.7
1193.53 -713.37 1763.8
1204.93 -712.00 1760.5
1210.87 -712.81 1762.4
1239.69 -698.17 1726.2
1247.54 -692.58 1712.4
1256.43 -692.59 1712.4
1311.89 -720.61 1781.7
1303.12 -708.32 1751.3
1327.75 -714.24 1766.0
1287.84 -690.39 1707.0
1320.37 -700.60 1732.3
1386.98 -733.45 1813.5
1385.47 -730.18 1805.4
1341.51 -704.63 1742.2
1393.25 -722.09 1785.4
1431.53 -739.47 1828.4
1477.02 -760.44 1880.2
1440.67 -739.29 1827.9
1438.43 -735.72 1819.1
1500.15 -764.78 1890.9
1512.93 -758.90 1876.4
1535.24 -767.62 1898.0
1544.40 -769.73 1903.2
1533.69 -761.96 1884.0
1480.06 -732.98 1812.3
1507.19 -739.37 1828.1
-1725.07 -876.49 2153.3
-1705.39 -872.13 2142.6
-1686.32 -882.51 2168.1
-1673.28 -878.61 2158.6
-1711.16 -904.55 2222.3
-1708.49 -906.19 2226.3
-1616.90 -878.39 2158.0
-1642.77 -917.85 2255.0
-1545.73 -879.27 2160.2
-1596.94 -911.71 2239.9
-1541.39 -892.98 2193.9
-1554.25 -903.77 2220.4
-1542.59 -900.32 2211.9
-1502.68 -890.27 2187.2
162.05 -820.73 2016.3
176.87 -841.47 2067.3
185.51 -832.13 2044.4
185.00 -806.79 1982.1
205.60 -827.67 2033.4
213.31 -837.24 2056.9
280.94 -787.63 1935.0
296.19 -775.03 1904.1
305.08 -785.21 1929.1
333.25 -780.91 1918.5
342.13 -789.92 1940.6
353.07 -803.37 1973.7
348.77 -782.24 1921.8
353.17 -770.10 1892.0
366.73 -788.73 1937.7
375.45 -796.57 1957.0
370.27 -775.09 1904.2
372.71 -769.94 1891.6
392.88 -780.80 1918.2
393.12 -761.97 1872.0
398.94 -754.62 1853.9
424.71 -775.35 1904.9
431.28 -778.30 1912.1
434.58 -775.34 1904.8
472.10 -733.86 1802.9
480.80 -740.05 1818.1
487.40 -742.93 1825.2
485.80 -733.37 1801.7
497.28 -743.55 1826.7
518.50 -767.97 1886.7
516.13 -757.31 1860.5
536.63 -732.62 1799.9
530.50 -718.00 1764.0
629.55 -754.50 1853.6
626.06 -744.64 1829.4
641.06 -740.05 1818.1
702.70 -760.85 1869.2
719.26 -773.45 1900.2
716.65 -765.40 1880.4
696.87 -739.25 1816.2
705.55 -738.48 1814.3
749.27 -758.94 1864.5
783.65 -728.01 1788.6
787.63 -727.40 1787.1
826.35 -749.93 1842.4
849.70 -766.68 1883.6
820.15 -735.79 1807.7
920.45 -748.76 1839.5
899.81 -720.77 1770.8
883.26 -700.36 1720.6
953.53 -730.26 1794.1
941.75 -717.74 1763.3
966.34 -732.92 1800.6
982.59 -741.66 1822.1
957.21 -719.05 1766.5
983.14 -721.27 1772.0
1009.24 -736.98 1810.6
1004.54 -723.46 1777.4
1005.08 -695.14 1707.8
1014.73 -698.74 1716.6
1036.94 -710.91 1746.6
1059.26 -723.06 1776.4
1038.53 -705.84 1734.1
1077.21 -722.75 1775.6
1104.30 -737.76 1812.5
1054.90 -695.88 1709.6
1081.63 -710.53 1745.6
1075.54 -703.58 1728.6
1071.89 -698.29 1715.5
1087.27 -705.38 1733.0
1105.75 -714.41 1755.2
1108.77 -701.92 1724.5
1104.88 -696.65 1711.5
1143.41 -715.20 1757.1
1162.79 -724.44 1779.8
1159.93 -719.80 1768.4
1124.74 -695.22 1708.0
1114.39 -686.11 1685.6
1168.88 -716.85 1761.2
1149.61 -702.29 1725.4
1202.18 -725.93 1783.5
1193.28 -717.80 1763.5
1172.60 -702.66 1726.3
1208.37 -721.35 1772.2
1170.42 -696.05 1710.0
1205.64 -703.66 1728.7
1212.61 -705.11 1732.3
1205.40 -698.33 1715.6
1221.64 -705.14 1732.4
1230.27 -707.52 1738.2
1197.69 -686.27 1686.0
1325.17 -743.04 1825.5
1315.00 -734.72 1805.0
1258.78 -700.81 1721.7
1275.58 -705.16 1732.4
1292.76 -712.15 1749.6
1333.21 -731.87 1798.0
1280.20 -700.32 1720.5
1352.08 -731.99 1798.3
1360.37 -733.95 1803.1
1315.86 -707.50 1738.2
1290.19 -686.64 1686.9
1413.60 -749.78 1842.1
1418.41 -744.78 1829.8
1400.49 -732.92 1800.6
1409.42 -735.14 1806.1
1402.51 -729.12 1791.3
1396.72 -723.71 1778.0
1399.73 -722.89 1776.0
1437.59 -740.00 1818.0
1447.76 -742.80 1824.9
1459.96 -739.40 1816.5
1484.59 -747.05 1835.3
1512.87 -758.85 1864.3
1470.10 -730.40 1794.4
1517.83 -747.02 1835.3
-1747.98 -888.04 2167.9
-1707.08 -887.23 2165.9
-1710.47 -891.93 2177.4
-1672.28 -883.68 2157.3
-1695.04 -901.74 2201.4
-1648.24 -898.00 2192.2
-1632.44 -892.47 2178.7
-1590.55 -881.78 2152.6
-1646.22 -925.63 2259.7
-1600.37 -903.06 2204.6
-1604.38 -918.45 2242.2
-1548.22 -899.33 2195.5
-1596.00 -930.51 2271.6
-162.05 -800.12 1953.3
161.09 -821.05 2004.4
170.09 -839.80 2050.1
179.73 -811.37 1980.7
187.15 -821.40 2005.2
191.25 -816.70 1993.7
196.83 -818.41 1997.9
204.67 -829.17 2024.2
208.12 -802.01 1957.9
227.61 -781.80 1908.6
230.37 -774.44 1890.6
306.26 -793.26 1936.5
296.90 -756.62 1847.1
326.14 -769.10 1877.5
331.84 -771.05 1882.3
343.78 -787.21 1921.8
351.15 -770.59 1881.2
370.03 -800.89 1955.2
378.21 -776.07 1894.6
381.49 -772.76 1886.5
394.59 -789.18 1926.6
402.61 -795.16 1941.2
407.75 -766.96 1872.3
425.39 -772.55 1886.0
439.58 -789.24 1926.7
446.17 -783.28 1912.2
430.00 -746.60 1822.6
457.48 -722.83 1764.6
489.12 -765.16 1867.9
497.78 -763.58 1864.1
503.03 -749.80 1830.4
509.72 -752.67 1837.4
540.77 -730.27 1782.8
539.88 -722.89 1764.7
590.81 -752.81 1837.8
643.05 -752.61 1837.3
714.62 -778.68 1900.9
703.47 -761.29 1858.5
712.41 -765.72 1869.3
706.01 -753.71 1840.0
717.08 -740.51 1807.8
761.06 -780.83 1906.2
741.70 -756.06 1845.7
758.65 -749.17 1828.9
748.73 -734.78 1793.8
759.82 -718.87 1754.9
785.41 -738.66 1803.2
761.63 -712.05 1738.3
830.31 -758.32 1851.2
822.85 -747.18 1824.0
807.13 -728.72 1779.0
819.99 -736.13 1797.1
832.54 -743.17 1814.2
851.10 -726.89 1774.5
883.56 -742.56 1812.8
900.26 -752.60 1837.3
903.37 -751.23 1833.9
920.81 -746.09 1821.4
903.32 -724.49 1768.6
905.48 -704.76 1720.5
961.83 -744.95 1818.6
980.64 -755.81 1845.1
978.28 -750.33 1831.7
966.97 -738.07 1801.8
944.37 -717.35 1751.2
972.84 -718.26 1753.4
1004.29 -702.12 1714.0
1013.46 -705.40 1722.1
1025.54 -710.68 1734.9
1040.07 -717.60 1751.8
1053.21 -723.51 1766.3
1102.77 -732.09 1787.2
1116.21 -737.91 1801.4
1064.45 -694.97 1696.6
1077.31 -694.75 1696.1
1118.69 -718.51 1754.0
1153.16 -737.65 1800.8
1173.99 -747.95 1825.9
1160.04 -736.09 1797.0
1161.42 -734.01 1791.9
1166.37 -734.21 1792.4
1155.81 -724.67 1769.1
1151.89 -710.93 1735.5
1212.88 -745.66 1820.3
1199.45 -734.55 1793.2
1184.02 -716.76 1749.8
1235.70 -745.19 1819.2
1218.36 -729.17 1780.1
1177.22 -691.45 1688.0
1178.12 -689.42 1683.0
1177.38 -686.44 1675.8
1200.10 -697.12 1701.8
1243.73 -719.82 1757.2
1278.62 -721.51 1761.4
1258.28 -707.51 1727.2
1272.60 -700.60 1710.3
1304.60 -715.72 1747.2
1303.10 -712.42 1739.2
1353.54 -737.45 1800.3
1328.42 -716.35 1748.8
1306.22 -697.24 1702.1
1415.92 -753.25 1838.9
1416.75 -751.16 1833.8
1403.57 -741.69 1810.6
1428.28 -752.23 1836.4
1407.41 -738.77 1803.5
1370.58 -717.06 1750.5
1391.77 -725.74 1771.7
1421.88 -739.00 1804.1
1437.33 -744.58 1817.7
1426.19 -736.40 1797.7
1381.77 -711.14 1736.1
1545.76 -777.80 1898.8
1543.56 -771.78 1884.1
-1693.70 -885.85 2149.0
-1715.49 -906.19 2198.3
-1585.00 -875.05 2122.8
-1628.88 -902.41 2189.1
-1586.17 -884.92 2146.7
-1567.74 -877.71 2129.2
-1631.68 -926.56 2247.7
-1576.33 -908.10 2202.9
-1564.10 -904.33 2193.8
-1539.71 -896.76 2175.4
-1561.43 -912.75 2214.2
-1571.01 -921.74 2236.0
-1532.70 -902.59 2189.6
-1520.35 -908.78 2204.6
-1509.41 -919.53 2230.7
-96.90 -810.93 1967.2
-57.06 -824.82 2000.9
-51.61 -820.68 1990.9
97.95 -819.68 1988.5
112.32 -811.78 1969.3
120.09 -795.59 1930.0
131.12 -801.83 1945.1
135.11 -795.62 1930.1
145.48 -797.65 1935.0
156.14 -827.54 2007.5
169.63 -842.83 2044.6
162.61 -760.46 1844.8
180.79 -798.51 1937.1
193.29 -830.61 2015.0
195.66 -818.67 1986.0
199.92 -815.07 1977.3
207.68 -825.51 2002.6
208.54 -771.10 1870.6
222.48 -769.00 1865.5
230.05 -778.26 1888.0
260.72 -797.21 1933.9
286.27 -784.78 1903.8
302.21 -800.86 1942.8
301.46 -760.84 1845.7
307.96 -765.09 1856.0
323.43 -791.17 1919.3
340.48 -820.24 1989.8
337.74 -801.50 1944.3
352.71 -778.91 1889.5
372.64 -811.63 1968.9
362.41 -738.75 1792.1
382.33 -769.51 1866.7
406.44 -778.60 1888.8
422.59 -799.91 1940.5
421.55 -779.37 1890.7
441.05 -787.94 1911.4
448.10 -791.65 1920.4
448.60 -783.81 1901.4
444.90 -768.90 1865.3
467.18 -757.98 1838.8
455.69 -724.55 1757.7
477.46 -737.04 1788.0
476.74 -728.87 1768.1
503.02 -761.72 1847.8
503.09 -754.63 1830.6
518.57 -749.56 1818.4
517.83 -741.75 1799.4
519.33 -737.26 1788.5
534.11 -751.53 1823.1
530.34 -739.68 1794.4
525.36 -726.37 1762.1
547.07 -743.45 1803.5
549.49 -740.42 1796.2
541.18 -723.09 1754.1
552.00 -713.56 1731.0
561.54 -720.04 1746.7
591.24 -752.06 1824.4
616.80 -772.21 1873.3
622.34 -727.59 1765.0
652.50 -741.05 1797.7
644.83 -727.15 1764.0
688.04 -765.03 1855.9
717.32 -786.58 1908.1
707.52 -770.52 1869.2
718.81 -777.49 1886.1
715.14 -768.29 1863.8
737.84 -776.93 1884.7
703.13 -735.51 1784.3
706.17 -733.87 1780.3
743.83 -767.98 1863.0
731.20 -726.63 1762.7
719.33 -710.40 1723.3
734.08 -720.48 1747.8
754.75 -736.23 1786.0
750.71 -727.83 1765.6
760.34 -723.91 1756.1
776.58 -734.98 1783.0
804.39 -739.29 1793.4
800.65 -731.63 1774.8
788.71 -716.60 1738.4
794.48 -717.74 1741.1
801.04 -719.58 1745.6
805.65 -719.66 1745.8
836.69 -743.20 1802.9
837.46 -739.75 1794.6
865.45 -743.82 1804.4
880.35 -752.56 1825.6
901.07 -766.15 1858.6
894.39 -756.43 1835.0
886.79 -746.03 1809.8
908.08 -759.92 1843.5
933.39 -753.35 1827.5
896.96 -720.28 1747.3
920.71 -717.61 1740.8
941.55 -730.27 1771.6
929.30 -717.28 1740.0
983.97 -727.68 1765.3
1019.80 -747.22 1812.7
1030.09 -718.35 1742.6
1042.23 -723.64 1755.5
1040.41 -719.24 1744.8
1074.27 -717.68 1741.0
1107.77 -724.84 1758.4
1132.79 -735.16 1783.4
1129.11 -729.79 1770.4
1168.86 -743.40 1803.4
1184.83 -721.79 1751.0
1211.49 -735.22 1783.5
1213.73 -733.78 1780.1
1220.77 -735.24 1783.6
1181.04 -703.32 1706.2
1186.23 -693.42 1682.1
1218.30 -709.56 1721.3
1243.08 -716.12 1737.2
1232.38 -707.39 1716.0
1224.37 -700.27 1698.8
1324.24 -731.09 1773.5
1316.18 -721.63 1750.6
1268.32 -693.00 1681.1
1307.95 -712.20 1727.7
1319.81 -711.35 1725.7
1313.02 -698.23 1693.8
1343.35 -711.98 1727.2
1380.37 -724.35 1757.2
1411.61 -738.31 1791.0
1427.03 -743.93 1804.7
1473.84 -765.82 1857.8
1488.23 -770.78 1869.8
1468.21 -757.94 1838.7
1472.48 -757.68 1838.0
1470.78 -754.37 1830.0
1469.65 -751.36 1822.7
1488.25 -758.43 1839.9
1488.90 -756.34 1834.8
1538.85 -779.22 1890.3
-1741.13 -890.04 2145.6
-1750.93 -912.54 2199.9
-1698.28 -899.75 2169.0
-1680.16 -899.08 2167.4
-1654.19 -912.66 2200.2
-1631.14 -906.19 2184.6
-1659.58 -925.20 2230.4
-1611.57 -901.58 2173.5
-1563.76 -890.40 2146.5
-1619.51 -925.44 2231.0
-1556.63 -899.14 2167.6
-1584.15 -918.35 2213.9
-1576.53 -930.79 2243.9
-111.25 -847.62 2043.4
-104.77 -838.15 2020.5
-69.08 -850.20 2049.6
-63.31 -844.13 2035.0
-46.28 -822.83 1983.6
74.13 -790.71 1906.2
87.98 -782.06 1885.3
95.31 -802.65 1935.0
101.23 -809.83 1952.3
109.90 -799.31 1926.9
135.43 -802.57 1934.8
143.64 -820.80 1978.7
149.37 -824.10 1986.7
156.43 -834.28 2011.2
161.24 -832.23 2006.3
163.71 -793.73 1913.4
172.37 -811.14 1955.4
179.43 -797.46 1922.4
188.35 -814.47 1963.4
212.76 -810.50 1953.9
215.52 -801.92 1933.2
227.53 -791.41 1907.9
233.87 -796.16 1919.3
243.12 -778.00 1875.5
254.22 -797.55 1922.7
259.62 -798.84 1925.8
263.78 -796.33 1919.7
275.77 -774.08 1866.1
286.57 -790.53 1905.7
295.61 -801.65 1932.5
285.02 -760.04 1832.2
312.07 -768.18 1851.9
321.60 -779.63 1879.5
352.64 -806.03 1943.1
358.21 -807.22 1946.0
366.50 -814.45 1963.4
364.38 -798.65 1925.3
360.85 -780.21 1880.9
369.29 -787.81 1899.2
363.19 -745.00 1796.0
377.16 -763.88 1841.5
394.00 -788.00 1899.6
403.32 -796.68 1920.6
389.04 -759.10 1830.0
416.50 -793.34 1912.5
417.95 -777.58 1874.5
412.62 -750.22 1808.6
439.83 -790.70 1906.2
451.50 -802.68 1935.0
437.13 -768.58 1852.8
466.24 -745.99 1798.4
491.81 -779.10 1878.2
483.83 -758.95 1829.6
475.12 -730.96 1762.1
503.56 -767.33 1849.8
506.84 -765.04 1844.3
530.67 -744.81 1795.5
517.74 -720.34 1736.5
536.35 -733.47 1768.2
544.13 -737.81 1778.6
539.63 -725.55 1749.1
575.55 -748.69 1804.9
681.31 -751.78 1812.3
700.68 -767.86 1851.1
700.30 -762.23 1837.5
698.00 -749.53 1806.9
733.93 -782.86 1887.3
742.68 -786.95 1897.1
711.31 -720.31 1736.5
750.88 -737.06 1776.8
741.35 -723.26 1743.6
839.64 -772.09 1861.3
816.31 -746.34 1799.2
812.87 -730.67 1761.4
837.22 -748.35 1804.1
833.25 -740.67 1785.5
832.47 -727.84 1754.6
878.62 -764.02 1841.8
869.65 -752.13 1813.2
864.22 -743.41 1792.2
864.82 -739.95 1783.8
887.63 -743.57 1792.5
915.28 -762.74 1838.7
899.50 -745.70 1797.7
894.90 -738.07 1779.3
902.90 -737.06 1776.8
913.92 -742.27 1789.4
936.56 -756.82 1824.5
903.42 -726.37 1751.1
909.57 -709.91 1711.4
912.70 -705.47 1700.7
956.81 -736.01 1774.3
967.65 -740.78 1785.8
1006.61 -749.10 1805.9
1001.08 -738.12 1779.4
998.23 -732.64 1766.2
1016.51 -722.85 1742.6
1024.45 -722.08 1740.7
1070.10 -750.95 1810.3
1036.20 -723.99 1745.3
990.47 -689.02 1661.0
1003.93 -695.36 1676.3
1038.34 -716.09 1726.3
1039.80 -714.03 1721.3
1038.31 -709.96 1711.5
1052.96 -716.91 1728.3
1055.38 -715.51 1724.9
1117.98 -733.10 1767.3
1104.18 -721.10 1738.4
1178.97 -757.57 1826.3
1161.91 -743.62 1792.7
1146.96 -705.82 1701.5
1164.97 -714.16 1721.6
1146.92 -700.41 1688.5
1205.07 -724.85 1747.4
1195.36 -716.32 1726.8
1161.80 -693.61 1672.1
1228.46 -719.98 1735.7
1252.35 -728.64 1756.5
1198.98 -692.55 1669.5
1208.63 -695.62 1676.9
1286.52 -714.73 1723.0
1292.39 -715.51 1724.9
1293.56 -703.98 1697.1
1351.31 -732.92 1766.8
1283.23 -693.64 1672.2
1300.58 -695.96 1677.8
1316.87 -702.33 1693.1
1375.43 -726.30 1750.9
1370.75 -721.45 1739.2
1386.66 -727.43 1753.6
1434.55 -750.09 1808.3
1480.83 -771.77 1860.5
1498.80 -778.60 1877.0
1481.72 -767.23 1849.6
1457.39 -752.20 1813.3
1466.39 -754.41 1818.7
1495.75 -767.05 1849.1
1472.44 -752.68 1814.5
1495.28 -761.92 1836.8
1538.66 -781.54 1884.1
1500.74 -759.87 1831.8
-1707.29 -883.84 2117.4
-1699.43 -897.08 2149.2
-1717.75 -915.75 2193.9
-1682.84 -903.13 2163.7
-1693.68 -911.98 2184.9
-1689.93 -913.01 2187.3
-1678.63 -909.96 2180.0
-1648.86 -896.85 2148.6
-1612.46 -920.59 2205.5
-1620.16 -931.59 2231.8
-1590.62 -917.88 2199.0
-1602.97 -935.07 2240.2
-1538.69 -910.77 2182.0
-1542.40 -923.15 2211.6
-1520.53 -913.45 2188.4
-189.23 -823.41 1972.7
-141.97 -816.33 1955.7
-98.50 -834.63 1999.6
-84.12 -796.70 1908.7
-81.55 -820.64 1966.0
-63.34 -849.78 2035.9
-35.22 -809.96 1940.4
-20.61 -829.68 1987.7
-10.30 -828.94 1985.9
25.34 -815.79 1954.4
34.48 -793.01 1899.8
74.74 -802.24 1921.9
87.94 -786.62 1884.5
104.63 -802.13 1921.7
146.19 -811.59 1944.4
163.87 -799.49 1915.4
176.99 -838.12 2007.9
180.16 -828.74 1985.4
182.27 -815.14 1952.9
184.47 -802.69 1923.0
190.91 -768.43 1840.9
203.35 -798.53 1913.1
212.86 -815.98 1954.9
212.76 -796.62 1908.5
218.27 -780.91 1870.8
228.42 -799.47 1915.3
243.38 -783.68 1877.5
245.75 -775.81 1858.6
257.17 -796.23 1907.6
265.36 -791.17 1895.4
261.21 -750.97 1799.1
296.27 -794.99 1904.6
294.78 -765.49 1833.9
303.01 -774.36 1855.2
318.66 -777.33 1862.3
338.95 -790.89 1894.8
355.79 -818.32 1960.5
357.01 -798.31 1912.6
352.53 -756.77 1813.0
364.78 -772.75 1851.3
374.85 -783.78 1877.7
372.04 -767.92 1839.7
371.63 -757.37 1814.5
384.44 -773.68 1853.5
390.40 -775.99 1859.1
382.34 -750.69 1798.5
382.74 -742.42 1778.6
391.31 -750.01 1796.8
395.38 -748.90 1794.2
411.13 -769.68 1844.0
430.80 -797.22 1909.9
431.83 -790.05 1892.8
439.65 -795.32 1905.4
448.37 -802.09 1921.6
433.13 -766.31 1835.9
462.35 -751.90 1801.4
488.18 -785.96 1883.0
491.71 -776.12 1859.4
477.11 -745.77 1786.7
470.12 -727.79 1743.6
483.88 -741.95 1777.5
505.91 -768.41 1840.9
509.11 -758.95 1818.2
500.91 -739.87 1772.5
539.40 -748.65 1793.6
547.20 -746.60 1788.7
551.22 -745.77 1786.7
568.67 -756.66 1812.8
580.01 -765.42 1833.7
572.82 -743.75 1781.8
584.10 -717.86 1719.8
654.96 -747.86 1791.7
703.31 -716.66 1716.9
726.04 -735.18 1761.3
765.90 -756.51 1812.4
741.12 -727.56 1743.1
774.99 -733.96 1758.4
815.16 -754.26 1807.0
784.98 -714.02 1710.6
840.12 -751.44 1800.3
818.22 -727.81 1743.6
818.83 -724.35 1735.4
877.95 -772.41 1850.5
855.63 -744.63 1783.9
845.26 -731.65 1752.8
839.66 -722.91 1731.9
884.06 -729.92 1748.7
900.09 -739.36 1771.3
934.12 -763.42 1829.0
940.99 -765.15 1833.1
892.00 -721.66 1728.9
916.38 -719.69 1724.2
901.85 -704.84 1688.6
907.59 -705.90 1691.2
937.84 -725.92 1739.1
972.12 -734.80 1760.4
994.90 -745.02 1784.9
988.37 -733.31 1756.8
982.71 -725.76 1738.7
995.88 -712.61 1707.2
986.50 -699.67 1676.2
1048.27 -740.23 1773.4
1029.71 -723.94 1734.4
1065.62 -714.86 1712.6
1067.52 -701.52 1680.7
1065.18 -697.13 1670.1
1134.43 -730.57 1750.3
1146.52 -735.42 1761.9
1133.35 -724.08 1734.7
1150.62 -732.22 1754.2
1158.10 -734.07 1758.6
1169.76 -738.55 1769.4
1142.28 -718.39 1721.1
1107.72 -688.58 1649.7
1147.25 -710.41 1702.0
1139.31 -702.79 1683.7
1135.54 -697.79 1671.7
1160.36 -704.97 1688.9
1233.81 -746.78 1789.1
1226.34 -739.48 1771.6
1181.56 -709.81 1700.5
1170.60 -700.62 1678.5
1226.58 -723.37 1733.0
1185.32 -696.48 1668.6
1203.74 -699.65 1676.2
1223.92 -708.82 1698.1
1240.29 -710.63 1702.5
1268.49 -724.21 1735.0
1288.96 -733.29 1756.8
1258.75 -708.60 1697.6
1266.27 -710.35 1701.8
1270.88 -698.33 1673.0
1266.88 -693.77 1662.1
1269.18 -692.67 1659.5
1295.16 -704.46 1687.7
1309.66 -709.95 1700.9
1341.61 -724.83 1736.5
1366.70 -735.91 1763.1
1349.31 -724.13 1734.8
1348.78 -716.68 1717.0
1352.28 -716.17 1715.8
1376.99 -726.87 1741.4
1355.12 -712.99 1708.1
1410.10 -734.71 1760.2
1438.06 -746.86 1789.3
1495.97 -774.44 1855.4
1500.85 -774.48 1855.5
1453.59 -747.69 1791.3
1457.76 -747.45 1790.7
1484.80 -758.90 1818.1
1471.51 -749.73 1796.2
1505.89 -764.82 1832.3
1519.80 -769.46 1843.4
-1757.51 -918.44 2186.8
-1687.27 -893.26 2126.8
-1688.76 -902.90 2149.8
-1688.28 -923.99 2200.0
-1704.06 -935.79 2228.1
-1630.05 -898.19 2138.6
-1595.68 -910.21 2167.2
-1579.50 -904.16 2152.8
-1614.23 -927.32 2207.9
-1622.89 -942.32 2243.6
-1607.08 -939.88 2237.8
-331.32 -825.74 1966.0
-305.45 -811.19 1931.4
-226.24 -832.99 1983.3
-213.41 -843.22 2007.7
-206.63 -836.87 1992.5
-202.90 -842.84 2006.8
-196.03 -835.69 1989.7
-190.64 -834.71 1987.4
-136.99 -821.93 1957.0
-126.46 -819.47 1951.1
-122.74 -828.48 1972.6
-96.95 -826.66 1968.2
-90.44 -813.98 1938.1
-84.74 -807.49 1922.6
-81.40 -824.20 1962.4
-77.50 -837.05 1993.0
-62.94 -849.63 2022.9
-50.78 -822.63 1958.7
-40.90 -828.14 1971.8
-14.62 -789.55 1879.9
20.18 -817.41 1946.2
24.81 -803.84 1913.9
29.74 -803.04 1912.0
34.81 -805.72 1918.4
59.64 -805.11 1916.9
73.99 -799.12 1902.7
77.92 -788.99 1878.5
90.57 -815.14 1940.8
100.76 -816.13 1943.2
105.13 -811.01 1931.0
135.23 -782.40 1862.8
145.29 -811.63 1932.4
147.92 -798.75 1901.8
149.87 -758.70 1806.4
156.25 -767.05 1826.3
172.83 -799.94 1904.6
189.13 -851.09 2026.4
185.01 -810.03 1928.6
196.26 -794.85 1892.5
198.88 -785.80 1871.0
197.98 -763.66 1818.2
213.80 -787.16 1874.2
213.04 -766.94 1826.1
225.01 -759.41 1808.1
236.03 -780.36 1858.0
240.90 -780.53 1858.4
242.02 -768.77 1830.4
252.25 -785.84 1871.1
256.52 -784.07 1866.8
277.53 -775.18 1845.7
296.89 -815.19 1940.9
301.25 -813.38 1936.6
299.68 -795.87 1894.9
305.22 -797.51 1898.8
311.97 -802.21 1910.0
312.57 -791.20 1883.8
313.20 -780.59 1858.5
319.93 -785.28 1869.7
328.56 -771.40 1836.7
347.05 -803.18 1912.3
354.05 -807.83 1923.4
348.72 -784.61 1868.1
359.33 -786.65 1873.0
359.98 -777.56 1851.3
361.95 -771.52 1836.9
375.79 -790.61 1882.4
376.65 -782.28 1862.6
386.35 -782.36 1862.8
386.06 -772.13 1838.4
384.34 -750.16 1786.1
406.71 -784.37 1867.5
402.20 -766.55 1825.1
409.96 -772.26 1838.7
429.40 -799.57 1903.7
430.42 -792.36 1886.6
421.16 -766.60 1825.2
421.70 -750.71 1787.4
439.86 -774.54 1844.2
446.38 -777.56 1851.3
429.46 -740.14 1762.2
460.03 -760.46 1810.6
450.20 -736.69 1754.0
477.57 -766.01 1823.8
496.01 -787.79 1875.7
490.08 -770.81 1835.3
491.91 -766.25 1824.4
484.19 -747.04 1778.7
493.67 -733.71 1746.9
501.21 -738.15 1757.5
517.26 -754.93 1797.4
544.28 -760.11 1809.8
575.97 -771.13 1836.0
583.43 -774.72 1844.6
557.11 -722.01 1719.1
585.13 -752.31 1791.2
619.97 -778.56 1853.7
627.98 -770.70 1835.0
591.47 -715.06 1702.5
648.99 -745.65 1775.3
730.08 -743.85 1771.1
765.29 -760.59 1810.9
756.59 -747.36 1779.4
733.43 -720.09 1714.5
785.53 -718.96 1711.8
822.96 -748.99 1783.3
833.95 -754.75 1797.0
826.42 -743.78 1770.9
819.97 -733.89 1747.4
838.54 -746.39 1777.1
872.86 -772.70 1839.8
861.97 -758.91 1806.9
835.67 -727.84 1733.0
850.44 -736.74 1754.1
882.55 -733.19 1745.7
935.06 -738.92 1759.3
954.63 -750.73 1787.5
919.33 -719.48 1713.0
937.04 -716.04 1704.9
983.97 -734.58 1749.0
984.76 -731.80 1742.4
1033.27 -747.28 1779.2
1020.75 -734.94 1749.8
977.20 -700.47 1667.8
987.22 -704.54 1677.5
1033.65 -734.43 1748.7
1046.74 -740.49 1763.1
1023.27 -720.74 1716.0
1018.47 -714.25 1700.6
1032.51 -720.98 1716.6
1107.88 -735.56 1751.3
1114.29 -736.80 1754.3
1112.61 -732.69 1744.5
1107.32 -726.26 1729.2
1080.04 -705.51 1679.8
1072.01 -697.45 1660.6
1103.91 -715.33 1703.2
1137.51 -734.17 1748.0
1148.58 -738.37 1758.0
1181.93 -756.81 1801.9
1189.79 -755.87 1799.7
1137.86 -720.05 1714.4
1119.10 -705.43 1679.6
1157.43 -726.76 1730.4
1155.94 -723.02 1721.5
1137.52 -708.76 1687.5
1177.28 -722.42 1720.0
1174.04 -717.71 1708.8
1179.88 -718.57 1710.9
1221.23 -740.97 1764.2
1227.17 -741.80 1766.2
1149.59 -684.68 1630.2
1213.76 -720.25 1714.9
1208.11 -714.28 1700.7
1246.03 -728.72 1735.1
1245.83 -725.99 1728.5
1255.36 -726.32 1729.3
1240.61 -715.23 1702.9
1254.27 -720.54 1715.6
1320.46 -753.22 1793.4
1253.83 -712.70 1696.9
1280.18 -722.61 1720.5
1278.11 -718.94 1711.8
1328.03 -734.27 1748.3
1350.04 -743.90 1771.2
1290.87 -708.88 1687.8
1285.70 -701.29 1669.7
1328.60 -722.26 1719.7
1347.84 -730.27 1738.7
1324.59 -715.28 1703.0
1342.69 -720.25 1714.9
1366.14 -730.41 1739.1
1388.49 -739.92 1761.7
1399.14 -743.15 1769.4
1378.43 -725.02 1726.2
1424.68 -742.12 1766.9
1401.92 -727.92 1733.1
1410.79 -730.19 1738.5
1476.71 -761.87 1814.0
1528.43 -786.05 1871.6
1497.16 -765.11 1821.7
-1623.12 -864.61 2046.0
-1704.97 -929.47 2199.4
-1672.23 -920.85 2179.1
-1652.66 -925.72 2190.6
-1583.06 -892.87 2112.8
-1629.46 -935.22 2213.1
-1611.52 -931.48 2204.2
-1606.47 -931.87 2205.1
-1635.87 -952.31 2253.5
-1570.74 -924.30 2187.2
-1150.27 -864.03 2044.6
-751.45 -827.61 1958.4
-756.54 -838.88 1985.1
-423.13 -811.41 1920.1
-151.21 -821.57 1944.1
-148.96 -837.24 1981.2
-99.85 -813.80 1925.7
-96.96 -831.77 1968.3
-91.09 -824.86 1951.9
-86.04 -824.94 1952.1
-79.30 -807.91 1911.8
-70.20 -817.38 1934.2
-68.67 -861.02 2037.5
-61.65 -837.35 1981.5
-53.44 -791.87 1873.8
-49.04 -799.32 1891.5
-45.43 -822.71 1946.8
-40.30 -821.19 1943.2
-36.59 -851.97 2016.1
-24.95 -813.50 1925.0
-19.24 -783.94 1855.1
-15.12 -821.32 1943.5
9.97 -812.77 1923.3
14.86 -807.31 1910.4
19.64 -800.29 1893.8
24.26 -790.92 1871.6
28.74 -780.78 1847.6
54.86 -812.89 1923.6
59.78 -812.06 1921.6
76.59 -780.29 1846.4
87.01 -787.92 1864.5
92.01 -789.39 1868.0
96.13 -783.47 1854.0
111.70 -827.60 1958.4
119.31 -810.28 1917.4
132.70 -772.52 1828.0
142.81 -802.68 1899.4
150.14 -815.75 1930.3
150.69 -792.31 1874.9
152.32 -775.87 1836.0
153.67 -759.04 1796.2
185.96 -841.98 1992.4
183.34 -807.68 1911.3
177.77 -762.54 1804.4
184.54 -771.29 1825.1
193.89 -790.11 1869.7
194.60 -773.66 1830.7
224.12 -761.08 1801.0
237.24 -773.42 1830.2
244.34 -780.93 1847.9
250.66 -785.72 1859.3
263.78 -767.79 1816.9
268.95 -769.09 1819.9
273.44 -768.46 1818.4
282.39 -780.16 1846.1
290.06 -787.99 1864.7
292.49 -781.56 1849.4
292.20 -768.20 1817.8
292.94 -757.93 1793.5
302.17 -769.59 1821.1
311.69 -781.62 1849.6
315.28 -778.64 1842.5
325.17 -768.16 1817.7
327.29 -762.11 1803.4
357.22 -797.63 1887.5
362.32 -798.08 1888.5
355.25 -772.08 1827.0
356.46 -754.58 1785.6
368.44 -769.95 1822.0
378.01 -779.95 1845.6
388.63 -791.84 1873.8
387.24 -779.26 1844.0
374.93 -745.29 1763.6
391.97 -769.78 1821.6
411.26 -798.05 1888.5
405.82 -778.22 1841.5
400.34 -758.79 1795.6
404.20 -757.29 1792.0
416.26 -771.02 1824.5
438.19 -776.36 1837.1
450.32 -789.27 1867.7
457.78 -793.80 1878.4
457.10 -784.28 1855.9
492.50 -787.04 1862.4
498.49 -788.87 1866.7
504.26 -790.32 1870.2
499.09 -774.78 1833.4
492.52 -757.36 1792.2
535.37 -779.16 1843.8
535.92 -773.06 1829.3
527.21 -753.81 1783.8
531.80 -747.27 1768.3
527.44 -734.81 1738.8
527.82 -729.11 1725.3
536.33 -734.64 1738.4
581.54 -776.97 1838.6
575.51 -750.47 1775.9
595.56 -764.38 1808.8
616.55 -767.16 1815.4
630.15 -778.15 1841.4
631.77 -774.27 1832.2
648.36 -760.31 1799.1
657.55 -744.31 1761.3
692.47 -762.65 1804.7
690.25 -755.11 1786.9
705.60 -751.72 1778.8
742.97 -761.66 1802.4
745.81 -745.81 1764.8
751.97 -747.38 1768.6
758.01 -722.54 1709.8
785.80 -727.75 1722.1
821.90 -756.89 1791.1
841.48 -770.57 1823.4
833.30 -758.81 1795.6
810.77 -734.20 1737.4
848.96 -756.18 1789.4
845.61 -749.10 1772.6
965.40 -763.88 1807.6
971.76 -757.88 1793.4
962.47 -747.06 1767.8
959.83 -741.48 1754.6
966.04 -732.39 1733.1
964.54 -727.87 1722.4
971.58 -726.46 1719.0
963.49 -717.12 1697.0
1011.30 -735.90 1741.4
992.56 -719.05 1701.5
1007.49 -723.44 1711.9
1033.39 -738.78 1748.2
1027.28 -731.21 1730.3
1037.47 -735.25 1739.9
1066.53 -752.57 1780.8
1033.72 -726.27 1718.6
1038.27 -699.33 1654.9
1073.10 -719.82 1703.3
1097.55 -733.20 1735.0
1078.68 -717.65 1698.2
1111.33 -736.37 1742.5
1139.58 -752.03 1779.6
1120.58 -736.51 1742.8
1121.36 -734.06 1737.0
1103.67 -719.59 1702.8
1110.38 -712.57 1686.2
1134.89 -725.44 1716.6
1133.44 -721.68 1707.8
1167.00 -740.16 1751.5
1158.23 -731.75 1731.6
1111.50 -699.52 1655.3
1146.93 -702.82 1663.1
1191.67 -711.51 1683.7
1206.78 -717.90 1698.8
1238.39 -726.11 1718.2
1264.77 -738.91 1748.5
1283.96 -739.52 1750.0
1299.17 -743.03 1758.3
1270.50 -719.07 1701.6
1236.00 -697.12 1649.6
1315.16 -731.64 1731.3
1304.96 -723.50 1712.0
1301.10 -714.07 1689.7
1326.63 -725.64 1717.1
1327.25 -723.55 1712.2
1334.84 -725.27 1716.2
1359.38 -736.14 1742.0
1378.73 -744.15 1760.9
1398.73 -752.45 1780.6
1400.58 -750.97 1777.0
1389.46 -742.56 1757.2
1428.42 -760.89 1800.5
1481.12 -786.39 1860.9
1501.03 -791.81 1873.7
1465.63 -760.82 1800.4
1508.89 -780.79 1847.6
1511.34 -779.59 1844.8
1446.18 -743.62 1759.7
-1762.70 -926.55 2179.2
-1778.72 -937.97 2206.0
-1701.23 -908.80 2137.4
-1701.87 -936.60 2202.8
-1593.89 -883.10 2077.0
-1570.27 -881.93 2074.2
-1657.90 -934.35 2197.5
-1659.17 -938.29 2206.8
-1654.15 -938.69 2207.7
-1663.86 -947.48 2228.4
-1653.72 -944.98 2222.5
-1620.48 -929.22 2185.5
-1630.66 -938.35 2206.9
-1611.57 -940.56 2212.1
-1572.05 -920.77 2165.6
-1564.28 -919.51 2162.6
-1465.46 -886.85 2085.8
-1520.13 -923.34 2171.6
-1318.30 -854.55 2009.8
-1310.87 -853.11 2006.4
-1279.30 -835.88 1965.9
-1181.14 -827.81 1946.9
-1178.16 -874.29 2056.3
-1148.42 -856.10 2013.5
-1141.60 -858.82 2019.9
-1095.63 -828.04 1947.5
-1111.34 -843.80 1984.5
-1105.01 -846.83 1991.7
-542.88 -847.93 1994.3
-311.98 -825.24 1940.9
-298.16 -828.79 1949.2
-281.23 -809.16 1903.1
-248.52 -769.01 1808.7
-261.76 -825.54 1941.6
-256.93 -842.72 1982.0
-247.21 -827.41 1946.0
-246.33 -841.63 1979.4
-241.15 -841.47 1979.1
-219.67 -818.76 1925.7
-184.59 -840.91 1977.7
-179.33 -840.29 1976.3
-169.31 -841.40 1978.9
-160.02 -820.09 1928.8
-154.16 -815.56 1918.1
-151.85 -830.14 1952.4
-123.37 -843.01 1982.7
-116.87 -833.36 1960.0
-95.12 -866.68 2038.4
-89.77 -865.98 2036.7
-82.66 -847.30 1992.8
-76.04 -831.34 1955.2
-73.68 -863.08 2029.9
-60.76 -830.36 1952.9
-45.13 -822.29 1934.0
-35.62 -834.49 1962.7
-29.21 -798.53 1878.1
-19.53 -800.92 1883.7
-14.97 -818.16 1924.2
-9.97 -817.78 1923.3
4.91 -805.65 1894.8
15.08 -824.42 1939.0
19.84 -813.44 1913.2
24.24 -795.03 1869.9
38.74 -794.16 1867.8
43.71 -796.47 1873.2
48.40 -793.69 1866.7
53.47 -797.16 1874.9
66.83 -782.92 1841.4
88.04 -802.18 1886.7
112.87 -804.84 1892.9
120.11 -820.75 1930.3
121.05 -794.07 1867.6
141.99 -802.95 1888.5
148.00 -809.06 1902.9
149.81 -792.53 1864.0
152.56 -781.86 1838.9
163.81 -814.09 1914.7
177.83 -833.28 1959.8
181.76 -828.04 1947.5
181.06 -802.53 1887.5
177.25 -764.95 1799.1
188.45 -792.45 1863.8
200.94 -803.78 1890.4
190.34 -743.24 1748.0
214.04 -780.04 1834.6
223.21 -795.79 1871.6
228.11 -795.97 1872.1
225.28 -769.71 1810.3
227.71 -762.12 1792.4
237.26 -778.23 1830.3
243.63 -783.44 1842.6
249.45 -786.71 1850.3
255.42 -790.36 1858.9
261.96 -753.72 1772.7
268.67 -759.68 1786.7
281.29 -781.90 1839.0
292.63 -799.85 1881.2
308.15 -765.70 1800.9
347.63 -780.99 1836.8
349.82 -775.27 1823.4
375.72 -770.23 1811.5
397.90 -805.62 1894.7
385.60 -761.91 1791.9
410.96 -765.87 1801.3
427.89 -788.47 1854.4
431.85 -786.94 1850.8
421.37 -759.40 1786.0
425.36 -758.26 1783.4
461.60 -757.02 1780.4
472.05 -766.50 1802.7
481.67 -774.44 1821.4
487.20 -768.27 1806.9
499.87 -780.75 1836.3
510.72 -790.17 1858.4
519.38 -774.35 1821.2
514.06 -759.52 1786.3
508.83 -745.08 1752.4
520.36 -755.21 1776.2
529.46 -755.06 1775.8
538.27 -761.01 1789.8
533.71 -748.10 1759.5
533.06 -740.86 1742.4
539.42 -743.41 1748.4
554.62 -757.98 1782.7
563.59 -739.43 1739.1
571.76 -744.19 1750.3
574.46 -741.83 1744.7
610.73 -782.50 1840.4
626.41 -766.65 1803.1
612.86 -744.51 1751.0
629.24 -742.42 1746.1
676.09 -780.84 1836.5
739.34 -767.42 1804.9
780.44 -748.50 1760.4
788.91 -752.21 1769.1
788.27 -734.52 1727.5
818.14 -758.05 1782.9
832.61 -767.12 1804.2
814.57 -746.31 1755.3
817.31 -736.48 1732.1
834.29 -747.67 1758.5
885.42 -756.30 1778.7
885.04 -752.06 1768.8
876.22 -740.72 1742.1
912.70 -752.18 1769.1
906.54 -743.36 1748.3
959.88 -753.20 1771.5
960.41 -750.04 1764.0
961.37 -747.22 1757.4
933.40 -722.07 1698.2
970.35 -740.17 1740.8
955.59 -725.54 1706.4
1002.12 -740.31 1741.1
996.25 -732.67 1723.2
1045.01 -741.91 1744.9
1045.06 -726.23 1708.0
1043.99 -722.42 1699.1
1076.05 -729.22 1715.1
1074.86 -725.42 1706.1
1098.18 -729.15 1714.9
1129.48 -746.91 1756.7
1125.70 -741.42 1743.8
1105.47 -725.19 1705.6
1080.60 -697.71 1641.0
1113.33 -716.03 1684.0
1118.60 -705.58 1659.5
1193.25 -744.08 1750.0
1217.28 -756.19 1778.5
1202.94 -744.46 1750.9
1202.43 -741.35 1743.6
1193.29 -732.96 1723.9
1198.35 -706.94 1662.7
1230.15 -723.10 1700.7
1213.76 -710.91 1672.0
1213.59 -705.78 1659.9
1240.61 -718.94 1690.9
1231.84 -711.34 1673.0
1253.36 -721.23 1696.3
1255.23 -719.79 1692.9
1223.30 -694.19 1632.7
1244.94 -704.04 1655.8
1248.98 -703.89 1655.5
1266.80 -701.88 1650.8
1297.41 -716.41 1684.9
1292.75 -709.07 1667.7
1312.49 -717.49 1687.5
1304.29 -710.64 1671.4
1286.10 -698.41 1642.6
1331.08 -720.45 1694.4
1359.21 -733.26 1724.6
1434.73 -766.43 1802.6
1496.73 -791.82 1862.3
1473.03 -776.77 1826.9
1465.33 -770.24 1811.5
1455.18 -762.46 1793.2
1479.15 -772.55 1817.0
1497.18 -779.48 1833.3
1477.34 -766.72 1803.3
1438.09 -743.99 1749.8
-1767.08 -925.61 2163.8
-1785.60 -941.29 2200.4
-1738.36 -919.33 2149.1
-1754.42 -930.80 2175.9
-1663.50 -902.88 2110.6
-1663.40 -917.93 2145.8
-1676.49 -928.26 2170.0
-1592.43 -884.69 2068.1
-1575.92 -893.56 2088.8
-1604.67 -913.00 2134.3
-1626.44 -928.59 2170.7
-1615.26 -925.41 2163.3
-1584.91 -911.18 2130.0
-1622.82 -936.24 2188.6
-1592.68 -938.55 2194.0
-1551.64 -917.64 2145.1
-1553.30 -921.92 2155.1
-1536.85 -932.28 2179.4
-1535.37 -945.28 2209.8
-1445.27 -896.50 2095.7
-1405.84 -885.35 2069.7
-1329.96 -853.87 1996.1
-1347.34 -871.81 2038.0
-1314.48 -853.89 1996.1
-1325.14 -864.22 2020.3
-1301.21 -851.99 1991.7
-1255.83 -825.54 1929.8
-1253.67 -827.42 1934.2
-1217.88 -820.20 1917.4
-1197.21 -816.28 1908.2
-1135.04 -821.41 1920.2
-1197.52 -874.30 2043.8
-1145.61 -855.32 1999.4
-1111.82 -833.87 1949.3
-1130.99 -852.12 1992.0
-1113.55 -842.83 1970.2
-1082.42 -823.04 1924.0
-1062.96 -823.42 1924.9
-978.49 -783.74 1832.1
-993.77 -832.34 1945.7
-784.63 -835.25 1952.5
-728.28 -852.24 1992.3
-671.30 -852.04 1991.8
-653.69 -842.65 1969.8
-559.65 -831.92 1944.7
-532.93 -837.47 1957.7
-505.90 -851.77 1991.2
-482.53 -820.80 1918.8
-438.50 -812.96 1900.4
-313.45 -834.18 1950.0
-258.95 -806.16 1884.5
-255.39 -842.78 1970.1
-240.87 -828.01 1935.6
-238.70 -838.00 1959.0
-232.38 -833.53 1948.5
-230.58 -845.47 1976.4
-218.53 -819.47 1915.7
-206.88 -793.85 1855.8
-213.87 -840.22 1964.2
-206.73 -852.75 1993.4
-196.14 -829.83 1939.9
-190.88 -828.84 1937.5
-174.09 -820.72 1918.6
-172.14 -835.39 1952.9
-166.80 -833.98 1949.6
-157.74 -813.35 1901.3
-147.58 -811.67 1897.4
-143.58 -816.91 1909.7
-109.50 -821.27 1919.8
-92.51 -847.97 1982.3
-86.89 -843.34 1971.4
-83.31 -859.14 2008.4
-73.18 -862.43 2016.1
-65.94 -836.94 1956.5
-44.08 -808.05 1889.0
-35.57 -838.40 1959.9
-30.02 -825.46 1929.6
-25.32 -835.71 1953.6
-19.42 -801.12 1872.8
24.62 -812.51 1899.4
33.92 -799.47 1868.9
38.89 -802.19 1875.3
62.66 -795.27 1859.1
66.57 -784.60 1834.1
88.60 -812.21 1898.7
92.39 -802.30 1875.5
117.37 -806.92 1886.3
123.55 -815.44 1906.2
134.92 -795.06 1858.6
144.41 -821.62 1920.7
147.01 -808.53 1890.1
149.22 -769.42 1798.7
160.68 -803.40 1878.1
170.20 -825.98 1930.9
172.01 -810.93 1895.7
173.99 -797.44 1864.1
171.05 -762.80 1783.2
184.02 -778.53 1819.9
196.76 -811.64 1897.3
194.05 -780.92 1825.5
189.37 -743.95 1739.1
203.61 -763.54 1784.9
216.08 -792.29 1852.1
221.15 -793.26 1854.4
221.00 -775.85 1813.7
244.17 -774.78 1811.2
257.82 -802.64 1876.3
272.12 -774.13 1809.7
289.39 -809.32 1891.9
293.86 -782.04 1828.2
310.51 -776.27 1814.7
306.27 -754.24 1763.1
306.56 -743.86 1738.9
317.77 -759.88 1776.3
318.96 -751.83 1757.5
324.72 -754.64 1764.1
338.56 -754.89 1764.7
343.90 -736.93 1722.7
390.33 -795.13 1858.7
394.98 -794.77 1857.9
388.00 -727.51 1700.7
429.79 -796.80 1862.6
433.99 -795.64 1859.9
423.33 -767.58 1794.3
434.20 -778.72 1820.4
448.22 -795.22 1859.0
464.14 -758.25 1772.5
475.34 -768.92 1797.5
480.21 -769.27 1798.3
470.54 -739.41 1728.5
476.79 -721.74 1687.2
506.50 -759.74 1776.0
508.24 -755.50 1766.1
522.06 -769.11 1797.9
526.34 -748.68 1750.2
549.19 -755.14 1765.3
567.28 -773.56 1808.3
554.58 -726.24 1697.7
589.91 -766.42 1791.6
597.08 -769.67 1799.2
581.65 -743.97 1739.1
612.88 -766.10 1790.9
614.38 -762.20 1781.8
614.31 -756.43 1768.3
623.98 -762.64 1782.8
633.10 -768.10 1795.6
635.44 -765.32 1789.1
609.63 -728.91 1703.9
653.73 -765.01 1788.3
650.78 -735.47 1719.3
680.88 -764.25 1786.6
677.35 -755.15 1765.3
720.06 -751.96 1757.8
747.43 -775.64 1813.2
744.47 -744.47 1740.3
741.38 -736.91 1722.7
784.73 -757.19 1770.1
773.48 -742.00 1734.6
800.80 -750.75 1755.0
834.59 -778.01 1818.7
841.32 -779.88 1823.1
