ply
format ascii 1.0
element vertex 2280
property float x
property float y
property float z
end_header
944.27 817.60 2220.9
948.12 815.95 2216.4
641.43 837.42 2290.8
653.29 837.40 2290.8
640.04 813.03 2224.1
646.46 813.85 2226.3
642.28 801.43 2192.4
641.14 792.99 2169.3
666.58 817.28 2235.7
683.64 830.97 2273.2
670.19 807.66 2209.4
657.80 786.02 2150.2
660.72 782.87 2141.6
666.96 783.68 2143.8
668.69 779.21 2131.6
658.96 761.58 2083.4
677.59 764.32 2090.8
677.85 758.55 2075.1
673.31 747.53 2044.9
693.02 763.41 2088.3
713.53 779.91 2133.5
715.85 776.42 2123.9
708.99 763.12 2087.6
721.86 771.08 2109.3
729.27 773.14 2115.0
692.98 729.18 1994.7
690.50 710.66 1944.0
713.18 728.69 1993.4
751.80 762.62 2086.2
776.01 781.55 2138.0
765.38 765.38 2093.8
747.36 742.10 2030.1
767.84 757.10 2071.1
794.13 777.59 2127.1
788.38 766.63 2097.2
798.57 771.22 2109.7
779.14 732.39 2003.5
768.88 717.96 1964.0
793.49 736.06 2013.5
813.09 749.31 2049.8
840.22 769.29 2104.4
843.01 761.96 2084.4
802.02 720.29 1970.4
799.29 713.29 1951.3
817.78 725.20 1983.8
862.18 759.79 2078.5
877.75 763.97 2089.9
958.31 823.91 2253.9
949.92 811.75 2220.6
940.25 798.65 2184.8
961.31 811.65 2220.3
641.83 824.37 2271.2
616.77 784.98 2162.7
612.34 772.32 2127.8
626.43 783.03 2157.3
641.18 794.39 2188.6
658.77 809.01 2228.9
659.81 803.25 2213.0
653.15 788.29 2171.8
680.57 814.36 2243.6
695.77 818.55 2255.2
682.07 795.75 2192.4
691.26 799.80 2203.5
685.68 786.85 2167.8
666.72 758.87 2090.8
682.10 770.12 2121.7
708.99 794.07 2187.8
701.56 779.51 2147.6
710.78 783.54 2158.7
708.84 763.36 2103.1
698.58 746.58 2056.9
709.54 752.54 2073.3
729.52 767.91 2115.7
704.67 736.23 2028.4
710.65 726.21 2000.8
764.72 775.80 2137.4
764.24 769.74 2120.7
747.53 747.53 2059.5
756.86 751.49 2070.4
757.07 746.41 2056.4
729.91 714.60 1968.8
729.00 703.86 1939.2
763.96 732.57 2018.3
812.45 773.76 2131.8
807.52 753.69 2076.5
804.32 745.73 2054.6
837.84 771.69 2126.1
816.48 747.10 2058.3
802.18 729.26 2009.2
820.17 740.80 2041.0
791.04 709.90 1955.9
785.81 700.72 1930.6
816.04 723.08 1992.2
824.87 726.30 2001.0
861.35 753.68 2076.5
953.43 813.90 2242.4
963.29 817.33 2251.8
972.43 820.12 2259.5
959.36 804.26 2215.8
981.34 817.78 2253.1
622.02 815.66 2263.4
620.70 806.32 2237.5
656.97 837.79 2324.8
637.98 806.18 2237.1
640.51 802.08 2225.7
645.09 800.61 2221.6
650.45 800.11 2220.2
663.56 809.08 2245.1
659.78 797.47 2212.9
665.91 797.94 2214.2
671.35 777.65 2157.9
665.46 764.46 2121.3
692.48 788.97 2189.3
706.02 797.86 2214.0
695.07 779.15 2162.1
696.12 774.08 2148.0
700.91 773.23 2145.7
723.15 791.48 2196.3
714.81 764.30 2120.9
704.89 747.94 2075.5
709.16 746.76 2072.2
720.50 753.00 2089.5
711.72 738.28 2048.7
693.69 714.24 1982.0
687.61 702.78 1950.2
718.47 728.96 2022.8
757.31 762.80 2116.7
741.37 741.37 2057.2
734.51 729.27 2023.7
752.87 742.19 2059.5
752.73 736.82 2044.6
723.86 703.61 1952.5
726.95 692.10 1920.5
777.61 735.29 2040.4
808.43 759.27 2106.9
784.57 731.91 2031.0
747.64 692.81 1922.5
750.99 691.31 1918.3
774.83 708.57 1966.2
790.00 708.45 1965.9
786.63 700.91 1945.0
803.90 711.74 1975.0
823.11 724.13 2009.4
818.96 715.95 1986.7
808.16 702.09 1948.2
816.56 704.98 1956.3
868.72 745.38 2068.4
928.86 787.26 2184.6
965.84 813.65 2257.8
958.49 802.59 2227.1
665.36 882.88 2467.7
613.59 791.36 2211.9
620.74 793.17 2216.9
666.90 829.11 2317.4
649.28 800.01 2236.0
647.75 791.06 2211.0
654.42 792.19 2214.2
662.98 795.58 2223.7
681.13 810.31 2264.8
683.54 806.22 2253.4
660.15 772.04 2157.9
658.89 764.09 2135.7
656.97 755.51 2111.7
656.90 749.20 2094.0
689.29 779.69 2179.3
692.46 776.91 2171.5
672.13 748.01 2090.7
682.05 752.98 2104.6
694.97 761.16 2127.5
689.35 749.06 2093.6
691.31 745.32 2083.2
708.24 757.65 2117.7
711.42 755.20 2110.8
710.29 748.25 2091.4
724.10 757.01 2115.9
747.28 775.38 2167.2
752.05 774.50 2164.7
731.76 748.02 2090.7
725.93 736.61 2058.8
703.78 708.91 1981.4
700.47 695.43 1943.7
718.56 708.30 1979.7
743.98 728.15 2035.2
753.28 732.06 2046.1
792.61 764.90 2137.9
764.77 727.85 2034.4
751.99 710.79 1986.7
758.59 712.14 1990.5
741.07 690.99 1931.3
755.06 699.32 1954.6
757.12 696.55 1946.9
793.14 710.74 1986.5
837.28 745.45 2083.6
843.43 746.11 2085.4
849.21 746.44 2086.3
854.29 746.15 2085.5
866.22 751.82 2101.3
870.59 750.88 2098.7
820.80 703.54 1966.4
813.45 692.93 1936.8
871.76 738.05 2062.9
963.37 796.08 2225.1
953.51 783.24 2189.2
667.66 871.13 2452.6
623.67 798.54 2248.2
613.05 777.67 2189.5
645.12 810.84 2282.9
658.17 819.71 2307.9
630.24 777.86 2190.0
636.84 779.00 2193.2
658.89 798.83 2249.1
640.96 770.28 2168.7
625.62 745.30 2098.4
650.29 768.01 2162.3
657.40 769.77 2167.2
647.63 751.91 2116.9
657.72 757.20 2131.9
687.28 784.65 2209.1
682.62 760.32 2140.6
683.43 743.10 2092.1
711.79 767.84 2161.8
699.89 749.10 2109.0
703.66 747.30 2104.0
713.46 751.88 2116.9
719.05 751.98 2117.2
718.19 745.40 2098.6
724.66 746.45 2101.6
748.56 765.32 2154.7
749.22 760.32 2140.6
749.80 755.32 2126.5
733.81 733.81 2066.0
702.21 697.12 1962.7
699.37 689.31 1940.7
718.12 702.73 1978.5
742.57 721.51 2031.4
744.00 717.80 2020.9
776.37 743.80 2094.1
806.73 762.22 2146.0
767.32 720.02 2027.2
749.33 698.36 1966.2
743.64 688.37 1938.1
768.61 706.70 1989.7
803.43 733.80 2066.0
806.07 731.34 2059.0
777.00 700.32 1971.7
785.34 703.21 1979.8
822.94 732.09 2061.2
847.44 749.03 2108.8
853.64 749.68 2110.7
857.34 748.13 2106.3
869.66 754.07 2123.0
849.94 723.24 2036.2
810.71 685.60 1930.3
833.90 700.88 1973.3
883.31 737.89 2077.5
952.25 790.66 2226.0
980.76 799.79 2251.7
626.43 796.21 2258.2
621.18 782.23 2218.5
647.41 807.78 2291.0
653.47 807.93 2291.4
636.22 779.51 2210.8
650.80 790.25 2241.3
655.93 789.44 2239.0
621.58 741.53 2103.1
656.51 769.70 2183.0
662.57 770.17 2184.3
652.27 751.77 2132.1
661.84 756.39 2145.2
690.33 782.38 2218.9
705.27 792.70 2248.2
684.90 763.49 2165.4
691.49 764.57 2168.4
693.45 760.55 2157.0
698.38 747.88 2121.1
707.58 751.80 2132.2
703.28 741.44 2102.8
707.02 739.65 2097.8
717.14 744.51 2111.5
717.80 739.55 2097.5
706.02 721.95 2047.5
708.64 719.21 2039.8
717.17 722.48 2049.1
726.06 726.06 2059.2
758.49 752.96 2135.5
772.42 761.22 2158.9
737.53 721.62 2046.6
727.39 706.61 2004.0
747.03 720.54 2043.5
743.56 712.14 2019.7
744.92 708.46 2009.3
766.50 723.91 2053.1
792.95 743.73 2109.3
809.23 753.80 2137.9
777.61 719.42 2040.4
759.49 697.91 1979.4
772.92 705.49 2000.9
795.40 721.17 2045.3
805.61 725.59 2057.9
785.57 702.88 1993.5
802.37 713.22 2022.8
849.95 750.61 2128.8
853.36 748.76 2123.6
839.28 731.68 2075.2
828.57 717.74 2035.6
823.79 709.09 2011.1
814.91 697.03 1976.9
805.85 680.72 1930.6
821.96 690.04 1957.1
824.86 688.23 1951.9
850.81 705.55 2001.0
865.75 713.59 2023.8
885.30 725.30 2057.1
968.52 784.04 2223.7
981.09 789.52 2239.2
658.42 862.98 2465.6
644.14 805.17 2300.5
665.66 816.95 2334.1
645.35 784.88 2242.5
654.99 789.49 2255.7
655.63 783.27 2237.9
637.36 754.77 2156.5
651.76 765.11 2186.0
669.68 766.17 2189.0
658.42 746.95 2134.1
668.87 752.48 2149.9
666.62 743.75 2125.0
658.23 728.37 2081.1
676.15 742.12 2120.3
705.22 761.64 2176.1
674.62 711.51 2032.9
712.23 745.35 2129.6
707.24 734.44 2098.4
708.21 729.83 2085.2
710.34 726.48 2075.7
698.18 708.68 2024.8
706.98 712.25 2035.0
721.77 721.77 2062.2
713.01 707.77 2022.2
725.35 714.76 2042.2
771.38 754.61 2156.0
770.27 748.11 2137.4
748.66 721.92 2062.6
759.96 727.62 2078.9
752.30 715.22 2043.5
749.76 707.81 2022.3
774.36 725.96 2074.2
805.56 750.00 2142.9
813.85 752.53 2150.1
775.80 712.47 2035.6
750.84 684.89 1956.8
755.67 684.66 1956.2
760.48 684.43 1955.5
751.43 671.80 1919.4
760.33 675.29 1929.4
807.50 712.50 2035.7
845.62 741.29 2118.0
839.43 731.12 2088.9
798.15 690.71 1973.5
785.06 670.78 1916.5
812.59 689.93 1971.2
801.34 676.13 1931.8
821.44 688.79 1968.0
848.33 706.94 2019.8
862.12 714.02 2040.1
881.20 725.38 2072.5
886.19 725.07 2071.6
878.39 714.35 2041.0
976.42 779.98 2228.5
663.86 816.13 2349.2
639.63 779.19 2242.9
621.70 750.52 2160.3
632.73 757.02 2179.0
654.25 775.84 2233.2
656.93 772.18 2222.7
661.73 771.06 2219.5
669.26 753.63 2169.3
659.78 736.76 2120.7
673.08 745.39 2145.6
679.62 746.46 2148.7
683.00 744.08 2141.8
708.71 765.87 2204.5
705.74 756.56 2177.7
652.52 693.95 1997.5
683.19 715.22 2058.7
699.50 726.61 2091.5
671.66 692.32 1992.8
701.70 717.77 2066.1
736.39 747.54 2151.8
720.68 726.10 2090.1
724.95 724.95 2086.7
740.50 735.02 2115.7
731.85 721.09 2075.6
728.10 712.16 2049.9
755.93 734.02 2112.8
775.66 747.76 2152.4
775.47 742.23 2136.5
769.98 731.75 2106.3
747.26 705.16 2029.8
758.56 710.82 2046.1
800.53 744.93 2144.3
798.10 737.56 2123.0
767.97 704.85 2028.9
743.16 677.44 1950.0
769.94 678.76 1953.8
787.37 689.59 1985.0
792.93 689.95 1986.0
827.25 715.17 2058.6
824.05 707.84 2037.5
787.06 667.50 1921.4
821.87 692.64 1993.7
816.86 684.12 1969.2
830.45 691.18 1989.5
852.24 704.94 2029.2
893.49 734.52 2114.3
946.29 773.19 2225.6
951.62 772.83 2224.6
977.47 775.04 2230.9
659.75 843.71 2446.9
673.42 853.00 2473.8
646.90 796.64 2310.3
620.59 750.34 2176.1
642.12 769.38 2231.3
652.00 774.25 2245.4
671.82 790.72 2293.2
660.92 771.07 2236.2
654.08 756.46 2193.8
676.58 775.73 2249.7
690.41 778.17 2256.8
674.24 753.56 2185.4
664.78 736.80 2136.8
679.26 746.62 2165.3
674.67 735.50 2133.0
667.33 721.59 2092.7
691.49 741.68 2151.0
688.10 732.14 2123.3
669.52 706.72 2049.6
685.96 718.36 2083.3
672.32 698.58 2026.0
705.88 716.65 2078.4
738.77 744.36 2158.7
721.20 721.20 2091.6
716.43 711.08 2062.2
722.19 711.49 2063.4
739.34 723.03 2096.9
764.92 742.58 2153.6
763.52 735.86 2134.1
752.36 719.88 2087.7
769.53 731.06 2120.1
780.33 736.05 2134.6
768.17 719.48 2086.6
792.84 737.39 2138.5
791.64 726.12 2105.8
772.90 704.08 2041.9
761.65 689.11 1998.5
759.41 682.45 1979.2
776.98 693.54 2011.4
797.10 706.76 2049.7
819.13 721.49 2092.4
813.42 711.75 2064.1
800.56 695.91 2018.2
807.26 697.18 2021.9
847.00 726.78 2107.7
861.20 729.55 2115.8
821.55 691.56 2005.6
798.84 668.21 1937.9
824.37 685.25 1987.3
870.67 719.25 2085.9
871.29 715.31 2074.5
889.28 725.61 2104.3
930.90 754.94 2189.4
947.81 759.39 2202.3
973.92 775.64 2249.4
962.53 762.01 2209.9
973.93 766.47 2222.8
651.21 851.08 2486.9
655.30 831.72 2430.4
669.44 841.58 2459.2
615.62 752.43 2198.7
608.28 729.94 2132.9
639.44 760.41 2222.0
659.10 776.80 2269.9
677.03 783.93 2290.7
657.01 754.13 2203.6
668.87 761.12 2224.1
682.75 770.28 2250.8
675.34 755.47 2207.5
682.86 757.46 2213.4
697.74 767.52 2242.7
663.82 724.17 2116.1
684.72 728.90 2129.9
688.89 727.47 2125.7
678.27 710.57 2076.4
679.61 706.37 2064.1
706.39 711.78 2079.9
707.88 707.88 2068.5
696.29 691.06 2019.3
697.89 687.48 2008.9
715.79 699.89 2045.1
747.15 725.17 2119.0
782.34 748.33 2186.7
772.26 733.37 2143.0
790.54 745.37 2178.0
791.08 735.37 2148.8
784.13 723.81 2115.0
774.69 710.13 2075.1
763.04 694.63 2029.8
759.62 686.78 2006.8
764.56 686.55 2006.1
778.72 694.53 2029.5
794.34 703.71 2056.3
811.82 714.40 2087.5
818.66 715.65 2091.2
797.57 692.63 2023.9
799.01 689.34 2014.3
821.25 703.93 2056.9
831.96 708.50 2070.3
832.71 704.60 2058.9
845.62 710.97 2077.5
839.47 701.33 2049.3
825.91 685.66 2003.6
859.28 708.90 2071.5
898.10 731.79 2138.3
884.32 716.14 2092.6
887.50 714.33 2087.3
946.95 753.00 2200.3
641.91 793.31 2335.8
626.57 753.04 2217.2
619.94 738.29 2173.8
616.51 727.60 2142.3
633.87 741.40 2183.0
655.70 760.15 2238.2
669.17 768.96 2264.1
667.82 760.73 2239.9
652.38 736.73 2169.2
639.08 715.55 2106.8
652.46 724.35 2132.8
679.15 747.64 2201.3
700.51 764.73 2251.6
671.71 727.22 2141.2
648.94 691.15 2035.0
691.33 730.36 2150.5
686.16 719.10 2117.3
687.93 715.22 2105.9
703.32 725.47 2136.1
684.08 700.11 2061.4
672.03 682.45 2009.4
688.62 693.92 2043.2
711.18 711.18 2094.0
711.16 705.77 2078.1
697.41 686.92 2022.6
711.83 695.89 2049.0
746.50 724.39 2132.9
746.41 718.97 2116.9
741.46 708.99 2087.5
767.18 728.26 2144.3
780.56 735.63 2166.0
787.53 736.90 2169.7
788.96 733.00 2158.2
780.12 719.69 2119.0
776.07 710.95 2093.3
761.23 692.51 2039.0
745.14 673.19 1982.1
758.13 680.24 2002.9
780.37 695.44 2047.6
782.68 692.77 2039.8
785.97 691.02 2034.6
767.81 670.55 1974.4
778.33 662.08 1949.4
787.72 665.75 1960.2
797.88 670.01 1972.8
818.16 682.67 2010.0
851.26 705.79 2078.1
873.02 719.28 2117.8
841.22 688.75 2027.9
813.06 661.56 1947.9
869.53 703.13 2070.3
925.79 744.04 2190.7
933.67 745.80 2195.9
955.08 758.28 2232.7
957.03 755.25 2223.7
966.52 758.17 2232.3
664.81 839.08 2489.6
606.85 744.26 2208.2
621.40 747.99 2219.3
646.43 770.98 2287.5
635.53 751.08 2228.5
638.01 747.22 2217.0
660.34 766.46 2274.1
653.51 751.82 2230.7
639.72 729.51 2164.5
654.17 739.49 2194.1
654.49 733.49 2176.3
643.41 714.90 2121.1
658.23 725.17 2151.6
662.81 724.08 2148.4
664.26 719.61 2135.1
676.75 727.09 2157.3
666.67 710.39 2107.7
661.85 699.51 2075.5
673.47 706.06 2094.9
674.92 701.91 2082.6
686.05 707.83 2100.2
713.06 729.90 2165.6
706.77 717.81 2129.8
694.57 699.95 2076.8
711.32 711.32 2110.5
729.46 723.89 2147.8
727.09 716.08 2124.6
710.33 694.31 2060.0
722.34 700.78 2079.2
754.59 726.64 2156.0
749.48 716.41 2125.6
735.29 697.72 2070.2
750.06 706.58 2096.4
771.09 721.16 2139.7
787.11 730.89 2168.6
795.51 723.19 2145.7
764.44 690.12 2047.6
750.69 673.03 1996.9
768.11 683.93 2029.3
796.20 704.13 2089.2
804.75 706.87 2097.3
828.45 722.81 2144.6
831.97 721.04 2139.3
801.37 689.92 2047.0
797.28 681.88 2023.2
787.80 669.38 1986.1
781.69 659.87 1957.9
796.45 667.99 1981.9
813.46 677.88 2011.3
843.55 698.48 2072.4
889.99 727.67 2159.0
839.60 682.18 2024.0
844.51 681.90 2023.2
937.05 751.95 2231.1
935.72 746.28 2214.2
879.74 697.35 2069.1
941.45 741.75 2200.8
976.66 760.27 2255.8
647.60 827.13 2473.1
650.23 822.34 2458.8
628.99 765.47 2288.8
645.99 778.81 2328.7
646.75 772.51 2309.8
633.45 749.67 2241.5
636.51 746.46 2231.9
654.80 760.98 2275.4
663.21 763.87 2284.0
641.94 732.83 2191.2
624.53 706.71 2113.1
635.32 712.66 2130.9
655.79 729.29 2180.6
664.61 732.77 2191.0
662.05 723.76 2164.1
650.09 704.72 2107.1
653.42 702.42 2100.3
667.83 711.99 2128.9
653.65 691.15 2066.6
674.22 684.84 2047.7
692.26 697.67 2086.1
705.04 705.04 2108.1
703.61 698.19 2087.6
703.30 692.56 2070.8
722.67 706.24 2111.7
729.79 707.84 2116.5
717.85 691.06 2066.3
726.77 694.47 2076.5
750.64 712.00 2128.9
767.09 722.30 2159.7
749.94 701.03 2096.1
738.64 685.50 2049.7
757.71 698.18 2087.6
780.56 714.13 2135.3
798.36 725.27 2168.6
786.44 709.45 2121.3
791.33 708.90 2119.6
813.00 723.29 2162.7
785.54 694.07 2075.3
770.24 675.93 2021.0
786.50 685.53 2049.8
816.64 707.02 2114.0
839.16 716.90 2143.5
833.53 707.41 2115.2
821.44 692.59 2070.9
807.37 676.30 2022.2
815.87 679.01 2030.3
852.33 704.81 2107.4
892.25 728.48 2178.2
852.73 691.84 2068.6
853.35 688.01 2057.2
910.96 729.90 2182.4
898.03 710.71 2125.0
946.98 735.91 2200.4
649.00 814.43 2454.2
633.68 779.91 2350.2
628.63 766.33 2309.3
625.91 755.82 2277.6
649.77 777.29 2342.3
642.71 754.75 2274.3
645.60 751.24 2263.8
629.72 726.16 2188.2
621.24 703.70 2120.5
640.11 718.72 2165.8
628.70 699.77 2108.7
626.62 691.44 2083.6
658.72 720.65 2171.6
681.48 739.24 2227.6
661.79 711.85 2145.1
657.28 701.10 2112.7
695.99 736.25 2218.6
705.00 739.68 2228.9
669.74 696.97 2100.2
675.89 681.22 2052.8
680.14 680.14 2049.5
688.29 682.96 2058.0
682.78 672.27 2025.8
675.57 660.10 1989.1
687.96 667.11 2010.3
718.17 691.18 2082.8
730.25 697.55 2102.0
727.59 689.87 2078.8
740.37 696.82 2099.8
745.90 696.90 2100.0
718.96 666.86 2009.5
725.89 668.44 2014.3
764.10 698.61 2105.2
763.41 693.02 2088.3
757.68 682.98 2058.1
771.06 690.18 2079.8
801.23 712.21 2146.2
812.55 717.29 2161.5
772.21 677.01 2040.1
740.50 644.79 1943.0
762.47 655.01 1973.8
782.90 668.08 2013.2
790.27 669.90 2018.7
796.62 670.84 2021.5
796.98 666.76 2009.2
796.58 662.09 1995.1
800.38 660.96 1991.7
829.97 681.00 2052.1
844.93 680.19 2049.7
829.75 663.80 2000.3
844.91 671.73 2024.2
847.96 669.99 2019.0
851.35 668.55 2014.6
906.02 698.62 2105.2
611.56 746.81 2268.1
626.09 757.27 2299.9
600.60 719.59 2185.5
601.06 713.41 2166.7
633.55 745.01 2262.7
641.10 746.97 2268.6
624.81 708.49 2151.8
621.15 698.10 2120.2
643.54 716.93 2177.4
633.24 699.31 2123.9
648.12 703.51 2136.7
688.11 740.59 2249.3
685.04 731.10 2220.4
664.27 703.02 2135.1
686.77 720.83 2189.2
683.97 700.51 2127.5
656.94 667.45 2027.1
676.55 681.92 2071.1
691.89 691.89 2101.4
683.62 678.28 2060.0
678.18 667.67 2027.8
695.76 679.70 2064.3
713.50 691.71 2100.8
697.41 670.99 2037.9
699.38 667.83 2028.3
717.28 679.81 2064.7
719.90 677.24 2056.8
724.38 676.44 2054.4
720.21 667.64 2027.7
721.06 663.59 2015.4
755.86 690.60 2097.5
789.73 716.40 2175.8
781.97 704.33 2139.1
787.91 704.68 2140.2
799.11 704.77 2140.5
767.38 672.12 2041.3
780.19 678.66 2061.2
798.19 689.59 2094.4
759.15 651.43 1978.5
763.68 646.58 1963.8
766.07 644.31 1956.8
795.76 664.88 2019.3
823.61 683.65 2076.3
801.02 660.58 2006.3
782.74 641.34 1947.8
800.77 651.91 1979.9
844.18 682.87 2074.0
894.18 718.74 2182.9
875.39 699.21 2123.6
828.10 657.31 1996.3
817.47 644.83 1958.4
824.07 646.03 1962.1
828.08 645.19 1959.5
841.81 651.89 1979.9
883.86 680.31 2066.2
930.08 711.57 2161.1
961.88 731.49 2221.6
971.77 734.61 2231.1
982.46 738.30 2242.3
618.46 749.28 2293.7
641.57 769.88 2356.8
620.50 737.57 2257.9
598.43 704.70 2157.2
610.35 712.07 2179.8
616.92 713.13 2183.1
640.24 733.37 2245.0
661.98 744.72 2279.8
650.29 725.11 2219.7
662.39 732.12 2241.2
662.32 725.67 2221.4
662.97 720.12 2204.5
646.92 696.68 2132.7
645.59 689.36 2110.3
679.34 719.30 2201.9
695.65 730.43 2236.0
686.11 714.47 2187.1
699.09 722.01 2210.2
709.56 726.87 2225.1
671.59 682.42 2089.0
685.92 685.92 2099.8
698.95 693.44 2122.8
686.51 675.78 2068.7
694.71 678.55 2077.2
729.19 706.75 2163.5
729.14 690.77 2114.6
706.80 664.61 2034.5
705.56 658.52 2015.9
707.40 655.38 2006.3
737.66 678.43 2076.8
773.72 706.44 2162.6
766.10 694.45 2125.9
752.44 677.19 2073.0
769.05 687.24 2103.8
799.68 709.57 2172.2
790.29 691.50 2116.8
766.55 666.11 2039.1
790.54 682.24 2088.5
826.66 708.57 2169.1
800.10 681.17 2085.2
757.64 640.69 1961.3
771.12 643.45 1969.7
831.02 688.87 2108.8
858.74 707.20 2164.9
834.91 683.11 2091.1
820.37 666.88 2041.5
842.57 680.54 2083.3
832.84 668.39 2046.1
819.66 653.66 2001.0
865.03 685.49 2098.4
888.81 699.94 2142.7
864.85 676.84 2071.9
861.69 670.21 2051.7
860.31 665.03 2035.8
869.72 668.20 2045.5
905.92 691.79 2117.7
950.38 721.37 2208.3
973.16 734.24 2247.7
971.64 728.73 2230.8
978.88 729.81 2234.1
636.71 795.89 2455.9
642.71 795.43 2454.5
655.77 803.64 2479.8
651.97 791.22 2441.5
632.00 752.38 2321.6
633.08 746.56 2303.7
631.78 738.06 2277.4
620.82 718.54 2217.2
606.45 695.47 2146.0
610.85 694.15 2141.9
627.64 706.80 2181.0
639.01 713.19 2200.7
655.85 725.50 2238.7
663.94 728.01 2246.4
659.24 716.56 2211.1
675.54 727.95 2246.3
675.93 722.15 2228.3
649.40 687.92 2122.7
657.85 691.02 2132.3
689.61 718.34 2216.6
694.60 717.56 2214.2
685.75 702.61 2168.1
674.06 685.02 2113.8
681.71 687.20 2120.5
712.36 712.36 2198.1
720.23 714.51 2204.8
709.59 698.42 2155.1
699.02 682.64 2106.4
709.74 687.74 2122.2
734.58 706.33 2179.5
722.16 678.72 2094.4
698.19 651.30 2009.7
694.35 642.92 1983.9
697.71 641.27 1978.8
732.08 667.96 2061.1
778.76 705.40 2176.7
781.87 703.12 2169.6
763.07 681.31 2102.3
775.49 687.49 2121.4
783.36 689.58 2127.8
777.96 680.03 2098.4
769.41 667.89 2060.9
762.36 657.21 2028.0
757.87 648.86 2002.2
760.41 646.61 1995.3
773.21 653.05 2015.1
766.09 642.69 1983.2
756.38 630.32 1945.0
785.59 650.33 2006.7
827.37 680.40 2099.5
838.13 684.75 2112.9
847.54 687.94 2122.8
866.63 698.89 2156.6
844.93 677.02 2089.1
791.50 630.18 1944.5
800.96 633.67 1955.3
867.79 682.22 2105.1
902.98 705.45 2176.8
885.71 687.67 2121.9
878.96 678.21 2092.8
876.17 671.91 2073.3
890.54 678.77 2094.5
935.53 708.74 2187.0
968.43 729.24 2250.2
973.04 728.32 2247.4
663.02 798.20 2482.9
630.94 745.11 2317.7
620.62 726.01 2258.3
626.86 726.46 2259.7
621.77 713.89 2220.6
618.31 703.40 2188.0
633.55 714.19 2221.5
624.91 698.09 2171.5
611.75 677.30 2106.8
623.00 683.65 2126.6
626.22 681.15 2118.8
647.41 698.08 2171.4
689.23 736.76 2291.8
683.89 724.81 2254.6
652.93 686.13 2134.3
656.62 684.21 2128.3
683.27 706.05 2196.2
682.21 699.12 2174.7
665.75 676.67 2104.8
681.21 686.75 2136.2
719.35 719.35 2237.6
724.94 719.14 2237.0
707.07 695.84 2164.5
711.28 694.48 2160.2
716.38 693.99 2158.7
699.92 672.79 2092.8
694.76 662.69 2061.4
700.52 663.09 2062.6
681.81 640.49 1992.3
689.56 638.10 1984.9
695.46 638.79 1987.0
710.27 647.60 2014.4
733.72 654.54 2036.0
788.41 698.30 2172.1
795.73 699.79 2176.8
799.77 698.39 2172.4
801.12 694.67 2160.9
800.73 689.52 2144.8
795.22 680.05 2115.4
789.57 670.59 2085.9
796.39 671.79 2089.7
817.30 684.77 2130.0
809.40 673.59 2095.3
794.39 656.69 2042.7
796.59 654.16 2034.8
807.89 659.07 2050.1
817.14 662.26 2060.0
826.78 665.72 2070.8
860.41 688.33 2141.1
853.39 678.33 2110.0
826.71 652.94 2031.0
866.53 680.06 2115.4
897.95 700.29 2178.3
886.31 686.89 2136.6
860.81 662.99 2062.3
844.63 646.51 2011.0
877.12 667.25 2075.6
930.89 703.85 2189.4
957.64 719.68 2238.6
962.23 718.78 2235.8
619.55 785.61 2463.6
640.63 795.94 2496.0
604.91 729.45 2287.5
622.07 742.86 2329.5
653.48 758.28 2377.9
656.75 747.96 2345.5
654.10 738.12 2314.6
656.55 734.14 2302.2
631.43 699.69 2194.1
614.85 675.24 2117.5
622.36 677.44 2124.4
641.02 691.63 2168.9
680.38 727.71 2282.0
678.54 713.33 2236.9
648.35 675.82 2119.3
653.12 675.08 2117.0
670.96 687.73 2156.7
660.06 670.97 2104.1
653.81 659.17 2067.1
678.77 678.77 2128.6
696.71 691.09 2167.2
681.78 670.87 2103.8
683.78 667.50 2093.2
709.67 687.32 2155.4
713.85 685.97 2151.1
696.45 664.06 2082.4
702.87 665.03 2085.5
720.39 676.40 2121.1
715.76 666.95 2091.5
726.89 672.24 2108.1
738.42 677.80 2125.5
743.70 677.59 2124.8
734.64 664.42 2083.5
759.85 667.58 2093.5
776.53 677.40 2124.3
793.68 687.49 2155.9
807.98 694.98 2179.4
814.34 695.58 2181.3
816.66 692.75 2172.4
817.23 688.49 2159.0
830.03 694.51 2177.9
826.17 682.00 2138.7
789.70 647.55 2030.7
774.40 630.81 1978.1
794.02 642.53 2014.9
813.79 654.22 2051.6
856.12 683.79 2144.3
847.86 664.25 2083.0
883.82 688.03 2157.6
910.23 704.14 2208.1
859.69 660.88 2072.5
876.19 661.17 2073.4
928.87 696.65 2184.6
948.82 707.30 2218.0
975.37 722.72 2266.4
640.13 788.85 2494.0
613.13 726.23 2296.1
647.92 731.91 2314.0
647.79 725.05 2292.3
652.81 724.02 2289.1
641.66 705.24 2229.7
637.69 694.63 2196.1
649.70 701.44 2217.7
673.47 720.73 2278.7
681.67 723.16 2286.4
670.89 705.59 2230.8
686.78 716.13 2264.1
693.32 716.82 2266.3
667.97 684.81 2165.1
654.36 665.26 2103.3
655.93 661.35 2090.9
662.05 662.05 2093.1
667.60 662.17 2093.5
664.95 654.22 2068.4
663.13 642.08 2030.0
692.49 665.22 2103.2
703.78 670.79 2120.8
720.32 681.23 2153.8
745.71 689.22 2179.0
743.94 682.41 2157.5
742.06 675.61 2136.0
751.80 679.40 2148.0
746.92 670.03 2118.4
712.40 634.40 2005.7
737.30 647.13 2046.0
789.14 687.68 2174.2
771.46 667.50 2110.4
751.16 645.36 2040.4
760.86 649.13 2052.3
763.91 647.20 2046.2
796.28 669.97 2118.2
827.62 691.57 2186.5
801.55 665.23 2103.2
776.47 640.06 2023.6
779.02 637.85 2016.6
767.27 624.05 1973.0
769.67 621.85 1966.0
809.31 649.58 2053.7
845.81 674.43 2132.3
841.54 653.93 2067.5
881.84 680.92 2152.8
892.17 684.56 2164.3
835.60 637.15 2014.4
823.84 624.28 1973.7
888.85 669.38 2116.3
907.77 679.44 2148.1
906.17 674.10 2131.2
936.97 692.79 2190.3
634.16 775.09 2470.8
609.92 723.53 2306.4
607.39 713.53 2274.5
638.83 743.26 2369.3
636.11 719.34 2293.1
626.69 702.13 2238.2
649.54 721.05 2298.5
667.70 734.47 2341.3
669.37 729.68 2326.0
644.27 696.04 2218.8
638.84 684.07 2180.6
657.92 698.32 2226.0
658.34 692.68 2208.1
647.35 675.26 2152.5
665.57 688.32 2194.2
700.80 718.61 2290.7
702.59 714.40 2277.3
684.12 689.82 2198.9
680.46 680.46 2169.1
690.53 684.87 2183.2
701.53 690.13 2199.9
691.50 674.77 2151.0
675.91 654.28 2085.7
677.86 650.97 2075.1
702.25 669.07 2132.8
718.14 678.87 2164.0
738.13 692.35 2207.0
738.73 687.58 2191.8
697.32 644.09 2053.2
693.75 635.94 2027.2
712.25 647.98 2065.6
717.07 647.51 2064.1
734.88 658.67 2099.6
754.75 671.51 2140.6
743.37 656.55 2092.9
706.55 619.51 1974.8
727.06 632.91 2017.5
777.88 672.31 2143.1
759.12 651.45 2076.6
732.10 623.83 1988.6
734.35 621.37 1980.8
765.75 643.45 2051.1
803.10 661.05 2107.3
797.26 651.82 2077.8
817.22 663.65 2115.5
816.83 658.91 2100.4
833.86 668.19 2130.0
847.85 674.93 2151.5
853.08 674.66 2150.6
817.01 641.94 2046.3
814.73 631.94 2014.5
891.32 686.94 2189.8
893.70 684.41 2181.7
867.49 660.16 2104.4
860.43 650.70 2074.2
906.88 681.57 2172.7
942.09 695.08 2215.7
914.51 670.64 2137.8
924.96 674.22 2149.2
904.52 655.37 2089.1
642.55 763.43 2453.9
613.03 721.22 2318.2
606.57 706.69 2271.5
633.29 730.72 2348.7
628.43 718.21 2308.5
596.47 675.25 2170.4
612.22 686.61 2207.0
648.82 720.91 2317.2
656.50 722.76 2323.1
659.22 719.15 2311.6
663.74 717.55 2306.4
642.31 688.19 2212.0
622.03 660.57 2123.3
625.23 658.14 2115.5
653.03 681.43 2190.3
672.63 695.83 2236.6
667.41 684.53 2200.3
681.93 693.48 2229.1
702.79 708.69 2277.9
703.37 703.37 2260.8
697.56 691.80 2223.6
705.16 693.60 2229.4
726.47 708.76 2278.1
728.35 704.86 2265.6
704.74 676.55 2174.6
699.76 666.44 2142.1
721.61 681.84 2191.6
732.52 686.73 2207.4
713.83 653.89 2101.8
706.02 641.83 2063.0
715.54 645.60 2075.1
711.88 637.51 2049.1
699.55 621.82 1998.7
730.37 639.74 2056.3
748.07 650.50 2090.9
739.91 638.77 2053.2
759.40 650.91 2092.2
760.28 647.05 2079.8
753.14 636.46 2045.8
779.88 654.45 2103.6
823.26 676.65 2175.0
777.98 635.08 2041.3
767.85 622.58 2001.2
813.95 655.53 2107.1
839.98 671.99 2160.0
831.94 661.15 2125.1
821.28 648.38 2084.1
822.46 645.07 2073.4
786.19 612.62 1969.1
818.35 625.49 2010.5
819.23 622.20 1999.9
826.65 623.89 2005.4
852.14 639.10 2054.3
860.81 641.60 2062.3
891.47 660.35 2122.6
932.11 677.90 2179.0
944.17 682.53 2193.8
966.60 694.56 2232.5
620.99 746.44 2419.4
643.24 757.87 2456.5
646.53 754.29 2444.9
649.94 743.69 2410.5
602.93 683.32 2214.9
639.04 710.70 2303.6
632.20 696.60 2257.9
607.61 657.33 2130.6
620.97 665.73 2157.8
617.88 656.50 2127.9
636.26 664.16 2152.8
685.53 709.38 2299.3
697.95 716.00 2320.8
682.90 694.57 2251.3
676.77 682.51 2212.2
675.83 675.83 2190.6
690.46 684.70 2219.3
699.47 687.91 2229.7
695.51 678.41 2198.9
705.10 682.17 2211.1
727.08 697.76 2261.7
724.74 689.95 2236.3
714.53 674.83 2187.3
731.70 685.61 2222.3
717.89 667.41 2163.3
718.72 663.01 2149.0
739.30 671.58 2176.8
726.38 654.84 2122.5
731.66 654.64 2121.9
710.46 630.93 2045.0
726.03 630.64 2044.1
765.39 660.01 2139.3
779.46 667.31 2163.0
782.18 664.85 2155.0
768.03 648.20 2101.0
757.62 634.90 2057.9
780.72 649.69 2105.9
813.12 671.96 2178.0
800.88 657.28 2130.4
796.93 649.55 2105.4
781.56 632.69 2050.7
750.10 603.12 1954.9
778.11 621.45 2014.3
828.68 657.42 2130.9
841.24 662.96 2148.9
844.71 661.32 2143.5
860.20 669.05 2168.6
853.00 659.13 2136.4
815.17 625.84 2028.5
801.84 607.76 1969.9
825.58 621.80 2015.4
857.96 642.12 2081.3
860.42 639.94 2074.2
843.94 623.78 2021.9
875.52 635.29 2059.2
936.10 675.13 2188.3
944.76 677.27 2195.2
968.73 690.30 2237.5
631.90 745.64 2437.3
633.96 740.67 2421.1
643.30 744.21 2432.6
628.67 713.29 2331.6
613.92 689.93 2255.2
638.71 711.02 2324.1
655.11 722.46 2361.5
620.48 677.93 2216.0
621.18 666.36 2178.2
643.68 684.27 2236.7
649.60 684.40 2237.1
654.17 683.12 2232.9
686.19 710.26 2321.7
673.82 685.44 2240.5
666.92 672.62 2198.6
668.80 668.80 2186.2
682.79 677.05 2213.1
713.44 701.55 2293.2
699.36 682.02 2229.4
671.94 649.91 2124.4
671.44 644.15 2105.6
683.78 650.69 2127.0
716.34 676.23 2210.4
715.95 660.01 2157.4
676.24 618.58 2022.0
677.09 609.89 1993.6
688.29 615.29 2011.2
713.66 633.17 2069.7
713.77 628.54 2054.5
705.54 616.70 2015.8
723.98 628.16 2053.3
746.44 642.92 2101.6
756.82 647.14 2115.3
766.29 650.52 2126.4
764.32 644.22 2105.8
761.60 637.37 2083.4
762.42 633.56 2071.0
767.20 633.07 2069.4
777.67 637.26 2083.0
778.74 633.73 2071.5
787.57 636.53 2080.7
791.31 635.20 2076.3
780.55 622.33 2034.3
799.40 633.08 2069.4
837.93 659.17 2154.7
857.55 670.14 2190.5
842.94 641.73 2097.6
818.46 619.09 2023.7
832.45 625.66 2045.1
866.95 647.47 2116.4
895.54 664.62 2172.5
891.56 657.53 2149.3
857.08 628.17 2053.3
863.27 621.13 2030.3
630.90 745.61 2458.1
630.02 729.82 2406.0
630.34 709.13 2337.8
636.27 708.99 2337.3
631.51 697.05 2298.0
616.81 674.46 2223.5
639.27 692.54 2283.1
659.77 701.76 2313.5
649.95 685.09 2258.5
668.24 698.07 2301.3
685.38 709.64 2339.5
684.47 702.48 2315.9
664.51 676.06 2228.8
646.61 652.19 2150.1
647.30 647.30 2133.9
661.38 655.78 2161.9
688.06 676.50 2230.2
708.78 691.06 2278.2
682.57 660.01 2175.9
666.02 638.72 2105.7
678.31 645.22 2127.1
676.59 638.39 2104.6
696.38 651.81 2148.8
719.65 668.25 2203.0
716.74 660.30 2176.8
716.11 654.57 2157.9
703.82 638.34 2104.4
688.68 601.31 1982.3
695.21 602.51 1986.3
708.14 609.21 2008.4
723.11 617.55 2035.9
747.60 633.83 2089.6
772.33 650.09 2143.1
780.57 652.33 2150.5
788.84 654.57 2157.9
778.53 641.47 2114.7
770.36 630.30 2077.9
767.40 623.52 2055.5
753.17 607.73 2003.5
767.64 615.16 2028.0
780.16 620.95 2047.1
777.95 615.00 2027.5
805.11 632.20 2084.2
828.34 646.11 2130.0
836.00 647.76 2135.5
819.67 630.93 2080.0
812.32 621.19 2047.9
826.59 628.00 2070.3
807.94 609.87 2010.5
819.33 614.50 2025.8
870.72 648.88 2139.2
849.62 629.15 2074.1
863.34 631.32 2081.3
878.75 638.60 2105.3
845.03 606.56 1999.6
905.26 645.82 2129.1
648.77 723.62 2406.1
645.02 712.60 2369.5
629.39 688.77 2290.2
620.56 672.76 2237.0
649.54 697.66 2319.8
663.51 706.12 2347.9
633.87 668.44 2222.7
624.35 652.47 2169.6
643.77 666.76 2217.1
686.34 686.34 2282.2
674.22 668.46 2222.7
678.69 667.19 2218.5
658.76 642.16 2135.2
669.50 641.84 2134.2
720.95 685.50 2279.4
714.32 662.89 2204.2
680.71 626.69 2083.8
700.97 640.25 2128.9
726.58 658.46 2189.5
731.42 657.71 2187.0
707.99 631.75 2100.6
684.77 606.36 2016.2
696.35 611.94 2034.8
710.20 619.42 2059.7
713.43 617.60 2053.6
724.89 622.87 2071.1
742.83 633.59 2106.8
729.05 617.30 2052.6
726.03 610.29 2029.3
737.91 615.81 2047.7
736.09 609.90 2028.0
772.16 635.25 2112.3
791.00 646.17 2148.6
772.86 626.94 2084.6
757.79 610.44 2029.8
750.94 600.75 1997.6
773.24 614.35 2042.8
778.60 614.40 2043.0
772.58 605.53 2013.5
800.76 623.41 2072.9
827.12 639.64 2126.9
799.66 614.31 2042.7
801.26 599.66 1993.9
861.74 640.78 2130.7
891.41 654.45 2176.1
854.07 623.09 2071.9
888.98 644.51 2143.1
903.42 650.91 2164.4
857.51 614.02 2041.7
857.93 610.55 2030.2
911.85 644.97 2144.6
945.04 664.39 2209.2
945.37 660.62 2196.6
975.89 677.86 2254.0
621.24 729.00 2445.1
627.21 728.58 2443.7
638.95 720.38 2416.2
609.92 674.43 2262.1
628.04 687.85 2307.1
632.61 686.32 2302.0
643.07 691.15 2318.1
641.94 683.55 2292.6
626.31 660.78 2216.3
630.60 659.26 2211.2
654.01 677.58 2272.6
665.64 683.47 2292.4
693.09 681.24 2284.9
688.14 670.64 2249.4
657.21 635.12 2130.2
698.73 664.08 2227.4
705.00 648.60 2175.4
672.49 613.78 2058.6
690.89 625.61 2098.3
718.56 645.58 2165.3
727.01 648.11 2173.8
736.73 651.72 2185.9
745.26 654.23 2194.3
737.31 642.35 2154.5
731.99 632.92 2122.8
721.78 619.44 2077.6
722.81 615.73 2065.2
774.68 655.06 2197.1
750.17 625.15 2096.8
727.29 601.71 2018.2
738.20 606.38 2033.8
784.88 640.15 2147.1
805.83 648.04 2173.6
795.33 635.16 2130.3
792.08 628.20 2107.0
786.00 619.11 2076.5
762.96 596.88 2001.9
776.27 599.13 2009.5
816.46 625.96 2099.5
806.13 613.94 2059.2
793.32 592.41 1987.0
821.17 609.25 2043.5
836.98 617.00 2069.5
840.18 615.42 2064.1
883.92 643.36 2157.9
914.48 661.42 2218.4
887.90 630.30 2114.1
876.85 618.64 2074.9
904.86 634.50 2128.2
908.07 632.90 2122.8
917.73 635.78 2132.4
963.45 663.46 2225.3
624.73 726.72 2458.8
622.61 716.95 2425.8
627.57 715.43 2420.6
617.40 696.87 2357.8
619.34 678.89 2297.0
642.34 697.40 2359.6
638.61 680.39 2302.1
611.50 645.48 2183.9
612.59 640.69 2167.8
634.44 657.52 2224.7
671.73 689.88 2334.2
664.83 670.72 2269.3
626.38 626.38 2119.3
649.05 643.41 2176.9
681.42 669.67 2265.8
657.23 640.38 2166.7
657.07 629.46 2129.8
701.88 666.79 2256.1
703.50 662.81 2242.6
681.25 636.58 2153.8
676.42 626.93 2121.2
677.32 622.70 2106.9
689.42 628.76 2127.4
700.73 633.99 2145.1
687.12 616.78 2086.9
683.24 608.51 2058.9
702.43 620.75 2100.3
723.67 634.60 2147.1
717.86 624.70 2113.7
695.06 600.28 2031.0
697.29 597.68 2022.2
697.91 593.74 2008.9
700.36 591.42 2001.0
749.54 628.29 2125.8
760.06 627.88 2124.4
754.20 618.56 2092.9
783.37 637.89 2158.3
767.18 620.28 2098.7
750.05 597.94 2023.1
771.89 611.08 2067.6
780.37 613.53 2075.9
786.49 614.11 2077.8
775.80 601.64 2035.6
773.20 595.57 2015.1
761.81 582.86 1972.1
767.00 582.92 1972.3
824.91 622.78 2107.1
851.61 638.71 2161.0
836.24 623.08 2108.2
837.43 619.92 2097.5
854.04 628.13 2125.3
855.21 624.96 2114.5
833.79 605.43 2048.4
850.82 613.89 2077.1
881.95 632.34 2139.5
911.88 649.71 2198.3
929.91 654.38 2214.1
899.17 628.86 2127.7
906.92 630.42 2133.0
920.38 635.90 2151.5
942.70 647.40 2190.4
946.40 646.04 2185.9
959.32 650.97 2202.5
634.02 716.45 2445.5
604.16 675.95 2307.3
630.94 698.98 2385.9
663.49 714.05 2437.3
634.14 669.70 2286.0
602.30 630.19 2151.1
623.24 640.24 2185.4
660.19 672.08 2294.1
674.84 680.86 2324.1
632.25 632.25 2158.1
642.05 630.88 2153.4
680.75 663.15 2263.6
662.69 640.03 2184.7
653.54 625.85 2136.3
694.97 659.93 2252.6
694.61 654.09 2232.7
654.95 611.65 2087.8
669.20 619.84 2115.7
698.51 641.72 2190.4
695.44 633.75 2163.2
702.04 634.65 2166.3
727.80 652.71 2228.0
725.52 645.54 2203.5
706.43 623.65 2128.8
713.27 624.80 2132.7
717.05 623.28 2127.5
694.76 599.30 2045.7
708.15 597.17 2038.4
736.78 616.71 2105.1
738.16 613.32 2093.5
723.98 597.16 2038.3
736.51 603.08 2058.6
770.69 626.53 2138.6
773.29 619.73 2115.4
734.20 584.25 1994.3
756.22 597.57 2039.7
783.17 614.57 2097.8
798.50 622.28 2124.1
807.12 624.69 2132.3
798.95 614.16 2096.4
790.61 603.64 2060.5
771.32 584.96 1996.7
789.55 590.85 2016.8
860.62 639.80 2183.9
866.93 636.12 2171.3
856.36 624.31 2131.0
871.29 631.13 2154.3
863.41 621.43 2121.2
838.54 599.71 2047.1
828.05 588.49 2008.7
856.58 604.96 2065.0
892.81 626.63 2138.9
915.15 638.34 2178.9
928.27 643.52 2196.6
935.80 644.79 2200.9
950.94 651.25 2223.0
962.74 655.36 2237.0
957.32 647.77 2211.1
935.60 629.30 2148.1
639.51 716.26 2466.7
611.39 677.98 2334.9
641.94 704.87 2427.5
651.74 701.87 2417.2
641.42 684.18 2356.2
654.51 672.53 2316.1
627.61 639.02 2200.7
641.97 647.75 2230.8
632.56 632.56 2178.5
624.53 619.00 2131.8
626.37 615.38 2119.3
652.64 635.62 2189.0
682.30 658.77 2268.7
670.39 641.74 2210.1
671.15 637.02 2193.8
679.51 639.54 2202.5
695.79 638.76 2199.8
727.45 651.79 2244.7
717.48 637.76 2196.4
737.44 650.34 2239.7
739.37 646.95 2228.0
735.43 638.52 2199.0
728.89 627.97 2162.7
715.98 612.13 2108.1
709.05 601.62 2071.9
715.46 602.49 2074.9
747.52 624.79 2151.7
760.50 630.93 2172.9
747.92 615.93 2121.2
730.89 597.52 2057.8
739.89 600.49 2068.0
764.30 615.84 2120.9
780.07 624.06 2149.2
798.94 634.62 2185.6
798.98 630.18 2170.3
812.40 623.21 2146.3
803.91 612.50 2109.4
794.90 601.54 2071.6
786.40 591.12 2035.7
779.14 581.76 2003.5
804.81 596.94 2055.8
867.16 638.96 2200.5
850.27 618.38 2129.6
834.92 603.29 2077.7
842.86 605.13 2084.0
842.81 601.24 2070.6
830.26 588.54 2026.8
846.95 596.59 2054.6
900.03 630.02 2169.7
915.29 636.73 2192.8
921.68 637.21 2194.5
943.12 648.03 2231.7
952.61 650.57 2240.5
919.97 624.46 2150.6
635.46 698.37 2426.8
612.06 666.07 2314.5
597.81 644.24 2238.7
606.51 647.33 2249.4
629.94 665.93 2314.1
641.93 672.21 2335.9
645.46 651.33 2263.3
642.12 642.12 2231.3
632.16 626.52 2177.1
624.12 613.07 2130.4
676.35 647.20 2249.0
698.52 662.70 2302.8
656.91 617.94 2147.3
655.21 601.06 2088.6
673.25 612.55 2128.6
682.40 615.83 2139.9
726.73 650.54 2260.6
694.87 612.15 2127.2
689.33 602.48 2093.6
709.45 615.23 2137.9
725.49 624.26 2169.2
733.66 626.44 2176.8
734.11 622.03 2161.5
738.55 621.05 2158.1
761.29 625.95 2175.1
748.38 610.81 2122.5
731.99 593.07 2060.9
728.64 586.08 2036.6
739.25 590.34 2051.4
758.16 601.11 2088.8
780.54 614.47 2135.2
786.80 615.03 2137.2
813.75 622.94 2164.7
788.29 599.31 2082.6
776.54 586.37 2037.6
784.65 588.49 2044.9
792.80 590.61 2052.3
785.21 581.06 2019.1
810.22 595.60 2069.6
839.00 612.69 2129.0
824.59 598.23 2078.8
822.84 593.09 2060.9
840.82 602.14 2092.4
864.01 614.78 2136.3
881.57 623.27 2165.8
877.64 616.57 2142.5
904.17 631.22 2193.4
929.99 641.17 2228.0
915.72 612.32 2127.8
620.02 682.03 2391.5
622.68 678.17 2378.0
615.41 663.68 2327.2
608.64 650.00 2279.2
624.72 660.76 2316.9
627.81 657.70 2306.2
617.56 640.86 2247.2
614.75 631.99 2216.1
622.19 633.71 2222.1
645.39 651.31 2283.8
658.83 658.83 2310.2
661.73 655.77 2299.4
659.46 647.69 2271.1
663.02 645.42 2263.2
656.69 633.65 2221.9
638.32 610.56 2140.9
672.06 637.30 2234.7
682.16 635.92 2229.8
654.77 605.25 2122.3
660.39 605.36 2122.7
660.53 600.48 2105.6
687.31 609.71 2137.9
721.82 635.20 2227.3
713.29 622.71 2183.5
691.27 598.74 2099.5
698.64 600.40 2105.3
712.16 607.27 2129.4
719.01 608.39 2133.3
715.01 600.39 2105.3
712.12 593.43 2080.9
706.91 584.66 2050.1
719.34 586.13 2055.2
745.95 603.34 2115.6
733.41 588.87 2064.9
734.30 585.31 2052.4
743.31 588.23 2062.6
761.26 598.13 2097.3
779.70 608.27 2132.9
783.61 607.02 2128.5
787.84 606.03 2125.0
784.61 599.35 2101.6
775.49 588.30 2062.9
763.11 574.95 2016.0
774.95 579.89 2033.4
807.98 600.52 2105.7
791.88 584.61 2049.9
826.56 590.40 2070.2
855.02 606.79 2127.7
887.36 625.71 2194.0
880.27 616.75 2162.6
853.24 594.03 2083.0
847.96 586.64 2057.0
841.45 578.49 2028.5
830.33 567.31 1989.3
845.63 574.19 2013.4
908.84 613.33 2150.6
617.51 686.82 2430.4
627.28 690.65 2444.0
628.41 684.97 2423.9
644.09 695.11 2459.8
640.71 684.68 2422.9
640.39 677.69 2398.1
637.42 668.07 2364.1
619.09 642.67 2274.2
611.30 628.60 2224.4
611.27 622.70 2203.5
615.56 621.26 2198.4
635.04 635.04 2247.2
658.45 652.47 2308.9
674.16 662.01 2342.6
669.33 634.41 2245.0
663.86 623.80 2207.4
661.01 615.81 2179.2
661.13 610.70 2161.1
663.72 607.94 2151.3
673.14 611.44 2163.7
677.70 610.49 2160.3
679.63 607.21 2148.7
700.27 620.57 2196.0
703.70 618.57 2188.9
703.51 613.46 2170.8
716.13 619.51 2192.2
715.26 613.88 2172.3
724.63 617.07 2183.6
740.48 625.68 2214.1
739.51 620.05 2194.1
728.18 605.89 2144.1
710.99 587.11 2077.6
692.23 567.31 2007.5
728.39 588.11 2081.1
750.91 601.83 2129.7
734.51 584.39 2068.0
734.09 579.83 2051.8
742.12 581.95 2059.3
767.32 597.42 2114.1
793.44 613.37 2170.5
786.76 603.92 2137.1
777.56 592.69 2097.3
782.04 591.96 2094.7
779.70 586.12 2074.1
764.26 570.57 2019.1
774.04 573.95 2031.0
799.80 589.04 2084.4
777.02 568.43 2011.5
775.29 563.38 1993.6
796.39 574.88 2034.3
782.92 561.43 1986.7
808.81 576.21 2039.0
858.61 607.72 2150.5
885.47 622.68 2203.5
902.76 630.77 2232.1
878.60 609.98 2158.5
846.04 583.66 2065.4
835.92 573.05 2027.8
865.30 578.64 2047.6
920.21 611.61 2164.3
949.00 626.91 2218.4
922.91 606.01 2144.5
628.64 685.79 2449.3
644.75 689.43 2462.3
618.66 655.06 2339.5
624.11 654.40 2337.2
625.76 649.83 2320.8
622.77 640.57 2287.7
630.88 642.78 2295.6
635.14 641.08 2289.6
644.06 644.06 2300.2
633.86 628.05 2243.0
623.38 612.05 2185.9
656.15 638.42 2280.1
665.46 630.43 2251.6
639.12 600.21 2143.6
641.47 597.23 2133.0
653.01 602.78 2152.8
668.60 611.94 2185.5
683.78 620.57 2216.3
707.13 636.42 2272.9
694.32 619.72 2213.3
679.47 601.50 2148.2
709.22 622.73 2224.0
720.99 627.96 2242.7
712.58 615.67 2198.8
711.77 610.09 2178.9
712.07 605.54 2162.6
724.16 611.01 2182.2
720.40 603.12 2154.0
699.52 581.14 2075.5
741.06 610.95 2182.0
741.49 602.11 2150.4
721.45 581.46 2076.7
730.43 584.35 2087.0
720.50 572.16 2043.4
732.69 577.59 2062.8
760.92 595.50 2126.8
761.58 591.73 2113.3
779.33 601.20 2147.1
793.24 603.31 2154.7
779.71 588.87 2103.1
780.48 585.36 2090.6
797.18 593.77 2120.6
802.04 593.29 2118.9
774.84 569.27 2033.1
763.54 557.18 1989.9
781.67 566.58 2023.5
822.75 592.38 2115.6
833.19 595.93 2128.3
811.05 576.28 2058.1
818.57 577.81 2063.6
848.35 594.95 2124.8
868.66 605.26 2161.7
877.52 607.52 2169.7
893.35 614.53 2194.8
899.38 614.76 2195.6
864.45 587.17 2097.0
824.25 556.37 1987.0
860.11 573.41 2047.9
909.52 602.63 2152.2
614.73 671.18 2419.5
629.52 680.39 2452.7
635.27 679.74 2450.3
606.26 642.27 2315.3
608.05 625.59 2255.1
635.09 647.19 2333.0
644.84 650.92 2346.5
650.52 650.52 2345.0
637.43 631.53 2276.5
605.62 594.51 2143.1
628.77 606.11 2184.9
656.12 626.83 2259.6
655.03 620.25 2235.9
659.57 619.07 2231.6
675.41 628.43 2265.4
669.14 617.22 2225.0
671.93 614.50 2215.2
694.47 629.73 2270.0
687.47 612.99 2209.7
696.73 606.10 2184.9
724.09 624.82 2252.4
721.51 612.71 2208.7
716.13 603.36 2175.0
703.58 588.15 2120.2
675.44 560.25 2019.6
729.07 595.50 2146.7
731.85 588.78 2122.4
716.80 572.37 2063.3
731.83 580.04 2090.9
728.97 573.53 2067.5
748.34 584.47 2106.9
750.30 581.75 2097.1
724.64 557.82 2010.8
743.81 568.49 2049.3
774.79 587.96 2119.5
777.67 585.99 2112.4
777.14 581.50 2096.2
774.51 575.50 2074.6
788.46 581.83 2097.4
810.05 593.67 2140.1
796.67 579.89 2090.4
790.00 571.15 2058.9
817.02 586.72 2115.0
837.27 597.25 2153.0
827.33 586.25 2113.3
800.53 563.53 2031.4
805.84 563.56 2031.5
837.36 581.80 2097.3
863.03 595.77 2147.6
827.92 567.87 2047.1
841.89 570.14 2055.2
853.51 574.37 2070.5
828.81 554.27 1998.0
844.47 561.23 2023.1
869.61 574.37 2070.5
909.67 597.15 2152.6
949.33 619.38 2232.7
948.56 615.13 2217.4
928.95 598.78 2158.5
924.48 592.33 2135.2
639.44 671.09 2442.0
619.44 643.73 2342.4
603.19 620.76 2258.8
621.26 633.21 2304.1
642.34 648.46 2359.6
646.78 646.78 2353.5
650.34 638.30 2322.6
627.29 610.03 2219.8
628.67 605.80 2204.4
645.74 616.65 2243.9
660.84 625.44 2275.9
658.70 617.89 2248.4
664.09 617.49 2246.9
685.22 631.59 2298.3
681.53 622.77 2266.2
672.06 608.88 2215.6
681.88 612.53 2228.9
696.88 620.75 2258.8
662.03 584.79 2127.9
687.50 583.00 2121.4
728.06 607.68 2211.2
706.14 584.77 2127.9
689.04 566.19 2060.3
693.57 565.52 2057.8
722.97 585.00 2128.7
730.77 586.83 2135.4
715.25 570.05 2074.3
720.41 569.87 2073.7
729.07 572.46 2083.1
720.40 561.48 2043.1
773.00 585.27 2129.7
796.19 598.56 2178.0
790.50 590.09 2147.2
788.37 584.39 2126.5
787.50 579.69 2109.4
791.65 578.72 2105.9
800.24 581.00 2114.1
798.18 575.55 2094.3
799.83 572.85 2084.5
815.75 580.33 2111.7
825.47 583.33 2122.6
861.36 604.66 2200.3
858.11 594.50 2163.3
865.87 595.99 2168.7
885.57 605.62 2203.7
846.20 574.99 2092.3
830.62 557.25 2027.7
865.45 576.96 2099.5
858.26 568.60 2069.0
843.83 555.57 2021.6
849.06 552.15 2009.2
923.35 589.61 2145.5
634.45 693.93 2549.1
631.51 656.52 2411.7
636.14 654.85 2405.6
646.98 659.55 2422.8
627.19 633.22 2326.1
612.25 612.25 2249.1
613.34 607.56 2231.8
622.11 610.48 2242.6
633.53 615.93 2262.6
630.31 607.18 2230.4
614.46 586.53 2154.6
614.30 581.09 2134.6
649.91 609.29 2238.2
668.07 620.78 2280.4
661.48 609.26 2238.1
668.22 610.11 2241.2
678.04 613.74 2254.6
682.02 612.07 2248.4
680.31 605.36 2223.8
683.89 603.44 2216.7
688.02 602.01 2211.5
673.57 584.50 2147.2
657.65 566.01 2079.2
673.29 565.56 2077.6
702.84 585.70 2151.6
655.83 542.22 1991.8
702.60 576.35 2117.2
730.16 589.75 2166.4
732.12 586.82 2155.7
728.70 579.65 2129.3
700.52 553.04 2031.6
725.60 568.57 2088.6
751.58 584.56 2147.4
741.76 572.68 2103.7
721.35 552.86 2030.9
765.24 578.06 2123.5
791.30 593.47 2180.1
751.42 559.57 2055.6
779.25 576.21 2116.7
813.42 597.27 2194.0
785.92 573.07 2105.2
765.86 554.59 2037.3
797.96 573.88 2108.1
820.73 586.23 2153.5
793.35 562.85 2067.6
776.75 547.38 2010.8
806.62 564.63 2074.2
859.74 597.83 2196.1
874.68 600.27 2205.1
865.29 589.97 2167.2
869.81 589.23 2164.5
891.77 600.23 2204.9
905.49 597.96 2196.6
858.00 563.06 2068.4
869.17 559.90 2056.8
874.12 559.65 2055.9
920.26 585.62 2151.3
612.18 663.19 2459.6
618.44 663.07 2459.2
603.76 634.25 2352.3
612.41 636.91 2362.2
619.88 638.30 2367.3
648.16 660.87 2451.0
657.87 664.25 2463.6
638.15 638.15 2366.8
615.42 609.56 2260.7
610.39 598.87 2221.1
607.74 590.70 2190.8
607.03 584.55 2168.0
620.95 592.47 2197.3
623.06 589.08 2184.8
632.22 587.06 2177.3
667.93 614.74 2279.9
679.17 619.59 2297.9
662.54 599.16 2222.2
646.66 579.76 2150.2
668.94 594.61 2205.3
686.38 604.95 2243.6
669.17 584.82 2169.0
653.04 565.97 2099.1
657.45 565.08 2095.8
661.84 564.19 2092.5
658.46 547.84 2031.8
673.78 556.14 2062.6
672.20 546.16 2025.6
745.96 592.21 2196.4
692.11 545.30 2022.4
720.94 559.54 2075.2
760.03 585.50 2171.5
762.49 583.08 2162.5
758.11 575.50 2134.4
763.38 575.30 2133.7
777.84 581.98 2158.5
758.36 563.35 2089.3
748.22 547.99 2032.4
786.60 572.07 2121.7
766.37 553.49 2052.8
752.65 539.83 2002.1
793.28 565.07 2095.7
808.42 571.95 2121.2
772.62 542.92 2013.6
771.61 538.57 1997.5
816.22 565.91 2098.9
835.48 575.43 2134.2
826.80 565.71 2098.1
831.19 564.99 2095.4
839.16 566.71 2101.8
834.13 559.68 2075.7
846.81 564.54 2093.8
863.95 572.30 2122.5
862.82 567.93 2106.3
896.01 586.07 2173.6
887.11 576.62 2138.6
904.04 576.81 2139.3
931.19 590.51 2190.1
615.04 653.08 2445.7
606.00 636.92 2385.1
623.86 649.07 2430.6
644.86 664.20 2487.3
651.27 651.27 2438.9
663.75 657.37 2461.7
657.20 638.60 2391.4
647.97 623.75 2335.8
669.95 621.67 2328.0
655.83 603.13 2258.6
654.72 596.78 2234.8
661.18 597.38 2237.1
640.51 573.68 2148.3
633.38 562.39 2106.1
665.40 585.78 2193.6
678.86 592.56 2219.0
661.57 572.62 2144.4
656.02 563.09 2108.7
669.44 569.86 2134.0
650.54 549.23 2056.7
661.84 545.36 2042.2
705.18 576.46 2158.7
686.01 556.37 2083.5
682.06 548.85 2055.3
722.86 577.17 2161.4
720.50 570.86 2137.7
682.15 532.29 1993.3
751.60 582.07 2179.7
744.27 572.09 2142.4
734.52 560.41 2098.6
749.40 567.56 2125.4
759.52 571.03 2138.4
736.70 549.86 2059.1
724.37 536.76 2010.1
767.73 564.83 2115.2
802.91 586.52 2196.4
766.41 555.92 2081.8
741.86 534.35 2001.0
778.27 549.06 2056.1
789.88 553.45 2072.6
773.40 538.25 2015.6
793.38 548.44 2053.8
822.31 564.66 2114.5
824.99 562.74 2107.4
835.81 566.37 2121.0
859.58 578.67 2167.0
870.95 582.52 2181.4
867.54 576.49 2158.9
811.98 536.11 2007.6
868.64 559.19 2094.0
876.68 560.86 2100.3
853.15 542.44 2031.3
872.41 551.28 2064.4
624.74 650.24 2458.9
622.07 640.92 2423.7
622.39 634.84 2400.7
641.01 647.35 2448.0
643.75 643.75 2434.3
616.93 599.30 2266.3
627.30 603.63 2282.6
616.24 587.45 2221.4
630.23 595.22 2250.8
652.80 610.87 2310.0
646.14 599.15 2265.7
629.61 578.56 2187.8
622.14 561.57 2123.6
635.74 568.82 2151.0
643.39 570.66 2157.9
666.42 585.99 2215.9
669.46 583.63 2207.0
653.45 564.85 2136.0
658.82 564.70 2135.4
676.29 574.84 2173.8
689.57 581.29 2198.2
668.47 558.89 2113.4
673.18 558.25 2111.0
693.25 561.20 2122.2
694.60 557.87 2109.6
710.87 566.47 2142.1
699.90 553.41 2092.7
701.71 542.23 2050.5
752.98 573.16 2167.4
764.43 577.57 2184.1
760.34 561.99 2125.2
712.61 522.92 1977.4
722.48 526.38 1990.5
800.04 578.75 2188.6
808.10 580.46 2195.0
766.92 547.03 2068.6
748.24 530.00 2004.2
756.25 531.98 2011.7
798.30 557.72 2109.0
802.43 556.79 2105.5
779.75 537.40 2032.2
798.02 546.30 2065.8
825.59 561.40 2123.0
857.31 579.11 2189.9
876.48 580.52 2195.3
879.25 578.60 2188.0
826.27 540.25 2043.0
853.59 540.78 2045.0
890.12 560.44 2119.3
912.23 570.84 2158.6
626.49 666.06 2543.6
632.09 658.16 2513.5
631.08 650.40 2483.8
635.70 648.54 2476.8
612.06 618.19 2360.8
634.96 628.74 2401.1
611.52 566.64 2164.0
627.64 576.29 2200.8
632.13 575.18 2196.6
624.70 563.35 2151.4
639.95 571.99 2184.4
655.09 580.38 2216.5
663.72 582.92 2226.1
676.86 589.34 2250.7
668.44 577.03 2203.7
658.09 563.28 2151.1
668.36 567.26 2166.4
679.85 572.21 2185.2
687.07 573.51 2190.2
687.29 568.99 2172.9
714.55 586.74 2240.7
712.93 571.48 2182.5
714.73 568.41 2170.7
726.87 573.54 2190.3
713.23 558.42 2132.6
690.02 536.10 2047.3
704.81 543.40 2075.2
736.37 563.43 2151.7
749.62 569.26 2174.0
738.44 556.58 2125.6
755.25 565.04 2157.9
776.41 576.60 2202.0
756.17 557.47 2128.9
749.32 548.42 2094.4
730.14 530.53 2026.1
734.48 526.12 2009.2
789.43 561.50 2144.3
797.73 563.43 2151.7
799.27 560.60 2140.9
828.44 577.05 2203.7
829.01 573.50 2190.2
795.62 546.65 2087.6
775.67 529.34 2021.5
793.57 537.92 2054.3
791.55 532.98 2035.4
790.50 528.74 2019.2
846.37 562.39 2147.7
859.46 567.36 2166.7
839.49 550.58 2102.6
837.71 545.86 2084.6
819.32 523.74 2000.1
843.06 535.53 2045.2
846.19 530.84 2027.3
904.16 563.70 2152.8
953.21 590.64 2255.6
953.65 587.31 2242.9
