ply
format ascii 1.0
element vertex 2290
property float x
property float y
property float z
end_header
407.35 463.16 2152.4
390.99 438.55 2038.0
408.05 451.57 2098.5
436.56 476.77 2215.6
431.56 465.19 2161.8
433.66 461.46 2144.5
447.05 469.69 2182.7
452.89 469.87 2183.6
454.90 466.13 2166.2
442.58 447.98 2081.8
463.54 458.02 2128.5
482.50 471.15 2189.5
481.53 464.73 2159.7
494.41 471.68 2192.0
542.65 500.45 2325.7
24.16 495.30 2329.8
30.92 507.14 2385.5
37.93 518.35 2438.2
44.44 520.61 2448.9
48.19 493.98 2323.6
77.29 528.14 2484.3
140.57 480.30 2259.2
149.00 488.73 2298.9
153.95 485.54 2283.9
155.13 471.14 2216.2
161.98 474.38 2231.4
173.31 490.05 2305.1
184.17 471.94 2219.9
181.21 450.29 2118.1
191.48 461.80 2172.2
195.92 459.00 2159.1
198.47 452.06 2126.4
204.49 453.20 2131.8
207.57 447.92 2106.9
217.41 457.12 2150.2
222.43 455.97 2144.8
239.97 447.22 2103.6
254.88 464.45 2184.7
264.52 471.54 2218.1
262.86 458.60 2157.2
263.66 450.41 2118.7
269.68 451.31 2122.9
277.11 454.47 2137.7
282.56 454.32 2137.0
290.50 458.09 2154.8
301.05 465.77 2190.9
308.93 469.11 2206.6
310.26 462.57 2175.8
310.17 454.17 2136.3
319.03 458.95 2158.8
323.63 457.55 2152.2
315.92 439.08 2065.3
319.66 429.70 2021.3
347.91 460.14 2164.4
350.23 455.86 2144.3
334.82 428.99 2017.9
342.19 431.69 2030.6
348.47 432.95 2036.5
368.68 451.22 2122.5
386.95 459.85 2163.1
371.06 434.67 2044.6
371.59 429.16 2018.7
405.39 461.70 2171.8
424.67 477.03 2243.9
408.90 453.11 2131.3
400.59 437.98 2060.2
401.58 433.29 2038.1
423.35 450.84 2120.7
456.19 479.59 2255.9
457.89 475.28 2235.6
449.74 460.98 2168.4
469.82 475.62 2237.2
476.20 476.20 2240.0
472.29 466.60 2194.8
502.52 490.56 2307.5
509.69 485.98 2286.0
511.03 481.66 2265.7
6.39 517.29 2463.3
12.52 507.21 2415.3
30.61 495.87 2361.3
38.19 515.58 2455.2
45.25 523.58 2493.2
49.70 503.21 2396.2
56.59 509.34 2425.4
75.66 510.68 2431.8
79.75 496.88 2366.1
84.95 491.49 2340.4
116.31 471.06 2243.1
154.10 480.07 2286.1
162.25 486.76 2317.9
161.93 468.43 2230.6
166.28 464.45 2211.7
171.38 462.72 2203.4
170.00 444.19 2115.2
178.44 451.68 2150.9
192.99 473.70 2255.7
192.95 459.68 2188.9
187.26 433.37 2063.7
196.75 430.72 2051.0
208.17 432.35 2058.8
229.71 465.16 2215.1
225.46 445.42 2121.0
231.77 426.67 2031.8
241.97 435.54 2074.0
263.04 463.17 2205.6
268.99 453.92 2161.5
269.58 445.62 2122.0
276.25 447.52 2131.1
280.53 445.55 2121.6
296.14 461.29 2196.6
315.81 465.10 2214.8
304.84 440.93 2099.7
304.02 432.02 2057.3
322.49 450.37 2144.6
329.11 451.83 2151.6
321.77 434.39 2068.5
334.50 444.18 2115.1
354.00 462.48 2202.3
345.68 444.44 2116.4
333.23 421.75 2008.3
343.02 427.46 2035.5
359.06 440.66 2098.4
398.36 460.95 2195.0
409.90 467.63 2226.8
419.63 459.32 2187.2
410.52 443.36 2111.2
425.45 453.44 2159.3
469.04 487.08 2319.4
437.88 448.96 2137.9
441.41 446.93 2128.2
473.68 473.68 2255.6
491.51 485.52 2312.0
499.72 487.68 2322.3
506.74 488.64 2326.8
496.48 473.12 2252.9
512.93 483.11 2300.5
36.34 484.51 2336.0
54.52 484.64 2336.6
69.28 503.86 2429.3
74.08 493.88 2381.2
130.37 474.07 2285.7
145.74 466.36 2248.5
164.56 470.17 2266.9
161.16 444.57 2143.5
178.61 446.54 2152.9
187.66 454.94 2193.5
183.85 432.59 2085.7
211.74 423.49 2041.8
226.51 441.96 2130.9
226.03 430.54 2075.8
246.93 429.45 2070.6
271.18 461.59 2225.5
280.38 467.30 2253.0
280.45 457.88 2207.6
287.47 459.95 2217.6
280.03 439.26 2117.9
282.55 434.69 2095.8
302.02 455.88 2198.0
306.66 454.32 2190.5
312.93 455.17 2194.6
312.03 445.76 2149.2
305.17 428.31 2065.1
317.12 437.40 2108.9
335.20 454.51 2191.4
339.55 452.74 2182.8
341.25 447.55 2157.8
349.51 450.98 2174.4
351.54 446.39 2152.3
349.44 436.80 2106.0
347.43 427.60 2061.7
350.48 424.82 2048.3
367.88 439.26 2117.9
376.79 443.28 2137.2
372.85 432.29 2084.2
373.19 426.50 2056.3
392.12 429.72 2071.9
433.31 468.45 2258.6
412.78 440.30 2122.9
416.95 438.90 2116.1
460.61 478.55 2307.3
469.28 481.31 2320.6
439.86 445.43 2147.6
446.01 446.01 2150.4
474.72 468.86 2260.6
487.27 475.39 2292.0
494.61 476.73 2298.5
499.48 475.69 2293.5
24.65 486.75 2376.5
32.22 509.01 2485.2
37.06 487.92 2382.3
44.19 498.74 2435.1
56.79 498.48 2433.8
73.24 482.14 2354.0
79.99 486.11 2373.4
88.02 463.57 2263.3
136.47 449.22 2193.3
147.90 467.37 2281.9
162.23 457.73 2234.8
160.14 436.23 2129.9
164.56 433.35 2115.8
176.45 449.67 2195.5
185.59 458.18 2237.0
189.01 452.48 2209.2
194.10 450.99 2201.9
199.67 450.69 2200.5
197.68 433.80 2118.0
198.73 424.31 2071.7
213.85 444.58 2170.6
225.14 456.05 2226.7
222.57 439.57 2146.2
222.27 428.28 2091.1
224.24 421.78 2059.3
240.62 422.43 2062.5
250.31 429.88 2098.9
264.45 444.49 2170.2
286.23 452.24 2208.1
287.10 427.94 2089.4
296.76 434.15 2119.7
307.41 441.56 2155.9
312.61 441.00 2153.2
310.91 430.92 2103.9
315.82 430.17 2100.3
325.59 435.96 2128.6
332.19 437.38 2135.5
336.07 435.23 2125.0
346.89 442.00 2158.1
352.19 441.63 2156.2
357.31 441.06 2153.4
363.56 441.87 2157.4
355.61 425.66 2078.3
362.02 426.87 2084.2
367.78 427.28 2086.2
360.78 413.06 2016.8
378.80 427.50 2087.3
378.18 420.80 2054.5
423.92 452.57 2209.6
412.80 434.81 2123.0
411.47 427.71 2088.3
450.85 462.56 2258.4
479.43 479.43 2340.8
469.92 464.05 2265.7
482.61 470.70 2298.2
490.57 472.62 2307.6
493.82 470.02 2294.9
515.89 468.45 2287.2
19.26 500.86 2476.8
25.13 489.95 2422.8
45.00 501.39 2479.4
62.92 490.81 2427.1
68.18 483.44 2390.7
87.76 456.34 2256.6
93.27 454.71 2248.6
145.31 472.25 2335.3
145.57 454.17 2245.9
149.65 448.96 2220.1
157.02 453.63 2243.2
161.11 448.80 2219.4
168.82 454.06 2245.3
183.77 462.38 2286.5
182.60 445.10 2201.0
186.18 440.07 2176.2
190.58 437.21 2162.0
197.65 440.47 2178.1
196.87 426.55 2109.3
210.11 431.28 2132.7
229.96 448.42 2217.5
227.36 432.53 2138.9
227.85 423.15 2092.5
237.99 431.71 2134.8
268.37 445.38 2202.4
266.86 433.64 2144.4
274.68 437.24 2162.2
267.47 417.25 2063.3
277.72 416.58 2060.0
299.25 440.41 2177.9
312.68 451.65 2233.4
324.04 451.34 2231.9
316.09 432.54 2138.9
314.95 423.56 2094.5
319.82 422.81 2090.8
320.75 416.97 2062.0
325.97 416.81 2061.2
339.28 426.83 2110.7
340.98 422.16 2087.6
341.92 416.71 2060.7
365.53 438.64 2169.1
377.13 445.69 2204.0
366.57 426.75 2110.3
357.24 409.77 2026.3
360.78 407.84 2016.8
393.17 438.10 2166.5
420.96 456.04 2255.2
405.46 433.23 2142.3
401.58 423.29 2093.2
415.81 432.44 2138.4
444.86 456.56 2257.7
483.67 460.07 2275.1
500.46 470.31 2325.7
24.81 477.65 2392.7
37.26 478.20 2395.5
51.35 494.21 2475.6
57.21 489.48 2452.0
89.90 461.48 2311.7
92.10 443.24 2220.3
97.03 439.48 2201.5
118.48 456.13 2284.9
147.48 454.24 2275.4
150.85 446.74 2237.9
157.51 449.21 2250.2
161.61 444.44 2226.3
169.19 449.24 2250.4
179.56 460.87 2308.6
177.57 441.07 2209.4
178.24 428.88 2148.4
182.76 426.45 2136.2
185.94 421.09 2109.4
191.81 421.97 2113.8
195.05 417.20 2089.9
198.36 412.81 2067.9
204.64 414.66 2077.2
212.83 420.21 2104.9
223.80 430.81 2158.1
231.20 434.21 2175.1
231.89 425.14 2129.6
242.78 434.75 2177.8
271.35 435.29 2180.5
275.93 433.60 2172.0
271.89 418.70 2097.4
276.68 409.70 2052.3
289.38 420.43 2106.0
307.94 439.10 2199.6
325.13 439.22 2200.2
325.76 432.47 2166.4
333.18 434.83 2178.2
327.39 420.15 2104.6
325.06 410.32 2055.4
340.84 423.31 2120.5
346.21 423.14 2119.6
344.01 413.89 2073.3
365.06 432.46 2166.3
374.99 437.49 2191.5
362.88 417.04 2089.1
356.90 404.14 2024.4
363.72 405.89 2033.2
386.53 425.18 2129.8
405.38 439.63 2202.3
419.19 448.30 2245.6
421.53 444.63 2227.3
421.93 439.04 2199.3
442.05 453.83 2273.4
460.25 466.31 2335.9
477.03 453.47 2271.6
18.92 479.42 2433.1
24.77 470.71 2388.9
49.74 472.57 2398.4
56.26 475.06 2411.0
69.64 481.18 2442.1
74.02 468.78 2379.1
89.10 451.46 2291.2
100.40 448.86 2278.0
101.81 429.88 2181.7
112.69 428.23 2173.3
124.98 452.30 2295.5
125.10 432.17 2193.3
138.13 456.42 2316.4
156.00 456.01 2314.3
158.21 445.33 2260.1
158.21 429.44 2179.5
160.52 420.68 2135.0
165.65 419.64 2129.7
168.93 414.16 2101.9
174.19 413.69 2099.6
187.37 431.52 2190.0
198.95 444.72 2257.0
200.06 434.41 2204.7
198.89 419.87 2130.9
203.71 418.43 2123.6
210.61 421.21 2137.7
216.39 421.69 2140.1
224.82 427.16 2167.9
237.12 439.55 2230.8
243.37 440.39 2235.1
243.99 431.24 2188.6
249.59 431.12 2188.0
254.06 429.08 2177.6
258.12 426.45 2164.3
270.89 438.04 2223.1
279.84 443.09 2248.7
283.61 439.88 2232.5
278.20 422.86 2146.1
301.56 424.41 2154.0
314.10 434.03 2202.8
320.12 434.45 2204.9
322.56 430.09 2182.8
328.69 430.69 2185.9
337.79 435.12 2208.3
334.64 423.88 2151.2
332.88 414.73 2104.9
347.86 426.41 2164.1
373.02 429.54 2180.0
368.94 418.50 2123.9
369.51 412.99 2096.0
371.67 409.38 2077.7
388.82 422.14 2142.5
403.26 431.66 2190.8
413.44 436.41 2214.9
427.94 445.53 2261.1
439.71 451.59 2291.9
462.43 439.31 2229.6
502.74 454.86 2308.5
31.48 472.17 2428.3
49.89 467.72 2405.4
57.22 476.86 2452.4
62.71 470.34 2418.9
64.75 441.50 2270.6
74.83 431.70 2220.2
84.00 449.98 2314.2
87.05 435.25 2238.4
97.12 428.48 2203.6
109.32 455.51 2342.6
117.42 440.34 2264.6
135.68 442.44 2275.4
144.24 450.76 2318.2
143.18 429.54 2209.1
166.20 429.81 2210.5
173.34 433.35 2228.7
178.85 432.69 2225.3
186.85 437.93 2252.2
195.54 419.02 2154.9
199.08 414.74 2133.0
208.78 423.19 2176.4
211.00 416.44 2141.7
212.15 407.98 2098.2
221.49 415.29 2135.8
234.75 429.42 2208.4
251.94 439.43 2259.9
252.61 430.58 2214.4
251.56 419.27 2156.3
250.80 408.91 2103.0
257.96 411.63 2117.0
270.52 422.69 2173.8
278.42 426.16 2191.7
279.60 419.39 2156.9
299.52 416.00 2139.4
308.01 420.02 2160.1
317.59 425.35 2187.5
324.01 426.33 2192.6
330.74 427.69 2199.5
340.33 432.62 2224.9
345.36 431.71 2220.2
352.52 433.43 2229.1
349.59 422.89 2174.9
349.39 415.94 2139.1
362.99 425.38 2187.7
363.94 419.93 2159.7
368.23 418.44 2152.0
379.03 424.29 2182.1
378.90 417.90 2149.2
379.81 412.83 2123.1
389.00 416.79 2143.5
395.27 417.54 2147.4
406.07 422.99 2175.4
420.65 432.18 2222.6
411.23 416.79 2143.5
404.97 404.97 2082.7
437.14 431.39 2218.6
460.76 448.79 2308.1
466.71 448.76 2307.9
461.82 438.43 2254.8
476.47 441.18 2268.9
57.41 472.05 2460.5
85.41 421.37 2196.3
93.01 430.17 2242.2
97.39 423.92 2209.6
104.20 428.38 2232.9
113.94 443.77 2313.1
116.51 431.10 2247.1
118.32 416.93 2173.2
128.52 432.30 2253.3
139.43 448.60 2338.3
141.02 434.81 2266.4
170.84 435.94 2272.3
176.85 436.23 2273.8
195.44 425.36 2217.1
197.68 417.95 2178.5
210.75 421.50 2197.0
202.24 393.83 2052.8
209.98 398.42 2076.7
227.06 420.07 2189.5
223.23 402.90 2100.1
233.23 401.38 2092.1
243.15 408.94 2131.5
248.95 409.39 2133.9
255.11 410.39 2139.1
270.44 425.80 2219.4
281.50 416.62 2171.6
285.62 414.43 2160.1
291.52 414.85 2162.4
299.70 418.45 2181.1
313.29 429.32 2237.8
308.58 415.17 2164.0
305.04 403.09 2101.0
311.38 404.25 2107.1
319.21 407.27 2122.8
326.53 409.54 2134.7
328.92 405.66 2114.5
342.10 415.00 2163.1
346.17 413.17 2153.6
329.91 387.52 2019.9
342.72 390.18 2033.7
366.08 410.46 2139.4
382.57 422.54 2202.4
386.58 420.69 2192.8
383.45 411.23 2143.5
388.13 410.31 2138.7
397.59 414.39 2160.0
412.39 423.84 2209.2
423.41 429.21 2237.2
408.64 408.64 2130.0
444.62 427.29 2227.2
466.34 442.43 2306.1
473.47 443.50 2311.7
482.82 446.61 2327.9
56.87 461.24 2437.1
65.18 432.55 2285.5
70.98 431.78 2281.4
75.83 425.80 2249.8
81.30 423.90 2239.8
89.23 434.27 2294.6
96.43 439.98 2324.8
100.07 429.72 2270.5
103.29 418.90 2213.3
108.92 418.47 2211.1
118.45 432.35 2284.4
149.16 435.56 2301.4
146.58 411.55 2174.5
149.52 404.25 2135.9
165.41 431.26 2278.7
187.03 426.66 2254.4
181.27 401.00 2118.8
185.78 398.87 2107.6
201.86 421.01 2224.5
205.97 406.38 2147.2
209.27 402.02 2124.2
222.19 395.61 2090.3
228.33 387.64 2048.2
239.82 397.88 2102.3
246.90 400.53 2116.3
251.50 399.12 2108.9
265.33 412.12 2177.5
284.91 415.98 2197.9
293.35 419.90 2218.6
311.68 406.30 2146.8
312.53 400.26 2114.9
318.19 400.48 2116.1
322.82 399.42 2110.4
327.41 398.35 2104.8
343.48 411.06 2171.9
348.04 409.79 2165.2
332.60 385.39 2036.3
345.01 387.47 2047.3
359.45 397.58 2100.7
367.44 400.34 2115.3
411.13 428.75 2265.4
402.58 413.92 2187.1
421.78 427.64 2259.5
438.78 438.78 2318.4
421.61 415.92 2197.6
447.52 424.27 2241.7
464.41 434.64 2296.5
465.99 430.60 2275.2
25.02 450.28 2412.2
37.00 444.01 2378.6
43.22 444.54 2381.5
55.97 447.80 2398.9
64.46 464.10 2486.2
67.87 444.26 2379.9
71.19 427.17 2288.4
77.95 431.72 2312.8
85.43 439.38 2353.8
88.85 426.50 2284.8
90.78 408.49 2188.4
121.96 418.14 2240.0
129.26 423.03 2266.2
133.94 419.31 2246.3
138.34 415.03 2223.4
148.98 429.06 2298.6
153.66 425.51 2279.5
153.50 409.33 2192.8
167.48 430.67 2307.2
178.71 415.06 2223.5
173.05 389.37 2085.9
191.47 393.87 2110.0
199.45 398.90 2137.0
207.19 403.19 2159.9
222.31 400.15 2143.7
224.58 394.39 2112.8
234.04 401.22 2149.4
239.66 401.29 2149.8
243.16 397.90 2131.6
248.73 397.97 2132.0
251.97 394.39 2112.8
245.95 376.78 2018.5
269.52 396.03 2121.6
286.06 411.92 2206.7
281.24 397.05 2127.1
279.31 386.73 2071.8
288.73 392.24 2101.3
294.63 392.83 2104.5
306.92 401.78 2152.4
317.62 408.36 2187.7
316.41 399.68 2141.2
319.80 396.99 2126.8
333.37 406.83 2179.4
346.75 416.11 2229.1
358.04 415.78 2227.4
342.90 391.89 2099.4
339.35 381.77 2045.2
375.89 416.37 2230.5
377.37 405.53 2172.5
366.79 388.36 2080.5
397.48 414.76 2221.9
385.68 396.70 2125.2
379.97 385.33 2064.2
401.76 401.76 2152.3
430.75 424.85 2276.0
429.22 417.62 2237.2
421.30 404.45 2166.7
452.19 428.39 2295.0
459.47 429.63 2301.6
444.73 410.52 2199.2
462.45 421.48 2257.9
31.03 440.60 2393.6
36.93 436.96 2373.8
55.63 438.89 2384.3
69.19 446.61 2426.3
73.00 431.92 2346.5
80.14 437.68 2377.7
85.90 435.65 2366.7
87.86 415.89 2259.4
91.02 403.91 2194.3
96.22 401.88 2183.2
119.13 402.76 2188.1
126.46 408.13 2217.2
130.79 403.73 2193.3
136.21 402.95 2189.1
147.97 420.23 2282.9
165.55 405.31 2201.9
163.22 386.28 2098.5
199.45 393.36 2137.0
213.58 409.85 2226.5
215.16 402.00 2183.9
208.10 378.84 2058.1
215.10 381.81 2074.2
233.32 404.04 2195.0
240.01 405.73 2204.2
242.49 400.40 2175.2
246.84 398.31 2163.8
253.06 399.27 2169.1
259.19 400.06 2173.3
256.06 386.81 2101.4
254.50 376.45 2045.1
271.13 392.86 2134.3
285.30 405.13 2200.9
276.47 384.89 2091.0
275.49 376.15 2043.5
286.45 383.74 2084.7
286.23 369.49 2007.3
299.38 379.58 2062.1
300.74 374.60 2035.1
306.19 374.82 2036.3
321.77 387.22 2103.6
333.76 394.94 2145.6
343.18 399.44 2170.0
344.93 395.00 2145.9
330.84 372.85 2025.6
395.05 418.64 2274.3
364.22 380.29 2066.0
372.19 382.98 2080.6
381.63 387.09 2102.9
397.07 397.07 2157.1
414.94 409.18 2222.9
438.99 426.96 2319.5
442.57 424.63 2306.9
439.52 416.08 2260.4
464.49 428.29 2326.7
461.51 420.10 2282.2
54.70 425.41 2344.1
62.32 436.27 2403.9
91.50 426.99 2352.8
95.75 418.92 2308.3
99.86 411.21 2265.8
123.19 410.65 2262.7
131.73 419.15 2309.6
134.24 408.57 2251.3
138.53 404.05 2226.4
145.49 407.37 2244.7
155.19 417.82 2302.3
158.38 410.62 2262.6
162.38 378.88 2087.7
180.37 394.57 2174.1
184.38 391.10 2155.1
182.66 376.07 2072.2
193.33 386.66 2130.6
208.50 405.42 2234.0
207.57 392.70 2163.9
226.67 396.68 2185.8
250.35 407.54 2245.6
252.30 401.39 2211.8
249.30 387.80 2136.8
246.49 375.09 2066.8
263.79 392.89 2164.9
287.08 401.91 2214.6
285.24 391.51 2157.3
291.26 392.09 2160.5
296.90 392.13 2160.7
286.84 371.83 2048.9
289.41 368.34 2029.6
302.21 377.76 2081.5
311.95 383.10 2111.0
326.82 394.44 2173.5
332.48 394.47 2173.6
333.75 389.38 2145.6
339.34 389.41 2145.7
336.49 379.91 2093.4
342.88 375.02 2066.4
362.49 390.37 2151.0
377.37 400.24 2205.4
381.25 398.32 2194.8
381.13 392.34 2161.9
390.38 396.04 2182.3
402.55 402.55 2218.1
422.02 416.07 2292.6
435.54 411.99 2270.2
432.57 403.73 2224.7
458.88 422.65 2328.9
464.11 421.92 2324.9
464.64 416.99 2297.7
37.85 435.25 2433.1
55.57 426.03 2381.6
62.53 431.46 2411.9
70.58 442.70 2474.7
98.20 423.50 2367.4
101.38 411.50 2300.3
104.12 399.14 2231.2
109.46 397.50 2222.1
112.96 389.72 2178.5
118.59 389.66 2178.2
142.12 392.24 2192.7
150.29 398.86 2229.6
152.06 388.60 2172.3
151.25 372.72 2083.5
162.82 387.40 2165.6
174.74 401.90 2246.7
184.00 409.55 2289.4
190.33 397.97 2224.7
185.60 376.66 2105.5
194.13 382.71 2139.4
205.49 393.85 2201.6
201.18 375.17 2097.2
220.66 390.41 2182.4
232.97 401.87 2246.5
237.79 400.19 2237.1
240.01 394.30 2204.2
238.02 381.94 2135.1
243.71 382.19 2136.4
244.05 374.20 2091.8
247.00 362.62 2027.1
268.59 386.10 2158.3
273.61 385.29 2153.8
280.37 386.91 2162.8
286.40 387.48 2166.1
282.05 374.26 2092.2
297.46 373.18 2086.1
312.10 384.55 2149.7
324.90 393.30 2198.6
333.12 396.29 2215.3
330.40 386.40 2160.0
343.29 394.78 2206.8
348.05 387.34 2165.3
333.68 365.45 2042.9
347.43 368.81 2061.7
367.41 384.11 2147.2
375.85 387.07 2163.7
372.41 377.88 2112.4
379.80 379.80 2123.1
388.30 382.75 2139.6
402.41 391.07 2186.1
429.22 411.34 2299.4
436.84 407.32 2277.0
445.54 409.90 2291.4
464.85 411.21 2298.7
468.99 409.63 2289.8
43.08 418.53 2374.0
50.91 432.74 2454.6
69.34 428.67 2431.5
73.71 417.70 2369.3
79.38 415.24 2355.4
86.91 422.15 2394.5
91.85 416.38 2361.8
94.49 401.59 2277.9
101.47 405.89 2302.3
108.44 409.66 2323.7
113.53 406.31 2304.7
117.30 398.80 2262.1
122.93 398.06 2257.9
128.71 397.83 2256.6
126.04 372.64 2113.7
154.47 389.02 2206.7
178.10 403.70 2289.9
176.82 387.87 2200.1
175.16 372.21 2111.3
193.02 397.74 2256.1
206.14 400.51 2271.8
205.85 388.83 2205.5
211.14 388.05 2201.1
220.95 395.38 2242.7
222.84 388.55 2203.9
216.71 368.41 2089.7
224.99 373.15 2116.6
231.37 374.61 2124.9
228.85 361.90 2052.8
233.55 360.94 2047.3
248.83 376.02 2132.9
255.11 377.11 2139.1
247.35 357.87 2029.9
249.86 353.96 2007.8
283.82 357.40 2027.3
293.56 362.95 2058.7
301.62 366.26 2077.5
317.27 378.50 2146.9
328.28 384.88 2183.2
324.14 373.58 2119.0
335.86 380.65 2159.1
358.10 399.20 2264.4
346.79 380.35 2157.5
368.76 374.27 2122.9
380.78 380.78 2159.9
380.83 375.31 2128.9
382.14 371.22 2105.6
384.03 367.81 2086.3
396.86 374.81 2126.0
425.28 396.15 2247.1
437.59 402.11 2280.9
430.31 390.15 2213.0
44.68 427.61 2461.7
64.53 432.33 2488.9
69.40 422.72 2433.6
74.27 414.65 2387.1
80.71 415.99 2394.8
84.98 406.71 2341.4
86.34 385.64 2220.1
91.68 383.89 2210.0
101.39 399.58 2300.4
108.35 403.30 2321.7
113.63 400.68 2306.7
120.10 402.34 2316.3
140.17 408.32 2350.7
145.02 404.84 2330.7
148.49 397.95 2291.0
139.43 359.29 2068.4
146.83 364.35 2097.5
161.80 387.16 2228.8
163.93 378.72 2180.3
173.75 388.04 2233.9
180.14 389.33 2241.3
176.38 369.29 2126.0
191.51 388.82 2238.4
203.47 389.50 2242.3
203.65 379.02 2182.0
208.88 378.25 2177.5
207.91 366.57 2110.3
223.73 365.61 2104.8
238.94 381.17 2194.4
245.44 382.43 2201.6
242.36 369.05 2124.6
250.43 372.86 2146.5
260.82 379.89 2187.0
256.63 365.84 2106.1
260.31 363.35 2091.8
264.41 361.54 2081.4
261.36 350.22 2016.2
273.48 352.37 2028.5
293.00 370.39 2132.3
306.08 379.76 2186.3
313.03 381.32 2195.2
314.21 375.94 2164.2
323.02 379.69 2185.9
334.43 386.33 2224.1
329.49 374.17 2154.1
334.34 373.35 2149.3
348.10 382.34 2201.1
357.42 386.24 2223.6
359.70 382.54 2202.3
347.36 363.64 2093.4
362.40 367.90 2118.0
400.45 394.56 2271.5
392.80 381.41 2195.8
419.96 385.44 2219.0
423.66 383.58 2208.2
409.24 365.58 2104.6
37.73 415.02 2425.5
55.41 406.36 2374.8
62.18 410.38 2398.3
69.97 419.80 2453.4
85.84 404.69 2365.1
88.67 390.16 2280.2
95.96 395.85 2313.4
103.43 401.54 2346.6
107.48 394.08 2303.1
114.45 397.57 2323.5
122.35 403.75 2359.6
125.77 395.28 2310.1
129.66 388.99 2273.3
138.29 396.85 2319.2
157.90 385.99 2255.8
162.08 382.05 2232.8
164.14 373.57 2183.2
173.75 382.24 2233.9
190.75 381.50 2229.6
187.75 364.45 2129.9
189.93 358.15 2093.1
197.14 361.43 2112.3
206.81 368.90 2155.9
208.96 362.94 2121.1
211.73 358.31 2094.0
228.60 377.18 2204.3
252.19 378.28 2210.7
248.71 364.77 2131.8
247.39 354.95 2074.4
257.58 361.71 2113.9
277.95 382.19 2233.6
289.99 382.78 2237.0
291.68 377.47 2206.0
300.47 381.36 2228.7
308.69 384.41 2246.5
309.90 378.76 2213.5
322.21 386.65 2259.6
327.95 386.51 2258.8
324.03 375.19 2192.7
322.99 367.54 2148.0
324.56 363.07 2121.8
335.24 368.77 2155.1
353.33 382.29 2234.2
373.81 385.49 2252.9
353.94 359.38 2100.3
365.55 365.55 2136.3
397.94 392.00 2290.9
398.05 386.34 2257.9
391.92 374.88 2190.9
393.94 361.11 2110.4
428.42 377.01 2203.3
38.51 417.22 2475.8
43.73 406.07 2409.6
48.97 397.91 2361.2
56.86 410.68 2437.0
62.21 404.34 2399.4
68.11 402.48 2388.4
72.67 393.65 2335.9
83.63 388.27 2304.0
94.65 410.15 2433.9
99.27 403.30 2393.2
103.77 396.78 2354.5
111.52 402.72 2389.7
128.24 396.92 2355.4
126.97 375.13 2226.0
130.72 369.43 2192.2
138.35 374.69 2223.4
144.15 374.79 2224.0
148.23 370.58 2199.1
152.32 366.71 2176.1
162.72 377.75 2241.6
170.13 381.32 2262.8
166.48 360.70 2140.4
166.46 349.04 2071.2
182.97 371.66 2205.4
193.44 381.02 2261.0
192.33 367.69 2181.9
196.16 364.30 2161.8
197.59 356.77 2117.1
201.15 353.37 2096.9
213.50 365.20 2167.1
225.81 376.35 2233.3
236.90 366.64 2175.6
226.52 342.42 2031.9
241.34 356.52 2115.6
255.21 368.64 2187.5
259.99 367.37 2180.0
280.79 372.48 2210.3
283.64 368.73 2188.1
283.40 361.20 2143.4
289.92 362.40 2150.5
296.20 363.26 2155.6
291.70 351.12 2083.6
296.72 350.67 2080.9
328.37 381.14 2261.7
338.09 378.89 2248.4
324.40 357.39 2120.8
319.31 345.92 2052.7
323.58 344.80 2046.1
346.76 363.54 2157.3
368.43 380.13 2255.7
380.59 386.54 2293.7
374.57 374.57 2222.7
364.21 358.69 2128.5
374.30 363.12 2154.8
386.06 369.02 2189.8
391.39 368.70 2187.9
389.49 361.67 2146.2
401.48 367.56 2181.1
38.44 409.99 2470.9
44.25 404.57 2438.3
50.32 402.59 2426.3
57.49 408.78 2463.7
61.82 395.67 2384.6
67.16 390.73 2354.9
71.20 379.74 2288.6
85.59 391.29 2358.2
92.93 396.49 2389.5
93.22 372.90 2247.4
101.73 383.00 2308.2
132.69 386.02 2326.5
132.72 369.30 2225.7
137.36 366.30 2207.6
142.11 363.79 2192.5
144.98 356.87 2150.8
149.56 354.52 2136.6
160.58 367.03 2212.0
167.61 369.90 2229.3
162.34 346.33 2087.2
175.38 350.76 2113.9
188.81 366.18 2206.9
192.58 362.51 2184.8
196.24 358.84 2162.7
196.30 348.98 2103.2
195.39 337.98 2036.9
204.50 344.41 2075.7
216.97 356.05 2145.9
231.54 370.46 2232.7
239.24 373.45 2250.7
227.07 346.01 2085.3
230.55 343.15 2068.1
257.72 343.62 2070.9
269.47 351.96 2121.2
289.34 370.36 2232.1
284.94 357.58 2155.0
286.74 352.91 2126.9
302.90 365.77 2204.4
308.10 365.16 2200.7
298.93 347.85 2096.4
315.74 360.85 2174.8
323.99 357.51 2154.6
324.38 351.87 2120.7
332.64 354.81 2138.4
323.10 338.99 2043.0
332.50 343.22 2068.5
359.52 365.22 2201.1
380.91 380.91 2295.6
375.88 370.09 2230.5
366.19 355.09 2140.1
366.34 349.94 2109.0
367.88 346.24 2086.7
380.60 353.02 2127.6
385.42 352.38 2123.7
409.51 369.14 2224.7
50.49 397.59 2434.2
54.03 378.23 2315.7
61.85 389.65 2385.6
71.18 407.67 2495.9
76.29 400.55 2452.3
79.95 387.47 2372.2
87.81 395.16 2419.4
91.05 382.40 2341.2
91.22 359.17 2199.0
98.99 366.86 2246.1
108.44 379.54 2323.7
112.90 374.34 2291.9
117.95 371.56 2274.8
126.20 378.59 2317.9
134.55 385.30 2359.0
139.76 382.83 2343.8
137.05 359.76 2202.6
134.18 338.15 2070.3
142.12 344.36 2108.3
152.11 354.92 2173.0
165.22 371.74 2275.9
174.12 378.26 2315.9
173.97 365.33 2236.7
177.12 359.95 2203.8
186.88 367.91 2252.5
195.28 372.81 2282.5
201.16 372.73 2282.0
216.97 359.71 2202.3
218.05 352.24 2156.6
220.23 346.86 2123.6
215.55 331.22 2027.9
222.25 333.37 2041.0
244.32 357.95 2191.6
261.24 350.18 2143.9
267.46 343.88 2105.4
290.35 365.84 2239.8
288.29 356.13 2180.4
296.75 359.53 2201.2
318.98 365.38 2237.0
309.06 347.70 2128.8
306.53 338.80 2074.3
313.56 340.59 2085.2
340.19 363.25 2224.0
355.46 367.12 2247.6
350.96 356.62 2183.4
365.39 365.39 2237.1
381.06 375.11 2296.6
365.04 353.80 2166.1
361.01 344.60 2109.8
368.01 346.04 2118.6
375.57 347.96 2130.3
396.58 362.09 2216.9
399.85 359.87 2203.3
408.72 347.97 2130.4
50.92 394.61 2455.0
60.93 377.75 2350.1
87.82 363.00 2258.3
97.27 376.92 2344.9
99.08 361.34 2248.0
101.90 351.00 2183.6
113.23 369.50 2298.7
127.75 377.17 2346.4
128.81 363.01 2258.4
133.35 359.48 2236.4
130.36 336.77 2095.1
136.16 337.67 2100.7
153.53 366.11 2277.7
149.27 342.78 2132.5
163.09 348.66 2169.1
168.60 348.44 2167.7
170.63 341.25 2123.0
179.85 348.46 2167.8
188.54 354.23 2203.8
194.56 354.79 2207.2
218.44 347.26 2160.4
211.56 327.91 2040.0
214.91 324.99 2021.8
229.50 338.78 2107.6
238.07 343.27 2135.5
246.00 346.64 2156.5
240.88 331.88 2064.7
253.17 327.01 2034.4
261.35 330.69 2057.3
268.76 333.26 2073.3
286.34 348.10 2165.6
318.41 358.94 2233.0
313.30 346.87 2158.0
318.93 346.90 2158.2
339.09 362.47 2255.0
357.20 369.10 2296.3
357.15 363.00 2258.3
356.74 356.74 2219.4
357.90 352.22 2191.2
354.54 343.46 2136.7
361.90 345.20 2147.5
381.64 358.51 2230.4
391.48 362.27 2253.7
404.19 368.52 2292.7
420.57 367.25 2284.8
427.56 368.18 2290.5
37.98 386.10 2441.4
66.76 370.22 2341.0
96.20 366.78 2319.2
99.73 357.84 2262.7
108.13 347.15 2195.1
118.87 362.55 2292.5
117.76 342.07 2163.0
125.66 348.41 2203.1
137.93 365.83 2313.2
139.55 354.70 2242.8
150.39 366.96 2320.4
152.23 343.93 2174.7
152.76 332.80 2104.4
168.85 355.17 2245.8
167.37 340.31 2151.8
190.32 331.70 2097.4
220.14 353.39 2234.5
208.89 326.72 2065.9
213.07 324.93 2054.6
227.73 338.82 2142.5
236.76 343.86 2174.3
239.37 339.57 2147.2
245.20 339.94 2149.5
236.74 320.91 2029.2
250.59 318.45 2013.6
258.46 321.76 2034.6
264.67 322.90 2041.7
280.75 335.80 2123.4
308.34 361.71 2287.1
311.62 352.02 2225.9
306.69 340.14 2150.8
323.79 352.70 2230.2
343.90 355.55 2248.2
335.77 341.37 2158.5
324.57 324.57 2052.3
335.25 329.84 2085.6
350.39 339.27 2145.3
343.36 327.26 2069.3
347.26 325.89 2060.7
361.12 333.77 2110.5
363.06 330.55 2090.1
385.00 335.50 2121.4
399.26 343.03 2169.0
394.01 333.81 2110.7
66.65 363.53 2337.0
82.11 351.92 2262.3
88.74 354.95 2281.9
102.33 361.18 2321.8
133.25 363.40 2336.2
136.73 341.81 2197.4
141.50 339.61 2183.2
147.14 339.55 2182.9
145.60 323.55 2080.0
153.97 329.93 2121.0
168.94 326.98 2102.0
179.18 325.77 2094.3
188.38 332.44 2137.1
192.54 330.07 2121.9
208.92 348.21 2238.5
219.49 355.93 2288.1
211.03 333.20 2142.0
212.35 326.69 2100.2
230.07 345.11 2218.6
234.93 343.80 2210.1
233.21 333.16 2141.7
238.15 332.30 2136.2
246.31 335.87 2159.2
251.26 335.01 2153.7
246.59 321.64 2067.7
263.30 322.41 2072.6
275.70 330.84 2126.8
283.97 334.09 2147.7
303.05 349.67 2247.9
303.52 343.61 2208.9
288.31 320.35 2059.4
304.01 331.65 2132.0
324.22 335.40 2156.1
333.87 339.53 2182.7
346.54 346.54 2227.7
335.04 329.54 2118.5
347.77 336.55 2163.5
356.58 339.60 2183.2
339.28 318.08 2044.8
348.26 316.60 2035.3
358.80 321.31 2065.6
363.83 321.02 2063.7
372.32 323.76 2081.3
397.15 340.41 2188.4
402.28 339.96 2185.4
55.32 362.64 2370.8
60.97 359.75 2351.9
70.05 375.74 2456.4
80.81 366.77 2397.8
81.54 343.62 2246.4
91.39 359.45 2349.9
98.54 342.00 2235.8
107.34 333.31 2179.0
112.61 332.21 2171.9
121.02 340.02 2222.9
132.68 355.82 2326.2
133.69 342.94 2242.0
129.35 317.99 2078.8
143.28 325.12 2125.5
145.38 317.68 2076.8
156.90 319.22 2086.9
169.95 334.23 2185.1
167.42 318.64 2083.1
169.52 312.55 2043.3
184.05 329.06 2151.2
193.23 335.31 2192.1
196.10 330.57 2161.1
197.15 323.11 2112.4
199.28 309.41 2022.8
215.61 326.19 2132.4
237.71 350.62 2292.2
243.04 341.41 2232.0
247.44 339.52 2219.6
246.85 331.01 2164.0
242.54 317.99 2078.9
243.05 311.74 2038.0
246.95 310.00 2026.6
256.88 315.75 2064.2
276.86 333.36 2179.3
285.85 337.30 2205.1
291.21 336.89 2202.4
293.78 333.33 2179.2
315.23 332.12 2171.2
321.32 332.60 2174.4
307.43 312.73 2044.5
323.98 323.98 2118.0
354.27 348.36 2277.4
365.01 347.34 2270.8
359.75 336.91 2202.5
353.17 325.58 2128.5
361.83 328.43 2147.1
369.41 330.23 2158.9
380.26 334.86 2189.1
395.56 343.20 2243.7
411.64 351.99 2301.1
62.69 363.60 2418.0
69.32 365.50 2430.7
75.06 362.80 2412.7
80.05 357.12 2375.0
84.26 349.07 2321.4
100.32 342.28 2276.2
103.45 333.33 2216.7
107.48 328.09 2181.9
118.01 325.92 2167.5
129.58 341.61 2271.8
136.68 344.68 2292.2
139.29 336.61 2238.6
137.46 318.90 2120.8
140.07 312.47 2078.0
153.17 329.03 2188.1
163.32 338.31 2249.9
160.52 321.05 2135.0
165.90 310.40 2064.2
179.31 325.00 2161.4
192.30 337.97 2247.6
199.38 340.12 2261.9
204.22 338.42 2250.6
205.04 330.34 2196.9
198.31 310.87 2067.4
203.82 311.09 2068.8
212.91 316.64 2105.7
225.86 327.50 2178.0
237.09 335.40 2230.5
238.53 329.40 2190.6
241.51 325.76 2166.4
239.88 316.21 2102.9
240.45 309.91 2061.0
246.07 310.27 2063.3
256.97 317.11 2108.9
274.57 331.77 2206.4
288.30 341.26 2269.4
289.90 336.28 2236.4
289.64 329.39 2190.5
286.23 319.26 2123.1
285.85 312.81 2080.3
287.71 309.02 2055.1
311.52 311.52 2071.7
323.20 317.72 2112.9
346.80 335.24 2229.4
362.33 344.51 2291.1
368.28 344.52 2291.2
372.80 343.21 2282.4
378.07 342.63 2278.6
373.80 333.54 2218.1
367.38 322.85 2147.0
366.18 316.99 2108.1
365.82 312.02 2075.0
387.93 326.09 2168.6
73.12 347.33 2350.3
79.88 350.22 2369.9
84.00 342.01 2314.4
99.45 333.44 2256.3
104.96 332.37 2249.2
111.22 333.65 2257.8
115.42 328.93 2225.9
127.14 345.09 2335.2
133.63 346.21 2342.8
134.85 334.19 2261.5
143.89 341.73 2312.5
147.75 336.86 2279.5
145.78 319.59 2162.7
155.71 328.73 2224.5
164.44 323.21 2187.1
161.64 307.11 2078.2
170.09 312.74 2116.3
183.96 327.68 2217.4
197.68 341.45 2310.6
203.45 341.08 2308.1
206.35 336.06 2274.1
220.19 330.29 2235.0
221.65 323.95 2192.1
231.25 329.54 2230.0
239.48 332.94 2253.0
232.41 315.41 2134.3
227.57 301.66 2041.3
252.61 313.02 2118.1
279.56 339.05 2294.3
285.79 339.38 2296.5
287.04 333.90 2259.5
295.60 336.99 2280.4
302.06 337.60 2284.5
296.78 325.32 2201.4
293.76 315.94 2137.9
311.69 329.00 2226.3
299.75 310.65 2102.1
308.99 303.66 2054.8
322.87 311.93 2110.8
333.09 316.43 2141.3
331.55 309.81 2096.5
388.90 341.03 2307.7
390.54 337.29 2282.4
395.44 336.42 2276.5
377.98 316.84 2144.0
382.33 315.83 2137.2
423.83 335.53 2270.5
67.68 344.55 2373.2
74.90 349.55 2407.6
96.10 336.36 2316.7
98.04 322.97 2224.5
106.06 329.97 2272.7
115.54 340.55 2345.6
122.94 344.23 2371.0
129.18 344.47 2372.6
130.24 331.51 2283.4
131.66 320.56 2208.0
139.82 326.25 2247.1
147.10 329.50 2269.5
147.30 317.26 2185.2
167.69 313.01 2156.0
170.54 308.08 2122.0
178.79 312.89 2155.1
192.86 327.28 2254.2
199.10 327.92 2258.7
205.80 329.28 2268.0
230.29 330.68 2277.6
248.71 323.90 2230.9
247.35 314.81 2168.3
241.32 300.31 2068.4
250.71 305.21 2102.2
276.19 329.08 2266.6
281.37 328.27 2261.0
285.52 326.31 2247.6
296.22 331.77 2285.1
303.08 332.80 2292.2
298.21 321.15 2212.0
283.09 299.12 2060.2
285.86 296.45 2041.9
318.44 324.23 2233.2
331.65 331.65 2284.3
301.57 296.28 2040.7
324.23 302.61 2084.3
327.34 300.51 2069.8
350.80 316.85 2182.4
358.87 318.99 2197.1
356.80 312.20 2150.4
370.94 319.58 2201.2
385.34 326.96 2252.0
403.21 332.05 2287.1
369.74 300.08 2066.9
411.48 324.55 2235.4
401.64 312.39 2151.7
90.41 331.49 2324.7
98.11 337.24 2365.1
110.30 337.02 2363.5
110.96 321.19 2252.5
131.41 314.25 2203.8
138.27 316.88 2222.3
144.14 317.11 2223.9
148.22 313.54 2198.8
144.97 295.31 2071.0
170.57 323.50 2268.7
212.53 315.92 2215.5
217.93 315.42 2212.0
226.09 318.85 2236.1
237.39 303.64 2129.4
252.60 315.75 2214.4
263.78 322.39 2260.9
252.44 301.83 2116.7
256.77 300.48 2107.3
268.27 307.39 2155.7
279.89 314.16 2203.2
279.91 307.90 2159.3
275.68 297.30 2084.9
296.73 313.85 2201.0
307.05 318.64 2234.6
302.85 308.46 2163.2
325.13 325.13 2280.1
332.63 326.69 2291.0
334.39 306.53 2149.7
348.03 313.80 2200.7
349.20 309.77 2172.4
332.98 290.69 2038.6
391.32 316.51 2219.7
400.04 318.87 2236.2
86.54 333.79 2384.2
94.86 320.15 2286.8
105.53 335.21 2394.3
106.41 319.24 2280.3
107.93 306.74 2191.0
135.47 318.06 2271.8
141.21 317.73 2269.5
147.52 318.65 2276.1
151.53 314.72 2248.0
161.69 323.38 2309.9
213.16 319.75 2283.9
205.70 300.21 2144.3
212.86 302.48 2160.6
217.21 300.75 2148.2
229.36 309.64 2211.7
241.34 310.30 2216.4
256.87 308.24 2201.7
271.77 319.03 2278.8
267.29 307.10 2193.5
272.64 306.73 2190.9
279.74 308.28 2202.0
273.38 295.25 2109.0
270.45 286.36 2045.4
295.38 306.74 2191.0
321.77 321.77 2298.4
326.36 320.42 2288.7
315.24 303.98 2171.3
306.70 290.56 2075.4
313.74 292.10 2086.4
336.08 297.52 2125.1
368.34 320.81 2291.5
344.75 295.50 2110.7
355.24 295.12 2108.0
385.61 315.50 2253.6
386.71 311.68 2226.3
407.39 314.27 2244.8
405.67 308.54 2203.8
85.92 325.27 2367.2
96.78 320.58 2333.1
100.16 312.25 2272.5
106.45 313.44 2281.1
113.47 316.53 2303.6
119.38 316.35 2302.3
128.19 323.52 2354.4
149.88 317.75 2312.5
174.64 289.25 2105.1
197.69 299.36 2178.7
211.95 312.04 2270.9
220.15 315.35 2295.0
217.11 302.81 2203.7
211.60 287.56 2092.8
216.87 287.35 2091.2
229.77 297.02 2161.6
256.00 315.53 2296.3
241.21 290.55 2114.5
253.40 298.45 2172.0
271.27 312.55 2274.7
272.53 307.32 2236.6
282.16 311.55 2267.4
296.15 313.92 2284.6
301.72 313.55 2281.9
299.72 305.48 2223.2
292.43 292.43 2128.2
290.15 284.78 2072.5
313.40 286.38 2084.2
327.38 294.08 2140.2
316.80 279.84 2036.6
349.82 294.29 2141.8
356.35 290.56 2114.6
351.32 282.12 2053.1
386.00 296.50 2157.8
397.73 296.90 2160.7
420.12 296.88 2160.6
73.16 317.03 2351.6
108.66 313.91 2328.4
117.95 322.81 2394.5
147.18 306.13 2270.7
167.62 311.30 2309.1
184.52 309.52 2295.9
180.77 293.74 2178.9
192.03 285.30 2116.2
210.36 303.86 2253.9
213.79 300.46 2228.7
206.10 282.04 2092.0
213.98 278.17 2063.4
233.41 296.04 2195.9
262.22 303.00 2247.6
250.47 283.14 2100.2
259.20 286.77 2127.2
276.99 300.08 2225.8
285.05 302.50 2243.8
284.40 295.78 2194.0
295.19 300.98 2232.5
298.50 298.50 2214.1
294.15 288.60 2140.7
297.12 286.12 2122.3
303.63 272.22 2019.2
345.94 290.14 2152.1
344.19 284.09 2107.3
354.54 288.06 2136.7
383.51 289.03 2143.9
392.44 291.53 2162.4
406.66 297.84 2209.2
429.42 301.75 2238.3
419.69 290.98 2158.4
108.56 307.58 2326.2
118.67 318.54 2409.1
123.21 314.18 2376.2
124.39 302.10 2284.8
138.25 282.03 2133.0
147.60 278.79 2108.5
163.59 297.96 2253.5
160.75 273.28 2066.8
174.58 287.21 2172.2
189.27 301.65 2281.4
182.47 281.99 2132.7
186.56 279.84 2116.4
207.06 301.71 2281.8
206.57 284.73 2153.5
206.95 277.75 2100.6
213.74 279.51 2113.9
217.56 270.63 2046.8
243.31 295.45 2234.5
248.98 282.17 2134.1
252.45 273.93 2071.8
271.21 288.16 2179.4
279.90 291.32 2203.3
280.93 286.55 2167.2
292.30 292.30 2210.7
311.71 305.72 2312.1
302.48 280.48 2121.3
327.45 283.05 2140.7
342.43 281.68 2130.3
337.43 273.15 2065.9
358.87 285.98 2162.9
345.55 271.12 2050.5
375.39 285.75 2161.1
402.18 301.63 2281.3
405.47 299.69 2266.6
410.81 299.30 2263.6
418.28 300.46 2272.4
425.08 292.96 2215.7
103.80 305.28 2355.0
116.37 306.24 2362.4
144.40 277.70 2142.3
151.79 271.06 2091.0
169.16 291.65 2249.9
175.42 292.36 2255.4
185.36 298.97 2306.3
183.37 277.84 2143.3
182.27 268.04 2067.7
207.48 296.40 2286.6
209.67 283.34 2185.8
206.24 271.37 2093.4
217.30 278.59 2149.2
218.21 272.77 2104.2
239.88 278.93 2151.8
245.95 279.49 2156.1
245.49 272.77 2104.2
250.05 271.80 2096.7
256.37 272.74 2104.0
269.58 280.82 2166.3
277.99 283.66 2188.2
277.58 277.58 2141.3
292.66 286.92 2213.4
314.06 296.28 2285.6
298.55 276.44 2132.5
299.78 272.52 2102.3
301.84 269.50 2079.0
307.08 264.72 2042.1
311.20 263.73 2034.5
324.13 270.11 2083.7
354.20 290.33 2239.7
347.42 280.18 2161.4
340.41 270.17 2084.2
358.83 280.33 2162.6
365.44 281.11 2168.5
377.93 286.31 2208.7
404.03 297.08 2291.8
392.15 284.17 2192.1
410.07 280.87 2166.7
424.28 286.68 2211.5
421.67 281.11 2168.6
129.92 303.15 2386.3
135.92 302.73 2383.0
136.11 289.98 2282.6
142.99 291.95 2298.1
154.83 303.47 2388.8
150.26 272.69 2146.5
164.86 269.27 2119.6
179.86 284.29 2237.9
190.38 291.52 2294.7
181.15 268.98 2117.3
203.84 277.45 2184.0
204.91 271.36 2136.1
201.74 260.13 2047.7
214.18 269.10 2118.3
236.81 276.28 2174.8
243.67 271.36 2136.1
258.34 281.30 2214.3
268.34 285.85 2250.1
278.54 290.39 2285.9
255.70 261.03 2054.8
292.36 280.90 2211.1
310.24 286.83 2257.8
309.52 280.86 2210.8
325.92 290.37 2285.7
328.02 287.02 2259.3
320.85 275.82 2171.2
319.42 269.86 2124.2
311.75 258.91 2038.1
322.23 258.84 2037.5
346.43 273.79 2155.2
384.58 285.52 2247.5
376.99 275.71 2170.3
385.38 277.70 2186.0
411.51 272.49 2144.9
130.61 298.54 2399.0
131.72 287.40 2309.5
138.93 289.95 2329.9
154.81 275.22 2211.6
159.52 264.03 2121.7
174.22 278.76 2240.0
183.17 283.62 2279.1
186.50 279.75 2248.0
187.55 272.80 2192.1
183.08 258.47 2077.0
204.97 265.91 2136.8
217.27 274.45 2205.4
215.85 265.66 2134.7
228.80 274.55 2206.2
247.52 282.88 2273.1
248.30 264.85 2128.3
261.61 272.99 2193.7
275.86 281.73 2263.9
256.03 256.03 2057.4
271.38 260.52 2093.5
331.83 284.43 2285.6
331.69 279.32 2244.5
337.97 279.70 2247.6
335.26 272.76 2191.8
337.46 269.97 2169.4
370.91 278.19 2235.4
379.01 275.64 2215.0
368.45 263.96 2121.1
388.87 266.65 2142.7
402.87 272.36 2188.6
433.87 274.03 2202.0
125.89 295.83 2427.8
136.74 292.13 2397.4
144.83 295.95 2428.8
147.42 277.14 2274.4
155.96 281.93 2313.7
159.50 277.65 2278.6
158.12 265.42 2178.2
170.14 275.74 2262.9
188.45 268.41 2202.7
193.08 266.90 2190.4
199.07 267.32 2193.8
198.53 259.19 2127.1
201.53 256.00 2100.9
218.02 269.66 2213.0
221.31 266.70 2188.7
214.94 252.55 2072.6
222.77 255.37 2095.8
232.98 260.72 2139.6
231.09 252.59 2072.9
249.00 254.41 2087.9
268.50 268.50 2203.5
259.66 254.25 2086.6
289.82 261.96 2149.8
306.51 271.81 2230.7
314.12 273.40 2243.7
327.53 279.89 2296.9
321.52 269.85 2214.6
322.94 266.28 2185.3
340.48 250.04 2052.0
347.80 251.48 2063.8
374.93 267.00 2191.2
398.55 275.47 2260.7
401.96 273.80 2247.0
403.52 270.94 2223.5
403.53 267.13 2192.2
411.21 268.43 2202.9
126.80 291.64 2445.4
138.71 290.02 2431.8
150.29 276.53 2318.7
160.48 283.93 2380.8
163.37 278.33 2333.8
161.05 264.57 2218.5
178.32 256.34 2149.4
179.96 250.86 2103.5
195.05 263.90 2212.8
197.51 259.59 2176.7
192.22 245.62 2059.5
200.07 248.74 2085.7
221.98 268.72 2253.2
234.07 262.62 2202.1
231.44 253.48 2125.5
234.57 250.94 2104.1
235.35 246.04 2063.1
240.62 245.97 2062.5
260.48 260.48 2184.2
283.29 271.49 2276.4
261.07 245.08 2055.0
295.52 256.49 2150.7
321.51 273.88 2296.5
309.40 258.77 2169.8
303.58 244.99 2054.3
343.31 263.21 2207.0
347.81 262.28 2199.3
357.31 265.10 2222.9
357.81 261.26 2190.6
357.65 257.06 2155.5
367.21 259.87 2179.0
403.29 265.02 2222.2
399.34 258.72 2169.4
403.32 257.67 2160.6
417.41 263.03 2205.5
419.56 260.81 2186.9
163.41 272.36 2334.5
154.33 248.04 2126.0
162.50 252.15 2161.3
177.54 266.31 2282.7
169.58 246.16 2109.9
177.39 249.46 2138.2
199.73 256.79 2201.1
201.23 251.54 2156.1
214.84 261.29 2239.6
247.63 259.15 2221.3
236.88 242.26 2076.5
249.74 244.31 2094.1
276.84 265.05 2271.9
289.25 260.32 2231.3
288.03 254.15 2178.4
280.44 242.69 2080.2
290.06 246.28 2111.0
299.98 249.98 2142.7
341.08 264.63 2268.3
343.68 262.13 2246.8
338.83 254.12 2178.2
351.17 259.06 2220.5
386.71 255.91 2193.5
398.09 255.91 2193.5
413.28 258.30 2214.0
414.76 255.67 2191.5
431.40 252.11 2161.0
155.10 262.47 2300.9
160.06 260.84 2286.6
162.25 246.17 2158.0
170.89 250.64 2197.2
168.51 239.18 2096.7
181.55 249.63 2188.3
195.26 252.69 2215.1
201.04 252.74 2215.6
208.16 247.54 2170.0
214.61 242.12 2122.5
247.81 253.58 2222.9
234.58 234.58 2056.4
240.08 234.74 2057.8
270.57 248.02 2174.2
304.42 257.59 2258.1
296.78 246.38 2159.8
288.49 235.07 2060.7
301.58 232.80 2040.7
329.05 245.39 2151.2
343.97 252.24 2211.2
356.86 257.41 2256.5
367.14 256.42 2247.8
348.91 239.87 2102.8
348.93 236.20 2070.6
381.81 250.74 2198.0
394.58 255.32 2238.2
395.31 252.08 2209.8
404.28 247.06 2165.8
421.90 254.30 2229.2
434.38 254.83 2233.9
148.75 255.85 2295.0
158.79 252.89 2268.4
175.69 236.08 2117.7
207.75 255.23 2289.5
200.91 233.49 2094.5
214.17 236.13 2118.1
237.34 255.14 2288.6
239.95 251.66 2257.4
242.94 248.72 2231.1
248.98 248.98 2233.4
249.63 243.96 2188.3
271.75 243.45 2183.7
284.22 249.41 2237.3
295.80 254.39 2281.9
291.58 245.85 2205.3
324.26 253.51 2274.1
327.33 251.34 2254.5
318.23 240.07 2153.4
309.20 229.24 2056.3
317.87 231.67 2078.1
337.55 237.95 2134.4
354.47 245.84 2205.2
345.46 235.79 2115.0
376.92 238.35 2138.0
390.52 243.37 2183.0
418.14 246.30 2209.3
421.97 241.93 2170.2
152.24 245.93 2258.6
162.53 243.79 2238.9
169.57 245.58 2255.3
177.93 249.10 2287.6
187.74 246.40 2262.9
182.63 232.44 2134.6
198.51 245.22 2252.0
204.57 245.49 2254.5
193.74 226.03 2075.8
199.93 226.94 2084.2
216.49 239.28 2197.4
214.63 231.14 2122.7
213.00 223.65 2053.9
234.24 239.95 2203.6
253.68 247.78 2275.5
242.94 231.90 2129.7
248.04 231.51 2126.1
258.66 236.17 2168.9
267.81 239.32 2197.8
271.21 237.31 2179.4
295.82 238.93 2194.3
303.82 236.30 2170.1
308.49 235.58 2163.5
323.42 242.56 2227.6
327.91 241.62 2218.9
329.84 238.85 2193.5
333.90 237.69 2182.9
341.87 239.31 2197.7
341.68 235.26 2160.5
345.41 233.99 2148.9
364.62 243.08 2232.4
382.18 243.21 2233.5
369.09 224.66 2063.2
418.44 240.74 2210.9
426.83 239.03 2195.1
148.19 243.03 2286.3
160.54 243.79 2293.5
190.01 243.45 2290.3
202.58 244.29 2298.2
204.73 226.86 2134.2
216.16 233.22 2194.1
210.98 221.80 2086.7
228.10 228.10 2145.9
247.80 236.27 2222.8
237.37 221.19 2080.9
243.62 221.96 2088.2
248.96 221.90 2087.5
252.13 219.94 2069.1
264.41 225.85 2124.7
281.42 221.89 2087.5
310.50 227.33 2138.7
317.53 228.40 2148.7
325.34 229.98 2163.6
335.64 233.24 2194.3
353.87 234.01 2201.5
353.50 230.06 2164.3
380.59 232.90 2191.0
364.34 219.68 2066.7
418.83 232.06 2183.1
153.40 235.99 2275.7
167.15 238.79 2302.6
191.63 225.45 2174.0
198.12 226.42 2183.4
218.56 236.28 2278.4
212.80 224.00 2160.0
215.94 221.48 2135.7
222.66 222.66 2147.0
223.85 218.39 2105.9
226.45 215.66 2079.6
237.28 220.73 2128.5
243.52 221.38 2134.8
247.26 219.78 2119.3
249.73 217.16 2094.0
256.04 217.91 2101.3
270.75 225.62 2175.6
286.83 234.15 2257.8
300.10 230.85 2226.0
289.52 218.50 2107.0
299.57 221.90 2139.8
294.47 214.16 2065.1
316.45 222.07 2141.4
344.90 233.83 2254.8
342.51 228.34 2201.9
355.54 233.14 2248.2
357.10 223.19 2152.2
400.94 229.11 2209.3
390.29 216.83 2090.9
417.73 228.89 2207.2
199.98 229.39 2268.7
209.68 233.64 2310.8
227.88 233.88 2313.1
226.81 226.81 2243.2
230.82 225.05 2225.8
228.43 217.29 2149.0
231.78 215.23 2128.6
245.06 222.27 2198.2
250.58 222.10 2196.6
252.85 219.14 2167.3
255.80 216.88 2144.9
262.49 217.81 2154.2
279.54 227.13 2246.3
301.94 230.90 2283.6
304.83 228.62 2261.1
308.69 227.15 2246.5
302.82 218.70 2163.0
332.53 227.52 2250.2
345.05 224.28 2218.1
326.41 208.69 2064.0
333.21 209.60 2073.0
350.80 217.16 2147.7
359.15 218.86 2164.5
370.89 222.54 2200.9
380.30 224.72 2222.5
384.70 223.93 2214.7
373.00 213.93 2115.7
378.83 211.06 2087.4
410.37 225.41 2229.4
400.25 216.80 2144.2
413.77 221.05 2186.2
166.38 225.79 2291.9
178.27 218.53 2218.1
213.82 219.60 2229.0
227.74 227.74 2311.7
229.77 223.88 2272.5
235.81 224.02 2273.9
238.69 221.23 2245.5
248.22 224.58 2279.6
272.37 225.00 2283.8
271.10 219.19 2224.9
280.59 222.14 2254.8
293.63 223.16 2265.2
289.51 203.73 2067.9
293.50 202.78 2058.3
315.46 214.06 2172.8
354.16 224.30 2276.7
330.22 205.71 2088.1
335.34 205.53 2086.2
367.25 221.52 2248.5
378.59 221.33 2246.6
372.50 214.47 2177.0
358.91 203.56 2066.2
424.03 217.74 2210.2
169.86 216.72 2259.3
177.60 211.97 2209.8
188.23 217.64 2268.8
191.27 214.45 2235.6
199.91 217.54 2267.8
195.93 207.13 2159.3
217.87 217.87 2271.2
225.55 219.62 2289.5
222.32 210.92 2198.7
220.98 204.40 2130.8
231.90 204.29 2129.7
252.91 217.62 2268.6
249.92 201.02 2095.6
264.31 203.74 2123.9
289.87 202.36 2109.6
305.59 209.39 2182.8
304.96 205.15 2138.6
323.26 213.58 2226.5
342.70 218.62 2279.0
340.35 213.44 2225.0
351.18 216.56 2257.6
354.56 215.06 2242.0
358.49 213.94 2230.3
367.00 202.67 2112.8
365.92 199.10 2075.6
385.16 206.54 2153.1
409.06 216.22 2254.0
429.33 217.61 2268.5
194.71 212.41 2275.8
206.60 212.50 2276.8
230.99 213.22 2284.5
224.32 201.88 2163.0
223.55 196.29 2103.1
237.99 203.99 2185.6
249.00 208.46 2233.5
255.28 208.86 2237.8
250.62 200.49 2148.2
268.19 201.14 2155.1
300.60 212.19 2273.4
294.06 192.48 2062.3
319.53 201.81 2162.2
339.67 210.83 2258.9
396.65 219.68 2353.7
374.87 204.47 2190.8
376.29 202.19 2166.3
394.72 205.94 2206.5
387.28 199.17 2134.0
397.51 201.55 2159.5
454.14 215.12 2304.9
475.49 222.31 2381.9
194.67 200.39 2208.4
202.06 202.06 2226.7
207.41 201.65 2222.3
212.64 201.15 2216.8
225.08 207.31 2284.6
229.04 205.55 2265.2
233.72 204.50 2253.7
244.76 208.94 2302.6
258.72 205.80 2268.0
265.54 193.63 2133.8
275.76 196.97 2170.7
279.38 195.56 2155.2
279.39 191.74 2113.0
279.45 188.09 2072.8
287.16 189.64 2089.9
304.49 197.36 2174.9
297.51 189.32 2086.4
343.90 207.52 2287.0
351.31 201.57 2221.4
343.80 194.08 2138.9
338.93 188.30 2075.1
422.18 214.15 2360.0
392.35 196.18 2161.9
390.03 189.60 2089.5
435.02 205.75 2267.5
436.13 203.53 2242.9
456.75 210.34 2318.1
470.72 213.96 2358.0
468.48 207.55 2287.3
197.60 203.59 2309.6
206.72 195.23 2214.8
217.61 194.70 2208.8
226.08 197.10 2236.0
235.62 200.28 2272.1
242.08 200.75 2277.4
249.98 193.16 2191.3
266.22 188.57 2139.3
278.96 193.56 2195.9
279.58 186.39 2114.5
285.46 183.13 2077.5
324.43 200.56 2275.3
320.91 194.84 2210.3
319.97 190.86 2165.2
345.60 202.60 2298.3
345.46 195.76 2220.8
350.44 186.17 2112.0
385.16 195.45 2217.3
400.59 200.30 2272.3
427.80 204.86 2324.1
443.50 209.43 2375.9
452.95 208.11 2361.0
489.77 210.79 2391.3
208.00 196.11 2292.2
210.74 193.18 2258.0
230.50 181.10 2116.8
247.09 181.20 2117.9
259.00 185.80 2171.7
274.67 192.86 2254.2
297.82 196.56 2297.5
280.29 181.37 2119.9
288.89 183.33 2142.9
317.27 197.54 2308.9
318.58 194.69 2275.6
315.64 189.39 2213.6
309.24 182.23 2130.0
339.10 186.50 2179.9
367.44 186.55 2180.4
360.16 180.08 2104.8
379.78 187.06 2186.4
384.25 186.47 2179.5
394.81 188.82 2207.0
425.44 200.57 2344.3
432.08 198.04 2314.7
437.65 195.17 2281.2
478.39 202.39 2365.6
247.81 188.81 2275.8
249.92 177.72 2142.2
253.74 176.52 2127.7
277.26 188.77 2275.4
281.61 180.23 2172.4
277.87 174.35 2101.6
302.80 186.34 2246.0
318.51 188.75 2275.1
302.86 173.06 2086.0
333.20 177.70 2142.0
375.72 187.86 2264.4
368.51 181.42 2186.8
385.11 186.72 2250.7
414.55 192.26 2317.4
431.58 197.30 2378.1
437.01 196.96 2374.1
416.26 185.00 2230.0
420.73 184.43 2223.0
438.69 189.70 2286.6
441.17 188.23 2268.9
451.07 189.92 2289.3
465.76 193.56 2333.1
464.66 190.63 2297.8
476.38 192.96 2325.9
219.90 179.39 2232.0
253.80 182.97 2276.6
269.73 181.78 2261.7
292.95 181.63 2259.9
297.40 180.77 2249.2
311.80 179.00 2227.2
293.12 165.21 2055.6
304.07 168.32 2094.4
315.65 171.67 2136.0
332.33 177.63 2210.1
353.61 185.80 2311.7
345.83 178.68 2223.2
346.63 176.15 2191.8
416.94 190.08 2365.0
399.72 179.58 2234.4
424.02 187.78 2336.4
437.64 191.08 2377.5
426.40 183.59 2284.3
441.76 187.60 2334.2
452.30 189.48 2357.5
451.72 186.71 2323.1
459.64 187.49 2332.8
470.93 189.59 2359.0
469.89 186.75 2323.6
481.67 189.01 2351.8
234.30 180.23 2317.2
230.78 173.09 2225.4
239.12 174.97 2249.6
254.95 177.88 2287.0
295.37 173.75 2233.9
281.74 162.54 2089.8
310.27 175.62 2258.0
313.39 174.10 2238.5
296.27 161.60 2077.8
309.29 165.69 2130.3
310.32 163.33 2099.9
318.61 164.80 2118.9
356.20 175.18 2252.3
367.90 178.02 2288.8
403.35 177.95 2287.9
413.90 174.89 2248.5
425.76 177.40 2280.8
454.66 181.87 2338.3
450.91 175.68 2258.7
195.77 172.04 2288.2
239.16 173.39 2306.2
241.38 170.73 2270.8
243.42 168.08 2235.5
251.57 162.12 2156.3
265.88 160.64 2136.5
275.61 163.11 2169.5
281.00 156.71 2084.3
300.15 164.23 2184.4
324.37 174.20 2316.9
332.54 169.19 2250.3
317.19 158.60 2109.4
335.65 164.98 2194.4
365.92 171.15 2276.4
344.02 158.36 2106.2
345.09 156.37 2079.8
362.27 161.63 2149.7
390.56 171.61 2282.5
396.18 166.51 2214.7
389.46 161.35 2146.0
408.02 166.66 2216.6
398.94 160.68 2137.2
456.98 179.09 2382.0
467.34 178.33 2371.8
471.05 172.92 2299.9
202.08 161.66 2227.0
212.72 165.45 2279.1
237.42 158.28 2180.4
244.89 159.46 2196.6
282.51 152.12 2095.6
297.35 157.09 2164.0
317.24 164.49 2266.0
325.11 165.51 2280.0
333.62 166.81 2297.9
347.51 167.76 2311.0
349.14 165.69 2282.5
360.13 162.64 2240.4
343.12 152.50 2100.7
349.23 152.79 2104.8
356.03 153.37 2112.7
371.45 157.59 2170.8
374.36 156.45 2155.1
389.23 157.95 2175.8
416.42 166.57 2294.6
423.44 166.99 2300.4
445.79 168.68 2323.6
463.40 173.00 2383.2
468.20 172.49 2376.2
231.32 160.14 2287.8
230.60 155.66 2223.7
254.51 156.18 2231.1
293.23 146.61 2094.5
325.73 159.91 2284.4
332.39 160.26 2289.5
348.46 162.21 2317.3
349.81 160.08 2286.9
351.30 158.09 2258.4
339.88 150.44 2149.1
338.50 147.41 2105.9
351.22 150.52 2150.3
370.04 156.11 2230.1
389.18 159.21 2274.5
374.76 151.02 2157.5
393.16 151.65 2166.4
399.68 151.99 2171.3
440.24 162.83 2326.1
213.60 158.68 2354.0
211.40 152.68 2265.0
