ply
format ascii 1.0
element vertex 2267
property float x
property float y
property float z
end_header
644.67 615.63 2240.2
633.61 599.67 2182.1
622.81 584.23 2125.9
632.02 587.67 2138.4
657.04 605.62 2203.7
665.09 607.76 2211.5
667.85 605.06 2201.7
667.73 599.82 2182.6
662.38 590.02 2147.0
628.98 555.60 2021.7
639.75 555.85 2022.6
653.95 563.56 2050.7
631.26 539.63 1963.6
646.34 548.10 1994.4
661.56 556.55 2025.2
656.95 548.32 1995.2
677.19 560.80 2040.6
698.86 574.26 2089.6
688.31 561.24 2042.2
677.85 548.49 1995.8
677.50 544.05 1979.7
675.18 538.12 1958.1
682.61 539.97 1964.9
682.39 535.80 1949.7
685.31 534.14 1943.6
680.42 526.46 1915.7
736.33 557.51 2028.7
757.63 569.57 2072.5
749.69 559.63 2036.4
765.82 567.67 2065.6
752.61 554.01 2015.9
742.24 542.60 1974.4
770.41 559.34 2035.3
779.55 562.12 2045.5
762.35 546.01 1986.8
766.53 545.32 1984.3
774.90 547.60 1992.6
800.27 561.78 2044.2
813.78 567.50 2065.0
795.94 551.44 2006.6
805.15 554.19 2016.6
832.45 558.48 2032.2
848.09 565.39 2057.4
854.54 566.14 2060.1
842.71 554.83 2018.9
831.82 544.28 1980.5
813.96 529.33 1926.1
834.55 539.41 1962.8
651.22 616.02 2262.9
639.66 599.68 2202.9
627.27 582.86 2141.1
619.52 570.61 2096.1
625.64 571.24 2098.4
635.68 575.40 2113.7
641.01 575.27 2113.2
650.30 578.66 2125.7
653.08 576.25 2116.8
654.95 573.08 2105.2
663.43 575.70 2114.8
665.24 572.54 2103.2
646.99 552.31 2028.9
637.27 539.62 1982.3
666.13 559.55 2055.5
690.52 575.43 2113.8
693.38 573.27 2105.9
707.52 567.10 2083.2
714.90 568.67 2089.0
721.67 569.74 2092.9
713.21 558.86 2052.9
699.75 544.25 1999.3
697.31 538.36 1977.7
686.99 526.52 1934.2
685.27 521.40 1915.3
745.20 562.92 2067.9
743.77 553.87 2034.6
725.03 536.11 1969.4
729.89 535.93 1968.7
745.26 543.42 1996.2
763.81 553.10 2031.8
789.04 567.46 2084.6
795.53 568.24 2087.4
771.13 547.09 2009.7
768.72 541.72 1990.0
749.36 524.55 1926.9
743.13 516.75 1898.2
785.81 542.83 1994.1
798.55 548.02 2013.1
793.03 540.70 1986.2
821.53 545.96 2005.6
823.44 543.78 1997.6
810.07 531.61 1952.8
810.13 525.09 1928.9
838.97 540.44 1985.3
838.06 536.56 1971.0
892.79 568.14 2087.0
664.35 616.89 2287.9
651.60 599.71 2224.2
643.49 587.05 2177.2
627.68 567.64 2105.3
615.15 551.51 2045.4
663.04 589.37 2185.8
691.16 604.04 2240.2
673.47 583.67 2164.7
680.35 584.77 2168.8
680.53 580.13 2151.6
653.55 552.60 2049.5
640.32 537.04 1991.8
659.36 548.59 2034.6
675.59 557.63 2068.1
690.15 565.17 2096.1
699.03 559.23 2074.1
685.51 544.22 2018.4
699.32 550.98 2043.5
719.89 562.92 2087.8
724.12 562.00 2084.4
709.12 546.29 2026.1
705.45 539.46 2000.8
717.88 544.96 2021.1
741.83 559.06 2073.4
754.51 564.53 2093.7
734.87 545.91 2024.7
719.24 530.50 1967.5
719.42 526.90 1954.2
736.04 535.30 1985.3
763.32 551.29 2044.6
771.42 553.29 2052.0
787.10 560.67 2079.4
780.95 548.78 2035.3
774.40 540.52 2004.7
753.65 522.53 1938.0
746.44 510.72 1894.1
762.16 518.07 1921.4
761.11 513.99 1906.3
770.11 516.72 1916.4
789.33 526.22 1951.7
813.10 538.62 1997.6
811.70 534.28 1981.5
820.57 536.73 1990.6
813.87 529.02 1962.0
861.35 549.57 2038.2
658.43 610.98 2288.0
641.25 589.72 2208.4
627.76 572.20 2142.8
635.92 574.56 2151.6
638.02 571.45 2140.0
631.70 560.91 2100.5
686.22 604.10 2262.2
659.86 571.14 2138.8
646.24 554.69 2077.2
654.07 556.77 2085.0
642.94 542.81 2032.7
653.47 538.46 2016.4
660.94 540.29 2023.3
666.92 540.88 2025.5
677.48 545.16 2041.5
665.06 531.01 1988.5
702.93 544.37 2038.6
710.86 546.41 2046.2
698.32 532.80 1995.2
693.61 525.31 1967.2
707.26 531.74 1991.3
716.12 534.50 2001.6
711.55 527.26 1974.5
737.62 542.67 2032.2
732.90 531.61 1990.8
717.92 517.10 1936.4
735.94 526.40 1971.3
733.97 521.37 1952.4
757.32 534.28 2000.8
778.13 545.22 2041.8
767.84 534.38 2001.1
769.25 531.76 1991.4
786.09 539.78 2021.4
794.92 542.23 2030.5
784.57 531.65 1990.9
769.40 517.96 1939.7
776.65 519.45 1945.2
795.15 528.39 1978.7
807.71 523.24 1959.4
842.60 542.42 2031.3
835.54 534.54 2001.7
815.55 518.53 1941.8
854.65 540.05 2022.4
641.46 600.27 2269.9
633.11 587.07 2220.0
647.56 579.39 2191.0
660.28 585.64 2214.6
666.42 585.99 2215.9
669.18 583.38 2206.1
642.10 555.04 2098.9
629.67 539.72 2040.9
640.28 544.24 2058.1
659.10 555.61 2101.0
660.28 552.04 2087.5
664.05 550.67 2082.4
673.97 545.60 2063.2
659.12 529.37 2001.8
650.38 518.27 1959.9
663.60 524.71 1984.2
654.62 513.62 1942.3
661.19 510.92 1932.0
704.91 540.61 2044.3
711.59 541.66 2048.3
707.38 534.47 2021.1
710.14 532.61 2014.1
712.87 530.75 2007.0
711.96 526.23 1989.9
698.79 512.78 1939.1
713.21 519.62 1965.0
764.39 552.96 2091.0
753.10 540.96 2045.7
712.59 508.28 1922.1
728.20 508.74 1923.8
767.51 532.56 2013.9
777.32 535.72 2025.8
779.13 533.37 2016.9
796.74 541.78 2048.8
804.57 543.48 2055.2
794.27 533.00 2015.5
795.25 530.17 2004.8
818.14 541.88 2049.1
831.81 547.39 2069.9
778.57 509.06 1925.0
786.83 507.96 1920.8
794.84 509.89 1928.2
813.17 515.18 1948.1
836.32 526.57 1991.2
890.29 557.11 2106.7
644.48 597.18 2280.6
653.17 599.73 2290.3
638.03 580.55 2217.1
623.08 561.88 2145.8
639.95 571.99 2184.4
667.46 591.34 2258.3
667.60 586.33 2239.2
678.54 590.80 2256.2
684.21 590.64 2255.6
660.36 565.22 2158.6
651.49 552.94 2111.7
688.79 579.73 2214.0
685.81 549.74 2099.4
656.16 521.83 1992.8
671.24 529.65 2022.7
708.62 554.81 2118.8
703.97 546.93 2088.7
685.14 528.24 2017.3
688.60 526.88 2012.1
705.64 535.86 2046.4
714.86 538.82 2057.7
712.28 532.89 2035.1
714.42 530.56 2026.2
716.52 528.24 2017.3
720.87 527.59 2014.8
711.70 517.14 1974.9
700.69 505.50 1930.5
720.81 516.33 1971.8
732.06 520.69 1988.5
713.33 503.82 1924.1
736.77 516.76 1973.5
765.56 533.25 2036.5
739.27 511.41 1953.1
732.66 503.39 1922.4
760.70 519.13 1982.5
782.02 530.09 2024.4
761.27 512.59 1957.5
756.24 502.50 1919.0
797.84 526.68 2011.4
793.01 520.09 1986.2
778.65 507.38 1937.6
796.85 515.91 1970.2
829.12 533.38 2037.0
863.53 552.00 2108.1
853.06 541.88 2069.4
811.87 512.49 1957.2
824.48 517.22 1975.2
845.06 526.86 2012.0
894.94 554.53 2117.7
871.06 533.19 2036.2
866.33 527.11 2013.0
645.37 597.56 2304.9
656.65 591.58 2281.8
636.43 568.24 2191.8
665.16 588.63 2270.4
689.99 584.74 2255.4
659.30 554.04 2137.0
676.79 563.99 2175.4
687.24 558.73 2155.1
670.34 540.60 2085.2
690.23 552.19 2129.9
673.85 534.80 2062.8
664.74 523.41 2018.9
697.62 545.01 2102.2
701.15 535.23 2064.4
688.99 521.96 2013.3
708.25 532.52 2054.0
720.69 537.83 2074.5
715.89 530.29 2045.4
716.44 526.80 2031.9
709.12 517.61 1996.5
702.62 509.15 1963.8
715.40 514.67 1985.2
723.63 516.88 1993.7
731.89 519.07 2002.1
729.45 513.70 1981.4
715.76 500.53 1930.6
744.32 516.89 1993.7
795.76 545.04 2102.3
757.99 515.64 1988.9
758.69 512.63 1977.3
773.00 518.79 2001.0
743.72 495.81 1912.4
760.94 500.62 1931.0
796.13 520.35 2007.1
784.80 509.61 1965.6
774.00 499.35 1926.1
797.29 511.08 1971.3
831.77 529.79 2043.5
868.42 549.63 2120.0
887.21 554.51 2138.8
866.51 538.20 2075.9
858.70 530.06 2044.5
869.30 533.31 2057.1
863.59 526.58 2031.1
843.98 511.50 1972.9
870.26 524.25 2022.1
903.33 540.91 2086.4
911.81 542.74 2093.4
651.67 581.22 2264.5
667.40 589.93 2298.4
698.34 585.90 2282.7
675.43 561.91 2189.3
654.09 539.63 2102.4
675.95 553.05 2154.7
675.53 543.72 2118.4
639.21 510.34 1988.3
656.13 515.53 2008.6
678.79 529.13 2061.6
684.86 529.69 2063.7
698.64 536.16 2089.0
715.95 545.22 2124.2
702.48 530.88 2068.4
685.61 514.20 2003.4
701.68 522.31 2035.0
717.27 529.92 2064.6
717.26 525.99 2049.3
716.20 521.35 2031.2
706.59 510.60 1989.4
704.98 505.75 1970.4
722.39 514.51 2004.6
725.36 512.93 1998.4
729.63 512.29 1995.9
740.27 516.10 2010.8
741.51 513.35 2000.1
759.36 522.06 2034.0
782.65 527.09 2053.6
782.10 523.16 2038.3
794.80 528.09 2057.5
793.83 523.93 2041.3
802.36 526.05 2049.6
812.35 529.10 2061.4
825.26 533.99 2080.5
826.71 531.45 2070.6
825.57 527.30 2054.4
832.01 528.01 2057.2
853.13 537.96 2096.0
867.05 543.28 2116.7
868.08 540.50 2105.8
883.22 546.49 2129.2
884.97 544.17 2120.1
874.99 534.71 2083.3
886.06 538.16 2096.7
894.13 539.75 2102.9
888.45 533.07 2076.9
881.88 525.94 2049.1
874.03 518.14 2018.7
888.97 523.86 2041.0
659.37 587.44 2312.1
657.68 580.66 2285.4
660.99 563.28 2217.0
651.46 550.37 2166.2
647.25 528.59 2080.4
643.75 521.39 2052.1
647.74 520.31 2047.9
654.65 521.59 2052.9
654.75 517.46 2036.7
643.67 504.64 1986.2
652.28 507.33 1996.8
675.83 521.50 2052.6
682.79 522.76 2057.5
683.00 518.87 2042.2
686.54 517.55 2037.0
689.12 515.52 2029.0
691.34 513.27 2020.2
714.12 526.19 2071.0
737.45 539.33 2122.7
724.08 525.63 2068.8
711.42 512.64 2017.7
712.52 509.69 2006.1
721.10 512.08 2015.5
727.07 512.61 2017.6
720.45 504.31 1984.9
746.06 518.54 2040.9
779.66 538.07 2117.8
782.49 536.25 2110.6
799.69 540.48 2127.3
765.29 513.69 2021.8
765.40 510.27 2008.3
792.64 524.85 2065.8
809.96 532.72 2096.7
812.60 530.90 2089.6
802.44 520.79 2049.8
796.02 513.22 2020.0
817.45 523.60 2060.8
827.15 526.37 2071.7
853.23 539.46 2123.2
870.84 543.58 2139.5
852.02 528.47 2080.0
848.88 523.21 2059.3
859.82 526.64 2072.8
886.19 539.42 2123.1
900.72 544.88 2144.6
899.04 540.52 2127.4
894.99 534.81 2104.9
894.67 531.38 2091.4
890.05 525.45 2068.1
898.48 527.25 2075.2
931.05 543.11 2137.6
654.30 571.77 2273.6
654.74 542.82 2158.5
661.19 534.46 2125.3
676.71 542.49 2157.2
661.72 513.50 2041.9
656.57 505.45 2009.9
664.95 507.87 2019.5
676.13 512.38 2037.4
679.98 511.31 2033.2
682.57 509.30 2025.2
683.87 506.38 2013.6
699.91 514.33 2045.2
731.16 529.27 2104.6
685.91 492.84 1959.7
713.11 508.61 2022.5
756.88 535.89 2130.9
754.60 530.41 2109.1
750.90 524.01 2083.7
737.78 511.17 2032.7
755.16 519.51 2065.8
785.40 525.41 2089.2
753.65 500.71 1991.0
755.42 498.47 1982.1
783.30 513.38 2041.4
801.63 521.86 2075.2
805.98 521.20 2072.5
795.42 510.97 2031.8
801.09 511.22 2032.8
830.46 526.50 2093.6
850.71 535.83 2130.7
866.16 535.15 2128.0
842.87 517.46 2057.6
837.45 510.90 2031.6
840.12 509.32 2025.3
857.02 516.34 2053.2
877.43 525.37 2089.1
882.82 525.36 2089.1
867.25 512.95 2039.7
849.16 499.20 1985.0
893.98 522.39 2077.2
646.74 596.99 2398.6
633.88 574.08 2306.6
649.85 583.05 2342.6
658.26 574.48 2308.2
654.67 566.20 2274.9
620.60 518.07 2081.5
650.79 538.59 2164.0
654.26 536.83 2156.9
662.53 539.01 2165.7
676.00 545.35 2191.1
683.81 547.05 2198.0
683.09 524.61 2107.8
693.19 528.15 2122.0
679.32 513.50 2063.2
666.39 499.79 2008.1
660.60 491.61 1975.2
675.48 495.01 1988.9
713.22 518.71 2084.1
713.62 507.46 2038.9
731.30 516.21 2074.1
761.24 529.56 2127.7
767.15 529.83 2128.8
762.76 523.04 2101.5
749.88 510.56 2051.4
759.98 513.79 2064.3
747.46 501.79 2016.1
727.90 485.27 1949.7
727.91 481.92 1936.3
740.22 483.41 1942.3
792.44 514.02 2065.3
798.90 514.72 2068.1
789.47 505.26 2030.1
835.97 531.48 2135.4
833.45 519.56 2087.5
857.41 531.04 2133.6
861.84 530.36 2130.9
859.64 525.64 2111.9
867.33 526.98 2117.3
839.75 507.02 2037.1
817.78 490.67 1971.4
833.44 496.96 1996.7
852.60 505.24 2030.0
866.21 510.16 2049.8
859.69 503.24 2021.9
874.52 508.81 2044.3
653.94 597.35 2425.3
645.77 584.26 2372.2
633.98 568.19 2306.9
647.23 553.94 2249.1
649.65 551.04 2237.3
643.52 541.02 2196.6
663.13 552.61 2243.7
670.16 544.15 2209.3
684.26 550.89 2236.7
665.40 526.77 2138.8
636.67 499.87 2029.5
658.51 512.77 2081.9
668.17 516.07 2095.3
660.01 505.65 2053.0
667.26 507.12 2059.0
698.71 526.81 2138.9
704.36 526.88 2139.2
705.09 523.31 2124.7
711.31 523.83 2126.8
693.59 506.85 2057.9
708.42 513.74 2085.9
724.65 521.53 2117.5
727.17 507.95 2062.3
694.45 481.55 1955.2
695.37 478.69 1943.6
706.79 483.06 1961.3
733.26 497.57 2020.2
752.96 507.32 2059.8
752.31 503.31 2043.5
731.26 485.81 1972.4
735.40 475.26 1929.6
770.17 494.37 2007.2
760.69 485.00 1969.2
755.27 478.34 1942.1
800.53 503.64 2044.9
803.53 495.68 2012.6
798.97 489.69 1988.2
830.49 505.75 2053.4
854.21 516.88 2098.6
861.13 517.77 2102.2
830.52 496.23 2014.7
810.36 481.15 1953.6
827.49 488.27 1982.4
834.54 489.39 1987.0
834.77 486.52 1975.4
861.28 498.91 2025.7
909.88 523.87 2127.0
654.05 585.53 2402.6
634.07 562.29 2307.3
641.67 543.39 2229.7
628.83 527.77 2165.6
623.35 518.54 2127.7
643.08 530.25 2175.8
678.89 554.92 2277.0
683.49 553.86 2272.7
650.46 522.59 2144.4
658.42 524.51 2152.2
668.22 519.11 2130.1
667.98 514.67 2111.9
671.79 513.40 2106.7
657.39 498.34 2044.9
651.10 489.63 2009.1
667.94 498.30 2044.7
692.25 512.37 2102.4
714.68 524.84 2153.6
729.77 519.69 2132.4
703.61 497.29 2040.6
694.93 487.49 2000.3
719.54 501.02 2055.8
709.41 490.33 2012.0
693.19 475.62 1951.6
712.81 485.54 1992.3
715.10 483.59 1984.4
728.99 489.47 2008.4
749.01 499.34 2049.0
750.36 496.71 2038.2
753.34 495.20 2032.0
754.59 492.58 2021.2
760.59 493.07 2023.2
767.28 494.00 2027.1
764.61 488.94 2006.3
762.19 484.10 1986.4
751.60 474.16 1945.7
772.32 477.62 1959.8
829.61 509.70 2091.5
835.05 509.71 2091.5
803.39 487.22 1999.2
813.00 489.89 2010.2
839.94 502.90 2063.6
846.04 503.34 2065.4
849.54 502.25 2060.9
863.86 507.52 2082.5
852.34 497.64 2042.0
829.30 481.20 1974.5
845.46 487.56 2000.6
886.92 508.36 2086.0
890.77 507.47 2082.3
879.55 498.06 2043.7
890.65 501.32 2057.1
919.33 514.39 2110.7
922.01 512.83 2104.3
896.31 495.61 2033.6
915.00 502.98 2063.9
1046.44 558.89 2293.3
631.42 575.70 2387.7
636.92 569.56 2362.2
646.49 572.60 2374.8
645.52 566.36 2348.9
646.78 562.15 2331.5
631.40 543.70 2255.0
635.24 542.00 2247.9
640.66 541.65 2246.5
634.74 531.81 2205.7
632.16 524.92 2177.1
634.65 522.32 2166.3
627.14 511.61 2121.9
634.72 513.29 2128.9
656.36 526.22 2182.5
640.07 508.77 2110.1
617.16 486.41 2017.4
646.09 504.93 2094.2
686.56 523.36 2170.6
650.54 491.87 2040.0
667.59 500.69 2076.6
694.12 516.43 2141.9
651.65 480.98 1994.8
694.14 500.43 2075.5
712.39 509.64 2113.7
700.72 497.46 2063.2
707.43 498.42 2067.2
703.03 491.60 2038.9
691.78 480.12 1991.3
714.77 492.40 2042.2
745.13 509.54 2113.3
775.28 522.47 2166.9
752.51 503.48 2088.2
747.68 496.67 2059.9
750.41 494.95 2052.8
765.24 501.18 2078.6
781.88 508.49 2109.0
766.24 494.87 2052.4
755.15 484.34 2008.8
769.41 490.10 2032.7
776.13 491.02 2036.5
796.14 500.28 2074.9
810.00 505.57 2096.8
776.21 481.25 1996.0
806.53 487.06 2020.1
824.91 494.94 2052.8
820.74 489.29 2029.3
835.96 495.19 2053.8
857.94 504.99 2094.4
876.39 512.60 2126.0
876.97 503.45 2088.0
869.07 495.85 2056.5
905.33 513.39 2129.3
902.74 508.82 2110.3
901.99 505.33 2095.9
924.07 514.60 2134.3
920.19 509.39 2112.7
895.04 492.54 2042.8
892.11 485.18 2012.3
922.36 498.72 2068.4
947.25 509.21 2111.9
1044.93 552.15 2290.0
626.62 554.32 2324.0
670.11 570.83 2393.2
651.76 550.11 2306.4
639.14 534.55 2241.1
628.08 520.57 2182.5
620.28 509.51 2136.2
628.42 511.63 2145.0
627.20 506.16 2122.1
627.82 502.26 2105.7
641.55 508.82 2133.2
639.29 502.69 2107.5
628.90 490.33 2055.7
625.17 483.33 2026.4
657.79 504.31 2114.3
674.29 508.48 2131.8
665.70 497.92 2087.6
661.08 482.70 2023.7
700.23 488.04 2046.1
713.90 493.83 2070.4
721.28 495.21 2076.2
733.20 499.66 2094.8
751.36 508.27 2131.0
744.64 492.85 2066.3
717.44 471.46 1976.6
757.17 494.04 2071.3
755.04 482.38 2022.4
757.26 480.47 2014.4
789.15 497.28 2084.9
792.17 495.78 2078.6
811.94 504.72 2116.1
828.98 508.44 2131.7
778.64 474.41 1989.0
800.94 475.39 1993.1
835.80 492.91 2066.5
823.13 482.34 2022.3
816.18 475.25 1992.5
889.86 514.89 2158.7
900.30 508.14 2130.4
906.16 508.34 2131.2
913.18 509.17 2134.7
920.21 510.00 2138.2
929.97 512.32 2147.9
912.45 499.68 2094.9
917.05 499.22 2093.0
924.00 500.05 2096.5
951.16 511.73 2145.5
936.24 495.02 2075.4
634.69 571.85 2423.9
647.52 566.58 2401.5
660.52 561.75 2381.0
640.50 539.68 2287.5
636.00 526.15 2230.1
651.08 533.77 2262.4
613.00 498.06 2111.1
643.85 513.95 2178.4
685.50 533.16 2259.9
674.33 520.03 2204.2
671.23 513.30 2175.7
663.07 502.83 2131.3
659.95 496.33 2103.7
671.70 501.02 2123.6
694.81 514.04 2178.8
695.48 510.39 2163.3
658.77 479.58 2032.8
658.10 475.29 2014.6
669.25 479.54 2032.6
661.73 470.45 1994.0
705.97 486.69 2062.9
697.41 477.18 2022.6
727.42 494.00 2093.9
717.67 480.20 2035.4
745.18 491.38 2082.8
756.27 495.11 2098.6
712.82 463.33 1963.9
737.11 475.73 2016.4
797.07 510.80 2165.1
785.74 500.02 2119.4
756.45 478.03 2026.2
778.61 488.64 2071.2
794.40 495.14 2098.7
781.10 483.54 2049.5
779.47 479.27 2031.4
785.84 479.94 2034.3
822.67 499.09 2115.4
828.18 499.10 2115.5
789.99 472.95 2004.7
782.04 459.13 1946.1
810.95 473.05 2005.1
804.37 463.28 1963.7
899.41 496.04 2102.5
883.58 484.37 2053.1
867.90 472.93 2004.6
905.88 490.68 2079.8
934.98 491.81 2084.6
947.15 495.35 2099.6
1047.65 535.60 2270.2
618.88 540.77 2317.6
636.01 545.15 2336.4
642.44 545.47 2337.7
625.40 526.04 2254.5
615.85 513.21 2199.5
616.28 504.23 2161.0
649.39 517.21 2216.6
662.72 523.20 2242.3
675.66 519.74 2227.5
667.26 508.93 2181.1
663.24 501.61 2149.8
651.82 488.87 2095.1
659.13 490.26 2101.1
680.00 501.64 2149.9
682.12 499.11 2139.1
663.87 481.84 2065.0
675.36 486.26 2084.0
709.29 502.65 2154.2
671.61 472.22 2023.8
694.62 484.62 2076.9
725.37 502.18 2152.2
733.85 504.17 2160.7
725.30 494.52 2119.4
711.14 481.22 2062.4
736.45 494.63 2119.9
724.53 479.47 2054.9
711.97 467.72 2004.5
748.17 480.97 2061.3
711.00 453.83 1945.0
748.79 471.27 2019.7
780.41 487.76 2090.4
791.04 490.99 2104.2
791.69 488.03 2091.5
787.06 481.88 2065.2
793.51 482.54 2068.0
779.20 470.66 2017.1
792.63 475.58 2038.2
847.88 498.75 2137.5
806.67 471.43 2020.4
815.59 473.57 2029.6
819.05 472.53 2025.1
798.90 457.97 1962.7
817.74 465.80 1996.3
830.02 469.82 2013.5
848.40 474.26 2032.6
908.21 498.41 2136.0
879.86 479.92 2056.8
869.32 471.32 2019.9
862.50 464.82 1992.1
905.15 484.90 2078.1
940.04 491.88 2108.1
903.01 469.77 2013.3
954.44 493.68 2115.8
1045.29 528.52 2265.1
1033.40 511.02 2190.1
634.30 537.64 2330.1
650.80 546.43 2368.1
643.22 535.01 2318.7
632.23 521.01 2258.0
622.49 503.65 2182.8
676.88 542.72 2352.1
623.50 486.77 2109.6
611.08 468.85 2031.9
638.89 485.99 2106.2
630.19 475.31 2059.9
624.15 466.80 2023.1
638.14 469.37 2034.2
663.28 483.87 2097.0
672.98 486.96 2110.4
690.22 495.40 2147.0
699.58 490.25 2124.7
661.49 459.94 1993.3
680.42 469.44 2034.5
723.87 495.57 2147.7
739.40 491.09 2128.3
718.19 473.48 2052.0
694.36 454.40 1969.3
700.89 455.32 1973.3
741.66 478.32 2073.0
715.63 458.21 1985.8
739.55 470.14 2037.5
776.12 489.89 2123.1
752.29 471.51 2043.5
782.13 486.78 2109.6
805.76 498.00 2158.3
805.54 494.43 2142.8
796.85 475.97 2062.8
785.23 465.90 2019.2
828.65 488.41 2116.7
824.11 476.27 2064.1
839.33 481.94 2088.7
853.55 486.96 2110.4
840.58 476.51 2065.1
831.49 468.37 2029.9
812.17 454.61 1970.2
824.33 455.69 1974.9
887.81 487.74 2113.8
894.40 488.35 2116.5
897.93 487.29 2111.9
910.30 491.01 2128.0
882.12 472.94 2049.7
855.15 455.74 1975.1
872.77 462.36 2003.8
930.96 490.27 2124.8
939.86 489.16 2120.0
949.26 491.19 2128.7
1058.44 532.21 2306.5
1034.30 517.15 2241.3
1009.46 501.91 2175.2
976.47 482.81 2092.4
1077.16 507.23 2198.3
1141.36 507.91 2201.2
624.89 539.12 2363.0
642.61 533.48 2338.3
646.69 531.86 2331.2
646.79 527.01 2309.9
646.51 521.95 2287.8
664.61 531.69 2330.4
669.94 531.12 2328.0
661.64 519.86 2278.6
653.37 508.82 2230.2
607.46 460.83 2019.9
645.74 485.69 2128.8
649.38 484.28 2122.7
635.13 469.68 2058.6
630.44 462.32 2026.4
670.94 472.34 2070.3
680.67 475.39 2083.7
673.34 466.57 2045.0
677.22 465.59 2040.7
670.85 457.63 2005.9
687.40 465.32 2039.5
710.40 477.22 2091.7
728.26 485.51 2128.0
743.42 491.88 2156.0
718.60 471.91 2068.5
730.51 476.18 2087.2
738.60 477.92 2094.8
752.93 473.27 2074.4
798.33 498.25 2183.9
781.72 484.45 2123.4
809.03 497.87 2182.2
810.42 481.87 2112.1
770.46 455.04 1994.5
773.21 453.62 1988.3
769.15 448.25 1964.7
774.31 448.28 1964.9
796.06 457.86 2006.9
810.37 463.07 2029.7
826.61 469.30 2057.0
842.23 475.10 2082.4
839.89 470.77 2063.4
841.54 468.70 2054.4
863.28 477.79 2094.2
870.95 479.02 2099.6
830.39 453.88 1989.4
867.02 468.08 2051.7
918.28 492.74 2159.7
921.51 491.47 2154.2
882.16 467.65 2049.8
860.29 450.63 1975.2
885.84 461.26 2021.8
892.63 462.07 2025.3
899.04 462.66 2027.9
937.35 479.58 2102.0
1061.39 527.70 2313.0
1016.73 502.66 2203.2
1035.08 508.87 2230.4
1046.09 511.42 2241.6
1077.00 520.75 2282.5
1094.89 526.51 2307.7
1086.32 519.54 2277.2
1089.47 518.24 2271.5
1075.15 508.67 2229.6
1063.64 500.54 2193.9
1047.25 490.20 2148.6
1093.55 506.48 2220.0
1081.82 483.25 2118.1
1147.70 497.52 2180.7
1143.91 493.45 2162.9
633.21 540.09 2394.5
631.46 533.37 2364.7
650.88 539.30 2391.0
637.11 513.23 2275.4
669.17 534.11 2368.0
672.45 527.06 2336.7
666.61 517.82 2295.7
663.87 511.12 2266.1
670.41 511.63 2268.3
675.05 506.29 2244.6
680.41 505.94 2243.1
674.59 497.37 2205.1
645.26 471.74 2091.5
639.48 463.62 2055.5
637.04 458.03 2030.7
648.33 462.33 2049.8
651.99 461.16 2044.6
651.13 456.84 2025.4
684.85 476.65 2113.2
695.29 480.08 2128.4
689.28 472.18 2093.4
700.66 476.23 2111.4
700.96 472.74 2095.9
691.19 462.56 2050.8
689.06 457.62 2028.9
687.46 453.10 2008.8
687.50 446.36 1979.0
731.52 471.42 2090.1
761.83 483.79 2144.9
711.76 448.72 1989.4
735.59 460.40 2041.2
777.67 483.27 2142.6
775.21 478.32 2120.6
759.80 465.51 2063.9
786.98 478.79 2122.7
807.40 477.85 2118.5
785.93 462.00 2048.3
802.57 468.62 2077.6
799.83 463.90 2056.7
789.51 454.88 2016.7
776.84 444.64 1971.3
781.29 444.26 1969.6
790.08 446.34 1978.9
800.73 449.44 1992.6
827.59 461.54 2046.2
836.60 463.60 2055.3
852.33 469.32 2080.7
887.94 485.86 2154.0
887.87 482.78 2140.4
834.93 451.17 2000.3
822.31 441.61 1957.9
885.73 472.75 2095.9
897.26 475.99 2110.3
857.64 452.21 2004.9
871.35 456.67 2024.6
891.76 464.57 2059.7
913.10 472.85 2096.4
947.17 487.60 2161.8
920.70 471.18 2089.0
894.30 455.00 2017.2
956.14 483.63 2144.2
1042.27 512.30 2271.3
992.17 484.94 2150.0
997.62 484.88 2149.7
1063.56 514.05 2279.1
1058.86 503.39 2231.8
1074.16 507.89 2251.7
1098.45 516.57 2290.2
1072.67 501.73 2224.4
1050.87 488.91 2167.6
1093.25 505.92 2243.0
1097.07 502.34 2227.1
1058.26 482.04 2137.1
1067.12 483.54 2143.8
1102.31 496.90 2203.0
1146.56 514.18 2279.6
1115.35 490.08 2172.8
626.47 533.43 2392.5
627.79 529.31 2374.0
616.15 514.46 2307.4
629.38 520.45 2334.3
646.85 529.80 2376.2
626.17 508.03 2278.5
617.57 496.36 2226.2
655.36 521.86 2340.6
653.83 515.86 2313.7
628.56 491.42 2204.0
647.65 501.78 2250.5
664.77 510.45 2289.4
657.62 500.49 2244.7
663.27 500.36 2244.1
663.05 495.84 2223.9
646.95 479.64 2151.2
660.88 485.78 2178.7
665.50 485.02 2175.3
638.37 461.35 2069.2
629.05 450.82 2022.0
647.61 460.28 2064.4
682.88 481.37 2159.0
706.41 493.91 2215.2
710.52 484.96 2175.1
693.30 469.48 2105.6
693.93 466.23 2091.1
717.14 478.09 2144.3
729.03 482.28 2163.1
720.55 473.04 2121.6
711.56 463.60 2079.2
704.61 455.61 2043.4
713.86 458.15 2054.8
718.63 457.79 2053.2
733.15 463.61 2079.3
755.33 474.15 2126.6
751.67 468.43 2100.9
741.59 458.82 2057.9
746.00 458.26 2055.3
776.26 473.47 2123.5
796.70 482.51 2164.1
808.47 486.21 2180.7
785.29 462.57 2074.6
782.34 457.70 2052.8
846.99 492.17 2207.4
854.16 489.72 2196.4
851.28 484.83 2174.5
843.63 477.32 2140.8
826.07 464.33 2082.5
812.97 454.00 2036.2
817.91 453.81 2035.4
839.00 462.53 2074.5
836.63 458.28 2055.4
842.34 458.49 2056.4
859.63 464.95 2085.3
844.38 453.86 2035.6
850.80 454.46 2038.3
892.87 474.00 2125.9
913.60 482.02 2161.9
885.42 464.31 2082.4
865.75 451.24 2023.8
898.48 465.48 2087.7
898.40 462.65 2075.0
898.27 459.83 2062.4
928.74 472.61 2119.7
902.16 456.39 2046.9
911.00 458.17 2054.9
981.23 484.97 2175.1
983.11 483.13 2166.9
944.16 456.17 2045.9
963.42 462.87 2076.0
1031.30 492.73 2209.9
1075.18 510.86 2291.2
1044.95 493.77 2214.6
1067.74 501.78 2250.5
1059.48 487.25 2185.3
1055.08 482.64 2164.7
1120.05 509.65 2285.8
1107.53 501.30 2248.4
1092.68 491.99 2206.6
1120.47 501.88 2250.9
1142.35 501.24 2248.1
1155.95 504.63 2263.3
1161.98 504.70 2263.6
1162.31 499.79 2241.6
1171.46 501.22 2248.0
642.95 525.49 2384.6
641.53 519.33 2356.6
636.08 510.07 2314.6
643.77 511.41 2320.7
653.85 514.61 2335.2
628.62 490.21 2224.5
626.06 479.42 2175.5
638.49 463.86 2104.9
658.96 474.67 2154.0
650.81 464.87 2109.5
651.46 461.45 2094.0
681.03 478.41 2170.9
686.46 478.27 2170.3
679.41 469.51 2130.5
688.93 472.25 2143.0
687.34 467.39 2120.9
700.84 472.79 2145.4
714.76 478.39 2170.8
697.66 463.29 2102.3
703.21 463.36 2102.6
718.76 469.96 2132.6
712.73 462.46 2098.5
719.84 463.53 2103.4
731.76 467.67 2122.2
732.84 464.86 2109.5
729.33 459.21 2083.8
721.14 450.71 2045.2
718.34 445.68 2022.4
724.99 446.55 2026.4
726.35 444.17 2015.6
753.71 457.61 2076.5
806.56 486.23 2206.4
758.18 453.84 2059.4
771.38 455.33 2066.2
780.24 457.38 2075.5
785.16 454.01 2060.2
836.17 480.23 2179.2
832.29 474.80 2154.5
827.59 468.97 2128.1
827.40 465.76 2113.5
846.54 473.40 2148.2
855.00 475.00 2155.5
833.34 459.96 2087.2
829.99 455.16 2065.4
840.87 458.17 2079.1
829.27 448.97 2037.3
827.51 445.18 2020.2
836.13 446.99 2028.4
825.63 438.62 1990.4
837.23 442.02 2005.8
877.73 460.54 2089.8
898.01 468.29 2125.0
906.93 470.05 2133.0
923.59 475.79 2159.0
918.27 470.20 2133.7
881.69 448.76 2036.4
868.15 439.24 1993.2
883.15 444.19 2015.6
892.70 446.35 2025.4
939.24 466.87 2118.6
947.26 465.42 2112.0
943.78 461.04 2092.1
969.62 465.64 2113.0
930.21 444.20 2015.7
968.40 459.85 2086.7
973.30 459.61 2085.6
948.19 445.28 2020.6
991.43 463.03 2101.1
1090.33 495.61 2249.0
1070.59 484.04 2196.5
1112.35 500.26 2270.1
1110.19 496.67 2253.8
1104.48 491.52 2230.4
1127.53 499.16 2265.1
1046.66 460.96 2091.8
1064.68 464.09 2106.0
1121.07 486.18 2206.2
1081.02 466.43 2116.6
1078.09 460.49 2089.6
1094.60 465.20 2111.0
1123.44 475.09 2155.9
642.28 523.80 2405.2
620.34 501.05 2300.7
632.34 505.87 2322.9
638.48 505.97 2323.3
610.68 462.13 2122.0
641.37 460.47 2114.4
662.73 471.77 2166.3
656.04 463.09 2126.4
658.18 460.73 2115.6
678.14 470.78 2161.7
674.40 464.34 2132.2
674.68 460.76 2115.7
693.76 469.97 2158.0
694.93 466.99 2144.3
708.79 472.53 2169.8
723.38 478.46 2197.0
708.80 465.15 2135.9
684.61 445.79 2047.0
708.66 454.41 2086.6
748.72 472.88 2171.4
716.80 449.34 2063.3
722.24 449.40 2063.5
721.16 445.42 2045.3
720.00 441.46 2027.1
729.96 444.32 2040.3
748.29 452.20 2076.4
793.18 475.91 2185.3
773.10 457.32 2100.0
761.81 444.39 2040.6
816.81 473.19 2172.8
824.89 474.60 2179.3
825.32 471.61 2165.6
822.17 466.64 2142.7
804.79 453.71 2083.3
791.39 443.18 2035.0
797.07 443.40 2036.0
816.76 451.37 2072.6
841.31 461.90 2121.0
838.82 457.54 2100.9
811.37 439.71 2019.1
796.79 429.04 1970.1
825.97 441.92 2029.2
860.23 457.34 2100.0
866.78 457.92 2102.7
855.32 449.04 2061.9
860.28 448.84 2061.0
892.57 462.81 2125.2
901.09 464.37 2132.3
900.44 461.20 2117.8
909.36 462.95 2125.8
896.99 453.90 2084.2
891.05 448.19 2058.0
911.63 455.81 2093.0
873.71 434.27 1994.1
893.56 438.94 2015.5
947.48 462.72 2124.7
915.98 444.75 2042.2
905.89 437.33 2008.1
955.64 458.71 2106.3
970.78 463.33 2127.5
972.51 461.53 2119.3
993.93 469.05 2153.8
1011.37 474.61 2179.3
994.06 463.90 2130.1
972.79 451.46 2073.0
1022.02 471.70 2166.0
1050.20 482.06 2213.5
1036.75 473.30 2173.3
1085.50 492.88 2263.2
1121.48 498.43 2288.7
1075.55 475.51 2183.5
1066.21 468.91 2153.1
1082.97 473.80 2175.6
1094.55 476.39 2187.5
1127.35 488.13 2241.4
1109.44 477.91 2194.5
1093.86 461.73 2120.2
1138.01 477.96 2194.7
1115.76 466.29 2141.1
1135.65 472.25 2168.5
1112.39 458.04 2103.3
1209.30 490.73 2253.4
634.67 506.52 2353.9
634.46 501.53 2330.7
647.88 507.30 2357.5
624.52 484.44 2251.3
637.65 472.54 2196.0
643.19 472.43 2195.5
659.82 480.40 2232.5
667.40 481.69 2238.5
641.15 458.75 2131.9
647.37 459.24 2134.2
676.52 475.86 2211.4
678.60 473.31 2199.5
697.79 482.64 2242.9
694.95 468.95 2179.3
719.73 477.90 2220.9
713.70 470.14 2184.8
708.11 462.78 2150.6
687.85 446.03 2072.8
744.93 471.98 2193.4
736.94 459.90 2137.2
719.72 445.80 2071.7
742.01 456.20 2120.0
747.58 456.24 2120.2
753.14 456.28 2120.4
749.13 450.56 2093.8
749.64 447.63 2080.2
781.18 463.13 2152.2
808.68 476.03 2212.2
807.67 472.09 2193.9
801.79 465.38 2162.7
822.17 473.89 2202.2
835.19 465.24 2162.1
808.82 447.55 2079.8
803.52 441.67 2052.5
843.39 460.53 2140.2
871.93 469.94 2183.9
836.25 447.80 2081.0
794.59 422.76 1964.6
797.14 421.42 1958.4
829.03 435.50 2023.8
835.04 435.90 2025.7
846.31 439.03 2040.2
873.90 450.52 2093.6
885.38 453.62 2108.1
874.02 445.05 2068.2
887.03 448.93 2086.2
911.32 458.42 2130.4
876.07 438.03 2035.6
851.31 423.11 1966.2
879.53 434.53 2019.3
868.51 421.56 1959.0
931.12 449.32 2088.1
920.41 441.58 2052.1
885.72 422.50 1963.4
904.17 428.83 1992.9
930.88 439.00 2040.1
941.43 441.46 2051.5
957.37 446.41 2074.5
970.09 449.82 2090.4
984.54 453.98 2109.7
994.48 456.03 2119.3
1024.57 467.25 2171.4
1031.31 467.75 2173.7
1028.75 464.06 2156.5
1061.79 473.81 2201.9
1013.77 449.96 2091.0
970.01 428.25 1990.2
1011.77 439.67 2043.2
1034.43 447.18 2078.1
1053.72 453.15 2105.9
1100.92 471.01 2188.9
1106.81 471.10 2189.3
1085.56 459.70 2136.3
1118.14 471.10 2189.3
1127.61 472.69 2196.6
1142.51 476.53 2214.5
1167.57 479.75 2229.5
1125.48 460.17 2138.5
1127.56 458.76 2131.9
1150.36 465.75 2164.4
1166.34 469.93 2183.9
1204.23 482.86 2243.9
644.31 498.43 2344.5
654.42 501.52 2359.1
659.59 500.80 2355.7
628.76 473.01 2225.0
624.49 453.17 2131.6
672.09 483.43 2274.0
708.69 472.46 2222.4
704.36 462.06 2173.5
680.56 442.91 2083.4
694.04 448.12 2107.9
693.74 444.43 2090.5
706.82 442.44 2081.2
716.12 444.86 2092.6
707.89 436.44 2053.0
729.39 446.35 2099.5
769.57 467.44 2198.8
784.02 469.27 2207.4
760.71 452.02 2126.2
754.32 444.99 2093.2
777.87 455.61 2143.1
789.87 459.36 2160.7
775.52 447.84 2106.5
773.19 443.37 2085.5
796.14 453.36 2132.5
824.83 466.45 2194.1
844.95 471.34 2217.1
816.26 452.25 2127.3
827.45 455.38 2142.0
840.48 459.46 2161.2
814.62 442.38 2080.9
829.75 447.63 2105.6
872.33 464.49 2184.9
868.10 459.25 2160.2
860.07 452.09 2126.5
818.59 427.54 2011.1
808.95 419.83 1974.8
826.82 426.41 2005.8
847.83 434.51 2043.9
860.31 438.17 2061.1
857.66 434.13 2042.1
877.85 441.62 2077.3
874.52 431.99 2032.0
843.89 414.37 1949.1
861.89 420.68 1978.8
913.10 443.04 2084.0
949.73 458.10 2154.8
916.24 439.37 2066.7
894.76 426.57 2006.5
938.89 445.02 2093.3
965.64 455.07 2140.6
919.17 430.70 2025.9
902.94 418.31 1967.7
927.75 427.39 2010.4
954.40 437.21 2056.6
984.14 448.33 2108.9
984.07 445.82 2097.1
1000.71 450.87 2120.8
1016.18 455.34 2141.8
1023.28 456.03 2145.1
1036.23 456.83 2148.9
990.22 434.21 2042.5
1002.48 428.14 2013.9
992.63 421.74 1983.8
1005.16 424.86 1998.5
1072.71 451.09 2121.8
1120.74 468.88 2205.5
1155.26 480.87 2261.9
1168.03 483.73 2275.4
1136.69 468.38 2203.2
1154.35 473.28 2226.2
1192.68 484.16 2277.4
1140.60 460.73 2167.2
1131.71 454.90 2139.8
1164.21 465.69 2190.5
1196.46 476.26 2240.2
630.08 481.48 2292.7
647.93 490.49 2335.7
653.32 485.50 2311.9
653.51 481.22 2291.5
671.22 489.81 2332.4
641.55 463.98 2209.4
646.85 463.67 2207.9
652.13 463.36 2206.5
642.00 452.19 2153.3
668.31 466.67 2222.2
688.41 476.59 2269.5
694.10 476.46 2268.8
686.48 467.27 2225.1
698.46 471.46 2245.1
708.50 470.40 2240.0
703.96 463.59 2207.6
698.07 456.00 2171.4
665.70 431.37 2054.2
655.00 421.07 2005.1
682.72 435.43 2073.5
720.01 455.63 2169.7
715.45 449.24 2139.2
687.88 428.60 2041.0
704.63 435.69 2074.7
718.68 441.01 2100.0
715.26 435.61 2074.3
728.77 440.53 2097.7
756.97 454.18 2162.8
778.81 460.46 2192.7
779.58 457.58 2178.9
797.57 464.77 2213.2
798.32 461.88 2199.4
783.84 450.29 2144.2
770.80 439.68 2093.7
771.16 436.81 2080.1
795.48 447.46 2130.8
825.21 460.98 2195.1
823.62 456.94 2175.9
793.62 437.30 2082.4
779.69 421.03 2004.9
810.13 426.11 2029.1
845.43 441.81 2103.8
865.24 449.26 2139.3
856.34 441.80 2103.8
839.08 430.16 2048.4
847.02 431.50 2054.8
845.95 428.26 2039.4
838.76 421.99 2009.5
855.77 427.88 2037.5
894.68 444.59 2117.1
913.96 451.41 2149.5
894.76 439.24 2091.6
895.87 437.14 2081.6
911.37 442.04 2105.0
897.96 432.94 2061.6
918.24 440.10 2095.7
911.15 429.09 2043.3
924.03 432.64 2060.2
958.80 446.34 2125.4
920.79 426.19 2029.5
899.90 414.16 1972.2
932.83 426.89 2032.8
953.27 433.79 2065.7
974.25 440.86 2099.3
1000.36 450.16 2143.6
997.85 446.55 2126.4
1009.53 449.29 2139.5
987.76 434.83 2070.6
983.24 430.50 2050.0
1007.22 438.63 2088.7
1012.50 438.57 2088.4
1025.96 442.03 2104.9
1004.02 430.29 2049.0
973.59 415.06 1976.5
1014.81 430.37 2049.4
1062.03 448.04 2133.5
1052.86 441.87 2104.2
1077.57 449.91 2142.4
1126.24 463.07 2205.1
1088.31 440.77 2098.9
1111.99 445.90 2123.3
1164.81 462.50 2202.4
1149.01 454.00 2161.9
1214.55 477.57 2274.1
618.40 485.02 2338.5
613.95 476.86 2299.1
625.40 481.08 2319.5
617.11 470.18 2266.9
616.35 465.17 2242.8
654.01 488.98 2357.6
632.70 444.00 2140.7
642.04 439.00 2116.6
657.70 445.90 2149.9
660.49 444.03 2140.9
683.93 455.95 2198.4
701.18 463.59 2235.2
691.38 453.37 2185.9
697.74 453.81 2188.0
703.50 453.87 2188.3
672.97 430.70 2076.6
662.62 420.71 2028.4
681.81 429.49 2070.7
715.10 446.94 2154.9
736.64 456.83 2202.6
732.39 450.70 2173.0
714.74 436.49 2104.5
695.82 421.71 2033.2
706.95 425.24 2050.2
735.55 439.13 2117.3
733.66 434.76 2096.2
730.36 429.62 2071.4
747.96 436.76 2105.8
773.32 448.30 2161.5
784.63 451.59 2177.3
777.92 444.53 2143.3
766.00 434.61 2095.4
755.55 425.66 2052.3
773.56 432.76 2086.5
817.13 453.96 2188.7
819.86 446.18 2151.2
788.17 426.04 2054.1
777.97 417.70 2013.9
785.74 419.06 2020.5
797.96 417.23 2011.7
857.83 445.63 2148.6
875.60 446.17 2151.2
840.58 425.61 2052.0
824.19 414.69 1999.4
839.89 417.34 2012.2
901.79 445.33 2147.1
913.04 448.12 2160.6
907.06 442.47 2133.3
890.90 431.95 2082.6
892.77 430.25 2074.4
908.26 435.10 2097.8
894.43 425.92 2053.5
862.26 408.17 1968.0
862.20 405.74 1956.3
907.09 424.37 2046.1
917.55 426.77 2057.6
898.70 415.58 2003.7
898.20 412.97 1991.1
906.57 414.43 1998.2
929.25 422.39 2036.5
945.94 427.54 2061.4
947.50 425.84 2053.2
933.71 417.30 2012.0
922.65 410.07 1977.1
939.41 415.21 2001.9
970.95 426.79 2057.7
1004.41 439.09 2117.0
997.07 433.51 2090.1
976.01 422.06 2034.9
982.03 422.38 2036.5
1027.51 439.58 2119.4
1088.41 463.15 2233.1
1058.08 447.87 2159.4
1022.22 430.41 2075.2
1061.92 444.78 2144.5
1097.96 457.48 2205.7
1105.21 458.12 2208.8
1089.16 444.56 2143.4
1088.24 441.93 2130.7
1166.75 471.42 2272.9
1108.68 443.47 2138.2
1081.88 428.47 2065.8
1193.30 470.27 2267.4
1183.22 464.01 2237.2
1158.71 452.18 2180.1
1209.02 469.52 2263.8
609.77 476.95 2328.7
630.54 474.41 2316.3
654.98 453.89 2216.1
648.22 445.30 2174.1
634.47 432.09 2109.7
645.76 436.03 2128.9
652.55 436.88 2133.0
646.34 429.08 2095.0
641.40 422.25 2061.6
658.26 426.25 2081.1
702.84 451.42 2204.0
713.14 454.34 2218.3
688.72 435.27 2125.2
682.04 420.95 2055.3
703.35 430.74 2103.1
704.20 427.94 2089.4
692.03 417.33 2037.6
688.83 412.26 2012.8
714.00 424.11 2070.7
750.07 442.20 2159.0
757.35 443.19 2163.8
760.08 441.51 2155.7
785.58 449.72 2195.7
766.01 435.36 2125.6
782.97 441.82 2157.2
795.01 445.43 2174.8
807.80 449.41 2194.2
819.74 446.62 2180.6
829.93 449.07 2192.6
812.88 436.85 2132.9
819.14 437.24 2134.8
840.26 445.51 2175.2
854.44 450.01 2197.1
843.30 441.20 2154.1
826.55 429.59 2097.4
861.34 444.74 2171.4
875.25 440.41 2150.3
849.51 424.76 2073.9
839.16 416.94 2035.7
835.41 412.48 2013.9
893.25 438.30 2140.0
891.26 431.96 2109.0
883.23 425.46 2077.3
865.39 414.34 2023.0
875.29 416.55 2033.8
899.28 425.41 2077.0
892.85 419.85 2049.9
866.18 404.90 1976.9
861.78 400.48 1955.3
898.32 415.01 2026.3
910.74 418.30 2042.4
896.67 409.46 1999.2
905.86 411.28 2008.1
923.61 416.95 2035.7
924.75 415.09 2026.6
917.23 409.39 1998.8
930.60 413.02 2016.6
929.14 410.07 2002.1
917.22 402.56 1965.5
933.13 407.28 1988.5
946.61 410.89 2006.2
958.89 413.95 2021.1
962.35 413.18 2017.3
950.90 406.06 1982.6
979.88 416.19 2032.0
1064.15 444.80 2171.7
1012.65 421.05 2055.8
1029.63 425.87 2079.3
1041.44 428.51 2092.2
1031.29 422.13 2061.0
1050.17 427.65 2088.0
1038.54 420.74 2054.3
1025.43 413.31 2018.0
1079.74 432.99 2114.1
1121.85 447.61 2185.4
1119.60 444.47 2170.1
1114.57 440.25 2149.5
1102.17 433.19 2115.0
1105.95 428.29 2091.1
1219.64 463.23 2261.7
636.51 472.84 2338.2
626.98 452.82 2239.2
673.94 469.35 2321.0
658.80 454.75 2248.8
668.92 457.68 2263.2
674.88 457.75 2263.6
673.50 452.87 2239.5
666.87 444.58 2198.5
654.87 432.88 2140.6
637.37 417.77 2065.9
674.82 417.75 2065.8
667.39 409.89 2026.9
695.65 423.91 2096.3
701.50 424.16 2097.5
686.64 411.98 2037.3
690.13 410.92 2032.0
701.87 414.74 2050.9
705.04 413.48 2044.7
716.88 417.29 2063.5
769.37 444.53 2198.2
766.08 433.00 2141.2
739.38 414.90 2051.7
746.12 415.69 2055.6
792.33 438.31 2167.5
805.84 436.50 2158.5
801.78 431.30 2132.8
828.56 442.65 2188.9
822.34 436.34 2157.7
830.76 437.83 2165.1
857.98 449.15 2221.0
852.63 440.43 2177.9
826.55 424.15 2097.5
825.84 421.02 2082.0
829.80 420.29 2078.3
838.13 421.77 2085.7
842.81 421.40 2083.9
861.92 428.21 2117.5
892.36 440.53 2178.5
885.60 434.45 2148.4
885.11 431.49 2133.8
889.85 431.11 2131.9
861.08 414.59 2050.2
837.15 395.75 1957.0
907.93 426.62 2109.6
891.86 416.56 2059.9
848.48 393.94 1948.0
894.18 412.70 2040.8
945.17 428.62 2119.6
919.99 414.79 2051.2
918.78 411.87 2036.7
943.10 420.35 2078.7
949.23 420.68 2080.3
934.85 411.97 2037.2
942.12 412.84 2041.5
947.34 412.81 2041.3
943.40 408.80 2021.6
949.39 409.13 2023.2
951.20 407.66 2015.9
959.71 409.06 2022.8
961.48 407.58 2015.5
944.91 398.40 1970.1
967.04 405.53 2005.4
979.44 408.54 2020.2
971.20 402.95 1992.6
1003.98 414.34 2048.9
1024.37 420.53 2079.6
1006.47 411.02 2032.5
986.17 400.63 1981.2
1014.99 406.00 2007.7
1079.80 429.71 2125.0
1103.90 437.08 2161.4
1112.42 438.23 2167.1
1119.15 438.66 2169.2
1123.17 438.04 2166.1
1108.52 430.17 2127.2
1124.34 429.90 2125.9
1154.09 439.12 2171.5
1103.32 417.76 2065.9
1204.35 453.81 2244.1
647.93 470.67 2357.7
636.56 458.09 2294.7
624.89 445.52 2231.7
632.93 447.12 2239.7
632.12 442.49 2216.5
615.72 427.12 2139.6
621.67 427.40 2141.0
642.27 437.65 2192.3
638.88 431.53 2161.6
634.79 425.03 2129.1
641.00 425.49 2131.4
640.37 421.44 2111.1
662.06 432.02 2164.1
677.05 438.09 2194.5
675.84 433.66 2172.3
675.40 429.80 2153.0
655.61 413.78 2072.8
684.59 418.36 2095.7
702.11 425.69 2132.4
710.51 427.42 2141.1
695.89 415.38 2080.7
689.77 408.56 2046.6
702.77 413.08 2069.2
706.64 412.20 2064.8
701.83 406.32 2035.4
714.62 410.64 2057.0
763.87 435.69 2182.5
768.60 435.16 2179.9
717.07 403.02 2018.9
729.68 407.14 2039.5
756.04 418.81 2097.9
732.36 402.80 2017.7
745.44 407.08 2039.2
786.11 426.27 2135.3
793.39 427.21 2140.0
787.63 421.16 2109.7
813.89 432.21 2165.0
832.85 436.26 2185.3
830.42 432.04 2164.2
848.44 438.46 2196.3
830.16 420.54 2106.6
806.99 406.13 2034.4
805.73 402.87 2018.1
809.90 402.34 2015.4
859.39 424.19 2124.9
898.68 432.49 2166.5
860.69 411.63 2062.0
855.74 406.74 2037.5
835.36 394.62 1976.8
873.49 407.63 2041.9
876.43 406.54 2036.4
870.08 396.43 1985.8
918.85 416.19 2084.8
905.06 407.54 2041.5
902.69 404.11 2024.3
898.24 399.79 2002.7
911.48 403.36 2020.5
946.75 416.57 2086.7
959.02 419.57 2101.7
952.06 414.17 2074.7
953.64 412.53 2066.5
954.77 410.71 2057.4
945.87 404.62 2026.9
948.53 403.52 2021.3
938.99 397.27 1990.0
935.22 393.51 1971.2
958.06 400.93 2008.4
964.88 401.60 2011.7
959.74 397.31 1990.2
946.78 389.85 1952.9
948.74 388.58 1946.5
986.63 401.96 2013.5
1040.45 421.66 2112.2
1058.42 426.69 2137.4
1022.10 409.91 2053.3
982.35 391.92 1963.2
976.31 385.52 1931.2
1065.51 418.59 2096.9
1118.22 437.07 2189.4
1108.82 431.21 2160.0
1098.38 425.00 2128.9
1118.18 430.50 2156.5
1120.34 429.18 2149.9
1132.97 431.88 2163.4
1186.48 450.04 2254.4
1131.69 427.16 2139.8
1194.58 444.36 2225.9
1212.04 446.54 2236.8
1162.39 426.21 2135.0
639.94 463.20 2350.8
656.20 457.53 2322.1
628.75 422.87 2146.2
630.54 420.36 2133.4
644.34 425.82 2161.1
668.17 437.77 2221.8
632.11 410.60 2083.9
654.47 417.98 2121.3
672.35 425.82 2161.1
694.24 436.05 2213.0
694.73 432.78 2196.4
653.63 403.87 2049.7
687.95 414.95 2106.0
709.49 424.58 2154.8
720.12 427.57 2170.0
705.87 415.86 2110.6
699.81 409.12 2076.4
710.35 412.11 2091.5
711.41 409.60 2078.8
710.80 406.17 2061.4
726.56 412.08 2091.4
752.19 423.46 2149.1
732.98 409.61 2078.8
738.61 406.77 2064.4
782.37 427.77 2171.0
776.30 421.42 2138.8
757.92 408.52 2073.3
765.39 409.65 2079.0
777.67 413.31 2097.6
776.97 410.07 2081.2
791.06 414.63 2104.3
803.17 418.09 2121.9
797.84 412.49 2093.5
797.31 409.43 2077.9
799.90 408.00 2070.7
824.55 417.77 2120.3
849.27 424.63 2155.1
818.22 406.43 2062.7
809.73 399.60 2028.1
805.11 394.76 2003.5
847.22 412.75 2094.8
880.76 415.76 2110.1
880.10 412.89 2095.5
852.57 397.52 2017.5
830.07 384.67 1952.3
856.05 394.30 2001.2
834.39 382.01 1938.8
861.37 389.67 1977.6
891.37 400.85 2034.4
888.28 397.11 2015.4
867.54 385.58 1956.9
871.62 382.91 1943.3
906.19 395.81 2008.8
931.69 404.62 2053.5
935.31 403.88 2049.8
913.86 392.39 1991.5
901.24 384.80 1952.9
917.45 389.53 1977.0
924.61 390.39 1981.3
940.97 395.11 2005.2
943.58 394.02 1999.7
924.21 383.82 1948.0
930.05 384.15 1949.6
964.85 396.37 2011.6
987.07 403.32 2046.9
979.37 398.03 2020.1
989.25 399.91 2029.6
993.96 399.69 2028.5
1009.54 403.81 2049.4
1046.17 416.28 2112.7
1032.17 408.57 2073.6
996.84 392.54 1992.2
970.46 380.18 1929.5
990.92 386.20 1960.1
1074.41 416.61 2114.4
1098.51 423.79 2150.8
1059.32 406.61 2063.6
1056.81 403.61 2048.4
1085.97 412.67 2094.4
1111.67 420.33 2133.3
1148.04 431.94 2192.2
1108.65 413.02 2096.2
1159.42 427.75 2170.9
1155.30 418.11 2122.0
1143.02 411.70 2089.5
619.70 446.90 2298.3
621.13 443.67 2281.7
651.57 444.25 2284.7
635.85 429.63 2209.5
616.76 413.01 2124.0
623.23 413.65 2127.3
662.87 436.10 2242.8
664.64 426.05 2191.1
638.82 402.62 2070.6
653.66 408.54 2101.1
672.77 417.00 2144.6
687.03 422.36 2172.1
659.90 402.38 2069.4
679.66 407.79 2097.2
714.82 425.49 2188.2
733.18 432.98 2226.8
726.94 425.94 2190.6
699.32 406.58 2091.0
694.47 400.66 2060.5
706.87 404.70 2081.3
716.18 406.92 2092.7
724.25 408.41 2100.4
710.74 397.80 2045.8
708.01 393.34 2022.9
759.47 418.82 2153.9
777.04 422.30 2171.8
758.37 409.19 2104.4
761.87 408.14 2099.0
751.15 399.55 2054.8
753.49 397.97 2046.7
760.91 399.08 2052.4
787.97 410.40 2110.6
832.25 430.48 2213.9
828.59 425.65 2189.0
809.75 413.14 2124.7
799.42 405.11 2083.4
792.44 398.88 2051.4
812.42 406.21 2089.1
843.69 419.05 2155.1
851.79 420.29 2161.5
843.60 413.53 2126.7
835.25 406.78 2092.0
829.67 401.45 2064.6
830.23 399.15 2052.8
836.68 399.69 2055.5
836.42 397.03 2041.9
848.85 400.40 2059.2
863.23 404.64 2081.0
859.52 400.40 2059.2
878.95 406.92 2092.7
870.93 400.74 2060.9
859.26 388.22 1996.6
902.37 405.25 2084.2
915.19 408.57 2101.2
910.31 403.98 2077.6
916.44 404.31 2079.3
903.41 396.23 2037.8
878.58 383.10 1970.2
883.26 382.92 1969.3
888.34 382.91 1969.2
888.13 380.63 1957.5
920.97 392.46 2018.4
929.02 393.65 2024.5
898.30 378.50 1946.6
892.54 373.97 1923.3
925.04 381.20 1960.5
931.76 381.87 1963.9
937.63 382.19 1965.5
972.47 394.25 2027.5
967.36 390.06 2006.0
935.07 375.03 1928.7
981.44 391.53 2013.6
1024.26 406.45 2090.3
1008.19 397.97 2046.7
1009.87 396.54 2039.4
1026.43 400.95 2062.0
1025.01 398.32 2048.5
1007.59 389.53 2003.3
1040.65 400.25 2058.4
1089.56 416.92 2144.2
1074.29 408.99 2103.4
1021.94 387.10 1990.8
1055.55 395.83 2035.7
1118.94 417.51 2147.2
1116.48 414.54 2131.9
1101.11 406.81 2092.2
1113.22 409.27 2104.8
1149.89 420.69 2163.6
1164.74 422.01 2170.3
1170.07 421.90 2169.8
1142.53 410.00 2108.6
1160.45 414.45 2131.4
1219.15 433.35 2228.6
614.44 433.03 2257.1
629.55 435.39 2269.4
646.15 442.73 2307.7
642.62 436.27 2274.0
638.65 429.64 2239.4
650.55 433.70 2260.6
656.52 433.77 2261.0
676.11 435.06 2267.7
690.06 436.45 2274.9
670.15 420.26 2190.6
682.31 424.29 2211.6
698.66 430.84 2245.7
703.98 430.53 2244.1
704.24 427.16 2226.5
699.34 420.74 2193.1
708.13 422.59 2202.7
697.85 413.13 2153.4
686.11 402.95 2100.3
697.50 406.42 2118.4
686.05 396.62 2067.3
708.36 406.35 2118.0
742.30 419.31 2185.6
726.05 407.03 2121.6
733.87 408.32 2128.3
719.12 397.12 2070.0
713.19 390.93 2037.7
762.08 414.66 2161.4
790.63 423.96 2209.8
749.68 399.11 2080.3
740.66 388.72 2026.1
765.03 398.68 2078.0
766.37 396.58 2067.1
786.58 404.22 2106.9
822.91 419.97 2189.0
813.61 412.38 2149.5
815.00 410.27 2138.5
824.09 412.04 2147.7
797.74 396.19 2065.1
798.49 393.92 2053.3
821.07 402.38 2097.3
822.20 400.28 2086.4
840.69 406.61 2119.4
858.59 412.57 2150.5
855.34 408.36 2128.5
855.31 405.73 2114.8
851.13 401.17 2091.0
842.37 394.53 2056.4
862.71 401.51 2092.8
884.72 409.18 2132.8
879.97 404.46 2108.2
896.85 409.67 2135.4
888.92 403.56 2103.5
840.39 379.20 1976.5
842.43 377.82 1969.3
893.09 398.12 2075.2
914.87 405.39 2113.0
905.73 398.95 2079.5
903.17 395.47 2061.3
909.66 395.97 2063.9
915.76 396.29 2065.6
908.22 390.75 2036.7
910.22 389.34 2029.4
914.22 388.81 2026.6
909.65 384.65 2004.9
937.70 394.26 2055.0
957.74 400.41 2087.1
937.05 389.56 2030.5
931.46 385.07 2007.1
928.26 381.62 1989.1
922.89 377.32 1966.7
938.03 381.39 1988.0
944.80 382.05 1991.4
950.30 382.19 1992.1
967.74 387.10 2017.7
947.19 376.84 1964.2
978.37 385.10 2007.3
1024.66 401.19 2091.1
1014.69 395.19 2059.9
1026.00 397.51 2072.0
1053.18 405.91 2115.8
1057.60 405.50 2113.6
1051.38 401.04 2090.4
1043.72 396.08 2064.5
1044.44 394.33 2055.4
1046.01 392.92 2048.0
1013.33 378.72 1974.0
1006.10 374.13 1950.1
1074.10 397.42 2071.5
1120.27 412.44 2149.8
1101.82 403.64 2103.9
1098.78 400.54 2087.8
1122.86 407.31 2123.1
1135.52 409.89 2136.5
1128.72 405.46 2113.4
1125.08 402.20 2096.4
1126.52 400.78 2089.0
1134.50 401.69 2093.7
634.35 441.02 2330.3
640.07 432.64 2286.0
657.55 436.37 2305.7
662.27 435.55 2301.3
660.65 430.60 2275.2
665.44 422.41 2231.9
643.80 401.69 2122.4
665.26 411.56 2174.6
692.38 414.29 2189.0
665.86 395.18 2088.1
695.48 409.44 2163.4
704.82 411.62 2174.9
694.96 402.64 2127.4
711.04 408.71 2159.5
705.87 402.57 2127.1
735.20 416.04 2198.3
744.20 414.71 2191.2
720.94 398.70 2106.6
721.03 395.75 2091.1
733.64 399.67 2111.7
754.80 408.15 2156.6
754.55 405.02 2140.0
750.60 399.96 2113.3
759.13 401.57 2121.8
748.00 392.83 2075.6
736.31 383.94 2028.6
755.51 391.15 2066.7
773.86 397.83 2102.0
771.48 393.83 2080.9
751.79 381.11 2013.7
767.24 383.62 2027.0
796.05 395.32 2088.8
827.96 408.38 2157.8
826.82 405.08 2140.4
782.40 380.77 2011.9
803.99 383.61 2026.9
828.64 392.80 2075.4
832.56 392.11 2071.8
844.96 395.40 2089.2
851.86 396.09 2092.8
858.02 396.43 2094.6
894.60 410.73 2170.2
898.29 409.85 2165.5
874.64 396.58 2095.4
874.71 394.16 2082.6
853.24 382.13 2019.1
836.11 372.17 1966.5
869.89 384.86 2033.5
893.45 392.90 2076.0
887.44 387.92 2049.7
892.33 387.74 2048.7
900.37 388.92 2054.9
900.49 386.68 2043.1
900.15 384.27 2030.4
905.77 384.43 2031.2
919.06 387.81 2049.1
926.74 388.80 2054.3
925.89 386.23 2040.7
941.75 390.61 2063.9
948.67 391.26 2067.3
906.87 371.92 1965.1
924.88 375.09 1981.9
965.55 389.42 2057.6
966.57 387.69 2048.5
959.11 382.60 2021.5
954.07 378.52 2000.0
959.17 378.48 1999.8
970.26 380.80 2012.1
981.39 383.11 2024.3
1007.69 391.28 2067.4
1027.66 396.93 2097.3
1000.70 384.48 2031.5
993.59 379.75 2006.5
1018.00 387.05 2045.1
1018.74 385.33 2036.0
1019.00 383.44 2026.0
1020.99 382.22 2019.5
1017.14 378.83 2001.7
1012.32 375.12 1982.1
1021.37 376.57 1989.7
1063.00 389.95 2060.4
1095.39 399.82 2112.5
1092.90 396.92 2097.2
1103.60 398.83 2107.3
1133.18 407.50 2153.1
1103.46 394.86 2086.4
1056.33 376.16 1987.5
1080.35 382.84 2022.8
1111.04 391.82 2070.3
1123.66 394.36 2083.7
1144.32 399.69 2111.9
1142.45 397.14 2098.4
1169.87 404.74 2138.6
617.31 423.30 2267.7
674.26 437.36 2343.0
652.98 419.77 2248.8
635.40 404.85 2168.9
655.09 413.74 2216.5
681.20 426.49 2284.8
645.54 400.68 2146.5
645.10 393.62 2108.7
681.16 412.13 2207.8
672.36 403.42 2161.2
656.26 390.50 2092.0
674.99 391.93 2099.6
696.32 401.08 2148.7
697.40 398.51 2134.9
713.81 404.68 2167.9
708.65 398.62 2135.4
710.22 396.40 2123.6
718.95 398.19 2133.2
732.80 402.76 2157.6
749.94 409.06 2191.4
746.05 403.88 2163.6
755.60 405.99 2175.0
754.79 402.55 2156.5
734.24 388.71 2082.4
745.31 391.70 2098.4
768.74 401.08 2148.6
758.33 392.80 2104.3
745.69 383.50 2054.5
773.41 394.93 2115.7
801.74 406.52 2177.8
813.92 409.81 2195.4
807.22 403.61 2162.2
771.60 383.14 2052.5
764.42 376.97 2019.5
771.82 378.03 2025.2
782.77 380.81 2040.0
809.05 390.95 2094.4
797.01 382.56 2049.5
794.34 376.26 2015.7
808.32 380.39 2037.8
818.01 382.45 2048.8
831.06 386.04 2068.1
850.84 392.70 2103.7
854.43 391.84 2099.1
857.25 390.64 2092.7
882.19 399.48 2140.1
