ply
format ascii 1.0
element vertex 2233
property float x
property float y
property float z
end_header
574.74 1092.01 2463.2
598.13 1123.96 2535.3
602.92 1120.64 2527.8
616.27 1133.14 2556.0
629.76 1145.63 2584.1
624.28 1123.70 2534.7
628.09 1118.78 2523.6
645.73 1138.35 2567.7
645.49 1126.31 2540.5
646.02 1115.85 2517.0
646.90 1106.19 2495.2
398.31 1167.46 2648.9
408.37 1176.67 2669.8
404.12 1108.06 2514.1
431.78 1165.12 2643.5
437.73 1162.72 2638.1
437.09 1143.17 2593.7
437.16 1126.02 2554.8
439.54 1115.26 2530.4
447.21 1118.03 2536.7
461.21 1136.32 2578.2
479.84 1165.32 2644.0
493.67 1149.65 2608.5
488.30 1121.78 2545.2
498.21 1129.27 2562.2
506.24 1132.37 2569.3
522.61 1124.60 2551.6
520.42 1105.89 2509.2
526.13 1104.22 2505.4
527.23 1093.04 2480.0
539.60 1105.21 2507.6
558.95 1131.21 2566.6
561.79 1123.58 2549.3
546.15 1079.59 2449.5
551.63 1077.90 2445.7
577.94 1116.48 2533.2
578.86 1105.69 2508.7
589.68 1113.83 2527.2
613.87 1146.80 2602.0
618.82 1143.48 2594.4
623.51 1139.76 2586.0
627.94 1135.64 2576.7
627.71 1123.27 2548.6
635.77 1125.84 2554.4
640.66 1100.13 2496.1
659.25 1098.76 2493.0
388.45 1151.71 2628.6
400.73 1167.65 2665.0
389.19 1114.81 2544.4
392.13 1104.51 2520.9
406.85 1127.17 2572.6
412.94 1125.60 2569.0
421.53 1130.77 2580.8
427.17 1127.99 2574.5
426.52 1108.95 2531.0
432.62 1107.76 2528.3
440.74 1111.71 2537.3
444.60 1104.96 2521.9
455.01 1114.45 2543.5
476.02 1149.25 2623.0
493.45 1142.37 2607.3
490.14 1119.38 2554.8
501.65 1130.38 2579.9
504.58 1122.02 2560.8
514.60 1129.44 2577.8
524.38 1121.78 2560.3
517.16 1092.51 2493.5
518.49 1081.79 2469.0
521.60 1075.00 2453.5
535.27 1089.88 2487.5
543.03 1092.53 2493.5
536.58 1066.86 2434.9
551.25 1083.27 2472.4
576.49 1094.69 2498.4
583.53 1095.73 2500.8
602.18 1118.34 2552.4
595.48 1093.87 2496.6
588.50 1069.43 2440.8
606.29 1090.04 2487.8
620.14 1103.19 2517.8
625.90 1101.84 2514.8
648.03 1129.04 2576.8
667.10 1138.79 2599.1
650.61 1099.53 2509.5
663.53 1110.26 2534.0
675.15 1118.63 2553.1
365.05 1179.41 2707.8
379.38 1180.30 2709.9
383.70 1172.02 2690.9
390.69 1172.06 2690.9
390.82 1151.90 2644.7
386.49 1119.49 2570.3
386.64 1100.94 2527.7
400.40 1121.13 2574.0
415.12 1143.28 2624.9
421.20 1141.31 2620.4
421.18 1123.15 2578.7
418.54 1098.67 2522.5
421.11 1088.42 2498.9
429.61 1093.55 2510.7
438.63 1099.85 2525.2
443.42 1095.50 2515.2
443.46 1079.72 2478.9
452.99 1087.18 2496.1
463.28 1096.21 2516.8
465.74 1086.73 2495.0
479.71 1104.00 2534.7
496.83 1127.94 2589.7
523.00 1126.46 2586.3
525.05 1116.56 2563.5
526.42 1105.48 2538.1
536.55 1112.84 2555.0
549.05 1124.89 2582.6
550.66 1114.59 2559.0
544.12 1088.24 2498.5
542.62 1072.47 2462.3
563.77 1101.32 2528.5
588.42 1123.34 2579.1
566.26 1068.89 2454.1
570.25 1064.47 2443.9
591.10 1091.27 2505.5
587.05 1072.00 2461.2
587.09 1060.55 2434.9
611.64 1093.15 2509.8
622.90 1101.55 2529.1
625.80 1095.14 2514.4
637.15 1103.53 2533.6
652.46 1118.51 2568.0
664.50 1127.63 2589.0
667.38 1121.21 2574.2
678.37 1128.37 2590.6
687.30 1132.03 2599.0
681.77 1112.02 2553.1
691.13 1116.44 2563.3
379.35 1173.18 2709.7
393.47 1152.80 2662.6
393.96 1134.33 2619.9
399.09 1129.63 2609.1
406.57 1131.62 2613.7
414.79 1135.57 2622.8
419.26 1129.28 2608.3
417.12 1105.71 2553.8
421.04 1098.64 2537.5
430.83 1106.89 2556.5
440.71 1115.13 2575.6
450.68 1123.35 2594.6
450.37 1106.06 2554.6
445.65 1078.59 2491.2
471.28 1063.56 2456.5
485.36 1080.73 2496.1
507.46 1115.08 2575.5
516.81 1120.86 2588.8
517.09 1107.11 2557.0
519.06 1097.26 2534.3
519.61 1084.68 2505.3
529.09 1090.84 2519.5
547.06 1114.14 2573.3
554.26 1115.20 2575.7
545.01 1083.52 2502.6
540.54 1062.00 2452.9
547.85 1063.84 2457.1
561.25 1077.35 2488.3
577.88 1096.67 2532.9
575.89 1080.59 2495.8
594.42 1079.01 2492.1
617.29 1085.13 2506.3
631.93 1099.29 2539.0
655.72 1128.92 2607.4
652.82 1112.46 2569.4
646.07 1089.83 2517.1
649.93 1085.38 2506.9
660.75 1092.52 2523.4
673.77 1103.13 2547.9
672.15 1089.79 2517.1
691.99 1111.17 2566.4
721.85 1126.63 2602.1
390.14 1097.68 2550.5
410.77 1136.45 2640.6
414.31 1127.46 2619.8
414.82 1110.65 2580.7
417.66 1100.49 2557.1
426.40 1105.97 2569.8
431.99 1103.23 2563.4
438.16 1102.05 2560.7
453.46 1123.51 2610.6
458.30 1118.79 2599.6
449.30 1080.92 2511.6
459.13 1073.46 2494.3
471.33 1086.68 2525.0
479.23 1089.75 2532.1
488.02 1094.76 2543.8
480.00 1062.40 2468.6
500.50 1079.01 2507.2
514.82 1095.65 2545.8
519.72 1092.07 2537.5
524.01 1087.33 2526.5
510.63 1046.48 2431.6
523.16 1046.32 2431.2
528.04 1043.51 2424.7
534.48 1043.81 2425.4
551.95 1065.40 2475.5
558.51 1065.67 2476.2
568.56 1072.51 2492.1
575.99 1074.32 2496.3
566.67 1045.19 2428.6
610.58 1101.70 2559.9
608.16 1073.98 2495.5
604.82 1056.85 2455.7
634.05 1096.38 2547.5
655.86 1122.39 2608.0
651.13 1102.94 2562.8
634.02 1063.11 2470.2
647.54 1064.27 2472.9
671.06 1092.12 2537.6
670.60 1080.77 2511.3
692.12 1104.73 2566.9
744.96 1155.73 2685.4
745.76 1146.27 2663.4
378.52 1178.41 2754.7
375.35 1086.55 2540.0
384.01 1092.43 2553.7
404.01 1129.85 2641.2
428.22 1139.61 2664.0
427.10 1118.60 2614.9
435.99 1124.03 2627.6
441.26 1120.13 2618.5
439.19 1097.97 2566.7
445.84 1097.95 2566.6
460.80 1118.12 2613.8
462.04 1104.89 2582.9
454.90 1072.26 2506.6
463.72 1077.66 2519.2
484.28 1109.80 2594.3
504.45 1124.79 2629.4
489.06 1075.93 2515.2
483.25 1049.17 2452.6
500.42 1072.32 2506.7
520.78 1101.64 2575.3
531.85 1110.83 2596.7
537.04 1107.64 2589.3
524.36 1068.15 2497.0
526.56 1034.31 2417.9
544.10 1056.19 2469.0
568.92 1091.53 2551.6
588.37 1103.20 2578.9
590.41 1094.59 2558.8
587.53 1077.13 2518.0
595.88 1080.45 2525.7
608.34 1091.05 2550.5
601.01 1066.32 2492.7
598.86 1051.19 2457.3
619.06 1075.20 2513.5
615.44 1057.78 2472.7
619.64 1043.27 2438.8
674.02 1090.33 2548.8
690.99 1106.92 2587.6
673.97 1069.28 2499.6
716.78 1115.74 2608.2
753.90 1151.79 2692.5
752.40 1138.95 2662.5
761.39 1142.09 2669.8
395.58 1158.47 2724.6
408.56 1135.66 2671.0
413.22 1129.47 2656.4
430.76 1121.35 2637.3
433.97 1112.05 2615.5
445.19 1123.26 2641.8
449.08 1115.89 2624.5
452.71 1108.14 2606.2
465.06 1121.63 2638.0
474.59 1111.89 2615.1
462.14 1067.48 2510.6
460.68 1049.32 2467.9
485.25 1090.14 2563.9
497.61 1102.80 2593.7
508.53 1111.98 2615.3
521.11 1109.89 2610.4
514.29 1081.34 2543.2
526.59 1093.17 2571.1
532.84 1092.31 2569.0
539.83 1092.98 2570.6
540.10 1080.21 2540.6
547.41 1081.64 2543.9
557.51 1075.66 2529.9
557.57 1063.27 2500.7
570.90 1076.18 2531.1
575.54 1072.60 2522.7
586.58 1080.89 2542.2
591.62 1078.07 2535.5
591.11 1065.30 2505.5
595.38 1061.33 2496.2
590.07 1040.55 2447.3
611.87 1056.28 2484.3
610.85 1043.53 2454.3
628.48 1041.12 2448.6
651.20 1067.97 2511.8
650.33 1055.98 2483.6
665.87 1070.61 2518.0
686.58 1093.20 2571.1
674.80 1064.11 2502.7
699.02 1081.50 2543.6
734.65 1126.00 2648.3
739.09 1122.33 2639.6
751.80 1131.14 2660.4
775.45 1145.71 2694.6
358.77 1169.60 2767.7
383.82 1158.58 2741.6
384.04 1138.16 2693.3
389.44 1133.56 2682.4
393.31 1124.71 2661.5
396.92 1115.48 2639.6
399.87 1104.71 2614.1
395.73 1075.06 2544.0
402.62 1075.85 2545.8
416.55 1095.12 2591.4
418.66 1083.19 2563.2
416.84 1061.64 2512.2
421.36 1056.65 2500.4
434.07 1072.03 2536.8
446.65 1086.62 2571.3
457.31 1096.20 2594.0
464.51 1097.32 2596.6
470.40 1095.36 2592.0
463.06 1063.08 2515.6
462.62 1047.32 2478.3
488.26 1090.23 2579.9
510.36 1080.38 2556.6
501.21 1047.39 2478.5
510.94 1054.21 2494.6
512.30 1043.81 2470.0
515.05 1036.46 2452.6
535.98 1065.41 2521.1
562.90 1066.89 2524.6
562.26 1053.42 2492.8
567.62 1051.40 2488.0
579.20 1060.79 2510.2
595.30 1078.16 2551.3
605.87 1085.23 2568.0
606.21 1074.05 2541.6
596.88 1046.15 2475.5
600.47 1030.27 2438.0
627.26 1065.03 2520.2
632.78 1063.33 2516.2
629.27 1036.07 2451.7
661.76 1078.67 2552.5
671.07 1083.01 2562.8
670.48 1071.45 2535.4
673.81 1066.32 2523.3
689.13 1080.09 2555.9
710.94 1103.64 2611.6
713.87 1097.74 2597.6
715.49 1089.94 2579.2
717.01 1082.16 2560.8
728.27 1089.06 2577.1
362.67 1152.01 2742.9
372.40 1138.27 2710.2
383.66 1150.99 2740.4
375.79 1106.87 2635.4
373.21 1079.66 2570.6
387.94 1065.19 2536.2
391.54 1057.17 2517.1
396.93 1054.13 2509.8
408.86 1068.32 2543.6
412.48 1060.67 2525.4
429.95 1055.32 2512.7
441.04 1066.40 2539.1
450.35 1072.88 2554.5
461.00 1037.25 2469.6
485.26 1076.89 2564.0
499.72 1093.99 2604.7
499.03 1077.91 2566.4
493.86 1052.69 2506.4
495.98 1043.49 2484.5
508.80 1056.75 2516.1
503.97 1033.46 2460.6
528.18 1043.48 2484.5
532.05 1038.45 2472.5
546.36 1041.29 2479.3
558.97 1052.94 2507.0
561.33 1045.24 2488.7
569.98 1049.28 2498.3
590.95 1075.67 2561.1
609.32 1072.94 2554.6
617.37 1075.42 2560.5
625.45 1077.90 2566.4
618.49 1054.69 2511.2
626.24 1056.78 2516.2
633.34 1057.74 2518.4
618.55 1022.49 2434.5
634.66 1038.53 2472.7
671.88 1088.44 2591.5
679.17 1089.35 2593.7
674.85 1071.83 2552.0
682.05 1072.74 2554.1
701.80 1093.19 2602.8
723.00 1115.48 2655.9
725.54 1108.85 2640.1
731.47 1107.46 2636.8
738.63 1107.95 2638.0
742.52 1103.56 2627.5
369.18 1165.44 2792.1
366.68 1135.28 2719.8
400.64 1151.85 2759.5
389.83 1101.10 2638.0
382.80 1062.59 2545.7
387.59 1057.67 2533.9
404.83 1086.29 2602.5
423.28 1117.18 2676.5
432.83 1106.12 2650.0
433.64 1090.88 2613.5
439.49 1088.58 2608.0
446.09 1088.18 2607.0
451.73 1085.50 2600.6
463.44 1097.25 2628.7
452.97 1056.93 2532.1
472.79 1042.74 2498.1
490.76 1067.73 2558.0
494.00 1060.46 2540.6
492.93 1017.46 2437.6
504.23 1027.62 2461.9
524.15 1041.84 2496.0
534.04 1048.55 2512.1
553.62 1036.43 2483.0
566.11 1047.63 2509.8
568.22 1039.58 2490.6
582.10 1053.02 2522.8
600.14 1073.59 2572.0
593.54 1050.10 2515.8
601.26 1052.21 2520.8
626.60 1084.77 2598.8
633.00 1072.76 2570.1
635.75 1066.20 2554.3
637.51 1058.14 2535.0
621.37 1020.82 2445.6
635.67 1033.77 2476.7
663.39 1068.06 2558.8
660.50 1052.87 2522.4
666.67 1052.29 2521.0
685.28 1071.16 2566.2
686.96 1063.46 2547.8
688.54 1055.76 2529.3
702.82 1067.49 2557.4
722.43 1087.03 2604.2
734.27 1094.60 2622.4
740.38 1093.59 2620.0
761.75 1114.93 2671.1
365.03 1145.18 2760.7
369.11 1135.72 2737.9
394.42 1088.07 2623.0
398.57 1080.88 2605.7
415.58 1108.20 2671.6
424.53 1113.52 2684.4
423.85 1093.80 2636.8
427.70 1086.22 2618.6
431.91 1079.77 2603.0
439.11 1080.90 2605.7
447.27 1084.29 2613.9
445.64 1064.21 2565.5
449.87 1058.51 2551.8
464.30 1076.63 2595.5
469.03 1072.06 2584.4
466.99 1052.37 2537.0
471.34 1047.42 2525.0
488.72 1071.16 2582.3
503.28 1073.67 2588.3
494.10 1013.55 2443.4
521.41 1056.02 2545.8
534.18 1068.35 2575.5
538.33 1063.37 2563.5
530.86 1035.82 2497.1
525.97 1013.92 2444.3
541.94 1020.12 2459.2
559.35 1040.66 2508.7
569.67 1047.66 2525.6
569.13 1034.79 2494.6
568.02 1021.17 2461.7
582.98 1025.03 2471.1
608.89 1058.94 2552.8
624.76 1074.86 2591.2
626.55 1066.46 2570.9
628.01 1057.69 2549.8
635.41 1059.01 2553.0
649.38 1071.14 2582.2
645.67 1054.16 2541.3
626.31 1012.21 2440.2
663.93 1041.46 2510.7
672.70 1044.97 2519.1
686.46 1046.03 2521.7
721.39 1088.88 2625.0
726.53 1086.40 2619.0
721.38 1068.71 2576.4
735.97 1080.32 2604.4
357.46 1136.72 2757.6
361.71 1127.70 2735.7
374.76 1064.05 2581.2
382.95 1068.24 2591.4
390.23 1069.78 2595.2
405.37 1092.45 2650.1
408.26 1081.90 2624.5
403.21 1050.98 2549.6
440.89 1078.49 2616.3
455.32 1096.92 2661.0
459.83 1091.24 2647.2
449.30 1050.58 2548.6
449.37 1035.51 2512.0
451.41 1025.34 2487.3
468.36 1034.29 2509.1
504.97 1070.53 2597.0
501.81 1049.84 2546.8
512.37 1058.01 2566.6
527.62 1075.54 2609.1
536.52 1053.16 2554.8
534.80 1036.98 2515.6
536.97 1028.66 2495.4
533.32 1009.50 2448.9
540.22 1010.53 2451.4
558.03 1031.70 2502.8
568.94 1039.79 2522.4
606.47 1071.43 2599.2
595.85 1041.11 2525.6
616.53 1065.52 2584.8
627.05 1072.05 2600.7
627.97 1062.21 2576.8
627.22 1049.77 2546.6
628.33 1040.68 2524.6
635.90 1042.36 2528.6
655.15 1062.95 2578.6
659.41 1059.05 2569.1
644.49 1024.75 2485.9
654.58 1030.48 2499.8
660.23 1029.18 2496.7
697.54 1056.28 2562.4
727.18 1090.77 2646.1
725.91 1078.70 2616.8
738.54 1087.29 2637.6
366.65 1135.91 2773.0
373.49 1134.83 2770.4
379.04 1129.98 2758.5
377.76 1065.82 2601.9
386.96 1072.61 2618.5
394.86 1075.64 2625.9
410.22 1098.56 2681.8
412.90 1087.31 2654.4
413.85 1071.94 2616.8
411.81 1049.44 2561.9
425.40 1050.20 2563.8
443.44 1077.91 2631.4
448.69 1074.14 2622.2
460.40 1085.72 2650.5
457.59 1063.23 2595.6
448.79 1027.67 2508.8
489.24 1058.90 2585.0
497.83 1062.94 2594.9
494.79 1042.35 2544.6
498.13 1035.58 2528.1
519.10 1025.22 2502.8
524.78 1023.64 2499.0
535.27 1031.36 2517.8
540.76 1029.41 2513.0
540.31 1016.30 2481.0
545.89 1014.71 2477.1
561.75 1032.05 2519.5
585.17 1062.73 2594.4
604.69 1049.90 2563.1
633.58 1064.95 2599.8
639.99 1064.40 2598.4
647.73 1066.06 2602.5
645.29 1051.10 2566.0
654.80 1055.70 2577.2
695.74 1077.71 2630.9
678.42 1040.68 2540.5
687.52 1044.51 2549.9
702.78 1057.52 2581.6
705.13 1051.04 2565.8
710.87 1049.70 2562.6
731.14 1069.64 2611.2
359.17 1127.81 2770.8
365.89 1126.36 2767.2
374.69 1131.27 2779.3
382.79 1133.93 2785.8
394.24 1125.38 2764.8
387.29 1085.80 2667.6
383.10 1055.19 2592.4
389.00 1052.98 2586.9
402.73 1071.67 2632.9
417.98 1093.70 2687.0
434.53 1082.87 2660.4
433.67 1063.85 2613.7
431.04 1041.12 2557.8
435.16 1035.15 2543.1
445.56 1044.07 2565.0
454.29 1048.88 2576.9
457.85 1041.78 2559.4
469.11 1052.16 2584.9
481.85 1065.49 2617.7
467.99 1020.49 2507.1
465.15 1000.39 2457.7
480.43 1019.28 2504.2
484.41 1014.03 2491.3
488.87 1009.90 2481.1
516.54 1053.21 2587.5
533.23 1059.71 2603.5
520.68 1021.84 2510.4
535.93 1038.78 2552.1
530.52 1015.75 2495.5
536.04 1001.88 2461.4
557.76 1030.22 2531.0
571.74 1043.76 2564.3
585.92 1045.34 2568.2
603.72 1041.59 2558.9
613.93 1047.69 2573.9
606.78 1024.34 2516.6
605.06 1010.58 2482.8
612.74 1012.63 2487.8
611.90 1000.71 2458.5
621.24 995.24 2445.1
656.84 1041.66 2559.1
665.68 1045.12 2567.6
677.16 1052.61 2586.0
698.71 1075.47 2642.2
700.13 1067.18 2621.8
703.86 1062.56 2610.5
714.38 1068.17 2624.3
725.21 1074.14 2638.9
741.09 1087.39 2671.5
733.52 1066.33 2619.7
747.23 1076.28 2644.2
358.66 1119.02 2766.8
364.75 1115.72 2758.6
372.29 1116.88 2761.5
397.69 1088.41 2691.1
388.10 1043.86 2581.0
401.82 1062.45 2626.9
417.20 1084.73 2682.0
425.32 1087.70 2689.4
424.18 1067.29 2638.9
421.14 1042.82 2578.4
419.31 1022.06 2527.1
436.82 1048.36 2592.1
454.85 1059.06 2618.6
444.21 1019.06 2519.7
463.33 1047.52 2590.0
481.02 1042.22 2576.9
477.03 992.22 2453.3
490.37 1006.56 2488.7
494.07 1000.96 2474.9
500.82 1001.64 2476.6
516.16 1019.25 2520.1
532.84 1039.05 2569.1
537.93 1036.01 2561.6
523.24 995.44 2461.3
541.05 1004.81 2484.4
554.84 1018.30 2517.8
561.10 1017.82 2516.6
572.27 1026.14 2537.2
575.28 997.15 2465.5
602.53 1032.91 2553.9
602.15 1021.04 2524.6
590.07 989.79 2447.3
604.58 992.79 2454.7
620.29 1007.98 2492.2
625.89 996.32 2463.4
650.92 1025.69 2536.1
648.26 1011.28 2500.4
655.80 1012.92 2504.5
672.64 1028.74 2543.6
686.54 1039.81 2571.0
702.76 1054.14 2606.4
703.24 1044.82 2583.3
703.61 1035.50 2560.3
742.71 1082.84 2677.3
742.28 1062.35 2626.7
737.91 1046.50 2587.5
357.43 1108.02 2757.3
394.94 1113.02 2769.7
402.14 1038.87 2585.2
414.80 1054.01 2622.9
417.18 1042.94 2595.3
417.91 1028.20 2558.6
418.15 1012.72 2520.1
437.36 1042.93 2595.3
450.64 1042.52 2594.3
446.54 1003.10 2496.2
474.75 1051.24 2616.0
484.86 1043.79 2597.4
482.40 1024.26 2548.9
480.39 1006.22 2504.0
491.47 1015.71 2527.6
504.83 1029.58 2562.1
507.79 1022.18 2543.7
513.79 1021.00 2540.7
529.11 1038.14 2583.4
534.63 1035.85 2577.7
527.68 1009.76 2512.8
537.05 1015.16 2526.2
557.45 1041.02 2590.5
564.30 1041.26 2591.2
561.93 1024.70 2549.9
566.45 1020.93 2540.6
575.43 1025.18 2551.1
568.92 1002.07 2493.6
591.01 1017.85 2532.9
612.67 1043.56 2596.9
617.36 1040.13 2588.3
609.57 1015.94 2528.2
601.69 992.14 2468.9
624.70 1019.25 2536.4
646.92 1044.51 2599.3
637.86 1019.27 2536.4
634.92 1004.21 2498.9
638.04 998.95 2485.9
666.82 1033.57 2572.0
712.38 1072.03 2667.7
716.95 1068.53 2659.0
703.84 1039.00 2585.5
700.00 1023.59 2547.2
734.12 1063.44 2646.4
745.44 1060.03 2637.9
749.53 1056.16 2628.2
757.44 1057.69 2632.0
356.43 1120.20 2805.7
367.72 1110.36 2781.0
375.68 1112.60 2786.7
373.27 1064.50 2666.2
377.30 1056.45 2646.0
413.42 1043.72 2614.1
419.46 1041.89 2609.6
429.53 1049.95 2629.8
438.78 1055.81 2644.4
437.58 1036.74 2596.7
439.29 1025.00 2567.3
450.71 1035.96 2594.7
455.33 1031.18 2582.7
448.90 1001.88 2509.4
458.55 1008.80 2526.7
473.84 1027.77 2574.2
476.91 1020.05 2554.9
476.41 1005.03 2517.2
475.37 989.28 2477.8
480.52 986.68 2471.3
488.71 990.27 2480.3
510.42 1020.84 2556.8
538.54 1049.82 2629.4
529.98 1020.22 2555.3
540.58 1027.77 2574.2
561.02 1028.53 2576.1
564.02 1021.87 2559.4
574.64 1029.01 2577.3
580.23 1027.06 2572.4
570.23 997.91 2499.4
593.84 1016.13 2545.0
607.20 1027.58 2573.7
604.27 1011.49 2533.4
615.55 1019.29 2553.0
626.48 1026.36 2570.7
622.34 1008.84 2526.8
615.27 987.00 2472.1
615.89 977.81 2449.0
624.43 981.25 2457.7
625.83 973.51 2438.3
651.23 1002.90 2511.9
702.64 1060.85 2657.0
709.85 1061.33 2658.2
723.63 1071.52 2683.8
714.48 1047.90 2624.6
715.18 1039.04 2602.4
725.50 1044.18 2615.3
723.55 1031.73 2584.1
742.51 1049.06 2627.5
356.39 1112.80 2805.4
364.28 1114.68 2810.1
380.30 1077.53 2716.5
385.81 1035.59 2610.7
407.68 1075.42 2711.1
421.59 1075.06 2710.2
420.91 1055.72 2661.5
422.04 1041.50 2625.6
426.90 1036.75 2613.7
439.16 1049.86 2646.7
441.37 1038.91 2619.1
451.61 1046.90 2639.3
467.20 1051.20 2650.1
452.40 1003.15 2528.9
457.45 999.85 2520.6
467.84 1008.17 2541.6
468.26 995.05 2508.5
466.08 976.85 2462.6
477.01 986.25 2486.3
493.21 1006.15 2536.5
496.51 999.56 2519.9
513.41 1020.16 2571.8
538.82 1043.53 2630.8
531.77 1017.00 2563.9
544.30 1028.12 2591.9
548.83 1024.04 2581.6
550.58 1002.85 2528.2
581.42 1034.40 2607.7
571.08 1004.31 2531.9
577.98 1004.90 2533.4
593.49 1020.27 2572.1
604.52 1027.69 2590.8
600.65 1009.89 2545.9
605.21 1006.49 2537.4
624.16 1026.85 2588.7
630.11 1025.60 2585.5
620.41 999.18 2519.0
619.40 987.16 2488.6
625.74 987.00 2488.2
623.58 973.55 2454.3
651.31 986.64 2487.3
666.47 999.70 2520.3
684.91 1017.39 2564.9
720.10 1059.38 2670.7
719.74 1038.87 2619.0
715.87 1023.63 2580.6
743.55 1053.36 2655.5
371.08 1044.51 2650.6
370.47 1023.83 2598.1
382.97 1039.50 2637.8
393.91 1050.42 2665.5
407.20 1067.14 2708.0
425.06 1059.16 2687.7
426.11 1044.65 2650.9
426.82 1029.78 2613.2
434.66 1032.31 2619.6
433.85 1014.55 2574.5
440.99 1015.62 2577.2
456.28 1035.14 2626.8
449.32 1004.35 2548.6
447.21 985.16 2499.9
465.83 1011.52 2566.8
474.16 1015.09 2575.9
472.77 998.07 2532.7
483.99 1007.77 2557.3
508.52 1044.53 2650.6
513.93 1041.56 2643.1
506.68 1013.35 2571.5
513.49 1013.64 2572.2
526.96 1026.89 2605.8
540.03 1039.04 2636.7
545.67 1036.78 2630.9
554.35 1040.27 2639.8
553.76 1026.48 2604.8
540.43 989.70 2511.5
568.13 1028.05 2608.8
585.17 1034.25 2624.5
576.28 1006.84 2555.0
585.53 1011.37 2566.5
600.71 1025.93 2603.4
609.91 1030.08 2613.9
606.95 1013.80 2572.6
612.01 1011.14 2565.9
627.32 1025.29 2601.8
629.53 1017.97 2583.2
619.59 991.35 2515.6
617.21 977.25 2479.9
624.22 978.16 2482.2
653.28 983.15 2494.8
675.86 1007.17 2555.8
691.03 1019.77 2587.8
721.92 1055.11 2677.4
734.21 1042.99 2646.7
750.72 1056.57 2681.1
367.78 1028.42 2627.0
384.21 1054.84 2694.5
401.45 1045.15 2669.7
401.47 1027.48 2624.6
408.28 1027.49 2624.6
413.48 1023.53 2614.5
421.74 1027.14 2623.7
429.74 1030.02 2631.1
442.36 1043.69 2666.0
446.94 1038.27 2652.2
428.47 980.28 2504.0
453.02 991.38 2532.4
463.40 999.62 2553.4
465.10 989.16 2526.7
468.04 981.58 2507.3
483.71 1000.56 2555.8
487.50 994.76 2541.0
498.39 977.36 2496.6
511.49 990.19 2529.3
524.56 1002.65 2561.2
538.93 1017.23 2598.4
555.59 1035.73 2645.7
564.84 1015.36 2593.6
559.03 993.10 2536.8
569.81 1000.48 2555.6
584.38 1014.26 2590.8
589.56 1011.63 2584.1
601.01 1019.68 2604.7
610.00 1023.45 2614.3
606.82 1006.91 2572.1
614.26 1008.18 2575.3
632.66 1027.23 2623.9
634.71 1019.58 2604.4
624.58 992.76 2535.9
625.40 983.71 2512.8
634.09 987.09 2521.4
627.85 967.40 2471.1
688.86 1019.78 2604.9
704.97 1013.81 2589.7
732.09 1042.89 2664.0
745.07 1051.46 2685.8
366.60 1037.55 2668.0
374.57 1040.46 2675.5
410.28 1043.08 2682.2
415.66 1039.14 2672.1
416.02 1023.01 2630.6
419.29 1014.40 2608.5
425.75 1013.68 2606.6
437.85 1026.21 2638.8
444.84 1026.55 2639.7
430.10 977.49 2513.5
433.89 971.39 2497.9
460.95 1016.80 2614.6
468.37 1018.19 2618.2
466.63 999.92 2571.2
473.28 999.88 2571.1
482.32 1004.83 2583.9
483.61 993.71 2555.3
493.33 961.03 2471.2
514.33 989.10 2543.4
524.45 995.78 2560.6
535.02 1003.17 2579.6
537.81 995.95 2561.0
538.76 985.54 2534.3
554.13 1001.43 2575.1
561.53 1002.74 2578.5
563.32 994.10 2556.3
582.70 1016.33 2613.4
591.04 1019.03 2620.4
589.64 1005.06 2584.5
597.73 1007.40 2590.5
603.93 1006.55 2588.3
607.75 1001.79 2576.0
622.58 1015.08 2610.2
637.36 1028.00 2643.4
635.68 1014.38 2608.4
639.65 1009.97 2597.1
655.75 1024.61 2634.7
649.45 1004.31 2582.5
689.67 1014.22 2608.0
714.83 1031.00 2651.1
697.43 996.33 2562.0
731.46 1035.08 2661.6
738.58 1025.80 2637.8
759.32 1035.44 2662.6
381.36 1052.28 2724.0
386.99 1048.38 2713.9
388.66 1034.12 2677.0
387.42 1012.72 2621.6
399.36 1025.95 2655.9
412.33 1041.30 2695.6
420.75 1044.87 2704.8
423.68 1034.88 2679.0
431.21 1036.30 2682.6
435.47 1013.83 2624.5
425.34 975.01 2524.0
437.55 987.81 2557.1
478.04 1017.55 2634.1
483.66 1015.01 2627.5
479.47 992.23 2568.6
468.02 955.27 2472.9
481.46 969.42 2509.5
492.04 977.52 2530.5
489.53 959.74 2484.5
507.11 981.29 2540.2
531.45 1015.20 2628.0
543.28 1024.66 2652.5
549.53 1023.50 2649.5
548.26 1008.53 2610.8
534.94 972.02 2516.3
558.22 990.18 2563.3
576.68 1010.89 2616.9
577.69 1000.88 2591.0
567.24 971.48 2514.9
599.11 991.87 2567.6
623.09 1020.22 2641.0
625.49 1013.02 2622.4
627.79 1005.82 2603.8
640.86 1015.84 2629.7
659.01 1022.84 2647.8
637.66 979.49 2535.6
666.29 982.95 2544.5
682.81 997.44 2582.1
687.91 995.13 2576.1
702.97 1007.15 2607.2
725.57 1029.62 2665.4
724.61 1018.55 2636.7
713.48 993.54 2572.0
752.58 1038.28 2687.8
360.16 1025.07 2671.5
372.70 1040.75 2712.4
378.58 1037.59 2704.1
386.26 1039.39 2708.8
389.26 1028.76 2681.1
386.11 1002.52 2612.8
395.95 1010.35 2633.2
401.23 1006.47 2623.0
402.28 992.30 2586.1
413.37 1002.94 2613.8
428.16 1022.07 2663.7
438.44 1013.90 2642.4
430.52 980.26 2554.7
446.44 1001.12 2609.1
460.40 1017.00 2650.5
458.81 998.58 2602.5
469.99 1008.09 2627.3
482.96 1021.11 2661.2
482.21 1005.17 2619.6
472.49 971.23 2531.2
474.85 962.72 2509.0
504.08 1008.16 2627.4
519.07 1024.30 2669.5
519.25 1011.17 2635.3
526.04 1011.09 2635.1
538.94 1022.61 2665.1
561.81 1026.51 2675.3
549.79 992.31 2586.1
537.52 958.48 2498.0
547.13 964.00 2512.3
567.69 988.45 2576.1
570.83 982.36 2560.2
593.01 975.18 2541.5
622.96 1013.17 2640.5
631.22 1015.45 2646.4
630.29 1003.04 2614.1
640.73 1008.81 2629.1
653.25 1017.70 2652.3
645.29 994.83 2592.7
641.84 979.30 2552.2
651.80 984.35 2565.4
650.40 972.31 2534.0
653.08 966.56 2519.0
671.83 984.46 2565.7
682.65 990.52 2581.5
696.21 1000.39 2607.2
719.90 1024.48 2670.0
729.36 1028.06 2679.3
713.02 995.54 2594.5
736.75 1009.62 2631.2
362.47 1044.76 2741.4
363.84 1028.55 2698.8
371.36 1030.00 2702.6
374.23 1018.74 2673.1
379.32 1013.83 2660.2
393.36 1032.56 2709.3
401.76 1036.11 2718.6
402.13 1019.19 2674.3
398.03 991.70 2602.1
401.04 982.55 2578.1
413.43 996.30 2614.2
416.35 987.14 2590.2
417.78 974.82 2557.8
428.85 985.02 2584.6
435.55 985.01 2584.6
435.30 969.52 2543.9
442.13 955.78 2507.9
460.82 981.75 2576.0
484.87 1018.22 2671.7
491.27 1003.02 2631.8
501.72 1010.32 2651.0
513.60 1006.66 2641.4
522.58 1010.79 2652.2
540.14 1017.95 2671.0
543.62 1011.55 2654.2
543.79 999.21 2621.8
537.24 974.99 2558.3
541.68 971.05 2547.9
546.05 967.11 2537.6
547.19 957.58 2512.6
559.49 967.59 2538.9
580.89 992.92 2605.3
587.57 992.79 2605.0
593.20 990.91 2600.0
609.97 1007.47 2643.5
611.82 999.31 2622.1
616.16 995.33 2611.7
627.83 1003.16 2632.2
630.37 996.39 2614.4
635.70 994.13 2608.5
642.80 994.65 2609.9
650.36 995.86 2613.0
661.81 1002.95 2631.6
674.97 1012.45 2656.6
676.35 1004.28 2635.1
663.03 974.65 2557.4
664.53 967.19 2537.8
677.21 975.98 2560.9
692.18 987.87 2592.1
718.05 1014.93 2663.1
730.45 1022.63 2683.3
710.61 985.47 2585.8
369.53 1037.52 2741.0
374.48 1031.59 2725.3
374.81 1013.37 2677.2
388.40 994.86 2628.3
399.40 1005.40 2656.1
395.53 978.78 2585.8
413.78 990.36 2616.4
419.97 988.96 2612.7
414.96 961.66 2540.6
419.09 956.06 2525.8
433.27 973.19 2571.0
441.35 976.32 2579.3
439.85 958.47 2532.2
447.22 960.20 2536.7
455.93 964.71 2548.7
467.70 975.50 2577.1
487.77 1003.01 2649.8
494.44 1002.61 2648.8
490.99 981.97 2594.3
490.26 967.28 2555.4
499.54 972.44 2569.1
519.94 998.83 2638.8
519.76 985.52 2603.6
516.42 954.40 2521.4
524.24 956.75 2527.6
527.28 950.41 2510.9
540.95 963.16 2544.6
549.27 966.18 2552.5
554.63 963.99 2546.8
559.55 961.11 2539.1
572.59 972.08 2568.1
584.13 980.27 2589.7
593.89 985.32 2603.1
613.42 1006.29 2658.5
617.87 1002.32 2648.0
603.30 967.94 2557.2
596.99 947.40 2502.9
609.77 957.27 2529.0
626.45 972.99 2570.5
651.86 1001.80 2646.6
662.58 997.28 2634.7
648.70 966.43 2553.2
673.87 993.79 2625.5
685.48 1000.81 2644.0
671.73 971.02 2565.3
669.84 958.79 2533.0
695.41 985.72 2604.2
707.95 975.10 2576.1
726.54 982.17 2594.8
389.49 1026.84 2731.5
383.11 991.99 2638.8
392.98 999.68 2659.3
400.99 1002.49 2666.7
394.02 968.36 2575.9
411.49 978.13 2601.9
418.39 978.48 2602.9
426.20 965.60 2568.6
450.61 1005.22 2674.0
449.47 987.47 2626.8
438.13 948.19 2522.3
450.52 960.67 2555.5
464.73 976.60 2597.9
477.81 989.74 2632.8
487.96 982.70 2614.1
481.13 942.75 2507.8
504.43 975.23 2594.2
517.47 987.27 2626.2
510.64 961.59 2557.9
528.52 970.07 2580.5
541.64 981.72 2611.5
549.12 983.00 2614.9
558.38 987.38 2626.5
564.33 985.88 2622.5
559.08 965.07 2567.2
553.14 943.59 2510.0
590.91 962.72 2560.9
604.72 974.27 2591.7
600.56 956.94 2545.5
635.54 970.03 2580.4
651.43 973.79 2590.4
638.58 944.84 2513.4
663.44 971.70 2584.8
686.75 995.78 2648.9
685.85 984.63 2619.2
686.48 975.88 2595.9
716.34 1008.44 2682.5
739.16 1011.12 2689.7
739.41 1002.01 2665.4
747.40 1003.46 2669.3
388.76 1017.84 2726.3
386.80 994.64 2664.2
392.90 992.58 2658.7
397.28 986.36 2642.0
402.29 981.87 2630.0
416.18 998.84 2675.5
423.26 999.18 2676.4
422.31 980.84 2627.3
416.86 952.83 2552.2
429.93 967.34 2591.1
440.10 945.88 2533.6
440.63 933.09 2499.4
465.28 971.02 2600.9
491.98 997.81 2672.7
508.23 989.00 2649.1
525.10 969.41 2596.6
544.22 991.99 2657.1
553.34 996.01 2667.9
558.84 993.49 2661.1
567.04 995.78 2667.3
568.35 986.06 2641.2
559.33 958.86 2568.4
555.21 940.59 2519.4
575.22 941.26 2521.2
596.89 965.75 2586.8
599.66 959.45 2570.0
622.20 984.58 2637.3
630.89 987.49 2645.1
626.62 970.26 2598.9
642.38 984.07 2635.9
634.03 961.05 2574.3
637.05 945.72 2533.2
650.68 956.10 2561.0
662.33 963.39 2580.5
671.25 966.60 2589.1
685.68 977.61 2618.6
702.18 991.31 2655.3
704.05 984.30 2636.5
710.72 984.08 2635.9
717.88 984.52 2637.1
704.60 957.19 2563.9
360.00 1009.41 2722.7
372.10 1003.97 2708.0
400.50 1004.75 2710.1
402.08 991.34 2673.9
404.62 980.68 2645.2
416.96 993.76 2680.5
422.59 990.66 2672.1
429.51 990.65 2672.1
432.80 982.39 2649.8
436.90 976.19 2633.1
451.55 963.76 2599.6
446.86 939.73 2534.7
465.66 965.07 2603.1
473.23 966.74 2607.6
460.75 927.98 2503.0
485.04 950.15 2562.8
522.73 958.35 2584.9
543.91 984.54 2655.6
554.55 991.26 2673.7
561.81 991.83 2675.3
566.79 964.90 2602.6
553.43 931.07 2511.4
564.99 939.47 2534.0
578.53 950.91 2564.9
593.46 964.38 2601.2
602.87 968.65 2612.8
593.09 942.36 2541.8
602.83 947.31 2555.2
640.42 953.96 2573.1
640.31 934.33 2520.2
649.29 937.87 2529.7
663.28 948.49 2558.4
685.04 969.91 2616.1
721.09 991.50 2674.4
719.20 979.48 2641.9
712.89 961.73 2594.1
724.48 968.23 2611.6
379.32 997.47 2709.4
384.61 975.26 2649.1
409.68 1003.01 2724.5
401.54 966.42 2625.1
402.57 952.75 2588.0
419.56 976.68 2653.0
454.08 991.98 2694.5
445.19 957.84 2601.8
448.55 950.65 2582.2
464.20 969.37 2633.1
468.53 964.22 2619.1
461.02 935.22 2540.3
469.29 938.59 2549.5
486.06 958.62 2603.9
492.08 957.20 2600.0
500.21 959.86 2607.3
518.42 981.54 2666.2
528.19 986.89 2680.7
520.92 960.65 2609.4
524.28 954.45 2592.6
543.03 976.08 2651.3
552.90 981.40 2665.8
552.79 969.09 2632.3
559.94 969.65 2633.9
570.08 952.37 2586.9
562.58 928.92 2523.2
566.57 924.74 2511.9
571.12 921.58 2503.3
582.40 929.23 2524.1
619.46 956.12 2597.1
646.17 986.62 2680.0
648.18 948.88 2577.4
645.92 935.93 2542.3
655.43 940.11 2553.6
669.72 951.00 2583.2
680.81 957.18 2600.0
697.28 970.72 2636.8
387.22 974.97 2667.1
383.56 948.81 2595.5
402.75 979.09 2678.4
412.39 985.55 2696.0
408.83 960.75 2628.2
421.08 973.32 2662.6
435.59 990.62 2709.9
436.70 977.37 2673.7
447.01 984.81 2694.0
452.10 980.72 2682.8
450.63 962.72 2633.6
460.51 969.12 2651.1
464.58 963.33 2635.2
456.15 932.14 2549.9
458.21 922.96 2524.8
476.15 945.59 2586.7
493.36 966.17 2643.0
499.66 965.09 2640.1
511.61 974.82 2666.7
527.60 966.13 2642.9
523.77 946.81 2590.1
536.67 957.85 2620.3
549.72 968.88 2650.4
551.49 960.01 2626.2
539.64 927.91 2538.4
555.07 942.96 2579.5
584.12 968.95 2650.6
571.85 937.57 2564.8
571.58 926.36 2534.1
573.47 918.85 2513.6
581.17 920.74 2518.7
592.76 918.46 2512.5
619.95 950.15 2599.2
636.08 964.39 2638.1
637.68 956.51 2616.6
637.36 945.97 2587.8
665.12 976.89 2672.3
689.18 971.74 2658.3
677.53 945.86 2587.4
669.87 925.99 2533.1
677.51 927.46 2537.1
716.10 970.86 2655.8
397.01 992.52 2734.5
388.00 952.99 2625.6
402.09 970.57 2674.0
410.45 973.96 2683.4
405.55 946.28 2607.1
404.66 928.73 2558.8
427.34 934.80 2575.5
449.34 967.81 2666.4
459.27 959.67 2644.0
447.47 921.26 2538.2
458.68 930.65 2564.0
481.11 962.23 2651.0
488.81 963.85 2655.5
495.32 963.12 2653.5
495.16 949.62 2616.3
499.95 945.86 2605.9
514.40 960.22 2645.5
512.66 944.37 2601.8
522.50 949.99 2617.3
540.44 970.02 2672.5
548.63 972.26 2678.7
555.71 972.49 2679.3
550.36 928.33 2557.6
558.42 919.75 2534.0
568.61 925.65 2550.3
589.88 949.23 2615.2
621.30 966.46 2662.7
616.19 947.98 2611.8
622.42 947.15 2609.5
638.58 961.30 2648.5
640.19 953.48 2626.9
631.32 930.37 2563.3
650.15 948.14 2612.2
682.50 965.15 2659.1
658.94 922.52 2541.6
676.63 937.90 2584.0
698.86 959.22 2642.7
724.12 965.49 2660.0
382.71 949.95 2636.0
399.88 975.16 2706.0
409.15 980.54 2720.9
412.21 971.14 2694.8
410.80 951.69 2640.9
413.82 942.97 2616.7
415.52 931.57 2585.0
422.22 931.56 2585.0
432.62 939.59 2607.3
450.02 962.35 2670.4
447.66 915.08 2539.3
448.92 904.35 2509.5
475.78 944.76 2621.6
488.86 957.07 2655.8
491.22 948.33 2631.5
486.62 926.57 2571.2
482.77 906.83 2516.4
488.18 904.77 2510.7
510.34 933.38 2590.1
542.74 967.19 2683.9
528.83 930.47 2582.0
540.64 939.36 2606.7
563.81 967.53 2684.8
576.20 964.96 2677.7
550.15 910.37 2526.2
569.27 920.10 2553.2
604.04 965.08 2678.0
607.33 959.30 2662.0
593.98 927.67 2574.2
613.00 946.74 2627.1
629.89 962.14 2669.9
621.37 938.82 2605.1
623.15 931.38 2584.5
632.43 935.18 2595.1
630.01 921.80 2557.9
641.87 910.41 2526.3
651.11 914.19 2536.8
695.33 956.95 2655.5
688.56 929.22 2578.5
402.83 975.27 2725.9
420.84 967.93 2705.4
425.79 963.26 2692.3
429.62 956.25 2672.8
424.69 930.27 2600.1
423.40 912.95 2551.7
436.28 926.25 2588.9
451.41 943.86 2638.1
470.62 955.09 2669.5
449.95 899.90 2515.2
478.50 930.04 2599.5
491.27 941.59 2631.8
493.50 932.91 2607.5
496.67 926.22 2588.8
498.48 917.20 2563.6
517.86 940.32 2628.2
532.51 942.13 2633.3
519.40 907.31 2536.0
531.29 916.48 2561.6
539.04 918.37 2566.9
546.03 918.93 2568.4
558.39 928.40 2594.9
553.40 909.15 2541.1
571.98 917.83 2565.4
598.08 948.68 2651.6
593.52 930.75 2601.5
581.28 901.32 2519.2
600.39 920.60 2573.1
626.92 950.71 2657.3
628.87 943.31 2636.6
628.74 932.96 2607.7
635.83 933.45 2609.0
631.18 916.87 2562.7
652.56 909.63 2542.4
665.42 918.28 2566.6
688.22 940.33 2628.3
689.56 932.93 2607.6
697.63 934.68 2612.5
719.25 954.39 2667.5
379.30 962.29 2709.3
383.80 956.01 2691.6
395.94 968.63 2727.1
405.32 957.38 2695.5
408.44 917.32 2582.7
419.78 927.58 2611.5
422.75 919.31 2588.2
438.72 910.67 2563.9
460.05 940.71 2648.5
478.23 949.53 2673.4
468.28 916.49 2580.3
477.00 920.40 2591.3
491.48 935.19 2633.0
494.94 928.86 2615.1
506.85 938.35 2641.9
517.62 945.52 2662.0
505.49 911.21 2565.5
516.78 896.19 2523.2
537.08 919.76 2589.5
553.25 935.75 2634.5
550.79 920.21 2590.8
553.66 913.87 2573.0
553.43 902.62 2541.3
554.46 893.66 2516.0
560.71 893.22 2514.8
570.28 898.02 2528.3
594.41 925.39 2605.4
611.48 941.27 2650.1
614.82 935.89 2634.9
624.15 939.66 2645.5
644.06 959.09 2700.2
650.21 937.67 2640.0
653.50 932.60 2625.7
663.18 936.66 2637.1
652.65 912.38 2568.7
692.51 930.14 2618.7
385.31 952.76 2702.2
391.24 950.14 2694.7
401.13 957.08 2714.4
391.60 918.23 2604.2
409.51 913.00 2589.4
419.37 919.90 2609.0
433.44 935.67 2653.7
437.68 930.07 2637.8
437.92 916.25 2598.6
446.87 920.83 2611.6
454.44 922.44 2616.2
459.73 919.45 2607.7
466.14 918.76 2605.7
464.10 901.67 2557.3
465.57 891.80 2529.3
472.28 892.09 2530.1
483.21 900.22 2553.2
502.62 923.73 2619.8
525.25 939.93 2665.8
543.27 923.55 2619.3
573.19 939.20 2663.7
566.34 916.93 2600.5
567.31 907.69 2574.3
573.29 906.60 2571.2
576.13 900.62 2554.3
593.61 917.40 2601.9
614.09 938.38 2661.4
620.88 938.22 2660.9
633.97 947.48 2687.2
636.82 921.35 2613.1
641.89 918.92 2606.2
662.46 938.49 2661.7
673.85 944.77 2679.5
664.80 922.59 2616.6
657.57 903.33 2562.0
664.79 904.11 2564.2
676.57 911.03 2583.8
710.46 947.29 2686.6
739.82 967.46 2743.8
372.60 949.08 2711.6
382.13 955.33 2729.5
390.15 957.64 2736.1
388.97 937.69 2679.1
391.50 927.24 2649.2
399.78 930.52 2658.6
409.39 936.74 2676.4
408.19 918.44 2624.1
414.75 903.08 2580.2
431.04 923.65 2639.0
438.49 924.94 2642.7
442.19 918.39 2624.0
446.11 912.50 2607.1
448.49 903.67 2581.9
451.55 896.47 2561.3
455.35 890.90 2545.4
462.27 891.51 2547.2
472.79 898.96 2568.5
476.47 893.38 2552.5
484.29 895.61 2558.9
486.62 887.75 2536.4
491.72 885.09 2528.8
520.55 924.65 2641.9
530.12 929.44 2655.5
527.77 913.45 2609.8
547.20 935.09 2671.7
551.18 930.12 2657.5
552.56 920.94 2631.3
574.27 945.45 2701.3
581.68 934.84 2671.0
585.06 929.21 2654.9
579.29 909.36 2598.2
570.96 885.97 2531.3
592.60 909.10 2597.4
619.67 939.95 2685.6
622.01 933.01 2665.8
630.77 935.76 2673.6
652.83 947.66 2707.6
641.93 902.72 2579.2
660.51 919.26 2626.5
661.35 911.04 2603.0
663.25 904.44 2584.1
680.98 919.33 2626.7
703.72 940.62 2687.5
709.31 938.80 2682.3
710.96 931.85 2662.4
725.59 941.87 2691.1
369.94 935.31 2692.3
383.12 933.41 2686.8
386.42 924.65 2661.6
397.62 934.75 2690.6
416.15 945.15 2720.6
407.35 909.76 2618.7
414.48 895.80 2578.5
432.44 919.80 2647.6
442.09 925.62 2664.4
468.43 936.86 2696.7
467.02 920.31 2649.1
472.37 917.35 2640.6
480.37 919.57 2646.9
487.38 919.84 2647.7
487.26 906.85 2610.3
493.47 905.82 2607.4
494.84 896.07 2579.3
492.28 879.54 2531.7
513.27 904.97 2604.9
526.27 915.85 2636.3
527.24 905.77 2607.2
549.68 909.35 2617.5
549.32 897.67 2583.9
579.46 935.51 2692.8
586.73 924.97 2662.5
569.02 886.62 2552.1
575.56 886.50 2551.8
612.65 932.89 2685.3
629.16 936.75 2696.4
623.64 918.33 2643.4
633.90 923.29 2657.7
646.23 931.12 2680.2
629.50 897.37 2583.0
636.25 888.09 2556.3
663.09 916.02 2636.7
674.46 922.22 2654.6
675.07 913.73 2630.1
692.92 928.51 2672.7
721.97 948.47 2730.1
714.19 929.15 2674.5
717.25 924.15 2660.1
375.12 941.34 2730.0
385.16 931.38 2701.1
389.99 926.23 2686.2
403.19 940.77 2728.3
412.09 944.97 2740.5
405.60 914.32 2651.6
403.45 894.32 2593.6
405.45 884.01 2563.7
424.12 909.80 2638.5
466.40 912.22 2645.5
466.23 898.68 2606.3
482.10 915.99 2656.5
485.38 896.61 2600.3
479.59 873.77 2534.0
497.55 894.24 2593.4
511.29 906.68 2629.5
517.33 905.32 2625.5
514.44 888.58 2577.0
511.31 871.85 2528.5
534.17 899.30 2608.1
558.68 917.33 2660.4
542.25 879.51 2550.7
554.98 889.31 2579.1
582.57 922.41 2675.1
588.61 921.00 2671.0
585.55 905.56 2626.2
605.41 925.51 2684.1
635.87 929.35 2695.2
633.28 915.51 2655.1
633.39 905.81 2626.9
647.04 915.49 2655.0
664.00 929.60 2695.9
676.81 937.66 2719.3
693.74 931.99 2702.9
729.30 950.95 2757.9
721.83 932.07 2703.1
724.21 926.16 2686.0
386.19 944.01 2758.5
398.47 906.86 2649.9
395.17 884.12 2583.5
415.53 899.18 2627.5
436.73 900.75 2632.1
437.56 888.58 2596.5
446.20 892.39 2607.6
447.92 882.46 2578.6
455.25 870.90 2544.9
482.81 910.44 2660.4
485.42 877.75 2564.8
492.57 878.65 2567.5
502.09 883.68 2582.2
503.43 874.38 2555.0
511.13 876.22 2560.4
519.03 878.37 2566.7
545.04 877.37 2563.8
554.21 881.40 2575.5
577.17 906.98 2650.3
590.90 917.63 2681.4
596.32 915.28 2674.5
592.51 898.99 2626.9
596.91 895.37 2616.3
611.28 906.62 2649.2
610.07 894.77 2614.6
615.01 892.10 2606.8
624.30 895.73 2617.4
621.41 882.00 2577.3
632.25 887.84 2594.3
696.62 928.82 2714.1
699.30 913.94 2670.6
720.31 914.23 2671.5
399.64 887.33 2612.6
407.43 889.56 2619.2
429.15 878.42 2586.4
433.33 873.32 2571.4
442.06 877.43 2583.5
443.55 867.25 2553.5
452.63 871.98 2567.4
477.81 907.14 2671.0
506.61 909.12 2676.8
506.89 897.34 2642.1
509.72 890.31 2621.4
502.71 866.52 2551.4
518.87 871.43 2565.8
545.85 872.02 2567.6
570.61 900.60 2651.7
577.61 900.79 2652.3
574.19 884.92 2605.6
579.21 882.29 2597.8
575.00 865.81 2549.3
587.23 874.17 2573.9
609.82 897.60 2642.9
606.86 883.33 2600.9
610.45 878.79 2587.5
628.89 867.21 2553.4
654.89 893.65 2631.3
659.26 890.35 2621.5
664.99 888.91 2617.3
679.19 898.73 2646.2
712.82 924.55 2722.2
390.74 923.57 2740.3
404.87 907.47 2692.5
397.94 876.81 2601.5
411.98 892.62 2648.4
421.06 897.35 2662.5
427.51 896.39 2659.6
440.82 909.64 2698.9
446.75 893.50 2651.0
449.28 884.95 2625.7
459.16 890.91 2643.4
500.09 902.94 2679.0
500.99 892.18 2647.1
506.39 889.60 2639.5
518.80 899.26 2668.1
521.45 891.96 2646.5
514.88 869.28 2579.2
525.85 876.41 2600.3
539.21 887.30 2632.7
537.10 872.79 2589.6
539.46 865.80 2568.9
558.31 885.12 2626.2
581.23 910.36 2701.1
585.92 906.79 2690.5
574.01 877.89 2604.7
570.14 861.84 2557.1
579.41 865.78 2568.8
606.48 895.93 2658.3
619.84 895.33 2656.5
626.62 895.17 2656.0
615.54 869.78 2580.7
634.72 859.52 2550.2
646.08 865.88 2569.1
657.99 872.85 2589.8
667.88 877.01 2602.1
695.72 904.43 2683.5
719.27 916.71 2719.9
704.80 889.55 2639.3
727.07 908.84 2696.5
743.87 920.98 2732.6
738.31 897.02 2661.5
391.58 918.43 2746.1
397.48 915.61 2737.7
388.34 878.87 2627.8
405.85 887.37 2653.3
412.88 887.68 2654.2
415.60 878.90 2627.9
424.22 882.65 2639.2
438.71 898.31 2686.0
449.70 906.44 2710.3
451.51 896.07 2679.3
450.27 880.07 2631.4
456.42 878.79 2627.6
464.87 881.88 2636.8
473.85 885.90 2648.9
486.80 897.10 2682.4
491.32 892.67 2669.1
492.10 881.68 2636.2
496.43 877.25 2623.0
509.45 888.10 2655.5
529.96 887.86 2654.7
531.52 879.05 2628.4
535.23 873.98 2613.2
542.14 874.20 2613.9
553.54 881.56 2635.9
560.70 882.08 2637.4
571.07 887.56 2653.8
585.76 899.56 2689.7
584.46 887.01 2652.2
587.74 881.60 2636.0
605.15 897.29 2682.9
591.92 867.70 2594.4
599.56 859.37 2569.6
635.73 881.83 2636.7
634.57 870.85 2603.9
660.76 897.24 2682.8
658.85 885.33 2647.2
649.80 864.17 2583.9
657.78 865.85 2588.9
662.93 863.82 2582.9
687.40 886.74 2651.4
717.97 917.01 2741.9
709.34 897.10 2682.4
726.12 900.66 2693.0
749.41 920.71 2752.9
757.86 922.30 2757.7
383.16 891.72 2687.1
381.53 872.08 2627.9
396.87 875.85 2639.3
405.01 878.67 2647.8
403.40 860.60 2593.3
423.64 888.94 2678.7
439.93 879.87 2651.4
441.58 869.58 2620.4
440.19 853.70 2572.5
448.96 857.72 2584.6
460.76 867.32 2613.6
470.17 847.64 2554.3
497.53 884.50 2665.3
491.32 861.49 2596.0
493.71 853.99 2573.4
554.71 887.54 2674.5
561.77 887.74 2675.1
563.89 880.22 2652.4
559.09 862.21 2598.2
557.05 848.83 2557.9
568.52 856.12 2579.8
586.10 872.34 2628.7
606.02 891.61 2686.8
594.26 864.38 2604.7
628.86 884.56 2665.5
630.14 876.72 2641.9
640.67 881.78 2657.1
668.62 882.31 2658.7
655.92 856.71 2581.6
663.89 858.37 2586.6
691.24 884.79 2666.2
702.58 890.40 2683.1
749.71 913.93 2754.0
386.00 891.31 2707.0
388.11 880.17 2673.2
393.93 877.71 2665.7
406.79 890.72 2705.2
414.38 891.96 2709.0
407.07 861.63 2616.9
421.43 877.41 2664.8
441.98 877.05 2663.7
439.55 858.81 2608.3
441.16 848.90 2578.2
453.21 859.06 2609.1
469.86 877.54 2665.2
462.34 850.97 2584.5
493.01 869.62 2641.1
489.39 851.40 2585.8
515.07 872.19 2648.9
562.19 881.46 2677.1
570.84 884.11 2685.1
571.92 875.10 2657.8
565.56 855.08 2597.0
573.45 856.80 2602.2
573.48 846.89 2572.1
597.45 862.23 2618.7
606.50 865.46 2628.5
608.67 858.90 2608.6
621.67 867.61 2635.0
625.52 863.49 2622.5
639.13 872.79 2650.8
655.12 885.11 2688.2
677.01 886.40 2692.1
664.61 861.28 2615.8
673.61 864.13 2624.5
696.05 883.99 2684.8
701.88 882.57 2680.5
700.63 872.35 2649.4
723.80 892.45 2710.5
730.65 892.23 2709.8
741.49 896.85 2723.8
757.70 907.81 2757.1
756.74 898.19 2727.9
397.70 894.82 2739.2
426.98 896.65 2744.9
430.65 861.31 2636.7
442.93 872.02 2669.5
442.25 857.28 2624.3
445.51 850.51 2603.6
450.78 847.73 2595.1
460.96 854.13 2614.7
476.26 869.70 2662.3
479.91 863.83 2644.4
485.18 861.03 2635.8
499.67 874.42 2676.8
501.61 865.80 2650.4
503.24 856.87 2623.1
502.55 844.28 2584.5
502.95 833.84 2552.6
522.58 855.12 2617.7
553.02 871.01 2666.3
557.91 867.86 2656.7
573.04 880.53 2695.5
580.35 881.02 2697.0
579.76 869.64 2662.2
572.84 849.16 2599.5
585.60 838.47 2566.8
605.02 856.54 2622.1
619.08 866.71 2653.2
634.16 878.07 2688.0
639.47 875.79 2681.0
626.19 848.39 2597.1
645.65 838.68 2567.4
658.05 846.06 2590.0
690.32 861.19 2636.3
713.81 881.77 2699.3
730.97 894.19 2737.3
731.17 885.84 2711.8
727.99 873.59 2674.3
382.84 886.21 2734.6
389.27 884.70 2729.9
391.70 874.33 2697.9
403.85 885.64 2732.8
424.66 884.71 2730.0
410.76 841.71 2597.3
444.82 868.79 2680.8
457.77 880.33 2716.5
450.34 852.91 2631.8
444.59 829.46 2559.5
464.54 841.55 2596.8
486.05 867.94 2678.2
509.07 871.70 2689.8
502.72 849.18 2620.3
502.77 826.92 2551.6
531.54 862.89 2662.6
546.51 875.82 2702.5
547.15 865.74 2671.4
539.68 843.25 2602.0
538.92 831.67 2566.3
555.23 846.38 2611.7
563.93 849.30 2620.7
567.00 843.75 2603.6
563.42 828.55 2556.7
605.88 841.50 2596.6
627.62 862.11 2660.2
632.85 859.85 2653.3
619.94 833.25 2571.2
662.64 853.91 2634.9
681.54 869.32 2682.5
681.47 860.44 2655.1
684.37 855.46 2639.7
709.67 878.30 2710.2
714.81 875.99 2703.1
712.53 864.72 2668.3
728.22 875.26 2700.8
741.80 883.10 2725.0
749.93 884.36 2728.9
759.87 887.70 2739.2
765.73 886.26 2734.7
370.98 851.87 2649.8
382.30 861.90 2681.0
389.39 862.22 2682.0
395.51 860.42 2676.4
407.98 872.24 2713.2
417.47 877.39 2729.2
417.36 862.54 2683.0
419.55 852.85 2652.9
427.48 854.96 2659.4
431.14 848.59 2639.6
442.97 858.25 2669.7
456.84 871.52 2710.9
449.86 845.20 2629.1
464.71 835.14 2597.8
505.55 858.73 2671.2
500.39 838.49 2608.2
503.11 831.80 2587.4
523.60 854.30 2657.4
535.29 862.03 2681.4
532.55 846.61 2633.5
533.96 838.11 2607.0
543.73 822.23 2557.6
568.56 849.41 2642.2
588.93 869.38 2704.3
593.39 865.65 2692.7
595.30 858.34 2669.9
589.95 840.85 2615.5
584.54 823.67 2562.1
592.59 825.64 2568.2
616.29 849.11 2641.2
647.01 862.68 2683.4
635.08 837.76 2605.9
668.47 854.53 2658.1
727.82 876.21 2725.6
726.25 865.91 2693.5
750.61 886.43 2757.3
366.01 865.75 2714.9
376.04 872.71 2736.7
385.53 878.15 2753.8
390.79 873.95 2740.6
389.40 855.30 2682.1
397.22 842.39 2641.6
405.52 845.40 2651.1
415.32 851.41 2669.9
427.60 862.22 2703.8
436.57 866.11 2716.0
440.84 860.68 2699.0
440.79 847.15 2656.6
441.64 835.73 2620.7
453.25 844.70 2648.9
461.08 846.46 2654.4
453.36 820.06 2571.6
465.72 830.20 2603.4
509.82 859.01 2693.8
510.46 848.47 2660.7
519.32 851.69 2670.8
519.37 840.56 2635.9
509.52 813.91 2552.3
517.80 816.53 2560.5
529.56 824.50 2585.5
530.97 816.36 2560.0
538.92 818.36 2566.3
553.25 829.88 2602.4
576.00 853.59 2676.8
608.75 850.87 2668.2
606.33 837.97 2627.8
610.22 833.97 2615.2
612.51 827.90 2596.2
639.74 855.31 2682.2
659.28 862.67 2705.2
636.46 824.05 2584.1
671.97 852.09 2672.1
682.99 857.22 2688.1
674.84 838.44 2629.2
671.67 826.16 2590.7
718.05 849.24 2663.1
396.27 863.31 2729.4
392.19 839.42 2653.9
400.92 843.31 2666.2
407.26 842.12 2662.5
415.77 845.40 2672.8
423.29 846.59 2676.6
427.50 841.21 2659.6
442.85 857.58 2711.3
452.99 863.51 2730.1
449.90 844.42 2669.7
457.29 845.29 2672.4
468.42 828.22 2618.5
487.30 837.33 2647.3
502.73 840.18 2656.3
491.76 810.74 2563.2
503.29 818.69 2588.4
506.45 812.99 2570.3
509.70 807.58 2553.3
530.29 829.42 2622.3
545.85 842.95 2665.1
550.94 840.19 2656.3
555.41 836.54 2644.8
565.57 841.46 2660.4
575.61 846.08 2674.9
583.88 848.02 2681.1
593.83 852.33 2694.7
610.46 846.32 2675.7
611.71 838.52 2651.1
620.43 841.03 2659.0
611.63 819.99 2592.5
627.11 831.61 2629.2
686.77 854.95 2703.0
716.58 857.08 2709.7
715.28 847.22 2678.6
732.50 859.28 2716.7
368.20 856.78 2731.2
400.82 866.05 2760.7
405.88 861.60 2746.6
420.92 848.85 2705.9
437.17 839.64 2676.5
484.57 837.61 2670.1
504.87 836.84 2667.6
494.46 808.50 2577.3
507.67 819.03 2610.9
514.20 818.67 2609.7
519.99 817.12 2604.8
533.89 828.21 2640.1
542.78 831.35 2650.1
548.43 829.50 2644.2
553.84 827.34 2637.3
571.34 843.08 2687.5
581.25 837.28 2669.0
574.91 818.41 2608.9
584.72 822.68 2622.5
588.48 818.46 2609.0
594.94 818.04 2607.7
614.72 835.74 2664.1
629.78 846.70 2699.1
628.53 835.74 2664.1
621.79 817.79 2606.9
642.78 836.31 2665.9
688.32 858.62 2737.1
692.90 855.52 2727.2
685.54 837.88 2670.9
690.10 826.75 2635.5
732.07 860.01 2741.5
735.25 855.44 2726.9
368.47 850.32 2733.2
370.36 838.56 2695.4
380.99 831.25 2671.9
391.22 838.33 2694.6
396.25 834.22 2681.4
412.16 852.75 2741.0
415.84 818.06 2629.5
433.63 825.96 2654.9
450.99 845.60 2718.0
502.91 838.18 2694.2
504.34 829.05 2664.8
510.85 828.40 2662.7
518.98 830.37 2669.0
519.75 820.66 2637.8
511.00 796.36 2559.7
526.86 800.29 2572.4
541.24 811.86 2609.5
540.08 800.11 2571.8
550.46 805.55 2589.3
570.19 824.37 2649.8
565.58 807.97 2597.0
569.76 804.37 2585.5
590.96 824.59 2650.5
591.63 816.05 2623.0
594.93 811.27 2607.7
612.14 825.36 2652.9
624.13 832.18 2674.9
624.58 823.62 2647.4
620.23 808.99 2600.3
671.44 839.31 2697.8
678.76 839.70 2699.0
684.90 838.65 2695.7
690.78 837.31 2691.3
683.90 820.68 2637.9
717.76 836.22 2687.9
747.73 862.77 2773.2
374.54 840.94 2725.7
375.65 827.81 2683.2
383.02 828.71 2686.1
397.27 844.20 2736.3
405.49 846.54 2743.9
404.07 829.03 2687.1
416.53 840.12 2723.1
432.28 843.30 2733.4
453.92 818.42 2652.8
465.20 826.24 2678.1
460.82 806.43 2613.9
468.58 808.14 2619.4
483.89 822.62 2666.3
495.10 829.82 2689.7
494.66 817.57 2650.0
493.66 804.74 2608.4
493.72 793.95 2573.4
510.87 799.91 2592.7
518.10 800.70 2595.3
516.43 787.89 2553.8
533.18 803.15 2603.2
556.20 827.35 2681.7
563.48 827.82 2683.2
570.96 828.58 2685.7
584.51 828.06 2684.0
589.12 824.77 2673.3
602.63 833.87 2702.8
595.00 813.85 2637.9
602.81 815.16 2642.2
625.70 836.61 2711.7
618.69 818.05 2651.5
625.10 808.56 2620.8
629.76 805.82 2611.9
670.52 831.17 2694.1
682.03 836.72 2712.1
678.29 823.64 2669.7
674.34 810.58 2627.3
681.00 810.40 2626.7
692.51 815.93 2644.7
734.48 856.90 2777.5
394.50 846.39 2766.7
408.43 845.53 2763.8
397.66 809.04 2644.6
443.74 793.36 2593.3
467.49 823.34 2691.3
476.77 827.34 2704.4
476.00 814.02 2660.9
481.33 811.38 2652.2
494.59 821.99 2686.9
495.01 811.27 2651.8
490.81 793.36 2593.3
506.73 797.26 2606.1
546.79 827.20 2703.9
543.17 811.31 2652.0
544.72 803.47 2626.4
568.99 828.90 2709.5
581.69 807.53 2639.6
585.08 793.56 2593.9
616.65 826.88 2702.9
613.02 803.74 2627.2
621.09 796.61 2603.9
649.74 824.40 2694.8
639.58 802.87 2624.4
645.52 793.45 2593.6
671.98 817.46 2672.1
685.61 825.53 2698.5
676.48 806.30 2635.6
732.78 847.72 2771.0
742.02 841.90 2752.0
376.11 830.29 2737.2
385.32 819.68 2702.2
403.93 814.82 2686.2
418.38 802.47 2645.5
429.34 810.20 2671.0
432.08 802.44 2645.4
445.05 813.60 2682.2
448.48 807.27 2661.3
449.06 796.07 2624.4
460.61 804.34 2651.7
471.45 811.17 2674.2
472.11 800.54 2639.1
468.83 783.62 2583.4
472.73 779.00 2568.1
492.37 800.10 2637.7
507.19 812.89 2679.9
500.37 791.12 2608.1
513.31 800.76 2639.9
545.66 808.13 2664.2
537.90 786.68 2593.4
553.23 799.11 2634.4
569.56 812.66 2679.1
572.39 806.87 2660.0
568.19 791.41 2609.0
600.65 798.60 2632.7
617.30 811.50 2675.3
622.60 809.38 2668.3
626.32 805.27 2654.7
631.53 803.14 2647.7
638.27 802.99 2647.2
646.15 804.25 2651.4
656.10 808.04 2663.9
688.20 821.63 2708.7
711.79 832.80 2745.5
