ply
format ascii 1.0
element vertex 2115
property float x
property float y
property float z
end_header
-514.75 -954.78 1601.2
-494.25 -924.20 1549.9
-494.70 -932.63 1564.0
-490.92 -933.16 1564.9
-483.87 -943.13 1581.6
-496.92 -976.85 1638.2
-489.19 -969.94 1626.6
-475.56 -951.11 1595.0
-460.71 -937.72 1572.6
-470.66 -966.54 1620.9
-464.30 -962.07 1613.4
-441.53 -958.04 1606.6
-446.92 -978.96 1641.7
-434.30 -960.48 1610.7
-433.14 -986.36 1654.1
-433.84 -997.82 1673.4
-416.57 -967.78 1623.0
-404.40 -979.08 1641.9
-398.58 -996.44 1671.1
-369.03 -943.07 1581.6
-375.97 -971.61 1629.4
-345.70 -924.54 1550.5
-337.16 -945.68 1585.9
-341.16 -968.73 1624.6
-345.15 -992.30 1664.1
-338.36 -985.11 1652.1
-321.03 -946.63 1587.5
-315.01 -940.93 1578.0
-317.20 -959.96 1609.9
-306.88 -941.11 1578.3
-300.79 -934.88 1567.8
-302.12 -951.89 1596.3
-283.26 -958.08 1606.7
-282.43 -969.53 1625.9
-279.76 -974.91 1634.9
-276.32 -977.76 1639.7
-266.94 -959.30 1608.8
-247.66 -933.79 1566.0
-245.52 -941.17 1578.4
-242.67 -946.02 1586.5
-243.24 -964.57 1617.6
-244.02 -984.66 1651.3
-238.20 -978.32 1640.7
-229.03 -957.74 1606.2
-218.12 -946.55 1587.4
-215.21 -951.88 1596.3
-213.27 -961.79 1612.9
-198.29 -970.36 1627.3
-194.93 -974.65 1634.5
-179.29 -958.98 1608.2
-175.15 -959.18 1608.6
-174.20 -977.22 1638.8
-169.63 -975.38 1635.7
-150.94 -964.37 1617.3
-147.32 -968.11 1623.5
-140.95 -953.46 1599.0
-136.31 -950.05 1593.2
-131.35 -944.07 1583.2
-124.16 -921.22 1544.9
-116.12 -920.98 1544.5
-114.13 -937.47 1572.2
-98.83 -947.16 1588.4
-95.34 -953.41 1598.9
-87.34 -913.10 1531.3
-79.38 -960.97 1611.6
-76.49 -977.43 1639.2
-48.72 -933.84 1566.1
-45.50 -951.30 1595.3
-40.52 -931.89 1562.8
-28.76 -944.81 1584.5
-25.49 -977.10 1638.6
-20.57 -946.40 1587.1
-3.99 -917.78 1539.1
0.00 -907.54 1522.0
4.04 -928.53 1557.2
8.48 -975.13 1635.3
17.28 -993.54 1666.2
21.21 -975.59 1636.1
25.20 -965.84 1619.7
27.88 -916.13 1536.4
36.65 -936.54 1570.6
41.52 -954.93 1601.4
45.37 -948.74 1591.1
49.23 -943.56 1582.4
53.65 -949.14 1591.7
57.30 -941.40 1578.7
65.16 -936.65 1570.8
70.89 -959.09 1608.4
73.53 -939.56 1575.7
89.05 -931.01 1561.3
96.52 -965.17 1618.6
98.99 -948.69 1591.0
103.72 -954.20 1600.2
109.47 -968.40 1624.0
114.58 -908.72 1523.9
120.38 -922.89 1547.7
124.65 -924.80 1550.9
129.93 -933.85 1566.1
138.00 -961.79 1612.9
143.14 -968.27 1623.8
150.51 -989.04 1658.6
159.30 -990.23 1660.6
171.24 -937.76 1572.6
178.62 -955.41 1602.2
175.81 -919.01 1541.2
176.28 -900.98 1511.0
183.11 -915.55 1535.4
191.63 -937.76 1572.6
199.80 -957.40 1605.6
200.77 -942.41 1580.4
217.51 -962.06 1613.4
219.41 -952.15 1596.8
216.09 -920.37 1543.5
222.22 -929.28 1558.4
242.14 -912.98 1531.1
250.82 -930.47 1560.4
270.60 -942.99 1581.4
271.36 -931.54 1562.2
274.61 -902.28 1513.1
285.77 -925.74 1552.5
295.08 -942.62 1580.8
293.46 -924.60 1550.6
299.80 -919.39 1541.8
313.03 -947.33 1588.7
319.91 -955.56 1602.5
328.22 -967.82 1623.1
327.80 -954.34 1600.5
322.70 -927.76 1555.9
339.96 -930.83 1561.0
339.21 -917.87 1539.3
366.43 -906.24 1519.8
392.59 -940.58 1577.4
394.17 -934.64 1567.4
401.46 -942.21 1580.1
408.17 -948.28 1590.3
408.65 -912.53 1530.3
428.89 -948.50 1590.7
441.91 -967.99 1623.3
435.10 -944.08 1583.2
422.53 -883.47 1481.6
437.91 -907.38 1521.7
448.02 -911.89 1529.3
455.68 -919.35 1541.8
446.78 -893.56 1498.5
452.17 -896.55 1503.5
464.65 -913.41 1531.8
477.26 -930.25 1560.0
481.04 -929.74 1559.2
469.84 -900.53 1510.2
488.13 -905.41 1518.4
494.20 -881.13 1477.7
507.19 -897.33 1504.8
516.94 -907.61 1522.1
548.96 -928.38 1556.9
560.82 -941.52 1579.0
538.71 -897.86 1505.7
533.81 -870.75 1460.3
583.12 -906.20 1519.7
581.32 -897.34 1504.8
599.13 -894.80 1500.6
612.39 -908.71 1523.9
628.06 -925.99 1552.9
645.41 -916.32 1536.7
676.22 -954.18 1600.2
645.95 -900.41 1510.0
663.73 -867.38 1454.6
656.73 -853.38 1431.1
656.99 -848.92 1423.7
725.73 -864.85 1450.4
750.78 -885.53 1485.1
784.56 -915.98 1536.1
751.99 -873.52 1464.9
755.43 -855.91 1435.4
753.14 -849.13 1424.0
774.43 -860.48 1443.0
772.05 -853.70 1431.7
754.85 -830.69 1393.1
758.09 -818.59 1372.8
793.68 -853.02 1430.5
812.68 -869.38 1458.0
812.72 -865.39 1451.3
822.73 -872.02 1462.4
792.92 -832.75 1396.5
770.94 -802.33 1345.5
779.94 -808.05 1355.1
968.54 -831.21 1394.0
975.31 -833.91 1398.5
933.46 -786.43 1318.9
1008.81 -822.79 1379.8
1010.84 -821.53 1377.7
1030.49 -834.56 1399.6
1035.23 -835.45 1401.1
1028.14 -826.83 1386.6
1001.62 -802.69 1346.1
984.91 -783.84 1314.5
1024.55 -804.25 1348.7
1081.22 -845.85 1418.5
1097.52 -855.69 1435.0
1085.25 -843.27 1414.2
1048.64 -812.08 1361.9
1000.04 -759.11 1273.0
1042.67 -788.86 1322.9
1089.78 -803.36 1347.3
1061.25 -779.83 1307.8
1023.99 -750.06 1257.9
1077.85 -784.51 1315.6
1071.48 -777.41 1303.7
1089.33 -787.88 1321.3
1118.83 -806.68 1352.8
-1490.41 -1082.66 1807.8
-1514.95 -1103.95 1843.3
-1519.95 -1125.35 1879.1
-1485.94 -1103.71 1842.9
-1414.89 -1057.73 1766.2
-1515.20 -1136.40 1897.5
-1458.27 -1097.27 1832.2
-1416.77 -1069.52 1785.8
-1414.72 -1071.48 1789.1
-1408.74 -1070.46 1787.4
-1324.52 -1009.78 1686.1
-1395.94 -1074.87 1794.8
-1339.20 -1038.11 1733.4
-1362.71 -1067.07 1781.8
-1315.28 -1036.96 1731.5
-1242.41 -982.86 1641.1
-1207.35 -958.41 1600.3
-1212.13 -982.47 1640.5
-1207.49 -982.15 1640.0
-1089.24 -911.65 1522.2
-1127.07 -946.74 1580.8
-1122.52 -946.36 1580.2
-1095.13 -926.65 1547.3
-1092.20 -927.57 1548.8
-1102.16 -939.48 1568.7
-1087.33 -930.27 1553.3
-1060.66 -921.10 1538.0
-1036.69 -914.03 1526.2
-1047.29 -926.91 1547.7
-1048.79 -931.81 1555.9
-1019.80 -909.55 1518.7
-1004.40 -899.29 1501.6
-1018.95 -934.03 1559.6
-1043.16 -960.04 1603.0
-1029.45 -962.77 1607.6
-1029.25 -970.44 1620.4
-936.81 -886.90 1480.9
-929.09 -909.40 1518.5
-917.59 -913.63 1525.5
-905.46 -913.37 1525.1
-894.63 -906.40 1513.5
-905.47 -921.43 1538.6
-905.41 -942.12 1573.1
-897.28 -937.88 1566.0
-915.68 -965.85 1612.7
-926.26 -981.49 1638.9
-900.30 -962.83 1607.7
-879.76 -949.65 1585.7
-852.43 -924.47 1543.6
-838.78 -922.66 1540.6
-873.91 -979.97 1636.3
-874.97 -985.94 1646.3
-828.04 -937.64 1565.6
-818.32 -940.45 1570.3
-817.77 -954.07 1593.1
-842.00 -987.32 1648.6
-838.81 -988.60 1650.7
-810.14 -959.71 1602.5
-791.58 -942.56 1573.8
-780.25 -933.88 1559.3
-757.52 -920.98 1537.8
-756.07 -924.08 1543.0
-744.30 -924.38 1543.5
-757.63 -946.01 1579.6
-766.24 -961.96 1606.2
-760.41 -959.86 1602.7
-739.95 -939.17 1568.2
-730.11 -931.79 1555.9
-744.84 -955.88 1596.1
-752.37 -970.94 1621.2
-742.85 -964.03 1609.7
-740.33 -966.20 1613.3
-749.10 -983.20 1641.7
-750.49 -990.64 1654.1
-698.54 -938.16 1566.5
-683.98 -923.97 1542.8
-666.42 -910.90 1521.0
-693.41 -953.44 1592.0
-699.53 -967.62 1615.7
-690.31 -960.61 1604.0
-650.66 -922.10 1539.7
-656.28 -935.81 1562.6
-671.91 -964.04 1609.7
-647.08 -934.23 1559.9
-640.22 -936.02 1562.9
-659.03 -969.65 1619.1
-640.86 -948.97 1584.5
-642.73 -957.88 1599.4
-641.94 -962.91 1607.8
-602.43 -915.54 1528.7
-608.74 -931.26 1555.0
-625.69 -963.56 1608.9
-648.04 -1004.68 1677.6
-630.99 -984.85 1644.5
-587.80 -936.42 1563.6
-595.10 -954.64 1594.0
-590.74 -954.28 1593.4
-601.46 -992.41 1657.1
-597.54 -993.03 1658.1
-589.97 -994.76 1661.0
-567.78 -964.39 1610.3
-553.89 -947.76 1582.5
-550.41 -948.84 1584.3
-532.84 -954.15 1593.2
-535.04 -965.58 1612.3
-507.61 -938.06 1566.3
-518.99 -966.83 1614.4
-506.39 -951.02 1588.0
-495.75 -938.67 1567.3
-498.69 -968.05 1616.4
-491.73 -962.62 1607.3
-463.87 -948.26 1583.4
-473.54 -976.68 1630.8
-467.40 -972.69 1624.2
-457.72 -961.22 1605.0
-459.67 -983.18 1641.7
-462.82 -999.17 1668.4
-439.22 -957.16 1598.2
-420.28 -924.61 1543.9
-423.24 -940.08 1569.7
-419.71 -950.51 1587.1
-427.63 -978.04 1633.1
-423.16 -977.50 1632.2
-405.13 -964.80 1611.0
-401.14 -965.24 1611.7
-409.75 -996.34 1663.7
-408.28 -1003.33 1675.3
-385.68 -957.98 1599.6
-384.91 -966.46 1613.8
-384.26 -975.44 1628.8
-379.42 -973.84 1626.1
-374.98 -973.25 1625.1
-345.22 -972.50 1623.8
-346.81 -989.06 1651.5
-346.34 -1000.06 1669.9
-335.57 -981.22 1638.4
-321.87 -953.24 1591.7
-319.55 -958.66 1600.7
-314.52 -955.97 1596.2
-279.35 -948.98 1584.6
-279.76 -964.53 1610.5
-275.52 -964.33 1610.2
-270.29 -960.57 1603.9
-263.26 -950.19 1586.6
-254.50 -933.18 1558.2
-252.73 -941.61 1572.3
-256.25 -970.40 1620.3
-248.55 -956.94 1597.9
-239.93 -939.38 1568.5
-240.15 -956.47 1597.1
-240.48 -974.57 1627.3
-238.55 -984.02 1643.1
-233.38 -980.21 1636.7
-191.31 -940.26 1570.0
-195.93 -983.92 1642.9
-177.08 -951.32 1588.5
-168.91 -929.01 1551.2
-167.93 -969.81 1619.3
-156.82 -979.07 1634.8
-152.85 -980.78 1637.7
-144.36 -952.78 1590.9
-139.35 -946.79 1580.9
-135.94 -951.56 1588.9
-132.76 -958.37 1600.2
-127.26 -948.27 1583.4
-115.49 -952.78 1590.9
-101.44 -976.36 1630.3
-96.10 -965.19 1611.6
-89.24 -937.07 1564.7
-84.40 -928.44 1550.3
-79.88 -971.23 1621.7
-75.85 -973.37 1625.3
-55.23 -981.45 1638.8
-50.24 -967.13 1614.9
-44.69 -938.42 1566.9
-40.14 -927.17 1548.2
-25.03 -963.79 1609.3
-4.04 -933.56 1558.8
8.15 -941.78 1572.5
12.46 -959.75 1602.5
16.73 -965.90 1612.8
21.13 -976.15 1629.9
24.74 -952.49 1590.4
37.33 -958.04 1599.7
42.61 -984.19 1643.4
46.91 -985.16 1645.0
50.00 -962.51 1607.2
58.26 -961.36 1605.2
62.49 -962.32 1606.8
65.80 -949.92 1586.1
69.68 -946.76 1580.9
73.97 -949.25 1585.0
77.31 -939.92 1569.4
81.15 -937.26 1565.0
86.64 -953.08 1591.4
91.25 -958.11 1599.8
94.21 -946.20 1579.9
117.28 -934.19 1559.9
122.84 -945.85 1579.3
126.98 -946.22 1580.0
151.81 -974.12 1626.5
151.73 -947.32 1581.8
165.47 -932.27 1556.7
173.75 -955.61 1595.6
180.13 -967.68 1615.8
180.00 -944.98 1577.9
183.15 -940.17 1569.9
189.93 -953.76 1592.6
198.48 -975.52 1628.9
202.76 -975.80 1629.4
199.57 -940.84 1571.0
212.90 -945.76 1579.2
211.08 -920.00 1536.2
225.13 -912.39 1523.5
232.99 -927.93 1549.4
240.84 -942.95 1574.5
246.57 -949.30 1585.1
256.66 -971.93 1622.9
254.23 -947.21 1581.6
273.15 -970.74 1620.9
275.48 -949.79 1585.9
266.79 -906.30 1513.3
281.22 -928.04 1549.6
294.81 -959.19 1601.6
302.03 -969.00 1618.0
297.94 -942.80 1574.2
308.18 -936.72 1564.1
318.88 -956.63 1597.3
325.63 -964.37 1610.3
323.97 -947.31 1581.8
321.47 -928.23 1549.9
351.65 -978.68 1634.2
357.40 -982.84 1641.1
341.63 -928.42 1550.2
345.37 -906.60 1513.8
360.41 -935.45 1562.0
360.16 -894.59 1493.7
372.95 -906.86 1514.2
391.12 -941.12 1571.4
391.21 -931.65 1555.6
393.36 -927.21 1548.2
394.39 -920.25 1536.6
393.63 -909.29 1518.3
407.24 -904.54 1510.4
410.73 -903.60 1508.8
436.42 -942.19 1573.2
430.71 -921.23 1538.2
438.03 -895.44 1495.2
454.21 -920.37 1536.8
454.23 -912.41 1523.5
451.69 -899.48 1501.9
456.09 -900.49 1503.6
462.28 -904.97 1511.1
460.57 -894.04 1492.8
462.12 -889.58 1485.4
478.19 -912.90 1524.3
491.93 -874.12 1459.6
500.45 -882.48 1473.5
546.65 -928.49 1550.4
557.61 -940.21 1569.9
540.21 -904.26 1509.9
558.94 -922.26 1539.9
558.69 -915.30 1528.3
538.20 -875.52 1461.9
578.14 -902.37 1506.7
602.32 -897.64 1498.9
617.26 -914.02 1526.2
600.35 -883.31 1474.9
598.11 -874.46 1460.1
617.82 -897.58 1498.8
629.50 -897.62 1498.8
629.19 -891.67 1488.9
657.96 -926.75 1547.5
641.17 -897.63 1498.8
670.57 -911.19 1521.5
672.93 -878.23 1466.4
700.34 -869.78 1452.3
726.98 -898.03 1499.5
727.97 -894.48 1493.6
708.40 -865.82 1445.7
696.40 -846.68 1413.7
765.58 -906.91 1514.3
767.75 -900.26 1503.2
765.42 -870.99 1454.3
766.06 -867.46 1448.4
760.46 -856.91 1430.8
751.03 -842.18 1406.2
755.30 -842.87 1407.4
765.86 -850.55 1420.2
759.20 -839.11 1401.1
756.95 -820.92 1370.7
768.45 -829.49 1385.1
762.31 -819.04 1367.6
763.46 -816.48 1363.3
772.42 -822.25 1373.0
785.77 -832.63 1390.3
786.06 -829.13 1384.4
795.61 -827.87 1382.3
794.04 -822.53 1373.4
936.63 -822.67 1373.7
908.90 -795.29 1327.9
940.59 -810.73 1353.7
945.74 -812.14 1356.1
975.65 -813.63 1358.6
997.14 -828.55 1383.5
994.98 -823.80 1375.5
1022.80 -834.86 1394.0
1026.45 -834.89 1394.1
1015.64 -823.21 1374.6
984.91 -795.50 1328.3
1010.61 -807.79 1348.8
1019.04 -811.72 1355.4
1050.26 -825.20 1377.9
1058.24 -828.66 1383.7
1059.35 -818.43 1366.6
1079.82 -828.70 1383.7
1027.85 -781.03 1304.1
1013.32 -767.47 1281.5
1057.58 -783.02 1307.5
1045.58 -771.66 1288.5
1044.39 -768.33 1282.9
1089.66 -799.09 1334.3
1102.90 -806.24 1346.2
-1428.64 -1055.56 1754.9
-1472.07 -1094.61 1819.9
-1471.15 -1097.45 1824.6
-1393.41 -1046.19 1739.4
-1458.67 -1098.74 1826.7
-1355.57 -1041.36 1731.3
-1318.56 -1016.30 1689.7
-1352.68 -1046.08 1739.2
-1430.90 -1110.26 1845.9
-1356.60 -1063.28 1767.8
-1350.11 -1061.78 1765.3
-1222.36 -971.19 1614.7
-1193.89 -951.83 1582.5
-1194.79 -955.83 1589.1
-1207.81 -972.96 1617.6
-1181.17 -954.82 1587.4
-1101.13 -905.89 1506.1
-1131.68 -934.34 1553.4
-1093.04 -918.79 1527.5
-1134.99 -957.52 1591.9
-1134.06 -960.23 1596.4
-1124.30 -955.45 1588.5
-1139.90 -972.27 1616.5
-1129.61 -967.04 1607.8
-1095.16 -941.03 1564.5
-1081.92 -933.10 1551.3
-1045.64 -915.43 1522.0
-1008.30 -886.08 1473.2
-1011.78 -899.36 1495.2
-1039.89 -927.90 1542.7
-1005.96 -901.09 1498.1
-1013.38 -925.61 1538.9
-1026.67 -948.95 1577.7
-1009.79 -948.46 1576.9
-1029.66 -971.06 1614.4
-1019.74 -965.63 1605.4
-953.14 -906.26 1506.7
-969.23 -936.92 1557.7
-972.64 -944.16 1569.7
-928.80 -905.38 1505.3
-906.64 -887.51 1475.5
-943.21 -931.17 1548.1
-949.74 -941.62 1565.5
-909.77 -905.86 1506.0
-920.05 -932.11 1549.7
-920.47 -936.62 1557.2
-917.71 -937.92 1559.3
-885.76 -909.28 1511.7
-944.70 -982.83 1634.0
-935.10 -977.22 1624.7
-917.16 -962.81 1600.7
-914.69 -964.59 1603.7
-916.58 -970.99 1614.3
-917.99 -976.94 1624.2
-921.52 -985.22 1638.0
-871.35 -935.89 1556.0
-833.15 -899.03 1494.7
-857.04 -929.13 1544.7
-850.78 -926.67 1540.6
-830.38 -917.37 1525.2
-857.87 -952.28 1583.2
-872.53 -973.20 1618.0
-869.07 -974.03 1619.4
-879.33 -990.31 1646.5
-885.33 -1001.93 1665.8
-845.01 -960.99 1597.7
-814.78 -935.79 1555.8
-839.55 -969.04 1611.1
-795.48 -936.81 1557.5
-787.30 -931.91 1549.4
-793.06 -943.54 1568.7
-810.61 -969.39 1611.7
-789.35 -948.86 1577.5
-770.04 -945.24 1571.5
-751.55 -927.44 1541.9
-754.28 -935.79 1555.8
-769.55 -959.86 1595.8
-757.26 -949.65 1578.9
-740.52 -933.69 1552.3
-723.50 -917.23 1525.0
-704.01 -907.39 1508.6
-734.63 -952.14 1583.0
-746.89 -973.48 1618.5
-741.43 -971.82 1615.7
-746.54 -984.08 1636.1
-740.68 -981.93 1632.5
-694.45 -925.94 1539.4
-694.28 -936.47 1556.9
-707.09 -959.32 1594.9
-696.40 -950.39 1580.1
-667.51 -916.34 1523.5
-660.22 -917.19 1524.9
-681.60 -964.21 1603.1
-683.71 -973.14 1617.9
-689.14 -986.92 1640.8
-671.23 -967.24 1608.1
-645.18 -953.39 1585.1
-637.91 -948.69 1577.3
-646.63 -967.86 1609.1
-653.58 -984.62 1637.0
-622.42 -943.80 1569.1
-606.93 -926.37 1540.2
-621.79 -955.34 1588.3
-648.76 -1003.41 1668.2
-643.92 -1002.61 1666.9
-600.66 -941.58 1565.4
-609.88 -975.81 1622.3
-620.08 -999.02 1660.9
-607.39 -985.42 1638.3
-589.69 -963.43 1601.8
-586.21 -964.54 1603.6
-565.49 -937.09 1558.0
-555.02 -926.36 1540.1
-557.82 -937.78 1559.1
-563.73 -954.63 1587.1
-564.58 -963.11 1601.2
-548.71 -942.97 1567.7
-547.46 -977.01 1624.3
-543.57 -977.59 1625.3
-527.91 -956.84 1590.8
-513.77 -938.55 1560.4
-518.65 -954.97 1587.7
-522.59 -969.93 1612.6
-513.66 -961.04 1597.8
-503.21 -949.15 1578.0
-495.22 -941.73 1565.7
-493.77 -946.73 1574.0
-505.93 -978.14 1626.2
-505.32 -985.15 1637.9
-485.68 -979.80 1629.0
-472.38 -961.33 1598.3
-473.11 -971.34 1614.9
-480.27 -994.85 1654.0
-471.20 -984.86 1637.4
-458.65 -967.34 1608.3
-452.13 -962.32 1599.9
-458.70 -985.37 1638.2
-457.23 -991.38 1648.2
-435.20 -980.26 1629.7
-432.64 -993.78 1652.2
-405.35 -940.41 1563.5
-412.50 -976.54 1623.6
-417.54 -998.65 1660.3
-411.55 -994.57 1653.5
-396.29 -967.79 1609.0
-373.14 -951.31 1581.6
-376.06 -969.40 1611.7
-376.50 -981.45 1631.7
-359.19 -946.95 1574.4
-360.92 -985.10 1637.8
-359.57 -993.10 1651.1
-338.38 -945.84 1572.5
-329.43 -943.54 1568.7
-330.56 -958.62 1593.8
-331.56 -973.71 1618.9
-329.20 -979.15 1627.9
-313.13 -943.45 1568.5
-292.21 -941.57 1565.4
-289.81 -946.99 1574.4
-290.59 -963.10 1601.2
-282.75 -950.68 1580.6
-277.53 -961.00 1597.7
-271.88 -955.69 1588.9
-274.70 -980.48 1630.1
-275.91 -1000.18 1662.9
-262.54 -966.80 1607.4
-255.99 -957.90 1592.6
-260.40 -990.36 1646.5
-253.03 -978.39 1626.6
-214.70 -939.83 1562.5
-207.49 -925.74 1539.1
-206.82 -940.82 1564.2
-205.90 -955.40 1588.4
-200.75 -950.51 1580.3
-196.91 -951.76 1582.4
-193.38 -954.54 1587.0
-189.41 -955.27 1588.2
-173.37 -935.37 1555.1
-163.49 -948.26 1576.5
-165.65 -985.42 1638.3
-161.69 -987.14 1641.2
-156.64 -982.19 1632.9
-148.93 -959.76 1595.7
-142.88 -947.08 1574.6
-140.55 -959.06 1594.5
-136.66 -960.76 1597.3
-133.11 -965.02 1604.4
-131.65 -985.23 1638.0
-114.92 -952.22 1583.1
-110.65 -950.80 1580.8
-108.13 -964.82 1604.1
-102.76 -953.62 1585.5
-94.97 -957.96 1592.7
-90.85 -958.07 1592.8
-87.43 -965.89 1605.9
-85.54 -992.25 1649.7
-81.27 -992.35 1649.8
-74.60 -961.54 1598.6
-54.25 -968.09 1609.5
-49.33 -953.72 1585.6
-45.39 -957.38 1591.7
-42.29 -981.13 1631.2
-38.12 -982.73 1633.8
-33.84 -981.22 1631.3
4.13 -958.70 1593.9
8.39 -973.12 1617.9
12.66 -979.29 1628.1
16.80 -974.64 1620.4
20.82 -965.85 1605.8
36.52 -941.50 1565.3
41.67 -966.71 1607.2
55.23 -985.60 1638.6
58.26 -965.45 1605.1
61.58 -952.50 1583.6
63.84 -925.64 1538.9
77.69 -948.58 1577.1
84.56 -980.92 1630.8
88.46 -977.22 1624.7
91.39 -963.73 1602.3
94.21 -950.24 1579.8
120.68 -965.46 1605.1
126.22 -976.12 1622.9
131.58 -984.71 1637.1
132.26 -958.85 1594.2
147.22 -923.11 1534.7
162.01 -916.76 1524.2
169.00 -933.51 1552.0
181.16 -977.44 1625.1
187.09 -986.47 1640.1
183.34 -945.22 1571.5
182.80 -921.94 1532.8
190.57 -940.70 1564.0
194.05 -937.92 1559.3
213.69 -918.10 1526.4
212.02 -894.32 1486.9
220.38 -913.00 1517.9
227.77 -927.07 1541.3
234.26 -937.03 1557.9
242.13 -952.10 1582.9
248.01 -958.98 1594.4
254.49 -967.89 1609.2
248.76 -930.84 1547.6
249.23 -917.79 1525.9
265.78 -963.44 1601.8
265.60 -919.70 1529.1
274.11 -935.20 1554.8
294.25 -935.14 1554.7
301.85 -921.43 1531.9
295.25 -889.59 1479.0
306.67 -900.60 1497.3
327.76 -950.50 1580.3
327.30 -937.45 1558.6
339.46 -960.42 1596.7
345.33 -942.55 1567.1
338.37 -912.81 1517.6
339.50 -905.35 1505.2
346.14 -912.56 1517.2
358.85 -935.43 1555.2
376.15 -938.36 1560.1
392.50 -968.72 1610.6
383.90 -937.53 1558.7
379.01 -915.93 1522.8
381.66 -903.51 1502.1
391.39 -917.19 1524.9
399.28 -926.32 1540.1
403.95 -927.89 1542.7
405.33 -921.92 1532.8
422.24 -924.14 1536.4
430.86 -934.21 1553.2
443.59 -894.90 1487.8
449.21 -898.42 1493.7
455.73 -888.48 1477.2
480.43 -928.83 1544.2
488.32 -936.28 1556.6
482.40 -917.35 1525.2
487.25 -869.55 1445.7
538.39 -911.73 1515.8
540.52 -908.70 1510.8
536.38 -888.86 1477.8
540.47 -889.28 1478.5
546.04 -879.73 1462.6
544.57 -871.31 1448.6
604.05 -910.00 1512.9
615.38 -921.08 1531.3
626.45 -931.65 1548.9
623.45 -921.27 1531.7
635.93 -933.77 1552.4
655.16 -955.96 1589.3
650.11 -942.66 1567.2
629.47 -907.06 1508.0
689.92 -952.74 1584.0
695.34 -948.94 1577.7
676.29 -886.44 1473.8
669.59 -867.85 1442.9
720.66 -898.89 1494.5
703.07 -863.02 1434.8
709.34 -866.14 1440.0
736.60 -880.88 1464.5
739.79 -880.17 1463.3
734.15 -851.61 1415.9
751.48 -867.38 1442.1
776.29 -891.59 1482.3
794.29 -907.76 1509.2
793.41 -902.31 1500.1
779.64 -882.32 1466.9
765.30 -861.90 1433.0
744.56 -834.48 1387.4
764.30 -828.58 1377.6
768.07 -828.80 1377.9
778.33 -835.98 1389.9
764.32 -817.15 1358.6
754.53 -802.99 1335.0
791.98 -823.95 1369.9
773.89 -801.53 1332.6
922.11 -816.53 1357.5
939.87 -829.09 1378.4
942.33 -803.75 1336.3
951.03 -805.25 1338.8
989.52 -828.77 1377.9
984.75 -821.81 1366.3
1046.89 -812.30 1350.5
1074.27 -830.77 1381.2
1088.42 -838.92 1394.7
1080.33 -829.92 1379.8
1036.65 -788.53 1311.0
1068.77 -810.31 1347.2
1099.89 -831.19 1381.9
1110.81 -836.71 1391.1
1056.14 -777.86 1293.2
-1472.07 -1099.33 1819.9
-1504.09 -1126.86 1865.4
-1390.29 -1044.96 1729.8
-1387.24 -1046.04 1731.6
-1461.49 -1105.60 1830.2
-1346.14 -1038.58 1719.3
-1348.06 -1043.52 1727.5
-1348.29 -1047.17 1733.5
-1377.79 -1073.66 1777.4
-1278.37 -1009.70 1671.5
-1268.47 -1008.71 1669.9
-1255.09 -1001.49 1657.9
-1221.68 -978.18 1619.3
-1230.62 -988.74 1636.8
-1243.27 -1002.36 1659.3
-1214.37 -982.46 1626.4
-1097.24 -913.06 1511.5
-1097.56 -916.60 1517.4
-1058.49 -887.15 1468.6
-1062.53 -893.76 1479.5
-1075.94 -908.31 1503.6
-1078.83 -914.06 1513.2
-1065.06 -905.69 1499.3
-1024.98 -901.21 1491.9
-1052.49 -943.19 1561.4
-1066.88 -959.78 1588.9
-1045.56 -955.36 1581.5
-1022.32 -937.80 1552.5
-975.73 -920.43 1523.7
-1000.96 -948.06 1569.5
-995.91 -947.13 1567.9
-985.63 -941.19 1558.1
-970.63 -930.69 1540.7
-972.59 -944.22 1563.1
-970.37 -946.01 1566.0
-937.31 -917.61 1519.0
-928.17 -912.51 1510.6
-947.37 -935.33 1548.4
-953.46 -945.35 1565.0
-935.98 -931.98 1542.8
-916.07 -952.87 1577.4
-943.39 -985.69 1631.7
-928.05 -974.04 1612.4
-905.31 -954.47 1580.0
-880.94 -933.00 1544.5
-872.28 -932.30 1543.4
-888.13 -953.61 1578.6
-871.83 -940.45 1556.8
-867.25 -939.86 1555.9
-885.84 -964.49 1596.6
-878.19 -960.64 1590.3
-827.13 -909.07 1504.9
-832.55 -923.74 1529.2
-844.44 -941.41 1558.4
-857.04 -960.05 1589.3
-852.80 -959.92 1589.1
-849.39 -960.72 1590.4
-843.08 -958.23 1586.3
-851.63 -972.69 1610.2
-857.61 -984.35 1629.5
-811.14 -935.62 1548.9
-827.33 -968.68 1603.6
-808.56 -951.49 1575.1
-788.71 -932.84 1544.2
-792.92 -942.61 1560.4
-811.36 -969.47 1604.9
-814.18 -977.85 1618.8
-779.53 -941.09 1557.9
-759.81 -926.89 1534.4
-750.81 -930.53 1540.4
-769.25 -958.48 1586.7
-776.42 -972.62 1610.1
-755.38 -951.37 1574.9
-733.74 -929.14 1538.1
-717.11 -923.14 1528.2
-712.59 -922.40 1527.0
-718.40 -935.12 1548.0
-731.83 -957.95 1585.8
-705.42 -933.87 1546.0
-706.77 -951.90 1575.8
-711.77 -964.20 1596.2
-703.54 -958.63 1586.9
-684.41 -938.04 1552.9
-673.80 -940.09 1556.3
-672.70 -955.73 1582.1
-678.26 -969.53 1605.0
-688.45 -990.17 1639.2
-675.59 -977.72 1618.5
-650.45 -947.22 1568.1
-650.17 -952.76 1577.2
-649.84 -958.30 1586.4
-643.87 -955.55 1581.8
-626.14 -935.19 1548.1
-624.18 -938.28 1553.3
-666.82 -1008.89 1670.1
-644.34 -987.71 1635.1
-645.94 -996.71 1650.0
-644.30 -1000.81 1656.8
-612.17 -957.29 1584.7
-600.04 -944.66 1563.8
-624.60 -990.01 1638.9
-616.13 -983.28 1627.7
-595.46 -956.84 1584.0
-587.78 -951.06 1574.4
-561.93 -935.21 1548.2
-591.87 -992.13 1642.4
-566.60 -956.65 1583.7
-545.68 -928.06 1536.3
-564.57 -967.24 1601.2
-565.64 -976.25 1616.1
-548.97 -954.54 1580.2
-537.36 -955.77 1582.2
-558.25 -1000.55 1656.3
-560.33 -1012.08 1675.4
-544.29 -990.78 1640.2
-529.78 -971.95 1609.0
-528.87 -977.99 1619.0
-527.11 -982.54 1626.5
-504.89 -948.70 1570.5
-489.20 -934.30 1546.7
-503.62 -969.77 1605.4
-499.99 -970.81 1607.1
-491.05 -977.91 1618.9
-494.84 -993.96 1645.4
-486.14 -984.97 1630.5
-476.77 -974.46 1613.1
-480.87 -991.52 1641.4
-461.48 -977.49 1618.2
-443.88 -948.84 1570.7
-437.07 -969.87 1605.6
-435.14 -974.88 1613.8
-441.19 -998.03 1652.2
-410.75 -957.06 1584.3
-403.40 -949.43 1571.7
-406.74 -967.04 1600.9
-404.04 -970.52 1606.6
-399.01 -968.43 1603.2
-385.34 -945.09 1564.5
-384.11 -952.09 1576.1
-392.72 -983.91 1628.8
-367.76 -962.78 1593.8
-363.78 -963.18 1594.5
-358.65 -960.54 1590.1
-346.80 -939.60 1555.4
-345.88 -948.11 1569.5
-361.74 -1003.39 1661.0
-357.93 -1004.80 1663.4
-327.05 -952.52 1576.8
-326.88 -964.09 1596.0
-329.34 -983.81 1628.6
-296.78 -960.40 1589.9
-299.76 -983.72 1628.5
-289.32 -991.35 1641.1
-278.69 -969.17 1604.4
-265.78 -938.27 1553.2
-262.55 -941.13 1558.0
-275.18 -1001.83 1658.5
-258.29 -970.68 1606.9
-254.60 -972.51 1609.9
-248.79 -966.13 1599.4
-235.62 -930.52 1540.4
-232.59 -934.37 1546.8
-234.67 -959.25 1588.0
-208.98 -936.38 1550.1
-214.57 -980.29 1622.8
-210.41 -980.53 1623.2
-201.93 -960.20 1589.5
-201.99 -980.48 1623.1
-202.08 -1001.79 1658.4
-192.85 -976.82 1617.0
-162.16 -944.57 1563.7
-158.73 -973.27 1611.2
-153.85 -968.81 1603.8
-145.73 -943.21 1561.4
-136.18 -933.22 1544.9
-120.03 -964.39 1596.5
-113.43 -943.88 1562.5
-108.43 -935.75 1549.1
-105.87 -948.77 1570.6
-89.92 -952.32 1576.5
-88.73 -984.44 1629.7
-82.51 -961.30 1591.4
-65.22 -949.75 1572.2
-62.71 -974.11 1612.6
-48.10 -933.99 1546.2
-45.61 -966.09 1599.3
-41.58 -968.73 1603.7
-36.74 -951.20 1574.6
8.21 -956.03 1582.6
11.99 -931.20 1541.5
16.35 -952.38 1576.6
20.83 -970.46 1606.5
25.03 -971.98 1609.0
28.78 -957.99 1585.9
45.39 -961.44 1591.6
51.46 -999.12 1654.0
54.53 -977.35 1617.9
56.45 -939.56 1555.4
76.46 -937.63 1552.2
82.60 -962.33 1593.1
85.98 -953.97 1579.2
100.48 -936.50 1550.3
103.68 -929.16 1538.2
110.83 -956.39 1583.2
113.18 -941.81 1559.1
128.89 -968.74 1603.7
132.60 -965.50 1598.3
146.21 -946.30 1566.5
153.27 -965.20 1597.8
157.22 -963.99 1595.8
161.93 -967.42 1601.5
167.29 -974.44 1613.1
170.35 -968.07 1602.6
170.10 -943.68 1562.2
174.97 -948.11 1569.5
181.63 -961.81 1592.2
180.97 -916.63 1517.4
191.39 -948.82 1570.7
192.35 -933.69 1545.7
214.34 -942.31 1559.9
221.31 -954.90 1580.8
220.86 -935.65 1548.9
224.94 -935.91 1549.3
228.02 -932.07 1543.0
228.25 -916.94 1517.9
229.39 -905.91 1499.7
267.17 -972.65 1610.1
270.37 -926.42 1533.6
296.86 -910.10 1506.6
311.34 -918.25 1520.1
328.79 -957.61 1585.3
325.17 -935.36 1548.4
336.26 -932.73 1544.1
336.61 -922.71 1527.5
330.12 -894.40 1480.6
331.17 -886.92 1468.2
371.90 -931.75 1542.4
392.68 -973.35 1611.3
389.26 -954.70 1580.4
381.51 -925.95 1532.8
376.99 -896.31 1483.8
383.02 -901.45 1492.3
392.56 -914.66 1514.1
398.05 -918.26 1520.1
400.03 -913.79 1512.7
396.63 -897.22 1485.3
393.54 -881.67 1459.5
406.66 -902.39 1493.8
418.11 -919.06 1521.4
416.54 -907.04 1501.5
436.97 -917.25 1518.4
439.65 -890.78 1474.6
450.72 -905.33 1498.7
448.83 -893.83 1479.7
458.82 -898.36 1487.2
475.03 -922.35 1526.9
479.01 -914.83 1514.4
476.61 -902.85 1494.6
482.34 -906.32 1500.4
495.04 -922.75 1527.5
495.75 -916.74 1517.6
488.95 -876.35 1450.7
502.75 -894.20 1480.3
543.54 -904.60 1497.5
553.99 -896.39 1483.9
559.32 -898.76 1487.8
572.30 -894.94 1481.5
584.92 -908.58 1504.1
588.56 -890.48 1474.1
590.03 -886.94 1468.3
609.13 -909.79 1506.1
615.90 -914.04 1513.1
629.65 -928.54 1537.1
649.50 -951.79 1575.6
650.45 -947.22 1568.1
640.27 -926.60 1533.9
646.37 -918.31 1520.2
631.06 -880.46 1457.5
657.78 -912.28 1510.2
658.41 -907.75 1502.7
653.70 -895.95 1483.2
676.23 -900.35 1490.5
683.95 -905.46 1498.9
675.94 -879.86 1456.5
692.32 -881.47 1459.2
695.54 -871.29 1442.4
715.53 -882.11 1460.3
728.07 -892.85 1478.0
732.88 -894.04 1480.0
711.37 -854.38 1414.4
711.39 -832.94 1378.9
722.49 -841.70 1393.4
742.21 -860.37 1424.3
761.24 -878.06 1453.6
772.17 -886.29 1467.2
759.66 -867.65 1436.3
742.13 -839.40 1389.6
741.77 -834.93 1382.2
780.07 -869.64 1439.6
780.60 -866.09 1433.8
789.30 -863.41 1429.3
795.88 -827.86 1370.5
973.06 -833.54 1379.9
958.58 -818.13 1354.4
1015.87 -857.60 1419.7
1025.35 -862.48 1427.8
1011.76 -847.99 1403.8
988.07 -825.16 1366.0
1024.79 -793.28 1313.2
1035.49 -798.91 1322.5
1026.92 -781.94 1294.4
1060.75 -805.06 1332.7
1087.37 -822.59 1361.7
1081.03 -789.59 1307.1
-1451.50 -1095.65 1806.0
-1409.28 -1074.18 1770.6
-1494.83 -1143.11 1884.2
-1263.60 -995.56 1641.0
-1283.66 -1014.79 1672.7
-1206.05 -969.82 1598.6
-1239.35 -1000.03 1648.4
-1244.95 -1008.02 1661.6
-1205.84 -979.75 1615.0
-1162.61 -947.91 1562.5
-1140.98 -933.53 1538.8
-1083.67 -905.64 1492.8
-1117.69 -937.42 1545.2
-1111.64 -935.70 1542.4
-1075.25 -908.34 1497.3
-1051.56 -891.54 1469.6
-1045.66 -889.76 1466.6
-1025.77 -909.21 1498.7
-1050.08 -945.07 1557.8
-1087.37 -982.41 1619.4
-1022.65 -927.52 1528.9
-1010.74 -923.88 1522.9
-1064.83 -977.14 1610.7
-1033.69 -952.30 1569.7
-998.97 -935.03 1541.3
-1002.67 -942.27 1553.2
-1010.66 -953.61 1571.9
-994.08 -941.76 1552.4
-980.45 -932.62 1537.3
-977.85 -933.94 1539.5
-956.86 -936.84 1544.2
-948.60 -932.65 1537.3
-939.43 -927.54 1528.9
-958.10 -949.98 1565.9
-954.45 -950.39 1566.6
-926.39 -926.39 1527.0
-881.35 -904.55 1491.0
-889.06 -916.47 1510.7
-894.22 -938.32 1546.7
-909.97 -959.16 1581.0
-873.65 -937.77 1545.8
-900.30 -970.83 1600.3
-896.06 -970.74 1600.1
-867.73 -944.42 1556.7
-866.15 -947.10 1561.2
-884.19 -971.37 1601.2
-857.40 -946.38 1560.0
-839.26 -930.74 1534.2
-848.65 -945.64 1558.7
-818.00 -915.85 1509.6
-814.94 -925.71 1525.9
-818.28 -934.04 1539.6
-838.46 -961.76 1585.3
-849.81 -979.59 1614.7
-810.77 -939.21 1548.2
-832.99 -979.50 1614.6
-827.47 -977.92 1612.0
-797.15 -946.87 1560.8
-790.17 -943.36 1555.0
-785.18 -942.22 1553.1
-774.05 -938.49 1547.0
-782.41 -953.56 1571.8
-786.75 -963.87 1588.8
-790.24 -973.24 1604.2
-770.09 -953.44 1571.6
-750.89 -939.61 1548.8
-725.73 -913.02 1505.0
-731.50 -925.24 1525.1
-737.17 -937.49 1545.3
-726.09 -938.70 1547.3
-728.19 -946.64 1560.4
-719.16 -940.13 1549.7
-717.52 -943.26 1554.8
-679.07 -963.04 1587.4
-677.93 -985.32 1624.1
-671.52 -982.09 1618.8
-661.80 -973.97 1605.5
-651.82 -965.35 1591.2
-635.98 -947.89 1562.5
-656.12 -996.96 1643.3
-655.19 -1002.05 1651.7
-625.91 -969.95 1598.8
-630.06 -982.90 1620.2
-620.32 -974.19 1605.8
-629.03 -994.55 1639.4
-633.24 -1008.02 1661.6
-605.64 -970.68 1600.0
-577.71 -932.30 1536.8
-588.01 -989.89 1631.7
-555.48 -941.89 1552.6
-549.56 -974.21 1605.8
-544.60 -972.80 1603.5
-542.15 -975.87 1608.6
-549.84 -997.39 1644.0
-540.44 -987.99 1628.6
-525.42 -968.09 1595.8
-523.73 -972.65 1603.3
-524.15 -981.20 1617.4
-501.78 -970.39 1599.5
-507.94 -990.47 1632.6
-474.46 -940.88 1550.9
-493.03 -986.07 1625.4
-502.78 -1014.23 1671.8
-486.36 -989.64 1631.3
-470.63 -966.02 1592.3
-459.21 -950.93 1567.5
-465.17 -980.63 1616.4
-457.90 -974.07 1605.6
-442.69 -950.37 1566.5
-436.52 -945.80 1559.0
-438.63 -977.52 1611.3
-423.66 -953.23 1571.3
-424.26 -982.95 1620.2
-418.96 -980.37 1616.0
-410.68 -970.70 1600.0
-413.94 -988.38 1629.2
-409.27 -987.31 1627.4
-401.90 -979.64 1614.8
-387.18 -953.69 1572.0
-384.09 -956.14 1576.1
-387.64 -975.36 1607.7
-370.83 -975.00 1607.1
-371.80 -988.65 1629.6
-356.74 -959.52 1581.6
-342.90 -943.99 1556.0
-347.11 -990.53 1632.7
-317.90 -953.71 1572.0
-317.48 -964.80 1590.3
-314.13 -967.20 1594.3
-300.76 -938.38 1546.8
-290.10 -956.09 1576.0
-296.84 -992.29 1635.6
-277.93 -985.38 1624.2
-260.83 -938.97 1547.8
-260.26 -951.59 1568.6
-260.01 -965.75 1591.9
-244.67 -938.57 1547.1
-240.47 -937.82 1545.9
-232.07 -936.29 1543.3
-235.66 -967.43 1594.7
-215.38 -969.22 1597.6
-216.57 -993.69 1637.9
-207.97 -973.31 1604.4
-201.49 -962.20 1586.0
-202.60 -987.70 1628.1
-201.85 -1004.95 1656.5
-192.12 -977.31 1611.0
-160.31 -987.18 1627.2
-159.06 -1005.97 1658.2
-154.71 -1005.64 1657.6
-144.87 -968.58 1596.6
-107.06 -927.82 1529.4
-105.35 -948.13 1562.9
-102.42 -958.61 1580.1
-98.65 -961.83 1585.4
-95.72 -973.85 1605.3
-93.96 -999.35 1647.3
-89.23 -994.27 1638.9
-79.85 -934.26 1540.0
-65.00 -950.66 1567.0
-63.37 -988.58 1629.5
-57.91 -967.91 1595.5
-53.06 -955.01 1574.2
-24.96 -973.48 1604.6
-21.65 -1013.44 1670.5
-16.73 -978.71 1613.3
-11.89 -927.38 1528.6
-8.09 -946.06 1559.4
-4.16 -973.04 1603.9
0.00 -967.86 1595.4
24.99 -974.51 1606.3
29.77 -995.23 1640.5
33.53 -980.67 1616.5
36.60 -951.59 1568.6
40.60 -949.99 1565.9
44.95 -956.16 1576.1
49.35 -962.33 1586.3
52.71 -948.79 1563.9
54.93 -918.14 1513.4
58.98 -920.15 1516.7
64.79 -947.55 1561.9
82.11 -960.69 1583.6
103.36 -967.41 1594.6
106.56 -959.01 1580.8
112.55 -975.45 1607.9
113.48 -948.40 1563.3
114.31 -922.39 1520.4
121.22 -945.54 1558.6
128.06 -966.62 1593.3
131.39 -960.78 1583.7
147.32 -957.55 1578.4
157.76 -997.70 1644.6
173.32 -989.20 1630.5
171.30 -954.39 1573.2
171.74 -934.58 1540.5
190.55 -948.72 1563.8
197.21 -961.39 1584.7
194.58 -929.20 1531.6
218.30 -963.82 1588.7
221.41 -959.45 1581.5
215.05 -914.92 1508.1
219.49 -901.05 1485.2
223.66 -902.34 1487.4
227.45 -902.08 1487.0
240.25 -921.61 1519.1
249.42 -941.37 1551.7
250.05 -928.76 1530.9
251.27 -918.72 1514.4
278.90 -919.20 1515.2
285.57 -928.10 1529.8
290.71 -931.88 1536.1
312.43 -949.46 1565.0
328.12 -984.37 1622.6
323.07 -956.93 1577.4
312.36 -913.67 1506.0
342.85 -955.07 1574.3
339.01 -933.28 1538.4
327.70 -891.64 1469.7
368.66 -927.61 1529.0
381.64 -950.05 1566.0
380.79 -937.95 1546.1
378.10 -893.69 1473.1
386.28 -903.91 1490.0
411.33 -934.48 1540.3
435.23 -969.94 1598.8
425.66 -939.68 1548.9
423.70 -926.59 1527.4
419.76 -909.48 1499.1
426.49 -915.58 1509.2
447.47 -951.90 1569.1
455.13 -959.47 1581.5
439.48 -918.20 1513.5
457.40 -938.87 1547.6
454.99 -925.80 1526.1
454.22 -916.27 1510.3
466.93 -933.85 1539.3
474.21 -940.37 1550.1
456.28 -897.23 1479.0
462.16 -879.23 1449.3
477.58 -901.24 1485.6
491.04 -919.22 1515.2
500.62 -901.11 1485.3
509.47 -910.04 1500.1
521.54 -884.36 1457.7
540.00 -902.58 1487.8
576.33 -956.47 1576.6
555.78 -878.73 1448.5
556.97 -874.71 1441.8
599.82 -894.00 1473.6
619.09 -916.88 1511.3
636.71 -919.70 1516.0
625.24 -897.58 1479.5
625.55 -892.56 1471.3
630.29 -893.87 1473.4
630.21 -888.36 1464.3
647.43 -907.18 1495.4
663.75 -924.51 1523.9
648.62 -898.09 1480.4
672.58 -915.02 1508.3
684.87 -875.73 1443.5
691.48 -879.38 1449.5
722.77 -914.21 1506.9
714.30 -898.63 1481.3
691.61 -860.83 1419.0
708.27 -876.90 1445.4
719.93 -838.13 1381.5
740.08 -857.32 1413.2
748.87 -863.23 1422.9
735.04 -843.13 1389.8
733.48 -837.24 1380.1
760.95 -864.38 1424.8
778.18 -879.68 1450.0
805.98 -906.73 1494.6
803.67 -891.27 1469.1
790.63 -872.68 1438.5
773.19 -849.42 1400.1
791.30 -845.50 1393.7
795.97 -846.62 1395.5
795.37 -842.16 1388.2
780.61 -822.80 1356.3
777.68 -816.04 1345.1
795.15 -830.65 1369.2
944.83 -809.86 1334.9
929.71 -793.99 1308.8
945.10 -801.28 1320.8
970.08 -819.49 1350.8
973.67 -819.56 1350.9
996.19 -835.52 1377.2
997.72 -833.81 1374.4
965.62 -787.30 1297.7
980.34 -791.03 1303.9
989.23 -795.47 1311.2
1010.20 -782.74 1290.2
1008.60 -778.92 1283.9
1010.33 -777.69 1281.9
1004.23 -767.94 1265.8
1017.88 -756.14 1246.4
1073.34 -789.81 1301.9
1065.77 -781.79 1288.7
-1417.91 -1061.18 1741.7
-1402.01 -1066.25 1750.1
-1424.48 -1090.40 1789.7
-1402.44 -1080.57 1773.6
-1256.53 -1014.72 1665.5
-1239.96 -1004.80 1649.2
-1101.97 -908.64 1491.4
-1088.20 -910.06 1493.7
-1099.63 -922.91 1514.8
-1124.65 -947.28 1554.8
-1142.17 -965.50 1584.7
-1130.29 -958.91 1573.9
-1079.35 -919.01 1508.4
-1045.82 -893.70 1466.9
-1072.60 -919.93 1509.9
-1115.78 -960.47 1576.5
-1124.13 -971.21 1594.1
-1102.57 -956.10 1569.3
-1093.93 -952.12 1562.8
-1052.14 -936.57 1537.2
-1073.83 -959.50 1574.9
-1024.61 -919.02 1508.4
-1039.69 -936.12 1536.5
-1067.13 -964.52 1583.1
-1051.61 -954.16 1566.1
-1042.10 -949.20 1558.0
-1036.09 -947.39 1555.0
-1016.27 -932.90 1531.2
-1002.94 -924.28 1517.0
-998.97 -924.24 1517.0
-985.67 -919.17 1508.7
-1027.37 -961.88 1578.8
-1018.91 -957.78 1572.0
-1003.72 -947.28 1554.8
-1009.77 -956.84 1570.5
-990.32 -942.21 1546.5
-933.76 -921.99 1513.3
-961.35 -953.24 1564.6
-983.63 -979.47 1607.6
-984.97 -984.97 1616.7
-955.91 -959.99 1575.7
-927.47 -935.43 1535.4
-888.21 -915.48 1502.6
-913.84 -946.04 1552.8
-923.60 -960.38 1576.3
-899.37 -939.34 1541.8
-866.84 -909.41 1492.6
-883.21 -930.73 1527.6
-901.63 -954.43 1566.5
-867.35 -930.72 1527.6
-899.78 -969.95 1592.0
-890.80 -964.69 1583.4
-895.23 -973.97 1598.6
-875.52 -956.96 1570.7
-857.20 -941.32 1545.0
-857.77 -946.36 1553.3
-860.42 -953.77 1565.5
-873.17 -972.49 1596.2
-869.77 -973.31 1597.5
-826.05 -928.81 1524.5
-828.68 -940.78 1544.1
-836.99 -954.82 1567.2
-836.52 -958.93 1573.9
-830.25 -956.41 1569.8
-810.81 -943.27 1548.2
-800.38 -954.77 1567.1
-777.62 -946.85 1554.1
-784.38 -960.05 1575.8
-785.59 -966.57 1586.5
-796.06 -984.60 1616.1
-782.85 -973.38 1597.6
-728.82 -920.83 1511.4
-750.49 -953.32 1564.7
-746.63 -953.58 1565.1
-715.73 -919.11 1508.6
-708.21 -924.61 1517.6
-702.60 -922.41 1514.0
-713.14 -941.50 1545.3
-710.03 -942.70 1547.3
-700.02 -934.68 1534.1
-694.17 -937.53 1538.8
-698.56 -948.92 1557.5
-710.84 -994.33 1632.0
-692.79 -986.70 1619.5
-665.15 -970.87 1593.5
-654.14 -960.76 1576.9
-639.87 -945.73 1552.3
-625.43 -954.39 1566.5
-599.47 -939.17 1541.5
-597.12 -941.77 1545.8
-603.78 -958.70 1573.6
-607.52 -971.20 1594.1
-605.01 -973.81 1598.4
-599.72 -971.97 1595.3
-579.57 -945.82 1552.4
-555.48 -945.92 1552.6
-550.34 -944.01 1549.4
-541.22 -956.29 1569.6
-536.63 -955.37 1568.1
-524.32 -962.62 1580.0
-519.45 -961.18 1577.6
-520.76 -971.25 1594.2
-524.65 -986.35 1618.9
-510.69 -967.84 1588.6
-508.16 -995.15 1633.4
-489.93 -967.52 1588.0
-462.15 -944.39 1550.1
-453.23 -934.29 1533.5
-457.64 -977.68 1604.7
-449.01 -968.06 1588.9
-448.14 -975.12 1600.5
-443.29 -973.59 1598.0
-447.14 -991.29 1627.0
-444.95 -995.83 1634.5
-426.56 -963.86 1582.0
-398.40 -936.24 1536.7
-406.59 -965.13 1584.1
-412.00 -987.95 1621.6
-409.45 -991.96 1628.1
-406.24 -994.45 1632.2
-393.96 -974.53 1599.5
-374.09 -935.23 1535.0
-392.25 -1012.96 1662.6
-383.03 -1000.12 1641.5
-373.71 -986.76 1619.6
-357.09 -999.01 1639.7
-350.45 -992.24 1628.6
-334.40 -958.33 1572.9
-328.10 -988.50 1622.5
-321.83 -982.20 1612.1
-313.95 -970.76 1593.3
-286.09 -960.45 1576.4
-288.44 -982.37 1612.4
-292.39 -1010.48 1658.5
-276.91 -1001.15 1643.2
-261.51 -960.24 1576.1
-240.65 -927.08 1521.6
-241.38 -945.40 1551.7
-202.12 -949.98 1559.2
-203.85 -977.63 1604.6
-198.57 -972.17 1595.7
-191.58 -957.90 1572.2
-191.19 -976.75 1603.2
-188.47 -984.21 1615.4
-181.89 -971.48 1594.5
-180.83 -988.26 1622.1
-177.77 -994.68 1632.6
-159.79 -988.20 1622.0
-143.67 -993.04 1629.9
-134.44 -957.40 1571.4
-131.94 -968.97 1590.4
-127.50 -966.52 1586.4
-119.36 -935.00 1534.6
-103.91 -939.14 1541.5
-101.97 -958.48 1573.2
-97.21 -951.84 1562.3
-93.63 -956.63 1570.2
-68.60 -948.35 1556.6
-66.13 -971.31 1594.2
-63.10 -988.54 1622.5
-58.93 -989.13 1623.5
-55.21 -998.04 1638.1
-50.54 -989.78 1624.6
-36.70 -958.20 1572.7
-33.67 -988.93 1623.2
-29.46 -988.97 1623.2
-24.85 -973.39 1597.7
-20.83 -979.14 1607.1
-16.95 -995.81 1634.5
-12.71 -995.83 1634.5
-8.55 -1004.69 1649.0
0.00 -986.49 1619.2
4.01 -942.26 1546.6
8.02 -942.77 1547.4
12.13 -950.04 1559.3
41.13 -966.48 1586.3
46.94 -1002.84 1646.0
50.22 -983.54 1614.3
56.63 -950.65 1560.3
63.20 -990.10 1625.1
66.84 -981.71 1611.3
76.49 -946.11 1552.9
82.59 -970.45 1592.8
85.50 -956.84 1570.5
101.24 -991.33 1627.1
104.07 -978.22 1605.6
105.69 -955.25 1567.9
109.92 -956.68 1570.2
114.59 -961.75 1578.5
119.31 -966.80 1586.9
125.19 -980.68 1609.6
130.92 -992.47 1629.0
134.56 -988.17 1621.9
136.34 -970.89 1593.6
137.22 -948.42 1556.7
140.61 -944.11 1549.6
148.50 -969.36 1591.1
167.88 -986.27 1618.8
188.11 -920.94 1511.6
198.24 -950.73 1560.5
202.23 -950.50 1560.1
207.01 -953.89 1565.7
207.02 -935.56 1535.6
210.60 -933.77 1532.6
218.19 -949.55 1558.5
216.01 -922.95 1514.9
217.79 -913.93 1500.1
228.25 -941.04 1544.6
229.90 -931.49 1528.9
247.51 -938.15 1539.8
249.91 -932.19 1530.0
246.92 -906.67 1488.1
279.38 -951.51 1561.8
284.25 -954.28 1566.3
288.22 -953.96 1565.8
289.03 -943.36 1548.4
287.52 -925.57 1519.2
287.80 -913.95 1500.1
317.21 -955.69 1568.6
310.64 -924.07 1516.7
308.53 -906.30 1487.5
316.50 -918.25 1507.2
340.51 -964.10 1582.4
346.77 -958.73 1573.6
335.37 -916.43 1504.2
334.41 -903.28 1482.6
335.05 -894.74 1468.6
340.65 -899.47 1476.3
348.63 -910.32 1494.1
355.51 -918.09 1506.9
351.68 -898.32 1474.4
352.93 -891.81 1463.8
375.72 -939.30 1541.7
384.70 -951.62 1561.9
385.87 -944.57 1550.4
391.39 -948.22 1556.3
381.32 -896.11 1470.8
444.45 -976.12 1602.1
443.72 -965.51 1584.7
453.24 -977.16 1603.9
447.72 -947.87 1555.8
443.82 -931.23 1528.5
457.26 -950.93 1560.8
469.14 -967.08 1587.3
461.41 -942.87 1547.6
454.48 -920.70 1511.2
461.41 -926.76 1521.1
471.42 -938.84 1541.0
455.79 -900.10 1477.4
468.07 -887.06 1456.0
483.84 -909.63 1493.0
486.90 -908.11 1490.5
540.47 -927.09 1521.7
549.63 -935.97 1536.2
531.51 -898.59 1474.9
580.47 -940.76 1544.1
560.18 -889.48 1459.9
574.88 -906.68 1488.2
561.33 -879.42 1443.4
604.92 -899.72 1476.8
619.49 -904.22 1484.1
640.45 -929.05 1524.9
630.03 -908.33 1490.9
632.77 -906.71 1488.2
639.95 -911.44 1496.0
637.16 -902.00 1480.5
649.20 -913.55 1499.4
659.94 -923.13 1515.2
674.60 -916.36 1504.1
672.31 -858.65 1409.3
704.24 -894.58 1468.3
723.87 -914.57 1501.1
706.54 -887.90 1457.3
689.01 -861.26 1413.6
719.77 -885.58 1453.5
709.66 -868.60 1425.7
710.82 -865.51 1420.6
721.04 -873.42 1433.6
761.60 -908.51 1491.2
756.01 -897.29 1472.8
745.50 -880.37 1445.0
717.41 -830.50 1363.1
743.81 -856.84 1406.4
781.96 -896.39 1471.3
783.46 -893.75 1466.9
774.94 -879.76 1444.0
773.01 -873.35 1433.5
770.61 -866.48 1422.2
769.43 -861.03 1413.2
752.07 -833.66 1368.3
784.35 -853.34 1400.6
786.43 -851.67 1397.9
797.20 -859.36 1410.5
806.27 -865.17 1420.0
795.67 -849.92 1395.0
777.93 -827.21 1357.7
770.76 -812.23 1333.2
772.20 -810.12 1329.7
941.99 -841.70 1381.5
944.79 -837.83 1375.2
929.55 -800.17 1313.3
955.90 -819.84 1345.6
980.29 -837.70 1375.0
947.43 -806.69 1324.1
1000.19 -827.63 1358.4
1017.12 -838.68 1376.6
998.27 -820.26 1346.3
1007.10 -816.10 1339.5
1023.09 -826.21 1356.1
1029.92 -828.87 1360.5
1044.37 -837.64 1374.8
1053.97 -842.46 1382.8
1053.75 -839.43 1377.8
1029.39 -817.25 1341.4
1011.40 -792.26 1300.4
1024.27 -799.68 1312.5
1042.19 -810.98 1331.1
1052.93 -816.63 1340.4
1040.24 -804.14 1319.9
1018.53 -784.77 1288.1
1016.39 -755.86 1240.6
1119.08 -829.60 1361.7
1116.84 -825.34 1354.7
1077.65 -793.88 1303.0
-1488.89 -1122.61 1834.8
-1431.15 -1082.53 1769.3
-1397.21 -1063.68 1738.5
-1479.52 -1137.35 1858.9
-1393.83 -1074.98 1756.9
-1404.03 -1097.19 1793.2
-1355.56 -1066.38 1742.9
-1341.94 -1059.19 1731.1
-1358.62 -1075.96 1758.5
-1269.40 -1025.95 1676.8
-1212.76 -990.35 1618.6
-1140.71 -941.28 1538.4
-1146.92 -949.73 1552.2
-1103.08 -916.65 1498.1
-1112.84 -931.31 1522.1
-1121.08 -941.55 1538.8
-1125.57 -948.69 1550.5
-1136.31 -961.18 1570.9
-1141.73 -969.24 1584.1
-1118.90 -953.29 1558.0
-1055.00 -902.10 1474.4
-1037.66 -890.50 1455.4
-1082.58 -932.44 1524.0
-1097.26 -948.55 1550.3
-1074.21 -932.03 1523.3
-1071.30 -932.94 1524.8
-1085.31 -948.64 1550.4
-1070.07 -938.80 1534.4
-1017.40 -899.28 1469.8
-1036.37 -919.49 1502.8
-1009.90 -902.79 1475.5
-1061.84 -952.83 1557.3
-1043.28 -939.75 1535.9
-1015.80 -918.50 1501.2
-1039.27 -946.98 1547.7
-1042.10 -956.95 1564.0
-987.30 -910.17 1487.6
-1038.35 -972.42 1589.3
-1029.63 -971.97 1588.6
-1004.28 -951.85 1555.7
-999.74 -951.36 1554.9
-982.05 -949.85 1552.4
-917.08 -909.37 1486.3
-925.66 -921.76 1506.5
-928.15 -928.15 1516.9
-963.33 -967.43 1581.1
-970.66 -978.96 1600.0
-946.78 -958.97 1567.3
-923.93 -939.86 1536.1
-924.87 -944.89 1544.3
-937.56 -962.02 1572.3
-895.91 -923.30 1509.0
-876.14 -906.88 1482.2
-920.63 -957.13 1564.3
-948.23 -990.19 1618.3
-944.42 -990.59 1619.0
-932.62 -982.58 1605.9
-894.24 -959.27 1567.8
-891.26 -969.30 1584.2
-859.47 -939.05 1534.8
-862.81 -951.52 1555.1
-869.32 -963.19 1574.2
-877.43 -976.77 1596.4
-868.12 -970.97 1586.9
-843.25 -947.66 1548.8
-830.30 -937.56 1532.3
-838.72 -951.62 1555.3
-843.30 -961.44 1571.4
-834.53 -956.07 1562.6
-847.69 -975.88 1595.0
-854.95 -989.06 1616.5
-837.13 -973.21 1590.6
-811.56 -952.88 1557.4
-842.72 -1004.46 1641.7
-816.38 -978.00 1598.4
-798.58 -961.55 1571.5
-799.50 -967.60 1581.4
-795.64 -967.90 1581.9
-785.90 -960.99 1570.6
-767.59 -943.50 1542.0
-763.81 -943.77 1542.5
-769.33 -955.58 1561.8
-775.14 -967.90 1581.9
-778.55 -977.33 1597.3
-784.57 -990.15 1618.3
-765.67 -987.42 1613.8
-744.52 -965.42 1577.9
-744.34 -970.52 1586.2
-741.53 -972.23 1589.0
-725.83 -956.96 1564.0
-725.61 -962.05 1572.4
-717.71 -956.94 1564.0
-700.77 -939.66 1535.8
-695.50 -937.93 1532.9
-691.32 -937.65 1532.5
-692.14 -944.20 1543.2
-682.96 -937.09 1531.6
-704.86 -978.52 1599.3
-714.88 -998.30 1631.6
-694.62 -981.62 1604.3
-648.37 -950.41 1553.3
-662.14 -976.65 1596.2
-662.44 -983.24 1607.0
-657.74 -982.44 1605.7
-617.94 -928.88 1518.1
-617.18 -958.25 1566.1
-610.36 -953.94 1559.1
-602.31 -947.64 1548.8
-591.80 -937.35 1532.0
-591.95 -943.92 1542.7
-601.94 -966.38 1579.4
-606.53 -980.41 1602.4
-601.54 -979.06 1600.2
-581.69 -953.33 1558.1
-579.23 -955.93 1562.4
-588.42 -977.94 1598.3
-572.96 -972.80 1589.9
-578.83 -989.88 1617.8
-569.19 -980.50 1602.5
-556.74 -966.10 1579.0
-535.00 -949.33 1551.6
-541.95 -968.93 1583.6
-535.10 -963.99 1575.5
-520.49 -959.66 1568.5
-526.46 -978.31 1598.9
-538.18 -1008.03 1647.5
-528.09 -997.03 1629.5
-500.89 -953.30 1558.1
-497.86 -971.03 1587.0
-502.74 -988.72 1615.9
-498.57 -988.76 1616.0
-477.98 -955.96 1562.4
-465.11 -988.89 1616.2
-460.01 -995.98 1627.8
-448.34 -988.85 1616.2
-446.49 -1003.55 1640.2
-442.91 -1005.05 1642.6
-428.20 -981.11 1603.5
-410.38 -949.51 1551.9
-400.88 -936.71 1530.9
-407.89 -962.63 1573.3
-391.80 -953.24 1558.0
-395.00 -971.03 1587.0
-391.88 -973.51 1591.1
-380.39 -955.03 1560.9
-376.21 -965.07 1577.3
-384.55 -1008.38 1648.1
-369.05 -978.60 1599.4
-350.85 -985.73 1611.1
-345.01 -980.98 1603.3
-322.14 -987.33 1613.7
-316.25 -982.03 1605.0
-290.43 -951.98 1555.9
-291.62 -969.31 1584.2
-294.49 -992.85 1622.7
-274.24 -937.98 1533.0
-251.97 -943.89 1542.7
-255.38 -972.10 1588.8
-248.53 -961.52 1571.5
-206.29 -973.69 1591.4
-206.31 -993.64 1624.0
-198.98 -978.30 1598.9
-191.15 -959.84 1568.7
-189.96 -974.60 1592.9
-191.22 -1002.85 1639.0
-188.27 -1009.82 1650.4
-179.39 -984.58 1609.2
-165.43 -952.23 1556.3
-161.25 -951.38 1554.9
-158.19 -982.43 1605.7
-159.76 -1019.02 1665.5
-155.07 -1016.60 1661.5
-146.43 -1016.42 1661.2
-123.80 -942.44 1540.3
-123.79 -973.83 1591.6
-118.98 -968.24 1582.5
-112.54 -948.58 1550.3
-107.64 -940.89 1537.8
-107.86 -979.05 1600.1
-104.77 -989.07 1616.5
-98.79 -971.47 1587.8
-91.89 -942.92 1541.1
-68.15 -946.08 1546.3
-66.69 -983.71 1607.8
-63.16 -993.69 1624.1
-58.58 -987.50 1614.0
-55.12 -1000.61 1635.4
-50.72 -997.54 1630.4
-40.66 -959.56 1568.3
-37.27 -977.34 1597.4
-34.12 -1006.61 1645.2
-20.82 -982.70 1606.1
-8.61 -1016.15 1660.8
0.00 -1018.77 1665.1
4.21 -994.24 1625.0
8.58 -1012.50 1654.8
12.58 -989.52 1617.3
23.99 -943.53 1542.1
41.61 -981.99 1605.0
45.82 -982.99 1606.6
58.74 -990.11 1618.2
62.96 -990.56 1619.0
64.04 -944.59 1543.8
73.82 -967.90 1581.9
75.40 -936.52 1530.6
91.54 -939.27 1535.1
96.67 -950.63 1553.7
98.92 -933.84 1526.2
106.63 -932.04 1523.3
114.34 -963.69 1575.0
118.59 -965.12 1577.4
124.06 -975.91 1595.0
138.66 -991.60 1620.7
138.49 -961.25 1571.1
143.38 -966.82 1580.1
152.77 -1001.51 1636.8
156.83 -1000.29 1634.9
157.60 -978.78 1599.7
157.85 -955.20 1561.2
176.26 -945.41 1545.2
182.90 -959.23 1567.7
192.12 -944.57 1543.8
204.48 -984.82 1609.6
210.47 -993.40 1623.6
211.60 -979.16 1600.3
222.46 -937.50 1532.2
235.50 -975.04 1593.6
239.05 -972.70 1589.8
244.14 -976.57 1596.1
250.18 -984.05 1608.3
247.69 -927.87 1516.5
250.01 -921.90 1506.7
256.54 -931.43 1522.3
264.01 -944.05 1542.9
265.73 -936.00 1529.8
273.18 -948.09 1549.5
279.37 -955.52 1561.7
279.50 -942.31 1540.1
285.88 -950.24 1553.1
288.86 -946.82 1547.5
289.11 -934.64 1527.6
291.03 -928.14 1516.9
305.31 -912.05 1490.6
326.65 -963.62 1574.9
323.20 -941.67 1539.1
331.31 -930.82 1521.3
340.11 -944.30 1543.3
347.89 -954.68 1560.3
345.37 -936.87 1531.2
343.66 -921.63 1506.3
339.11 -899.22 1469.7
367.78 -923.35 1509.1
383.04 -951.55 1555.2
391.26 -961.84 1572.0
398.83 -960.46 1569.8
378.34 -901.90 1474.0
383.93 -906.06 1480.9
396.52 -926.52 1514.3
389.48 -901.14 1472.8
406.59 -922.66 1508.0
424.10 -953.22 1557.9
431.36 -960.38 1569.6
437.05 -963.97 1575.5
439.76 -960.95 1570.6
440.32 -953.36 1558.2
436.34 -936.14 1530.0
453.23 -938.26 1533.5
450.06 -923.61 1509.5
448.02 -911.49 1489.7
450.93 -886.82 1449.4
476.03 -905.99 1480.7
492.92 -930.63 1521.0
496.85 -930.60 1521.0
493.47 -917.00 1498.7
505.09 -896.26 1464.8
506.03 -891.21 1456.6
568.34 -931.45 1522.3
569.66 -920.81 1505.0
560.84 -894.32 1461.7
590.24 -934.88 1527.9
588.46 -925.84 1513.2
570.13 -891.07 1456.3
563.97 -875.63 1431.1
597.10 -921.02 1505.3
615.43 -943.13 1541.4
618.15 -923.32 1509.1
631.26 -936.96 1531.3
644.52 -938.93 1534.6
619.56 -897.03 1466.1
606.55 -872.84 1426.6
634.16 -907.03 1482.4
652.36 -927.46 1515.8
636.42 -899.37 1469.9
684.64 -933.96 1526.4
690.60 -936.68 1530.9
685.03 -923.82 1509.9
665.22 -892.00 1457.9
650.89 -862.98 1410.4
659.57 -869.61 1421.3
674.70 -874.89 1429.9
675.15 -861.27 1407.6
681.77 -860.42 1406.2
736.79 -915.17 1495.7
729.68 -896.90 1465.9
719.16 -879.39 1437.3
717.58 -872.93 1426.7
735.75 -890.44 1455.3
764.51 -911.23 1489.3
748.01 -887.08 1449.8
754.11 -863.93 1412.0
764.06 -846.57 1383.6
758.01 -835.94 1366.2
754.46 -828.15 1353.5
747.40 -816.61 1334.7
777.04 -845.08 1381.2
815.13 -882.43 1442.2
820.33 -884.01 1444.8
