ply
format ascii 1.0
element vertex 2132
property float x
property float y
property float z
end_header
1550.23 1109.01 2299.8
1576.96 1123.81 2330.5
1656.40 1171.44 2429.3
1594.84 1123.64 2330.1
1599.73 1122.83 2328.5
1567.16 1095.83 2272.5
1567.70 1092.10 2264.7
1614.36 1120.41 2323.4
1618.68 1119.24 2321.0
1614.46 1112.18 2306.4
1626.21 1116.15 2314.6
1639.61 1121.20 2325.1
1657.87 1129.54 2342.4
1695.60 1151.03 2386.9
1677.83 1134.82 2353.3
1737.49 1166.69 2419.4
1636.11 1173.18 2446.0
1586.89 1133.50 2363.3
1578.39 1123.08 2341.6
1650.00 1169.54 2438.4
1642.42 1155.32 2408.8
1591.81 1115.47 2325.7
1605.65 1120.92 2337.1
1642.23 1142.15 2381.3
1691.98 1167.97 2435.2
1629.97 1120.98 2337.2
1656.19 1134.80 2366.0
1702.85 1162.46 2423.7
1690.15 1149.55 2396.8
1682.20 1139.95 2376.7
1668.23 1126.36 2348.4
1774.06 1184.84 2470.3
1696.26 1228.79 2575.9
1626.42 1155.45 2422.1
1598.26 1131.08 2371.0
1612.42 1123.80 2355.8
1641.07 1139.46 2388.6
1696.14 1160.18 2432.1
1711.33 1166.24 2444.8
1679.02 1135.81 2381.0
1676.41 1129.89 2368.5
1667.27 1119.62 2347.0
1693.22 1132.92 2374.9
1796.85 1197.90 2511.1
1757.38 1167.35 2447.1
1704.04 1127.85 2364.3
1593.20 1138.89 2400.5
1645.77 1162.84 2451.0
1637.40 1152.48 2429.1
1601.83 1123.12 2367.2
1594.66 1105.39 2329.9
1610.09 1111.88 2343.5
1626.64 1119.08 2358.7
1659.67 1137.52 2397.6
1695.46 1149.14 2422.1
1631.87 1101.97 2322.6
1627.56 1095.01 2308.0
1659.82 1112.63 2345.1
1660.89 1109.28 2338.1
1697.67 1129.72 2381.1
1789.98 1186.83 2501.5
1730.32 1143.13 2409.4
1740.15 1137.31 2397.1
1671.73 1212.17 2569.0
1576.36 1120.69 2375.1
1640.25 1157.08 2452.2
1614.27 1134.36 2404.0
1621.94 1135.36 2406.2
1642.14 1145.10 2426.8
1611.12 1119.18 2371.9
1578.31 1092.22 2314.7
1564.23 1078.37 2285.4
1568.51 1077.24 2283.0
1576.48 1078.64 2286.0
1611.09 1090.03 2310.1
1621.79 1093.20 2316.8
1628.21 1093.49 2317.4
1692.17 1132.26 2399.6
1696.59 1131.06 2397.1
1670.18 1109.39 2351.1
1675.03 1108.56 2349.4
1715.73 1131.38 2397.8
1734.26 1139.48 2414.9
1741.93 1140.40 2416.9
1651.17 1167.43 2487.8
1649.19 1161.49 2475.2
1626.43 1141.02 2431.5
1586.88 1108.98 2363.3
1586.14 1104.20 2353.1
1602.59 1111.38 2368.4
1576.67 1089.23 2321.2
1594.86 1093.44 2330.1
1658.90 1133.06 2414.6
1652.81 1124.66 2396.7
1594.62 1080.99 2303.6
1675.08 1114.67 2375.4
1713.43 1136.01 2420.9
1714.63 1132.66 2413.7
1746.17 1149.29 2449.2
1791.42 1174.81 2503.5
1804.36 1174.78 2503.5
1806.16 1171.74 2497.0
1665.20 1198.94 2569.2
1624.93 1151.53 2467.6
1703.13 1202.21 2576.2
1701.56 1191.75 2553.8
1661.31 1159.05 2483.7
1678.48 1166.51 2499.7
1679.03 1157.95 2481.3
1588.82 1091.55 2339.0
1611.61 1103.00 2363.6
1662.47 1124.98 2410.7
1655.80 1116.27 2392.0
1646.39 1105.79 2369.5
1671.62 1118.56 2396.9
1683.02 1122.01 2404.3
1625.69 1079.80 2313.8
1646.65 1089.69 2335.1
1690.89 1114.87 2389.0
1698.52 1115.82 2391.0
1725.14 1129.18 2419.7
1775.26 1157.78 2481.0
1788.67 1158.13 2481.7
1805.23 1164.66 2495.7
1789.96 1150.69 2465.8
1708.93 1213.88 2615.7
1714.45 1212.99 2613.8
1696.37 1195.48 2576.0
1698.72 1192.43 2569.5
1713.92 1198.41 2582.4
1688.31 1175.91 2533.9
1663.55 1154.17 2487.0
1631.93 1114.94 2402.5
1684.30 1146.35 2470.2
1642.98 1105.61 2382.4
1628.27 1091.61 2352.2
1647.03 1100.07 2370.5
1702.74 1133.05 2441.5
1718.51 1139.31 2455.0
1666.07 1100.47 2371.3
1664.51 1095.40 2360.4
1681.27 1102.37 2375.4
1717.04 1121.72 2417.1
1773.05 1154.10 2486.9
1767.25 1146.15 2469.8
1746.64 1128.69 2432.1
1804.68 1162.01 2503.9
1797.31 1144.91 2467.1
1559.05 1092.56 2367.5
1566.14 1093.23 2368.9
1596.45 1110.03 2405.4
1680.74 1164.09 2522.5
1679.35 1154.15 2501.0
1620.90 1109.70 2404.6
1652.65 1127.10 2442.3
1672.99 1136.61 2463.0
1656.55 1121.17 2429.5
1647.38 1110.73 2406.9
1670.92 1122.36 2432.1
1659.53 1110.52 2406.4
1629.95 1086.63 2354.7
1634.32 1085.48 2352.2
1652.05 1093.18 2368.8
1630.68 1075.04 2329.5
1647.88 1082.37 2345.4
1714.75 1122.15 2431.6
1706.78 1112.84 2411.5
1719.33 1116.93 2420.3
1786.24 1156.19 2505.4
1787.54 1152.84 2498.1
1786.63 1148.09 2487.8
1696.47 1186.86 2586.4
1554.02 1082.92 2359.9
1577.57 1095.02 2386.2
1591.93 1100.67 2398.5
1659.67 1143.04 2490.9
1651.38 1128.55 2459.3
1550.49 1055.53 2300.2
1603.27 1083.12 2360.3
1637.72 1102.19 2401.9
1588.33 1064.90 2320.6
1570.94 1049.27 2286.6
1643.71 1093.75 2383.5
1706.72 1131.42 2465.6
1638.68 1082.26 2358.4
1586.29 1043.77 2274.6
1639.88 1075.03 2342.7
1735.69 1133.64 2470.4
1770.72 1148.05 2501.8
1733.54 1119.84 2440.3
1748.87 1125.64 2453.0
1775.70 1138.76 2481.6
1802.08 1151.51 2509.3
1812.11 1153.75 2514.2
1819.00 1149.87 2505.8
1666.20 1182.46 2591.4
1683.29 1185.04 2597.1
1669.94 1170.95 2566.2
1550.70 1083.03 2373.5
1644.56 1139.54 2497.4
1613.17 1104.74 2421.1
1545.50 1054.29 2310.5
1551.43 1054.25 2310.5
1545.45 1042.14 2283.9
1666.44 1119.44 2453.3
1683.54 1122.36 2459.7
1588.48 1054.99 2312.1
1581.10 1046.14 2292.7
1682.87 1109.31 2431.1
1669.75 1096.55 2403.2
1624.37 1062.78 2329.2
1683.46 1097.36 2404.9
1746.59 1134.32 2485.9
1767.36 1143.58 2506.2
1781.42 1144.27 2507.7
1753.04 1105.86 2423.6
1652.75 1185.38 2612.7
1676.45 1192.60 2628.6
1652.32 1170.67 2580.3
1679.03 1184.80 2611.4
1697.24 1192.84 2629.1
1542.17 1075.22 2369.9
1557.39 1077.24 2374.3
1618.48 1102.08 2429.1
1563.77 1060.70 2337.9
1580.18 1067.69 2353.3
1579.91 1063.40 2343.8
1633.63 1095.34 2414.2
1687.90 1118.87 2466.1
1598.62 1055.69 2326.8
1627.53 1066.73 2351.2
1686.42 1101.21 2427.1
1715.03 1115.73 2459.2
1715.27 1111.75 2450.4
1713.31 1106.38 2438.6
1804.92 1152.78 2540.8
1632.34 1173.66 2601.7
1616.00 1157.13 2565.1
1652.96 1178.75 2613.0
1676.16 1171.29 2596.5
1696.41 1180.70 2617.3
1597.45 1103.00 2445.1
1675.17 1134.16 2514.2
1664.31 1122.44 2488.2
1554.68 1044.45 2315.3
1559.29 1035.56 2295.6
1629.57 1078.12 2389.9
1665.79 1097.91 2433.8
1623.09 1065.73 2362.4
1624.29 1062.51 2355.3
1653.74 1077.72 2389.0
1677.96 1089.42 2415.0
1686.18 1090.69 2417.8
1661.59 1070.80 2373.7
1699.39 1091.12 2418.7
1783.87 1132.82 2511.2
1708.89 1081.26 2396.9
1723.63 1082.71 2400.1
1581.18 1149.35 2562.5
1595.75 1145.50 2554.0
1616.14 1155.34 2575.9
1632.13 1161.97 2590.7
1627.65 1149.32 2562.5
1649.22 1159.81 2585.9
1585.61 1110.57 2476.1
1547.88 1079.77 2407.4
1692.03 1170.89 2610.6
1681.21 1158.76 2583.5
1622.66 1113.97 2483.7
1627.55 1104.18 2461.8
1680.07 1126.56 2511.7
1541.15 1029.41 2295.1
1566.27 1030.28 2297.1
1653.71 1083.68 2416.1
1662.46 1085.31 2419.8
1632.87 1061.98 2367.8
1631.39 1057.04 2356.7
1634.68 1055.22 2352.7
1622.38 1043.39 2326.3
1611.06 1032.27 2301.5
1657.93 1058.38 2359.7
1705.54 1084.77 2418.6
1683.93 1067.11 2379.2
1701.33 1074.20 2395.0
1571.90 1140.79 2558.3
1558.32 1121.47 2514.9
1592.90 1141.58 2560.0
1621.20 1157.04 2594.7
1647.65 1171.05 2626.1
1651.77 1169.15 2621.9
1628.85 1148.21 2574.9
1599.22 1122.72 2517.7
1558.77 1068.16 2395.4
1606.40 1096.43 2458.8
1592.59 1082.71 2428.0
1567.32 1061.34 2380.1
1559.44 1051.86 2358.8
1621.45 1089.41 2443.0
1669.27 1112.84 2495.6
1611.24 1070.01 2399.5
1556.51 1029.69 2309.1
1565.05 1031.37 2312.9
1605.23 1053.81 2363.2
1581.63 1034.37 2319.6
1581.19 1030.17 2310.2
1669.46 1083.58 2429.9
1653.36 1065.08 2388.5
1594.02 1023.02 2294.2
1604.16 1025.71 2300.2
1619.71 1031.81 2313.9
1749.41 1094.18 2453.7
1808.03 1126.75 2526.8
1738.58 1079.55 2420.9
1737.46 1074.97 2410.7
1845.44 1137.69 2551.3
1631.95 1182.47 2667.2
1562.77 1127.57 2543.4
1601.18 1150.43 2595.0
1643.21 1165.93 2629.9
1653.61 1149.46 2592.8
1592.43 1102.45 2486.7
1630.47 1119.72 2525.7
1554.77 1059.22 2389.2
1622.92 1101.27 2484.1
1628.69 1100.81 2483.0
1574.10 1059.73 2390.4
1532.61 1027.75 2318.2
1580.58 1055.78 2381.5
1619.42 1077.51 2430.5
1615.66 1070.84 2415.4
1574.70 1039.66 2345.1
1582.78 1040.98 2348.1
1649.26 1080.55 2437.3
1691.81 1104.19 2490.7
1671.07 1086.51 2450.8
1628.96 1055.12 2380.0
1675.40 1081.11 2438.6
1635.24 1047.29 2362.3
1618.12 1024.81 2311.6
1629.39 1028.14 2319.1
1556.79 1135.86 2577.2
1599.44 1152.14 2614.1
1588.41 1139.37 2585.1
1653.10 1170.95 2656.8
1624.54 1145.94 2600.0
1659.75 1156.39 2623.7
1644.08 1109.10 2516.4
1633.44 1097.57 2490.3
1561.28 1044.95 2370.9
1576.30 1042.69 2365.8
1584.94 1044.34 2369.5
1587.31 1041.86 2363.9
1639.00 1071.65 2431.5
1611.97 1049.94 2382.2
1558.36 1011.15 2294.2
1629.87 1053.53 2390.4
1685.28 1085.22 2462.3
1654.20 1061.19 2407.7
1621.31 1036.18 2351.0
1618.71 1030.64 2338.4
1619.27 1027.15 2330.5
1620.34 1024.01 2323.4
1664.53 1048.03 2377.9
1709.45 1072.35 2433.1
1728.54 1080.34 2451.2
1731.94 1078.50 2447.0
1701.52 1055.69 2395.3
1721.18 1064.00 2414.1
1840.73 1121.59 2544.8
1578.10 1139.74 2601.3
1589.08 1133.14 2586.2
1647.36 1160.02 2647.5
1618.33 1130.16 2579.4
1547.38 1076.16 2456.2
1534.78 1058.68 2416.3
1604.16 1075.80 2455.3
1558.88 1041.31 2376.6
1567.53 1042.97 2380.4
1582.41 1048.74 2393.6
1548.51 1022.26 2333.1
1544.58 1015.70 2318.2
1600.15 1048.16 2392.2
1646.56 1074.40 2452.1
1622.57 1050.63 2397.9
1559.96 1006.24 2296.6
1617.75 1039.54 2372.6
1649.79 1056.11 2410.4
1603.14 1022.38 2333.4
1583.43 1006.02 2296.1
1589.29 1005.95 2295.9
1636.48 1031.96 2355.3
1680.65 1055.87 2409.9
1696.42 1061.83 2423.5
1708.98 1065.75 2432.4
1789.13 1107.56 2527.8
1747.38 1077.76 2459.8
1756.23 1079.28 2463.3
1834.70 1123.42 2564.0
1823.18 1104.36 2520.5
1822.17 1099.81 2510.1
1878.30 1129.65 2578.2
1904.41 1133.26 2586.5
1605.13 1162.33 2668.6
1576.33 1131.73 2598.4
1540.51 1101.30 2528.5
1609.10 1145.46 2629.9
1623.11 1150.56 2641.6
1644.06 1160.51 2664.4
1600.87 1125.30 2583.6
1585.12 1104.98 2537.0
1593.56 1106.27 2539.9
1569.99 1085.43 2492.0
1564.29 1077.05 2472.8
1532.85 1051.10 2413.2
1596.07 1090.00 2502.5
1626.53 1101.84 2529.7
1587.78 1062.73 2440.0
1581.62 1050.24 2411.3
1549.50 1024.87 2353.0
1581.96 1042.23 2392.9
1566.22 1027.83 2359.8
1570.15 1026.40 2356.5
1632.10 1062.76 2440.0
1609.43 1043.95 2396.8
1565.56 1011.59 2322.5
1642.13 1057.01 2426.8
1651.72 1055.09 2422.4
1571.72 1000.18 2296.3
1570.12 995.40 2285.4
1590.39 1004.46 2306.1
1606.44 1010.79 2320.7
1661.76 1041.70 2391.7
1702.26 1063.12 2440.8
1714.84 1067.01 2449.8
1692.80 1049.41 2409.4
1703.18 1051.96 2415.2
1802.85 1109.45 2547.2
1808.49 1100.82 2527.4
1854.31 1124.64 2582.1
1841.33 1112.75 2554.8
1831.57 1102.88 2532.1
1842.77 1105.66 2538.5
1886.52 1119.91 2571.2
1558.02 1111.92 2568.2
1636.55 1153.18 2663.5
1575.34 1096.18 2531.8
1606.65 1113.32 2571.4
1620.55 1104.62 2551.3
1569.41 1065.41 2460.8
1539.70 1041.01 2404.4
1557.03 1048.49 2421.7
1553.51 1033.61 2387.3
1604.38 1059.02 2446.0
1542.30 1014.04 2342.1
1542.08 1009.91 2332.6
1561.58 1018.68 2352.8
1600.97 1040.32 2402.8
1590.33 1029.40 2377.6
1639.04 1048.73 2422.2
1685.35 1074.25 2481.2
1612.00 1023.59 2364.2
1608.42 1017.45 2350.0
1683.18 1060.72 2449.9
1700.56 1067.64 2465.9
1715.30 1072.87 2478.0
1717.18 1070.04 2471.4
1703.40 1057.50 2442.5
1731.13 1070.73 2473.0
1723.74 1062.23 2453.4
1722.25 1057.41 2442.3
1809.50 1106.91 2556.6
1795.56 1082.52 2500.3
1821.03 1093.93 2526.6
1854.89 1110.28 2564.4
1851.18 1104.10 2550.1
1910.09 1127.16 2603.4
1577.57 1143.57 2657.2
1589.12 1146.93 2665.0
1503.48 1075.77 2499.6
1529.93 1085.34 2521.9
1550.24 1085.82 2523.0
1559.63 1087.81 2527.6
1587.83 1089.18 2530.8
1594.76 1089.42 2531.4
1578.56 1073.94 2495.4
1601.53 1085.12 2521.4
1604.38 1082.63 2515.6
1533.69 1030.74 2395.0
1566.35 1044.23 2426.4
1595.04 1059.10 2460.9
1574.60 1041.37 2419.7
1556.06 1025.02 2381.7
1595.68 1046.97 2432.7
1622.56 1060.41 2464.0
1584.66 1031.59 2397.0
1567.34 1016.32 2361.5
1589.02 1026.37 2384.9
1560.01 1003.72 2332.2
1590.87 1015.71 2360.1
1679.22 1068.01 2481.6
1683.32 1066.53 2478.2
1604.07 1012.46 2352.5
1597.27 1004.34 2333.7
1670.44 1046.39 2431.4
1688.32 1053.62 2448.2
1701.97 1058.15 2458.7
1706.50 1057.01 2456.0
1690.52 1043.22 2424.0
1714.98 1054.39 2450.0
1733.56 1061.89 2467.4
1782.90 1084.11 2519.0
1745.41 1057.44 2457.0
1758.08 1061.24 2465.9
1821.87 1095.76 2546.1
1828.12 1095.55 2545.6
1844.31 1101.28 2558.9
1871.60 1113.57 2587.5
1860.71 1103.14 2563.2
1857.52 1097.33 2549.7
1572.49 1133.01 2648.6
1545.56 1108.77 2591.9
1502.00 1072.86 2508.0
1522.95 1083.13 2532.0
1549.34 1097.17 2564.8
1536.39 1083.35 2532.5
1563.87 1098.03 2566.8
1572.85 1099.66 2570.6
1517.40 1056.42 2469.6
1578.07 1089.46 2546.8
1606.88 1104.73 2582.5
1526.74 1045.28 2443.5
1586.01 1068.13 2496.9
1622.02 1083.54 2532.9
1550.56 1031.62 2411.6
1543.96 1023.10 2391.7
1607.40 1060.89 2480.0
1626.52 1069.22 2499.5
1575.51 1023.46 2392.5
1610.68 1042.21 2436.3
1596.02 1028.68 2404.7
1617.79 1038.66 2428.0
1619.22 1035.55 2420.8
1612.73 1027.42 2401.8
1624.08 1030.67 2409.4
1655.00 1046.26 2445.8
1675.80 1051.36 2457.7
1596.26 986.45 2306.0
1648.42 1014.89 2372.5
1688.95 1035.97 2421.7
1692.85 1034.52 2418.4
1688.59 1028.11 2403.4
1745.21 1058.67 2474.8
1807.53 1092.46 2553.8
1814.36 1092.59 2554.1
1841.99 1097.22 2564.9
1886.39 1119.62 2617.3
1917.89 1110.36 2595.6
1550.14 1119.93 2634.0
1526.63 1093.31 2571.4
1552.44 1106.96 2603.5
1514.66 1075.35 2529.1
1539.54 1088.30 2559.6
1571.83 1096.94 2579.9
1520.98 1056.95 2485.9
1534.23 1061.66 2496.9
1586.04 1092.90 2570.4
1599.49 1097.56 2581.4
1562.29 1067.57 2510.8
1542.76 1049.85 2469.2
1530.57 1037.24 2439.5
1519.90 1021.57 2402.7
1578.04 1056.32 2484.4
1602.57 1068.38 2512.7
1621.12 1076.37 2531.5
1588.81 1050.66 2471.1
1549.11 1020.30 2399.7
1577.27 1034.69 2433.5
1613.25 1054.08 2479.1
1537.59 1000.65 2353.5
1609.24 1039.04 2443.7
1664.80 1070.70 2518.2
1670.08 1069.89 2516.3
1671.69 1066.76 2508.9
1651.24 1049.63 2468.6
1622.24 1027.21 2415.9
1613.05 1017.47 2393.0
1601.67 1006.41 2367.0
1606.08 1005.34 2364.5
1651.41 1029.78 2422.0
1595.69 991.26 2331.4
1602.16 984.10 2314.5
1615.58 988.64 2325.2
1663.60 1014.24 2385.4
1685.30 1023.66 2407.6
1678.30 1015.65 2388.7
1727.85 1041.79 2450.2
1808.17 1086.23 2554.7
1835.25 1098.47 2583.5
1852.30 1100.64 2588.6
1784.20 1056.35 2484.4
1809.13 1067.25 2510.1
1917.31 1107.18 2604.0
1563.57 1103.30 2610.8
1563.42 1098.44 2599.3
1593.36 1114.67 2637.7
1565.11 1085.59 2568.9
1522.05 1051.25 2487.6
1542.70 1061.01 2510.7
1574.83 1052.04 2489.5
1553.38 1033.47 2445.6
1562.15 1035.08 2449.4
1565.34 1033.00 2444.4
1578.69 1037.61 2455.3
1583.40 1036.52 2452.8
1573.22 1025.74 2427.3
1569.63 1019.32 2412.1
1580.41 1022.25 2419.0
1636.72 1054.49 2495.3
1638.37 1047.27 2478.2
1643.05 1046.16 2475.6
1645.09 1043.39 2469.0
1634.53 1032.67 2443.6
1617.02 1017.66 2408.1
1604.12 1005.66 2379.7
1590.58 993.35 2350.6
1575.93 976.71 2311.2
1606.35 991.80 2346.9
1636.90 1006.85 2382.5
1686.34 1033.36 2445.3
1704.29 1040.45 2462.1
1666.24 1013.42 2398.1
1663.08 1007.74 2384.7
1696.17 1023.98 2423.1
1699.51 1022.21 2418.9
1720.37 1023.43 2421.8
1829.61 1084.46 2566.2
1850.76 1093.02 2586.5
1820.11 1071.04 2534.5
1789.28 1049.11 2482.6
1830.33 1069.33 2530.4
1551.25 1116.90 2659.3
1534.72 1100.11 2619.3
1490.65 1059.15 2521.8
1578.75 1116.85 2659.2
1513.23 1065.84 2537.7
1507.16 1056.97 2516.6
1555.80 1086.38 2586.6
1547.29 1075.80 2561.4
1521.60 1053.42 2508.1
1581.40 1090.16 2595.6
1561.04 1067.04 2540.6
1538.82 1047.43 2493.9
1572.47 1065.86 2537.8
1571.45 1060.73 2525.5
1574.37 1058.29 2519.7
1594.79 1067.59 2541.9
1614.71 1072.06 2552.5
1567.09 1036.20 2467.1
1554.10 1023.43 2436.7
1542.52 1011.69 2408.8
1538.98 1005.30 2393.6
1580.39 1028.21 2448.1
1608.16 1042.08 2481.2
1608.26 1038.00 2471.4
1621.73 1042.54 2482.2
1628.52 1042.77 2482.8
1607.27 1025.11 2440.7
1568.69 996.58 2372.8
1557.51 985.61 2346.7
1589.15 1001.72 2385.0
1613.58 1013.18 2412.3
1611.78 1008.14 2400.3
1614.17 1005.75 2394.6
1637.16 1016.17 2419.5
1645.92 1017.70 2423.1
1637.12 1008.41 2401.0
1646.37 1010.27 2405.4
1655.11 1011.80 2409.1
1681.02 1023.78 2437.6
1720.48 1043.89 2485.4
1703.48 1029.71 2451.7
1691.21 1018.50 2425.0
1713.54 1028.13 2447.9
1728.89 1033.51 2460.7
1689.23 1006.08 2395.4
1813.76 1068.47 2544.0
1845.90 1083.46 2579.7
1830.67 1070.65 2549.2
1815.89 1058.18 2519.5
1824.85 1059.59 2522.8
1881.65 1088.67 2592.1
1550.14 1099.44 2634.0
1553.21 1082.54 2593.5
1559.32 1082.12 2592.5
1511.38 1044.34 2502.0
1515.34 1042.61 2497.8
1548.32 1051.81 2519.9
1507.81 1011.49 2423.3
1542.99 1030.80 2469.5
1532.76 1019.73 2443.0
1532.97 1015.67 2433.3
1596.67 1053.54 2524.0
1583.06 1036.07 2482.2
1545.61 1007.46 2413.6
1535.95 997.13 2388.9
1568.68 1014.28 2430.0
1632.25 1034.61 2478.7
1585.37 1000.96 2398.0
1559.08 980.52 2349.1
1575.03 986.69 2363.9
1626.74 1015.14 2432.0
1655.00 1028.78 2464.7
1666.48 1031.93 2472.2
1698.10 1047.49 2509.5
1694.81 1041.47 2495.1
1674.41 1025.02 2455.7
1672.03 1019.68 2442.9
1671.19 1015.33 2432.5
1670.31 1010.98 2422.0
1679.62 1012.80 2426.4
1702.43 1022.73 2450.2
1728.57 1034.57 2478.6
1714.66 1022.45 2449.5
1694.65 1006.79 2412.0
1718.14 1016.99 2436.4
1721.48 1015.23 2432.2
1712.18 1006.06 2410.3
1755.57 1027.81 2462.4
1835.51 1070.72 2565.2
1871.07 1087.52 2605.4
1838.65 1064.83 2551.1
1826.02 1053.72 2524.4
1868.94 1074.64 2574.6
1907.77 1089.19 2609.4
1906.24 1084.47 2598.1
1917.70 1083.33 2595.4
1547.44 1110.27 2676.6
1522.59 1073.19 2587.1
1562.17 1086.73 2619.8
1531.28 1056.06 2545.8
1511.95 1038.25 2502.9
1543.78 1055.58 2544.7
1556.64 1059.84 2555.0
1522.30 1032.07 2488.0
1509.41 1019.01 2456.6
1505.81 1012.31 2440.4
1504.61 1007.27 2428.2
1546.22 1030.81 2485.0
1532.56 1017.47 2452.8
1537.73 1008.34 2430.8
1573.79 1027.78 2477.7
1542.02 1002.94 2417.8
1545.65 1001.23 2413.7
1576.83 1017.31 2452.4
1605.08 1031.38 2486.4
1610.49 1022.54 2465.0
1629.16 1030.30 2483.8
1643.74 1035.43 2496.1
1654.19 1037.92 2502.1
1622.72 1010.26 2435.4
1597.34 990.60 2388.0
1640.81 1013.63 2443.6
1668.64 1026.85 2475.5
1699.76 1042.00 2512.0
1697.52 1036.66 2499.1
1681.91 1023.22 2466.7
1687.02 1022.44 2464.8
1696.94 1024.56 2469.9
1705.25 1025.72 2472.7
1713.04 1026.54 2474.7
1735.41 1036.07 2497.7
1730.78 1029.46 2481.7
1684.28 998.09 2406.1
1668.53 985.11 2374.8
1695.78 997.52 2404.7
1743.93 1022.08 2463.9
1781.86 1040.50 2508.4
1772.65 1031.36 2486.3
1796.99 1041.73 2511.3
1875.03 1083.05 2610.9
1886.37 1085.68 2617.3
1881.62 1079.07 2601.3
1879.19 1070.00 2579.5
1846.29 1043.84 2516.4
1516.01 1061.88 2576.0
1485.87 1031.67 2502.7
1533.33 1060.00 2571.4
1505.02 1035.92 2513.0
1500.76 1028.54 2495.1
1529.10 1043.46 2531.3
1515.51 1029.77 2498.1
1492.94 1010.12 2450.4
1515.97 1021.35 2477.7
1554.91 1043.17 2530.6
1565.81 1046.07 2537.6
1576.24 1048.63 2543.8
1593.66 1055.80 2561.2
1554.62 1025.66 2488.1
1528.85 1004.49 2436.8
1559.74 1020.57 2475.8
1518.08 989.24 2399.8
1518.67 977.61 2371.6
1567.16 1004.75 2437.4
1612.31 1029.55 2497.6
1638.67 1042.19 2528.2
1592.96 1009.09 2447.9
1561.42 985.18 2389.9
1613.66 1014.12 2460.1
1615.00 991.45 2405.1
1638.53 1002.03 2430.8
1662.69 1012.90 2457.2
1699.70 1031.50 2502.3
1692.40 1019.29 2472.7
1668.55 1001.13 2428.6
1695.07 1013.22 2457.9
1720.62 1024.64 2485.6
1733.83 1028.65 2495.4
1721.61 1017.60 2468.6
1691.89 996.34 2417.0
1692.49 993.01 2408.9
1728.55 1010.44 2451.2
1787.21 1040.90 2525.1
1796.17 1042.31 2528.5
1757.27 1016.02 2464.7
1760.61 1014.27 2460.5
1815.93 1042.36 2528.6
1857.07 1062.14 2576.6
1881.15 1072.05 2600.7
1910.32 1084.79 2631.6
1830.66 1035.85 2512.9
1892.36 1063.20 2579.2
1533.37 1072.00 2617.0
1551.99 1080.24 2637.1
1539.88 1062.45 2593.7
1506.39 1034.82 2526.2
1523.03 1041.73 2543.1
1565.03 1065.84 2602.0
1555.23 1050.11 2563.6
1525.90 1025.92 2504.5
1546.09 1035.09 2526.9
1512.49 1008.33 2461.6
1510.66 998.68 2438.0
1572.30 1035.10 2526.9
1558.69 1021.88 2494.6
1556.50 1016.23 2480.8
1567.35 1019.10 2487.9
1507.49 976.16 2383.0
1553.26 997.62 2435.4
1560.48 998.20 2436.8
1565.15 997.15 2434.3
1560.57 990.24 2417.4
1537.92 971.97 2372.8
1595.06 1004.06 2451.1
1648.98 1029.80 2514.0
1624.07 1010.25 2466.3
1637.08 1014.35 2476.3
1575.80 972.57 2374.3
1615.24 989.18 2414.8
1633.48 996.49 2432.7
1611.56 979.33 2390.8
1620.79 981.17 2395.3
1637.48 987.49 2410.7
1676.11 1006.94 2458.2
1660.33 993.68 2425.8
1629.94 971.81 2372.4
1648.30 979.06 2390.1
1704.47 1008.64 2462.3
1752.26 1033.05 2521.9
1736.81 1020.14 2490.4
1705.48 998.02 2436.4
1724.64 1005.51 2454.7
1781.02 1034.57 2525.6
1794.92 1038.82 2536.0
1757.22 1013.29 2473.7
1754.53 1008.06 2460.9
1793.75 1026.86 2506.8
1837.01 1047.82 2558.0
1864.90 1059.91 2587.5
1860.64 1053.69 2572.3
1854.64 1046.55 2554.9
1888.26 1061.73 2591.9
1929.28 1065.82 2601.9
1549.79 1091.11 2680.6
1548.08 1085.04 2665.7
1497.72 1040.45 2556.2
1529.19 1043.84 2564.5
1532.34 1041.46 2558.6
1546.65 1046.65 2571.4
1532.20 1032.42 2536.4
1541.61 1034.33 2541.1
1546.11 1032.94 2537.7
1555.53 1034.83 2542.3
1509.57 1000.01 2456.8
1526.63 1002.85 2463.8
1554.39 1016.83 2498.1
1510.16 983.80 2417.0
1514.57 974.54 2394.2
1612.49 1033.31 2538.6
1587.04 1008.76 2478.3
1576.94 998.31 2452.6
1561.10 984.31 2418.2
1544.61 970.02 2383.1
1611.09 1007.73 2475.8
1628.79 1010.75 2483.2
1573.60 972.66 2389.6
1556.17 958.12 2353.9
1572.65 964.48 2369.5
1615.44 986.86 2424.5
1650.53 1004.39 2467.6
1620.82 982.50 2413.8
1621.09 978.89 2404.9
1653.18 994.44 2443.1
1654.07 979.96 2407.5
1674.66 988.43 2428.3
1736.33 1020.99 2508.3
1725.07 1003.10 2464.4
1730.10 1002.31 2462.5
1746.61 1008.15 2476.8
1721.50 990.02 2432.3
1735.80 994.60 2443.5
1782.64 1017.73 2500.3
1798.20 1022.89 2513.0
1818.78 1030.86 2532.6
1821.10 1028.46 2526.7
1788.89 1006.65 2473.1
1825.67 1023.68 2515.0
1906.78 1065.36 2617.3
1913.27 1061.42 2607.7
1983.41 1081.23 2656.4
2016.22 1087.79 2672.5
1533.05 1067.66 2639.8
1498.28 1034.21 2557.1
1540.41 1044.80 2583.3
1509.61 1019.48 2520.7
1486.84 999.77 2472.0
1486.78 991.19 2450.7
1507.34 1000.62 2474.1
1532.92 1013.28 2505.4
1549.70 1020.06 2522.1
1558.11 1021.28 2525.1
1564.53 1021.20 2524.9
1532.46 996.10 2462.9
1557.07 995.51 2461.4
1599.36 1018.37 2517.9
1560.43 989.54 2446.7
1525.31 963.35 2381.9
1522.19 957.51 2367.5
1536.47 962.61 2380.1
1547.70 965.76 2387.9
1585.82 985.61 2436.9
1608.57 995.78 2462.1
1582.58 975.82 2412.7
1591.75 958.74 2370.5
1655.53 993.32 2456.0
1686.14 1007.81 2491.8
1615.63 961.98 2378.5
1667.30 985.22 2436.0
1712.08 1007.87 2492.0
1721.52 1009.61 2496.3
1733.67 1012.93 2504.5
1730.68 1007.41 2490.8
1760.46 1017.15 2514.9
1725.74 993.42 2456.3
1702.85 976.63 2414.8
1730.28 981.54 2426.9
1752.89 990.76 2449.7
1788.88 1007.46 2491.0
1808.91 1015.07 2509.8
1773.30 991.52 2451.6
1852.00 1028.16 2542.1
1870.54 1034.77 2558.5
1978.67 1079.27 2668.5
1983.93 1078.37 2666.3
1981.21 1073.15 2653.4
1526.77 1065.99 2652.7
1540.28 1065.82 2652.3
1534.40 1038.57 2584.5
1539.53 1037.51 2581.8
1547.56 1038.41 2584.1
1526.84 1020.09 2538.5
1519.63 1010.91 2515.6
1508.40 999.15 2486.4
1509.84 995.85 2478.2
1518.65 997.42 2482.1
1520.04 994.12 2473.9
1534.32 999.24 2486.6
1546.14 1002.73 2495.3
1523.00 983.60 2447.7
1493.14 960.32 2389.7
1518.90 972.85 2420.9
1575.56 1004.99 2500.9
1567.23 995.57 2477.5
1522.24 963.05 2396.5
1526.84 962.03 2394.0
1535.01 963.26 2397.1
1539.08 961.93 2393.7
1557.01 969.22 2411.9
1576.04 977.14 2431.6
1624.08 1002.92 2495.7
1622.59 998.02 2483.6
1571.66 962.88 2396.1
1573.06 959.94 2388.8
1598.48 971.62 2417.9
1564.22 947.09 2356.8
1627.68 974.10 2424.0
1663.49 991.70 2467.8
1661.17 986.52 2454.9
1660.93 982.61 2445.2
1700.21 1002.02 2493.5
1729.48 1015.41 2526.8
1708.88 999.53 2487.3
1713.99 998.75 2485.4
1721.26 999.23 2486.6
1726.36 998.45 2484.6
1762.41 1015.52 2527.1
1758.31 1009.40 2511.9
1719.73 983.61 2447.7
1683.66 959.44 2387.5
1738.53 979.90 2438.5
1773.90 996.21 2479.1
1819.94 1018.38 2534.2
1844.61 1024.79 2550.2
1826.26 1010.97 2515.8
1857.10 1017.14 2531.1
1998.20 1079.17 2685.5
2009.42 1074.00 2672.6
1500.06 1035.92 2594.6
1528.08 1041.26 2608.0
1549.60 1051.27 2633.0
1528.86 1032.65 2586.4
1519.52 1021.86 2559.4
1569.04 1046.02 2619.9
1543.98 1024.88 2567.0
1561.28 1031.92 2584.6
1573.24 1035.38 2593.2
1555.68 1019.47 2553.4
1544.38 1007.78 2524.1
1560.72 1014.14 2540.1
1563.05 1002.95 2512.0
1542.83 985.87 2469.3
1578.82 1004.71 2516.4
1599.34 1013.57 2538.6
1551.55 979.26 2452.7
1531.89 962.90 2411.7
1563.02 978.47 2450.7
1572.31 980.31 2455.3
1579.06 980.55 2455.9
1632.08 1009.40 2528.2
1637.72 996.87 2496.8
1650.26 1000.55 2506.0
1663.35 1004.53 2516.0
1611.94 969.68 2428.7
1579.13 946.25 2370.0
1614.17 963.50 2413.2
1650.43 981.34 2457.9
1656.60 981.22 2457.6
1659.04 978.90 2451.8
1663.06 977.52 2448.3
1675.08 980.85 2456.7
1676.40 977.90 2449.3
1629.82 947.14 2372.2
1672.06 964.41 2415.5
1726.91 992.33 2485.4
1729.27 989.99 2479.6
1693.46 965.90 2419.2
1685.84 958.01 2399.5
1680.88 951.68 2383.6
1721.40 963.98 2414.4
1750.65 976.81 2446.6
1792.22 996.39 2495.6
1827.84 1012.54 2536.1
1859.69 1026.50 2571.0
1895.02 1042.26 2610.5
1900.79 1041.71 2609.1
1907.67 1041.78 2609.3
1922.43 1046.13 2620.2
1493.49 1020.11 2571.7
1476.75 995.34 2509.3
1514.50 1016.31 2562.1
1553.41 1037.87 2616.5
1539.95 1019.96 2571.3
1495.74 986.41 2486.8
1490.85 978.97 2468.0
1542.86 1008.80 2543.2
1564.61 1018.66 2568.1
1549.38 1004.47 2532.3
1561.77 1008.23 2541.8
1580.16 1015.82 2560.9
1573.17 1007.09 2538.9
1582.62 1008.92 2543.5
1590.96 1005.85 2535.8
1564.52 985.07 2483.4
1545.49 969.10 2443.1
1550.69 968.39 2441.3
1617.20 993.70 2505.1
1637.45 1002.12 2526.4
1626.72 991.59 2499.8
1631.46 990.53 2497.1
1622.64 981.28 2473.8
1605.39 967.02 2437.9
1585.89 951.53 2398.8
1606.68 960.24 2420.8
1648.07 981.15 2473.5
1655.87 981.97 2475.5
1664.19 983.10 2478.4
1648.63 970.16 2445.8
1630.29 955.68 2409.3
1652.37 964.94 2432.6
1684.71 980.08 2470.8
1666.73 965.95 2435.2
1623.88 934.04 2354.7
1725.06 988.52 2492.1
1742.10 994.56 2507.3
1703.16 968.71 2442.1
1671.62 947.25 2388.0
1669.94 942.81 2376.8
1713.18 963.66 2429.4
1714.83 961.06 2422.8
1714.07 950.19 2395.4
1751.68 967.53 2439.2
1964.38 1058.27 2667.9
1947.66 1041.93 2626.7
2010.86 1071.99 2702.5
1503.49 1015.69 2577.4
1539.71 1031.00 2616.3
1488.54 992.36 2518.2
1472.76 977.55 2480.6
1487.38 966.16 2451.7
1550.38 1002.80 2544.7
1574.16 1013.87 2572.8
1558.84 999.76 2537.0
1549.85 989.82 2511.8
1544.76 982.44 2493.0
1554.61 984.59 2498.5
1551.41 978.48 2483.0
1516.39 952.44 2416.9
1539.26 962.83 2443.3
1569.84 977.93 2481.6
1573.59 976.27 2477.4
1580.15 964.59 2447.7
1568.11 945.84 2400.2
1577.33 947.65 2404.7
1576.12 943.19 2393.4
1552.86 925.63 2348.9
1571.45 933.05 2367.7
1636.48 967.88 2456.1
1670.13 983.96 2496.9
1675.32 983.20 2495.0
1656.06 968.16 2456.8
1637.71 953.76 2420.3
1659.30 962.65 2442.8
1677.21 969.34 2459.8
1646.30 947.87 2405.3
1638.34 939.73 2384.6
1718.86 982.21 2492.4
1725.27 978.51 2483.1
1673.20 945.45 2399.2
1640.89 920.35 2335.5
1704.92 952.75 2417.7
1723.04 959.35 2434.4
1704.28 945.44 2399.1
1751.71 968.22 2457.0
1815.43 999.80 2537.1
1978.36 1051.44 2668.1
1994.99 1056.58 2681.2
1992.26 1051.47 2668.2
1491.48 987.78 2523.2
1515.41 982.09 2508.6
1516.90 978.85 2500.4
1525.26 980.06 2503.5
1565.31 1001.53 2558.3
1565.84 997.64 2548.4
1567.82 994.71 2540.9
1571.77 993.04 2536.6
1524.55 959.20 2450.2
1513.96 940.77 2403.1
1565.79 968.99 2475.2
1591.93 981.15 2506.2
1569.16 963.18 2460.4
1559.53 953.40 2435.4
1620.68 986.79 2520.6
1583.24 960.12 2452.5
1531.58 925.07 2363.0
1602.91 964.30 2463.2
1610.18 964.83 2464.6
1576.78 941.08 2403.9
1611.63 958.10 2447.4
1623.05 961.10 2455.0
1595.59 941.15 2404.1
1614.86 948.81 2423.6
1668.55 976.56 2494.5
1694.94 988.17 2524.2
1691.66 982.47 2509.6
1688.33 976.77 2495.1
1686.56 964.66 2464.1
1625.89 926.45 2366.5
1664.82 945.07 2414.1
1670.33 944.64 2413.0
1644.86 926.77 2367.3
1698.83 943.10 2409.1
1720.80 951.80 2431.3
1735.67 956.52 2443.3
1842.77 1004.54 2566.0
1828.41 993.13 2536.8
1951.87 1041.46 2660.3
1515.49 1023.98 2633.1
1527.94 1014.12 2607.7
1528.00 1000.87 2573.7
1500.55 978.62 2516.5
1500.17 974.14 2504.9
1531.03 989.89 2545.4
1548.31 996.77 2563.1
1522.34 975.86 2509.3
1495.66 954.68 2454.9
1501.95 954.63 2454.8
1501.28 950.18 2443.3
1501.55 946.36 2433.5
1559.80 978.95 2517.3
1563.18 976.99 2512.3
1512.69 941.51 2421.0
1517.88 940.83 2419.3
1538.75 949.84 2442.5
1557.67 957.58 2462.4
1568.00 960.00 2468.6
1534.41 935.62 2405.9
1532.81 927.10 2384.0
1582.71 953.44 2451.7
1618.40 971.04 2497.0
1639.29 975.77 2509.1
1602.30 949.98 2442.8
1636.72 966.57 2485.5
1661.85 977.56 2513.7
1642.37 962.33 2474.6
1620.63 945.89 2432.3
1637.34 951.94 2447.8
1686.99 977.02 2512.3
1712.33 984.10 2530.5
1705.36 968.96 2491.6
1616.12 914.78 2352.3
1621.52 914.39 2351.3
1646.43 924.96 2378.5
1642.08 919.07 2363.3
1669.21 923.92 2375.8
1753.70 967.11 2486.9
1770.31 972.70 2501.2
1779.23 974.03 2504.7
1802.72 976.20 2510.2
1859.34 992.53 2552.2
1915.10 1018.67 2619.4
1972.23 1045.35 2688.0
1485.30 996.89 2580.6
1525.61 1005.82 2603.8
1535.61 1007.96 2609.3
1566.33 1019.14 2638.2
1554.05 1006.76 2606.2
1569.45 1012.33 2620.6
1550.15 995.57 2577.2
1519.88 971.94 2516.1
1513.50 963.72 2494.8
1504.06 953.64 2468.7
1502.94 948.89 2456.4
1495.80 940.40 2434.4
1499.77 935.00 2420.4
1570.73 975.16 2524.4
1590.72 983.48 2545.9
1584.53 975.60 2525.5
1593.45 977.05 2529.3
1580.02 964.85 2497.7
1558.31 947.71 2453.3
1549.72 938.65 2429.9
1540.00 928.99 2404.9
1539.45 924.91 2394.3
1556.39 931.33 2410.9
1551.14 924.48 2393.2
1553.08 921.95 2386.6
1609.11 951.42 2462.9
1656.04 975.29 2524.7
1650.85 968.41 2506.9
1636.66 956.32 2475.6
1657.62 964.79 2497.5
1676.02 971.70 2515.4
1646.31 950.78 2461.3
1651.42 950.05 2459.4
1684.21 965.18 2498.6
1693.11 966.57 2502.1
1691.86 962.16 2490.7
1679.28 951.38 2462.8
1671.45 943.35 2442.0
1658.67 932.61 2414.2
1661.48 930.68 2409.2
1683.79 939.64 2432.4
1659.95 922.88 2389.1
1637.48 903.65 2339.3
1717.92 944.54 2445.1
1765.40 960.02 2485.2
1789.81 969.75 2510.4
1891.80 1006.71 2606.1
1883.50 998.72 2585.4
1949.12 1026.21 2656.5
1493.21 982.20 2559.8
1491.60 976.80 2545.7
1509.67 984.28 2565.2
1550.53 1006.48 2623.1
1550.89 1002.32 2612.2
1541.95 992.21 2585.9
1556.34 997.13 2598.7
1538.94 981.74 2558.6
1568.04 996.01 2595.8
1588.11 1000.17 2606.6
1569.90 984.51 2565.8
1545.55 965.15 2515.4
1501.53 933.72 2433.4
1542.37 947.18 2468.5
1578.98 965.66 2516.7
1588.40 967.42 2521.3
1574.43 954.98 2488.9
1552.68 937.95 2444.5
1545.08 929.56 2422.6
1534.32 919.35 2396.0
1533.23 914.99 2384.6
1549.64 921.07 2400.5
1545.91 915.18 2385.1
1546.08 908.02 2366.5
1614.26 944.31 2461.0
1634.08 952.14 2481.5
1625.09 943.19 2458.1
1650.76 954.35 2487.2
1676.02 965.18 2515.4
1652.64 948.02 2470.7
1659.89 948.51 2472.0
1691.12 962.64 2508.8
1688.29 957.35 2495.0
1675.77 946.62 2467.1
1676.03 943.16 2458.1
1681.09 942.43 2456.1
1698.02 948.33 2471.5
1732.87 964.15 2512.8
1732.59 960.38 2502.9
1684.37 930.17 2424.2
1642.95 903.93 2355.8
1659.81 909.82 2371.2
1661.37 907.32 2364.6
1699.13 921.14 2400.7
1730.54 934.74 2436.1
1719.41 925.35 2411.6
1750.95 938.92 2447.0
1944.54 1027.83 2678.7
1532.22 987.88 2592.1
1552.88 996.83 2615.6
1487.97 951.01 2495.4
1488.50 943.15 2474.7
1564.16 986.83 2589.3
1539.67 963.12 2527.1
1557.52 970.15 2545.6
1566.97 971.92 2550.2
1536.97 949.30 2490.9
1519.26 934.44 2451.9
1501.10 911.83 2392.5
1522.45 920.99 2416.6
1506.23 907.44 2381.1
1533.78 916.53 2404.9
1583.05 942.14 2472.1
1557.89 923.43 2423.0
1551.14 915.73 2402.8
1593.51 936.99 2458.6
1610.12 942.98 2474.3
1592.91 929.20 2438.1
1616.84 939.43 2465.0
1609.43 931.44 2444.0
1574.60 907.71 2381.7
1577.48 905.82 2376.8
1577.17 902.11 2367.1
1598.54 910.80 2389.8
1650.82 936.95 2458.5
1662.85 940.15 2466.9
1639.63 923.47 2423.1
1667.16 935.39 2454.4
1710.91 956.29 2509.2
1676.74 933.64 2449.8
1655.85 918.53 2410.1
1705.22 942.36 2472.7
1721.69 947.90 2487.2
1714.80 940.58 2468.0
1710.56 934.76 2452.7
1679.98 914.65 2400.0
1648.50 890.92 2337.7
1740.98 937.45 2459.8
1727.54 920.10 2414.3
1933.91 1015.30 2664.1
1955.38 1015.69 2665.1
1484.82 967.78 2556.8
1510.71 971.65 2567.0
1544.47 980.40 2590.1
1505.12 951.29 2513.2
1538.01 967.89 2557.0
1525.33 955.79 2525.1
1480.06 915.63 2419.0
1541.57 949.66 2508.9
1568.95 962.46 2542.7
1590.43 971.56 2566.7
1570.26 955.24 2523.6
1559.50 944.76 2495.9
1603.28 967.27 2555.4
1581.80 950.38 2510.8
1524.00 911.90 2409.1
1549.61 919.69 2429.7
1636.36 959.47 2534.8
1648.66 955.17 2523.5
1634.07 942.98 2491.2
1588.93 913.32 2412.9
1586.62 908.42 2399.9
1620.65 924.28 2441.8
1598.77 908.25 2399.5
1599.00 904.86 2390.5
1637.48 923.06 2438.6
1635.08 918.16 2425.7
1626.74 909.98 2404.0
1669.25 930.19 2457.5
1703.36 945.59 2498.1
1661.05 918.61 2426.9
1628.75 897.35 2370.7
1661.27 911.83 2408.9
1692.31 925.38 2444.7
1701.12 926.73 2448.3
1723.06 935.19 2470.7
1718.78 929.42 2455.4
1693.58 912.41 2410.5
1742.53 935.33 2471.0
1749.06 921.88 2435.5
1895.01 991.65 2619.8
1954.41 1015.46 2682.7
1913.52 987.19 2608.0
1503.34 990.84 2635.7
1525.92 987.76 2627.5
1477.97 952.47 2533.7
1495.53 959.52 2552.4
1540.61 971.25 2583.6
1576.30 985.19 2620.7
1526.82 950.17 2527.5
1538.45 937.29 2493.3
1580.50 939.23 2498.5
1563.31 925.23 2461.2
1550.08 913.67 2430.4
1569.63 921.44 2451.1
1634.63 955.73 2542.3
1630.79 945.86 2516.1
1551.60 892.79 2374.9
1589.04 910.71 2422.6
1600.94 913.92 2431.1
1656.02 941.66 2504.9
1665.91 939.91 2500.2
1652.52 928.74 2470.5
1677.34 939.05 2498.0
1684.11 939.21 2498.4
1684.99 936.10 2490.1
1692.81 936.86 2492.1
1690.40 931.97 2479.1
1663.14 913.47 2429.9
1642.17 898.55 2390.2
1667.70 909.09 2418.3
1693.33 919.60 2446.2
1682.52 910.32 2421.5
1684.19 907.84 2414.9
1713.24 920.07 2447.5
1723.71 922.28 2453.4
1726.49 920.37 2448.3
1885.10 986.78 2624.9
1949.67 1009.65 2685.8
1896.96 978.86 2603.9
1995.47 1015.24 2700.6
1982.52 1005.13 2673.7
1484.31 980.46 2626.2
1502.30 987.81 2645.9
1527.15 995.06 2665.4
1500.22 968.75 2594.9
1509.71 970.53 2599.6
1483.51 945.25 2531.9
1512.21 959.29 2569.5
1522.59 953.27 2553.4
1573.62 980.96 2627.6
1582.23 982.07 2630.6
1551.94 959.14 2569.1
1490.27 917.09 2456.5
1487.64 911.57 2441.7
1534.18 936.11 2507.4
1512.12 918.76 2461.0
1530.92 926.27 2481.1
1561.34 940.72 2519.8
1518.37 911.02 2440.2
1515.19 897.89 2405.1
1532.55 904.46 2422.7
1554.58 913.71 2447.4
1579.26 924.45 2476.2
1566.50 913.26 2446.2
1598.50 928.16 2486.1
1625.99 940.33 2518.7
1548.76 892.09 2389.5
1576.72 893.89 2394.4
1629.65 920.28 2465.0
1663.84 935.91 2506.9
1667.46 934.29 2502.6
1680.61 938.02 2512.5
1684.22 936.40 2508.2
1666.44 922.95 2472.2
1677.44 925.49 2479.0
1695.98 932.14 2496.8
1660.20 909.01 2434.8
1624.20 879.27 2355.2
1676.39 904.12 2421.7
1692.26 909.27 2435.5
1710.36 915.58 2452.5
1755.94 936.50 2508.5
1773.67 942.47 2524.5
1780.56 939.20 2515.7
1832.36 959.49 2570.1
1897.65 990.08 2652.0
1902.28 981.82 2629.9
1932.25 993.73 2661.8
1963.45 1006.18 2695.1
1970.30 999.03 2676.0
1515.46 976.18 2633.0
1526.45 970.15 2616.8
1509.52 955.14 2576.3
1502.56 946.55 2553.1
1495.51 937.97 2530.0
1528.73 954.62 2574.9
1559.20 969.41 2614.8
1577.57 976.59 2634.2
1563.60 963.77 2599.6
1512.03 927.98 2503.0
1517.43 927.32 2501.3
1581.84 962.57 2596.3
1545.92 928.85 2505.4
1521.14 910.14 2454.9
1506.23 897.46 2420.7
1502.31 891.41 2404.4
1534.54 899.34 2425.8
1605.70 937.21 2527.9
1624.39 944.26 2547.0
1605.57 929.54 2507.2
1579.36 910.68 2456.4
1549.84 890.07 2400.8
1567.38 896.54 2418.2
1577.68 898.84 2424.4
1566.06 888.67 2397.0
1571.62 888.30 2396.0
1583.47 891.48 2404.6
1619.59 908.24 2449.8
1651.64 922.60 2488.5
1654.17 920.41 2482.6
1647.10 912.93 2462.4
1628.23 898.99 2424.8
1626.85 894.77 2413.5
1657.03 907.87 2448.8
1673.90 913.62 2464.3
1636.96 890.06 2400.8
1629.49 882.64 2380.8
1664.73 898.32 2423.1
1646.90 885.36 2388.1
1649.08 883.21 2382.3
1685.62 899.42 2426.0
1722.87 915.87 2470.4
1747.65 925.61 2496.6
1741.71 919.06 2479.0
1752.80 921.51 2485.6
1753.96 918.74 2478.1
1806.64 942.88 2543.2
1970.50 1006.36 2714.5
1957.23 985.51 2658.2
1995.19 994.12 2681.4
1508.81 956.48 2598.1
1547.61 976.71 2653.0
1568.65 972.70 2642.1
1486.46 917.73 2492.8
1510.97 928.82 2523.0
1503.65 920.33 2499.9
1568.45 947.75 2574.4
1577.98 945.46 2568.1
1533.86 915.16 2485.9
1539.69 914.79 2484.9
1558.11 921.88 2504.1
1543.72 909.58 2470.7
1563.18 906.01 2461.0
1577.12 910.37 2472.8
1578.75 907.62 2465.4
1573.10 900.73 2446.6
1544.06 880.55 2391.8
1560.55 886.39 2407.7
1608.87 910.20 2472.4
1634.97 921.29 2502.5
1620.80 909.70 2471.0
1610.20 900.19 2445.2
1647.46 917.41 2492.0
1680.67 932.25 2532.3
1670.55 923.02 2507.2
1647.57 906.80 2463.1
1638.28 898.21 2439.8
1644.40 898.10 2439.5
1650.52 897.98 2439.2
1645.88 892.04 2423.1
1667.05 900.08 2444.9
1716.93 923.50 2508.5
1711.78 917.25 2491.5
1651.68 881.72 2395.0
1695.27 901.60 2449.0
1727.72 912.03 2477.3
1724.01 896.74 2435.8
1819.35 942.87 2561.1
1892.26 959.64 2606.7
1950.68 982.26 2668.1
1944.03 975.45 2649.6
1974.26 987.13 2681.3
1506.00 974.06 2664.6
1499.14 965.20 2640.4
1499.37 952.30 2605.1
1497.91 947.11 2590.9
1504.40 942.76 2579.0
1551.15 955.07 2612.7
1517.88 922.51 2523.6
1571.43 942.86 2579.2
1530.31 906.61 2480.1
1565.14 919.52 2515.4
1573.53 920.62 2518.4
1546.40 901.00 2464.7
1531.27 888.52 2430.6
1524.19 880.78 2409.4
1552.87 893.70 2444.8
1577.58 904.22 2473.6
1587.96 906.49 2479.8
1629.90 926.68 2535.0
1649.74 934.19 2555.5
1626.50 917.35 2509.5
1635.41 918.70 2513.2
1654.27 925.60 2532.0
1629.66 908.23 2484.5
1610.12 893.81 2445.1
1642.66 908.29 2484.7
1690.15 930.90 2546.5
1693.30 929.01 2541.4
1683.67 920.14 2517.1
1685.67 917.68 2510.4
1681.76 912.03 2494.9
1675.64 905.23 2476.3
1646.86 886.29 2424.5
1644.31 881.55 2411.5
1664.42 888.95 2431.8
1690.27 892.62 2441.8
1702.98 892.64 2441.9
1726.14 894.80 2447.8
1831.50 942.49 2578.2
1922.72 982.26 2687.0
1937.02 985.99 2697.2
1937.33 982.60 2688.0
1917.37 969.00 2650.7
1924.32 969.03 2650.9
1507.90 955.23 2631.8
1509.38 951.86 2622.5
1530.86 961.08 2647.9
1517.47 948.42 2613.0
1476.52 918.72 2531.2
1478.18 915.69 2522.8
1527.73 942.21 2595.9
1542.10 946.90 2608.8
1531.67 936.39 2579.8
1521.60 926.19 2551.8
1548.86 934.66 2575.1
1573.17 945.25 2604.3
1570.30 919.84 2534.3
1583.12 919.65 2533.7
1572.76 909.86 2506.8
1597.95 920.63 2536.4
1634.60 930.26 2563.0
1614.21 914.94 2520.7
1627.27 918.62 2530.9
1651.08 917.27 2527.2
1626.97 900.30 2480.4
1606.35 885.39 2439.3
1606.17 881.82 2429.5
1621.29 886.64 2442.8
1661.41 905.05 2493.5
1692.12 918.21 2529.8
1696.82 917.20 2527.0
1696.68 913.60 2517.0
1693.81 908.56 2503.2
1663.44 888.86 2448.9
1655.54 881.27 2428.0
1675.68 888.62 2448.2
1673.65 884.19 2436.0
1682.45 885.50 2439.6
1696.17 889.38 2450.3
1698.44 887.24 2444.4
1717.68 893.96 2462.9
1738.63 901.51 2483.8
1738.15 897.94 2473.9
1874.21 957.63 2638.4
1812.68 922.82 2542.5
1852.52 936.29 2579.6
1907.03 960.37 2645.9
1924.09 965.49 2660.0
1966.00 983.00 2708.3
1968.75 977.39 2692.8
1972.35 975.72 2688.2
1500.80 943.94 2619.4
1509.87 945.37 2623.3
1523.85 933.11 2589.3
1531.17 929.40 2579.0
1559.26 942.33 2614.9
1585.79 950.11 2636.5
1582.23 939.87 2608.1
1587.89 923.50 2562.6
1534.18 877.58 2435.2
1605.84 914.80 2538.5
1618.43 907.10 2517.1
1638.25 914.53 2537.7
1649.98 910.11 2525.5
1617.44 888.63 2465.9
1629.96 891.99 2475.2
1663.11 906.56 2515.6
1595.25 866.17 2403.6
1639.61 879.94 2441.8
1677.33 896.73 2488.3
1712.53 912.04 2530.8
1704.27 904.17 2509.0
1722.38 910.31 2526.0
1715.64 903.31 2506.6
1683.32 882.95 2450.1
1709.02 893.06 2478.2
1740.27 905.98 2514.0
1846.39 936.67 2599.2
1784.20 901.83 2502.5
1883.25 945.02 2622.4
1913.16 956.58 2654.4
1906.62 949.89 2635.9
1903.95 945.17 2622.8
1502.58 955.56 2670.8
1494.50 941.74 2632.2
1499.33 940.49 2628.7
1543.39 950.84 2657.6
1513.59 912.12 2549.4
1577.86 946.71 2646.1
1565.87 935.46 2614.6
1503.50 894.32 2499.7
1503.45 890.46 2488.9
1522.21 897.71 2509.1
1536.56 902.32 2522.0
1553.45 908.37 2538.9
1539.36 896.33 2505.3
1528.14 886.06 2476.6
1532.43 884.83 2473.1
1558.20 881.28 2463.2
1609.10 906.35 2533.3
1619.08 908.27 2538.6
1632.17 911.90 2548.8
1621.99 902.56 2522.7
1581.58 876.54 2450.0
1571.11 867.25 2424.0
1628.45 895.32 2502.4
1655.16 906.40 2533.4
1643.10 896.24 2505.0
1676.78 911.01 2546.3
1640.18 884.16 2471.3
1644.85 876.41 2449.6
1708.86 907.01 2535.1
1717.84 908.28 2538.7
1682.10 885.99 2476.4
1695.83 889.83 2487.1
1685.77 881.20 2463.0
1679.95 874.84 2445.2
1729.07 897.04 2507.2
1753.84 906.48 2533.6
1774.20 906.81 2534.6
1807.47 920.41 2572.6
1903.04 958.47 2678.9
1911.79 942.24 2633.6
1965.47 958.43 2678.8
1503.48 940.53 2648.0
1487.03 926.01 2607.1
1496.19 911.01 2564.9
1536.09 931.17 2621.6
1509.28 910.89 2564.5
1499.40 897.02 2525.5
1512.22 900.76 2536.0
1502.96 872.48 2456.4
1537.80 888.94 2502.7
1547.17 890.60 2507.4
1577.24 904.11 2545.4
1575.07 899.10 2531.4
1571.83 893.53 2515.7
1560.38 883.35 2487.0
1551.87 874.92 2463.3
1547.37 868.81 2446.1
1546.91 865.00 2435.4
1557.73 867.52 2442.4
1568.57 870.02 2449.5
1600.68 884.25 2489.5
1599.68 880.15 2478.0
1624.69 883.26 2486.8
1615.56 871.38 2453.3
1602.97 857.84 2415.2
1664.36 887.23 2497.9
1673.80 888.80 2502.4
1720.14 909.88 2561.7
1709.86 900.96 2536.6
1641.96 861.87 2426.5
1668.32 865.75 2437.5
1722.77 890.64 2507.5
1750.23 901.43 2537.9
1749.93 897.90 2528.0
1751.23 895.22 2520.4
1744.82 888.62 2501.9
1752.09 889.02 2503.0
1831.13 925.70 2606.2
1898.20 952.58 2681.9
1897.75 945.43 2661.8
1929.23 943.95 2657.6
1495.60 937.33 2658.4
1472.81 910.46 2582.2
1467.42 898.96 2549.6
1500.50 906.97 2572.3
1528.34 919.71 2608.4
1533.03 918.47 2604.9
1526.50 910.54 2582.4
1514.50 899.44 2550.9
1486.20 878.79 2492.4
1500.92 879.85 2495.4
1544.91 901.75 2557.5
1507.70 876.27 2485.2
1540.24 883.85 2506.7
1571.76 898.15 2547.3
1589.80 904.66 2565.7
1576.53 893.37 2533.7
1583.44 893.56 2534.3
1581.69 888.88 2521.0
1582.95 885.93 2512.6
1584.68 883.26 2505.1
1569.42 871.19 2470.8
1568.46 867.11 2459.3
1566.41 862.48 2446.1
1586.60 870.07 2467.6
1627.67 889.01 2521.4
1594.89 867.62 2460.7
1647.15 885.43 2511.2
1595.40 854.23 2422.7
1626.72 864.20 2451.0
1684.49 891.40 2528.1
1691.31 891.54 2528.5
1704.42 891.54 2528.5
1676.26 873.45 2477.2
1682.44 873.33 2476.9
1660.48 858.65 2435.2
1674.70 862.72 2446.8
1708.53 876.83 2486.8
1713.61 876.13 2484.8
1732.89 882.67 2503.4
1753.33 889.75 2523.4
1730.42 874.86 2481.2
1718.93 865.83 2455.6
1749.32 877.89 2489.8
1760.99 880.50 2497.2
1768.25 880.89 2498.3
1792.76 889.84 2523.7
1871.48 925.53 2624.9
1912.52 942.40 2672.8
1916.15 940.78 2668.2
1516.07 917.80 2622.3
1479.00 891.36 2546.8
1487.93 892.76 2550.7
1551.07 926.53 2647.2
1530.37 906.14 2589.0
1543.31 898.05 2565.8
1609.26 932.40 2664.0
1546.37 888.34 2538.1
1533.30 877.10 2506.0
1539.17 876.74 2505.0
1547.54 877.81 2508.0
1540.28 870.03 2485.8
1552.16 873.09 2494.5
1582.36 886.38 2532.5
1586.71 885.15 2529.0
1593.60 885.34 2529.5
1595.37 882.68 2521.9
1577.04 868.98 2482.8
1645.72 903.14 2580.4
1649.80 898.08 2565.9
1609.91 872.84 2493.8
1632.36 881.47 2518.5
1616.69 869.53 2484.4
1587.24 850.31 2429.4
1611.80 860.05 2457.3
1638.04 870.61 2487.5
1659.62 878.62 2510.4
1664.83 877.94 2508.4
1637.02 859.91 2456.9
1680.55 879.36 2512.4
1714.37 886.74 2533.5
1725.50 889.09 2540.3
1703.64 874.49 2498.6
1702.79 870.74 2487.8
1723.65 878.09 2508.8
1726.59 876.28 2503.6
1743.72 881.66 2519.0
1814.10 913.82 2610.9
1775.02 887.51 2535.7
1747.54 870.54 2487.3
1786.36 886.61 2533.2
1822.57 901.27 2575.1
1810.47 892.02 2548.6
1849.08 907.73 2593.5
1495.31 894.52 2574.8
1490.78 887.84 2555.6
1539.44 912.76 2627.4
1552.27 912.30 2626.0
1504.14 880.15 2533.5
1526.79 889.52 2560.5
1512.62 877.45 2525.7
1524.49 880.53 2534.6
1574.17 901.45 2594.8
1546.31 881.72 2538.0
1550.74 880.51 2534.5
1563.19 883.83 2544.1
1576.68 887.71 2555.2
1566.46 878.27 2528.1
1576.40 880.16 2533.5
1599.06 889.11 2559.3
1592.51 878.17 2527.8
1583.49 869.62 2503.2
1560.48 853.49 2456.7
1622.44 883.77 2543.9
1653.02 889.58 2560.6
1664.12 891.97 2567.5
1674.72 894.07 2573.6
1672.20 889.18 2559.5
1649.08 873.43 2514.1
1628.96 859.37 2473.7
1670.65 877.91 2527.0
1694.48 886.95 2553.1
1644.89 857.65 2468.7
1666.03 865.30 2490.7
1734.31 893.84 2572.9
1702.96 874.32 2516.7
1702.73 870.86 2506.7
1682.95 857.47 2468.2
1685.30 855.42 2462.3
1687.61 853.36 2456.4
1674.62 843.61 2428.3
1729.93 868.20 2499.1
1848.25 903.89 2601.8
1851.78 902.32 2597.3
1466.96 899.10 2607.5
1526.10 910.19 2639.6
1495.75 888.10 2575.6
1503.77 888.90 2577.9
1534.57 903.09 2619.0
1562.32 899.52 2608.7
1502.68 861.45 2498.3
1495.17 853.46 2475.1
1546.76 879.14 2549.6
1546.67 860.70 2496.1
1548.44 858.09 2488.6
1566.45 864.47 2507.1
1566.67 861.02 2497.0
1566.33 857.29 2486.2
1554.66 847.42 2457.6
1628.37 873.28 2532.6
1687.36 890.55 2582.7
1608.93 845.80 2452.9
1628.68 849.47 2463.6
1675.53 863.74 2504.9
1664.62 854.81 2479.0
1726.70 883.27 2561.6
1753.40 890.09 2581.3
1714.25 866.90 2514.1
1698.74 855.81 2481.9
1686.93 846.65 2455.4
1728.71 861.12 2497.3
1774.41 880.59 2553.8
1783.43 881.77 2557.2
1829.99 901.44 2614.3
1859.35 909.17 2636.7
1850.39 898.18 2604.8
1470.31 882.19 2577.8
1500.74 896.37 2619.3
1493.54 888.05 2595.0
1484.33 878.62 2567.4
1490.89 878.56 2567.2
1530.30 897.78 2623.4
1595.96 915.94 2676.5
1552.05 883.06 2580.4
1571.98 890.57 2602.3
1562.42 866.55 2532.1
1579.95 872.61 2549.8
1619.14 883.17 2580.7
1580.05 858.30 2508.0
1555.10 837.85 2448.3
1585.08 850.53 2485.3
1572.17 840.19 2455.1
1630.35 867.77 2535.7
1642.02 856.71 2503.4
1622.37 843.12 2463.7
1615.83 836.43 2444.1
1660.79 856.35 2502.3
1719.27 879.62 2570.3
1681.12 856.79 2503.6
1715.85 871.12 2545.5
1711.14 862.10 2519.1
1683.77 845.09 2469.4
1676.87 838.43 2450.0
1738.56 866.00 2530.5
1793.78 886.81 2591.3
1772.65 873.10 2551.3
1755.79 861.57 2517.6
1774.68 867.62 2535.3
1806.92 880.12 2571.8
1789.34 868.36 2537.4
1828.94 884.32 2584.1
1481.63 878.25 2585.9
1492.06 880.45 2592.4
1499.64 880.95 2593.9
1495.65 874.69 2575.4
1527.84 889.54 2619.2
1604.39 917.80 2702.3
1571.93 883.79 2602.2
1598.67 883.65 2601.8
1544.68 850.22 2503.4
1600.12 877.05 2582.4
1597.37 861.13 2535.5
1586.79 851.93 2508.4
1666.33 876.67 2581.2
1671.20 875.71 2578.4
1683.51 875.16 2576.8
1622.38 840.05 2473.4
1644.46 848.13 2497.2
1680.95 863.55 2542.6
1654.29 846.53 2492.5
1649.84 840.97 2476.1
1703.12 864.76 2546.2
1735.18 877.64 2584.1
1704.44 858.77 2528.6
1667.01 836.70 2463.6
1722.38 861.19 2535.7
1737.63 862.23 2538.7
1759.16 869.62 2560.5
1791.48 878.97 2588.0
1828.70 887.26 2612.4
1791.85 866.17 2550.3
1780.94 854.59 2516.2
1505.47 923.16 2739.1
1528.14 919.72 2728.8
1473.56 874.71 2595.3
1489.23 880.00 2611.0
1474.89 867.58 2574.2
1510.16 880.36 2612.1
1560.20 905.47 2686.6
1522.48 879.65 2610.0
1539.79 885.72 2628.0
1598.56 915.48 2716.3
1591.22 907.27 2691.9
1489.40 831.00 2465.6
1517.00 839.19 2489.9
1571.99 865.93 2569.2
1560.36 855.90 2539.5
1530.44 835.96 2480.3
1534.22 834.51 2476.0
1584.19 858.10 2546.0
1637.39 879.59 2609.8
1617.26 865.20 2567.1
1643.03 871.81 2586.7
1600.88 845.99 2510.1
1637.28 861.73 2556.8
1664.49 872.52 2588.8
1605.62 831.60 2467.4
1576.56 813.30 2413.1
1658.10 848.63 2517.9
1651.11 841.74 2497.5
1647.32 830.05 2462.8
1698.60 830.14 2463.1
1746.56 847.21 2513.7
1827.74 883.29 2620.8
1819.75 876.17 2599.6
1795.60 861.36 2555.7
1771.85 846.84 2512.6
1842.25 874.06 2593.4
1865.90 882.06 2617.1
1505.94 912.05 2727.1
1534.89 908.26 2715.7
1537.03 905.37 2707.1
1505.35 882.68 2639.3
1526.93 883.29 2641.1
1570.30 904.32 2704.0
1527.26 875.63 2618.2
1534.67 864.51 2584.9
1547.14 867.74 2594.6
1496.42 835.66 2498.7
1503.79 836.16 2500.1
1511.65 836.92 2502.4
1515.19 828.22 2476.4
1559.43 841.70 2516.7
1532.25 823.59 2462.5
1581.07 842.80 2520.0
1640.76 871.02 2604.4
1615.59 850.66 2543.5
1590.41 833.99 2493.7
1641.33 857.21 2563.1
1659.71 863.32 2581.4
1604.54 831.27 2485.5
1579.37 814.95 2436.7
1600.23 822.43 2459.1
1588.51 813.17 2431.4
1606.26 819.00 2448.8
1671.75 849.04 2538.6
1643.42 821.71 2456.9
1723.21 848.45 2536.9
1751.50 839.94 2511.4
1791.42 855.90 2559.2
1818.20 865.49 2587.8
1862.98 873.91 2613.0
1514.75 910.27 2743.0
1523.74 898.80 2708.4
1541.96 905.37 2728.2
1532.27 895.57 2698.7
1488.64 866.12 2610.0
1517.28 878.79 2648.1
1501.28 850.28 2562.2
1538.38 848.76 2557.7
1551.83 852.51 2568.9
1528.43 825.48 2487.5
1596.40 858.57 2587.2
1601.27 854.01 2573.5
1545.51 820.85 2473.6
1571.74 831.33 2505.1
1616.56 851.52 2566.0
1614.76 847.09 2552.6
