ply
format ascii 1.0
element vertex 2054
property float x
property float y
property float z
end_header
-1603.73 1020.00 2370.0
-1641.40 1047.97 2435.1
-1630.01 1044.72 2427.5
-1624.40 1045.15 2428.5
-1622.95 1048.29 2435.8
-1588.68 1030.16 2393.7
-1561.83 1016.72 2362.4
-1557.86 1018.13 2365.7
-1556.98 1021.57 2373.7
-1584.87 1044.00 2425.8
-1620.26 1071.57 2489.9
-1610.38 1069.29 2484.6
-1569.41 1046.27 2431.1
-1536.77 1028.64 2390.1
-1522.02 1022.90 2376.8
-1531.09 1033.17 2400.7
-1516.37 1027.42 2387.3
-1545.39 1060.06 2463.1
-1538.60 1059.78 2462.5
-1532.80 1060.18 2463.4
-1571.51 1091.51 2536.2
-1575.90 1099.16 2554.0
-1523.20 1066.89 2479.0
-1520.77 1069.70 2485.5
-1534.91 1084.24 2519.3
-1517.76 1076.70 2501.8
-1526.39 1087.47 2526.8
-1526.21 1092.03 2537.4
-1547.89 1122.05 2607.2
-1463.46 1065.50 2475.8
-1483.70 1085.00 2521.1
-1492.38 1096.17 2547.0
-1467.41 1082.62 2515.6
-1475.05 1093.11 2539.9
-1506.50 1121.43 2605.7
-1530.20 1144.20 2658.6
-1520.61 1142.18 2653.9
-1489.69 1124.04 2611.8
-1551.27 1186.68 2757.4
-1885.29 1083.88 2533.7
-1882.50 1086.06 2538.8
-1853.83 1073.27 2508.9
-1815.18 1054.59 2465.3
-1800.85 1057.44 2471.9
-1794.20 1057.30 2471.6
-1719.98 1017.19 2377.9
-1715.70 1018.31 2380.5
-1746.12 1040.11 2431.4
-1752.71 1047.82 2449.4
-1741.70 1045.02 2442.9
-1747.10 1052.09 2459.4
-1764.44 1066.42 2492.9
-1753.37 1063.62 2486.4
-1730.37 1053.55 2462.8
-1690.68 1033.19 2415.3
-1657.10 1016.44 2376.1
-1686.64 1038.42 2427.5
-1685.39 1041.53 2434.7
-1645.01 1020.40 2385.4
-1634.18 1017.51 2378.6
-1597.28 998.30 2333.7
-1639.68 1036.58 2423.2
-1650.42 1047.38 2448.4
-1611.68 1026.75 2400.2
-1582.02 1011.76 2365.2
-1556.67 999.42 2336.3
-1574.14 1014.58 2371.7
-1598.74 1034.48 2418.3
-1587.94 1031.53 2411.4
-1580.77 1030.94 2410.0
-1555.07 1018.20 2380.2
-1534.61 1008.81 2358.3
-1555.19 1026.42 2399.4
-1548.55 1026.15 2398.8
-1527.15 1016.05 2375.2
-1520.04 1015.41 2373.7
-1525.08 1022.92 2391.2
-1506.34 1014.47 2371.5
-1507.16 1023.38 2392.3
-1548.78 1064.79 2489.1
-1536.49 1060.75 2479.7
-1568.63 1087.50 2542.2
-1547.41 1077.31 2518.4
-1527.74 1068.12 2496.9
-1522.33 1068.87 2498.7
-1488.65 1049.69 2453.8
-1484.76 1051.44 2457.9
-1505.53 1070.74 2503.0
-1469.77 1063.65 2486.5
-1487.63 1081.32 2527.8
-1502.00 1096.59 2563.5
-1480.30 1085.55 2537.7
-1500.27 1130.34 2642.4
-1505.49 1139.47 2663.7
-1506.93 1145.82 2678.6
-1892.45 1070.21 2517.1
-1881.33 1071.31 2519.6
-1801.60 1036.71 2438.3
-1780.75 1035.61 2435.7
-1810.37 1056.58 2485.0
-1746.48 1022.94 2405.9
-1699.13 1002.36 2357.5
-1718.59 1017.50 2393.1
-1715.91 1019.60 2398.0
-1729.67 1031.51 2426.0
-1758.64 1052.62 2475.7
-1753.59 1053.44 2477.6
-1719.68 1036.87 2438.6
-1713.60 1037.01 2439.0
-1689.63 1026.30 2413.8
-1679.26 1023.79 2407.9
-1729.78 1058.52 2489.6
-1708.54 1049.44 2468.2
-1647.72 1015.88 2389.3
-1660.93 1027.89 2417.5
-1649.51 1024.70 2410.0
-1595.60 994.98 2340.1
-1619.87 1013.96 2384.8
-1657.17 1041.29 2449.0
-1619.38 1021.46 2402.4
-1613.82 1021.88 2403.4
-1615.07 1026.64 2414.6
-1587.53 1013.05 2382.6
-1604.92 1028.15 2418.1
-1625.30 1045.29 2458.4
-1612.35 1041.04 2448.4
-1591.16 1031.42 2425.8
-1551.50 1009.71 2374.8
-1528.99 999.02 2349.6
-1548.58 1015.87 2389.2
-1546.56 1018.62 2395.7
-1528.21 1010.59 2376.8
-1540.90 1023.11 2406.3
-1564.10 1042.73 2452.4
-1562.39 1054.45 2480.0
-1550.07 1050.46 2470.6
-1580.15 1075.29 2529.0
-1543.91 1055.00 2481.3
-1513.30 1038.41 2442.3
-1524.31 1050.37 2470.4
-1555.40 1076.31 2531.4
-1531.15 1073.11 2523.9
-1538.78 1083.09 2547.3
-1538.80 1092.48 2569.4
-1494.23 1065.45 2505.9
-1468.14 1051.42 2472.8
-1444.08 1038.72 2443.0
-1457.76 1053.18 2477.0
-1467.49 1064.91 2504.6
-1473.34 1073.90 2525.7
-1528.69 1129.31 2656.0
-1503.69 1126.05 2648.4
-1504.75 1132.01 2662.4
-1502.07 1135.20 2669.9
-1865.76 1067.09 2525.1
-1775.40 1018.98 2411.3
-1773.35 1021.40 2417.0
-1746.70 1009.62 2389.1
-1703.69 991.79 2346.9
-1726.65 1008.76 2387.1
-1711.84 1003.71 2375.1
-1707.56 1004.81 2377.7
-1701.62 1004.94 2378.0
-1712.13 1014.83 2401.4
-1747.20 1039.39 2459.6
-1749.83 1044.77 2472.3
-1709.91 1024.69 2424.8
-1694.08 1018.95 2411.2
-1653.35 998.14 2361.9
-1625.78 985.14 2331.2
-1677.56 1020.31 2414.4
-1657.52 1011.89 2394.5
-1602.16 981.77 2323.2
-1619.79 996.32 2357.6
-1632.48 1007.93 2385.1
-1602.52 993.20 2350.2
-1589.13 988.65 2339.5
-1585.82 990.38 2343.6
-1608.87 1008.63 2386.8
-1661.20 1045.47 2473.9
-1654.52 1053.46 2492.9
-1639.93 1048.27 2480.6
-1616.04 1037.06 2454.1
-1584.49 1020.84 2415.7
-1579.89 1021.92 2418.2
-1589.17 1032.01 2442.1
-1595.78 1040.45 2462.1
-1580.84 1034.85 2448.8
-1553.72 1021.20 2416.5
-1558.73 1028.64 2434.1
-1583.42 1049.18 2482.7
-1529.35 1025.86 2427.5
-1498.25 1017.56 2407.9
-1541.63 1051.40 2488.0
-1521.93 1042.33 2466.5
-1522.01 1046.79 2477.1
-1550.53 1070.92 2534.2
-1533.79 1063.86 2517.5
-1501.50 1045.92 2475.0
-1515.57 1060.25 2508.9
-1504.93 1066.54 2523.8
-1457.07 1041.68 2465.0
-1516.47 1088.92 2576.8
-1530.30 1103.71 2611.8
-1542.09 1117.16 2643.6
-1515.53 1102.82 2609.7
-1456.21 1064.40 2518.7
-1467.51 1077.50 2549.7
-1505.28 1110.23 2627.2
-1509.72 1118.56 2646.9
-1512.21 1125.52 2663.4
-1866.38 1060.89 2525.9
-1773.92 1015.46 2417.8
-1739.82 1006.61 2396.7
-1754.94 1019.00 2426.2
-1729.00 1007.54 2398.9
-1724.68 1008.65 2401.6
-1721.99 1010.73 2406.5
-1704.45 1004.08 2390.7
-1712.17 1012.31 2410.3
-1742.22 1033.85 2461.5
-1729.56 1030.11 2452.6
-1702.25 1017.58 2422.8
-1647.39 988.43 2353.4
-1637.13 989.61 2356.2
-1632.79 990.68 2358.8
-1597.09 987.51 2351.2
-1597.46 991.53 2360.8
-1625.78 1012.98 2411.9
-1647.58 1030.53 2453.6
-1635.10 1026.69 2444.5
-1654.05 1042.63 2482.5
-1635.83 1039.23 2474.4
-1590.67 1014.52 2415.5
-1586.60 1015.93 2418.9
-1608.83 1034.25 2462.5
-1557.32 1005.13 2393.2
-1549.70 1008.24 2400.6
-1587.43 1036.95 2468.9
-1552.69 1018.36 2424.7
-1538.89 1013.42 2412.9
-1537.27 1016.48 2420.2
-1514.34 1009.56 2403.7
-1569.75 1050.83 2502.0
-1493.01 1003.60 2389.5
-1526.34 1034.59 2463.3
-1523.99 1037.33 2469.8
-1498.93 1024.59 2439.5
-1499.05 1029.01 2450.0
-1503.53 1036.47 2467.8
-1492.80 1033.48 2460.7
-1475.78 1030.50 2453.6
-1512.96 1061.04 2526.3
-1461.68 1029.53 2451.3
-1458.23 1031.59 2456.2
-1537.99 1107.35 2636.5
-1472.26 1064.76 2535.1
-1437.04 1043.95 2485.6
-1469.51 1072.34 2553.2
-1497.03 1097.37 2612.8
-1493.59 1099.83 2618.6
-1526.76 1129.38 2689.0
-1558.60 1163.57 2770.4
-1820.20 1017.54 2437.8
-1756.47 985.34 2360.6
-1763.60 992.80 2378.5
-1788.13 1010.13 2420.0
-1772.60 1004.89 2407.5
-1733.00 985.91 2362.0
-1718.17 980.94 2350.1
-1758.61 1007.60 2413.9
-1778.78 1022.80 2450.4
-1747.74 1008.55 2416.2
-1718.47 995.23 2384.3
-1710.87 994.40 2382.3
-1753.41 1022.82 2450.4
-1781.40 1042.93 2498.6
-1703.41 1000.91 2397.9
-1721.41 1018.92 2441.1
-1747.76 1042.18 2496.8
-1720.46 1029.72 2466.9
-1719.17 1032.78 2474.3
-1680.70 1013.45 2428.0
-1693.40 1024.95 2455.5
-1655.47 1009.59 2418.7
-1638.73 1003.18 2403.4
-1660.82 1020.58 2445.0
-1650.43 1018.08 2439.1
-1613.13 998.90 2393.1
-1572.30 977.38 2341.5
-1594.70 995.14 2384.1
-1645.74 1030.99 2470.0
-1648.39 1040.75 2493.4
-1591.74 1008.94 2417.2
-1576.80 1003.42 2403.9
-1616.64 1032.85 2474.4
-1583.61 1015.78 2433.5
-1540.01 995.75 2385.6
-1600.25 1038.87 2488.9
-1588.35 1035.32 2480.4
-1526.26 998.89 2393.1
-1557.60 1031.99 2472.4
-1494.54 998.43 2392.0
-1497.61 1008.85 2417.0
-1509.71 1021.27 2446.7
-1498.99 1018.30 2439.6
-1487.32 1014.65 2430.8
-1477.63 1012.33 2425.3
-1503.13 1034.21 2477.7
-1506.51 1040.98 2493.9
-1530.86 1076.28 2578.5
-1539.64 1091.99 2616.1
-1522.50 1084.62 2598.5
-1494.06 1069.08 2561.2
-1459.61 1049.10 2513.4
-1450.78 1047.42 2509.4
-1466.35 1063.43 2547.7
-1473.34 1073.34 2571.4
-1460.21 1068.60 2560.1
-1480.53 1088.42 2607.6
-1517.76 1120.91 2685.4
-1494.31 1108.68 2656.1
-1493.01 1112.84 2666.1
-1548.84 1159.83 2778.6
-1545.41 1162.67 2785.5
-1879.51 1036.97 2499.8
-1819.88 1014.57 2445.8
-1808.78 1011.91 2439.4
-1810.67 1016.52 2450.5
-1772.59 998.64 2407.4
-1773.36 1002.61 2417.0
-1800.96 1021.82 2463.3
-1779.82 1013.42 2443.1
-1737.58 992.90 2393.6
-1746.07 1001.33 2413.9
-1755.59 1010.41 2435.8
-1725.78 996.84 2403.1
-1745.16 1011.68 2438.9
-1784.75 1038.40 2503.3
-1713.83 1000.78 2412.6
-1708.33 1004.90 2422.5
-1764.34 1041.68 2511.2
-1724.46 1021.90 2463.5
-1711.83 1018.19 2454.6
-1725.15 1029.94 2482.9
-1721.12 1031.38 2486.4
-1672.32 1017.38 2452.6
-1652.88 1009.39 2433.4
-1662.13 1018.93 2456.3
-1644.32 1011.89 2439.4
-1615.51 998.00 2405.9
-1653.58 1025.47 2472.1
-1611.19 1003.08 2418.1
-1600.51 1004.24 2420.9
-1623.47 1022.66 2465.3
-1576.82 997.20 2404.0
-1585.69 1006.79 2427.1
-1619.20 1032.16 2488.2
-1611.37 1031.27 2486.1
-1579.98 1015.25 2447.5
-1579.38 1018.95 2456.4
-1602.66 1038.16 2502.7
-1571.46 1022.09 2464.0
-1534.83 1002.34 2416.3
-1541.76 1010.99 2437.2
-1527.49 1005.75 2424.6
-1515.33 1010.22 2435.3
-1527.46 1022.57 2465.1
-1505.31 1011.97 2439.6
-1505.96 1016.68 2450.9
-1505.57 1020.73 2460.7
-1510.54 1028.45 2479.3
-1552.58 1061.59 2559.2
-1522.05 1049.69 2530.5
-1460.88 1011.87 2439.3
-1469.06 1021.95 2463.6
-1506.94 1052.89 2538.2
-1489.42 1045.21 2519.7
-1504.91 1060.73 2557.1
-1531.68 1084.37 2614.1
-1526.90 1085.80 2617.6
-1516.44 1083.17 2611.2
-1493.74 1071.74 2583.7
-1494.16 1076.87 2596.0
-1504.80 1089.45 2626.4
-1496.21 1088.16 2623.2
-1488.56 1087.53 2621.7
-1496.64 1098.45 2648.1
-1516.60 1118.23 2695.7
-1548.36 1157.66 2790.8
-1556.76 1186.10 2859.4
-1855.71 1031.67 2502.7
-1839.44 1026.21 2489.5
-1790.02 1002.16 2431.1
-1777.28 998.54 2422.3
-1769.05 997.44 2419.7
-1713.90 969.79 2352.6
-1726.98 980.68 2379.0
-1791.65 1021.05 2476.9
-1785.54 1021.23 2477.4
-1740.15 998.86 2423.1
-1745.16 1005.37 2438.9
-1768.83 1022.70 2481.0
-1777.51 1031.48 2502.2
-1703.97 996.07 2416.3
-1680.42 993.26 2409.5
-1705.73 1011.98 2454.9
-1717.93 1023.03 2481.8
-1695.61 1013.54 2458.7
-1656.76 994.05 2411.5
-1653.37 995.78 2415.6
-1654.75 1000.40 2426.9
-1649.71 1001.16 2428.7
-1672.77 1019.04 2472.1
-1669.74 1021.11 2477.1
-1654.56 1015.73 2464.0
-1647.93 1019.54 2473.3
-1566.91 973.20 2360.9
-1614.61 1006.76 2442.3
-1623.00 1015.97 2464.6
-1562.33 981.86 2381.9
-1567.11 988.77 2398.6
-1595.54 1010.72 2451.9
-1613.48 1026.17 2489.4
-1608.72 1027.26 2492.0
-1590.16 1019.50 2473.2
-1593.05 1025.49 2487.7
-1595.89 1031.49 2502.3
-1591.07 1032.57 2504.9
-1563.51 1018.85 2471.6
-1515.45 991.59 2405.5
-1499.74 985.37 2390.4
-1535.12 1012.79 2456.9
-1542.30 1021.77 2478.7
-1506.65 1002.33 2431.5
-1506.35 1006.34 2441.3
-1528.24 1025.28 2487.2
-1519.42 1023.68 2483.3
-1517.97 1027.05 2491.5
-1512.57 1027.77 2493.2
-1478.88 1009.19 2448.2
-1477.43 1012.55 2456.3
-1459.00 1004.25 2436.2
-1453.19 1004.60 2437.0
-1477.21 1025.66 2488.1
-1470.33 1025.36 2487.4
-1493.07 1045.81 2537.0
-1508.47 1061.27 2574.5
-1495.23 1056.63 2563.3
-1523.66 1081.53 2623.7
-1532.74 1107.75 2687.3
-1524.95 1107.16 2685.8
-1545.11 1153.39 2798.0
-1857.86 1022.80 2496.9
-1800.85 994.87 2428.7
-1789.22 991.92 2421.5
-1745.52 971.10 2370.7
-1746.37 975.01 2380.2
-1751.67 981.43 2395.9
-1723.92 969.32 2366.3
-1764.86 995.89 2431.2
-1797.23 1017.78 2484.6
-1755.59 997.78 2435.8
-1739.59 992.26 2422.3
-1773.88 1015.48 2479.0
-1778.21 1021.66 2494.1
-1766.56 1018.67 2486.8
-1694.68 984.41 2403.2
-1687.47 991.15 2419.6
-1714.94 1011.05 2468.2
-1731.44 1024.60 2501.3
-1712.31 1017.09 2482.9
-1674.47 998.36 2437.2
-1675.31 1002.65 2447.7
-1689.98 1015.28 2478.5
-1696.56 1023.11 2497.7
-1664.84 1007.83 2460.4
-1608.91 977.72 2386.9
-1651.12 1015.08 2478.1
-1614.71 1004.42 2452.0
-1555.58 971.47 2371.6
-1564.53 980.94 2394.7
-1586.29 998.54 2437.7
-1598.10 1010.00 2465.6
-1602.63 1016.93 2482.6
-1592.25 1014.42 2476.4
-1594.64 1020.05 2490.2
-1595.95 1025.04 2502.4
-1579.48 1018.60 2486.6
-1543.86 999.71 2440.5
-1521.52 989.30 2415.1
-1532.40 1000.49 2442.4
-1542.17 1011.05 2468.2
-1520.90 1001.26 2444.3
-1496.24 989.15 2414.7
-1506.40 1000.04 2441.3
-1539.18 1026.12 2505.0
-1539.19 1030.48 2515.6
-1494.96 1005.12 2453.7
-1482.71 1018.56 2486.5
-1508.10 1040.52 2540.2
-1504.47 1042.57 2545.2
-1495.56 1040.96 2541.2
-1477.60 1033.01 2521.8
-1448.79 1017.37 2483.6
-1459.42 1029.41 2513.0
-1480.30 1048.82 2560.4
-1480.30 1053.55 2572.0
-1507.42 1077.70 2630.9
-1519.83 1091.51 2664.6
-1479.07 1067.09 2605.0
-1466.35 1062.77 2594.5
-1851.06 1012.60 2487.7
-1773.65 973.65 2392.0
-1743.45 960.43 2359.6
-1729.47 959.46 2357.2
-1781.35 991.75 2436.5
-1798.83 1005.04 2469.2
-1778.80 997.40 2450.4
-1746.03 982.53 2413.9
-1716.72 969.52 2381.9
-1711.89 970.28 2383.8
-1727.48 982.66 2414.2
-1711.01 976.83 2399.9
-1694.02 970.66 2384.7
-1696.83 975.83 2397.4
-1670.05 963.97 2368.2
-1660.84 972.96 2390.3
-1714.74 1008.30 2477.2
-1707.49 1007.81 2476.0
-1679.84 995.23 2445.1
-1659.80 987.08 2425.0
-1654.24 987.51 2426.1
-1650.27 988.90 2429.5
-1607.51 966.97 2375.6
-1592.33 972.75 2389.8
-1630.78 1000.13 2457.1
-1586.46 976.76 2399.7
-1549.13 957.53 2352.4
-1565.06 975.06 2395.5
-1634.32 1022.26 2511.5
-1589.91 998.46 2453.0
-1538.52 970.07 2383.3
-1518.10 961.06 2361.1
-1507.46 958.18 2354.0
-1543.11 984.83 2419.5
-1561.78 1000.82 2458.8
-1546.93 995.36 2445.4
-1547.74 999.98 2456.7
-1536.96 997.12 2449.7
-1526.19 994.24 2442.6
-1529.43 1000.50 2458.0
-1529.12 1004.48 2467.8
-1520.82 1003.23 2464.7
-1532.82 1015.41 2494.6
-1542.71 1026.30 2521.4
-1508.27 1007.65 2475.6
-1492.13 1001.13 2459.6
-1491.18 1004.79 2468.5
-1489.22 1007.79 2475.9
-1511.48 1027.28 2523.8
-1540.31 1051.43 2583.1
-1551.55 1063.73 2613.3
-1528.09 1052.24 2585.1
-1504.26 1040.39 2556.0
-1507.26 1047.08 2572.4
-1498.77 1045.81 2569.3
-1466.60 1027.93 2525.4
-1442.16 1015.33 2494.5
-1456.93 1035.01 2542.8
-1478.87 1055.37 2592.8
-1451.73 1040.74 2556.9
-1570.59 1168.64 2871.1
-1803.63 976.97 2415.6
-1743.39 954.28 2359.5
-1750.50 961.54 2377.4
-1753.60 966.65 2390.1
-1794.80 992.87 2454.9
-1782.04 989.32 2446.1
-1731.33 964.60 2385.0
-1739.88 972.84 2405.4
-1755.02 984.83 2435.0
-1755.63 988.73 2444.7
-1775.00 1003.26 2480.6
-1753.44 994.68 2459.4
-1732.49 986.38 2438.9
-1730.27 988.72 2444.6
-1697.92 973.81 2407.8
-1691.91 973.94 2408.1
-1674.45 967.46 2392.1
-1634.80 958.75 2370.5
-1614.31 950.31 2349.7
-1599.79 945.33 2337.4
-1598.13 947.94 2343.8
-1600.18 952.78 2355.8
-1596.33 954.13 2359.1
-1592.46 955.48 2362.4
-1571.14 946.32 2339.8
-1572.56 950.85 2351.0
-1608.09 976.12 2413.5
-1600.93 975.57 2412.1
-1546.22 945.92 2338.8
-1586.33 985.93 2437.7
-1545.12 964.16 2383.9
-1536.47 962.61 2380.1
-1554.44 977.80 2417.6
-1537.05 970.77 2400.3
-1566.03 993.09 2455.5
-1562.83 995.11 2460.4
-1528.24 977.07 2415.8
-1554.34 997.84 2467.2
-1567.66 1010.56 2498.6
-1531.23 991.17 2450.7
-1509.98 981.49 2426.8
-1527.67 997.14 2465.4
-1537.25 1007.61 2491.3
-1524.46 1003.44 2481.0
-1507.75 996.65 2464.2
-1518.65 1008.12 2492.6
-1550.02 1033.34 2555.0
-1537.65 1029.50 2545.5
-1522.88 1024.00 2531.9
-1528.54 1032.26 2552.3
-1537.99 1043.16 2579.2
-1538.65 1048.16 2591.6
-1501.76 1027.52 2540.6
-1489.51 1023.63 2530.9
-1503.06 1037.51 2565.3
-1483.64 1028.66 2543.4
-1442.03 1004.27 2483.1
-1445.67 1015.88 2511.8
-1475.58 1051.10 2598.9
-1575.98 1132.96 2801.3
-1553.67 1122.10 2774.4
-1543.41 1119.87 2768.9
-1560.15 1137.30 2812.0
-1555.28 1139.08 2816.4
-1534.18 1134.28 2804.5
-1561.73 1160.14 2868.5
-1905.68 1015.05 2525.9
-1853.22 990.51 2464.9
-1784.58 963.80 2398.4
-1790.56 970.41 2414.8
-1815.14 987.18 2456.6
-1809.11 987.37 2457.0
-1800.82 986.32 2454.4
-1814.99 997.60 2482.5
-1774.74 978.95 2436.1
-1735.76 960.87 2391.1
-1756.01 975.56 2427.7
-1735.77 978.35 2434.6
-1733.58 980.67 2440.4
-1750.57 993.91 2473.3
-1751.56 998.13 2483.8
-1752.86 1006.27 2504.1
-1625.50 936.63 2330.8
-1637.49 950.60 2365.6
-1668.72 972.37 2419.7
-1651.90 966.20 2404.4
-1652.82 970.40 2414.8
-1670.27 984.38 2449.6
-1651.86 977.25 2431.9
-1626.61 965.99 2403.9
-1634.85 974.62 2425.3
-1623.98 971.88 2418.5
-1617.88 971.98 2418.8
-1648.57 994.28 2474.2
-1635.60 994.19 2474.0
-1566.80 956.12 2379.3
-1531.32 953.23 2372.1
-1588.27 992.67 2470.2
-1564.02 985.46 2452.3
-1549.09 992.19 2469.0
-1554.33 999.67 2487.7
-1522.00 982.96 2446.1
-1530.19 992.39 2469.5
-1531.83 997.62 2482.6
-1511.13 988.29 2459.3
-1540.87 1012.01 2518.4
-1544.88 1032.14 2568.5
-1504.82 1009.73 2512.7
-1467.88 989.22 2461.7
-1465.29 996.14 2478.9
-1533.67 1047.22 2606.0
-1490.25 1022.07 2543.4
-1454.28 1019.97 2538.2
-1474.87 1039.11 2585.8
-1531.24 1088.73 2709.3
-1514.66 1086.91 2704.7
-1559.88 1129.82 2811.5
-1519.00 1105.37 2750.7
-1509.25 1103.46 2745.9
-1556.55 1143.44 2845.4
-1549.32 1143.55 2845.7
-1886.17 998.18 2500.1
-1864.07 989.88 2479.3
-1855.74 988.87 2476.8
-1874.20 1002.18 2510.1
-1872.07 1004.53 2516.0
-1858.57 1000.77 2506.6
-1856.99 1003.42 2513.2
-1820.38 987.11 2472.3
-1742.80 948.38 2375.3
-1738.28 952.65 2386.1
-1779.87 978.93 2451.9
-1768.24 976.02 2444.6
-1800.58 997.44 2498.2
-1762.82 983.60 2463.6
-1702.07 953.16 2387.3
-1729.70 972.17 2434.9
-1728.59 975.10 2442.3
-1709.37 967.81 2424.0
-1735.57 986.26 2470.2
-1713.08 977.09 2447.3
-1705.35 976.30 2445.3
-1724.49 1002.15 2510.0
-1691.96 986.98 2472.0
-1667.56 983.92 2464.4
-1614.68 956.39 2395.4
-1652.54 982.59 2461.0
-1646.61 994.42 2490.7
-1578.78 957.21 2397.5
-1556.04 947.16 2372.3
-1558.81 952.61 2385.9
-1553.76 953.31 2387.7
-1564.69 963.85 2414.1
-1541.07 953.11 2387.2
-1538.56 955.39 2392.9
-1551.87 967.56 2423.4
-1524.71 962.32 2410.3
-1513.49 959.17 2402.4
-1524.45 970.10 2429.8
-1557.88 995.49 2493.4
-1553.04 996.53 2496.0
-1568.16 1018.97 2552.2
-1553.77 1013.90 2539.5
-1577.84 1033.99 2589.8
-1559.00 1026.01 2569.8
-1525.78 1017.18 2547.7
-1473.73 986.76 2471.5
-1476.41 997.22 2497.7
-1545.76 1048.67 2626.5
-1499.40 1021.72 2559.0
-1462.84 1001.23 2507.7
-1488.19 1023.13 2562.6
-1477.35 1020.24 2555.3
-1474.09 1022.57 2561.2
-1514.95 1055.67 2644.1
-1510.01 1066.70 2671.7
-1538.24 1101.81 2759.6
-1502.82 1081.47 2708.7
-1520.53 1099.35 2753.5
-1573.07 1142.70 2862.0
-1882.70 989.87 2495.5
-1866.33 984.65 2482.3
-1862.00 985.76 2485.1
-1850.24 982.94 2478.0
-1816.88 968.58 2441.8
-1824.51 976.05 2460.6
-1842.83 989.31 2494.1
-1788.16 963.34 2428.6
-1738.78 946.74 2386.7
-1779.28 972.25 2451.1
-1761.52 965.99 2435.3
-1758.27 967.68 2439.5
-1754.46 969.07 2443.0
-1737.33 963.09 2427.9
-1732.41 963.85 2429.9
-1718.65 959.69 2419.4
-1676.36 939.50 2368.5
-1676.45 943.00 2377.3
-1720.80 971.52 2449.2
-1743.61 988.04 2490.9
-1672.29 965.51 2434.1
-1645.26 953.50 2403.8
-1699.70 988.80 2492.8
-1654.78 970.04 2445.5
-1614.12 949.85 2394.6
-1664.19 983.10 2478.4
-1669.07 989.80 2495.3
-1629.12 969.86 2445.0
-1619.28 967.77 2439.8
-1600.03 960.02 2420.2
-1573.54 947.84 2389.5
-1586.72 959.56 2419.1
-1597.20 969.73 2444.7
-1602.39 976.76 2462.4
-1609.58 985.06 2483.4
-1580.67 971.25 2448.5
-1559.06 961.84 2424.8
-1551.35 960.96 2422.6
-1521.72 946.44 2386.0
-1538.49 960.77 2422.1
-1571.84 985.62 2484.8
-1548.35 974.89 2457.7
-1537.55 972.09 2450.6
-1547.87 982.67 2477.3
-1527.54 973.81 2455.0
-1556.70 996.55 2512.3
-1539.98 998.38 2516.9
-1525.19 993.00 2503.4
-1527.15 998.52 2517.3
-1574.57 1033.95 2606.6
-1572.36 1036.94 2614.1
-1517.57 1005.15 2534.0
-1505.55 1014.75 2558.2
-1503.30 1017.72 2565.7
-1511.51 1027.83 2591.2
-1524.36 1041.20 2624.9
-1498.26 1027.95 2591.5
-1504.36 1036.79 2613.8
-1524.55 1069.98 2697.4
-1548.55 1112.34 2804.2
-1517.31 1095.04 2760.6
-1896.67 994.12 2522.7
-1891.13 994.64 2524.0
-1877.59 990.95 2514.6
-1832.20 970.37 2462.4
-1828.45 971.76 2465.9
-1826.37 974.07 2471.8
-1755.33 939.47 2384.0
-1752.81 941.44 2389.0
-1818.88 980.39 2487.8
-1831.85 990.90 2514.5
-1806.67 980.76 2488.8
-1753.10 955.09 2423.6
-1717.02 938.80 2382.3
-1732.20 950.52 2412.0
-1733.41 954.63 2422.5
-1734.58 958.75 2432.9
-1727.43 958.28 2431.7
-1687.84 939.75 2384.7
-1689.56 944.16 2395.9
-1707.09 957.48 2429.7
-1710.31 962.84 2443.3
-1696.06 958.37 2431.9
-1669.90 947.11 2403.4
-1682.28 957.70 2430.3
-1662.16 949.81 2410.2
-1669.04 957.33 2429.3
-1683.63 973.05 2469.2
-1618.70 939.09 2383.0
-1601.49 932.67 2366.7
-1613.02 943.00 2392.9
-1631.88 957.70 2430.3
-1607.26 946.91 2402.9
-1596.97 944.51 2396.8
-1615.59 959.26 2434.2
-1592.15 949.05 2408.3
-1560.45 933.81 2369.6
-1576.29 947.02 2403.2
-1589.40 958.69 2432.8
-1599.81 968.81 2458.4
-1614.24 981.46 2490.5
-1614.14 985.34 2500.4
-1585.64 975.78 2476.1
-1531.91 946.54 2401.9
-1539.50 955.12 2423.7
-1561.21 972.56 2468.0
-1544.32 965.99 2451.3
-1537.06 965.43 2449.9
-1554.93 980.70 2488.6
-1541.58 976.34 2477.5
-1503.80 956.39 2426.9
-1507.53 962.80 2443.2
-1533.53 983.53 2495.8
-1546.46 996.02 2527.5
-1540.02 996.10 2527.7
-1550.78 1007.35 2556.2
-1572.44 1030.22 2614.3
-1544.88 1016.55 2579.6
-1514.06 1000.60 2539.1
-1475.05 983.37 2495.4
-1514.26 1013.95 2573.0
-1490.93 1002.75 2544.6
-1484.88 1003.12 2545.5
-1483.10 1006.39 2553.8
-1506.87 1027.10 2606.4
-1518.26 1048.98 2661.9
-1543.70 1071.42 2718.8
-1540.04 1073.79 2724.8
-1546.67 1098.57 2787.7
-1533.40 1099.42 2789.9
-1881.20 972.81 2484.9
-1921.31 1000.41 2555.4
-1888.25 986.59 2520.2
-1914.67 1003.87 2564.3
-1837.50 970.15 2478.1
-1773.05 939.41 2399.6
-1771.09 941.67 2405.4
-1836.22 979.75 2502.7
-1817.80 976.83 2495.2
-1787.04 963.73 2461.7
-1726.79 934.57 2387.3
-1711.02 932.72 2382.5
-1720.05 941.04 2403.8
-1730.11 949.99 2426.6
-1766.01 973.24 2486.0
-1762.07 974.63 2489.6
-1679.62 932.44 2381.8
-1650.76 923.20 2358.2
-1657.35 930.34 2376.4
-1620.42 913.00 2332.2
-1623.19 917.99 2344.9
-1644.29 933.41 2384.3
-1690.02 962.99 2459.9
-1710.96 982.34 2509.3
-1633.08 941.20 2404.2
-1603.57 927.73 2369.8
-1599.16 928.74 2372.4
-1603.22 934.70 2387.6
-1591.89 931.69 2379.9
-1594.82 937.03 2393.6
-1589.81 937.74 2395.4
-1570.53 937.35 2394.4
-1590.43 952.99 2434.3
-1606.54 966.49 2468.8
-1612.70 974.07 2488.2
-1604.36 972.93 2485.2
-1596.03 971.77 2482.3
-1549.28 947.13 2419.4
-1514.01 929.33 2373.9
-1541.53 950.08 2426.9
-1577.46 976.22 2493.6
-1573.16 977.56 2497.1
-1547.15 965.37 2465.9
-1546.90 969.22 2475.8
-1567.67 986.32 2519.5
-1562.77 987.36 2522.1
-1544.90 980.17 2503.7
-1551.44 988.47 2524.9
-1561.84 999.32 2552.7
-1553.39 998.13 2549.6
-1515.42 977.90 2498.0
-1505.11 975.42 2491.6
-1543.20 1004.41 2565.7
-1571.74 1027.41 2624.4
-1559.87 1028.56 2627.4
-1537.77 1018.44 2601.5
-1525.38 1014.68 2591.9
-1502.96 1004.19 2565.1
-1499.26 1006.17 2570.2
-1473.18 993.08 2536.7
-1472.35 996.97 2546.7
-1531.46 1041.67 2660.8
-1521.39 1039.50 2655.3
-1522.12 1044.73 2668.7
-1540.20 1071.75 2737.7
-1529.07 1068.94 2730.5
-1530.87 1075.17 2746.4
-1533.51 1082.06 2764.0
-1524.19 1080.53 2760.1
-1908.67 987.24 2538.6
-1845.28 957.76 2462.8
-1840.41 958.54 2464.8
-1890.23 987.92 2540.4
-1866.45 978.90 2517.2
-1845.57 971.35 2497.8
-1812.06 963.86 2478.5
-1764.97 942.15 2422.7
-1723.12 923.10 2373.7
-1709.39 919.03 2363.2
-1720.22 928.18 2386.7
-1705.94 923.79 2375.5
-1678.59 915.59 2354.4
-1702.50 932.03 2396.6
-1741.67 956.96 2460.8
-1702.62 938.94 2414.4
-1670.85 924.82 2378.1
-1722.81 957.12 2461.2
-1749.93 975.80 2509.2
-1725.78 965.92 2483.8
-1643.17 923.13 2373.8
-1606.41 909.29 2338.2
-1638.14 930.76 2393.4
-1690.58 964.21 2479.4
-1704.71 975.98 2509.7
-1663.78 956.20 2458.8
-1649.64 951.72 2447.3
-1663.65 963.50 2477.6
-1663.26 967.01 2486.6
-1599.53 933.57 2400.6
-1553.79 914.00 2350.3
-1618.94 956.07 2458.5
-1621.60 961.42 2472.2
-1605.49 955.65 2457.4
-1589.94 950.17 2443.3
-1563.07 937.84 2411.6
-1589.42 957.48 2462.1
-1618.65 979.02 2517.5
-1579.50 959.21 2466.5
-1552.29 946.52 2433.9
-1582.27 968.73 2491.0
-1585.52 982.76 2527.1
-1565.03 974.08 2504.8
-1567.70 979.81 2519.5
-1565.80 982.72 2527.0
-1549.91 976.84 2511.9
-1569.86 993.58 2554.9
-1548.49 988.40 2541.6
-1503.66 968.02 2489.2
-1557.14 1024.44 2634.3
-1539.87 1017.54 2616.5
-1515.00 1005.53 2585.7
-1506.49 1004.32 2582.5
-1475.13 987.81 2540.1
-1520.82 1036.92 2666.4
-1570.98 1085.93 2792.4
-1565.76 1087.33 2796.0
-1542.53 1076.19 2767.3
-1520.80 1065.98 2741.1
-1508.78 1062.52 2732.2
-1548.30 1095.50 2817.0
-1913.39 976.36 2527.5
-1846.63 955.38 2473.2
-1807.53 938.40 2429.2
-1841.95 959.62 2484.1
-1875.61 980.58 2538.4
-1786.82 947.46 2452.7
-1763.96 938.68 2429.9
-1771.94 946.30 2449.7
-1759.76 943.18 2441.6
-1723.11 926.87 2399.4
-1702.15 918.92 2378.8
-1702.86 922.64 2388.4
-1699.67 924.27 2392.7
-1714.08 935.53 2421.8
-1717.95 941.08 2436.2
-1727.78 949.96 2459.2
-1749.01 965.20 2498.6
-1742.28 965.06 2498.2
-1728.48 960.98 2487.7
-1649.61 920.57 2383.1
-1600.39 899.84 2329.4
-1633.24 921.79 2386.2
-1686.80 955.64 2473.8
-1685.64 962.30 2491.1
-1663.45 953.28 2467.8
-1670.53 961.04 2487.8
-1683.89 972.48 2517.4
-1629.04 944.46 2444.9
-1567.08 912.09 2361.1
-1600.44 935.16 2420.8
-1662.36 975.17 2524.4
-1609.63 951.73 2463.7
-1563.46 928.11 2402.6
-1542.86 919.54 2380.4
-1576.51 943.37 2442.1
-1602.20 962.61 2491.9
-1561.03 941.67 2437.7
-1577.33 955.37 2473.2
-1568.12 961.52 2489.1
-1557.25 958.80 2482.0
-1555.47 961.68 2489.5
-1547.64 960.82 2487.3
-1535.30 957.15 2477.8
-1527.98 956.59 2476.3
-1559.45 980.42 2538.0
-1571.84 992.39 2569.0
-1514.93 960.53 2486.5
-1487.89 947.41 2452.6
-1564.55 1000.51 2590.0
-1557.12 1013.15 2622.7
-1520.52 993.68 2572.3
-1493.75 980.48 2538.1
-1482.93 977.68 2530.9
-1488.86 985.96 2552.3
-1508.04 1003.12 2596.8
-1480.52 989.22 2560.8
-1499.78 1015.76 2629.5
-1535.17 1044.48 2703.8
-1571.03 1093.85 2831.6
-1545.27 1086.06 2811.5
-1914.24 966.92 2520.0
-1899.18 975.97 2543.5
-1794.89 925.59 2412.3
-1771.32 916.62 2388.9
-1814.82 942.43 2456.1
-1822.75 960.03 2502.0
-1837.95 971.49 2531.9
-1827.28 969.31 2526.2
-1796.54 956.43 2492.6
-1754.22 937.27 2442.7
-1730.95 928.19 2419.0
-1735.47 934.00 2434.2
-1734.41 936.83 2441.6
-1724.49 934.89 2436.5
-1703.04 926.66 2415.0
-1725.54 942.36 2456.0
-1761.02 965.30 2515.7
-1718.25 945.36 2463.8
-1672.39 923.56 2407.0
-1639.23 908.63 2368.1
-1615.40 898.79 2342.4
-1632.70 911.85 2376.4
-1668.17 935.19 2437.3
-1701.80 957.67 2495.9
-1675.47 950.08 2476.1
-1647.97 938.08 2444.8
-1653.52 944.87 2462.5
-1661.64 953.19 2484.2
-1651.72 951.18 2479.0
-1633.38 944.30 2461.0
-1614.58 937.09 2442.2
-1624.13 946.34 2466.3
-1630.97 954.09 2486.5
-1590.35 934.01 2434.2
-1549.91 913.89 2381.8
-1538.66 910.89 2373.9
-1564.61 929.97 2423.7
-1582.12 944.17 2460.7
-1573.83 943.03 2457.7
-1548.85 943.33 2458.5
-1515.30 926.71 2415.2
-1524.74 936.35 2440.3
-1528.05 942.30 2455.8
-1502.25 930.26 2424.4
-1483.06 922.24 2403.5
-1497.78 935.32 2437.6
-1497.48 939.10 2447.5
-1485.76 935.72 2438.6
-1504.14 951.34 2479.4
-1533.16 973.86 2538.0
-1541.87 983.61 2563.5
-1546.09 990.57 2581.6
-1525.90 981.88 2559.0
-1512.59 977.57 2547.7
-1511.87 981.39 2557.7
-1495.23 974.86 2540.7
-1493.52 978.06 2549.0
-1507.56 991.64 2584.4
-1537.65 1015.95 2647.7
-1546.11 1026.12 2674.3
-1520.38 1013.59 2641.6
-1539.12 1030.72 2686.2
-1531.07 1034.69 2696.6
-1512.07 1026.54 2675.3
-1548.95 1056.43 2753.2
-1548.44 1060.97 2765.1
-1502.18 1034.06 2694.9
-1913.53 966.63 2536.3
-1877.57 961.68 2523.4
-1818.48 934.67 2452.5
-1837.47 947.75 2486.8
-1839.34 952.05 2498.1
-1797.61 933.74 2450.1
-1770.16 922.74 2421.2
-1769.25 925.55 2428.6
-1803.67 946.93 2484.6
-1816.05 956.84 2510.7
-1800.96 952.31 2498.8
-1769.75 939.18 2464.3
-1749.77 931.95 2445.3
-1757.58 939.51 2465.2
-1747.62 937.59 2460.2
-1729.39 931.21 2443.4
-1704.07 920.95 2416.5
-1723.29 934.78 2452.8
-1728.70 941.18 2469.6
-1658.14 906.12 2377.6
-1684.85 924.15 2424.9
-1724.95 949.69 2491.9
-1654.85 914.52 2399.6
-1628.29 903.24 2370.0
-1647.10 917.14 2406.5
-1664.16 930.16 2440.7
-1678.41 941.70 2470.9
-1651.92 930.39 2441.3
-1645.80 930.51 2441.6
-1672.62 949.32 2490.9
-1658.12 952.12 2498.3
-1620.85 934.37 2451.7
-1577.98 913.24 2396.3
-1554.01 910.12 2388.1
-1543.78 907.74 2381.8
-1573.35 928.84 2437.2
-1608.36 953.34 2501.5
-1616.94 962.31 2525.0
-1609.04 961.50 2522.9
-1605.23 963.14 2527.2
-1608.01 968.76 2541.9
-1563.04 945.54 2481.0
-1501.10 911.83 2392.5
-1497.87 917.45 2407.3
-1469.91 919.48 2412.6
-1471.59 924.46 2425.7
-1504.18 953.08 2500.8
-1523.18 969.29 2543.3
-1534.70 980.87 2573.7
-1556.28 999.01 2621.3
-1556.88 1003.78 2633.8
-1538.14 996.07 2613.6
-1517.08 986.78 2589.2
-1512.87 988.41 2593.5
-1524.85 1000.68 2625.7
-1510.55 995.74 2612.7
-1500.56 993.62 2607.2
-1535.43 1021.31 2679.8
-1558.25 1041.19 2732.0
-1506.32 1011.09 2653.0
-1529.99 1036.44 2719.5
-1551.81 1056.09 2771.1
-1526.30 1043.56 2738.2
-1511.04 1037.96 2723.5
-1529.77 1055.76 2770.2
-1918.65 976.04 2578.6
-1897.61 968.71 2559.2
-1856.74 951.17 2512.9
-1808.65 929.80 2456.4
-1768.11 912.17 2409.8
-1739.02 900.34 2378.6
-1752.50 913.80 2414.2
-1762.21 922.16 2436.2
-1748.93 918.50 2426.6
-1744.60 919.53 2429.3
-1748.03 924.68 2442.9
-1764.73 936.91 2475.2
-1762.50 939.14 2481.1
-1755.82 939.01 2480.8
-1739.78 933.85 2467.1
-1766.07 951.46 2513.6
-1690.28 917.40 2423.7
-1700.58 926.43 2447.5
-1682.41 923.43 2439.6
-1630.37 898.24 2373.0
-1624.93 898.63 2374.1
-1601.20 888.88 2348.3
-1586.10 887.24 2344.0
-1616.95 907.98 2398.8
-1622.59 914.67 2416.4
-1620.75 917.17 2423.0
-1677.04 952.72 2517.0
-1605.56 919.26 2428.6
-1597.04 925.27 2444.4
-1605.93 934.13 2467.9
-1592.44 929.99 2456.9
-1570.21 920.68 2432.3
-1552.69 914.09 2414.9
-1567.10 926.30 2447.2
-1564.98 928.81 2453.8
-1544.96 920.67 2432.3
-1526.04 913.12 2412.4
-1522.41 914.70 2416.5
-1506.11 908.65 2400.5
-1496.93 906.86 2395.8
-1514.43 921.28 2433.9
-1529.26 934.19 2468.0
-1529.96 938.55 2479.5
-1531.61 943.52 2492.7
-1542.64 954.34 2521.3
-1541.17 957.49 2529.6
-1534.73 957.57 2529.8
-1553.37 973.36 2571.5
-1545.19 976.61 2580.1
-1552.45 989.77 2614.9
-1566.64 1007.62 2662.0
-1530.10 988.47 2611.4
-1479.39 959.96 2536.1
-1490.63 975.93 2578.3
-1551.33 1020.25 2695.4
-1556.30 1028.14 2716.2
-1549.88 1028.55 2717.3
-1517.18 1011.46 2672.1
-1515.51 1014.97 2681.4
-1567.34 1054.52 2785.9
-1572.17 1067.61 2820.5
-1554.44 1060.51 2801.7
-1540.38 1065.86 2815.9
-1933.77 966.89 2572.0
-1894.28 950.42 2528.2
-1845.20 929.00 2471.2
-1825.72 925.63 2462.3
-1825.96 929.00 2471.2
-1804.03 921.07 2450.1
-1785.56 914.86 2433.6
-1779.01 914.74 2433.3
-1789.35 923.33 2456.1
-1776.00 919.72 2446.5
-1746.99 907.93 2415.2
-1725.35 899.91 2393.9
-1716.06 898.30 2389.6
-1696.76 891.41 2371.2
-1687.51 889.78 2366.9
-1743.06 922.42 2453.7
-1765.06 940.93 2503.0
-1696.22 914.32 2432.2
-1645.45 890.26 2368.2
-1631.88 886.23 2357.5
-1643.84 896.08 2383.7
-1663.81 910.39 2421.7
-1671.23 917.91 2441.7
-1658.66 914.47 2432.6
-1604.28 887.86 2361.8
-1588.67 882.59 2347.8
-1586.45 884.75 2353.5
-1572.24 887.06 2359.7
-1623.76 919.71 2446.5
-1580.24 898.57 2390.3
-1596.36 914.91 2433.8
-1651.77 950.42 2528.2
-1644.91 950.25 2527.8
-1621.45 940.44 2501.7
-1589.81 925.79 2462.7
-1565.01 915.03 2434.1
-1570.66 922.05 2452.7
-1580.32 931.49 2477.9
-1570.98 929.76 2473.3
-1551.97 922.28 2453.3
-1548.78 924.17 2458.4
-1526.32 914.53 2432.7
-1510.51 908.81 2417.5
-1549.12 935.92 2489.7
-1586.43 962.48 2560.3
-1541.18 950.94 2529.6
-1554.49 963.25 2562.3
-1568.20 984.37 2618.5
-1512.34 953.43 2536.2
-1579.21 999.94 2659.9
-1504.33 969.46 2578.9
-1486.86 966.79 2571.8
-1539.78 1019.49 2711.9
-1527.28 1015.85 2702.3
-1566.53 1046.76 2784.5
-1571.55 1054.97 2806.3
-1518.65 1024.20 2724.5
-1890.19 941.83 2522.7
-1835.36 917.68 2458.1
-1838.75 925.81 2479.8
-1852.62 936.06 2507.3
-1842.54 934.25 2502.4
-1842.10 937.33 2510.7
-1856.32 947.91 2539.0
-1845.07 945.52 2532.6
-1809.09 930.39 2492.1
-1772.13 914.65 2449.9
-1740.35 901.48 2414.7
-1725.99 897.27 2403.4
-1703.88 888.98 2381.2
-1689.62 884.74 2369.9
-1738.55 913.69 2447.4
-1777.13 940.83 2520.1
-1726.39 917.34 2457.2
-1677.52 894.68 2396.5
-1630.50 872.83 2337.9
-1628.51 878.30 2352.6
-1660.56 898.95 2407.9
-1681.59 913.77 2447.6
-1688.43 920.96 2466.9
-1693.04 926.99 2483.0
-1651.42 907.65 2431.2
-1621.23 894.47 2395.9
-1606.11 889.54 2382.7
-1598.49 888.74 2380.5
-1601.49 893.86 2394.3
-1574.37 889.05 2381.4
-1609.80 912.64 2444.6
-1628.76 927.04 2483.2
-1644.96 939.98 2517.8
-1651.14 947.27 2537.3
-1640.63 945.00 2531.3
-1619.78 936.74 2509.1
-1604.69 931.76 2495.8
-1599.42 932.46 2497.7
-1597.73 935.26 2505.2
-1603.67 942.57 2524.7
-1601.38 945.08 2531.5
-1577.71 934.94 2504.3
-1536.91 914.52 2449.6
-1503.39 898.29 2406.1
-1524.42 914.65 2450.0
-1568.87 945.26 2531.9
-1485.65 910.36 2438.5
-1467.04 902.80 2418.2
-1494.80 923.83 2474.5
-1509.08 936.67 2508.9
-1520.77 948.02 2539.3
-1541.12 964.87 2584.5
-1570.52 987.57 2645.3
-1559.03 997.78 2672.6
-1517.36 975.45 2612.8
-1493.08 964.14 2582.5
-1522.54 987.59 2645.3
-1525.26 993.83 2662.1
-1516.39 997.08 2670.7
-1581.56 1049.51 2811.2
-1527.53 1023.09 2740.4
-1535.32 1033.11 2767.3
-1546.88 1050.71 2814.4
-1930.46 958.53 2585.4
-1882.47 937.96 2529.9
-1891.75 945.88 2551.3
-1879.88 943.24 2544.2
-1848.71 930.87 2510.8
-1830.70 925.05 2495.1
-1859.66 949.75 2561.8
-1772.04 908.25 2449.8
-1772.72 911.87 2459.6
-1791.23 924.72 2494.2
-1767.83 915.94 2470.6
-1754.52 912.35 2460.9
-1767.29 922.34 2487.8
-1784.93 934.96 2521.9
-1768.80 929.92 2508.3
-1724.66 910.06 2454.7
-1693.32 896.84 2419.0
-1665.95 885.62 2388.8
-1673.61 893.01 2408.7
-1701.34 911.21 2457.8
-1678.39 902.29 2433.8
-1646.85 888.68 2397.0
-1626.79 881.18 2376.8
-1603.03 871.61 2351.0
-1622.87 885.76 2389.2
-1652.21 905.23 2441.7
-1645.55 905.05 2441.2
-1649.01 910.46 2455.8
-1669.42 925.30 2495.8
-1641.98 913.63 2464.3
-1596.17 891.61 2404.9
-1606.94 901.15 2430.7
-1609.21 905.97 2443.7
-1594.67 901.33 2431.2
-1615.68 916.83 2473.0
-1627.16 927.03 2500.5
-1604.25 917.63 2475.1
-1569.52 901.37 2431.3
-1557.16 897.88 2421.8
-1554.09 899.74 2426.9
-1560.75 907.26 2447.2
-1575.00 919.29 2479.6
-1577.39 924.45 2493.5
-1561.41 918.85 2478.4
-1570.84 928.22 2503.7
-1589.26 943.00 2543.6
-1558.64 928.69 2505.0
-1551.78 928.47 2504.4
-1517.37 911.70 2459.1
-1544.11 935.63 2523.7
-1490.73 911.00 2457.2
-1507.82 941.56 2539.7
-1518.29 952.26 2568.5
-1537.35 968.46 2612.2
-1559.48 995.56 2685.3
-1519.79 974.57 2628.7
-1537.31 990.25 2671.0
-1527.68 988.50 2666.3
-1580.81 1036.96 2797.0
-1543.89 1022.11 2756.9
-1547.54 1029.29 2776.3
-1574.18 1051.91 2837.3
-1561.03 1048.02 2826.8
-1543.79 1041.33 2808.8
-1884.68 932.49 2532.9
-1887.69 937.24 2545.8
-1900.32 946.83 2571.9
-1892.40 946.20 2570.2
-1823.80 915.12 2485.7
-1844.88 928.98 2523.4
-1789.35 910.71 2473.8
-1769.82 904.01 2455.6
-1830.27 938.26 2548.6
-1798.36 928.61 2522.4
-1770.54 917.58 2492.4
-1761.08 916.02 2488.2
-1717.96 896.88 2436.2
-1665.67 872.79 2370.8
-1654.39 876.58 2381.1
-1727.41 918.70 2495.5
-1658.67 888.80 2414.2
-1602.37 865.16 2350.0
-1664.69 902.24 2450.7
-1676.79 912.27 2478.0
-1652.95 902.77 2452.2
-1636.15 897.04 2436.6
-1636.93 900.95 2447.2
-1660.47 917.46 2492.1
-1660.05 920.81 2501.2
-1664.86 927.10 2518.3
-1661.19 928.70 2522.6
-1612.94 905.29 2459.0
-1600.99 902.15 2450.5
-1597.93 904.01 2455.6
-1562.62 887.57 2410.9
-1566.86 893.55 2427.2
-1591.18 911.08 2474.8
-1562.78 898.44 2440.4
-1545.80 892.29 2423.7
-1532.97 888.50 2413.4
-1508.95 878.16 2385.3
-1541.01 900.51 2446.0
-1598.20 937.79 2547.3
-1583.68 933.12 2534.6
-1522.81 901.00 2447.4
-1523.60 905.24 2458.9
-1494.78 891.84 2422.5
-1541.11 927.28 2518.8
-1579.74 958.65 2604.0
-1513.98 922.68 2506.3
-1478.58 904.99 2458.2
-1479.62 913.51 2481.4
-1533.61 950.97 2583.1
-1534.31 955.58 2595.6
-1526.26 954.75 2593.4
-1560.12 980.25 2662.7
-1578.05 1018.56 2766.7
-1548.03 1036.89 2816.5
-1887.38 917.66 2510.3
-1881.54 921.17 2519.9
-1904.07 935.45 2559.0
-1851.51 922.48 2523.5
-1837.57 925.35 2531.3
-1780.37 902.99 2470.2
-1761.99 896.90 2453.5
-1787.66 919.93 2516.5
-1732.76 894.94 2448.2
-1699.64 881.06 2410.2
-1659.48 863.42 2361.9
-1642.71 861.05 2355.4
-1648.81 867.47 2373.0
-1696.27 895.78 2450.5
-1695.98 902.39 2468.5
-1624.40 867.58 2373.3
-1648.63 883.86 2417.9
-1679.67 903.94 2472.8
-1661.16 897.41 2454.9
-1637.36 887.95 2429.1
-1621.66 882.83 2415.0
-1603.34 876.24 2397.0
-1608.42 882.44 2414.0
-1638.30 902.35 2468.4
-1675.89 926.67 2535.0
-1627.54 917.93 2511.1
-1619.67 917.16 2509.0
-1606.00 916.79 2507.9
-1587.86 910.12 2489.7
-1572.34 904.90 2475.4
-1528.27 883.14 2415.9
-1542.48 895.02 2448.4
-1578.38 919.64 2515.7
-1542.66 902.55 2469.0
-1503.74 890.87 2437.0
-1523.49 906.38 2479.5
-1516.67 906.15 2478.8
-1505.37 903.22 2470.8
-1542.13 929.23 2542.0
-1571.69 951.11 2601.8
-1594.12 968.84 2650.3
-1569.50 962.17 2632.1
-1538.97 947.58 2592.2
-1564.42 967.47 2646.6
-1557.75 971.87 2658.6
-1545.25 968.35 2649.0
-1586.19 1021.25 2793.7
-1914.60 927.49 2555.3
-1895.23 921.29 2538.3
-1910.87 932.13 2568.1
-1884.35 932.19 2568.3
-1796.91 898.45 2475.3
-1827.94 920.55 2536.2
-1783.18 907.80 2501.1
-1808.13 923.86 2545.3
-1794.14 920.07 2534.9
-1749.73 903.92 2490.4
-1722.69 893.24 2461.0
-1728.64 899.67 2478.7
-1735.62 906.67 2498.0
-1702.17 892.52 2459.0
-1677.01 882.64 2431.8
-1703.49 899.96 2479.5
-1718.43 911.29 2510.7
-1694.39 901.96 2485.0
-1677.97 896.63 2470.3
-1660.00 890.42 2453.2
-1638.34 882.18 2430.5
-1644.51 888.92 2449.1
-1646.35 893.37 2461.3
-1627.97 886.83 2443.3
-1636.11 894.75 2465.1
-1603.55 897.99 2474.1
-1584.34 890.80 2454.2
-1589.00 897.01 2471.4
-1612.66 914.06 2518.3
-1587.48 910.85 2509.5
-1559.23 898.32 2475.0
-1555.99 900.16 2480.0
-1576.03 915.54 2522.4
-1564.09 912.39 2513.7
-1531.04 896.84 2470.9
-1536.29 903.70 2489.8
-1542.95 911.45 2511.1
-1521.11 902.35 2486.1
-1475.01 878.73 2421.0
-1475.73 882.91 2432.5
-1543.55 927.45 2555.2
-1559.44 953.37 2626.6
-1558.61 957.04 2636.8
-1562.13 967.69 2666.1
-1551.04 965.09 2658.9
-1898.17 919.32 2551.1
-1868.55 908.14 2520.0
-1873.85 913.91 2536.0
-1921.23 940.32 2609.3
-1893.93 930.23 2581.3
-1868.99 921.24 2556.4
-1875.22 927.60 2574.0
-1836.27 911.58 2529.6
-1810.98 902.24 2503.7
-1845.26 922.63 2560.2
-1794.24 900.36 2498.4
-1739.15 882.27 2448.2
-1767.46 899.91 2497.2
-1780.10 909.68 2524.3
-1739.16 892.04 2475.3
-1697.71 883.82 2452.5
-1668.74 872.01 2419.8
-1690.37 886.65 2460.4
-1717.81 904.45 2509.8
-1708.34 902.89 2505.4
-1694.04 898.75 2494.0
-1679.78 894.59 2482.4
-1661.80 888.42 2465.3
-1668.45 895.42 2484.7
-1672.89 901.29 2501.0
-1658.68 897.11 2489.4
-1654.57 898.38 2492.9
-1630.61 899.42 2495.8
-1600.32 886.23 2459.2
-1545.17 859.12 2384.0
-1545.01 869.46 2412.7
-1601.64 904.99 2511.3
-1608.13 912.37 2531.7
-1577.20 898.49 2493.2
-1564.77 895.08 2483.8
-1558.98 895.45 2484.8
-1576.49 909.26 2523.1
-1577.18 913.45 2534.8
-1557.67 905.93 2513.9
-1574.89 919.79 2552.3
-1568.95 924.09 2564.3
-1512.23 894.47 2482.1
-1484.09 881.57 2446.3
-1521.29 907.55 2518.4
-1519.80 910.57 2526.8
-1491.26 897.34 2490.1
-1546.53 934.64 2593.6
-1573.60 955.15 2650.5
-1525.10 929.77 2580.0
-1506.64 926.65 2571.4
-1521.72 940.09 2608.7
-1583.54 1009.69 2801.8
-1941.61 930.36 2600.4
-1875.70 901.90 2520.8
-1873.75 907.29 2535.9
-1916.02 934.31 2611.4
-1881.37 920.67 2573.3
-1887.02 926.72 2590.2
-1842.95 908.31 2538.8
-1804.68 892.64 2494.9
-1828.89 907.87 2537.5
-1831.66 912.52 2550.5
-1742.74 871.37 2435.5
-1697.15 851.66 2380.4
-1710.12 861.30 2407.4
-1701.37 860.03 2403.8
-1676.02 850.34 2376.7
-1716.98 874.33 2443.8
-1677.94 867.25 2424.0
-1728.52 896.75 2506.5
-1710.37 890.68 2489.5
-1696.60 886.86 2478.8
-1668.82 875.66 2447.5
-1637.92 862.72 2411.3
-1680.76 888.68 2483.9
-1638.97 873.27 2440.8
-1593.23 855.51 2391.2
-1640.18 884.16 2471.3
-1602.27 867.11 2423.6
-1574.79 858.98 2400.9
-1622.68 888.61 2483.7
-1631.06 896.76 2506.5
-1612.26 889.97 2487.5
-1568.08 869.06 2429.0
-1547.52 868.12 2426.4
-1570.61 884.67 2472.7
-1559.23 881.86 2464.8
-1559.60 885.70 2475.6
-1566.55 893.32 2496.9
-1526.75 874.24 2443.5
-1505.72 869.41 2430.0
-1582.90 917.81 2565.3
-1573.41 916.16 2560.7
-1516.51 886.77 2478.6
-1492.27 876.31 2449.3
-1496.91 882.79 2467.4
-1507.90 893.09 2496.2
-1477.38 878.79 2456.2
-1540.16 932.20 2605.5
-1909.69 905.29 2548.8
-1895.49 901.68 2538.6
-1923.23 918.06 2584.7
-1874.06 897.71 2527.5
-1910.22 918.24 2585.3
-1877.88 912.30 2568.5
-1851.85 902.86 2541.9
-1845.67 903.06 2542.5
-1838.92 902.98 2542.3
-1800.70 887.40 2498.4
-1747.50 864.29 2433.3
-1722.48 855.00 2407.2
-1731.01 862.36 2427.9
-1741.13 870.56 2451.0
-1727.86 867.09 2441.2
-1705.76 859.15 2418.9
-1752.19 885.79 2493.9
-1679.41 852.14 2399.2
-1692.56 868.47 2445.1
-1748.59 900.59 2535.6
-1736.36 897.66 2527.3
-1623.78 849.08 2390.5
-1668.57 879.21 2475.4
-1625.50 859.82 2420.8
-1641.49 875.04 2463.6
-1663.95 890.47 2507.1
-1598.46 858.78 2417.8
-1602.54 867.78 2443.2
-1633.98 899.02 2531.1
-1595.50 881.39 2481.5
-1572.71 872.31 2455.9
-1584.52 882.43 2484.4
-1592.10 890.28 2506.5
-1578.09 886.06 2494.6
-1576.89 889.03 2503.0
-1592.95 901.79 2538.9
-1563.71 888.91 2502.7
-1498.69 855.50 2408.6
-1522.27 872.60 2456.7
-1551.70 893.20 2514.8
-1499.72 866.92 2440.8
-1497.68 873.11 2458.2
-1521.16 890.60 2507.4
-1552.37 912.77 2569.8
-1533.03 905.28 2548.8
-1495.09 886.70 2496.4
-1528.87 910.68 2564.0
-1571.78 944.45 2659.0
-1901.13 897.76 2546.2
-1955.88 926.83 2628.6
-1934.11 919.72 2608.4
-1848.38 882.03 2501.6
-1848.72 888.43 2519.7
-1849.40 891.91 2529.6
-1852.88 896.77 2543.4
-1874.38 910.41 2582.1
-1893.90 926.51 2627.7
-1831.47 899.21 2550.3
-1800.64 887.27 2516.4
-1797.83 889.11 2521.6
-1796.66 891.77 2529.2
-1734.94 864.29 2451.2
-1720.59 863.47 2448.9
-1658.32 835.30 2369.0
-1653.63 842.30 2388.9
-1647.63 845.58 2398.2
-1687.71 869.43 2465.8
-1671.30 864.24 2451.1
-1603.44 841.96 2387.9
-1674.24 882.54 2503.0
-1667.99 882.67 2503.4
-1616.11 858.56 2435.0
-1615.27 861.48 2443.3
-1636.03 875.98 2484.4
-1636.11 879.49 2494.3
-1654.50 892.91 2532.4
-1629.86 883.11 2504.6
-1567.24 852.58 2418.0
-1591.79 869.41 2465.8
-1616.68 886.56 2514.4
-1577.27 868.45 2463.1
-1573.09 869.68 2466.5
-1606.93 892.01 2529.9
-1618.49 902.11 2558.5
-1593.67 891.93 2529.6
-1588.82 892.89 2532.4
-1602.73 904.45 2565.1
-1577.04 893.65 2534.5
-1566.59 891.45 2528.3
-1562.20 892.69 2531.8
-1517.03 877.94 2490.0
-1575.24 915.52 2596.5
-1579.37 925.84 2625.8
-1534.38 903.36 2562.0
-1562.66 924.01 2620.6
-1543.81 916.85 2600.3
-1949.47 917.00 2620.0
-1899.15 899.60 2570.3
-1835.31 872.42 2492.6
-1829.24 872.60 2493.2
-1865.19 892.91 2551.2
-1904.33 914.89 2614.0
-1883.89 908.30 2595.2
-1868.03 903.88 2582.5
-1829.63 894.93 2556.9
-1787.11 877.31 2506.6
-1772.60 873.36 2495.3
-1697.58 839.46 2398.5
-1735.93 864.76 2470.8
-1787.70 893.85 2553.9
-1742.40 874.44 2498.4
-1673.71 843.10 2408.9
-1642.59 836.79 2390.8
-1644.18 840.78 2402.2
-1598.48 833.18 2380.5
-1637.84 857.01 2448.6
-1599.76 840.34 2401.0
-1580.42 833.43 2381.2
-1607.74 851.16 2431.9
-1605.31 853.22 2437.8
-1580.74 843.48 2409.9
-1602.99 858.74 2453.6
-1581.62 850.67 2430.5
-1566.72 849.43 2426.9
-1584.43 862.49 2464.3
-1536.82 839.96 2399.9
-1549.27 853.68 2439.1
-1579.99 874.17 2497.6
-1575.72 875.40 2501.1
-1570.41 876.05 2503.0
-1586.93 888.94 2539.8
-1562.29 878.79 2510.8
-1553.40 877.44 2507.0
-1593.85 907.89 2594.0
-1530.30 875.38 2501.1
-1547.36 888.91 2539.7
-1574.19 919.98 2628.5
-1559.70 915.48 2615.7
-1542.36 921.32 2632.3
-1944.11 904.55 2603.7
-1951.10 910.96 2622.2
-1908.27 903.56 2600.9
-1882.12 894.34 2574.3
-1921.24 916.18 2637.2
-1898.50 908.57 2615.3
-1826.18 877.09 2524.7
-1819.46 877.00 2524.4
-1868.31 903.80 2601.6
-1848.00 897.22 2582.6
-1759.05 857.14 2467.2
-1719.65 844.08 2429.6
-1775.72 874.80 2518.1
-1775.61 877.98 2527.2
-1748.44 867.74 2497.8
-1735.13 864.34 2488.0
-1693.86 846.93 2437.9
-1637.44 821.79 2365.5
-1656.06 834.26 2401.4
-1705.03 862.17 2481.7
-1697.24 861.48 2479.7
-1672.67 852.23 2453.1
-1673.56 855.94 2463.8
-1686.27 865.75 2492.0
-1682.21 866.98 2495.6
-1643.32 850.21 2447.3
-1606.20 834.23 2401.3
-1595.89 832.10 2395.2
-1600.46 837.74 2411.4
-1635.16 859.26 2473.4
-1638.99 864.67 2488.9
-1591.67 843.02 2426.6
-1591.84 846.46 2436.5
-1617.63 863.60 2485.8
-1612.43 864.26 2487.7
-1613.98 868.57 2500.1
-1596.27 862.50 2482.7
-1546.53 839.01 2415.1
-1550.19 847.86 2440.5
-1575.80 865.40 2491.0
-1558.16 869.97 2504.2
-1582.77 894.90 2575.9
-1556.78 887.70 2555.2
-1530.91 876.68 2523.5
-1564.64 899.84 2590.1
-1539.31 889.09 2559.2
-1543.64 895.45 2577.5
-1588.14 925.26 2663.3
-1594.14 932.82 2685.1
-1574.21 925.19 2663.1
-1546.10 912.68 2627.1
-1930.28 894.52 2594.2
-1932.67 908.29 2634.1
-1884.27 888.68 2577.3
-1904.14 901.25 2613.7
-1889.91 897.71 2603.5
-1827.18 871.02 2526.0
-1793.43 858.01 2488.3
-1813.73 870.85 2525.6
-1824.93 879.40 2550.4
-1761.70 852.02 2471.0
-1755.64 855.31 2480.5
-1765.97 869.90 2522.8
-1727.29 854.01 2476.7
-1718.96 853.07 2474.0
-1698.05 845.84 2453.0
-1700.14 850.07 2465.3
-1731.05 868.79 2519.6
-1721.56 867.30 2515.3
-1695.83 857.59 2487.1
-1716.12 871.16 2526.5
-1639.97 842.15 2442.3
-1629.03 839.77 2435.4
-1648.50 853.11 2474.1
-1617.86 840.53 2437.6
-1617.56 843.67 2446.7
-1661.61 870.05 2523.3
-1653.20 869.07 2520.4
-1659.50 875.85 2540.1
-1633.15 872.33 2529.8
-1635.12 876.90 2543.1
-1604.40 863.91 2505.4
-1587.25 858.15 2488.7
-1604.64 871.09 2526.3
-1617.79 881.83 2557.4
-1610.29 892.37 2588.0
-1535.55 854.51 2478.2
-1558.10 874.38 2535.8
-1568.20 887.53 2573.9
-1587.44 913.98 2650.6
-1616.65 938.93 2723.0
-1593.22 929.38 2695.3
-1561.64 914.97 2653.5
-1541.84 907.36 2631.5
-1580.07 934.00 2708.7
-1954.91 899.12 2627.3
-1949.20 899.63 2628.8
-1920.49 902.15 2636.2
-1830.36 862.88 2521.4
-1810.09 856.39 2502.4
-1812.99 860.85 2515.5
-1855.18 884.06 2583.3
-1752.71 847.46 2476.4
-1691.10 820.68 2398.1
-1803.60 878.51 2567.1
-1770.10 868.60 2538.1
-1730.91 852.54 2491.2
-1711.05 845.91 2471.8
-1713.11 850.12 2484.1
-1714.04 853.78 2494.8
-1677.41 838.71 2450.8
-1667.51 836.92 2445.6
-1703.57 858.29 2508.0
-1705.97 862.79 2521.1
-1642.72 833.99 2437.0
-1631.25 831.37 2429.3
-1680.76 859.93 2512.8
-1679.30 862.52 2520.4
-1627.82 839.35 2452.6
-1626.97 842.19 2461.0
-1668.91 867.31 2534.3
-1647.82 859.73 2512.2
-1641.53 859.85 2512.6
-1611.69 854.39 2496.6
-1574.74 838.17 2449.2
-1579.43 844.07 2466.4
-1599.02 858.01 2507.2
-1605.58 865.05 2527.7
-1611.55 871.82 2547.5
-1593.88 865.81 2530.0
-1600.77 873.15 2551.4
-1617.38 897.03 2621.2
-1609.29 896.31 2619.1
-1603.20 896.71 2620.2
-1558.65 875.50 2558.3
-1515.91 858.80 2509.5
-1605.47 913.46 2669.2
-1617.07 940.32 2747.7
-1607.26 938.75 2743.1
-1563.16 917.05 2679.7
-1951.96 894.08 2632.5
-1952.50 900.63 2651.8
-1903.37 881.06 2594.2
-1911.91 888.16 2615.1
-1863.03 868.53 2557.3
-1806.98 845.41 2489.2
-1815.59 852.48 2510.0
-1821.30 858.24 2527.0
-1866.87 882.89 2599.6
-1800.43 863.94 2543.8
-1701.57 822.53 2421.8
-1784.50 865.81 2549.3
-1742.43 848.54 2498.4
-1709.33 835.53 2460.1
-1694.45 831.36 2447.8
-1654.47 814.79 2399.1
-1627.77 807.72 2378.2
-1669.53 831.59 2448.5
-1665.58 832.79 2452.1
-1627.09 816.66 2404.6
-1598.99 805.64 2372.1
-1620.90 819.84 2413.9
-1655.50 840.58 2475.0
-1634.90 833.35 2453.7
-1622.36 830.19 2444.4
-1658.67 852.10 2508.9
-1608.28 836.05 2461.6
-1573.23 821.09 2417.6
-1613.66 845.56 2489.6
-1603.23 843.47 2483.5
-1585.53 837.52 2466.0
-1611.97 854.93 2517.2
-1614.94 859.99 2532.1
-1606.00 858.72 2528.4
-1576.00 846.13 2491.3
-1528.21 823.85 2425.7
-1526.03 829.50 2442.4
-1608.64 878.05 2585.3
-1610.77 886.60 2610.5
-1598.67 883.65 2601.8
-1574.07 873.74 2572.6
-1582.67 893.67 2631.3
-1618.46 917.83 2702.4
-1620.56 927.05 2729.6
-1583.45 921.92 2714.5
-1591.54 930.76 2740.5
-1921.49 879.56 2609.7
-1854.14 851.73 2527.1
-1842.31 849.29 2519.9
-1829.94 846.59 2511.9
-1809.08 839.93 2492.1
-1802.99 840.11 2492.6
-1793.51 838.69 2488.4
-1790.32 849.42 2520.3
-1785.18 853.21 2531.5
-1698.72 824.01 2444.9
-1723.91 839.36 2490.4
-1717.74 839.50 2490.8
-1680.48 824.38 2446.0
-1701.59 837.90 2486.1
-1697.05 838.84 2488.9
-1643.77 815.61 2419.9
-1654.98 824.32 2445.8
-1673.63 836.82 2482.9
-1636.30 821.31 2436.9
-1611.45 811.97 2409.2
-1616.60 817.74 2426.3
-1628.60 827.02 2453.8
-1653.77 843.10 2501.5
-1627.09 839.37 2490.4
-1563.10 809.58 2402.0
-1571.14 817.00 2424.1
-1585.36 827.70 2455.8
-1594.77 835.97 2480.3
-1629.50 857.63 2544.6
-1625.50 862.51 2559.1
-1590.80 847.56 2514.7
-1547.55 827.91 2456.4
