ply
format ascii 1.0
element vertex 2174
property float x
property float y
property float z
end_header
-712.89 775.43 2412.0
-706.55 775.33 2411.8
-690.09 764.03 2376.6
-694.40 775.73 2413.0
-695.91 784.48 2440.2
-684.82 779.06 2423.3
-665.82 764.46 2377.9
-662.36 767.59 2387.7
-669.72 783.45 2437.0
-651.26 769.11 2392.4
-647.43 771.94 2401.2
-659.33 793.75 2469.1
-637.20 774.63 2409.6
-637.17 790.09 2457.7
-651.57 816.11 2538.6
-642.06 812.41 2527.1
-633.08 809.29 2517.4
-634.28 819.27 2548.4
-984.98 704.38 2208.9
-955.61 687.37 2155.5
-962.48 696.38 2183.8
-966.13 703.16 2205.0
-966.63 707.71 2219.3
-953.70 702.43 2202.7
-937.81 694.89 2179.1
-917.50 683.95 2144.8
-915.73 686.79 2153.7
-924.00 697.25 2186.5
-916.51 695.87 2182.2
-903.87 690.53 2165.4
-899.38 691.40 2168.2
-880.62 681.24 2136.3
-869.64 677.00 2123.0
-904.99 709.00 2223.4
-895.94 715.59 2244.0
-862.22 693.16 2173.7
-873.45 706.81 2216.5
-897.76 731.29 2293.2
-880.39 726.77 2279.1
-851.84 707.94 2220.0
-832.08 696.23 2183.3
-833.85 702.49 2202.9
-842.96 715.06 2242.3
-851.87 727.64 2281.8
-825.21 719.86 2257.4
-801.03 703.76 2206.9
-824.81 729.87 2288.8
-823.05 733.59 2300.4
-810.33 727.52 2281.4
-822.21 743.62 2331.9
-818.98 746.19 2340.0
-821.37 753.95 2364.3
-808.98 748.15 2346.1
-766.90 714.61 2241.0
-768.42 721.49 2262.5
-756.07 715.36 2243.3
-731.33 713.91 2238.8
-736.94 725.15 2274.0
-742.68 736.70 2310.2
-749.99 749.99 2351.9
-739.21 745.27 2337.1
-718.76 730.64 2291.2
-698.53 722.01 2264.1
-733.69 764.78 2398.3
-707.05 769.62 2413.4
-686.57 754.00 2364.5
-687.22 761.51 2388.0
-684.08 764.92 2398.7
-667.62 753.37 2362.5
-670.41 763.52 2394.3
-691.70 795.13 2493.4
-689.19 799.72 2507.8
-658.75 771.68 2419.9
-669.29 791.56 2482.3
-668.43 806.05 2527.7
-640.48 779.99 2446.0
-644.58 792.83 2486.2
-642.53 798.30 2503.4
-652.87 819.42 2569.6
-1002.16 714.99 2260.5
-980.52 703.67 2224.7
-963.67 695.66 2199.4
-945.38 686.53 2170.5
-939.81 686.57 2170.7
-930.06 683.54 2161.1
-903.36 667.94 2111.7
-896.03 666.56 2107.4
-927.95 694.54 2195.9
-943.50 710.53 2246.4
-920.35 697.41 2204.9
-905.85 690.71 2183.7
-896.56 687.92 2174.9
-895.30 691.31 2185.6
-898.34 698.07 2207.0
-901.64 705.13 2229.3
-918.23 727.43 2299.8
-870.21 693.90 2193.8
-869.10 697.57 2205.4
-894.16 722.43 2284.0
-898.34 730.65 2310.0
-902.75 739.16 2336.9
-854.48 709.16 2242.1
-835.09 697.81 2206.2
-864.43 727.32 2299.5
-867.51 740.11 2339.9
-810.44 696.29 2201.4
-802.39 694.27 2195.0
-829.03 722.44 2284.1
-823.74 723.00 2285.8
-793.25 701.28 2217.2
-796.44 709.24 2242.3
-824.67 739.78 2338.9
-806.56 728.89 2304.5
-795.52 724.28 2289.9
-812.71 751.14 2374.8
-790.20 735.91 2326.6
-754.75 708.30 2239.4
-728.21 688.70 2177.4
-730.32 696.09 2200.8
-727.53 698.89 2209.6
-735.39 712.05 2251.2
-747.19 729.26 2305.6
-759.90 747.64 2363.7
-755.02 755.02 2387.1
-732.15 738.20 2333.9
-706.11 717.88 2269.7
-699.01 716.63 2265.7
-721.60 746.06 2358.7
-726.24 757.27 2394.2
-707.27 743.85 2351.8
-695.34 737.67 2332.2
-686.22 734.37 2321.8
-694.09 749.37 2369.2
-702.79 765.54 2420.3
-707.28 777.37 2457.7
-707.91 785.13 2482.3
-691.50 773.97 2447.0
-694.87 784.94 2481.7
-679.28 781.82 2471.8
-659.97 766.82 2424.4
-680.71 798.53 2524.6
-655.46 791.75 2503.2
-629.91 768.49 2429.7
-654.16 806.14 2548.7
-650.65 826.86 2614.2
-645.37 828.79 2620.3
-635.08 824.25 2605.9
-1044.48 739.08 2356.0
-1024.56 729.25 2324.6
-1008.25 721.88 2301.2
-972.84 700.68 2233.6
-951.86 689.67 2198.5
-953.45 694.98 2215.4
-939.08 688.66 2195.2
-913.14 673.72 2147.6
-925.18 686.79 2189.3
-956.00 714.05 2276.2
-949.06 713.27 2273.7
-924.83 699.40 2229.5
-907.38 690.52 2201.2
-894.79 685.25 2184.4
-886.61 683.31 2178.2
-879.90 682.49 2175.6
-894.32 698.14 2225.5
-903.52 709.91 2263.0
-876.80 693.42 2210.4
-862.98 686.98 2189.9
-877.25 702.96 2240.8
-874.58 705.49 2248.9
-872.21 708.31 2257.9
-892.15 729.39 2325.1
-874.87 720.13 2295.6
-835.97 692.83 2208.5
-844.75 704.93 2247.1
-873.47 733.96 2339.7
-848.74 718.16 2289.3
-806.01 686.81 2189.4
-809.84 694.97 2215.4
-833.84 720.68 2297.3
-825.91 718.96 2291.8
-807.99 708.46 2258.4
-822.97 726.85 2317.0
-826.18 735.06 2343.2
-784.61 703.24 2241.7
-762.70 688.70 2195.4
-776.00 705.99 2250.5
-790.91 725.00 2311.1
-791.04 730.65 2329.1
-780.67 726.62 2316.3
-778.56 730.28 2327.9
-789.68 746.50 2379.6
-771.30 740.69 2361.1
-750.36 726.34 2315.4
-765.98 747.45 2382.7
-729.49 729.49 2325.4
-706.88 712.77 2272.1
-703.72 715.55 2281.0
-715.09 733.27 2337.5
-708.38 732.60 2335.3
-692.04 721.86 2301.1
-682.41 718.02 2288.8
-675.02 716.47 2283.9
-684.34 732.78 2335.9
-708.08 764.98 2438.6
-695.89 772.50 2462.5
-683.22 765.46 2440.1
-670.40 758.11 2416.7
-659.47 752.79 2399.7
-648.36 747.16 2381.7
-635.78 746.89 2380.9
-664.72 788.54 2513.7
-655.92 785.81 2504.9
-623.15 754.01 2403.6
-640.35 782.64 2494.9
-627.08 790.38 2519.5
-633.03 814.86 2597.6
-1046.30 734.25 2360.1
-1029.47 726.68 2335.8
-997.69 708.42 2277.1
-947.73 676.95 2175.9
-924.57 664.36 2135.5
-925.92 669.34 2151.5
-938.92 682.85 2194.9
-938.55 686.74 2207.4
-954.58 702.76 2258.9
-932.79 699.59 2248.7
-927.37 699.91 2249.7
-926.69 703.81 2262.3
-916.52 700.53 2251.7
-908.20 698.62 2245.6
-907.43 702.53 2258.1
-901.61 702.55 2258.2
-890.47 698.41 2244.9
-892.06 704.26 2263.7
-880.61 699.83 2249.4
-853.56 682.85 2194.9
-841.63 677.82 2178.7
-852.82 691.48 2222.6
-886.38 723.57 2325.8
-840.57 695.64 2236.0
-806.55 672.12 2160.4
-833.94 699.81 2249.4
-841.36 711.01 2285.4
-824.54 701.74 2255.6
-827.51 709.30 2279.9
-840.45 725.57 2332.2
-842.80 732.87 2355.6
-831.86 728.64 2342.0
-810.14 714.83 2297.7
-795.90 707.47 2274.0
-798.78 715.33 2299.3
-791.22 713.88 2294.6
-786.78 715.25 2299.0
-799.58 732.44 2354.3
-802.63 740.89 2381.4
-785.47 730.67 2348.6
-781.45 732.61 2354.8
-773.31 736.49 2367.3
-748.50 718.56 2309.6
-759.17 734.68 2361.5
-763.47 744.85 2394.2
-741.59 729.43 2344.6
-717.36 711.43 2286.8
-698.53 698.53 2245.3
-693.18 699.00 2246.8
-703.24 715.15 2298.7
-699.96 717.91 2307.6
-685.33 708.96 2278.8
-681.24 710.86 2284.9
-680.10 715.89 2301.1
-690.46 733.23 2356.8
-714.45 765.48 2460.5
-705.87 763.10 2452.8
-669.73 730.62 2348.4
-655.20 721.32 2318.5
-650.63 722.92 2323.7
-648.07 726.81 2336.2
-647.23 732.71 2355.1
-642.52 734.31 2360.3
-632.85 751.90 2416.8
-654.82 785.79 2525.7
-647.69 785.08 2523.5
-659.44 807.47 2595.4
-643.47 804.33 2585.4
-622.92 786.85 2529.2
-630.76 805.22 2588.2
-1039.99 719.52 2332.2
-1040.32 723.97 2346.6
-1033.22 723.25 2344.3
-1009.12 710.57 2303.2
-975.60 691.05 2239.9
-971.03 691.93 2242.8
-929.54 666.36 2159.9
-918.43 666.43 2160.1
-949.94 693.52 2247.9
-938.91 698.31 2263.4
-913.67 683.82 2216.5
-918.90 692.08 2243.2
-916.02 694.31 2250.5
-921.04 702.59 2277.3
-932.74 716.11 2321.1
-915.37 707.33 2292.7
-893.52 694.96 2252.6
-896.51 701.88 2275.0
-886.44 698.58 2264.3
-864.91 686.16 2224.1
-858.80 685.89 2223.2
-860.95 692.25 2243.8
-885.58 716.90 2323.7
-837.06 686.96 2226.7
-819.46 681.93 2210.3
-850.53 712.77 2310.3
-857.40 723.62 2345.5
-825.10 701.34 2273.2
-805.19 689.33 2234.3
-812.29 700.46 2270.4
-808.30 702.10 2275.7
-797.26 697.60 2261.1
-792.94 698.96 2265.5
-799.94 710.39 2302.6
-796.12 712.32 2308.8
-782.01 705.00 2285.1
-787.15 715.04 2317.7
-778.64 712.76 2310.3
-751.29 693.05 2246.4
-742.98 690.74 2238.9
-748.50 701.35 2273.3
-757.44 715.36 2318.7
-762.01 725.44 2351.4
-746.75 716.64 2322.9
-725.21 701.63 2274.2
-726.18 708.32 2295.9
-724.16 712.19 2308.4
-709.83 703.92 2281.6
-708.63 708.63 2296.9
-712.13 718.16 2327.8
-701.55 713.54 2312.8
-691.32 709.20 2298.7
-690.74 714.77 2316.8
-700.67 731.40 2370.7
-725.17 763.67 2475.3
-685.14 734.52 2380.8
-665.19 719.62 2332.5
-664.77 725.76 2352.4
-667.87 735.90 2385.3
-675.16 750.88 2433.8
-665.71 747.35 2422.4
-652.02 738.96 2395.2
-646.95 740.26 2399.4
-655.37 772.17 2502.8
-674.27 802.38 2600.8
-663.39 797.40 2584.6
-662.02 803.88 2605.6
-654.46 802.90 2602.4
-1046.90 718.22 2347.7
-1046.43 722.10 2360.4
-1036.96 719.77 2352.8
-1020.21 720.87 2356.4
-948.39 674.16 2203.7
-912.45 652.54 2133.0
-921.65 663.14 2167.6
-903.70 654.21 2138.5
-906.38 660.21 2158.1
-944.93 692.56 2263.8
-930.28 686.08 2242.6
-899.58 667.61 2182.3
-900.51 672.53 2198.4
-908.26 682.64 2231.4
-923.79 698.76 2284.1
-916.12 697.43 2279.7
-878.15 672.87 2199.4
-871.39 672.05 2196.8
-887.92 689.30 2253.2
-882.80 689.87 2255.0
-865.46 680.83 2225.5
-844.79 669.03 2186.9
-833.94 664.90 2173.4
-840.27 674.50 2204.8
-830.11 670.91 2193.1
-818.99 666.49 2178.6
-822.39 673.90 2202.8
-842.38 695.11 2272.1
-860.27 719.94 2353.3
-812.85 685.12 2239.5
-808.97 686.75 2244.8
-832.89 712.18 2328.0
-802.72 691.39 2260.0
-767.11 665.58 2175.6
-761.40 665.52 2175.4
-766.73 675.18 2207.0
-788.82 699.85 2287.6
-799.63 714.82 2336.6
-797.24 718.13 2347.4
-780.38 708.35 2315.4
-751.18 687.13 2246.1
-739.54 681.76 2228.5
-744.50 691.74 2261.1
-754.96 707.03 2311.1
-749.20 707.24 2311.8
-723.15 688.16 2249.4
-715.78 686.68 2244.6
-730.71 706.76 2310.2
-730.68 712.56 2329.2
-717.44 705.48 2306.0
-714.20 708.20 2314.9
-715.13 715.13 2337.6
-699.24 705.21 2305.2
-685.70 697.53 2280.1
-690.93 708.96 2317.4
-707.40 732.22 2393.5
-720.26 752.13 2458.5
-706.85 744.72 2434.3
-691.97 735.61 2404.5
-693.53 743.97 2431.9
-691.05 748.11 2445.4
-692.64 756.77 2473.7
-699.47 771.38 2521.4
-688.02 765.91 2503.6
-670.35 753.35 2462.5
-661.12 750.12 2452.0
-636.35 729.03 2383.0
-632.02 731.16 2390.0
-666.51 778.70 2545.4
-663.13 790.39 2583.6
-656.10 789.99 2582.3
-642.99 782.19 2556.8
-1055.45 713.80 2353.2
-1055.00 717.64 2365.9
-1032.23 706.26 2328.3
-1033.32 711.17 2344.5
-1032.98 719.40 2371.6
-967.26 677.66 2234.0
-932.98 657.58 2167.9
-931.96 660.84 2178.6
-956.14 682.12 2248.8
-949.63 681.63 2247.1
-896.88 647.75 2135.4
-910.57 665.85 2195.1
-925.46 681.00 2245.1
-894.50 662.39 2183.7
-871.44 649.42 2140.9
-892.61 669.45 2207.0
-890.85 672.45 2216.9
-874.42 664.33 2190.1
-887.91 678.99 2238.4
-897.65 690.96 2277.9
-885.11 685.81 2260.9
-863.22 673.31 2219.7
-839.09 658.88 2172.1
-831.56 661.85 2181.9
-833.03 667.56 2200.8
-831.36 670.82 2211.5
-826.95 671.90 2215.1
-839.58 686.93 2264.6
-843.99 695.40 2292.5
-810.96 672.92 2218.4
-793.03 662.75 2184.9
-816.99 687.68 2267.1
-840.23 712.37 2348.5
-808.07 690.10 2275.1
-784.87 675.22 2226.0
-790.48 685.08 2258.5
-781.74 682.57 2250.2
-788.70 693.82 2287.3
-794.55 704.26 2321.7
-787.87 703.67 2319.8
-789.49 710.54 2342.4
-777.58 705.25 2325.0
-757.28 692.20 2282.0
-754.60 695.18 2291.8
-753.67 699.83 2307.1
-737.55 690.34 2275.9
-725.69 695.95 2294.4
-733.75 709.50 2339.0
-724.19 706.09 2327.8
-725.44 713.24 2351.4
-729.66 723.47 2385.1
-714.76 714.76 2356.3
-695.84 701.84 2313.8
-698.25 710.40 2342.0
-695.08 713.37 2351.8
-687.00 711.32 2345.0
-688.86 719.61 2372.3
-689.51 726.78 2396.0
-675.57 718.56 2368.9
-657.58 705.84 2327.0
-686.12 743.29 2450.4
-671.31 748.03 2466.0
-664.57 747.64 2464.7
-643.72 731.21 2410.6
-641.93 743.62 2451.5
-660.02 772.23 2545.8
-651.65 770.14 2538.9
-643.31 768.04 2532.0
-628.45 758.03 2499.0
-624.18 760.72 2507.9
-644.40 793.63 2616.4
-1071.48 718.45 2388.9
-1051.32 709.03 2357.6
-1036.52 711.46 2365.7
-1023.22 706.51 2349.2
-973.21 676.00 2247.8
-954.89 667.28 2218.8
-943.15 663.06 2204.8
-958.23 677.77 2253.7
-948.56 679.21 2258.5
-923.84 665.62 2213.3
-948.79 687.87 2287.3
-936.68 683.37 2272.3
-875.34 642.66 2136.9
-892.44 663.61 2206.6
-901.83 674.91 2244.2
-896.75 675.48 2246.0
-895.22 678.73 2256.8
-889.74 679.01 2257.8
-876.54 673.37 2239.0
-854.34 660.69 2196.9
-858.36 668.25 2222.0
-872.25 683.66 2273.2
-869.80 686.37 2282.3
-863.89 686.38 2282.3
-883.38 706.70 2349.9
-860.85 698.32 2322.0
-814.27 665.18 2211.8
-790.44 659.64 2193.4
-808.69 679.77 2260.3
-802.15 679.19 2258.4
-802.97 684.89 2277.3
-820.55 705.06 2344.4
-823.92 713.24 2371.6
-805.52 702.56 2336.1
-785.10 689.94 2294.1
-781.58 692.09 2301.3
-787.24 702.46 2335.8
-767.72 690.35 2295.5
-739.30 669.99 2227.8
-740.06 675.96 2247.6
-743.41 684.41 2275.7
-734.18 681.32 2265.5
-714.29 679.16 2258.3
-740.85 710.24 2361.6
-750.08 725.08 2411.0
-731.02 712.59 2369.4
-715.52 703.39 2338.9
-714.67 708.56 2356.1
-708.20 708.20 2354.9
-702.56 708.67 2356.4
-691.46 703.59 2339.5
-680.17 698.22 2321.7
-678.60 702.83 2337.0
-678.81 709.39 2358.8
-664.69 700.95 2330.7
-675.44 725.47 2412.3
-675.04 745.76 2479.7
-665.27 742.03 2467.3
-665.71 749.73 2492.9
-667.49 759.11 2524.1
-652.33 749.22 2491.2
-632.52 733.72 2439.7
-635.27 767.61 2552.4
-1070.03 715.43 2399.6
-1029.96 692.66 2323.2
-1040.63 708.12 2375.1
-1034.74 712.54 2389.9
-1008.09 698.38 2342.4
-988.86 689.21 2311.6
-956.18 670.49 2248.8
-933.90 658.89 2209.9
-943.91 670.06 2247.4
-958.95 684.96 2297.4
-956.02 687.14 2304.7
-914.85 661.68 2219.3
-873.98 640.18 2147.2
-932.02 687.07 2304.5
-928.40 693.28 2325.3
-891.15 669.82 2246.6
-889.24 672.78 2256.5
-880.60 670.66 2249.4
-868.15 665.58 2232.4
-880.07 679.25 2278.2
-895.58 695.89 2334.0
-894.36 699.67 2346.7
-878.07 691.63 2319.8
-865.08 695.70 2333.4
-820.78 664.71 2229.5
-793.15 646.90 2169.7
-798.45 660.59 2215.6
-800.45 667.04 2237.3
-778.17 653.21 2190.9
-784.28 663.18 2224.3
-807.72 688.06 2307.8
-826.34 709.17 2378.6
-783.11 682.26 2288.3
-759.80 667.00 2237.1
-767.46 678.91 2277.1
-748.68 667.43 2238.6
-742.40 677.59 2272.7
-748.30 688.43 2309.0
-729.58 676.63 2269.4
-715.44 668.90 2243.5
-724.91 683.31 2291.9
-745.37 708.41 2376.0
-735.14 704.51 2363.0
-697.47 674.03 2260.7
-700.23 682.43 2288.9
-719.61 707.31 2372.3
-706.73 700.64 2350.0
-695.61 695.61 2333.1
-694.10 700.18 2348.4
-692.51 704.76 2363.8
-681.46 699.71 2346.9
-672.35 696.58 2336.4
-692.82 724.31 2429.4
-696.10 741.22 2486.1
-693.94 745.82 2501.5
-680.54 745.35 2499.9
-690.23 763.23 2559.9
-676.38 770.14 2583.1
-661.15 760.33 2550.2
-665.91 773.53 2594.4
-659.32 773.70 2595.0
-648.75 769.14 2579.7
-637.92 772.22 2590.1
-628.33 776.97 2606.0
-1052.11 709.71 2401.3
-1023.30 694.38 2349.4
-1028.46 702.06 2375.4
-1027.40 705.56 2387.2
-1017.17 702.77 2377.8
-989.61 687.90 2327.5
-926.96 648.30 2193.5
-898.90 632.56 2140.3
-911.96 645.74 2184.8
-905.60 645.24 2183.1
-899.60 645.00 2182.3
-890.31 642.38 2173.5
-887.61 644.50 2180.7
-941.28 687.86 2327.3
-906.28 675.27 2284.7
-910.65 682.98 2310.9
-895.91 676.38 2288.5
-880.22 668.97 2263.4
-885.13 677.22 2291.3
-893.03 687.87 2327.4
-878.44 681.24 2304.9
-850.30 663.93 2246.4
-827.85 650.86 2202.2
-814.03 644.44 2180.4
-826.77 659.10 2230.0
-833.28 668.97 2263.4
-828.39 669.76 2266.1
-838.27 682.59 2309.5
-832.60 682.85 2310.4
-808.09 667.55 2258.6
-778.99 648.21 2193.2
-779.01 652.99 2209.4
-788.50 665.85 2252.9
-792.73 674.41 2281.8
-810.00 694.29 2349.1
-790.48 682.68 2309.8
-753.17 655.43 2217.6
-744.27 652.67 2208.3
-761.07 672.57 2275.6
-767.54 683.59 2312.9
-751.85 674.89 2283.5
-753.94 682.14 2308.0
-764.21 696.96 2358.1
-747.44 687.16 2325.0
-729.64 676.26 2288.1
-735.53 687.30 2325.5
-752.19 708.67 2397.8
-737.91 701.01 2371.8
-698.78 669.42 2264.9
-700.41 676.67 2289.5
-729.29 710.59 2404.3
-725.48 712.97 2412.3
-718.33 712.08 2409.3
-722.09 722.09 2443.2
-714.87 721.20 2440.1
-698.00 710.47 2403.8
-691.68 710.38 2403.5
-693.97 732.52 2478.5
-673.06 717.09 2426.3
-657.50 707.12 2392.5
-663.82 720.71 2438.5
-672.81 751.96 2544.2
-664.65 750.20 2538.3
-668.35 761.92 2577.9
-672.09 773.92 2618.5
-664.97 773.54 2617.2
-650.12 764.06 2585.2
-632.41 750.98 2540.9
-629.71 763.69 2583.9
-1032.19 690.16 2355.8
-1008.10 678.07 2314.5
-1014.88 686.71 2344.0
-986.02 671.21 2291.1
-951.70 651.77 2224.7
-963.76 664.05 2266.7
-935.41 648.48 2213.5
-895.34 624.52 2131.8
-898.38 630.54 2152.3
-890.24 628.73 2146.1
-881.75 626.65 2139.0
-907.68 649.17 2215.9
-939.45 676.16 2308.0
-903.13 654.19 2233.0
-874.80 641.90 2191.1
-903.28 667.13 2277.2
-893.52 664.26 2267.4
-865.51 647.70 2210.9
-863.98 650.86 2221.7
-884.29 670.64 2289.2
-888.05 678.04 2314.4
-869.71 668.55 2282.0
-861.14 680.48 2322.7
-852.12 678.10 2314.6
-829.57 664.83 2269.3
-855.24 690.30 2356.3
-827.43 677.54 2312.7
-788.51 650.38 2220.0
-796.69 676.89 2310.5
-804.71 688.88 2351.4
-792.38 683.50 2333.1
-787.83 684.80 2337.5
-779.75 693.80 2368.2
-756.22 678.19 2314.9
-740.35 669.28 2284.5
-747.92 681.57 2326.5
-754.99 693.61 2367.6
-752.85 697.32 2380.2
-761.90 711.53 2428.7
-731.29 700.30 2390.4
-714.67 690.24 2356.1
-722.90 704.21 2403.7
-728.42 715.75 2443.2
-725.84 719.47 2455.8
-712.09 712.09 2430.6
-699.53 705.78 2409.1
-697.72 710.29 2424.5
-694.78 713.73 2436.2
-672.15 696.81 2378.5
-663.28 693.99 2368.9
-663.98 701.22 2393.5
-664.05 707.90 2416.3
-687.25 739.61 2524.6
-649.56 705.77 2409.1
-638.53 714.39 2438.5
-632.49 729.29 2489.4
-636.24 741.19 2530.0
-653.27 768.95 2624.7
-1016.13 673.41 2319.1
-955.59 640.87 2207.1
-932.59 640.80 2206.8
-946.37 654.28 2253.3
-974.08 677.62 2333.6
-943.39 664.52 2288.5
-929.46 658.86 2269.0
-942.57 672.40 2315.7
-887.39 637.10 2194.1
-866.02 629.83 2169.1
-894.22 654.59 2254.3
-881.32 649.40 2236.4
-847.39 628.53 2164.6
-882.05 663.02 2283.4
-879.18 669.85 2306.9
-863.01 675.92 2327.8
-842.98 664.89 2289.8
-820.81 651.99 2245.4
-845.57 676.46 2329.6
-826.98 671.17 2311.4
-808.37 660.86 2275.9
-797.95 657.14 2263.1
-772.93 641.24 2208.4
-795.31 664.74 2289.3
-799.08 672.91 2317.4
-773.68 656.45 2260.7
-781.10 667.81 2299.8
-796.33 686.07 2362.7
-799.04 693.74 2389.1
-779.45 682.02 2348.8
-763.97 673.73 2320.3
-749.81 666.50 2295.3
-732.20 656.05 2259.4
-737.77 666.38 2294.9
-742.00 675.64 2326.8
-739.67 679.04 2338.5
-747.10 691.53 2381.5
-733.03 701.71 2416.6
-729.47 704.32 2425.6
-727.24 708.27 2439.2
-716.47 703.90 2424.2
-693.05 686.92 2365.7
-670.71 670.71 2309.8
-665.14 671.14 2311.3
-662.16 686.68 2364.8
-667.76 698.97 2407.2
-674.18 712.34 2453.2
-679.10 724.38 2494.7
-643.41 706.49 2433.1
-657.24 728.82 2510.0
-634.80 725.48 2498.5
-658.26 760.05 2617.5
-626.88 754.96 2600.0
-981.10 648.23 2252.5
-963.84 640.63 2226.1
-926.81 619.73 2153.5
-915.35 619.54 2152.8
-958.73 652.88 2268.7
-972.76 666.52 2316.1
-947.97 665.98 2314.2
-928.93 656.76 2282.2
-896.62 637.98 2216.9
-870.00 623.03 2165.0
-908.82 655.05 2276.3
-913.02 666.75 2316.9
-857.41 630.28 2190.2
-868.67 647.13 2248.7
-893.98 670.49 2329.9
-869.74 656.74 2282.1
-844.69 642.20 2231.6
-836.52 640.37 2225.2
-831.75 641.14 2227.9
-841.73 653.37 2270.4
-847.17 662.22 2301.2
-850.15 669.26 2325.6
-822.05 651.77 2264.8
-798.55 642.31 2232.0
-825.35 668.71 2323.7
-835.35 681.79 2369.2
-818.29 677.84 2355.4
-787.00 656.82 2282.4
-757.60 637.08 2213.8
-759.24 643.33 2235.5
-763.86 652.22 2266.4
-758.23 652.43 2267.1
-778.72 675.30 2346.6
-779.34 686.56 2385.7
-752.59 668.30 2322.3
-746.50 668.24 2322.1
-739.54 667.39 2319.1
-720.08 655.15 2276.6
-709.76 651.10 2262.5
-728.73 674.07 2342.3
-747.31 697.07 2422.2
-729.77 710.57 2469.2
-704.87 692.40 2406.0
-686.99 680.86 2365.9
-685.83 685.83 2383.2
-678.23 684.40 2378.2
-671.45 683.77 2376.0
-669.08 687.67 2389.6
-662.78 687.56 2389.2
-646.78 677.29 2353.5
-643.13 686.42 2385.2
-677.10 729.69 2535.6
-675.48 742.36 2579.6
-651.78 723.47 2514.0
-663.84 744.30 2586.4
-643.07 751.38 2611.0
-634.83 749.64 2604.9
-945.41 634.12 2223.5
-981.50 662.36 2322.6
-986.82 670.06 2349.6
-944.69 645.44 2263.2
-912.96 627.66 2200.9
-933.45 645.79 2264.4
-942.30 656.03 2300.4
-920.73 645.10 2262.0
-887.73 625.96 2194.9
-875.57 621.37 2178.8
-927.28 662.34 2322.5
-922.07 667.29 2339.9
-876.95 638.84 2240.1
-868.70 637.05 2233.8
-883.47 652.22 2287.0
-895.56 665.62 2334.0
-885.41 662.55 2323.2
-873.59 658.19 2307.9
-862.52 654.33 2294.4
-854.22 652.53 2288.1
-851.98 655.37 2298.0
-847.02 656.14 2300.8
-840.72 655.88 2299.8
-803.11 631.01 2212.6
-799.03 641.56 2249.6
-792.51 641.00 2247.7
-803.55 654.75 2295.9
-805.17 660.96 2317.7
-794.41 657.03 2303.9
-784.96 654.13 2293.7
-783.00 657.48 2305.5
-783.45 662.92 2324.5
-770.34 656.88 2303.3
-784.38 674.07 2363.6
-758.12 667.14 2339.3
-744.90 660.80 2317.1
-754.95 675.16 2367.5
-752.54 678.52 2379.2
-712.81 648.01 2272.2
-712.51 658.62 2309.5
-712.65 664.33 2329.5
-743.77 699.27 2452.0
-734.89 709.10 2486.5
-725.12 705.87 2475.1
-721.86 708.97 2486.0
-712.41 705.99 2475.5
-695.33 695.33 2438.2
-672.66 678.83 2380.3
-654.43 666.55 2337.2
-657.28 675.71 2369.4
-649.75 674.27 2364.3
-653.58 691.29 2424.0
-664.10 709.24 2486.9
-659.53 711.26 2494.0
-659.31 718.06 2517.9
-661.63 727.80 2552.0
-673.61 748.46 2624.5
-631.04 730.68 2562.1
-636.84 745.24 2613.2
-1004.03 659.27 2332.9
-1009.52 666.90 2359.9
-1009.58 671.00 2374.5
-967.61 655.09 2318.1
-933.14 635.70 2249.5
-960.55 658.49 2330.2
-943.22 650.71 2302.6
-897.93 623.41 2206.0
-895.87 625.96 2215.1
-915.04 643.48 2277.1
-918.87 650.37 2301.4
-908.31 647.10 2289.9
-907.38 650.68 2302.6
-898.63 648.68 2295.4
-876.93 637.24 2255.0
-879.12 643.11 2275.8
-900.60 663.28 2347.1
-898.34 666.11 2357.2
-876.86 654.64 2316.6
-856.58 643.91 2278.6
-842.90 638.03 2257.8
-837.37 638.28 2258.6
-833.51 639.80 2264.1
-827.95 640.05 2264.9
-814.81 634.39 2244.9
-803.72 630.25 2230.3
-818.08 646.17 2286.6
-823.77 655.41 2319.3
-802.64 643.29 2276.4
-798.94 645.07 2282.7
-797.42 648.65 2295.3
-783.56 642.16 2272.4
-781.69 645.48 2284.1
-787.83 655.52 2319.7
-783.93 657.30 2326.0
-766.83 647.94 2292.8
-763.87 650.48 2301.8
-774.46 664.69 2352.1
-767.11 663.61 2348.3
-744.60 649.29 2297.6
-738.27 648.97 2296.5
-756.01 669.96 2370.8
-759.78 684.43 2422.0
-724.48 658.07 2328.7
-711.53 651.74 2306.3
-695.58 642.53 2273.7
-707.81 659.41 2333.4
-709.93 690.92 2444.9
-680.83 668.56 2365.8
-670.36 664.27 2350.6
-645.31 663.57 2348.2
-653.04 677.92 2398.9
-669.57 701.76 2483.3
-679.71 719.31 2545.4
-667.10 712.88 2522.7
-657.29 709.35 2510.2
-647.53 705.81 2497.6
-646.95 712.30 2520.6
-655.98 729.61 2581.9
-653.19 734.00 2597.4
-649.15 737.06 2608.2
-642.75 737.47 2609.7
-632.92 733.91 2597.1
-1012.66 647.14 2311.2
-1011.43 650.21 2322.2
-1010.54 653.52 2334.0
-1000.02 650.61 2323.6
-1018.10 666.39 2380.0
-1006.39 666.81 2381.5
-981.22 654.15 2336.2
-984.96 660.72 2359.7
-973.66 661.35 2362.0
-900.84 615.77 2199.2
-883.13 607.50 2169.7
-905.47 626.86 2238.8
-909.80 633.93 2264.0
-898.23 629.93 2249.7
-894.93 631.72 2256.1
-901.88 640.81 2288.6
-904.80 647.14 2311.2
-894.99 644.39 2301.4
-882.43 639.61 2284.3
-887.62 647.72 2313.3
-885.78 650.78 2324.2
-864.03 639.14 2282.6
-844.16 628.75 2245.5
-832.58 624.43 2230.1
-841.57 635.59 2270.0
-851.38 647.53 2312.6
-832.77 637.86 2278.1
-807.05 622.58 2223.5
-806.17 626.38 2237.1
-828.67 648.53 2316.2
-848.22 668.67 2388.1
-840.10 667.14 2382.6
-810.60 648.48 2316.0
-784.90 632.60 2259.3
-765.62 631.20 2254.3
-769.60 639.36 2283.4
-763.93 639.57 2284.2
-773.17 652.36 2329.9
-770.10 654.89 2338.9
-749.88 642.75 2295.5
-744.16 642.95 2296.3
-755.59 658.09 2350.3
-755.01 662.94 2367.6
-757.55 670.62 2395.1
-757.94 676.51 2416.1
-740.71 666.64 2380.9
-748.71 679.50 2426.8
-753.66 689.79 2463.5
-725.63 669.81 2392.2
-726.59 676.48 2416.0
-697.90 655.42 2340.8
-681.50 651.35 2326.2
-697.45 672.54 2401.9
-674.05 655.83 2342.2
-669.20 657.03 2346.5
-666.95 660.83 2360.1
-657.86 657.86 2349.5
-653.39 665.72 2377.6
-654.98 673.69 2406.0
-665.72 691.33 2469.0
-660.64 706.43 2523.0
-643.10 694.55 2480.5
-639.08 718.96 2567.7
-638.32 725.67 2591.7
-634.92 729.48 2605.3
-1029.96 652.10 2350.7
-992.39 643.55 2319.9
-999.00 651.78 2349.6
-970.01 636.76 2295.4
-950.65 627.90 2263.4
-960.52 638.36 2301.2
-972.08 650.08 2343.4
-943.95 635.24 2289.9
-906.87 614.15 2213.9
-910.67 620.64 2237.3
-917.98 629.64 2269.7
-907.81 626.68 2259.1
-909.89 632.20 2278.9
-919.38 642.96 2317.8
-918.03 646.25 2329.6
-912.39 646.53 2330.6
-895.17 638.55 2301.9
-878.07 630.56 2273.0
-880.86 636.84 2295.7
-874.93 636.85 2295.7
-857.00 628.07 2264.1
-842.27 621.54 2240.5
-839.84 624.05 2249.6
-855.87 640.40 2308.5
-860.92 648.72 2338.5
-836.59 634.86 2288.5
-816.45 624.00 2249.4
-821.74 632.56 2280.3
-831.13 644.42 2323.0
-834.80 652.00 2350.3
-830.31 653.26 2354.9
-803.74 637.04 2296.4
-789.18 630.17 2271.6
-776.63 624.80 2252.3
-766.04 620.95 2238.4
-784.12 640.47 2308.8
-785.20 646.28 2329.7
-775.74 643.44 2319.5
-775.47 648.24 2336.8
-761.50 641.58 2312.8
-756.34 642.29 2315.3
-767.27 656.78 2367.6
-776.17 669.76 2414.4
-772.80 672.28 2423.4
-741.69 650.50 2344.9
-713.03 635.78 2291.9
-742.62 667.73 2407.0
-747.91 678.19 2444.7
-719.91 658.38 2373.3
-699.48 645.21 2325.9
-713.25 681.41 2456.3
-696.91 677.90 2443.7
-674.20 661.82 2385.8
-677.55 671.28 2419.8
-680.22 680.22 2452.1
-671.46 677.80 2443.3
-658.43 670.98 2418.7
-676.45 695.96 2508.8
-660.32 699.55 2521.7
-646.66 691.92 2494.3
-636.96 688.44 2481.7
-642.65 723.82 2609.2
-1027.68 648.42 2359.5
-974.33 622.16 2263.9
-999.82 642.31 2337.2
-984.77 636.50 2316.1
-933.96 607.36 2210.1
-921.59 614.39 2235.7
-941.19 631.43 2297.7
-928.00 626.55 2279.9
-916.33 622.63 2265.6
-890.27 608.83 2215.4
-878.08 604.39 2199.3
-929.20 643.76 2342.5
-884.45 625.01 2274.3
-868.11 617.58 2247.3
-872.01 624.54 2272.6
-883.72 637.24 2318.8
-884.24 641.99 2336.1
-854.70 624.81 2273.6
-837.29 616.34 2242.7
-857.72 635.79 2313.5
-864.44 645.28 2348.1
-850.71 639.54 2327.2
-841.71 637.29 2319.0
-828.79 632.03 2299.8
-819.88 629.76 2291.6
-836.27 647.04 2354.5
-809.01 635.23 2311.5
-783.93 620.13 2256.5
-795.39 633.92 2306.7
-810.37 650.75 2368.0
-794.01 652.44 2374.1
-768.62 636.51 2316.2
-762.26 636.22 2315.1
-765.51 644.00 2343.4
-772.81 655.34 2384.7
-777.83 664.92 2419.5
-753.52 654.70 2382.3
-717.46 628.52 2287.1
-719.50 635.55 2312.7
-728.82 649.20 2362.3
-712.72 640.24 2329.7
-700.42 634.56 2309.1
-695.45 635.50 2312.5
-688.26 634.40 2308.4
-698.07 649.09 2361.9
-702.46 658.95 2397.8
-709.10 671.12 2442.1
-715.53 683.30 2486.4
-685.41 660.48 2403.4
-678.03 659.37 2399.3
-696.48 683.58 2487.4
-695.37 688.87 2506.7
-680.59 680.59 2476.5
-661.89 668.19 2431.4
-673.60 686.55 2498.2
-678.83 719.56 2618.4
-673.16 720.76 2622.7
-666.03 720.40 2621.4
-970.66 613.97 2255.4
-947.75 606.79 2229.0
-932.47 615.78 2262.0
-952.39 632.92 2325.0
-935.11 625.39 2297.4
-911.76 613.69 2254.4
-875.04 600.52 2206.0
-928.33 641.28 2355.7
-905.68 629.78 2313.5
-886.02 620.21 2278.3
-893.41 629.58 2312.8
-881.54 625.42 2297.4
-878.02 627.16 2303.8
-896.08 644.44 2367.3
-881.45 638.29 2344.7
-857.43 625.21 2296.7
-873.38 641.29 2355.8
-871.97 644.77 2368.5
-850.21 633.14 2325.8
-849.47 637.10 2340.4
-844.06 637.60 2342.2
-831.13 632.38 2323.0
-845.52 648.03 2380.5
-821.01 638.56 2345.7
-793.93 622.11 2285.3
-804.07 634.79 2331.9
-805.52 640.75 2353.8
-809.98 649.22 2384.9
-788.04 641.42 2356.3
-766.33 628.63 2309.3
-764.23 631.84 2321.1
-776.19 646.83 2376.1
-759.63 643.23 2362.9
-724.63 618.58 2272.3
-745.80 641.88 2357.9
-756.72 656.66 2412.2
-729.71 638.49 2345.5
-710.14 626.60 2301.8
-709.75 631.56 2320.0
-713.76 640.56 2353.1
-716.50 648.55 2382.4
-718.26 655.80 2409.1
-732.23 674.42 2477.5
-710.35 665.95 2446.3
-684.66 647.65 2379.1
-678.40 647.56 2378.8
-693.71 668.25 2454.8
-705.51 685.91 2519.7
-696.83 683.81 2511.9
-687.42 680.93 2501.4
-673.22 673.22 2473.1
-663.95 670.33 2462.4
-675.93 689.05 2531.2
-665.56 685.14 2516.8
-640.82 666.19 2447.2
-653.29 685.95 2519.8
-668.53 709.05 2604.7
-665.02 712.52 2617.4
-1024.18 634.02 2351.4
-966.75 616.82 2287.7
-987.59 634.01 2351.4
-970.01 626.59 2323.9
-981.55 638.01 2366.2
-984.19 647.82 2402.6
-977.70 647.65 2402.0
-966.12 644.08 2388.7
-914.44 613.56 2275.6
-887.97 607.56 2253.3
-896.65 617.56 2290.4
-906.56 628.55 2331.2
-905.45 631.99 2343.9
-884.13 621.28 2304.2
-867.82 613.97 2277.1
-872.23 621.31 2304.3
-886.06 635.52 2357.0
-887.43 640.92 2377.1
-876.92 637.76 2365.3
-852.05 624.04 2314.4
-841.72 620.84 2302.6
-852.61 633.37 2349.0
-855.07 639.76 2372.8
-849.90 640.51 2375.5
-832.07 631.64 2342.6
-810.84 620.05 2299.6
-817.01 629.40 2334.3
-828.75 643.21 2385.5
-819.71 640.97 2377.2
-801.29 631.32 2341.4
-779.92 619.17 2296.4
-760.92 608.74 2257.7
-753.16 607.20 2252.0
-749.40 608.89 2258.2
-765.59 626.94 2325.2
-772.83 648.18 2404.0
-723.83 622.14 2307.4
-743.67 644.51 2390.4
-725.70 634.22 2352.2
-728.31 641.90 2380.7
-731.62 650.33 2411.9
-733.66 657.77 2439.5
-714.27 645.95 2395.7
-704.69 642.87 2384.3
-724.28 666.59 2472.2
-711.59 660.76 2450.6
-688.56 645.13 2392.7
-685.18 647.81 2402.6
-687.55 656.01 2433.0
-684.80 659.44 2445.7
-682.51 663.37 2460.3
-678.86 666.05 2470.2
-677.70 671.25 2489.5
-681.74 681.74 2528.4
-672.35 678.87 2517.8
-641.98 654.56 2427.6
-642.96 675.44 2505.1
-636.60 675.58 2505.6
-657.60 705.06 2614.9
-641.78 710.06 2633.5
-626.69 700.82 2599.2
-1022.81 627.08 2348.3
-1015.25 633.76 2373.3
-957.17 601.15 2251.2
-989.21 625.08 2340.8
-999.35 639.34 2394.2
-965.36 621.45 2327.2
-941.66 610.00 2284.3
-972.97 634.28 2375.2
-903.34 604.18 2262.5
-886.77 596.98 2235.6
-903.42 612.18 2292.5
-910.60 621.14 2326.0
-905.32 621.65 2328.0
-888.84 614.43 2300.9
-881.16 613.24 2296.5
-879.72 616.40 2308.3
-846.62 597.28 2236.7
-831.62 594.84 2227.6
-829.87 597.74 2238.4
-843.49 611.83 2291.2
-872.51 637.37 2386.8
-842.19 619.61 2320.3
-804.60 596.21 2232.7
-815.77 608.87 2280.1
-813.40 611.53 2290.1
-806.79 611.03 2288.2
-827.42 631.29 2364.1
-820.64 630.79 2362.2
-792.69 613.89 2298.9
-814.94 635.90 2381.3
-806.26 638.81 2392.2
-790.50 631.18 2363.6
-755.64 608.05 2277.0
-768.08 627.88 2351.3
-782.26 644.58 2413.8
-781.89 649.47 2432.1
-734.03 614.67 2301.8
-713.82 607.63 2275.5
-732.59 628.81 2354.8
-713.28 617.38 2311.9
-722.79 630.91 2362.6
-732.06 644.46 2413.4
-723.50 642.42 2405.7
-694.77 622.27 2330.3
-688.44 638.82 2392.3
-686.66 642.96 2407.8
-692.44 654.32 2450.3
-684.17 652.50 2443.5
-675.67 650.42 2435.7
-674.65 655.56 2454.9
-675.06 662.20 2479.8
-672.32 665.86 2493.5
-657.77 657.77 2463.2
-666.98 708.24 2652.2
-643.55 697.75 2612.9
-634.39 695.13 2603.1
-996.47 612.29 2315.4
-994.79 614.96 2325.5
-1006.36 625.91 2366.9
-998.08 624.56 2361.8
-983.04 618.95 2340.6
-982.90 630.54 2384.4
-970.93 626.80 2370.3
-974.40 633.05 2393.9
-942.44 616.21 2330.2
-948.05 623.88 2359.2
-925.81 613.20 2318.8
-885.12 590.08 2231.4
-881.14 591.29 2236.0
-871.92 600.92 2272.4
-871.23 604.53 2286.0
-839.20 586.29 2217.1
-832.71 593.96 2246.1
-852.69 612.50 2316.2
-861.35 623.10 2356.3
-811.88 591.51 2236.8
-791.13 593.34 2243.7
-814.11 615.11 2326.0
-811.24 617.51 2335.1
-783.98 601.24 2273.6
-808.82 625.00 2363.4
-761.34 611.47 2312.3
-747.15 604.84 2287.2
-755.81 616.74 2332.2
-749.40 616.45 2331.1
-757.73 628.36 2376.2
-763.80 638.59 2414.8
-751.39 633.41 2395.2
-725.54 616.71 2332.1
-712.23 620.92 2348.0
-713.88 627.72 2373.7
-697.67 618.81 2340.0
-699.03 642.35 2429.1
-710.19 658.54 2490.3
-705.50 660.20 2496.5
-688.24 650.01 2458.0
-677.38 645.72 2441.8
-673.52 648.10 2450.8
-665.29 646.28 2443.9
-653.55 640.99 2423.9
-658.41 652.02 2465.6
-641.76 641.76 2426.8
-636.04 655.32 2478.1
-660.52 687.48 2599.7
-664.31 698.56 2641.6
-985.48 599.60 2289.8
-992.83 611.44 2335.1
-1011.87 626.99 2394.4
-996.00 620.96 2371.4
-985.47 629.95 2405.8
-949.66 610.93 2333.1
-904.34 585.50 2236.0
-895.32 583.40 2228.0
-921.28 604.22 2307.5
-924.31 610.16 2330.2
-899.09 597.42 2281.5
-866.84 591.56 2259.1
-868.95 597.03 2280.0
-866.26 611.84 2336.6
-859.88 611.61 2335.7
-842.17 603.26 2303.8
-814.99 587.96 2245.4
-806.88 603.67 2305.4
-821.58 619.25 2364.9
-811.96 616.60 2354.8
-783.83 599.75 2290.4
-783.64 608.83 2325.1
-788.87 632.35 2414.9
-785.26 634.49 2423.1
-751.33 611.97 2337.1
-734.30 602.96 2302.7
-758.10 627.61 2396.8
-764.03 637.74 2435.5
-742.10 624.60 2385.3
-712.97 605.13 2311.0
-722.51 618.42 2361.7
-731.90 637.25 2433.6
-689.49 605.55 2312.6
-695.77 616.43 2354.1
-709.76 634.38 2422.7
-695.82 627.48 2396.3
-691.94 629.60 2404.4
-703.97 646.37 2468.5
-700.12 648.74 2477.5
-679.50 635.46 2426.8
-665.34 628.03 2398.4
-656.97 638.02 2436.6
-675.22 688.86 2630.7
-651.52 692.67 2645.3
-999.92 613.45 2366.2
-991.65 612.13 2361.1
-947.43 588.46 2269.8
-934.69 587.85 2267.4
-952.46 602.82 2325.2
-957.15 609.65 2351.5
-945.66 606.19 2338.2
-912.49 588.70 2270.7
-917.10 595.52 2297.0
-921.23 602.11 2322.4
-896.73 589.95 2275.5
-900.08 596.08 2299.2
-908.60 605.73 2336.4
-925.00 620.81 2394.5
-845.99 579.44 2235.0
-845.94 587.46 2265.9
-880.94 616.04 2376.2
-864.73 608.97 2348.9
-859.65 609.68 2351.6
-843.29 602.35 2323.4
-816.84 587.66 2266.7
-802.11 581.24 2241.9
-809.92 591.18 2280.3
-826.27 607.55 2343.4
-818.57 606.35 2338.8
-802.93 599.20 2311.2
-797.54 599.65 2312.9
-773.58 586.05 2260.5
-786.57 605.05 2333.8
-783.25 607.17 2341.9
-763.43 601.12 2318.6
-765.72 617.52 2381.9
-728.53 592.30 2284.6
-731.90 599.92 2314.0
-750.81 620.51 2393.4
-741.67 618.06 2383.9
-716.82 602.37 2323.4
-729.74 618.43 2385.4
-740.15 638.06 2461.1
-691.84 601.60 2320.4
-692.33 607.31 2342.5
-720.54 637.65 2459.5
-721.13 643.86 2483.5
-711.40 640.90 2472.0
-718.75 653.41 2520.3
-714.52 655.52 2528.4
-693.50 642.13 2476.8
-688.55 643.51 2482.1
-687.69 648.76 2502.4
-673.72 641.64 2474.9
-644.04 650.54 2509.2
-649.13 683.29 2635.6
-974.09 595.28 2319.3
-956.93 588.42 2292.6
-946.71 593.19 2311.1
-970.50 611.97 2384.3
-954.20 605.55 2359.3
-914.43 584.06 2275.6
-913.27 587.10 2287.4
-913.13 590.85 2302.0
-884.38 576.01 2244.2
-884.62 579.98 2259.7
-918.26 606.05 2361.3
-916.32 617.11 2404.3
-890.17 603.61 2351.7
-894.03 610.41 2378.2
-890.62 612.30 2385.6
-875.01 605.77 2360.2
-861.18 600.40 2339.2
-858.13 602.52 2347.5
-847.41 599.24 2334.7
-825.21 587.74 2289.9
-817.62 586.55 2285.3
-832.49 601.58 2343.8
-837.72 609.81 2375.9
-819.67 601.09 2341.9
-801.47 592.13 2307.0
-792.92 590.22 2299.6
-786.29 589.72 2297.6
-786.54 594.41 2315.9
-778.95 593.20 2311.2
-764.13 600.39 2339.2
-768.49 608.65 2371.4
-753.08 601.25 2342.5
-729.24 586.95 2286.8
-722.07 585.94 2282.9
-731.77 598.72 2332.7
-747.00 616.27 2401.1
-746.73 621.23 2420.4
-714.25 599.25 2334.7
-701.92 593.93 2314.0
-718.76 613.43 2390.0
-712.21 613.12 2388.8
-696.58 604.93 2356.9
-708.40 620.63 2418.1
-707.20 625.11 2435.5
-696.24 620.97 2419.4
-713.84 642.46 2503.1
-696.26 638.24 2486.7
-689.47 637.93 2485.4
-674.61 648.41 2526.3
-668.47 648.81 2527.8
-664.03 650.88 2535.9
-649.81 643.31 2506.4
-991.57 603.57 2375.5
-981.80 601.35 2366.8
-977.99 602.79 2372.5
-993.04 619.86 2439.7
-943.04 592.42 2331.7
-930.17 588.11 2314.7
-955.63 608.13 2393.5
-957.40 613.24 2413.6
-929.11 599.03 2357.7
-898.93 583.41 2296.2
-902.89 589.89 2321.7
-904.98 595.22 2342.7
-876.64 580.48 2284.7
-856.19 570.79 2246.6
-855.53 574.26 2260.2
-879.12 594.16 2338.5
-895.87 609.69 2399.7
-882.93 605.08 2381.5
-871.74 601.62 2367.9
-859.94 597.69 2352.4
-841.24 588.87 2317.7
-822.04 579.57 2281.1
-816.11 579.55 2281.0
-833.28 596.07 2346.0
-839.16 604.69 2380.0
-814.99 591.62 2328.5
-789.47 577.37 2272.5
-789.56 581.78 2289.8
-792.40 588.30 2315.4
-797.93 596.92 2349.4
-796.77 600.64 2364.1
-787.22 598.04 2353.8
-778.32 595.90 2345.4
-757.61 584.61 2300.9
-753.70 586.21 2307.2
-759.64 595.56 2344.0
-746.67 590.11 2322.6
-748.55 596.41 2347.4
-767.61 616.61 2426.9
-732.47 593.24 2334.9
-722.51 595.01 2341.9
-712.39 591.64 2328.6
-701.55 592.68 2332.7
-716.79 610.83 2404.1
-723.97 622.36 2449.5
-719.19 623.72 2454.9
-701.91 614.18 2417.3
-696.33 626.06 2464.1
-701.38 636.44 2504.9
-675.59 618.77 2435.4
-673.30 622.49 2450.0
-682.42 636.92 2506.8
-668.75 630.17 2480.3
-661.22 629.12 2476.1
-667.12 640.96 2522.7
-644.74 625.59 2462.2
-658.47 672.19 2645.6
-959.08 577.83 2297.7
-971.87 589.19 2342.9
-989.65 603.75 2400.8
-1000.55 618.17 2458.1
-977.14 607.58 2416.0
-952.17 603.66 2400.4
-944.24 602.58 2396.1
-931.01 598.06 2378.2
-925.61 598.56 2380.1
-917.40 597.23 2374.9
-881.30 577.61 2296.8
-852.19 570.09 2266.9
-897.04 604.26 2402.8
-890.37 608.21 2418.5
-871.10 599.27 2383.0
-855.32 592.61 2356.5
-840.97 586.86 2333.6
-829.01 582.71 2317.1
-837.65 593.08 2358.3
-846.09 603.46 2399.6
-825.08 592.84 2357.4
-790.86 572.49 2276.5
-780.80 569.46 2264.4
-801.34 588.87 2341.6
-805.29 600.87 2389.3
-778.40 585.31 2327.5
-782.43 592.94 2357.8
-773.85 591.05 2350.3
-775.26 596.83 2373.2
-788.55 611.91 2433.2
-768.52 601.18 2390.5
-763.75 602.30 2395.0
-769.27 616.69 2452.2
-713.47 576.72 2293.3
-709.16 578.06 2298.6
-720.47 592.25 2355.0
-721.91 598.51 2379.9
-716.50 599.15 2382.5
-718.58 606.11 2410.2
-721.63 614.02 2441.6
-713.31 612.31 2434.8
-715.33 619.52 2463.5
-702.15 613.59 2439.9
-680.01 599.65 2384.5
-694.61 618.14 2458.0
-711.22 638.78 2540.1
-697.29 632.12 2513.6
-697.90 638.64 2539.5
-690.19 649.98 2584.6
-660.37 634.22 2521.9
-643.74 624.43 2483.0
-652.90 639.71 2543.8
-648.77 655.52 2606.6
-646.56 660.17 2625.1
-982.31 578.54 2324.5
-1000.93 593.14 2383.2
-1001.63 597.24 2399.6
-989.93 593.96 2386.4
-982.37 593.13 2383.1
-984.79 598.35 2404.1
-987.12 603.59 2425.1
-982.04 604.33 2428.1
-986.38 610.92 2454.6
-966.04 602.21 2419.6
-933.28 585.59 2352.8
-923.67 583.37 2343.9
-909.49 578.22 2323.2
-903.86 578.47 2324.2
-931.93 600.44 2412.5
-926.44 600.93 2414.5
-890.06 581.26 2335.4
-869.56 571.76 2297.3
-847.17 560.88 2253.6
-855.97 570.65 2292.8
-887.61 595.88 2394.2
-887.49 599.99 2410.7
-886.96 603.88 2426.3
-855.29 590.70 2373.4
-828.48 576.33 2315.6
-824.42 577.70 2321.1
-822.92 580.88 2333.9
-807.85 574.47 2308.1
-779.16 558.20 2242.8
-785.99 567.33 2279.4
-820.69 596.87 2398.1
-820.10 600.99 2414.7
-779.32 575.49 2312.3
-771.73 574.31 2307.5
-794.21 595.66 2393.3
-767.58 580.22 2331.2
-752.42 573.27 2303.3
-779.99 599.03 2406.8
-773.11 598.54 2404.8
-742.00 579.12 2326.8
-746.17 587.15 2359.1
-755.72 599.58 2409.0
-733.81 587.05 2358.7
-722.75 583.06 2342.7
-728.84 592.96 2382.4
-723.16 593.36 2384.0
-710.46 587.97 2362.4
-698.14 582.80 2341.6
-687.57 579.01 2326.4
-703.87 597.98 2402.6
-727.66 623.71 2506.0
-717.75 632.15 2539.9
-686.71 610.41 2452.5
-697.68 625.96 2515.0
-680.40 628.07 2523.5
-658.47 613.72 2465.8
-659.27 626.64 2517.7
-669.08 655.42 2633.4
-656.24 649.47 2609.5
-652.90 652.90 2623.2
-640.42 647.16 2600.2
-649.23 663.04 2664.0
-1025.44 605.07 2456.7
-986.71 585.86 2378.7
-952.41 569.05 2310.4
-945.39 568.43 2307.9
-941.32 569.59 2312.6
-950.75 578.98 2350.8
-968.36 593.51 2409.8
-969.44 598.03 2428.1
-956.77 594.07 2412.0
-950.61 594.13 2412.3
-939.10 590.83 2398.8
-915.65 579.91 2354.5
-925.40 590.02 2395.6
-931.47 597.90 2427.6
-906.15 585.61 2377.7
-901.07 586.31 2380.5
-893.57 585.44 2377.0
-855.41 564.33 2291.3
-839.65 557.81 2264.8
-867.10 580.10 2355.3
-881.50 598.16 2428.6
-837.58 572.45 2324.2
-818.75 563.64 2288.4
-821.61 569.73 2313.2
-819.48 572.43 2324.2
-805.07 566.53 2300.2
-788.21 558.81 2268.8
-806.42 576.01 2338.7
-810.42 583.26 2368.1
-778.58 564.62 2292.4
-761.08 556.17 2258.1
-777.10 572.28 2323.5
-794.64 589.77 2394.6
-764.65 571.98 2322.3
-731.49 555.93 2257.2
-754.17 577.79 2345.9
-753.65 582.09 2363.4
-725.45 564.90 2293.6
-726.41 575.08 2334.9
-760.75 607.32 2465.8
-748.90 602.92 2448.0
-726.11 589.57 2393.8
-709.46 581.02 2359.0
-693.81 573.14 2327.1
-685.48 571.23 2319.3
-704.27 592.08 2403.9
-724.82 614.80 2496.2
-693.92 610.39 2478.3
-706.14 626.95 2545.5
-693.79 621.79 2524.6
-650.31 599.80 2435.3
-641.41 603.31 2449.5
-670.35 636.84 2585.6
-672.02 644.87 2618.3
-661.32 641.07 2602.8
-657.08 643.54 2612.9
-649.14 656.04 2663.6
-635.76 649.43 2636.8
-1020.55 588.54 2415.0
-992.14 575.68 2362.2
-1001.98 592.36 2430.7
-959.19 570.66 2341.6
-962.04 576.00 2363.5
-978.67 589.71 2419.8
-996.51 604.33 2479.8
-946.84 581.72 2387.0
-907.12 560.98 2301.9
-918.98 572.08 2347.4
-918.60 575.66 2362.1
-915.34 577.46 2369.5
-910.65 578.39 2373.3
-894.13 571.76 2346.1
-899.13 578.89 2375.4
-911.54 590.93 2424.8
-892.34 582.50 2390.2
-858.73 564.48 2316.3
-868.23 574.74 2358.4
-840.67 568.51 2332.8
-821.16 559.34 2295.2
-823.68 565.15 2319.0
-820.89 567.38 2328.2
-831.26 578.80 2375.0
-840.76 589.79 2420.1
-817.33 577.66 2370.4
-780.25 555.63 2280.0
-767.09 550.43 2258.6
-767.09 554.67 2276.0
-754.71 558.60 2292.1
-767.76 572.78 2350.3
-758.92 570.71 2341.8
-769.49 583.32 2393.6
-780.40 596.40 2447.3
-762.86 587.77 2411.8
-723.03 561.69 2304.8
-727.68 570.02 2339.0
-750.54 602.99 2474.3
-728.36 590.22 2421.9
-712.83 582.66 2390.9
-706.00 582.14 2388.7
-695.62 578.66 2374.4
-687.75 577.22 2368.5
-674.08 581.31 2385.3
-718.20 625.10 2565.0
-709.92 623.66 2559.1
-679.22 602.33 2471.5
-672.05 607.43 2492.5
-685.08 625.22 2565.5
-671.88 619.18 2540.7
-656.08 610.61 2505.5
-657.30 617.86 2535.3
-660.55 627.19 2573.6
-652.82 626.18 2569.4
-647.25 627.23 2573.7
-655.99 642.32 2635.7
-1024.39 588.08 2439.0
-995.94 586.22 2431.3
-985.71 583.89 2421.7
-985.76 587.67 2437.3
-986.83 592.10 2455.7
-974.68 592.45 2457.2
-896.80 556.02 2306.1
-947.81 591.59 2453.6
-920.91 578.68 2400.1
-888.34 562.01 2330.9
-891.31 567.75 2354.7
-902.06 578.56 2399.6
-891.79 575.95 2388.7
-867.32 564.06 2339.4
-856.56 560.98 2326.7
-863.93 569.83 2363.3
-874.12 580.67 2408.3
-850.71 569.18 2360.6
-822.25 554.13 2298.2
-816.61 554.34 2299.1
-812.25 555.43 2303.6
-821.07 565.63 2345.9
-834.17 578.94 2401.1
-815.55 570.27 2365.2
-783.83 552.24 2290.4
-773.77 549.32 2278.3
-775.60 554.85 2301.2
-760.31 548.13 2273.4
-750.98 545.64 2263.0
-776.45 568.58 2358.2
-783.92 578.61 2399.7
-768.94 572.09 2372.7
-777.06 582.80 2417.1
-777.67 592.82 2458.7
-748.21 575.07 2385.1
-721.13 558.87 2317.9
-736.01 575.20 2385.6
-756.84 596.50 2473.9
-745.01 592.18 2456.1
-724.83 581.11 2410.1
-711.27 575.20 2385.6
-735.39 599.92 2488.1
-725.07 602.07 2497.1
-687.60 592.10 2455.7
-668.39 580.94 2409.4
-664.62 583.11 2418.4
-667.98 591.64 2453.8
-669.13 598.35 2481.6
-665.86 601.22 2493.5
-673.99 614.52 2548.7
-680.86 626.93 2600.2
-667.68 620.95 2575.4
-655.35 615.63 2553.3
-655.59 622.14 2580.3
-659.96 632.75 2624.3
-647.66 627.42 2602.2
-636.62 623.22 2584.8
-642.96 636.12 2638.3
-1019.75 590.04 2473.8
-962.76 560.60 2350.3
-967.44 566.91 2376.8
-978.21 576.89 2418.7
-993.53 589.71 2472.4
-971.05 587.74 2464.1
-918.86 559.83 2347.1
-963.07 590.68 2476.5
-923.48 574.06 2406.8
-892.28 558.43 2341.3
-895.92 564.55 2366.9
-891.54 565.67 2371.6
-866.65 553.69 2321.4
-840.97 541.05 2268.4
-818.41 545.61 2287.5
-827.81 555.90 2330.6
-838.63 567.31 2378.5
-831.82 566.87 2376.6
-827.89 568.40 2383.0
-813.12 562.46 2358.1
-784.56 546.81 2292.5
-782.02 549.21 2302.6
-790.65 559.54 2345.9
-786.39 560.84 2351.3
-787.33 565.89 2372.5
-777.78 563.43 2362.2
-748.60 546.60 2291.6
-741.40 545.67 2287.7
-757.19 561.78 2355.3
-784.50 586.78 2460.1
-765.54 582.07 2440.3
-737.45 565.38 2370.4
-744.46 575.55 2413.0
-757.54 590.62 2476.2
-740.03 581.91 2439.7
-714.55 566.71 2376.0
-708.59 566.88 2376.7
-740.48 597.58 2505.4
-721.66 592.80 2485.3
-717.04 594.30 2491.6
-723.34 604.97 2536.4
-699.20 590.15 2474.2
-673.52 573.74 2405.4
-659.13 577.52 2421.3
-671.52 594.04 2490.5
-663.97 593.06 2486.4
-668.64 603.08 2528.5
-641.50 584.34 2449.9
-639.63 600.47 2517.5
-655.58 621.78 2606.9
-653.90 626.65 2627.3
-640.94 620.70 2602.3
-645.62 631.88 2649.2
-1021.33 570.19 2416.8
-1015.29 577.45 2447.6
-980.79 561.33 2379.3
-945.82 548.22 2323.7
-974.67 568.56 2409.9
-981.57 587.65 2490.8
-957.42 576.99 2445.6
-962.14 583.70 2474.1
-943.86 576.45 2443.4
-923.61 567.89 2407.1
-924.73 572.45 2426.4
-910.90 567.75 2406.5
-889.25 558.08 2365.5
-877.69 554.65 2350.9
-864.15 549.91 2330.9
-855.42 548.19 2323.6
-829.97 535.65 2270.4
-831.33 548.20 2323.6
-845.23 561.43 2379.7
-854.65 571.86 2423.9
-846.76 570.78 2419.3
-834.73 566.87 2402.7
-811.95 555.54 2354.7
-795.08 548.12 2323.3
-804.09 558.57 2367.5
-807.90 565.53 2397.1
-796.40 561.80 2381.3
-782.82 556.54 2359.0
-760.80 545.14 2310.6
-742.03 535.91 2271.5
-744.80 542.21 2298.2
-758.48 556.63 2359.3
-783.14 579.40 2455.8
-736.10 558.21 2366.0
-711.50 544.09 2306.2
-743.39 573.29 2430.0
-745.81 580.07 2458.7
-727.02 570.33 2417.4
-728.48 576.45 2443.4
-722.08 576.40 2443.1
-700.60 564.20 2391.4
-694.86 564.57 2393.0
-717.70 588.38 2493.9
-724.26 599.16 2539.6
-700.38 584.72 2478.4
-689.14 580.66 2461.2
-681.37 579.48 2456.2
-679.30 583.18 2471.9
-699.44 606.18 2569.4
-693.51 612.71 2597.1
-675.73 602.86 2555.3
-637.17 585.68 2482.5
-659.43 612.33 2595.4
-667.11 625.85 2652.7
-665.56 630.89 2674.1
-653.18 625.68 2652.0
-647.82 627.15 2658.2
-646.32 632.42 2680.6
-957.94 552.66 2368.5
-994.89 577.68 2475.8
-987.69 580.99 2490.0
-935.13 553.70 2373.0
-890.46 537.86 2305.1
-903.07 549.17 2353.6
-935.64 572.84 2455.0
-902.42 560.12 2400.5
-867.54 542.21 2323.8
-864.93 544.36 2333.0
-866.66 549.29 2354.1
-877.68 560.22 2400.9
-875.15 562.59 2411.1
-853.03 552.32 2367.1
-840.32 548.03 2348.7
-850.24 558.55 2393.8
-856.06 566.51 2427.9
-821.39 547.59 2346.8
-787.09 528.64 2265.6
-798.05 540.03 2314.4
-814.78 555.53 2380.9
-795.09 546.24 2341.0
-771.52 534.13 2289.1
-785.67 548.14 2349.2
-797.07 560.44 2401.9
-768.22 544.41 2333.2
-743.33 530.95 2275.5
-764.75 550.62 2359.8
-774.06 566.39 2427.4
-756.84 558.32 2392.8
-771.91 574.15 2460.6
-740.84 555.63 2381.3
-723.26 556.35 2384.4
-720.66 559.13 2396.3
-724.97 567.37 2431.6
-721.91 569.93 2442.6
-719.90 573.37 2457.3
-728.06 590.32 2530.0
-707.53 578.88 2480.9
-686.69 566.99 2430.0
-676.88 564.07 2417.4
-680.43 572.33 2452.8
-688.46 584.54 2505.2
-701.36 601.16 2576.4
-693.63 606.09 2597.5
-682.83 602.50 2582.1
-667.16 594.50 2547.8
-675.88 608.29 2607.0
-683.59 621.44 2663.3
-673.72 618.72 2651.7
-652.49 605.40 2594.6
-627.18 594.17 2546.4
-637.32 610.20 2615.2
-627.93 607.67 2604.3
-642.57 628.60 2694.0
-986.60 552.25 2393.4
-968.68 552.64 2395.1
-964.63 564.82 2447.8
-928.09 547.02 2370.7
-907.48 538.44 2333.5
-919.44 549.20 2380.1
-901.07 541.86 2348.4
-903.38 546.95 2370.4
-904.59 555.23 2406.3
-852.94 527.16 2284.7
-845.83 530.13 2297.5
-869.06 548.56 2377.4
-869.26 552.60 2394.9
-848.16 543.07 2353.6
-830.21 535.43 2320.5
-835.31 542.64 2351.7
-841.23 550.51 2385.8
-809.22 533.49 2312.1
-776.48 519.60 2251.9
-810.77 546.66 2369.1
-808.06 548.99 2379.2
-774.73 530.39 2298.6
-779.26 537.63 2330.0
-808.56 562.20 2436.5
-796.42 558.12 2418.8
-768.58 542.89 2352.8
-787.73 560.86 2430.7
-779.21 563.82 2443.5
-732.49 534.36 2315.8
-730.20 541.57 2347.1
-726.64 543.45 2355.3
-728.75 549.65 2382.1
-741.21 563.83 2443.5
-708.66 543.72 2356.4
-709.84 554.17 2401.7
-715.67 579.04 2509.5
-686.79 560.77 2430.3
-674.87 556.14 2410.3
-676.62 562.79 2439.1
-680.03 570.97 2474.5
-689.17 584.15 2531.6
-687.09 587.99 2548.3
-678.14 585.96 2539.5
-676.96 590.68 2559.9
-672.21 592.34 2567.1
-677.47 602.95 2613.1
-680.31 611.60 2650.6
-668.55 607.16 2631.3
-644.98 591.79 2564.7
-634.98 594.88 2578.1
-652.92 618.19 2679.1
-650.68 622.70 2698.7
-997.68 555.67 2435.6
-997.39 559.05 2450.4
-997.91 570.23 2499.4
-970.99 558.48 2447.9
-943.95 546.50 2395.4
-957.07 557.76 2444.7
-954.78 567.71 2488.3
-885.37 530.02 2323.1
-877.86 532.77 2335.2
-875.59 535.08 2345.3
-842.19 521.92 2287.7
-874.53 545.81 2392.3
-884.37 555.89 2436.5
-852.89 539.96 2366.7
-825.03 526.11 2306.0
-832.46 534.72 2343.7
-840.35 543.76 2383.4
-825.45 538.07 2358.4
-801.36 526.27 2306.7
-779.74 515.92 2261.3
-786.18 524.12 2297.3
-822.93 552.81 2423.0
-811.59 553.64 2426.7
-803.57 561.23 2459.9
-777.59 547.42 2399.4
-755.78 536.36 2350.9
-769.52 550.55 2413.1
-764.10 551.16 2415.8
-731.18 531.77 2330.8
-726.23 532.57 2334.3
-746.89 552.32 2420.9
-706.50 535.96 2349.2
-702.46 542.25 2376.7
-726.15 565.50 2478.6
-732.19 575.29 2521.6
-714.70 571.76 2506.1
-699.63 564.84 2475.8
-701.56 571.64 2505.6
-692.90 569.86 2497.8
-686.34 569.79 2497.5
-675.17 565.85 2480.2
-653.64 553.08 2424.2
-650.28 555.58 2435.2
-653.60 563.89 2471.6
-649.81 566.17 2481.6
-654.06 575.57 2522.8
-660.77 587.35 2574.4
-654.48 587.70 2576.0
-655.81 594.96 2607.8
-659.80 604.82 2651.0
-657.27 608.84 2668.6
-646.91 612.13 2683.0
-637.82 610.09 2674.1
-994.40 561.77 2490.6
-987.71 561.64 2490.0
-930.77 532.74 2361.9
-915.44 527.44 2338.4
-960.51 557.10 2469.9
-917.87 543.23 2408.4
-883.90 534.02 2367.6
-882.89 537.14 2381.4
-873.37 535.09 2372.3
-849.01 531.39 2355.9
-822.23 525.99 2332.0
-828.78 534.10 2367.9
-817.49 530.76 2353.1
-805.64 527.00 2336.4
-787.84 519.26 2302.1
-801.96 532.60 2361.3
-810.61 550.96 2442.7
-786.22 538.59 2387.8
