ply
format ascii 1.0
element vertex 2165
property float x
property float y
property float z
end_header
-713.50 885.93 2293.4
-704.42 882.00 2283.2
-720.07 909.25 2353.8
-698.50 897.21 2322.6
-693.18 898.12 2325.0
-695.02 908.41 2351.6
-669.05 882.20 2283.8
-676.87 900.48 2331.1
-650.35 905.62 2344.4
-633.22 890.10 2304.2
-628.35 891.66 2308.2
-632.97 906.85 2347.6
-634.01 917.16 2374.2
-625.57 913.83 2365.6
-625.96 923.44 2390.5
-628.57 936.56 2424.5
-619.59 932.52 2414.0
-611.36 929.52 2406.2
-596.09 915.64 2370.3
-572.28 916.87 2373.5
-559.68 916.41 2372.3
-583.80 966.52 2502.0
-1069.44 874.46 2279.0
-1022.94 841.08 2192.0
-1028.49 850.37 2216.2
-1051.74 874.48 2279.1
-1052.26 879.86 2293.1
-1041.75 876.02 2283.1
-1042.19 881.40 2297.1
-1015.40 863.67 2250.9
-982.63 840.63 2190.8
-978.17 841.68 2193.6
-974.08 843.07 2197.2
-963.89 839.15 2187.0
-959.79 840.53 2190.6
-952.66 839.25 2187.2
-956.78 847.92 2209.8
-978.32 872.24 2273.2
-977.69 876.96 2285.5
-950.44 857.71 2235.3
-935.51 849.42 2213.8
-929.08 848.79 2212.1
-932.46 857.16 2233.9
-959.20 887.26 2312.4
-953.98 887.98 2314.2
-908.39 850.89 2217.6
-889.16 838.18 2184.5
-877.14 832.15 2168.7
-856.40 817.73 2131.1
-862.38 828.78 2160.0
-874.47 845.90 2204.6
-879.46 856.31 2231.7
-878.47 861.02 2244.0
-863.10 851.59 2219.4
-837.99 832.37 2169.3
-827.61 827.61 2156.9
-851.82 857.61 2235.1
-850.66 862.32 2247.4
-822.30 839.31 2187.4
-840.61 863.96 2251.6
-853.39 883.23 2301.9
-833.10 868.30 2263.0
-817.19 857.76 2235.5
-806.22 852.29 2221.2
-800.73 852.57 2222.0
-793.01 850.48 2216.5
-774.30 836.47 2180.0
-774.21 842.52 2195.8
-791.12 867.30 2260.3
-798.16 881.55 2297.5
-795.22 884.90 2306.2
-770.62 864.03 2251.8
-754.43 852.34 2221.3
-757.90 862.84 2248.7
-755.57 866.86 2259.2
-759.99 878.74 2290.2
-758.10 883.45 2302.4
-757.60 889.88 2319.2
-747.44 892.10 2325.0
-727.63 875.53 2281.8
-722.76 876.79 2285.1
-705.22 862.58 2248.0
-683.11 842.50 2195.7
-682.56 848.90 2212.4
-704.17 883.20 2301.8
-696.69 896.61 2336.7
-684.15 888.19 2314.8
-680.68 891.51 2323.4
-657.84 901.48 2349.4
-648.62 897.16 2338.2
-651.39 909.48 2370.3
-634.78 894.73 2331.8
-628.85 894.90 2332.3
-614.97 910.15 2372.0
-615.44 920.06 2397.8
-616.48 931.02 2426.4
-606.87 925.94 2413.2
-582.38 916.94 2389.7
-599.54 954.11 2486.6
-590.14 949.36 2474.2
-574.78 934.80 2436.3
-583.86 960.13 2502.3
-1103.95 896.58 2352.5
-1050.06 857.55 2250.1
-1049.93 862.23 2262.4
-1049.34 866.59 2273.9
-1027.42 853.28 2238.9
-1018.19 850.42 2231.4
-1019.15 856.08 2246.3
-1018.86 860.77 2258.6
-1010.41 858.55 2252.8
-998.51 853.38 2239.2
-987.43 848.85 2227.3
-989.35 855.50 2244.8
-997.25 867.43 2276.1
-981.26 858.60 2252.9
-976.99 859.99 2256.5
-984.65 871.95 2287.9
-967.66 862.09 2262.1
-971.09 870.42 2283.9
-965.95 876.51 2299.9
-957.14 873.91 2293.1
-936.01 865.37 2270.6
-906.57 843.45 2213.1
-902.63 845.13 2217.6
-907.50 855.14 2243.8
-904.86 858.16 2251.7
-907.43 866.18 2272.8
-914.76 878.89 2306.1
-894.98 865.54 2271.1
-869.52 846.49 2221.1
-856.93 839.79 2203.5
-833.20 822.02 2156.9
-822.85 817.29 2144.5
-846.77 846.77 2221.8
-868.66 874.61 2294.9
-864.03 875.94 2298.4
-854.43 872.24 2288.7
-839.97 863.47 2265.7
-826.92 856.03 2246.1
-817.50 852.29 2236.3
-798.49 838.42 2199.9
-786.03 831.27 2181.2
-796.17 848.09 2225.3
-795.07 853.10 2238.5
-779.51 842.55 2210.8
-781.79 851.28 2233.7
-772.54 847.49 2223.7
-754.13 833.51 2187.1
-755.99 841.90 2209.1
-766.52 860.14 2256.9
-782.23 884.52 2320.9
-760.17 879.88 2308.7
-749.44 874.34 2294.2
-746.31 877.66 2302.9
-737.96 874.84 2295.5
-724.50 865.86 2271.9
-717.38 864.39 2268.1
-697.06 846.84 2222.0
-673.95 839.59 2203.0
-671.40 843.55 2213.4
-684.20 867.05 2275.1
-692.15 884.75 2321.5
-686.83 885.65 2323.9
-691.52 899.59 2360.4
-686.61 901.18 2364.6
-667.13 883.50 2318.2
-673.88 900.55 2363.0
-667.90 900.75 2363.5
-655.59 892.33 2341.4
-669.47 919.74 2413.3
-656.64 910.62 2389.4
-623.71 873.19 2291.2
-612.26 865.40 2270.7
-638.19 910.82 2389.9
-619.94 911.32 2391.2
-610.82 906.97 2379.8
-605.90 908.85 2384.7
-589.98 894.09 2346.0
-581.72 890.76 2337.3
-590.09 913.09 2395.9
-595.96 931.98 2445.4
-603.11 953.31 2501.4
-597.59 954.85 2505.4
-586.02 946.64 2483.9
-1100.98 883.20 2333.3
-1080.64 871.67 2302.9
-1054.42 855.25 2259.5
-1041.93 849.84 2245.2
-1030.29 845.07 2232.6
-1019.49 840.93 2221.6
-1019.72 845.90 2234.8
-1035.12 863.59 2281.5
-1049.15 880.32 2325.7
-1017.34 858.56 2268.2
-981.15 832.84 2200.3
-985.48 841.40 2222.9
-1003.42 861.76 2276.7
-988.89 854.31 2257.0
-952.18 827.49 2186.1
-957.82 837.38 2212.3
-976.79 859.10 2269.6
-968.75 857.19 2264.6
-979.57 872.05 2303.9
-968.89 867.84 2292.7
-924.99 833.63 2202.4
-909.85 825.08 2179.8
-907.47 828.07 2187.7
-919.45 844.27 2230.5
-928.72 858.18 2267.2
-924.30 859.54 2270.8
-927.28 867.84 2292.7
-911.17 858.26 2267.4
-901.12 854.31 2257.0
-893.54 852.66 2252.6
-859.70 825.76 2181.6
-847.84 819.76 2165.7
-848.35 825.73 2181.5
-836.89 820.04 2166.5
-838.00 826.67 2184.0
-815.85 810.30 2140.7
-826.88 832.58 2199.6
-857.73 869.64 2297.5
-829.15 846.55 2236.5
-801.18 823.75 2176.2
-814.25 843.12 2227.4
-817.43 852.46 2252.1
-804.20 844.70 2231.6
-813.92 861.10 2274.9
-816.80 870.46 2299.7
-804.54 863.70 2281.8
-800.75 866.00 2287.9
-785.81 856.18 2261.9
-758.71 832.87 2200.3
-751.10 830.76 2194.8
-757.13 843.83 2229.3
-768.11 862.65 2279.0
-774.07 876.08 2314.5
-756.75 863.16 2280.4
-736.93 847.18 2238.1
-725.19 840.30 2220.0
-725.72 847.65 2239.4
-722.13 850.25 2246.3
-715.07 848.78 2242.4
-713.98 854.43 2257.3
-706.90 852.96 2253.4
-698.73 850.12 2245.9
-696.40 854.41 2257.2
-690.17 853.94 2256.0
-682.30 851.42 2249.3
-689.62 867.98 2293.1
-679.28 862.38 2278.3
-655.41 839.38 2217.5
-655.87 847.41 2238.8
-648.64 845.54 2233.8
-653.81 867.78 2292.6
-656.17 878.91 2322.0
-651.30 880.46 2326.1
-662.73 904.29 2389.0
-647.96 892.47 2357.8
-627.91 873.10 2306.6
-629.38 883.55 2334.2
-614.24 870.67 2300.2
-611.74 875.63 2313.3
-637.96 922.20 2436.3
-641.18 936.13 2473.1
-625.32 922.19 2436.3
-612.64 912.70 2411.3
-605.34 911.13 2407.1
-606.90 923.00 2438.5
-599.33 921.08 2433.4
-588.22 913.63 2413.7
-593.49 931.72 2461.5
-586.54 930.82 2459.1
-570.77 915.74 2419.3
-581.20 942.83 2490.9
-573.13 940.19 2483.9
-1060.10 849.25 2259.1
-1020.35 821.95 2186.5
-1017.15 828.58 2204.1
-1039.96 851.94 2266.3
-1029.49 848.16 2256.2
-1034.70 857.32 2280.6
-1040.19 866.82 2305.8
-999.11 837.40 2227.6
-962.22 811.18 2157.8
-964.35 817.72 2175.2
-978.60 834.69 2220.4
-961.15 824.66 2193.7
-941.93 812.98 2162.6
-965.67 838.45 2230.4
-981.99 857.76 2281.7
-970.20 852.60 2268.0
-961.06 849.72 2260.3
-930.25 827.52 2201.3
-895.84 811.86 2159.6
-916.17 835.50 2222.5
-932.27 855.57 2275.9
-931.40 860.21 2288.2
-918.25 864.58 2299.9
-903.61 856.36 2278.0
-878.00 837.56 2228.0
-874.28 839.54 2233.3
-873.28 844.17 2245.6
-860.65 837.54 2228.0
-841.68 824.61 2193.6
-859.37 859.37 2286.0
-823.89 835.41 2222.3
-796.26 813.08 2162.9
-810.66 833.66 2217.6
-825.78 855.27 2275.1
-823.68 859.23 2285.6
-800.25 840.85 2236.7
-769.79 814.75 2167.3
-766.61 817.34 2174.2
-773.04 830.30 2208.7
-753.64 815.50 2169.3
-741.61 814.65 2167.1
-774.38 857.14 2280.1
-766.90 855.39 2275.4
-754.66 848.26 2256.5
-734.79 832.38 2214.2
-715.84 830.38 2208.9
-727.60 850.82 2263.3
-735.37 866.90 2306.0
-736.69 875.57 2329.1
-732.54 877.83 2335.1
-715.21 864.22 2298.9
-704.17 858.02 2282.4
-698.70 858.57 2283.9
-690.76 856.07 2277.2
-679.87 849.84 2260.7
-656.13 841.94 2239.6
-656.76 850.27 2261.8
-654.67 855.21 2274.9
-657.42 866.60 2305.3
-648.00 862.02 2293.1
-632.30 848.92 2258.2
-632.35 856.92 2279.5
-641.50 877.53 2334.3
-646.94 893.39 2376.5
-628.66 876.50 2331.6
-623.54 904.14 2405.1
-630.73 923.80 2457.4
-619.61 916.77 2438.7
-614.08 917.96 2441.9
-615.57 929.76 2473.3
-607.23 926.83 2465.5
-584.26 901.25 2397.4
-577.24 900.00 2394.1
-598.79 943.74 2510.4
-580.78 946.21 2517.0
-1082.18 860.96 2306.2
-1035.11 828.08 2218.1
-1032.66 830.75 2225.2
-1080.19 873.86 2340.7
-1063.25 869.93 2330.2
-1019.80 839.15 2247.7
-980.21 811.21 2172.9
-997.90 830.62 2224.9
-1018.43 852.64 2283.9
-988.45 832.38 2229.6
-970.54 822.10 2202.1
-983.88 838.34 2245.5
-993.63 851.68 2281.3
-989.68 853.37 2285.8
-978.60 848.90 2273.9
-961.62 839.23 2247.9
-947.71 832.13 2228.9
-946.03 835.75 2238.6
-941.74 837.10 2242.2
-929.05 830.95 2225.8
-926.21 833.59 2232.8
-918.65 831.99 2228.5
-906.81 826.46 2213.7
-900.38 825.82 2212.0
-905.64 835.97 2239.2
-918.53 853.34 2285.7
-920.34 860.57 2305.1
-902.00 865.92 2319.4
-882.06 852.46 2283.4
-856.86 833.70 2233.1
-837.27 820.18 2196.9
-859.28 847.51 2270.1
-850.12 850.12 2277.1
-834.68 840.52 2251.4
-836.97 848.76 2273.5
-826.51 844.10 2261.0
-818.36 841.74 2254.7
-824.95 854.62 2289.2
-809.76 844.97 2263.3
-782.07 822.03 2201.9
-783.19 829.27 2221.2
-762.42 813.25 2178.3
-740.05 807.33 2162.5
-778.01 855.22 2290.8
-777.43 861.16 2306.7
-751.36 838.73 2246.6
-726.91 830.76 2225.2
-732.67 844.04 2260.8
-740.28 859.68 2302.7
-747.11 874.66 2342.8
-747.49 882.28 2363.3
-732.83 872.13 2336.1
-706.54 847.85 2271.0
-697.78 844.37 2261.7
-693.46 846.26 2266.8
-683.38 841.08 2252.9
-669.56 831.18 2226.4
-669.86 838.78 2246.7
-690.87 872.68 2337.5
-670.68 854.67 2289.3
-653.89 848.29 2272.2
-677.05 886.32 2374.1
-672.07 887.87 2378.2
-661.98 882.65 2364.2
-644.67 867.60 2323.9
-636.78 865.06 2317.1
-646.22 886.24 2373.9
-631.37 874.21 2341.6
-597.61 860.56 2305.1
-613.00 891.64 2388.3
-611.08 897.92 2405.1
-601.05 892.28 2390.0
-597.67 896.50 2401.4
-609.52 923.91 2474.8
-607.65 930.88 2493.4
-576.17 892.13 2389.6
-572.67 896.35 2400.9
-561.31 929.07 2488.6
-1097.17 871.64 2351.1
-1058.05 854.81 2305.7
-1064.01 864.51 2331.8
-1050.68 858.55 2315.8
-1025.72 842.98 2273.8
-1022.17 854.80 2305.7
-988.04 831.12 2241.8
-986.87 835.05 2252.4
-975.44 830.29 2239.5
-953.16 816.18 2201.5
-962.47 829.12 2236.4
-966.04 837.24 2258.3
-978.03 852.79 2300.2
-945.04 839.38 2264.1
-946.83 846.23 2282.5
-943.85 848.87 2289.7
-919.31 832.04 2244.3
-899.97 819.72 2211.0
-891.42 817.13 2204.1
-889.94 821.04 2214.6
-881.05 818.12 2206.7
-874.98 817.79 2205.8
-888.67 836.05 2255.1
-898.68 851.07 2295.6
-897.20 855.33 2307.1
-882.72 847.17 2285.1
-860.55 831.47 2242.7
-843.28 820.33 2212.7
-825.14 808.19 2179.9
-806.15 795.03 2144.4
-820.70 815.00 2198.3
-847.46 847.46 2285.9
-843.80 849.74 2292.0
-826.81 838.54 2261.8
-813.51 830.94 2241.3
-815.97 839.46 2264.3
-803.88 845.26 2279.9
-753.34 797.98 2152.4
-750.93 807.39 2177.8
-752.12 827.33 2231.6
-761.22 843.83 2276.1
-745.74 833.13 2247.2
-759.59 855.29 2307.0
-751.20 852.55 2299.6
-731.50 836.83 2257.2
-731.33 843.39 2274.9
-729.93 848.61 2289.0
-734.71 861.18 2322.9
-724.65 856.41 2310.0
-697.57 831.27 2242.2
-687.76 826.47 2229.2
-705.59 855.08 2306.4
-719.48 879.36 2371.9
-701.57 864.87 2332.8
-695.96 865.42 2334.3
-706.64 886.39 2390.9
-676.24 855.77 2308.3
-646.33 832.66 2245.9
-682.23 886.90 2392.2
-660.79 883.12 2382.0
-646.02 871.52 2350.8
-649.45 884.49 2385.7
-650.99 895.12 2414.4
-641.46 890.57 2402.1
-636.80 892.77 2408.1
-624.47 884.16 2384.8
-612.02 875.19 2360.7
-614.90 888.19 2395.7
-607.63 886.65 2391.6
-591.43 871.90 2351.8
-592.47 882.53 2380.5
-607.99 915.18 2468.5
-608.81 926.17 2498.2
-579.06 890.38 2401.6
-572.47 889.83 2400.1
-582.14 935.36 2522.9
-567.52 922.23 2487.5
-1097.15 865.53 2351.0
-1082.44 858.70 2332.5
-1047.55 835.69 2270.0
-1022.42 820.24 2228.0
-1045.48 843.52 2291.2
-1060.83 860.79 2338.2
-1022.60 844.24 2293.2
-992.95 824.55 2239.7
-975.76 815.05 2213.9
-959.82 806.48 2190.6
-947.82 810.78 2202.3
-958.17 824.61 2239.9
-976.89 845.84 2297.6
-957.05 838.89 2278.7
-935.52 825.11 2241.3
-950.42 843.50 2291.2
-936.96 836.78 2273.0
-902.05 810.70 2202.1
-893.50 808.13 2195.1
-894.56 814.28 2211.8
-894.83 819.78 2226.8
-887.67 818.50 2223.3
-873.89 811.06 2203.1
-881.35 823.37 2236.5
-860.04 808.78 2196.9
-852.70 812.64 2207.4
-867.29 832.13 2260.3
-846.94 818.13 2222.3
-824.42 801.83 2178.0
-816.41 799.52 2171.7
-841.15 829.47 2253.1
-858.62 852.61 2315.9
-845.09 845.09 2295.5
-824.19 830.04 2254.6
-805.09 816.59 2218.1
-792.24 809.34 2198.4
-793.81 816.82 2218.7
-783.26 811.84 2205.2
-779.86 826.42 2244.8
-787.83 841.14 2284.8
-762.59 820.36 2228.3
-738.22 806.36 2190.3
-764.49 841.54 2285.9
-765.04 848.72 2305.4
-768.44 859.20 2333.9
-748.85 843.94 2292.4
-719.84 817.74 2221.2
-708.79 811.67 2204.8
-704.12 812.88 2208.0
-705.69 821.37 2231.1
-716.46 840.81 2283.9
-709.33 839.37 2280.0
-685.80 818.35 2222.9
-690.41 830.83 2256.8
-715.39 868.25 2358.4
-709.18 868.14 2358.1
-685.19 846.06 2298.2
-677.26 843.60 2291.5
-682.87 858.12 2330.9
-677.51 858.98 2333.3
-646.58 827.16 2246.8
-639.34 825.33 2241.8
-666.72 868.57 2359.3
-673.71 885.80 2406.1
-657.03 871.95 2368.5
-645.28 864.44 2348.1
-651.45 881.01 2393.1
-655.19 894.58 2430.0
-628.59 892.59 2424.5
-632.01 906.52 2462.4
-623.66 903.66 2454.6
-607.75 889.70 2416.7
-608.86 900.61 2446.3
-616.58 921.63 2503.4
-609.52 920.77 2501.1
-581.51 887.89 2411.8
-575.99 889.03 2414.9
-592.51 924.57 2511.4
-590.57 931.79 2531.0
-1065.99 825.85 2259.2
-1046.16 814.97 2229.4
-1051.35 823.56 2252.9
-1052.04 828.70 2267.0
-1014.49 803.61 2198.3
-1019.05 816.39 2233.3
-1042.37 839.85 2297.5
-1008.07 816.88 2234.6
-970.40 795.50 2176.2
-975.97 804.75 2201.4
-971.10 805.45 2203.3
-968.12 807.72 2209.6
-951.86 798.88 2185.4
-951.14 803.06 2196.8
-956.37 812.34 2222.2
-949.55 811.43 2219.7
-939.39 807.65 2209.4
-924.86 800.03 2188.5
-923.62 803.89 2199.1
-938.75 822.14 2249.0
-944.58 832.41 2277.1
-921.76 817.41 2236.1
-902.71 805.58 2203.7
-908.44 815.86 2231.8
-895.21 809.14 2213.4
-881.37 801.76 2193.3
-889.73 814.62 2228.4
-892.68 822.67 2250.5
-887.55 823.32 2252.3
-855.15 798.52 2184.4
-827.41 782.99 2141.9
-850.30 810.08 2216.0
-836.11 801.98 2193.9
-836.09 807.45 2208.8
-850.97 827.50 2263.7
-864.28 846.27 2315.0
-832.00 826.14 2260.0
-789.41 789.41 2159.5
-798.28 803.98 2199.3
-813.04 824.74 2256.1
-801.10 818.51 2239.1
-778.79 801.52 2192.6
-763.29 791.35 2164.8
-795.70 831.07 2273.4
-795.82 843.69 2308.0
-787.34 841.02 2300.7
-764.91 823.30 2252.2
-777.11 842.87 2305.7
-776.04 854.86 2338.5
-751.01 833.80 2280.9
-751.77 841.26 2301.3
-743.10 838.22 2293.0
-731.30 831.56 2274.8
-724.74 830.80 2272.7
-719.61 831.68 2275.1
-724.36 844.09 2309.1
-724.18 850.91 2327.7
-707.76 838.60 2294.1
-684.32 817.70 2236.9
-680.32 819.88 2242.8
-694.24 843.86 2308.4
-691.93 848.36 2320.7
-689.82 853.20 2334.0
-701.44 875.25 2394.3
-694.88 874.80 2393.1
-661.70 840.54 2299.3
-640.05 827.95 2264.9
-653.89 853.69 2335.3
-644.94 849.88 2324.9
-630.80 839.08 2295.3
-634.87 852.54 2332.2
-648.59 879.33 2405.5
-613.52 856.50 2343.0
-611.89 871.48 2384.0
-609.53 876.97 2399.0
-600.19 872.44 2386.6
-606.39 890.63 2436.4
-619.78 919.88 2516.4
-604.06 915.83 2505.3
-577.55 885.15 2421.4
-573.08 887.96 2429.1
-588.48 921.95 2522.0
-1076.36 832.54 2293.7
-1055.30 820.79 2261.4
-1074.37 840.29 2315.1
-1054.20 829.14 2284.4
-1028.59 822.87 2267.1
-1018.54 819.51 2257.8
-1001.53 810.48 2233.0
-1031.40 839.51 2312.9
-1036.68 848.74 2338.4
-1026.15 845.06 2328.2
-1006.90 834.12 2298.1
-974.52 812.10 2237.4
-962.76 807.10 2223.6
-956.68 806.84 2222.9
-936.05 794.23 2188.2
-922.94 792.71 2184.0
-945.58 817.17 2251.4
-959.88 834.68 2299.6
-963.43 843.00 2322.6
-943.38 830.65 2288.5
-925.28 819.87 2258.8
-936.61 835.20 2301.1
-928.21 833.00 2295.0
-892.61 806.23 2221.2
-883.35 803.04 2212.5
-890.54 814.88 2245.1
-889.94 819.68 2258.3
-876.50 812.65 2238.9
-850.44 793.74 2186.8
-836.37 802.00 2209.6
-840.28 811.30 2235.2
-844.06 820.61 2260.9
-838.51 820.92 2261.7
-793.37 782.20 2155.0
-809.20 809.20 2229.4
-830.33 836.30 2304.1
-824.65 836.60 2304.9
-810.41 828.15 2281.6
-803.50 827.14 2278.8
-797.86 827.41 2279.6
-775.76 810.50 2233.0
-761.27 801.34 2207.8
-752.11 797.69 2197.7
-739.94 790.78 2178.7
-762.30 820.93 2261.8
-760.16 837.97 2308.7
-758.50 842.78 2321.9
-755.04 845.64 2329.8
-748.06 844.58 2326.9
-744.82 847.76 2335.7
-742.68 852.25 2348.0
-732.84 847.91 2336.1
-718.28 837.99 2308.8
-717.21 843.78 2324.7
-708.06 840.07 2314.5
-691.54 827.49 2279.8
-694.50 838.19 2309.3
-697.86 849.57 2340.6
-700.79 860.62 2371.1
-697.47 864.12 2380.7
-674.35 842.94 2322.4
-641.06 808.55 2227.6
-632.59 812.50 2238.5
-659.49 854.89 2355.3
-657.81 860.69 2371.3
-650.30 858.88 2366.3
-646.03 861.37 2373.2
-650.81 876.10 2413.7
-647.96 889.36 2450.3
-616.16 854.08 2353.1
-619.16 866.83 2388.2
-618.47 874.61 2409.6
-600.25 857.50 2362.5
-593.99 857.31 2362.0
-603.45 880.03 2424.6
-616.88 909.09 2504.6
-618.75 921.55 2539.0
-607.41 914.38 2519.2
-588.07 894.89 2465.5
-578.95 890.69 2453.9
-589.80 917.47 2527.7
-1086.25 820.59 2277.1
-1091.64 838.33 2326.3
-1054.93 823.80 2286.0
-1050.73 825.15 2289.7
-996.42 786.94 2183.7
-996.73 791.69 2196.9
-1024.33 818.29 2270.7
-1046.94 841.18 2334.2
-1030.32 842.44 2337.7
-996.94 819.97 2275.4
-950.56 786.48 2182.4
-943.85 790.33 2193.1
-949.79 800.12 2220.3
-928.11 786.63 2182.8
-939.11 800.84 2222.3
-952.51 817.27 2267.9
-956.19 825.53 2290.8
-957.94 832.21 2309.3
-936.11 818.36 2270.9
-904.02 795.30 2206.9
-900.10 796.90 2211.3
-920.34 820.05 2275.6
-914.12 819.76 2274.8
-892.78 805.82 2236.1
-890.49 809.01 2244.9
-899.63 822.69 2282.9
-895.11 823.98 2286.5
-866.52 802.98 2228.2
-830.34 774.61 2149.5
-831.52 780.96 2167.1
-869.07 821.77 2280.4
-884.96 842.53 2338.0
-876.24 839.98 2330.9
-856.61 826.87 2294.5
-829.25 806.05 2236.7
-809.34 792.24 2198.4
-816.28 804.70 2233.0
-820.15 814.29 2259.6
-810.40 810.40 2248.8
-816.01 821.92 2280.8
-811.96 823.81 2286.0
-785.84 803.18 2228.8
-761.24 783.80 2175.0
-765.78 794.35 2204.3
-776.66 811.69 2252.4
-755.74 795.81 2208.3
-733.86 784.66 2177.4
-751.53 809.79 2247.1
-755.16 820.06 2275.6
-745.34 815.77 2263.7
-738.81 815.04 2261.7
-730.24 812.02 2253.3
-731.26 819.71 2274.6
-735.33 830.98 2305.9
-739.54 842.59 2338.1
-737.08 846.72 2349.6
-713.49 826.46 2293.4
-702.71 820.81 2277.7
-711.37 837.96 2325.3
-712.93 846.98 2350.3
-712.46 853.72 2369.0
-711.09 859.49 2385.0
-700.26 853.83 2369.3
-683.66 840.96 2333.6
-662.48 822.19 2281.5
-682.15 869.90 2413.9
-683.69 879.93 2441.7
-655.54 851.59 2363.1
-665.82 873.11 2422.8
-650.21 903.80 2508.0
-632.34 887.83 2463.6
-615.14 872.49 2421.1
-609.65 873.63 2424.3
-599.82 868.49 2410.0
-594.35 869.62 2413.1
-609.41 901.15 2500.6
-611.87 914.52 2537.7
-589.63 890.85 2472.0
-576.80 881.05 2444.8
-572.69 884.48 2454.4
-576.16 899.84 2497.0
-581.93 919.19 2550.7
-1086.13 832.70 2327.4
-1018.94 794.43 2220.5
-1042.11 817.11 2283.8
-1001.36 789.64 2207.1
-988.30 783.82 2190.8
-1006.05 802.51 2243.0
-1020.07 818.43 2287.5
-1021.96 824.74 2305.2
-1009.20 819.23 2289.8
-981.24 801.25 2239.5
-963.67 801.13 2239.2
-962.42 804.93 2249.8
-933.98 785.91 2196.6
-934.98 791.58 2212.5
-938.84 799.76 2235.3
-919.20 787.88 2202.2
-898.60 775.04 2166.3
-918.69 797.35 2228.6
-926.97 809.64 2263.0
-896.45 787.97 2202.4
-889.33 786.72 2198.9
-899.21 800.59 2237.7
-893.78 800.92 2238.6
-883.44 796.83 2227.2
-884.97 803.46 2245.7
-905.10 827.18 2312.0
-899.82 827.83 2313.8
-859.65 796.19 2225.4
-856.59 798.71 2232.4
-885.58 831.36 2323.7
-871.50 835.19 2334.4
-855.89 825.97 2308.6
-846.95 823.09 2300.6
-827.30 809.70 2263.1
-805.55 794.05 2219.4
-801.04 795.28 2222.8
-812.46 812.46 2270.9
-817.00 822.97 2300.2
-798.72 810.46 2265.3
-781.53 798.89 2232.9
-793.40 817.08 2283.8
-785.74 821.46 2296.0
-757.20 797.66 2229.5
-754.37 800.79 2238.2
-762.61 815.81 2280.2
-758.42 817.67 2285.4
-752.42 817.59 2285.2
-749.07 820.41 2293.1
-738.09 814.85 2277.5
-737.31 820.56 2293.5
-738.47 828.53 2315.8
-739.81 836.84 2339.0
-743.02 847.41 2368.5
-723.87 832.45 2326.7
-707.71 820.71 2293.9
-711.35 831.92 2325.2
-717.32 846.07 2364.8
-721.72 858.60 2399.8
-705.69 846.82 2366.9
-680.42 823.67 2302.2
-682.06 832.95 2328.1
-678.82 836.40 2337.8
-666.11 828.14 2314.7
-689.04 864.43 2416.1
-662.37 854.27 2387.7
-671.85 874.67 2444.7
-673.60 885.30 2474.4
-652.81 866.23 2421.1
-638.13 854.97 2389.7
-626.26 847.29 2368.2
-628.13 858.24 2398.8
-630.09 869.52 2430.3
-631.89 880.82 2461.9
-632.83 891.13 2490.7
-628.33 893.92 2498.5
-618.54 889.16 2485.2
-587.13 852.88 2383.8
-593.31 880.40 2460.7
-583.74 875.60 2447.3
-575.09 872.11 2437.6
-575.28 882.10 2465.5
-563.87 874.32 2443.8
-563.18 893.32 2496.9
-1094.13 823.60 2318.8
-1072.20 820.62 2310.4
-1046.39 814.52 2293.2
-1030.35 806.62 2271.0
-1015.20 799.32 2250.4
-1030.49 816.06 2297.6
-1006.45 801.65 2257.0
-972.56 779.19 2193.7
-994.56 801.50 2256.6
-1000.25 810.85 2282.9
-962.53 784.92 2209.9
-959.89 787.45 2217.0
-981.64 810.15 2280.9
-966.09 802.14 2258.4
-947.28 791.33 2227.9
-957.47 804.74 2265.7
-938.41 793.59 2234.3
-896.17 772.17 2174.0
-934.84 810.59 2282.2
-931.83 813.13 2289.3
-915.26 803.78 2263.0
-916.15 809.76 2279.8
-883.86 786.29 2213.7
-843.11 764.94 2153.6
-873.63 797.91 2246.5
-866.78 796.97 2243.8
-840.89 778.39 2191.5
-847.69 790.03 2224.3
-857.36 804.51 2265.0
-855.15 807.97 2274.8
-833.97 793.43 2233.9
-814.30 780.14 2196.4
-833.80 804.44 2264.9
-841.26 817.39 2301.3
-805.17 787.92 2218.3
-786.84 775.51 2183.4
-782.07 776.41 2185.9
-770.00 770.00 2167.9
-776.60 782.31 2202.6
-783.04 794.65 2237.3
-776.56 793.95 2235.3
-770.71 793.88 2235.1
-781.72 811.34 2284.3
-782.76 818.61 2304.7
-766.13 807.38 2273.1
-761.97 809.23 2278.3
-773.91 828.32 2332.1
-758.16 837.65 2358.3
-746.23 831.16 2340.1
-746.37 838.13 2359.7
-747.26 846.08 2382.1
-720.20 822.23 2314.9
-695.68 800.91 2254.9
-720.48 836.49 2355.1
-714.09 843.37 2374.4
-676.99 820.77 2310.8
-674.06 824.51 2321.4
-661.38 816.30 2298.2
-663.36 826.18 2326.1
-667.76 839.30 2363.0
-659.74 836.89 2356.2
-643.91 824.44 2321.2
-651.56 842.11 2370.9
-652.00 850.71 2395.1
-631.01 855.93 2409.8
-627.49 859.66 2420.3
-623.92 863.40 2430.8
-627.50 877.22 2469.8
-624.44 881.94 2483.0
-616.28 879.49 2476.1
-573.67 854.26 2405.1
-591.81 890.97 2508.5
-592.70 902.22 2540.1
-580.68 893.85 2516.6
-564.77 879.25 2475.5
-566.74 892.46 2512.6
-1090.90 810.73 2299.3
-1052.58 795.28 2255.5
-1078.54 819.45 2324.1
-1066.30 814.70 2310.6
-1038.22 797.73 2262.5
-1041.18 804.55 2281.8
-1044.05 811.37 2301.2
-1047.22 818.52 2321.4
-1029.65 809.44 2295.7
-973.42 769.68 2182.9
-962.05 765.14 2170.0
-1006.77 805.41 2284.3
-1024.63 824.55 2338.5
-999.68 809.27 2295.2
-977.19 795.80 2257.0
-979.69 802.64 2276.4
-967.14 797.16 2260.8
-951.67 789.19 2238.2
-951.61 808.87 2294.1
-922.53 789.08 2237.9
-912.08 785.08 2226.6
-924.97 801.25 2272.4
-923.39 805.01 2283.1
-927.79 814.06 2308.8
-898.58 793.55 2250.6
-863.68 767.72 2177.4
-853.50 763.66 2165.8
-833.62 755.82 2143.6
-842.75 769.23 2181.6
-832.65 765.14 2170.0
-839.17 776.38 2201.9
-848.57 790.45 2241.8
-845.08 792.62 2248.0
-823.29 777.55 2205.2
-798.99 765.23 2170.3
-832.09 802.59 2276.2
-821.31 797.84 2262.8
-790.63 773.57 2193.9
-773.70 762.48 2162.5
-758.23 763.85 2166.4
-759.70 771.04 2186.8
-753.96 770.96 2186.6
-764.49 787.65 2233.9
-766.86 796.13 2257.9
-750.34 784.97 2226.3
-736.37 776.33 2201.8
-738.34 784.49 2224.9
-759.47 813.30 2306.6
-771.39 832.61 2361.4
-759.07 825.86 2342.3
-738.71 810.20 2297.8
-729.79 806.92 2288.5
-734.64 818.94 2322.6
-730.80 821.40 2329.6
-699.34 792.59 2247.9
-694.13 800.02 2269.0
-710.70 826.11 2343.0
-669.06 784.42 2224.7
-690.58 823.86 2336.6
-686.82 826.62 2344.4
-658.46 799.55 2267.6
-653.77 801.01 2271.8
-664.90 822.06 2331.5
-666.21 831.24 2357.5
-655.14 824.99 2339.8
-674.88 874.13 2479.2
-654.01 863.55 2449.1
-647.79 863.72 2449.6
-653.10 897.19 2544.5
-638.01 885.40 2511.1
-615.23 862.59 2446.4
-583.33 862.31 2445.6
-598.14 893.92 2535.3
-594.66 898.60 2548.6
-584.53 893.21 2533.3
-1067.95 792.16 2263.3
-1051.30 784.12 2240.3
-1054.90 791.18 2260.5
-1078.88 813.68 2324.8
-1064.23 807.14 2306.1
-1034.56 789.07 2254.5
-1039.91 797.66 2279.0
-1045.16 806.26 2303.6
-1046.37 811.84 2319.5
-1027.24 801.60 2290.3
-1001.64 786.17 2246.2
-1021.77 806.66 2304.8
-1014.38 805.53 2301.5
-981.39 783.95 2239.9
-1008.36 810.29 2315.1
-1003.33 815.96 2331.3
-952.46 779.29 2226.5
-933.34 768.30 2195.1
-975.48 807.92 2308.3
-920.64 781.68 2233.4
-898.66 767.84 2193.8
-901.24 774.95 2214.1
-906.93 784.84 2242.4
-918.87 800.30 2286.6
-922.85 808.99 2311.4
-919.35 811.19 2317.7
-904.66 803.48 2295.7
-879.32 786.15 2246.1
-873.50 786.15 2246.1
-875.90 793.60 2267.4
-838.36 764.72 2184.9
-817.77 751.02 2145.8
-858.26 793.60 2267.4
-862.77 808.84 2311.0
-829.36 782.96 2237.0
-807.44 767.64 2193.3
-814.11 779.46 2227.0
-827.41 797.86 2279.6
-819.54 795.96 2274.2
-803.05 785.60 2244.6
-780.98 769.58 2198.8
-767.95 762.31 2178.0
-777.61 777.61 2221.7
-797.33 803.28 2295.1
-797.63 815.76 2330.7
-775.36 799.04 2283.0
-753.92 782.92 2236.9
-736.31 770.56 2201.6
-726.20 771.95 2205.6
-734.54 787.00 2248.6
-718.68 776.17 2217.6
-710.51 773.54 2210.1
-715.06 784.82 2242.3
-703.72 778.70 2224.9
-690.57 776.89 2219.7
-703.44 798.02 2280.0
-692.71 792.51 2264.3
-676.55 780.64 2230.4
-684.80 803.90 2296.9
-713.14 844.51 2412.9
-697.47 833.26 2380.7
-671.90 824.60 2356.0
-689.65 854.16 2440.4
-684.76 855.95 2445.6
-666.42 840.81 2402.3
-648.28 825.64 2359.0
-668.44 876.11 2503.2
-662.57 876.94 2505.5
-637.18 886.80 2533.7
-598.48 841.62 2404.6
-598.98 860.23 2457.8
-615.33 893.22 2552.1
-612.77 899.17 2569.1
-591.37 897.02 2562.9
-579.76 889.40 2541.1
-1102.26 816.04 2348.9
-1081.84 805.37 2318.2
-1053.16 797.30 2295.0
-1044.97 795.60 2290.1
-1046.26 801.14 2306.0
-1043.95 803.96 2314.2
-1034.18 801.04 2305.8
-1017.07 792.37 2280.8
-1029.04 806.38 2321.1
-1014.31 799.51 2301.4
-972.88 771.40 2220.4
-989.65 789.36 2272.2
-1017.54 816.47 2350.2
-982.56 793.15 2283.1
-943.38 766.14 2205.3
-933.62 762.83 2195.8
-934.64 768.35 2211.7
-947.39 783.64 2255.7
-959.57 798.65 2298.9
-931.06 779.76 2244.5
-915.84 771.84 2221.7
-932.49 790.84 2276.4
-916.58 782.31 2251.8
-904.35 776.82 2236.0
-924.48 799.23 2300.6
-920.70 806.36 2321.1
-892.04 786.41 2263.6
-897.98 796.88 2293.8
-857.70 776.56 2235.3
-832.58 758.95 2184.6
-869.98 798.48 2298.4
-864.99 810.55 2333.1
-806.05 760.64 2189.5
-808.16 768.04 2210.8
-818.60 783.52 2255.3
-815.30 785.97 2262.4
-802.99 779.72 2244.4
-799.99 782.47 2252.3
-807.38 795.51 2289.8
-814.90 808.86 2328.3
-791.75 803.75 2313.6
-781.12 799.01 2299.9
-771.77 795.51 2289.9
-747.39 776.36 2234.7
-726.27 760.31 2188.5
-734.46 774.94 2230.6
-747.17 794.61 2287.2
-730.04 782.60 2252.7
-722.37 780.62 2247.0
-736.93 802.84 2310.9
-734.87 807.15 2323.4
-716.26 793.22 2283.2
-725.48 810.12 2331.9
-735.30 827.98 2383.3
-718.21 815.60 2347.7
-709.56 812.66 2339.2
-706.96 816.66 2350.7
-699.14 814.65 2344.9
-697.00 819.28 2358.3
-687.05 814.74 2345.2
-663.82 808.66 2327.7
-670.83 824.69 2373.8
-654.08 811.55 2336.0
-661.09 827.91 2383.1
-669.88 846.83 2437.6
-665.45 849.24 2444.5
-652.34 840.51 2419.4
-647.91 842.91 2426.3
-627.27 840.54 2419.5
-623.94 844.52 2430.9
-641.08 876.58 2523.2
-639.45 892.56 2569.2
-597.56 842.87 2426.2
-593.15 845.56 2433.9
-1078.12 796.61 2310.3
-1076.72 800.02 2320.1
-1072.57 805.94 2337.3
-1045.68 790.20 2291.7
-1027.65 781.02 2265.0
-1034.06 790.41 2292.3
-1031.76 793.20 2300.4
-1004.17 776.48 2251.9
-1006.55 782.87 2270.4
-1013.08 792.58 2298.6
-989.62 778.82 2258.6
-986.52 781.00 2265.0
-994.75 792.23 2297.5
-986.63 790.49 2292.5
-975.90 786.63 2281.3
-953.28 773.09 2242.0
-940.11 767.08 2224.6
-934.02 766.82 2223.9
-927.57 766.25 2222.2
-928.05 771.44 2237.3
-942.26 788.18 2285.8
-951.56 800.99 2323.0
-926.92 785.22 2277.2
-891.77 760.29 2204.9
-891.39 764.87 2218.2
-929.44 802.70 2327.9
-906.63 793.31 2300.7
-911.80 803.11 2329.1
-879.89 785.40 2277.8
-867.17 779.28 2260.0
-883.68 799.52 2318.7
-862.18 785.41 2277.8
-860.62 789.40 2289.3
-795.78 745.35 2161.6
-801.67 761.58 2208.7
-809.76 774.81 2247.0
-807.74 778.47 2257.7
-814.57 790.79 2293.4
-802.58 784.88 2276.2
-791.30 779.58 2260.9
-800.05 794.08 2302.9
-782.57 782.57 2269.5
-756.31 762.04 2210.0
-752.65 764.14 2216.1
-762.01 779.59 2260.9
-756.38 779.83 2261.6
-746.85 776.03 2250.6
-769.47 805.83 2337.0
-766.01 808.56 2344.9
-729.69 776.40 2251.6
-718.83 771.00 2236.0
-731.99 791.50 2295.4
-736.12 822.72 2386.0
-728.75 821.38 2382.1
-730.21 830.07 2407.3
-718.78 838.57 2432.0
-683.56 804.55 2333.3
-682.44 810.40 2350.2
-705.12 844.87 2450.2
-707.01 854.84 2479.1
-687.07 838.36 2431.3
-649.97 800.42 2321.3
-658.81 826.63 2397.3
-666.20 843.85 2447.3
-650.36 831.71 2412.0
-642.28 829.35 2405.2
-652.66 851.02 2468.1
-631.98 832.21 2413.5
-616.55 820.02 2378.1
-638.56 857.86 2487.9
-648.11 879.58 2550.9
-649.48 890.53 2582.6
-631.35 883.88 2563.4
-592.26 837.98 2430.2
-596.49 853.05 2473.9
-1098.63 805.66 2354.2
-1068.19 787.72 2301.8
-1058.78 785.16 2294.3
-1054.57 786.46 2298.1
-1040.44 780.33 2280.2
-1034.66 780.43 2280.5
-1054.39 799.88 2337.3
-1039.49 793.14 2317.6
-1001.74 768.78 2246.4
-975.51 753.03 2200.4
-1002.55 783.06 2288.2
-988.20 790.56 2310.1
-951.32 765.70 2237.4
-935.93 757.93 2214.7
-927.28 755.56 2207.8
-920.49 754.69 2205.3
-920.65 759.54 2219.4
-929.11 771.33 2253.9
-931.62 778.31 2274.3
-931.88 783.49 2289.4
-922.05 780.20 2279.8
-875.67 745.73 2179.1
-870.73 746.34 2180.9
-906.18 781.80 2284.5
-904.47 785.46 2295.2
-860.34 752.09 2197.7
-835.88 740.51 2163.8
-872.22 777.92 2273.2
-886.00 795.59 2324.8
-860.43 777.92 2273.1
-842.80 767.24 2241.9
-866.94 794.70 2322.2
-828.91 770.54 2251.6
-805.07 753.68 2202.3
-815.88 769.26 2247.8
-822.28 780.87 2281.8
-818.25 782.68 2287.0
-811.97 782.34 2286.1
-788.92 765.72 2237.5
-781.81 764.43 2233.7
-795.63 783.76 2290.2
-798.02 792.02 2314.3
-791.67 791.67 2313.3
-767.57 773.43 2260.0
-754.66 766.27 2239.1
-764.17 781.94 2284.9
-769.26 793.30 2318.1
-774.79 805.29 2353.1
-751.51 787.29 2300.5
-714.69 754.71 2205.3
-706.82 758.53 2216.5
-728.21 787.89 2302.3
-749.75 817.91 2390.0
-739.53 813.49 2377.1
-728.81 808.43 2362.3
-729.56 816.12 2384.8
-715.30 807.00 2358.1
-710.46 808.46 2362.4
-712.38 832.16 2431.6
-703.37 844.04 2466.3
-692.45 846.33 2473.0
-655.99 809.26 2364.7
-655.53 816.32 2385.4
-666.19 837.50 2447.2
-650.60 825.76 2412.9
-637.86 817.45 2388.7
-644.66 834.26 2437.8
-631.25 825.00 2410.7
-623.45 822.95 2404.7
-631.01 841.35 2458.5
-625.46 842.45 2461.7
-643.03 875.05 2557.0
-610.01 856.61 2503.1
-591.61 839.70 2453.7
-1075.74 787.27 2318.0
-1073.50 790.05 2326.2
-1074.40 795.18 2341.3
-1052.63 783.49 2306.9
-1039.69 778.28 2291.6
-1038.60 781.93 2302.3
-1003.44 759.83 2237.2
-995.41 758.13 2232.2
-997.07 763.84 2249.0
-975.93 752.04 2214.3
-1030.82 799.04 2352.7
-999.90 784.35 2309.4
-959.29 757.03 2229.0
-929.93 738.31 2173.9
-926.95 740.43 2180.1
-947.34 761.36 2241.7
-933.09 754.53 2221.6
-919.65 748.29 2203.2
-924.58 757.00 2228.9
-937.02 772.01 2273.1
-939.49 778.95 2293.5
-941.15 785.29 2312.2
-933.42 783.83 2307.9
-889.79 752.01 2214.2
-868.05 748.12 2202.7
-852.25 739.37 2177.0
-848.83 746.29 2197.4
-857.12 758.67 2233.8
-841.47 749.88 2207.9
-850.91 763.49 2248.0
-865.19 781.65 2301.5
-833.78 769.19 2264.8
-818.40 760.35 2238.8
-812.88 760.62 2239.6
-803.48 757.24 2229.6
-811.14 769.99 2267.1
-816.38 780.62 2298.5
-805.63 776.01 2284.9
-810.99 786.96 2317.1
-786.19 786.19 2314.8
-756.11 761.93 2243.4
-749.32 760.94 2240.5
-745.83 763.32 2247.5
-741.72 765.08 2252.7
-744.66 774.21 2279.6
-734.28 769.52 2265.8
-716.09 756.51 2227.5
-714.84 761.34 2241.7
-713.53 766.17 2255.9
-711.00 769.76 2266.5
-708.71 773.67 2278.0
-705.51 776.65 2286.8
-711.45 789.83 2325.6
-701.74 785.71 2313.4
-680.86 768.90 2263.9
-692.00 788.28 2321.0
-724.42 832.45 2451.0
-708.63 828.85 2440.4
-680.14 802.68 2363.4
-667.13 794.49 2339.3
-675.17 811.44 2389.2
-688.60 835.25 2459.3
-680.10 832.65 2451.6
-672.13 830.66 2445.8
-675.43 842.67 2481.2
-666.17 839.12 2470.7
-660.64 840.24 2474.0
-657.77 844.78 2487.4
-632.20 819.98 2414.3
-624.87 818.58 2410.2
-632.20 836.54 2463.1
-617.04 824.82 2428.6
-625.68 844.98 2488.0
-633.18 882.40 2598.1
-604.57 870.31 2562.5
-1084.50 787.62 2336.9
-1045.00 771.87 2290.2
-1035.64 769.33 2282.6
-1038.90 776.19 2303.0
-1022.89 768.64 2280.6
-1032.28 780.21 2314.9
-1034.92 786.78 2334.4
-1015.13 776.27 2303.2
-969.77 745.98 2213.3
-951.26 744.96 2210.3
-926.80 730.21 2166.5
-929.44 736.76 2186.0
-963.31 777.83 2307.8
-922.28 749.35 2223.4
-931.84 761.88 2260.5
-931.81 766.68 2274.8
-909.41 753.01 2234.2
-879.31 732.75 2174.1
-880.79 738.73 2191.8
-880.42 743.21 2205.1
-859.93 730.66 2167.9
-867.95 742.32 2202.5
-877.19 755.20 2240.7
-871.73 755.50 2241.6
-885.86 772.90 2293.2
-879.24 772.31 2291.5
-831.87 735.67 2182.7
-810.65 721.81 2141.6
-818.48 733.81 2177.2
-823.14 743.11 2204.8
-845.23 768.39 2279.8
-849.18 777.42 2306.6
-817.01 753.27 2235.0
-796.87 739.95 2195.4
-784.01 733.25 2175.6
-788.27 742.57 2203.2
-821.10 779.15 2311.8
-800.51 788.38 2339.2
-788.28 782.26 2321.0
-776.74 776.74 2304.6
-754.99 760.85 2257.5
-738.27 749.80 2224.7
-742.25 759.78 2254.3
-754.36 778.31 2309.3
-758.58 788.93 2340.8
-754.78 791.30 2347.8
-733.58 775.33 2300.4
-712.90 759.64 2253.9
-696.99 748.83 2221.8
-709.71 788.57 2339.7
-731.24 819.49 2431.5
-706.91 799.12 2371.0
-702.83 801.48 2378.0
-690.96 794.91 2358.5
-671.01 793.01 2352.9
-679.29 810.16 2403.8
-691.93 832.88 2471.2
-681.11 827.52 2455.3
-670.11 821.83 2438.4
-668.68 827.89 2456.4
-655.53 819.41 2431.2
-648.38 818.34 2428.0
-641.97 818.20 2427.6
-643.51 828.28 2457.5
-664.70 864.11 2563.8
-642.78 852.66 2529.9
-626.84 840.09 2492.6
-638.22 873.36 2591.3
-1084.45 768.65 2298.3
-1090.46 777.18 2323.8
-1068.43 765.71 2289.5
-1064.67 767.27 2294.2
-1085.74 786.85 2352.7
-1058.66 771.57 2307.0
-1030.59 755.38 2258.6
-1039.09 765.96 2290.2
-1049.02 777.72 2325.4
-1038.83 774.62 2316.1
-1037.64 778.23 2326.9
-1030.57 777.45 2324.6
-1008.09 764.96 2287.3
-959.68 732.53 2190.3
-968.90 752.94 2251.3
-952.24 744.47 2226.0
-962.98 757.47 2264.8
-944.83 757.03 2263.6
-903.50 728.45 2178.1
-909.53 737.92 2206.4
-910.36 743.27 2222.4
-888.42 729.97 2182.6
-876.68 724.95 2167.6
-896.71 746.29 2231.4
-899.79 753.72 2253.7
-880.24 742.16 2219.1
-888.50 754.05 2254.6
-897.28 766.55 2292.0
-868.53 746.93 2233.4
-861.01 745.44 2228.9
-882.93 769.58 2301.1
-861.00 755.57 2259.2
-829.80 733.18 2192.2
-830.13 738.53 2208.2
-828.05 741.79 2218.0
-842.83 760.32 2273.4
-852.74 774.68 2316.3
-824.78 754.59 2256.2
-824.44 759.66 2271.4
-830.81 771.04 2305.4
-802.96 750.59 2244.3
-805.72 758.67 2268.4
-803.77 779.59 2331.0
-783.17 765.37 2288.5
-779.03 767.13 2293.8
-785.20 779.16 2329.7
-781.53 781.53 2336.8
-751.10 756.97 2263.4
-742.48 754.17 2255.0
-761.41 779.54 2330.9
-772.35 797.06 2383.2
-771.16 808.78 2418.3
-739.27 781.68 2337.3
-712.89 760.02 2272.5
-698.41 750.79 2244.9
-692.21 750.38 2243.7
-690.47 754.83 2257.0
-722.66 796.78 2382.4
-726.47 814.91 2436.6
-721.42 816.35 2440.9
-709.13 809.53 2420.5
-677.81 780.69 2334.3
-693.24 805.66 2408.9
-691.08 810.45 2423.3
-677.71 802.06 2398.2
-693.72 828.61 2477.6
-685.17 826.05 2469.9
-653.96 795.85 2379.6
-636.68 782.20 2338.8
-642.88 797.41 2384.3
-655.97 821.56 2456.5
-649.74 821.73 2457.0
-652.42 833.29 2491.6
-658.27 849.16 2539.0
-644.72 840.09 2511.9
-625.68 823.61 2462.6
-613.61 816.04 2440.0
-632.43 849.83 2541.0
-1059.31 757.50 2282.6
-1046.73 752.70 2268.2
-1040.59 752.52 2267.6
-1033.65 751.75 2265.3
-1010.65 752.11 2266.4
-1029.32 770.48 2321.8
-1031.14 776.39 2339.6
-997.94 755.84 2277.6
-955.84 728.26 2194.5
-974.54 746.96 2250.9
-1016.06 783.46 2360.9
-979.58 759.92 2289.9
-972.23 758.81 2286.6
-980.90 770.28 2321.1
-925.35 731.14 2203.2
-912.54 730.03 2199.9
-909.78 732.40 2207.0
-901.55 730.37 2200.9
-910.28 742.14 2236.4
-928.16 761.57 2294.9
-918.34 758.37 2285.3
-889.77 739.55 2228.6
-889.30 743.99 2241.9
-915.03 770.55 2322.0
-918.10 778.26 2345.2
-881.59 752.29 2266.9
-857.47 736.62 2219.7
-863.35 746.68 2250.0
-868.39 756.15 2278.6
-863.16 756.75 2280.4
-850.53 750.81 2262.5
-835.97 743.08 2239.2
-844.08 755.54 2276.7
-846.74 763.26 2300.0
-814.21 739.14 2227.3
-810.03 740.60 2231.7
-828.15 762.61 2298.1
-810.59 751.85 2265.6
-791.58 739.58 2228.7
-807.65 760.14 2290.6
-816.49 774.16 2332.8
-788.18 752.89 2268.7
-780.07 750.74 2262.3
-788.98 765.07 2305.5
-773.44 755.73 2277.3
-769.00 757.17 2281.6
-783.90 777.82 2343.9
-769.96 769.96 2320.2
-744.80 750.66 2262.0
-748.04 759.91 2289.9
-756.14 774.28 2333.2
-763.74 788.37 2375.7
-768.53 799.77 2410.0
-750.43 787.34 2372.6
-753.06 796.62 2400.5
-733.17 788.62 2376.4
-702.95 762.53 2297.8
-707.69 774.23 2333.0
-706.22 779.27 2348.3
-704.67 784.32 2363.5
-719.51 807.88 2434.4
-691.06 804.14 2423.2
-668.10 784.56 2364.2
-675.99 801.17 2414.2
-655.37 783.99 2362.5
-673.34 828.73 2497.3
-663.09 824.03 2483.1
-634.39 796.10 2399.0
-647.83 821.01 2474.0
-667.59 854.51 2575.0
-650.88 841.54 2535.9
-626.38 818.13 2465.3
-621.96 820.73 2473.2
-1073.23 770.06 2338.8
-1047.85 756.12 2296.4
-998.44 737.22 2239.0
-1005.93 747.09 2269.0
-1022.16 763.62 2319.2
-1002.83 753.60 2288.8
-976.35 738.08 2241.6
-1012.84 770.24 2339.3
-994.16 765.20 2324.0
-936.93 725.55 2203.6
-932.09 735.25 2233.0
-947.24 751.87 2283.5
-942.47 752.79 2286.3
-929.71 747.30 2269.6
-933.97 755.51 2294.6
-946.00 770.14 2339.0
-933.22 764.64 2322.3
-911.65 751.82 2283.4
-916.34 760.62 2310.1
-908.64 759.19 2305.7
-876.90 737.52 2239.9
-845.11 715.53 2173.1
-851.95 731.06 2220.3
-880.90 761.05 2311.4
-863.08 750.76 2280.1
-837.66 733.67 2228.3
-812.33 726.52 2206.5
-814.77 733.87 2228.9
-786.80 713.74 2167.7
-780.80 713.39 2166.6
-787.34 724.59 2200.7
-791.81 734.02 2229.3
-782.81 731.01 2220.2
-764.38 719.08 2183.9
-750.19 711.00 2159.4
-757.27 723.11 2196.2
-778.40 748.91 2274.5
-773.06 749.46 2276.2
-765.88 748.21 2272.4
-779.30 767.22 2330.1
-793.05 786.85 2389.8
-775.23 781.39 2373.2
-763.14 775.35 2354.8
-756.68 774.99 2353.7
-748.49 772.83 2347.2
-747.22 777.85 2362.4
-766.73 804.75 2444.1
-731.73 780.92 2371.7
-700.39 753.81 2289.4
-705.70 766.02 2326.5
-695.73 761.71 2313.4
-684.73 756.19 2296.6
-691.38 770.22 2339.3
-701.57 788.49 2394.7
-709.36 804.37 2443.0
-700.57 801.55 2434.4
-674.04 778.21 2363.5
-661.06 770.23 2339.3
-664.91 781.89 2374.7
-656.88 794.51 2413.0
-673.65 830.61 2522.7
-1044.94 748.08 2290.1
-1026.08 738.78 2261.6
-1026.65 743.43 2275.8
-1029.89 750.09 2296.2
-1030.31 754.76 2310.5
-1012.80 746.27 2284.5
-1006.22 745.78 2283.0
-1015.40 757.04 2317.5
-1014.48 760.86 2329.2
-996.38 751.76 2301.3
-973.10 738.62 2261.1
-959.03 732.35 2241.9
-934.55 718.01 2198.0
-930.76 719.49 2202.5
-964.40 750.09 2296.2
-960.73 751.88 2301.7
-940.17 740.38 2266.5
-943.83 747.94 2289.6
-940.13 749.72 2295.1
-945.42 758.75 2322.7
-926.10 757.72 2319.5
-918.02 756.01 2314.3
-898.37 744.70 2279.7
-879.23 733.66 2245.9
-859.90 722.31 2211.2
-843.96 718.51 2199.5
-864.47 740.97 2268.3
-837.59 722.86 2212.8
-835.54 726.05 2222.6
-813.70 711.99 2179.6
-792.08 702.83 2151.5
-806.80 720.97 2207.0
-788.97 710.07 2173.7
-779.71 706.79 2163.6
-783.06 714.97 2188.7
-798.44 734.33 2247.9
-800.19 741.35 2269.5
-773.75 722.16 2210.7
-751.65 706.77 2163.6
-762.47 722.34 2211.2
-788.22 752.39 2303.2
-780.05 750.28 2296.8
-770.07 746.38 2284.8
-768.64 750.76 2298.2
-767.73 755.73 2313.5
-780.19 774.05 2369.5
-774.00 774.00 2369.4
-766.92 773.05 2366.5
-765.40 777.74 2380.8
-758.88 777.39 2379.8
-759.56 784.46 2401.4
-751.10 795.28 2434.5
-740.25 790.44 2419.7
-714.94 783.33 2397.9
-686.19 758.42 2321.7
-684.90 763.69 2337.8
-678.74 763.58 2337.5
-688.67 781.73 2393.1
-683.41 782.82 2396.4
-648.92 764.15 2339.2
-676.35 803.97 2461.1
-661.36 793.63 2429.5
-643.04 779.06 2384.9
-663.06 811.12 2483.0
-1075.08 763.55 2356.1
-1063.20 759.43 2343.4
-1049.79 754.16 2327.1
-1039.58 751.14 2317.8
-1048.55 762.03 2351.4
-1039.88 760.15 2345.6
-1014.60 746.03 2302.0
-1006.06 744.13 2296.2
-1005.57 748.19 2308.7
-986.37 738.30 2278.2
-952.52 717.26 2213.2
-933.29 711.35 2195.0
-961.21 737.13 2274.6
-974.31 751.78 2319.8
-949.56 737.23 2274.9
-927.57 724.67 2236.1
-929.85 731.02 2255.7
-929.13 735.07 2268.2
-937.02 746.04 2302.1
-921.75 748.17 2308.6
-905.21 739.55 2282.0
-898.27 738.71 2279.5
-892.39 738.73 2279.5
-877.82 731.52 2257.3
-849.56 712.72 2199.2
-838.01 707.78 2184.0
-829.94 705.73 2177.7
-815.56 703.07 2169.5
-831.99 722.21 2228.5
-828.85 724.52 2235.7
-829.31 730.02 2252.6
-826.73 732.91 2261.6
-816.92 729.39 2250.7
-817.21 734.90 2267.7
-797.45 722.33 2228.9
-791.62 722.28 2228.8
-787.70 723.99 2234.0
-773.59 727.06 2243.5
-798.05 755.73 2332.0
-786.74 750.70 2316.5
-767.58 755.49 2331.2
-759.99 753.96 2326.5
-749.77 749.77 2313.6
-748.68 754.72 2328.8
-743.44 755.53 2331.3
-760.95 779.66 2405.8
-739.80 777.10 2397.9
-738.82 782.65 2415.0
-729.36 792.79 2446.3
-692.36 759.17 2342.6
-686.19 759.06 2342.2
-675.76 754.19 2327.2
-679.39 765.08 2360.8
-679.71 772.40 2383.4
-663.69 782.65 2415.0
-647.54 770.88 2378.7
-670.43 813.63 2510.6
-1088.86 771.53 2399.9
-1061.90 756.76 2354.0
-1023.76 733.79 2282.5
-1005.07 724.58 2253.9
-1030.05 746.94 2323.4
-1037.70 756.91 2354.4
-1014.02 744.02 2314.3
-999.33 737.60 2294.4
-989.67 734.85 2285.8
-963.75 719.91 2239.3
-974.99 732.72 2279.2
-976.06 747.11 2324.0
-962.00 740.92 2304.7
-949.85 736.14 2289.8
-934.48 728.78 2266.9
-915.94 718.84 2236.0
-933.66 737.42 2293.8
-942.59 754.07 2345.6
-896.42 721.79 2245.2
-894.16 724.67 2254.2
-901.68 735.58 2288.1
-889.49 730.44 2272.1
-867.64 717.25 2231.1
-836.32 696.00 2165.0
-823.82 690.23 2147.0
-824.70 695.67 2163.9
-815.67 692.76 2154.9
-823.86 704.54 2191.6
-841.26 724.42 2253.4
-841.39 729.60 2269.5
-847.07 739.69 2300.9
-841.42 739.97 2301.8
-828.58 733.88 2282.8
-837.56 747.18 2324.2
-824.75 741.08 2305.2
-810.10 733.23 2280.8
-798.74 728.26 2265.3
-755.21 693.67 2157.7
-773.20 754.93 2348.3
-768.54 756.34 2352.7
-743.51 737.57 2294.3
-728.71 728.71 2266.7
-727.69 733.61 2282.0
-751.10 763.41 2374.7
-760.62 779.47 2424.6
-724.74 748.89 2329.5
-700.02 729.43 2269.0
-712.77 749.01 2329.9
-737.72 781.85 2432.0
-737.12 787.96 2451.0
-717.04 773.16 2405.0
-707.47 769.53 2393.7
-706.02 774.74 2409.9
-701.55 776.71 2416.0
-698.10 779.86 2425.8
-689.62 777.39 2418.2
-669.75 761.92 2370.0
-652.94 749.67 2331.9
-661.59 766.70 2384.9
-689.21 806.25 2507.9
-671.58 793.11 2467.0
-662.35 789.73 2456.5
-662.52 813.39 2530.1
-1062.96 747.11 2342.9
-1054.28 745.27 2337.1
-1033.05 734.48 2303.3
-1000.62 715.56 2243.9
-1011.64 727.67 2281.9
-1032.94 747.36 2343.7
-1021.99 743.82 2332.5
-995.37 728.75 2285.3
-973.91 717.31 2249.4
-961.34 712.32 2233.7
-986.56 735.44 2306.3
-979.25 748.12 2346.0
-965.91 742.54 2328.5
-949.35 734.40 2303.0
-908.54 707.28 2218.0
-908.24 711.55 2231.4
-941.68 742.48 2328.3
-919.97 730.04 2289.3
-873.90 697.99 2188.8
-870.35 699.69 2194.2
-895.60 724.73 2272.7
-901.61 734.42 2303.1
-897.40 735.87 2307.6
-882.47 728.48 2284.4
-865.23 719.07 2254.9
-862.11 721.36 2262.1
-846.41 713.07 2236.1
-848.01 719.35 2255.8
-873.99 746.53 2341.0
-845.32 732.21 2296.1
-799.56 697.48 2187.2
-803.64 706.06 2214.1
-829.36 733.89 2301.4
-827.89 737.90 2314.0
-825.07 740.76 2322.9
-817.09 744.46 2334.5
-769.53 706.36 2215.1
-753.32 712.76 2235.1
-754.13 719.06 2254.9
-747.31 718.12 2251.9
-746.79 723.27 2268.1
-748.26 730.45 2290.6
-728.09 716.44 2246.7
-744.73 738.73 2316.6
-779.35 779.35 2444.0
-767.78 774.07 2427.4
-740.81 753.06 2361.5
-713.02 730.84 2291.8
-709.91 739.99 2320.5
-739.34 777.25 2437.4
-734.21 785.28 2462.6
-707.43 763.28 2393.5
-691.19 752.35 2359.3
-694.30 762.50 2391.1
-697.00 772.35 2422.0
-707.41 791.02 2480.5
-705.84 796.50 2497.7
-676.32 792.27 2484.5
-1096.67 760.19 2403.4
-1048.55 730.99 2311.1
-1041.12 729.98 2307.9
-1059.26 746.99 2361.7
-1063.47 754.32 2384.9
-1034.87 738.33 2334.3
-1019.27 731.47 2312.6
-1021.49 737.40 2331.4
-1005.60 730.25 2308.8
-984.84 719.46 2274.6
-974.86 716.46 2265.2
-974.36 720.43 2277.7
-1003.48 746.49 2360.1
-1006.44 753.28 2381.6
-980.67 738.53 2334.9
-966.20 732.15 2314.8
-958.81 731.09 2311.4
-952.89 731.15 2311.6
-922.23 712.10 2251.4
-885.81 692.75 2190.2
-911.98 717.82 2269.5
-912.90 723.20 2286.5
-879.41 701.23 2217.0
-874.73 702.08 2219.7
-878.77 710.00 2244.7
-872.96 710.01 2244.8
-887.19 726.43 2296.7
-898.78 740.89 2342.4
-885.56 734.96 2323.6
-859.87 718.52 2271.7
-871.86 733.56 2319.2
-834.95 717.35 2268.0
-797.78 690.28 2182.4
-809.09 705.06 2229.1
-822.77 722.14 2283.1
-808.10 714.41 2258.7
-832.36 741.23 2343.5
-782.94 712.82 2253.7
-771.42 707.62 2237.2
-792.86 732.79 2316.8
-793.28 738.78 2335.7
-778.92 730.98 2311.1
-795.05 751.91 2377.2
-782.04 751.25 2375.2
-762.16 737.96 2333.1
-740.40 722.63 2284.7
-757.26 745.05 2355.5
-768.88 768.88 2430.9
-748.48 754.67 2386.0
-726.87 738.99 2336.4
-713.96 731.96 2314.2
-735.32 760.24 2403.6
-740.96 772.63 2442.7
-723.26 760.67 2404.9
-730.07 774.51 2448.7
-725.27 776.17 2453.9
-701.89 757.79 2395.8
-697.19 759.44 2401.0
-690.61 759.05 2399.8
-689.28 764.47 2416.9
-668.76 777.04 2456.7
-1050.05 717.83 2288.2
-1061.43 729.73 2326.2
-1078.20 745.50 2376.4
-1048.49 729.13 2324.3
-1043.80 730.05 2327.2
-1067.27 750.81 2393.4
-1056.17 747.35 2382.3
-1044.72 743.59 2370.4
-1051.45 752.81 2399.8
-1020.05 734.68 2341.9
-986.99 715.13 2279.6
-997.51 727.10 2317.8
-1021.08 748.79 2386.9
-1005.24 741.67 2364.3
-964.45 715.94 2282.2
-959.35 716.55 2284.2
-963.86 724.39 2309.2
-946.18 715.55 2281.0
-928.98 706.96 2253.6
-938.84 718.98 2291.9
-939.47 724.05 2308.1
-914.10 709.01 2260.1
-919.02 717.43 2287.0
-936.63 735.92 2345.9
-917.50 725.61 2313.0
-889.73 708.27 2257.8
-872.00 698.75 2227.4
-841.53 678.83 2163.9
-833.48 676.85 2157.6
-873.93 714.49 2277.6
-888.88 731.66 2332.3
-872.32 722.95 2304.6
-841.80 717.31 2286.6
-829.60 711.93 2269.4
-852.17 736.51 2347.8
-839.98 736.50 2347.8
-810.90 726.80 2316.9
-761.44 687.57 2191.8
-758.50 690.06 2199.7
-782.84 717.60 2287.5
-785.80 725.81 2313.7
-784.34 730.04 2327.2
-778.74 747.84 2383.9
-750.36 726.34 2315.4
-734.90 717.12 2286.0
-732.97 721.05 2298.5
-725.49 719.54 2293.7
-714.58 714.58 2277.9
-715.13 721.09 2298.6
-722.64 734.79 2342.3
-735.54 754.24 2404.3
-731.74 756.75 2412.3
-718.51 749.48 2389.1
-728.38 766.39 2443.0
-718.72 762.85 2431.8
-689.45 738.26 2353.4
-705.15 761.81 2428.4
-699.99 769.99 2454.5
-699.53 776.54 2475.4
-680.12 769.11 2451.7
-1079.46 727.73 2339.1
-1060.89 723.33 2325.0
-1050.35 728.57 2341.8
-1016.23 709.00 2278.9
-1042.79 731.79 2352.2
-1027.22 733.73 2358.4
-976.73 710.35 2283.3
-990.08 724.45 2328.6
-980.03 721.49 2319.1
-975.14 731.35 2350.8
-938.00 707.92 2275.5
-929.24 705.75 2268.5
-947.68 724.34 2328.2
-938.83 722.17 2321.3
-919.61 711.96 2288.4
-913.01 711.43 2286.8
-910.66 714.24 2295.8
-898.76 709.54 2280.7
-884.82 703.17 2260.2
-857.04 685.63 2203.8
-859.36 696.78 2239.6
-869.29 719.41 2312.4
-812.59 677.16 2176.6
-838.62 703.73 2262.0
-870.87 735.95 2365.6
-843.00 717.45 2306.1
-851.42 729.79 2345.7
-843.12 733.15 2356.5
-796.21 697.41 2241.7
-766.10 675.97 2172.8
-758.50 674.22 2167.2
-753.76 675.01 2169.7
-769.07 699.16 2247.3
-794.65 727.92 2339.8
-777.52 728.93 2343.0
-771.10 728.60 2341.9
-758.12 722.02 2320.8
-740.22 710.61 2284.1
-736.57 712.81 2291.2
-728.22 710.46 2283.6
-714.99 703.27 2260.5
-712.96 718.95 2310.9
-732.40 744.81 2394.0
-716.94 735.32 2363.5
-690.02 713.82 2294.4
-705.88 736.57 2367.5
-702.10 739.05 2375.5
-688.31 730.94 2349.5
-719.52 770.92 2477.9
-697.41 767.79 2467.9
-679.05 761.56 2447.9
-671.19 774.45 2489.3
-1074.64 722.50 2341.8
-1070.74 723.96 2346.6
-1091.87 742.47 2406.6
-1096.51 749.91 2430.7
-1032.10 709.94 2301.1
-1036.03 720.98 2336.9
-972.18 692.75 2245.4
-965.49 700.57 2270.7
-977.65 713.74 2313.5
-985.33 732.84 2375.4
-935.29 700.00 2268.9
-920.35 693.18 2246.8
-932.33 706.67 2290.5
-939.06 716.34 2321.9
-934.18 717.21 2324.7
-911.45 704.30 2282.9
-893.88 695.24 2253.5
-883.47 691.67 2241.9
-869.97 685.60 2222.2
-875.36 694.45 2250.9
-882.69 704.97 2285.0
-877.13 705.26 2285.9
-893.11 723.00 2343.4
-852.95 700.00 2268.9
-841.24 704.99 2285.1
-827.06 698.02 2262.5
-808.72 687.41 2228.1
-807.14 691.00 2239.8
-800.00 689.86 2236.0
-780.34 677.82 2197.0
-769.27 693.51 2247.9
-795.79 722.90 2343.1
