ply
format ascii 1.0
element vertex 2176
property float x
property float y
property float z
end_header
1216.20 979.54 2535.7
1245.88 998.04 2583.6
1279.15 1008.43 2610.5
1212.51 950.86 2461.5
1227.42 957.51 2478.7
1262.61 979.83 2536.5
1245.59 961.62 2489.3
1238.14 950.94 2461.7
1253.60 957.88 2479.7
1274.27 968.71 2507.7
1270.54 960.97 2487.6
1284.00 966.24 2501.3
1300.11 973.45 2519.9
1293.21 963.44 2494.1
1318.55 977.44 2530.3
1296.20 956.11 2475.1
1324.38 957.93 2479.8
1402.94 1009.85 2614.2
1389.93 995.67 2577.5
1368.64 975.73 2525.9
1350.30 958.07 2480.1
1366.31 964.84 2497.7
1374.18 965.82 2500.2
1365.52 946.34 2449.8
1398.30 964.56 2497.0
1380.60 947.97 2454.0
1424.03 951.48 2463.1
1420.87 945.13 2446.7
1172.92 1058.49 2758.6
1188.84 1047.32 2729.5
1203.24 1053.72 2746.2
1154.59 993.48 2589.2
1139.83 975.12 2541.3
1163.32 972.72 2535.1
1206.06 1002.79 2613.5
1196.29 983.62 2563.5
1178.19 963.38 2510.7
1194.93 971.70 2532.4
1189.89 962.32 2508.0
1205.90 969.96 2527.9
1228.94 983.15 2562.3
1247.60 992.71 2587.2
1260.61 976.81 2545.7
1235.27 952.19 2481.6
1247.75 956.82 2493.7
1269.20 968.26 2523.5
1232.72 935.61 2438.4
1243.03 933.85 2433.8
1306.08 976.26 2544.3
1328.80 988.25 2575.6
1329.42 983.77 2563.9
1306.69 952.66 2482.8
1278.67 927.66 2417.6
1347.62 968.19 2523.3
1390.45 975.29 2541.8
1350.93 943.10 2457.9
1361.45 941.56 2453.9
1392.77 958.74 2498.7
1402.96 961.29 2505.3
1396.92 939.74 2449.1
1416.48 948.59 2472.2
1433.29 955.53 2490.3
1440.67 956.14 2491.9
1184.83 1036.72 2720.3
1190.28 1023.22 2684.8
1136.59 971.39 2548.8
1162.92 971.30 2548.6
1171.30 967.31 2538.1
1171.98 957.11 2511.4
1235.74 998.10 2618.9
1198.86 963.02 2526.9
1204.74 962.48 2525.5
1217.14 967.14 2537.7
1202.48 950.35 2493.6
1200.42 943.65 2476.0
1247.60 975.52 2559.7
1258.15 968.31 2540.8
1240.37 949.66 2491.8
1262.61 961.68 2523.4
1279.46 969.49 2543.8
1238.29 933.48 2449.4
1265.02 943.95 2476.8
1238.67 919.62 2413.0
1312.52 959.91 2518.7
1358.86 979.18 2569.3
1361.54 976.32 2561.8
1337.55 940.77 2468.5
1417.46 992.22 2603.5
1413.53 980.14 2571.8
1391.29 960.18 2519.4
1377.57 946.27 2482.9
1366.00 933.96 2450.6
1372.38 933.98 2450.7
1423.43 964.26 2530.1
1430.22 942.79 2473.8
1445.14 935.84 2455.6
1162.59 1041.34 2751.1
1163.95 1036.20 2737.5
1135.35 992.58 2622.3
1167.22 1014.37 2679.8
1154.21 997.13 2634.3
1130.70 971.08 2565.5
1161.28 991.50 2619.4
1186.31 1006.99 2660.3
1158.53 977.72 2583.0
1140.50 956.97 2528.2
1131.61 944.08 2494.2
1164.95 966.38 2553.0
1183.64 970.85 2564.9
1151.42 939.15 2481.1
1214.02 973.89 2572.9
1201.75 958.77 2533.0
1231.27 976.99 2581.1
1229.88 970.61 2564.2
1202.52 943.92 2493.7
1184.20 919.65 2429.6
1244.82 961.61 2540.4
1276.20 980.66 2590.8
1252.31 957.27 2529.0
1234.49 938.73 2480.0
1268.17 959.34 2534.5
1296.54 975.74 2577.8
1287.47 963.95 2546.6
1297.15 966.24 2552.7
1312.45 972.68 2569.7
1249.49 921.34 2434.1
1271.93 928.51 2453.0
1302.92 946.40 2500.3
1301.56 940.73 2485.3
1293.94 930.62 2458.6
1284.59 914.88 2417.0
1361.71 946.71 2501.1
1383.51 948.32 2505.4
1365.14 931.36 2460.5
1347.97 915.37 2418.3
1412.13 941.42 2487.1
1442.10 957.03 2528.4
1435.49 923.27 2439.2
1169.34 1040.21 2767.1
1177.76 1041.31 2770.0
1121.37 979.51 2605.6
1140.69 990.42 2634.6
1159.61 994.93 2646.6
1132.68 966.11 2569.9
1158.68 982.50 2613.6
1156.11 963.43 2562.8
1153.23 944.74 2513.1
1184.50 964.90 2566.7
1199.24 960.72 2555.6
1190.25 948.27 2522.5
1216.01 963.50 2563.0
1211.76 954.92 2540.2
1179.57 924.52 2459.3
1200.91 936.19 2490.4
1217.01 943.67 2510.3
1217.00 938.65 2496.9
1262.38 968.49 2576.3
1255.72 953.30 2535.9
1231.98 930.40 2475.0
1255.06 942.92 2508.3
1296.59 969.10 2577.9
1301.20 967.56 2573.8
1298.91 960.93 2556.2
1302.15 958.44 2549.5
1272.45 931.84 2478.8
1260.70 918.60 2443.6
1300.32 942.73 2507.8
1299.44 937.41 2493.6
1272.96 913.76 2430.7
1302.56 916.85 2438.9
1330.50 932.00 2479.2
1364.92 951.51 2531.1
1379.64 957.17 2546.2
1355.37 935.85 2489.5
1334.05 916.76 2438.7
1349.12 922.75 2454.6
1356.90 923.71 2457.2
1375.74 932.16 2479.6
1397.45 942.47 2507.1
1404.41 942.77 2507.9
1394.13 931.56 2478.0
1385.59 921.61 2451.6
1414.95 936.84 2492.1
1410.09 929.38 2472.2
1431.14 938.98 2497.8
1441.64 937.39 2493.6
1418.07 913.86 2431.0
1449.36 929.90 2473.6
1153.74 1025.54 2747.0
1157.32 1022.42 2738.6
1151.24 1010.84 2707.6
1161.08 1007.20 2697.9
1151.68 993.06 2660.0
1152.68 988.01 2646.5
1152.48 981.99 2630.3
1135.79 962.08 2577.0
1138.04 958.35 2567.0
1164.14 974.63 2610.6
1187.71 988.62 2648.1
1162.79 962.31 2577.6
1128.94 928.96 2488.3
1142.65 934.90 2504.2
1158.01 942.11 2523.5
1175.82 951.23 2547.9
1209.29 972.84 2605.8
1212.16 969.73 2597.5
1181.59 940.05 2518.0
1166.03 922.57 2471.2
1178.69 927.49 2484.4
1163.66 910.69 2439.4
1177.06 911.27 2440.9
1221.59 940.69 2519.7
1247.77 955.74 2560.0
1264.10 963.12 2579.8
1257.46 953.03 2552.7
1246.08 939.45 2516.4
1242.14 931.61 2495.4
1230.90 918.39 2460.0
1234.41 916.27 2454.3
1265.29 934.37 2502.8
1291.65 948.97 2541.9
1268.10 926.93 2482.9
1238.30 891.58 2388.2
1284.10 919.95 2464.2
1303.79 929.43 2489.6
1283.78 910.66 2439.3
1299.96 917.62 2457.9
1338.05 939.90 2517.6
1356.70 948.37 2540.3
1300.42 904.64 2423.1
1336.67 920.96 2466.9
1384.00 949.03 2542.0
1345.90 918.53 2460.3
1344.07 912.96 2445.4
1361.94 920.75 2466.3
1391.89 936.60 2508.7
1398.85 936.90 2509.6
1390.95 927.30 2483.8
1409.51 935.34 2505.4
1430.96 945.22 2531.8
1449.20 948.57 2540.8
1395.44 901.09 2413.6
1419.39 912.47 2444.1
1435.78 918.90 2461.3
1465.23 933.60 2500.7
1161.11 1006.30 2714.3
1173.56 998.92 2694.4
1121.78 949.19 2560.3
1132.41 952.56 2569.3
1159.97 970.04 2616.5
1151.09 957.01 2581.4
1141.27 943.37 2544.5
1164.01 956.63 2580.3
1174.38 959.63 2588.4
1150.16 934.50 2520.6
1156.81 929.35 2506.7
1200.18 958.80 2586.2
1215.05 959.96 2589.3
1174.14 922.54 2488.4
1161.64 907.73 2448.4
1190.61 925.31 2495.9
1215.69 939.69 2534.6
1201.78 923.95 2492.2
1198.86 916.78 2472.8
1219.13 927.32 2501.3
1227.83 928.99 2505.8
1219.35 917.72 2475.4
1206.10 903.00 2435.7
1229.90 916.02 2470.8
1249.17 925.55 2496.5
1239.96 913.99 2465.3
1256.75 921.61 2485.9
1263.29 921.69 2486.1
1255.47 902.17 2433.4
1295.99 926.63 2499.4
1336.38 936.78 2526.8
1332.71 929.65 2507.5
1352.24 938.69 2531.9
1295.90 895.24 2414.7
1369.93 932.86 2516.2
1383.31 937.50 2528.7
1391.24 938.43 2531.2
1422.81 950.76 2564.5
1403.95 933.79 2518.7
1382.11 915.01 2468.1
1385.25 912.86 2462.3
1420.20 931.60 2512.8
1418.11 913.46 2463.9
1426.86 914.98 2468.0
1433.71 915.27 2468.8
1433.36 910.98 2457.2
1446.44 915.23 2468.6
1477.57 926.72 2499.7
1158.36 1015.35 2758.0
1168.85 1012.06 2749.0
1115.76 960.23 2608.3
1132.81 969.03 2632.2
1178.19 995.85 2705.0
1138.18 956.34 2597.7
1159.22 968.29 2630.2
1143.79 933.44 2535.5
1148.19 931.67 2530.7
1166.37 930.48 2527.5
1171.48 929.33 2524.3
1161.73 916.48 2489.4
1200.19 941.58 2557.6
1200.88 936.95 2545.0
1173.03 910.22 2472.4
1186.96 916.02 2488.2
1202.17 922.75 2506.5
1178.71 899.88 2444.3
1185.21 900.00 2444.7
1214.57 917.39 2491.9
1220.33 916.86 2490.5
1205.51 900.96 2447.3
1214.94 903.26 2453.5
1263.34 934.34 2538.0
1256.83 924.71 2511.8
1222.04 894.48 2429.7
1229.32 895.20 2431.6
1227.57 889.37 2415.8
1246.74 889.63 2416.5
1293.81 918.61 2495.2
1339.45 946.28 2570.4
1318.74 922.46 2505.7
1267.04 881.96 2395.7
1298.80 899.66 2443.7
1354.50 933.68 2536.2
1368.74 938.94 2550.4
1355.49 925.39 2513.6
1323.96 899.53 2443.4
1339.45 905.72 2460.2
1349.53 908.21 2467.0
1351.37 905.16 2458.7
1394.59 929.73 2525.4
1414.52 938.61 2549.5
1403.95 927.26 2518.7
1392.32 915.32 2486.3
1389.43 909.21 2469.7
1415.52 922.03 2504.5
1416.34 918.36 2494.5
1390.23 897.33 2437.4
1397.97 898.25 2439.9
1404.30 898.25 2439.9
1405.85 895.21 2431.6
1406.41 891.56 2421.7
1472.76 905.33 2459.1
1152.59 1003.18 2744.3
1167.10 1003.42 2744.9
1123.65 960.21 2626.7
1150.04 970.99 2656.2
1171.90 971.99 2658.9
1152.41 933.85 2554.6
1156.06 931.45 2548.0
1171.09 938.21 2566.5
1163.76 911.61 2493.8
1155.46 900.11 2462.3
1186.32 919.07 2514.2
1187.29 914.79 2502.5
1189.42 911.46 2493.4
1192.74 909.06 2486.8
1195.02 896.27 2451.8
1199.01 894.50 2447.0
1215.16 901.78 2466.9
1256.69 927.71 2537.8
1279.03 939.29 2569.5
1243.66 908.58 2485.5
1223.30 889.10 2432.2
1247.32 901.91 2467.2
1260.29 906.63 2480.2
1243.46 889.99 2434.6
1249.33 885.20 2421.5
1262.73 890.22 2435.3
1273.10 893.07 2443.0
1323.22 923.63 2526.7
1316.08 914.12 2500.6
1273.68 880.34 2408.2
1317.09 905.90 2478.1
1343.30 919.44 2515.2
1325.10 902.60 2469.1
1336.97 906.31 2479.3
1330.74 897.77 2455.9
1341.71 900.86 2464.4
1349.51 901.80 2466.9
1386.80 913.73 2499.6
1428.99 937.15 2563.6
1373.22 896.41 2452.2
1377.53 890.97 2437.3
1404.09 904.01 2473.0
1386.41 888.56 2430.7
1396.30 878.92 2404.3
1466.89 899.26 2460.0
1172.96 995.23 2742.0
1174.94 990.91 2730.1
1155.01 968.27 2667.7
1137.06 947.55 2610.6
1164.18 964.41 2657.0
1158.58 954.12 2628.7
1164.94 937.30 2582.4
1174.13 939.31 2587.9
1197.54 952.59 2624.5
1190.30 936.19 2579.3
1213.91 949.43 2615.8
1202.33 935.15 2576.4
1167.16 902.78 2487.2
1172.96 902.28 2485.9
1182.41 904.58 2492.2
1194.75 909.05 2504.5
1221.93 924.70 2547.7
1217.92 916.71 2525.6
1181.87 884.82 2437.8
1188.13 880.09 2424.7
1216.41 896.31 2469.4
1243.20 911.25 2510.6
1250.66 911.94 2512.5
1258.98 913.25 2516.1
1281.84 925.04 2548.6
1269.20 911.22 2510.5
1246.92 890.66 2453.8
1279.79 909.50 2505.8
1310.70 926.76 2553.3
1301.66 915.74 2523.0
1283.73 898.61 2475.8
1282.31 893.15 2460.7
1324.11 917.70 2528.4
1364.90 936.70 2580.7
1371.60 936.70 2580.7
1360.79 924.81 2548.0
1330.48 899.84 2479.2
1330.17 895.31 2466.7
1363.39 913.28 2516.2
1364.63 901.17 2482.8
1331.00 874.84 2410.3
1359.50 889.39 2450.4
1411.83 919.33 2532.9
1368.06 886.71 2443.0
1400.47 899.39 2477.9
1441.73 921.65 2539.3
1435.51 913.50 2516.8
1465.44 920.01 2534.7
1458.04 887.50 2445.2
1467.76 889.55 2450.8
1136.39 981.10 2722.5
1147.98 972.98 2700.0
1131.60 953.29 2645.3
1152.89 965.37 2678.8
1154.32 960.78 2666.1
1111.90 909.14 2522.8
1174.74 938.44 2604.1
1174.57 932.94 2588.8
1156.74 898.25 2492.6
1183.47 913.90 2536.0
1186.95 911.53 2529.4
1195.68 913.19 2534.0
1207.68 917.31 2545.5
1196.80 904.11 2508.8
1199.33 901.12 2500.5
1216.69 909.25 2523.1
1200.11 892.06 2475.4
1180.83 873.06 2422.7
1184.75 871.33 2417.9
1208.42 884.05 2453.2
1231.38 896.13 2486.7
1245.58 901.74 2502.3
1259.83 907.34 2517.8
1289.39 919.10 2550.4
1258.11 892.23 2475.9
1281.95 904.52 2510.0
1298.10 911.29 2528.8
1273.72 889.68 2468.8
1296.43 901.02 2500.3
1338.63 925.72 2568.8
1343.11 924.22 2564.6
1344.46 920.59 2554.6
1339.53 912.72 2532.7
1340.31 908.80 2521.8
1352.72 912.76 2532.8
1346.68 904.30 2509.3
1350.96 902.80 2505.2
1391.08 925.17 2567.3
1368.28 897.13 2489.5
1340.17 874.57 2426.9
1328.00 862.58 2393.6
1335.66 863.52 2396.2
1376.88 886.05 2458.7
1431.44 916.92 2544.4
1417.34 903.72 2507.7
1375.76 873.20 2423.1
1390.57 878.59 2438.0
1474.61 895.07 2483.7
1143.08 985.91 2755.6
1119.46 947.76 2649.0
1114.85 932.42 2606.1
1175.86 977.52 2732.2
1169.48 966.40 2701.1
1153.70 931.06 2602.3
1185.34 940.09 2627.6
1176.17 927.49 2592.4
1168.35 900.74 2517.6
1182.68 906.72 2534.3
1218.89 929.32 2597.5
1206.23 904.67 2528.6
1203.85 898.01 2510.0
1212.97 899.95 2515.4
1220.86 900.96 2518.2
1227.51 901.05 2518.4
1215.30 887.36 2480.2
1221.44 887.15 2479.6
1250.81 903.72 2525.9
1272.31 914.47 2556.0
1266.22 905.38 2530.6
1276.29 907.88 2537.5
1281.66 907.02 2535.2
1259.82 887.02 2479.2
1249.44 875.24 2446.3
1243.98 862.66 2411.2
1299.93 896.95 2507.0
1339.52 919.67 2570.5
1343.12 917.58 2564.7
1339.14 910.35 2544.5
1326.15 897.10 2507.4
1307.18 879.96 2459.5
1300.15 870.97 2434.4
1318.71 879.14 2457.2
1346.86 893.59 2497.6
1350.64 891.81 2492.6
1352.11 888.53 2483.5
1377.49 892.46 2494.4
1360.51 869.21 2429.5
1426.75 907.33 2536.0
1425.77 902.55 2522.7
1390.31 876.09 2448.7
1411.33 885.29 2474.4
1408.23 879.35 2457.8
1393.15 866.01 2420.5
1436.72 889.09 2485.0
1146.80 981.95 2764.6
1154.48 982.38 2765.8
1134.33 941.84 2651.7
1174.43 969.26 2728.9
1145.37 939.62 2645.4
1109.48 904.75 2547.3
1120.85 908.61 2558.1
1144.15 922.05 2596.0
1176.77 926.54 2608.6
1154.19 903.56 2543.9
1156.99 900.61 2535.6
1174.44 909.03 2559.3
1154.50 888.57 2501.7
1181.08 898.93 2530.9
1199.95 898.33 2529.2
1208.28 899.64 2532.9
1234.48 909.27 2560.0
1217.95 892.30 2512.2
1237.11 901.51 2538.1
1237.08 896.72 2524.7
1231.95 888.30 2500.9
1248.69 895.66 2521.7
1259.57 898.76 2530.4
1242.76 882.17 2483.7
1246.74 880.43 2478.8
1247.25 876.27 2467.1
1241.66 867.89 2443.5
1248.54 868.27 2444.6
1244.10 860.81 2423.6
1264.92 870.83 2451.8
1273.13 872.09 2455.3
1264.16 861.64 2425.9
1296.65 879.41 2475.9
1320.47 891.15 2509.0
1348.43 905.56 2549.6
1370.29 915.75 2578.2
1361.69 905.59 2549.6
1380.49 913.66 2572.3
1349.10 888.59 2501.8
1343.40 876.41 2467.5
1412.54 908.53 2557.9
1364.93 873.81 2460.2
1363.42 868.78 2446.0
1366.98 867.02 2441.0
1406.59 888.03 2500.2
1410.23 886.24 2495.2
1399.45 871.47 2453.6
1394.87 864.69 2434.5
1375.44 848.81 2389.8
1414.66 869.10 2446.9
1412.35 863.80 2432.0
1423.95 863.19 2430.3
1436.05 866.69 2440.1
1117.44 910.01 2580.9
1152.05 932.61 2645.0
1141.87 918.90 2606.1
1145.71 916.57 2599.5
1144.51 910.25 2581.6
1137.02 899.04 2549.8
1162.10 913.56 2591.0
1175.62 918.88 2606.1
1150.26 893.92 2535.3
1149.09 887.93 2518.3
1180.80 907.28 2573.2
1175.24 897.94 2546.7
1161.14 882.21 2502.1
1195.98 903.63 2562.8
1191.42 895.21 2538.9
1181.20 873.06 2476.1
1237.64 909.83 2580.4
1232.01 900.82 2554.9
1198.40 871.56 2471.9
1199.10 867.43 2460.2
1211.91 872.06 2473.3
1219.71 873.06 2476.1
1244.03 885.80 2512.2
1262.54 894.30 2536.3
1211.16 853.46 2420.5
1235.60 861.75 2444.0
1277.49 886.42 2514.0
1278.87 882.88 2504.0
1269.32 871.86 2472.7
1288.07 880.29 2496.6
1292.86 879.14 2493.4
1274.69 862.48 2446.1
1299.72 875.06 2481.8
1315.55 881.36 2499.6
1335.47 890.32 2525.1
1358.63 901.34 2556.3
1351.78 892.43 2531.1
1359.26 893.04 2532.8
1318.70 862.22 2445.4
1306.89 850.42 2411.9
1402.28 908.14 2575.6
1410.31 909.01 2578.1
1345.17 862.94 2447.4
1326.60 847.03 2402.3
1327.32 843.53 2392.4
1346.14 851.51 2415.0
1368.79 853.92 2421.8
1379.01 852.48 2417.8
1397.65 860.09 2439.3
1404.45 860.38 2440.2
1424.17 868.55 2463.3
1399.78 849.87 2410.3
1468.86 883.91 2506.9
1172.08 964.82 2756.6
1128.43 923.26 2637.9
1107.60 890.03 2543.0
1118.08 887.89 2536.8
1135.26 896.26 2560.7
1129.65 886.65 2533.3
1156.28 902.30 2578.0
1165.46 904.24 2583.5
1135.30 875.81 2502.3
1151.85 883.52 2524.4
1201.09 916.08 2617.4
1202.00 911.63 2604.7
1190.01 897.50 2564.3
1212.92 909.69 2599.1
1194.26 890.74 2545.0
1175.37 857.70 2450.6
1204.66 874.35 2498.2
1205.03 869.94 2485.5
1228.74 882.34 2521.0
1233.59 876.50 2504.3
1216.91 860.12 2457.5
1268.98 883.05 2523.0
1293.69 895.63 2558.9
1279.19 881.08 2517.4
1240.50 845.80 2416.6
1281.91 869.64 2484.7
1323.16 893.13 2551.8
1341.73 901.16 2574.7
1333.36 891.10 2546.0
1316.85 875.74 2502.1
1311.78 868.09 2480.2
1310.64 863.10 2466.0
1281.98 840.13 2400.4
1287.79 835.83 2388.1
1335.96 862.94 2465.5
1385.35 890.58 2544.5
1350.19 863.87 2468.2
1320.70 841.01 2402.9
1335.77 846.61 2418.9
1343.94 847.81 2422.3
1368.88 859.53 2455.8
1380.40 862.75 2465.0
1378.83 857.79 2450.8
1420.96 879.95 2514.1
1460.03 900.02 2571.5
1460.94 896.48 2561.4
1454.19 888.30 2538.0
1423.95 865.91 2474.0
1403.98 849.94 2428.4
1427.57 860.37 2458.2
1477.80 886.68 2533.4
1482.59 862.71 2464.9
1138.85 919.31 2646.2
1129.23 890.10 2562.1
1152.26 902.94 2599.1
1151.00 896.71 2581.1
1142.63 885.05 2547.6
1198.95 912.84 2627.6
1216.40 915.72 2635.9
1211.70 907.08 2611.0
1227.03 903.42 2600.5
1199.11 878.04 2527.4
1176.22 856.59 2465.7
1173.68 850.13 2447.1
1186.81 855.02 2461.1
1199.17 859.30 2473.5
1236.25 881.16 2536.4
1209.24 848.37 2442.0
1226.77 856.18 2464.5
1289.55 881.63 2537.8
1256.65 854.78 2460.5
1291.93 874.33 2516.7
1309.03 881.46 2537.2
1318.74 883.55 2543.3
1332.88 888.59 2557.8
1323.13 877.72 2526.5
1278.08 843.66 2428.5
1301.16 850.52 2448.2
1328.30 864.04 2487.1
1294.09 837.72 2411.3
1296.79 835.43 2404.8
1294.90 830.22 2389.8
1329.93 844.60 2431.2
1370.84 866.48 2494.1
1399.52 880.45 2534.3
1421.38 890.03 2561.9
1435.90 894.94 2576.0
1428.97 886.49 2551.7
1457.95 884.01 2544.6
1431.52 864.07 2487.2
1438.41 864.33 2488.0
1492.95 885.20 2548.0
1469.82 867.65 2497.5
1471.34 864.74 2489.1
1477.23 860.64 2477.3
1128.16 893.13 2590.2
1124.33 884.83 2566.1
1131.92 885.56 2568.2
1122.26 867.80 2516.7
1125.45 865.23 2509.3
1136.45 868.67 2519.2
1188.88 903.55 2620.4
1216.24 913.90 2650.4
1196.43 893.96 2592.6
1188.81 883.30 2561.7
1205.27 890.56 2582.7
1199.11 881.11 2555.3
1209.93 884.18 2564.2
1214.24 882.48 2559.3
1188.10 858.79 2490.6
1182.31 849.98 2465.0
1185.94 848.01 2459.3
1188.30 845.15 2451.0
1191.45 842.89 2444.5
1221.47 859.55 2492.8
1274.48 887.46 2573.7
1219.12 835.79 2423.9
1239.76 845.58 2452.3
1260.95 855.64 2481.5
1290.08 870.97 2525.9
1318.96 885.97 2569.4
1326.10 886.29 2570.3
1329.27 883.97 2563.6
1334.62 883.11 2561.1
1310.23 862.68 2501.9
1332.53 864.52 2507.2
1349.88 871.52 2527.5
1302.61 836.94 2427.2
1310.78 838.15 2430.7
1312.13 834.99 2421.6
1306.11 827.20 2399.0
1342.26 846.07 2453.7
1381.85 866.92 2514.2
1424.14 885.09 2566.9
1427.48 883.05 2560.9
1429.40 880.14 2552.5
1443.41 876.59 2542.2
1386.82 838.40 2431.4
1377.41 828.94 2404.0
1389.87 832.67 2414.8
1441.69 859.84 2493.6
1487.57 883.24 2561.5
1482.04 876.05 2540.6
1475.45 868.30 2518.2
1460.02 855.43 2480.8
1469.80 857.39 2486.5
1519.25 882.36 2558.9
1137.69 893.90 2612.0
1155.34 902.40 2636.9
1139.91 879.93 2571.2
1125.74 863.94 2524.5
1143.40 872.42 2549.3
1167.44 885.65 2587.9
1194.02 900.63 2631.7
1195.81 896.86 2620.7
1220.64 910.31 2660.0
1228.44 910.98 2661.9
1202.47 886.74 2591.1
1200.01 880.01 2571.5
1195.85 872.11 2548.4
1208.70 876.64 2561.6
1221.93 871.87 2547.7
1189.22 843.96 2466.1
1200.75 847.59 2476.7
1212.33 851.21 2487.3
1194.93 834.55 2438.6
1211.96 841.99 2460.4
1278.28 883.42 2581.4
1272.26 874.68 2555.9
1223.33 836.68 2444.9
1231.94 838.23 2449.4
1246.60 843.85 2465.8
1260.03 848.59 2479.7
1274.38 853.90 2495.2
1287.05 858.03 2507.2
1307.21 867.10 2533.7
1323.08 873.23 2551.7
1303.64 856.12 2501.7
1253.35 819.02 2393.2
1295.51 838.27 2449.5
1314.30 838.10 2449.0
1300.25 825.16 2411.2
1327.56 838.46 2450.0
1345.86 845.97 2472.0
1365.17 854.04 2495.6
1386.87 863.52 2523.3
1409.15 873.27 2551.8
1412.01 870.96 2545.0
1438.17 882.97 2580.1
1423.23 865.74 2529.8
1387.52 836.31 2443.8
1398.60 839.16 2452.1
1438.97 844.20 2466.8
1501.57 877.02 2562.7
1491.07 867.06 2533.6
1101.56 869.31 2559.6
1145.01 887.55 2613.3
1175.51 900.54 2651.5
1175.90 895.60 2637.0
1190.62 896.38 2639.3
1177.84 881.70 2596.1
1184.71 881.80 2596.4
1214.68 899.00 2647.0
1236.01 889.65 2619.5
1231.42 871.98 2567.4
1218.65 858.30 2527.2
1250.35 875.92 2579.0
1248.32 869.84 2561.2
1218.44 844.53 2486.6
1252.62 854.65 2516.4
1269.71 857.38 2524.5
1247.84 838.29 2468.3
1279.49 855.17 2517.9
1310.03 871.14 2565.0
1323.04 866.59 2551.6
1249.60 814.42 2398.0
1281.87 827.22 2435.6
1304.84 837.91 2467.1
1357.14 867.25 2553.5
1359.28 856.08 2520.6
1351.21 846.93 2493.7
1359.07 847.80 2496.3
1364.64 847.24 2494.6
1378.50 851.81 2508.1
1388.71 854.09 2514.8
1395.68 854.37 2515.6
1427.39 869.71 2560.8
1441.50 870.22 2562.3
1378.43 824.54 2427.8
1412.76 841.24 2476.9
1413.91 838.11 2467.7
1454.35 846.76 2493.2
1141.40 888.51 2636.2
1153.73 892.76 2648.9
1146.17 881.67 2615.9
1129.97 864.10 2563.8
1142.60 868.64 2577.3
1184.08 894.95 2655.3
1182.76 883.67 2621.9
1186.92 881.71 2616.1
1210.50 894.12 2652.9
1177.60 864.91 2566.2
1155.94 844.23 2504.9
1185.54 861.01 2554.6
1205.64 870.74 2583.5
1218.55 875.20 2596.8
1224.57 874.70 2595.3
1224.43 869.82 2580.8
1221.75 863.19 2561.1
1181.33 830.12 2463.0
1209.84 841.06 2495.5
1221.46 844.63 2506.0
1238.60 851.95 2527.8
1235.10 845.07 2507.3
1199.22 816.23 2421.8
1253.00 848.38 2517.2
1280.61 862.59 2559.3
1230.51 824.57 2446.5
1223.58 815.72 2420.3
1266.42 839.97 2492.2
1294.31 854.11 2534.2
1314.50 863.06 2560.7
1330.40 869.11 2578.7
1278.46 831.00 2465.6
1254.50 807.35 2395.4
1290.27 826.28 2451.6
1311.03 835.46 2478.8
1334.60 846.33 2511.1
1370.95 865.16 2567.0
1378.96 866.01 2569.5
1351.02 844.39 2505.3
1339.27 833.04 2471.6
1344.33 832.20 2469.2
1372.39 845.55 2508.8
1407.53 863.11 2560.9
1389.10 847.81 2515.5
1367.22 830.56 2464.3
1384.37 837.06 2483.6
1410.02 848.62 2517.9
1414.63 847.48 2514.5
1383.82 825.21 2448.4
1376.42 817.06 2424.2
1410.30 833.36 2472.6
1424.32 837.83 2485.9
1403.91 822.11 2439.2
1407.81 820.70 2435.0
1452.68 843.07 2501.4
1432.49 827.66 2455.7
1418.43 815.91 2420.8
1476.80 845.74 2509.3
1493.97 851.82 2527.4
1559.26 885.17 2626.3
1114.07 876.31 2620.2
1165.19 894.70 2675.2
1122.37 856.72 2561.6
1130.34 857.73 2564.6
1168.55 881.54 2635.8
1169.29 876.97 2622.2
1154.69 861.01 2574.5
1166.24 864.62 2585.3
1206.71 879.47 2629.6
1178.91 844.89 2526.2
1219.76 869.33 2599.3
1216.39 862.16 2577.9
1209.64 852.70 2549.6
1226.67 860.00 2571.4
1204.04 839.57 2510.4
1181.14 819.18 2449.4
1222.31 843.20 2521.2
1219.31 836.65 2501.6
1222.54 834.43 2495.0
1273.99 864.97 2586.3
1292.66 873.05 2610.5
1271.30 854.16 2554.0
1223.55 817.81 2445.3
1219.67 811.02 2425.0
1257.21 831.70 2486.8
1267.22 834.04 2493.8
1259.39 824.67 2465.8
1243.98 810.47 2423.3
1228.40 796.30 2381.0
1258.48 799.72 2391.2
1280.02 809.42 2420.2
1303.93 820.52 2453.4
1324.36 829.33 2479.7
1315.41 819.75 2451.1
1308.15 811.31 2425.8
1319.53 814.45 2435.2
1318.55 809.97 2421.8
1339.62 819.01 2448.9
1379.74 839.56 2510.3
1366.30 827.47 2474.2
1393.67 840.11 2512.0
1413.22 844.01 2523.6
1365.29 807.90 2415.7
1409.97 830.53 2483.3
1426.85 836.65 2501.6
1422.31 830.22 2482.4
1426.31 828.80 2478.2
1458.66 843.80 2523.0
1486.84 856.26 2560.2
1446.42 829.28 2479.6
1123.66 871.69 2626.7
1143.11 881.43 2656.1
1154.50 879.62 2650.6
1112.37 842.50 2538.8
1124.14 846.41 2550.6
1151.48 861.93 2597.3
1141.61 849.57 2560.1
1156.85 841.34 2535.3
1213.89 877.84 2645.3
1170.57 837.05 2522.4
1176.03 836.29 2520.1
1220.55 863.15 2601.0
1222.08 859.48 2590.0
1215.35 850.08 2561.6
1234.47 858.76 2587.8
1253.29 867.14 2613.0
1193.80 808.50 2436.3
1205.86 808.12 2435.2
1225.12 816.75 2461.2
1239.77 822.23 2477.7
1302.30 859.25 2589.3
1300.40 853.60 2572.2
1267.15 827.53 2493.7
1248.40 811.14 2444.3
1225.06 791.96 2386.5
1230.49 791.47 2385.0
1244.30 796.35 2399.7
1268.20 799.65 2409.7
1297.86 814.35 2453.9
1310.59 818.32 2465.9
1317.49 818.64 2466.9
1336.19 826.24 2489.8
1354.97 833.83 2512.7
1358.30 831.88 2506.8
1349.66 822.65 2479.0
1316.94 798.90 2407.4
1336.95 803.43 2421.0
1410.36 843.58 2542.0
1400.94 830.19 2501.7
1363.28 800.46 2412.1
1399.91 818.21 2465.6
1411.05 820.97 2473.9
1433.68 830.36 2502.2
1470.79 848.03 2555.4
1460.49 838.31 2526.2
1443.32 824.75 2485.3
1470.05 836.29 2520.1
1438.08 810.90 2443.6
1108.81 858.65 2607.8
1129.67 869.51 2640.8
1128.35 863.26 2621.8
1127.70 857.59 2604.6
1141.88 863.21 2621.7
1118.48 840.51 2552.7
1120.25 836.89 2541.7
1137.10 844.52 2564.9
1196.70 858.65 2607.8
1204.80 854.80 2596.1
1171.12 826.29 2509.5
1183.47 830.39 2522.0
1210.19 844.47 2564.8
1225.58 850.54 2583.2
1221.64 843.20 2560.9
1215.54 834.45 2534.3
1227.63 838.22 2545.8
1250.23 849.09 2578.8
1273.05 855.43 2598.1
1210.08 800.42 2431.0
1272.32 837.22 2542.7
1297.95 849.69 2580.6
1256.20 818.14 2484.8
1287.08 833.97 2532.9
1278.85 820.27 2491.3
1259.42 803.75 2441.1
1281.75 813.91 2471.9
1271.81 803.58 2440.6
1263.53 794.40 2412.7
1290.00 807.04 2451.1
1327.84 826.65 2510.6
1346.55 834.21 2533.6
1346.80 830.31 2521.8
1358.35 833.39 2531.1
1367.20 834.78 2535.3
1360.50 826.72 2510.8
1368.40 827.55 2513.4
1355.09 815.62 2477.1
1343.01 804.54 2443.5
1374.93 819.79 2489.8
1401.89 831.96 2526.8
1408.41 831.95 2526.7
1416.34 832.76 2529.2
1424.74 833.84 2532.5
1418.02 826.09 2508.9
1422.58 824.97 2505.5
1480.96 854.92 2596.5
1509.08 863.31 2622.0
1420.02 805.10 2445.2
1487.88 839.82 2550.6
1537.98 860.45 2613.3
1543.13 859.55 2610.6
1564.92 860.37 2613.0
1111.60 864.58 2646.7
1142.53 862.03 2638.9
1117.77 838.32 2566.3
1146.76 835.21 2556.8
1145.68 824.89 2525.2
1204.26 857.27 2624.3
1164.98 824.65 2524.4
1172.48 825.32 2526.5
1184.85 829.39 2539.0
1171.60 815.59 2496.7
1172.90 812.01 2485.7
1192.65 821.17 2513.8
1191.04 815.60 2496.7
1189.34 810.04 2479.7
1205.49 816.62 2499.9
1227.17 826.86 2531.2
1270.47 842.53 2579.2
1208.24 797.06 2440.0
1215.97 797.98 2442.8
1234.03 805.63 2466.2
1216.37 790.01 2418.4
1266.13 813.94 2491.7
1296.30 820.78 2512.6
1301.55 819.98 2510.1
1313.88 823.63 2521.3
1328.48 828.65 2536.7
1344.03 834.23 2553.8
1360.90 836.46 2560.6
1330.42 813.75 2491.1
1327.37 807.96 2473.4
1321.50 800.53 2450.6
1314.62 792.55 2426.2
1363.75 814.37 2493.0
1409.12 837.49 2563.8
1412.01 835.27 2557.0
1407.40 828.66 2536.7
1451.52 838.95 2568.2
1446.23 832.08 2547.2
1497.09 857.43 2624.8
1498.94 850.75 2604.3
1431.97 805.48 2465.8
1500.39 840.22 2572.1
1529.81 852.90 2610.9
1543.76 856.89 2623.1
1543.05 852.74 2610.4
1574.74 858.95 2629.4
1110.79 851.83 2628.5
1161.75 864.40 2667.3
1158.02 856.53 2643.0
1158.44 851.80 2628.4
1152.32 827.82 2554.4
1192.38 851.70 2628.1
1177.01 835.95 2579.5
1166.53 810.09 2499.7
1178.46 813.85 2511.3
1203.36 817.50 2522.6
1241.98 839.18 2589.5
1228.77 825.79 2548.1
1225.01 818.85 2526.8
1244.70 827.59 2553.7
1251.41 827.65 2553.9
1275.09 838.87 2588.5
1280.58 838.08 2586.1
1253.54 816.10 2518.3
1234.79 799.74 2467.8
1262.88 813.71 2510.9
1300.24 833.49 2571.9
1257.34 801.87 2474.4
1232.38 781.96 2412.9
1304.57 823.59 2541.4
1326.24 828.90 2557.7
1306.24 812.34 2506.7
1344.01 831.69 2566.3
1376.07 835.00 2576.6
1337.36 803.70 2480.0
1375.19 814.68 2513.9
1423.40 839.27 2589.7
1425.41 836.51 2581.2
1416.17 827.20 2552.5
1416.90 805.06 2484.2
1518.07 854.77 2637.6
1507.76 841.39 2596.3
1514.37 841.32 2596.1
1543.36 853.63 2634.1
1543.46 846.19 2611.1
1565.80 854.70 2637.3
1125.69 856.36 2663.8
1120.71 837.16 2604.1
1144.01 849.45 2642.3
1144.88 845.03 2628.6
1155.69 847.96 2637.7
1172.34 855.12 2659.9
1150.69 820.03 2550.8
1139.61 807.50 2511.8
1154.57 799.82 2487.9
1177.42 811.11 2523.0
1235.50 846.42 2632.9
1219.27 826.17 2569.9
1216.93 820.11 2551.0
1246.64 831.10 2585.2
1224.93 812.26 2526.6
1228.22 810.10 2519.9
1231.05 807.67 2512.4
1250.41 816.05 2538.4
1265.60 821.65 2555.8
1250.89 807.86 2512.9
1220.50 784.16 2439.2
1236.88 790.58 2459.2
1250.62 787.19 2448.6
1271.12 796.05 2476.2
1325.67 826.04 2569.5
1301.81 807.12 2510.6
1277.26 787.96 2451.0
1311.36 804.99 2504.0
1321.48 807.21 2510.9
1308.23 795.20 2473.6
1335.01 807.52 2511.9
1380.98 831.27 2585.7
1350.13 801.03 2491.7
1367.19 807.29 2511.2
1377.85 809.73 2518.8
1368.15 800.24 2489.2
1401.13 815.68 2537.2
1426.82 826.76 2571.7
1416.75 805.86 2506.7
1529.04 854.06 2656.6
1518.32 840.50 2614.4
1533.69 845.24 2629.2
1559.06 847.91 2637.5
1116.38 847.62 2658.1
1123.06 847.46 2657.6
1128.85 841.51 2638.9
1133.19 839.65 2633.1
1124.57 794.95 2492.9
1175.32 816.75 2561.2
1194.97 825.74 2589.4
1175.12 807.48 2532.2
1214.73 830.06 2603.0
1213.97 811.51 2544.8
1212.78 806.34 2528.6
1244.92 823.25 2581.6
1265.11 832.13 2609.5
1272.36 832.45 2610.5
1280.04 833.04 2612.3
1280.07 828.68 2598.6
1275.77 821.57 2576.3
1266.65 811.45 2544.6
1241.48 791.20 2481.1
1227.70 778.39 2440.9
1286.21 811.30 2544.2
1307.39 816.29 2559.8
1274.97 792.02 2483.7
1275.30 788.25 2471.9
1301.72 800.56 2510.5
1331.40 814.74 2554.9
1302.33 793.00 2486.8
1311.42 786.85 2467.5
1334.19 796.63 2498.1
1377.11 818.28 2566.0
1401.39 824.74 2586.3
1362.47 798.02 2502.5
1392.64 804.20 2521.9
1412.53 800.65 2510.7
1422.09 791.48 2482.0
1482.33 821.29 2575.5
1503.86 829.48 2601.2
1531.01 833.25 2613.0
1529.80 828.92 2599.4
1539.83 830.70 2605.0
1554.80 835.11 2618.8
1110.00 815.78 2579.2
1134.71 814.32 2574.6
1138.82 812.49 2568.8
1133.12 803.72 2541.0
1126.89 794.69 2512.5
1120.93 785.94 2484.8
1140.26 794.92 2513.2
1174.46 814.12 2573.9
1168.04 805.09 2545.4
1193.94 809.23 2558.4
1234.18 831.88 2630.1
1216.88 815.71 2578.9
1207.60 805.06 2545.3
1201.06 796.36 2517.8
1224.35 798.77 2525.4
1294.77 818.45 2587.6
1293.74 813.59 2572.2
1277.88 799.49 2527.7
1257.90 782.98 2475.5
1285.42 796.04 2516.8
1309.59 806.92 2551.1
1299.46 796.66 2518.7
1317.57 803.72 2541.0
1319.74 801.04 2532.5
1303.95 779.81 2465.4
1342.94 799.21 2526.8
1352.23 800.83 2531.9
1370.64 807.82 2554.0
1386.40 813.18 2570.9
1376.06 803.25 2539.5
1347.15 782.63 2474.4
1406.97 805.87 2547.8
1431.36 808.45 2556.0
1426.54 791.08 2501.1
1504.41 830.49 2625.7
1535.78 829.05 2621.1
1138.82 830.10 2646.1
1132.84 820.80 2616.5
1110.62 799.91 2549.9
1140.16 816.33 2602.2
1150.06 813.78 2594.1
1154.97 812.51 2590.1
1160.65 811.78 2587.7
1152.47 801.43 2554.7
1170.77 809.50 2580.5
1183.98 813.99 2594.8
1159.55 792.68 2526.9
1165.65 787.95 2511.8
1171.49 787.50 2510.3
1188.96 786.14 2506.0
1234.94 812.11 2588.8
1228.84 803.73 2562.1
1252.42 806.08 2569.6
1287.96 824.57 2628.5
1256.11 799.94 2550.0
1234.60 782.13 2493.2
1258.76 793.28 2528.8
1271.42 797.11 2541.0
1249.52 779.34 2484.3
1286.19 789.99 2518.3
1321.37 807.50 2574.1
1323.65 804.83 2565.6
1313.48 794.65 2533.1
1285.80 774.04 2467.4
1296.61 769.07 2451.6
1318.86 778.45 2481.5
1356.20 796.60 2539.4
1406.54 822.18 2620.9
1393.16 810.44 2583.5
1354.82 784.37 2500.3
1364.07 785.97 2505.4
1361.32 780.66 2488.5
1383.55 785.96 2505.4
1421.37 803.67 2561.9
1416.84 786.41 2506.9
1483.31 819.55 2612.5
1495.71 822.64 2622.4
1515.34 829.67 2644.7
1509.44 819.03 2610.8
1549.66 826.03 2633.1
1144.74 812.83 2612.7
1119.59 785.68 2525.4
1151.78 803.56 2582.9
1154.76 787.33 2530.7
1173.51 795.60 2557.3
1195.19 805.75 2589.9
1222.28 819.40 2633.8
1223.09 815.40 2620.9
1189.50 788.62 2534.8
1190.45 784.91 2522.9
1202.89 788.78 2535.4
1239.01 808.05 2597.3
1223.79 789.54 2537.8
1219.66 774.39 2489.1
1221.97 771.77 2480.7
1232.04 770.03 2475.1
1245.89 774.65 2489.9
1265.95 775.07 2491.3
1332.10 811.43 2608.2
1326.20 799.72 2570.5
1277.43 766.46 2463.6
1299.92 776.07 2494.5
1313.60 780.35 2508.3
1300.83 768.96 2471.7
1318.11 775.36 2492.2
1324.61 775.38 2492.3
1345.64 783.87 2519.6
1387.76 804.50 2585.9
1368.34 789.42 2537.4
1361.58 781.77 2512.8
1400.38 800.22 2572.1
1404.70 798.88 2567.8
1387.15 785.18 2523.8
1393.21 784.91 2522.9
1387.08 777.80 2500.1
1484.54 820.94 2638.7
1434.12 785.82 2525.8
1446.82 789.18 2536.6
1454.29 789.66 2538.2
1517.62 820.34 2636.8
1514.16 814.80 2619.0
1141.12 798.78 2589.1
1152.66 802.15 2600.0
1157.19 800.62 2595.0
1148.35 780.88 2531.1
1137.08 768.82 2492.0
1193.50 802.41 2600.9
1193.10 797.63 2585.4
1197.89 796.37 2581.3
1200.22 793.48 2571.9
1211.72 792.28 2568.0
1202.02 777.39 2519.8
1215.32 777.54 2520.2
1250.13 795.53 2578.6
1217.20 770.46 2497.3
1231.84 775.61 2514.0
1246.55 780.73 2530.6
1244.22 775.19 2512.6
1283.89 795.75 2579.2
1310.91 808.28 2619.9
1308.63 802.72 2601.8
1326.11 805.14 2609.7
1336.84 807.53 2617.5
1313.28 785.33 2545.5
1281.29 762.37 2471.1
1323.87 783.78 2540.5
1364.94 804.10 2606.3
1380.67 809.36 2623.4
1397.38 811.16 2629.2
1349.15 779.36 2526.1
1323.31 760.74 2465.8
1341.65 767.58 2487.9
1372.94 781.72 2533.8
1423.81 806.82 2615.2
1413.99 793.70 2572.6
1412.21 788.98 2557.3
1423.47 791.56 2565.7
1523.23 802.05 2599.7
1178.57 803.88 2627.7
1139.38 763.90 2497.0
1212.32 808.21 2641.9
1226.53 813.09 2657.8
1224.99 807.53 2639.6
1222.55 801.45 2619.7
1177.44 767.61 2509.1
1211.63 785.57 2567.8
1251.72 802.73 2623.9
1218.56 773.07 2527.0
1277.50 801.83 2621.0
1244.46 776.96 2539.7
1214.91 754.52 2466.4
1236.40 763.85 2496.8
1297.98 797.72 2607.5
1294.85 791.67 2587.8
1266.06 770.08 2517.2
1304.00 789.08 2579.3
1315.09 791.74 2588.0
1307.24 767.44 2508.6
1341.10 783.42 2560.8
1358.54 789.69 2581.3
1376.06 795.96 2601.8
1384.95 793.32 2593.2
1344.62 766.50 2505.5
1354.33 768.32 2511.5
1387.07 783.13 2559.9
1426.16 786.39 2570.5
1431.62 774.91 2533.0
1499.69 804.38 2629.3
1526.40 804.08 2628.4
1156.86 805.67 2656.1
1150.73 796.66 2626.4
1149.13 790.87 2607.3
1201.38 812.49 2678.6
1145.50 757.20 2496.3
1232.53 792.34 2612.1
1257.99 804.29 2651.5
1243.75 790.86 2607.2
1194.69 755.56 2490.9
1231.61 762.43 2513.5
1225.56 750.74 2475.0
1276.81 778.06 2565.0
1264.52 766.57 2527.2
1240.31 744.18 2453.4
1271.69 759.12 2502.6
1282.78 750.43 2473.9
1332.10 775.40 2556.3
1344.57 778.78 2567.4
1340.43 772.56 2546.9
1334.85 765.58 2523.9
1337.79 763.52 2517.1
1388.02 788.34 2598.9
1406.01 790.88 2607.3
1416.40 792.91 2614.0
1413.81 776.60 2560.2
1380.07 754.52 2487.4
1452.92 783.37 2582.6
1494.31 798.33 2631.8
1499.75 786.87 2594.1
1521.90 794.92 2620.6
1137.78 776.37 2581.5
1143.45 775.67 2579.2
1136.93 766.77 2549.6
1135.81 761.58 2532.4
1197.69 780.52 2595.3
1242.30 805.07 2676.9
1201.98 774.61 2575.7
1205.90 772.84 2569.8
1239.03 789.71 2625.9
1259.98 798.67 2655.7
1239.91 781.69 2599.2
1199.57 752.16 2501.0
1240.83 761.57 2532.3
1240.23 757.19 2517.8
1229.28 746.58 2482.5
1248.30 754.18 2507.7
1305.01 784.36 2608.1
1290.27 767.54 2552.2
1262.37 747.11 2484.2
1274.59 750.52 2495.6
1289.51 755.47 2512.0
1294.31 754.47 2508.7
1322.65 767.14 2550.8
1405.20 799.03 2656.9
1328.57 751.78 2499.8
1340.21 751.03 2497.3
1340.73 747.72 2486.3
1369.76 760.25 2527.9
1430.36 782.65 2602.4
1387.49 755.63 2512.6
1413.65 762.71 2536.1
1475.10 784.92 2609.9
1462.52 771.15 2564.2
1515.69 791.98 2633.4
1175.82 795.41 2667.8
1137.10 764.72 2564.9
1134.48 758.52 2544.1
1137.28 756.00 2535.6
1136.87 751.38 2520.2
1169.88 768.78 2578.5
1182.71 772.79 2592.0
1166.20 757.70 2541.4
1177.37 760.66 2551.3
1178.02 756.83 2538.4
1177.09 747.87 2508.4
1218.34 769.83 2582.0
1250.79 786.01 2636.3
1266.84 791.77 2655.6
1261.25 784.02 2629.6
1271.06 785.87 2635.8
1275.85 784.61 2631.6
1264.94 773.77 2595.2
1275.56 776.13 2603.2
1286.48 770.55 2584.4
1282.42 764.14 2562.9
1313.86 778.84 2612.2
1280.11 754.94 2532.1
1272.72 746.75 2504.6
1305.66 762.19 2556.4
1315.41 764.00 2562.5
1317.65 761.46 2554.0
1302.50 748.94 2512.0
1324.24 757.65 2541.2
1368.53 779.11 2613.2
1375.29 779.10 2613.1
1390.62 783.93 2629.3
1333.41 748.01 2508.9
1379.39 755.38 2533.6
1382.22 753.35 2526.7
1404.13 761.68 2554.7
1402.29 757.11 2539.4
1372.22 737.41 2473.3
1429.04 764.37 2563.7
1417.99 751.47 2520.5
1427.61 749.66 2514.4
1439.35 752.39 2523.5
1177.69 789.75 2672.1
1167.91 778.61 2634.4
1188.63 787.81 2665.5
1204.34 793.61 2685.2
1222.12 800.70 2709.1
1215.08 787.04 2662.9
1203.14 774.90 2621.9
1222.59 783.01 2649.3
1242.15 791.09 2676.6
1238.13 784.15 2653.1
1228.26 773.60 2617.4
1242.96 778.56 2634.2
1247.79 777.31 2630.0
1233.05 763.96 2584.8
1254.46 773.02 2615.5
1280.08 776.22 2626.3
1275.45 769.32 2603.0
1302.33 781.40 2643.8
1292.24 763.29 2582.6
1256.84 738.55 2498.9
1257.29 735.03 2486.9
1286.59 748.33 2531.9
1334.56 772.28 2613.0
1342.79 769.24 2602.7
1302.79 742.59 2512.5
1346.45 763.66 2583.8
1374.26 771.75 2611.2
1339.39 748.48 2532.5
1338.70 744.45 2518.8
1380.06 752.76 2546.9
1397.86 755.24 2555.3
1372.27 737.92 2496.7
1414.77 757.20 2562.0
1431.69 762.68 2580.5
1390.70 737.39 2494.9
1445.13 752.26 2545.2
1197.97 791.64 2702.2
1198.41 773.83 2641.4
1214.99 780.08 2662.7
1230.05 785.28 2680.5
1228.23 771.05 2631.9
1189.97 742.91 2535.8
1213.57 753.48 2571.9
1228.22 758.41 2588.7
1198.39 735.97 2512.1
1202.51 734.51 2507.2
1243.98 755.75 2579.7
1254.55 758.09 2587.7
1226.16 737.00 2515.7
1255.02 742.50 2534.4
1323.28 774.77 2644.6
1291.46 752.24 2567.7
1293.80 749.74 2559.2
1325.46 764.17 2608.4
1362.19 773.50 2640.3
1331.59 752.35 2568.1
1390.59 781.78 2668.5
1410.29 781.19 2666.5
1399.36 767.61 2620.2
1365.81 745.59 2545.0
1354.01 735.59 2510.9
1408.50 761.53 2599.4
1378.64 738.32 2520.2
1398.69 742.03 2532.8
1435.76 758.14 2587.8
1419.76 746.20 2547.1
1453.09 749.77 2559.3
1176.56 784.37 2701.3
1184.06 784.70 2702.4
1181.94 756.44 2605.1
1173.16 746.56 2571.0
1161.40 734.90 2530.9
1192.72 746.28 2570.1
1188.45 739.48 2546.7
1197.23 740.83 2551.3
1256.29 768.88 2647.9
1196.58 728.35 2508.4
1203.20 728.42 2508.6
1246.38 750.51 2584.7
1245.13 745.75 2568.3
1221.28 719.91 2479.3
1243.71 729.29 2511.6
1288.69 751.74 2588.9
1321.43 766.84 2640.9
1320.46 762.33 2625.4
1326.41 761.83 2623.7
1369.61 770.83 2654.7
1347.51 750.85 2585.8
1327.25 735.90 2534.4
1356.40 748.36 2577.2
1392.22 753.28 2594.2
1373.61 739.64 2547.2
1398.51 735.37 2532.5
1434.19 750.61 2585.0
1448.84 754.75 2599.3
1449.81 751.75 2588.9
1164.58 764.90 2657.9
1178.36 756.06 2627.2
1207.57 770.34 2676.9
1210.60 767.87 2668.3
1175.04 741.08 2575.2
1190.36 734.06 2550.8
1249.96 758.17 2634.6
1218.10 734.83 2553.5
1249.10 749.46 2604.3
1270.63 758.28 2635.0
1245.42 739.26 2568.9
1242.40 733.55 2549.0
1275.93 749.36 2603.9
1254.49 732.89 2546.7
1236.24 718.45 2496.5
1270.00 734.22 2551.3
1292.27 743.22 2582.6
1291.17 738.76 2567.1
1296.12 737.79 2563.8
1300.62 736.57 2559.5
1286.58 724.93 2519.0
1305.55 731.90 2543.3
1349.93 752.98 2616.5
1379.15 761.62 2646.6
1341.92 737.39 2562.4
1354.89 740.85 2574.4
1371.07 746.02 2592.4
1352.75 732.46 2545.2
1408.20 758.79 2636.7
1405.65 750.13 2606.6
1430.40 752.48 2614.8
1382.92 724.08 2516.1
1423.20 738.20 2565.2
1452.96 746.66 2594.6
1418.69 725.69 2521.7
1191.95 753.53 2642.2
1217.65 756.73 2653.5
1184.46 731.97 2566.6
1194.90 734.30 2574.8
1247.96 762.64 2674.2
1260.30 765.93 2685.7
1228.89 742.73 2604.4
1209.16 726.82 2548.6
1207.95 722.14 2532.2
1229.28 730.92 2563.0
1239.80 733.21 2571.0
1248.24 734.26 2574.7
1282.15 750.19 2630.5
1272.19 732.68 2569.1
1291.43 739.88 2594.4
1286.49 733.23 2571.1
1253.58 710.79 2492.4
1326.19 736.77 2583.5
1371.57 758.15 2658.5
1383.62 749.75 2629.0
1372.27 739.95 2594.6
1345.29 721.86 2531.2
1386.58 740.41 2596.2
1417.00 749.37 2627.7
1362.28 716.99 2514.1
1428.66 730.94 2563.0
1149.61 724.32 2563.1
1218.12 763.07 2700.3
1198.55 738.09 2611.9
1201.37 735.67 2603.3
1249.00 760.56 2691.4
1247.02 755.14 2672.2
1209.57 728.41 2577.6
1241.57 743.58 2631.3
1281.69 763.41 2701.5
1241.59 735.51 2602.7
1226.62 722.71 2557.4
1220.29 715.12 2530.6
1210.46 705.56 2496.7
1222.56 708.83 2508.3
1246.65 718.97 2544.2
1299.58 745.55 2638.3
1303.38 739.94 2618.4
1252.93 707.61 2504.0
1254.61 697.72 2469.0
1338.28 740.47 2620.3
1364.76 747.53 2645.3
1369.04 724.40 2563.4
1386.57 706.24 2499.2
1408.77 707.63 2504.1
1448.66 724.33 2563.2
1198.31 752.43 2687.2
1185.46 731.60 2612.8
1190.95 718.56 2566.3
1176.40 705.84 2520.9
1233.99 732.26 2615.2
1272.02 750.70 2681.1
1228.50 721.08 2575.3
1225.20 715.25 2554.5
1231.08 714.82 2552.9
1234.40 712.91 2546.1
1260.63 724.19 2586.4
1251.18 714.96 2553.4
1266.87 720.12 2571.8
1295.55 732.56 2616.3
1272.97 716.05 2557.3
1244.93 696.65 2488.0
1246.67 694.02 2478.7
1260.62 698.19 2493.5
1307.16 720.27 2572.4
1342.98 736.25 2629.5
1317.00 718.36 2565.6
1296.98 703.89 2513.9
1347.76 727.79 2599.3
1393.26 737.61 2634.3
1404.15 739.74 2641.9
1406.30 726.70 2595.4
1402.39 717.81 2563.6
1444.79 729.15 2604.1
1404.63 705.58 2519.9
1216.97 744.09 2682.3
1188.99 722.85 2605.7
1172.00 708.50 2554.0
1176.72 707.35 2549.9
1182.64 706.94 2548.4
1188.13 706.28 2546.0
1201.86 710.49 2561.2
1197.43 703.98 2537.7
1239.73 717.03 2584.8
1288.22 741.07 2671.4
1291.57 731.21 2635.9
1276.57 718.91 2591.5
1274.73 714.11 2574.2
1271.07 708.36 2553.5
1264.29 700.92 2526.7
1265.67 698.07 2516.4
1276.64 700.51 2525.2
1279.72 698.62 2518.4
1273.94 691.94 2494.3
1284.46 694.13 2502.2
1299.01 698.46 2517.8
1339.42 709.50 2557.6
1391.74 733.58 2644.4
1375.39 721.40 2600.5
1376.17 718.30 2589.3
1417.88 729.39 2629.3
1380.75 700.19 2524.0
1439.41 719.71 2594.4
1418.97 702.92 2533.9
1204.15 725.23 2639.0
1185.19 709.78 2582.7
1184.28 705.25 2566.3
1216.78 720.55 2622.0
1250.75 736.56 2680.2
1259.82 737.80 2684.7
1244.89 725.04 2638.3
1233.07 714.24 2599.0
1277.08 735.71 2677.1
1273.07 717.79 2611.9
1245.29 698.41 2541.4
1242.94 693.43 2523.3
1255.60 696.82 2535.6
1268.30 700.21 2547.9
1249.76 686.40 2497.7
1286.09 699.10 2543.9
1328.81 718.64 2615.0
1333.82 717.69 2611.5
1359.23 727.67 2647.8
1344.24 716.03 2605.5
1275.86 676.21 2460.6
1303.17 683.84 2488.4
1375.28 718.13 2613.1
1384.96 712.65 2593.2
1409.16 714.69 2600.6
1388.88 701.06 2551.0
1433.04 713.15 2595.0
1205.22 719.02 2641.3
1171.27 694.82 2552.4
1185.75 699.46 2569.4
1235.84 724.94 2663.0
1260.06 735.04 2700.1
1258.86 730.28 2682.7
1251.37 721.94 2652.0
1246.65 715.29 2627.6
1282.38 731.79 2688.2
1216.22 686.58 2522.1
1214.75 674.86 2479.1
1229.11 675.69 2482.1
1285.00 702.73 2581.5
1309.99 712.69 2618.0
1263.53 683.87 2512.2
1282.39 690.52 2536.6
1356.19 722.84 2655.3
1347.63 711.06 2612.1
1307.86 686.63 2522.3
1308.59 683.59 2511.1
1364.84 699.07 2568.0
1390.26 708.63 2603.1
1385.01 702.54 2580.8
1378.28 695.76 2555.9
1386.26 696.45 2558.4
1393.79 696.89 2560.0
1432.86 699.77 2570.6
1417.10 688.87 2530.5
1195.57 714.59 2650.3
1229.84 722.62 2680.0
1268.96 733.18 2719.2
1260.37 724.19 2685.9
1245.83 711.90 2640.3
1224.83 696.08 2581.6
1240.82 701.33 2601.1
1283.77 721.69 2676.6
1222.79 683.71 2535.7
1282.12 705.50 2616.6
1265.14 688.87 2554.9
1257.96 681.39 2527.1
1270.78 677.75 2513.6
1247.41 661.89 2454.8
1270.66 670.81 2487.9
1295.83 680.64 2524.3
1315.34 687.41 2549.5
1321.52 687.19 2548.7
1304.78 675.11 2503.8
1311.61 668.66 2479.9
1401.16 710.83 2636.3
1435.61 684.88 2540.1
1223.88 716.25 2682.2
1245.37 716.61 2683.6
1255.26 718.29 2689.8
1267.24 721.14 2700.5
1277.19 722.81 2706.8
1280.49 720.71 2698.9
1269.52 710.66 2661.3
1289.50 717.94 2688.5
1296.84 710.50 2660.7
1275.09 684.03 2561.6
1272.64 679.18 2543.4
1248.06 655.87 2456.1
1312.90 679.54 2544.8
1336.54 688.32 2577.6
1314.24 670.13 2509.5
1320.32 669.91 2508.7
1334.73 670.62 2511.3
1393.53 696.76 2609.2
1379.53 686.43 2570.5
1210.58 713.75 2699.1
1196.87 701.61 2653.2
1223.74 709.21 2681.9
1234.53 707.43 2675.1
1213.29 691.37 2614.4
1223.86 693.52 2622.6
1226.19 691.00 2613.0
1225.99 687.10 2598.3
1283.26 715.26 2704.8
1284.72 708.33 2678.6
1246.48 683.55 2584.9
1214.63 662.53 2505.3
1247.31 669.61 2532.1
1240.21 655.45 2478.6
1254.16 659.40 2493.5
1338.42 700.09 2647.4
1317.49 685.63 2592.7
1268.00 656.53 2482.7
1324.29 682.21 2579.8
1340.81 687.25 2598.8
1326.92 676.73 2559.1
1348.42 684.27 2587.6
1349.24 681.30 2576.3
1374.50 690.64 2611.7
1384.43 692.21 2617.6
1342.00 661.28 2500.6
1407.23 677.06 2560.3
1212.35 691.79 2641.9
1211.13 687.22 2624.4
1222.12 689.58 2633.5
1217.92 683.39 2609.8
1263.91 697.57 2664.0
1272.54 698.52 2667.6
1252.45 669.30 2556.0
1248.38 663.62 2534.3
1245.96 658.86 2516.1
1294.62 674.00 2574.0
1367.95 690.82 2638.2
1374.76 690.80 2638.1
1368.00 684.00 2612.2
1387.90 690.53 2637.1
1376.02 681.26 2601.7
1430.17 687.84 2626.8
1432.89 679.45 2594.8
1188.53 691.01 2665.3
1219.49 688.98 2657.5
1194.64 671.15 2588.7
1206.81 666.74 2571.7
1274.65 700.36 2701.4
1261.23 689.20 2658.3
1274.95 681.79 2629.8
1258.50 662.37 2554.8
1272.53 666.25 2569.8
1365.55 679.38 2620.5
1320.76 653.84 2522.0
1384.38 668.78 2579.6
1400.74 673.43 2597.5
1407.65 667.13 2573.2
1401.07 657.78 2537.1
1233.52 697.82 2718.8
1234.85 686.80 2675.8
1212.75 670.74 2613.3
1239.56 674.27 2627.0
1236.42 668.88 2606.0
1231.92 662.83 2582.4
1240.80 664.00 2587.0
1281.86 682.28 2658.2
1231.44 645.04 2513.1
1248.96 647.37 2522.2
1309.43 675.17 2630.5
1296.63 665.11 2591.3
1263.53 644.79 2512.2
1259.29 632.84 2465.6
1277.33 638.67 2488.3
1306.64 650.04 2532.6
1370.23 678.26 2642.6
1378.85 679.13 2646.0
1337.71 655.61 2554.3
1337.52 652.29 2541.4
1346.39 653.39 2545.7
1341.08 647.64 2523.3
1391.06 665.29 2592.0
1433.16 672.43 2619.9
1245.55 689.63 2714.3
1215.71 661.88 2605.1
1226.06 660.18 2598.4
1246.66 667.61 2627.6
1264.45 673.45 2650.6
1277.69 676.83 2663.9
1215.63 633.68 2494.1
1243.84 641.56 2525.1
1237.05 634.71 2498.1
1229.27 627.44 2469.5
1286.38 653.19 2570.9
1317.18 665.38 2618.8
1301.13 643.99 2534.7
1345.30 662.51 2607.5
1384.54 671.71 2643.7
1383.16 667.73 2628.1
1397.23 671.22 2641.8
1393.48 666.15 2621.9
1402.99 667.44 2626.9
1413.23 665.85 2620.7
1386.01 649.90 2557.9
1211.84 683.42 2717.6
1204.20 675.19 2684.8
1269.15 680.15 2704.6
1275.37 679.73 2702.9
1268.61 672.43 2673.9
1228.56 647.66 2575.4
1285.05 659.52 2622.5
1285.72 652.96 2596.4
1243.79 628.37 2498.7
1268.25 637.41 2534.6
1292.95 636.63 2531.5
1311.13 642.32 2554.2
1310.17 638.62 2539.4
1335.64 647.79 2575.9
1349.74 644.95 2564.6
1393.80 662.74 2635.3
1349.86 635.61 2527.5
1394.45 650.30 2585.9
1420.95 653.23 2597.5
1432.31 655.35 2606.0
1460.33 652.77 2595.7
1218.29 672.16 2700.6
1185.47 650.32 2612.9
1197.19 649.33 2608.9
1235.53 666.35 2677.3
1259.84 668.20 2684.8
1238.96 653.52 2625.7
1258.38 660.13 2652.3
1239.68 646.79 2598.7
1200.91 623.18 2503.8
1222.77 631.11 2535.7
1226.88 629.84 2530.6
1263.45 645.17 2592.2
1292.90 643.10 2583.9
1275.08 627.73 2522.1
1350.42 658.07 2644.0
1393.13 662.08 2660.2
1406.64 655.52 2633.8
1425.04 654.57 2630.0
1405.15 642.35 2580.9
1407.56 640.41 2573.1
1433.06 642.87 2582.9
1205.93 666.06 2704.3
1208.07 659.58 2678.0
1230.82 668.16 2712.8
1221.31 659.23 2676.6
1216.11 652.72 2650.1
1214.89 648.39 2632.6
1217.69 646.26 2623.9
1243.14 656.10 2663.9
1252.60 657.44 2669.3
1248.74 651.82 2646.5
1272.01 653.20 2652.1
1263.66 645.42 2620.5
1237.28 628.57 2552.1
1229.00 621.04 2521.5
1239.49 623.02 2529.6
1244.40 622.20 2526.2
1297.82 645.51 2620.9
1312.42 632.90 2569.7
1285.65 616.85 2504.5
1388.31 656.17 2664.1
1415.22 655.83 2662.8
1416.52 653.25 2652.3
1412.23 648.12 2631.5
1401.81 640.25 2599.5
1412.22 641.92 2606.3
1435.73 649.50 2637.0
1412.48 632.95 2569.9
1200.20 663.64 2723.1
1226.01 670.03 2749.4
1236.67 656.77 2694.9
1261.52 658.79 2703.3
1251.15 649.77 2666.2
1229.36 634.94 2605.4
1258.79 646.59 2653.2
1256.05 641.68 2633.0
1258.70 639.56 2624.3
1271.49 642.58 2636.7
1228.51 617.54 2534.0
1246.49 610.26 2504.1
1302.90 634.57 2603.9
1298.83 619.75 2543.0
1315.21 621.25 2549.2
1358.72 638.60 2620.4
1377.23 644.08 2642.9
1338.24 622.74 2555.3
1342.58 621.69 2551.0
1376.61 634.32 2602.8
1363.49 616.19 2528.4
1391.45 625.82 2568.0
1432.19 641.08 2630.6
1420.15 632.67 2596.1
1422.06 624.64 2563.1
1248.86 641.68 2661.3
1223.70 625.30 2593.4
1249.36 634.92 2633.3
1258.34 636.01 2637.8
1269.88 638.37 2647.6
1263.62 631.81 2620.4
1237.48 612.16 2538.9
1288.86 634.20 2630.3
1274.10 617.14 2559.6
1247.05 597.81 2479.4
1308.68 624.14 2588.6
1344.64 638.02 2646.2
1299.45 613.45 2544.2
1304.73 612.83 2541.7
1362.46 636.73 2640.8
1355.77 630.43 2614.7
1325.91 613.48 2544.4
1379.08 628.70 2607.5
1394.98 632.84 2624.7
1384.17 615.92 2554.5
1424.44 630.82 2616.3
1412.82 622.71 2582.7
1203.40 647.44 2714.4
1219.52 644.80 2703.4
1237.89 643.43 2697.6
1212.18 626.52 2626.7
1221.14 627.62 2631.3
1252.01 639.92 2682.9
1251.54 636.14 2667.1
1262.68 638.28 2676.0
1253.73 630.29 2642.5
1226.54 613.27 2571.2
1221.03 607.21 2545.8
1234.22 603.98 2532.2
1297.22 631.45 2647.4
1259.07 600.18 2516.3
1268.29 601.46 2521.6
1314.60 620.22 2600.3
1336.86 627.50 2630.8
1315.19 614.20 2575.1
1345.11 625.00 2620.3
1362.20 629.76 2640.3
1323.98 609.03 2553.4
1376.27 629.93 2641.0
1350.67 612.13 2566.4
1377.44 621.20 2604.4
1378.86 615.80 2581.8
1387.61 610.81 2560.9
1429.77 626.38 2626.1
1430.47 620.77 2602.6
1202.64 655.33 2777.7
1235.89 661.57 2804.1
1215.08 646.62 2740.8
1206.73 638.45 2706.1
1204.63 633.65 2685.8
1236.60 646.73 2741.2
1206.27 623.70 2643.6
1218.29 615.91 2610.6
1233.03 619.92 2627.6
1252.43 626.22 2654.3
1252.66 622.91 2640.3
1224.60 605.65 2567.1
1217.80 599.03 2539.0
1235.52 604.48 2562.1
1250.77 608.66 2579.9
1248.95 604.54 2562.4
1242.31 598.15 2535.3
1268.33 601.14 2548.0
1334.84 626.14 2654.0
1318.75 615.42 2608.5
1331.87 609.05 2581.5
1362.44 619.91 2627.6
1401.41 625.14 2649.7
1412.24 623.85 2644.3
1368.09 601.43 2549.2
1357.48 593.90 2517.3
1398.50 608.92 2581.0
1404.20 608.49 2579.1
1396.25 602.18 2552.4
1396.72 591.17 2505.7
1211.29 648.91 2781.0
1202.09 640.16 2743.6
1193.87 628.35 2692.9
1231.62 644.45 2761.9
1213.22 631.15 2704.9
1229.96 636.18 2726.5
1241.77 635.00 2721.4
1197.36 598.68 2565.8
1199.54 596.46 2556.2
1209.61 598.16 2563.5
1259.12 619.24 2653.9
1259.01 612.49 2625.0
