ply
format ascii 1.0
element vertex 2105
property float x
property float y
property float z
end_header
131.39 -868.86 1634.8
144.50 -871.23 1639.2
152.18 -843.15 1586.4
165.28 -891.62 1677.6
165.32 -869.00 1635.1
166.33 -852.46 1603.9
168.87 -844.34 1588.7
200.77 -894.73 1683.5
197.82 -844.84 1589.6
204.25 -837.42 1575.6
208.98 -840.00 1580.5
219.94 -850.73 1600.7
236.30 -897.07 1687.9
237.86 -886.57 1668.1
231.18 -846.29 1592.3
238.35 -857.21 1612.9
244.83 -865.33 1628.1
238.93 -830.19 1562.0
241.95 -826.68 1555.4
255.87 -859.89 1617.9
267.71 -885.17 1665.5
273.08 -888.60 1671.9
274.86 -880.42 1656.5
290.68 -851.27 1601.7
295.21 -852.35 1603.7
297.14 -846.02 1591.8
343.36 -858.40 1615.1
358.04 -884.32 1663.9
353.33 -862.29 1622.4
350.31 -844.88 1589.7
360.27 -858.79 1615.8
371.53 -875.44 1647.2
375.44 -874.60 1645.6
367.15 -845.69 1591.2
409.28 -839.02 1578.6
415.87 -844.08 1588.2
429.32 -862.85 1623.5
441.11 -877.94 1651.9
435.90 -859.23 1616.7
431.92 -843.27 1586.6
444.76 -836.48 1573.9
455.68 -849.23 1597.8
461.30 -851.95 1603.0
473.64 -866.94 1631.2
456.24 -813.30 1530.2
474.83 -839.15 1578.9
489.26 -857.25 1613.0
484.55 -841.81 1583.9
489.17 -842.68 1585.5
497.76 -850.34 1599.9
491.73 -833.10 1567.5
537.99 -868.41 1633.9
545.55 -873.73 1644.0
540.81 -827.36 1556.7
566.66 -841.77 1583.8
601.88 -881.33 1658.2
595.02 -835.47 1572.0
613.67 -855.80 1610.2
632.05 -835.94 1572.8
682.80 -838.16 1577.0
699.80 -834.06 1569.3
750.08 -888.82 1672.3
743.09 -875.48 1647.2
719.65 -828.81 1559.4
729.56 -835.53 1572.1
724.28 -824.88 1552.0
756.14 -851.70 1602.5
750.41 -840.62 1581.7
751.17 -836.90 1574.7
758.92 -840.97 1582.3
753.39 -830.35 1562.3
763.50 -837.00 1574.8
758.65 -827.25 1556.5
807.54 -836.09 1573.1
798.48 -822.56 1547.7
811.18 -815.16 1533.7
820.65 -801.11 1507.3
828.17 -804.62 1513.9
835.92 -800.76 1506.7
804.40 -759.91 1429.8
957.80 -776.08 1460.2
950.59 -761.21 1432.2
985.30 -785.94 1478.8
1023.74 -813.44 1530.5
1036.88 -820.69 1544.2
967.90 -760.22 1430.4
1029.87 -784.85 1476.7
1039.48 -789.23 1485.0
1054.55 -794.79 1495.4
1044.62 -784.42 1475.9
1075.90 -796.25 1498.2
1112.50 -820.37 1543.5
1092.73 -802.90 1510.7
1112.00 -799.86 1505.0
1120.76 -803.34 1511.5
1083.96 -774.26 1456.8
1071.73 -762.86 1435.4
1146.60 -813.34 1530.3
1170.93 -827.73 1557.4
1068.94 -753.03 1416.9
1131.08 -778.09 1464.0
1120.67 -768.35 1445.7
1174.13 -794.38 1494.7
1202.45 -810.86 1525.7
1191.94 -801.14 1507.4
1177.93 -789.13 1484.8
1148.88 -767.17 1443.4
1139.85 -758.67 1427.5
1153.87 -765.51 1440.3
1154.62 -763.54 1436.6
1160.14 -762.27 1434.2
1182.98 -774.80 1457.8
1186.06 -774.34 1456.9
1182.70 -769.69 1448.2
1172.85 -760.87 1431.6
1174.11 -759.28 1428.6
1177.71 -759.22 1428.5
1184.26 -761.04 1431.9
-1500.36 -971.93 1819.8
-1475.50 -971.09 1818.3
-1499.67 -990.17 1854.0
-1508.54 -1005.69 1883.1
-1423.92 -961.73 1800.7
-1435.47 -992.31 1858.0
-1404.65 -974.27 1824.2
-1390.88 -971.26 1818.6
-1428.93 -1001.22 1874.7
-1432.25 -1006.98 1885.5
-1431.10 -1009.61 1890.4
-1338.84 -960.98 1799.3
-1365.13 -983.28 1841.1
-1273.17 -936.69 1753.9
-1231.34 -915.72 1714.6
-1234.03 -921.05 1724.6
-1220.71 -914.43 1712.2
-1201.60 -903.39 1691.5
-1179.38 -889.94 1666.3
-1169.93 -886.05 1659.0
-1218.45 -926.20 1734.2
-1186.78 -908.84 1701.7
-1132.42 -873.70 1635.9
-1120.49 -867.75 1624.8
-1105.49 -859.36 1609.1
-1094.16 -853.78 1598.6
-1078.75 -844.95 1582.1
-1054.85 -835.77 1564.9
-1043.76 -833.39 1560.4
-1086.35 -870.77 1630.4
-1074.62 -864.73 1619.1
-1066.95 -861.93 1613.9
-1063.83 -862.79 1615.5
-1076.79 -883.74 1654.7
-1047.25 -862.94 1615.8
-1032.54 -857.67 1605.9
-1055.94 -880.66 1649.0
-1037.98 -869.21 1627.5
-1022.07 -859.37 1609.1
-1014.50 -856.50 1603.7
-1005.50 -852.40 1596.0
-1047.93 -903.24 1691.2
-1037.86 -898.31 1682.0
-994.46 -864.38 1618.5
-968.89 -845.73 1583.5
-953.40 -835.75 1564.8
-956.10 -848.95 1589.6
-965.96 -861.42 1612.9
-960.36 -860.15 1610.5
-968.68 -871.39 1631.6
-980.61 -885.99 1658.9
-950.96 -862.99 1615.9
-954.09 -869.66 1628.3
-988.27 -904.82 1694.2
-950.14 -873.79 1636.1
-935.71 -868.27 1625.7
-957.61 -892.61 1671.3
-924.04 -865.24 1620.1
-934.27 -882.85 1653.0
-940.62 -892.94 1671.9
-902.59 -860.80 1611.8
-903.33 -869.56 1628.2
-916.56 -886.44 1659.8
-899.98 -887.06 1660.9
-908.93 -900.19 1685.5
-885.68 -881.40 1650.3
-850.63 -858.97 1608.3
-846.83 -881.05 1649.7
-877.37 -917.46 1717.8
-861.80 -910.42 1704.7
-804.87 -863.56 1616.9
-802.95 -866.01 1621.5
-795.48 -871.64 1632.1
-789.94 -870.20 1629.4
-789.10 -873.95 1636.4
-770.82 -872.47 1633.6
-777.15 -884.49 1656.1
-737.80 -863.56 1616.9
-756.48 -890.49 1667.4
-730.20 -864.49 1618.7
-732.82 -877.68 1643.4
-677.53 -888.99 1664.5
-691.85 -913.59 1710.6
-668.53 -888.50 1663.6
-640.11 -856.25 1603.3
-649.62 -874.65 1637.7
-644.52 -873.50 1635.5
-581.56 -849.65 1590.9
-583.56 -871.11 1631.1
-596.15 -896.40 1678.4
-577.04 -874.04 1636.6
-575.58 -891.50 1669.3
-584.62 -912.37 1708.3
-567.86 -921.09 1724.7
-559.30 -914.41 1712.1
-542.28 -893.68 1673.3
-538.81 -895.12 1676.0
-546.16 -914.70 1712.7
-513.77 -896.92 1679.4
-506.61 -891.97 1670.1
-480.63 -876.19 1640.6
-475.15 -873.94 1636.4
-460.10 -861.64 1613.3
-473.58 -895.02 1675.8
-466.85 -890.47 1667.3
-458.25 -882.25 1651.9
-433.35 -850.19 1591.9
-448.65 -888.67 1663.9
-444.10 -888.21 1663.1
-416.64 -894.05 1674.0
-415.26 -900.46 1686.0
-406.88 -891.67 1669.6
-409.40 -906.84 1698.0
-409.71 -917.40 1717.7
-401.17 -908.13 1700.4
-387.46 -886.86 1660.6
-378.74 -876.64 1641.4
-370.71 -867.79 1624.9
-363.34 -860.32 1610.9
-366.07 -876.87 1641.9
-330.95 -852.20 1595.7
-310.72 -876.83 1641.8
-308.20 -881.80 1651.1
-292.81 -849.57 1590.7
-270.94 -914.96 1713.2
-234.87 -864.00 1617.8
-231.62 -867.52 1624.3
-235.19 -897.22 1680.0
-222.54 -898.88 1683.1
-220.50 -908.48 1701.0
-205.08 -898.86 1683.0
-204.43 -915.47 1714.1
-178.69 -876.45 1641.1
-183.44 -921.66 1725.7
-171.81 -907.50 1699.2
-167.70 -909.09 1702.2
-161.29 -898.00 1681.4
-152.45 -872.35 1633.4
-145.85 -858.42 1607.3
-143.10 -867.03 1623.4
-139.97 -873.76 1636.0
-134.29 -864.51 1618.7
-130.26 -865.59 1620.7
-129.77 -891.10 1668.5
-127.58 -906.28 1696.9
-121.09 -890.90 1668.1
-115.24 -879.28 1646.4
-110.75 -877.52 1643.1
-94.70 -848.22 1588.2
-91.80 -859.61 1609.5
-59.26 -872.02 1632.8
-56.34 -892.81 1671.7
-53.00 -909.82 1703.5
-48.23 -903.28 1691.3
-43.30 -892.02 1670.2
-38.15 -873.23 1635.0
-25.68 -881.81 1651.1
-21.13 -870.53 1630.0
-16.69 -859.72 1609.7
-12.38 -850.31 1592.1
-8.32 -857.39 1605.4
-4.29 -884.25 1655.7
0.00 -870.59 1630.1
17.22 -887.04 1660.9
50.72 -870.73 1630.4
53.96 -855.13 1601.2
61.92 -850.30 1592.1
67.68 -871.42 1631.6
72.76 -881.70 1650.9
76.17 -871.73 1632.2
79.92 -866.47 1622.4
86.58 -891.80 1669.8
100.12 -859.40 1609.1
104.23 -858.82 1608.1
106.24 -841.78 1576.1
127.31 -874.19 1636.8
132.59 -881.10 1649.8
143.85 -846.68 1585.3
151.87 -869.06 1627.2
155.22 -864.20 1618.1
168.53 -867.91 1625.1
170.65 -857.40 1605.4
172.48 -845.97 1584.0
178.11 -853.28 1597.7
179.31 -839.50 1571.9
205.93 -902.60 1690.0
198.70 -852.75 1596.7
215.70 -871.28 1631.4
226.37 -896.77 1679.1
227.65 -884.84 1656.8
232.25 -886.00 1658.9
235.86 -883.41 1654.1
231.32 -850.92 1593.3
255.92 -850.31 1592.1
257.11 -840.71 1574.1
255.02 -820.86 1537.0
341.56 -827.77 1549.9
357.20 -855.61 1602.0
396.92 -851.72 1594.8
400.86 -851.31 1594.0
415.89 -848.25 1588.3
436.62 -864.84 1619.3
437.32 -857.98 1606.5
437.48 -850.20 1591.9
433.06 -833.74 1561.1
428.72 -817.75 1531.2
433.67 -819.60 1534.6
440.10 -824.18 1543.2
466.20 -842.43 1577.4
460.11 -824.19 1543.2
468.72 -832.37 1558.5
489.55 -861.94 1613.9
492.67 -860.08 1610.4
490.25 -848.67 1589.1
492.23 -845.00 1582.2
527.47 -829.45 1553.1
535.21 -835.25 1563.9
529.32 -819.84 1535.1
541.74 -832.83 1559.4
537.47 -820.14 1535.6
601.09 -848.12 1588.0
619.45 -868.07 1625.4
585.08 -814.37 1524.8
613.54 -820.71 1536.7
641.13 -852.09 1595.4
700.23 -868.97 1627.1
699.28 -862.58 1615.1
656.31 -804.76 1506.8
712.32 -853.13 1597.4
750.85 -894.08 1674.1
747.14 -874.49 1637.4
731.65 -851.52 1594.4
731.54 -841.88 1576.3
745.69 -853.40 1597.9
757.45 -843.43 1579.2
767.58 -850.11 1591.7
773.82 -852.44 1596.1
799.73 -815.57 1527.1
820.81 -820.81 1536.9
827.49 -823.49 1541.9
841.49 -833.40 1560.5
822.79 -810.98 1518.5
807.38 -792.00 1482.9
823.10 -803.60 1504.7
819.72 -796.52 1491.4
840.03 -808.62 1514.1
839.66 -804.51 1506.4
845.90 -806.74 1510.5
831.71 -789.55 1478.3
963.54 -784.54 1469.0
987.12 -779.10 1458.8
1004.29 -789.63 1478.5
1030.34 -800.94 1499.7
1048.45 -802.91 1503.4
1077.02 -821.73 1538.6
1063.05 -808.07 1513.0
1053.20 -797.64 1493.5
1085.11 -818.80 1533.1
1108.68 -833.53 1560.7
1092.41 -818.32 1532.2
1084.37 -800.64 1499.1
1086.05 -799.02 1496.1
1071.85 -774.74 1450.6
1085.98 -782.21 1464.6
1084.79 -778.63 1457.9
1109.43 -793.55 1485.8
1096.67 -781.71 1463.7
1138.44 -803.14 1503.8
1165.06 -819.12 1533.7
1092.82 -757.98 1419.2
1139.82 -787.93 1475.3
1155.97 -796.42 1491.2
1127.49 -774.21 1449.6
1161.32 -789.54 1478.3
1171.32 -793.73 1486.2
1185.93 -800.99 1499.8
1198.29 -806.69 1510.4
1122.56 -745.96 1396.7
1173.99 -772.66 1446.7
1214.97 -797.08 1492.5
1228.04 -803.10 1503.7
1235.87 -805.66 1508.5
1213.78 -788.77 1476.9
1195.70 -774.58 1450.3
1188.73 -767.64 1437.3
-1453.52 -983.26 1832.2
-1445.03 -1000.41 1864.1
-1423.72 -988.96 1842.8
-1461.88 -1029.28 1917.9
-1483.86 -1051.91 1960.1
-1389.26 -1005.51 1873.6
-1338.35 -975.48 1817.7
-1214.26 -904.14 1684.7
-1228.28 -921.21 1716.5
-1196.92 -917.64 1709.9
-1158.10 -891.18 1660.6
-1126.87 -876.93 1634.0
-1138.28 -889.14 1656.8
-1097.94 -860.89 1604.1
-1054.52 -839.56 1564.4
-1080.03 -863.19 1608.4
-1073.39 -861.21 1604.7
-1080.42 -870.22 1621.5
-1046.91 -853.19 1589.8
-1049.20 -861.85 1605.9
-1051.54 -867.21 1615.9
-1057.31 -875.46 1631.3
-1057.58 -879.19 1638.2
-1032.19 -861.54 1605.4
-1009.37 -845.91 1576.2
-1002.35 -843.44 1571.6
-997.78 -843.03 1570.9
-1023.40 -868.22 1617.8
-1048.83 -893.45 1664.8
-1016.02 -869.07 1619.4
-996.26 -862.87 1607.8
-1026.48 -892.78 1663.6
-1026.01 -896.13 1669.8
-985.17 -864.11 1610.1
-956.86 -842.85 1570.5
-972.08 -859.92 1602.3
-997.50 -886.19 1651.3
-1018.05 -908.34 1692.6
-1011.64 -910.48 1696.5
-1005.87 -909.24 1694.2
-1009.81 -916.80 1708.3
-970.87 -885.33 1649.7
-928.04 -850.02 1583.9
-914.28 -841.14 1567.3
-908.33 -839.40 1564.1
-912.29 -862.30 1606.8
-901.97 -868.41 1618.2
-919.67 -889.59 1657.6
-917.51 -891.66 1661.5
-912.71 -891.19 1660.6
-916.60 -899.23 1675.6
-897.93 -885.11 1649.3
-893.16 -884.61 1648.3
-908.56 -904.19 1684.8
-893.02 -893.02 1664.0
-859.66 -868.04 1617.5
-871.84 -884.66 1648.4
-829.59 -867.30 1616.1
-867.97 -912.03 1699.4
-880.24 -929.64 1732.2
-836.28 -901.61 1680.0
-810.22 -878.10 1636.2
-802.65 -883.77 1646.8
-812.40 -899.28 1675.7
-793.86 -883.49 1646.3
-769.73 -875.46 1631.3
-774.91 -886.22 1651.3
-760.98 -875.12 1630.7
-755.09 -873.20 1627.1
-765.03 -889.67 1657.8
-773.71 -904.84 1686.0
-750.17 -882.31 1644.0
-719.40 -850.95 1585.6
-726.63 -869.44 1620.1
-750.79 -903.56 1683.7
-735.72 -890.61 1659.5
-686.58 -866.59 1614.8
-669.64 -850.40 1584.6
-668.28 -859.21 1601.0
-687.96 -890.05 1658.5
-698.84 -909.81 1695.3
-654.89 -858.00 1598.7
-660.30 -876.17 1632.6
-653.87 -873.23 1627.1
-632.86 -850.66 1585.1
-649.33 -878.50 1637.0
-667.19 -908.61 1693.1
-652.51 -894.50 1666.8
-629.84 -869.18 1619.6
-608.12 -868.15 1617.7
-608.40 -874.58 1629.7
-600.86 -869.78 1620.7
-600.45 -875.31 1631.0
-583.89 -875.83 1632.0
-599.15 -905.28 1686.9
-589.82 -897.74 1672.8
-583.51 -894.71 1667.2
-577.34 -898.57 1674.4
-588.95 -923.59 1721.0
-546.40 -890.58 1659.5
-546.02 -897.03 1671.5
-536.52 -888.48 1655.6
-521.10 -869.91 1620.9
-519.10 -873.61 1627.8
-488.97 -850.57 1584.9
-502.06 -880.74 1641.1
-499.46 -923.10 1720.1
-475.11 -886.02 1651.0
-466.46 -877.79 1635.6
-467.30 -887.44 1653.6
-465.41 -892.04 1662.2
-461.82 -893.44 1664.8
-448.81 -876.44 1633.1
-445.04 -877.36 1634.8
-439.87 -875.51 1631.4
-408.02 -870.72 1622.5
-405.29 -873.91 1628.4
-393.39 -875.61 1631.6
-400.03 -900.08 1677.2
-398.11 -905.58 1687.4
-363.62 -855.34 1593.8
-365.50 -869.63 1620.4
-370.51 -891.82 1661.8
-365.41 -889.88 1658.2
-352.03 -867.50 1616.5
-344.82 -859.97 1602.4
-339.06 -877.31 1634.7
-321.20 -898.48 1674.2
-323.88 -918.40 1711.3
-308.53 -887.01 1652.8
-281.21 -856.04 1595.1
-287.91 -889.52 1657.5
-277.75 -871.12 1623.2
-268.97 -898.01 1673.3
-232.34 -858.83 1600.3
-233.62 -879.25 1638.4
-227.72 -872.93 1626.6
-218.57 -904.87 1686.1
-202.43 -910.94 1697.4
-177.55 -896.43 1670.4
-168.89 -874.01 1628.6
-156.88 -854.58 1592.4
-151.99 -898.90 1675.0
-148.52 -904.25 1684.9
-144.93 -909.12 1694.0
-139.32 -901.26 1679.4
-135.49 -904.71 1685.8
-132.78 -916.17 1707.2
-128.64 -918.20 1710.9
-122.43 -905.12 1686.6
-116.91 -896.28 1670.1
-111.35 -886.49 1651.9
-95.55 -859.92 1602.3
-93.06 -875.60 1631.6
-88.98 -877.12 1634.4
-54.41 -866.39 1614.4
-50.89 -877.80 1635.6
-46.02 -866.03 1613.7
-25.14 -867.17 1615.8
0.00 -880.96 1641.5
47.75 -898.65 1674.5
51.98 -896.70 1670.9
64.80 -838.32 1562.1
73.95 -850.45 1584.7
80.87 -881.08 1641.8
86.99 -900.36 1677.7
89.70 -884.20 1647.6
103.32 -855.45 1594.0
107.97 -859.59 1601.7
122.16 -871.96 1624.8
127.10 -877.01 1634.2
127.43 -850.93 1585.6
132.03 -854.09 1591.5
134.03 -840.75 1566.6
137.06 -834.47 1554.9
147.76 -873.92 1628.4
153.43 -882.24 1643.9
169.81 -857.35 1597.5
178.92 -841.73 1568.4
185.70 -854.24 1591.7
197.51 -851.74 1587.1
205.13 -866.57 1614.7
205.52 -850.84 1585.4
212.58 -862.83 1607.8
226.84 -902.99 1682.6
231.62 -904.62 1685.6
229.07 -878.09 1636.2
224.77 -845.94 1576.3
228.53 -844.76 1574.1
230.87 -838.42 1562.3
235.62 -826.67 1540.4
244.70 -844.22 1573.1
274.76 -836.41 1558.5
286.91 -848.43 1580.9
310.98 -847.01 1578.3
322.75 -867.64 1616.7
325.23 -863.11 1608.3
371.96 -855.50 1594.1
375.92 -855.12 1593.4
389.34 -876.01 1632.3
392.77 -874.22 1629.0
395.11 -860.92 1604.2
391.58 -844.35 1573.3
389.96 -823.69 1534.8
428.73 -878.68 1637.3
438.43 -889.76 1657.9
426.70 -857.54 1597.9
438.27 -864.02 1610.0
440.10 -859.44 1601.4
437.37 -846.12 1576.6
432.36 -828.69 1544.1
445.99 -839.27 1563.9
465.22 -844.75 1574.1
470.82 -847.48 1579.2
478.73 -846.98 1578.2
488.53 -856.99 1596.9
492.91 -857.41 1597.7
493.59 -851.44 1586.5
475.57 -813.57 1516.0
526.37 -831.75 1549.8
544.78 -854.32 1591.9
549.14 -854.68 1592.6
557.93 -843.01 1570.8
556.95 -811.89 1512.8
563.29 -815.39 1519.4
604.69 -845.75 1575.9
615.12 -854.57 1592.4
621.91 -835.94 1557.7
637.52 -851.39 1586.4
655.60 -869.93 1621.0
655.27 -863.96 1609.9
652.86 -855.33 1593.8
657.53 -856.03 1595.1
651.23 -842.53 1569.9
654.47 -841.46 1567.9
660.13 -843.50 1571.7
661.61 -840.21 1565.6
681.43 -854.88 1592.9
686.81 -856.44 1595.9
665.72 -820.27 1528.4
667.73 -817.87 1524.0
679.32 -822.34 1532.3
747.24 -883.88 1647.0
758.38 -891.96 1662.0
730.97 -854.87 1592.9
767.82 -883.00 1645.3
761.15 -870.49 1622.0
729.26 -820.42 1528.7
752.09 -841.53 1568.1
730.51 -812.98 1514.9
791.04 -839.72 1564.7
809.52 -833.69 1553.5
817.46 -837.69 1560.9
838.45 -846.63 1577.6
838.82 -842.89 1570.6
835.25 -811.72 1512.5
801.68 -764.73 1425.0
1031.60 -805.81 1501.5
1084.28 -834.37 1554.7
1090.88 -836.34 1558.4
1054.32 -805.33 1500.6
1041.83 -792.86 1477.4
1067.87 -809.70 1508.8
1091.37 -824.50 1536.3
1075.61 -809.64 1508.6
1049.61 -787.21 1466.8
1084.20 -795.85 1482.9
1090.17 -797.40 1485.8
1057.51 -770.79 1436.3
1066.12 -774.34 1442.9
1095.55 -792.93 1477.5
1108.10 -799.22 1489.2
1100.90 -791.27 1474.4
1144.25 -811.16 1511.5
1121.92 -792.62 1476.9
1179.03 -821.75 1531.2
1155.86 -802.90 1496.1
1118.13 -766.40 1428.1
1139.98 -778.80 1451.2
1174.46 -799.72 1490.2
1213.08 -823.30 1534.1
1189.14 -801.80 1494.0
1118.87 -747.11 1392.1
1152.90 -760.03 1416.2
1186.28 -779.55 1452.6
1222.70 -800.95 1492.4
1229.93 -803.14 1496.5
1186.63 -772.43 1439.3
1157.86 -751.34 1400.0
-1525.39 -1004.05 1861.9
-1533.88 -1012.85 1878.2
-1510.00 -1019.74 1891.0
-1538.91 -1046.06 1939.8
-1467.52 -1014.10 1880.5
-1511.65 -1048.08 1943.6
-1381.56 -974.12 1806.4
-1458.56 -1031.90 1913.6
-1391.77 -988.01 1832.2
-1262.94 -928.24 1721.3
-1254.91 -925.61 1716.4
-1188.68 -889.37 1649.2
-1221.43 -917.17 1700.8
-1177.23 -887.19 1645.2
-1135.22 -877.79 1627.8
-1178.59 -914.72 1696.3
-1134.28 -883.63 1638.6
-1084.29 -867.43 1608.6
-1120.89 -900.17 1669.3
-1126.30 -908.03 1683.8
-1102.82 -892.56 1655.2
-1066.62 -873.45 1619.7
-1037.97 -853.35 1582.5
-1006.95 -834.45 1547.4
-1003.43 -834.85 1548.2
-1024.11 -855.48 1586.4
-1019.03 -854.67 1584.9
-1008.19 -855.93 1587.2
-1057.10 -901.13 1671.1
-1054.27 -902.42 1673.4
-989.03 -857.16 1589.5
-989.21 -860.90 1596.5
-996.99 -871.32 1615.8
-1023.25 -898.04 1665.3
-1009.47 -889.70 1649.9
-973.54 -861.69 1597.9
-982.57 -873.39 1619.6
-1006.05 -898.11 1665.4
-1025.14 -919.09 1704.4
-989.73 -898.97 1667.0
-961.41 -877.08 1626.4
-970.04 -888.85 1648.3
-972.63 -895.16 1660.0
-953.70 -881.64 1634.9
-943.05 -875.69 1623.9
-918.40 -856.62 1588.5
-922.90 -872.56 1618.1
-924.01 -877.60 1627.4
-901.75 -876.47 1625.3
-907.09 -885.80 1642.6
-910.61 -893.43 1656.8
-913.63 -900.64 1670.1
-892.82 -884.32 1639.9
-891.94 -887.68 1646.1
-912.05 -912.05 1691.3
-903.34 -907.70 1683.2
-872.96 -881.44 1634.5
-876.69 -889.52 1649.5
-890.90 -908.37 1684.5
-861.25 -882.46 1636.4
-851.05 -876.33 1625.1
-869.25 -899.53 1668.1
-845.75 -879.58 1631.1
-817.85 -854.84 1585.2
-835.43 -877.63 1627.5
-860.63 -908.68 1685.1
-859.03 -911.62 1690.5
-840.74 -896.79 1663.0
-827.42 -887.13 1645.1
-819.82 -883.53 1638.4
-807.03 -874.28 1621.3
-799.95 -885.05 1641.2
-799.09 -888.83 1648.2
-771.25 -862.47 1599.4
-774.73 -871.05 1615.3
-794.79 -898.46 1666.1
-785.72 -893.06 1656.1
-785.51 -897.73 1664.7
-798.24 -917.32 1701.1
-792.57 -915.86 1698.4
-776.70 -902.53 1673.6
-777.49 -908.53 1684.8
-796.58 -936.09 1735.9
-780.04 -921.86 1709.5
-745.43 -886.00 1643.0
-734.37 -877.87 1627.9
-746.51 -897.54 1664.4
-768.72 -929.61 1723.9
-744.12 -905.13 1678.5
-724.52 -897.02 1663.4
-714.70 -890.16 1650.7
-707.31 -897.07 1663.5
-691.66 -882.62 1636.7
-680.65 -873.92 1620.6
-684.88 -884.82 1640.8
-699.65 -909.55 1686.7
-684.79 -901.50 1671.7
-640.82 -848.98 1574.4
-653.63 -871.51 1616.1
-662.58 -889.14 1648.8
-655.13 -884.85 1640.9
-660.57 -898.03 1665.3
-667.86 -913.91 1694.8
-659.04 -907.82 1683.5
-643.16 -891.84 1653.8
-642.86 -897.41 1664.2
-647.94 -910.62 1688.7
-645.92 -913.95 1694.8
-639.44 -910.98 1689.3
-622.30 -892.67 1655.4
-601.57 -868.93 1611.3
-558.22 -886.33 1643.6
-569.94 -911.91 1691.0
-547.27 -882.42 1636.4
-506.09 -862.84 1600.0
-490.05 -856.56 1588.4
-481.01 -847.89 1572.3
-488.82 -869.01 1611.5
-498.48 -893.82 1657.5
-495.47 -896.16 1661.8
-511.08 -932.49 1729.2
-473.16 -886.64 1644.2
-474.79 -906.02 1680.1
-472.98 -919.43 1705.0
-449.05 -881.16 1634.0
-438.17 -902.37 1673.4
-423.37 -880.61 1633.0
-395.97 -876.20 1624.8
-396.30 -886.36 1643.7
-398.39 -900.70 1670.3
-399.12 -912.26 1691.7
-380.83 -880.13 1632.1
-368.04 -879.90 1631.7
-383.03 -926.40 1717.9
-367.88 -900.23 1669.4
-344.13 -852.14 1580.2
-352.65 -883.74 1638.8
-358.47 -909.30 1686.2
-344.43 -884.47 1640.2
-333.31 -866.62 1607.1
-333.54 -878.18 1628.5
-350.30 -934.13 1732.2
-329.79 -902.59 1673.8
-314.95 -873.46 1619.7
-321.02 -902.34 1673.3
-318.61 -907.83 1683.5
-284.32 -857.09 1589.4
-291.34 -891.16 1652.6
-292.44 -907.89 1683.6
-276.71 -872.05 1617.1
-270.70 -866.24 1606.4
-276.31 -897.99 1665.2
-267.52 -883.25 1637.9
-237.67 -882.78 1637.0
-236.11 -892.92 1655.8
-227.23 -875.27 1623.1
-218.28 -856.66 1588.6
-212.69 -850.76 1577.7
-212.12 -865.13 1604.3
-218.22 -907.80 1683.4
-212.76 -921.94 1709.6
-202.83 -897.63 1664.6
-200.02 -904.45 1677.2
-194.09 -897.11 1663.6
-184.12 -870.39 1614.1
-177.74 -880.23 1632.3
-174.85 -887.03 1644.9
-156.63 -904.95 1678.1
-154.69 -919.31 1704.8
-149.68 -915.68 1698.0
-145.15 -914.90 1696.6
-138.81 -902.27 1673.2
-133.22 -893.89 1657.6
-128.88 -893.56 1657.0
-124.73 -894.65 1659.0
-118.60 -881.04 1633.8
-113.46 -874.06 1620.9
-108.09 -864.70 1603.5
-103.38 -860.08 1594.9
-100.89 -874.41 1621.5
-98.54 -891.10 1652.5
-95.22 -900.22 1669.4
-90.75 -898.89 1666.9
-86.67 -901.36 1671.5
-81.13 -888.17 1647.0
-49.98 -866.38 1606.6
-46.10 -871.65 1616.4
-29.07 -863.74 1601.7
-17.35 -902.26 1673.1
-13.04 -904.18 1676.7
-8.57 -891.37 1653.0
0.00 -885.69 1642.4
4.25 -884.73 1640.6
8.68 -902.29 1673.2
37.00 -855.13 1585.7
41.70 -867.42 1608.5
47.93 -906.28 1680.6
56.67 -906.65 1681.3
60.41 -897.57 1664.4
65.03 -901.77 1672.2
68.34 -888.42 1647.5
79.62 -871.58 1616.2
84.98 -883.82 1638.9
90.18 -893.20 1656.4
93.91 -887.89 1646.5
102.98 -856.76 1588.8
118.92 -883.41 1638.2
122.03 -875.23 1623.0
141.17 -863.63 1601.5
150.55 -894.70 1659.1
173.08 -878.05 1628.3
177.93 -881.17 1634.0
191.43 -884.83 1640.8
196.79 -889.82 1650.1
197.95 -857.77 1590.6
207.13 -879.26 1630.5
209.61 -871.96 1617.0
208.08 -848.63 1573.7
213.87 -855.48 1586.4
224.62 -834.28 1547.1
237.46 -866.52 1606.9
244.83 -878.03 1628.2
241.78 -852.36 1580.6
247.61 -844.32 1565.7
256.36 -860.03 1594.8
256.28 -846.13 1569.1
267.47 -855.91 1587.2
277.45 -874.40 1621.5
280.96 -872.23 1617.5
279.07 -853.64 1583.0
285.41 -860.37 1595.5
296.23 -880.22 1632.3
292.68 -857.42 1590.0
305.63 -870.84 1614.9
314.36 -883.62 1638.6
313.75 -847.55 1571.7
317.18 -845.81 1568.5
380.15 -888.43 1647.5
378.58 -865.33 1604.7
383.64 -858.03 1591.1
388.63 -859.95 1594.7
395.97 -866.97 1607.7
396.10 -858.21 1591.5
390.09 -836.49 1551.2
417.80 -843.71 1564.6
446.58 -893.15 1656.3
447.61 -886.69 1644.3
438.47 -860.40 1595.5
438.34 -852.11 1580.1
442.71 -829.58 1538.4
460.19 -832.35 1543.5
468.18 -832.32 1543.5
483.10 -851.56 1579.1
489.53 -855.65 1586.7
492.04 -852.86 1581.5
484.94 -833.61 1545.8
517.56 -854.39 1584.4
514.40 -842.48 1562.3
529.29 -840.40 1558.4
540.49 -851.68 1579.4
538.14 -841.61 1560.7
557.68 -846.70 1570.1
561.64 -822.69 1525.6
576.39 -838.38 1554.7
603.58 -842.59 1562.5
624.12 -832.16 1543.1
629.01 -833.34 1545.3
666.80 -872.29 1617.6
653.85 -844.72 1566.4
668.67 -827.88 1535.2
716.76 -882.16 1635.9
736.85 -896.28 1662.1
724.14 -875.71 1623.9
700.93 -833.10 1544.9
695.81 -822.32 1524.9
716.44 -841.91 1561.2
722.17 -843.88 1564.9
754.95 -872.39 1617.8
774.00 -884.58 1640.4
734.68 -826.01 1531.8
731.40 -817.91 1516.7
777.33 -842.11 1561.6
807.32 -870.07 1613.5
824.88 -879.87 1631.6
798.20 -847.06 1570.8
781.90 -825.56 1530.9
784.38 -823.99 1528.0
786.01 -821.56 1523.5
787.20 -818.69 1518.2
809.22 -837.40 1552.9
814.21 -838.40 1554.7
800.00 -811.70 1505.2
834.43 -834.43 1547.4
835.12 -831.13 1541.2
807.30 -777.40 1441.6
966.33 -791.32 1467.4
973.20 -793.82 1472.1
973.09 -784.50 1454.8
948.92 -762.06 1413.2
1004.19 -791.18 1467.2
1023.02 -802.97 1489.0
1010.07 -783.93 1453.7
1066.69 -824.80 1529.5
1063.27 -819.11 1519.0
1042.81 -791.62 1468.0
1054.58 -797.64 1479.1
1055.73 -795.62 1475.4
1071.46 -795.94 1476.0
1082.27 -801.11 1485.6
1088.78 -803.07 1489.2
1086.08 -798.25 1480.3
1077.23 -783.44 1452.8
1100.29 -786.46 1458.4
1131.19 -805.78 1494.2
1151.10 -817.16 1515.3
1147.12 -811.57 1505.0
1134.58 -797.27 1478.5
1169.74 -819.21 1519.1
1100.46 -768.11 1424.4
1155.94 -790.90 1466.7
1173.35 -800.19 1483.9
1176.51 -799.72 1483.0
1200.32 -813.25 1508.1
1198.34 -809.27 1500.7
1168.09 -786.29 1458.1
1146.36 -769.17 1426.3
1140.72 -762.92 1414.8
1131.55 -754.37 1398.9
1133.49 -748.46 1387.9
1162.76 -765.36 1419.3
1176.90 -772.22 1432.0
-1511.44 -999.66 1844.9
-1548.53 -1027.44 1896.2
-1528.41 -1017.31 1877.5
-1484.53 -991.26 1829.4
-1461.09 -978.74 1806.3
-1457.48 -985.80 1819.3
-1529.02 -1037.55 1914.8
-1448.54 -989.37 1825.9
-1440.08 -993.32 1833.2
-1529.29 -1058.35 1953.2
-1521.83 -1060.21 1956.6
-1470.49 -1027.87 1897.0
-1492.98 -1047.09 1932.4
-1421.15 -1000.07 1845.6
-1431.87 -1014.44 1872.2
-1448.00 -1029.36 1899.7
-1441.07 -1035.00 1910.1
-1451.78 -1049.90 1937.6
-1425.77 -1034.67 1909.5
-1371.39 -998.68 1843.1
-1304.24 -959.81 1771.4
-1274.98 -941.59 1737.7
-1180.80 -887.73 1638.3
-1156.95 -872.93 1611.0
-1165.00 -891.89 1646.0
-1136.42 -882.94 1629.5
-1196.42 -933.03 1721.9
-1168.21 -914.44 1687.6
-1098.21 -882.79 1629.2
-1105.25 -891.88 1646.0
-1089.91 -882.91 1629.4
-1087.99 -891.73 1645.7
-1084.80 -892.61 1647.3
-1035.13 -855.11 1578.1
-1006.57 -841.49 1553.0
-1028.21 -863.03 1592.7
-1045.87 -892.19 1646.6
-1043.59 -893.89 1649.7
-993.31 -854.33 1576.7
-1009.67 -875.61 1615.9
-1005.49 -875.61 1616.0
-983.60 -860.14 1587.4
-983.76 -863.89 1594.3
-999.10 -881.06 1626.0
-1005.31 -890.29 1643.1
-988.78 -879.38 1622.9
-953.21 -858.71 1584.8
-961.18 -869.64 1604.9
-968.13 -879.74 1623.6
-952.33 -869.16 1604.1
-942.94 -872.02 1609.3
-973.41 -904.19 1668.7
-966.35 -901.63 1664.0
-920.50 -870.51 1606.6
-921.65 -875.57 1615.9
-925.00 -882.76 1629.2
-932.96 -906.93 1673.8
-920.69 -899.18 1659.5
-910.66 -893.56 1649.1
-899.36 -886.64 1636.3
-887.68 -879.27 1622.7
-880.81 -876.62 1617.8
-892.88 -892.88 1647.8
-894.96 -899.26 1659.6
-867.12 -875.50 1615.7
-850.51 -862.90 1592.5
-870.41 -887.39 1637.7
-893.06 -914.95 1688.6
-869.72 -895.42 1652.5
-843.18 -872.40 1610.0
-846.40 -880.09 1624.2
-846.65 -884.75 1632.8
-841.48 -883.77 1631.0
-842.91 -889.74 1642.0
-851.25 -903.10 1666.7
-849.69 -906.04 1672.1
-831.85 -891.58 1645.4
-802.40 -864.44 1595.4
-792.66 -862.84 1592.4
-807.55 -883.66 1630.8
-779.75 -885.69 1634.6
-780.95 -896.81 1655.1
-794.45 -917.35 1693.0
-771.72 -896.05 1653.7
-760.32 -902.88 1666.3
-778.45 -929.70 1715.8
-754.70 -906.51 1673.0
-753.88 -910.76 1680.8
-760.12 -929.04 1714.6
-713.57 -882.46 1628.6
-737.78 -917.83 1693.9
-729.68 -913.19 1685.3
-686.83 -880.66 1625.3
-670.30 -864.77 1596.0
-672.29 -883.70 1630.9
-681.09 -900.93 1662.7
-680.64 -906.07 1672.2
-673.10 -901.79 1664.3
-661.61 -892.10 1646.4
-650.85 -883.30 1630.2
-653.34 -892.48 1647.1
-660.99 -908.86 1677.3
-652.55 -903.20 1666.9
-633.15 -882.19 1628.1
-567.02 -884.37 1632.1
-549.08 -876.01 1616.7
-559.15 -898.93 1659.0
-536.57 -869.33 1604.4
-519.72 -855.29 1578.5
-515.56 -890.51 1643.4
-515.81 -898.38 1658.0
-510.24 -896.14 1653.8
-491.18 -869.97 1605.5
-488.84 -873.23 1611.6
-494.14 -890.30 1643.1
-486.60 -884.35 1632.1
-394.29 -867.44 1600.9
-400.38 -890.21 1642.9
-399.00 -896.68 1654.9
-390.17 -886.37 1635.8
-379.41 -871.38 1608.2
-383.24 -889.98 1642.5
-383.53 -900.65 1662.2
-372.11 -883.76 1631.0
-376.02 -903.31 1667.1
-378.78 -920.53 1698.9
-363.43 -926.29 1709.5
-360.05 -929.02 1714.5
-338.17 -883.46 1630.4
-328.58 -869.28 1604.3
-318.49 -887.54 1638.0
-316.69 -894.45 1650.7
-307.28 -879.74 1623.6
-300.91 -873.48 1612.0
-302.91 -891.67 1645.6
-289.50 -889.79 1642.1
-290.78 -907.05 1674.0
-278.20 -880.97 1625.9
-275.69 -886.45 1636.0
-276.01 -901.35 1663.5
-262.12 -869.58 1604.8
-239.06 -892.22 1646.6
-234.12 -889.64 1641.8
-229.92 -889.89 1642.3
-225.97 -891.08 1644.5
-220.47 -886.11 1635.3
-220.44 -903.38 1667.2
-214.70 -897.46 1656.3
-207.47 -884.91 1633.1
-203.39 -885.60 1634.4
-197.60 -878.71 1621.7
-195.22 -886.98 1636.9
-190.20 -883.39 1630.3
-177.83 -884.93 1633.2
-176.89 -901.72 1664.2
-168.53 -880.56 1625.1
-153.59 -891.70 1645.7
-143.27 -907.38 1674.6
-137.21 -896.13 1653.8
-131.95 -889.62 1641.8
-127.03 -885.01 1633.3
-122.49 -882.76 1629.2
-117.65 -878.14 1620.6
-108.09 -868.87 1603.5
-94.46 -897.38 1656.1
-91.13 -907.00 1673.9
-86.67 -905.67 1671.4
-53.02 -852.40 1573.1
-49.87 -868.65 1603.1
-46.65 -886.32 1635.7
-42.91 -896.85 1655.1
-38.72 -899.27 1659.6
-33.58 -877.40 1619.3
-8.18 -854.67 1577.3
-4.38 -915.66 1689.9
0.00 -901.37 1663.5
4.27 -892.31 1646.8
8.71 -910.41 1680.2
12.73 -886.58 1636.2
16.38 -856.07 1579.9
40.66 -849.69 1568.1
46.62 -885.84 1634.8
52.85 -920.55 1698.9
57.14 -918.59 1695.3
59.87 -893.76 1649.5
63.49 -884.65 1632.6
69.40 -906.48 1672.9
73.34 -901.64 1664.0
75.47 -876.33 1617.3
79.66 -876.25 1617.1
82.07 -857.60 1582.7
91.16 -865.98 1598.2
96.81 -879.67 1623.5
103.09 -861.85 1590.6
106.20 -853.66 1575.4
116.31 -868.16 1602.2
130.61 -880.59 1625.1
132.77 -867.14 1600.3
177.36 -882.56 1628.8
190.20 -883.39 1630.3
198.66 -902.61 1665.8
198.67 -883.45 1630.4
195.13 -849.61 1568.0
204.40 -854.39 1576.8
209.24 -857.48 1582.5
232.31 -851.81 1572.0
245.67 -855.76 1579.3
265.39 -909.29 1678.1
269.94 -909.95 1679.3
264.68 -878.07 1620.5
260.57 -850.91 1570.4
261.47 -840.74 1551.6
277.61 -879.09 1622.4
288.36 -899.51 1660.1
286.74 -881.31 1626.5
293.34 -888.54 1639.8
301.43 -899.99 1660.9
294.76 -867.68 1601.3
297.43 -851.54 1571.5
311.54 -879.88 1623.8
321.67 -850.99 1570.5
321.66 -840.34 1550.9
326.82 -843.28 1556.3
329.07 -838.72 1547.9
380.35 -893.18 1648.4
377.17 -866.25 1598.7
381.74 -848.75 1566.4
406.99 -895.38 1652.4
409.16 -890.77 1643.9
404.59 -871.74 1608.8
415.54 -886.19 1635.5
423.53 -894.13 1650.1
412.71 -862.57 1591.9
440.58 -885.40 1634.0
426.67 -849.27 1567.3
445.85 -854.89 1577.7
463.08 -879.85 1623.8
461.88 -869.67 1605.0
442.29 -825.35 1523.2
481.31 -852.49 1573.3
487.20 -855.68 1579.2
492.07 -857.02 1581.6
501.32 -851.84 1572.1
500.76 -830.63 1532.9
519.32 -828.53 1529.1
534.43 -809.38 1493.7
563.02 -846.55 1562.3
588.58 -878.67 1621.6
588.72 -872.65 1610.5
579.57 -853.03 1574.3
587.29 -858.35 1584.1
595.36 -864.10 1594.7
584.34 -842.26 1554.4
588.92 -843.04 1555.9
601.13 -854.66 1577.3
599.68 -846.85 1562.9
595.62 -829.90 1531.6
604.05 -836.07 1543.0
623.63 -840.89 1551.9
735.51 -893.73 1649.4
692.25 -836.31 1543.4
685.45 -818.63 1510.8
704.95 -827.73 1527.6
731.40 -853.98 1576.0
730.34 -848.01 1565.0
735.94 -831.42 1534.4
767.81 -862.76 1592.2
759.93 -849.34 1567.5
758.25 -842.95 1555.7
773.92 -855.81 1579.4
774.58 -852.04 1572.5
799.97 -875.36 1615.5
822.77 -877.34 1619.1
805.78 -854.86 1577.7
808.77 -853.70 1575.5
812.98 -853.83 1575.8
785.25 -820.59 1514.4
779.34 -810.35 1495.5
769.57 -796.24 1469.5
814.63 -822.50 1517.9
847.40 -851.48 1571.4
828.79 -828.79 1529.6
813.02 -809.15 1493.3
814.87 -807.14 1489.6
816.69 -805.14 1485.9
829.86 -814.27 1502.8
813.28 -794.28 1465.9
800.50 -778.16 1436.1
811.45 -785.15 1449.0
803.39 -773.77 1428.0
952.52 -783.76 1446.5
1009.12 -789.91 1457.8
1010.83 -788.30 1454.8
1015.67 -789.12 1456.3
989.08 -759.99 1402.6
1055.97 -799.63 1475.7
1082.73 -816.94 1507.7
1037.89 -780.28 1440.0
1072.74 -803.60 1483.1
1127.66 -841.72 1553.4
1111.64 -826.81 1525.9
1100.38 -815.53 1505.1
1080.37 -797.87 1472.5
1080.23 -789.40 1456.9
1083.75 -783.75 1446.4
1085.80 -782.53 1444.2
1112.73 -799.18 1474.9
1149.73 -822.93 1518.7
1175.23 -838.30 1547.1
1177.41 -834.17 1539.5
1115.27 -787.47 1453.3
1158.17 -788.46 1455.1
1172.76 -795.80 1468.7
1157.46 -782.88 1444.8
1172.65 -790.60 1459.1
1204.09 -809.18 1493.4
1199.71 -803.65 1483.2
1172.06 -782.62 1444.3
1139.61 -758.53 1399.9
1130.93 -750.36 1384.8
1155.50 -764.24 1410.4
1161.42 -765.73 1413.2
-1535.83 -1007.89 1851.2
-1513.30 -996.22 1829.8
-1564.73 -1033.31 1897.9
-1519.36 -1006.51 1848.7
-1512.70 -1005.27 1846.4
-1541.01 -1027.34 1887.0
-1506.37 -1007.44 1850.4
-1460.24 -979.71 1799.5
-1492.30 -1017.48 1868.8
-1539.47 -1053.06 1934.2
-1430.91 -981.99 1803.7
-1501.54 -1047.58 1924.1
-1500.39 -1050.28 1929.1
-1409.19 -989.73 1817.9
-1396.98 -984.45 1808.2
-1462.07 -1037.28 1905.2
-1478.75 -1052.67 1933.5
-1436.90 -1026.36 1885.1
-1451.59 -1047.54 1924.0
-1411.19 -1021.90 1877.0
-1145.91 -868.74 1595.6
-1139.22 -866.80 1592.1
-1148.11 -879.94 1616.2
-1191.54 -916.57 1683.5
-1198.39 -925.23 1699.4
-1181.03 -915.19 1681.0
-1173.15 -912.45 1675.9
-1142.83 -892.17 1638.7
-1131.40 -886.55 1628.4
-1165.21 -916.46 1683.3
-1149.58 -907.57 1667.0
-1105.60 -876.14 1609.2
-1079.35 -858.58 1577.0
-1093.82 -873.39 1604.2
-1134.81 -909.58 1670.7
-1103.51 -887.88 1630.8
-1072.87 -866.55 1591.6
-1077.43 -873.59 1604.6
-1093.81 -897.27 1648.0
-1073.55 -884.10 1623.9
-1023.80 -849.80 1560.9
-1063.07 -885.89 1627.1
-1054.93 -882.61 1621.1
-1051.75 -883.47 1622.7
-1066.33 -899.31 1651.8
-1062.59 -899.77 1652.6
-1040.71 -884.81 1625.2
-1026.75 -876.49 1609.9
-1000.72 -864.82 1588.4
-1050.16 -911.30 1673.8
-1037.21 -903.79 1660.0
-991.22 -867.32 1593.0
-960.81 -869.70 1597.4
-952.91 -866.29 1591.1
-943.18 -861.17 1581.7
-946.43 -867.91 1594.1
-920.60 -847.92 1557.4
-926.07 -864.33 1587.5
-931.75 -877.44 1611.6
-960.91 -908.97 1669.5
-922.39 -876.48 1609.9
-933.47 -911.76 1674.7
-930.83 -913.44 1677.7
-910.73 -897.90 1649.2
-889.01 -880.62 1617.5
-879.11 -874.94 1607.0
-872.70 -872.70 1602.9
-872.32 -876.49 1609.9
-861.63 -869.92 1597.8
-861.23 -873.71 1604.8
-874.38 -891.36 1637.2
-881.47 -902.97 1658.5
-891.84 -918.07 1686.3
-906.28 -937.53 1722.0
-872.69 -911.76 1674.7
-833.87 -875.56 1608.2
-829.20 -883.91 1623.5
-830.58 -889.90 1634.5
-814.46 -877.11 1611.0
-796.74 -871.44 1600.6
-768.21 -876.76 1610.4
-781.57 -896.89 1647.3
-794.78 -917.05 1684.4
-789.14 -915.58 1681.7
-748.45 -893.03 1640.3
-767.36 -920.83 1691.3
-744.42 -898.43 1650.2
-738.88 -896.91 1647.4
-759.98 -927.88 1704.3
-739.81 -908.54 1668.8
-721.36 -901.70 1656.2
-719.39 -904.62 1661.5
-715.75 -916.51 1683.4
-697.31 -898.37 1650.1
-681.20 -894.07 1642.2
-672.33 -887.98 1631.0
-667.23 -886.82 1628.9
-655.07 -876.21 1609.4
-637.64 -858.37 1576.6
-654.46 -904.19 1660.8
-649.31 -903.02 1658.6
-627.30 -927.70 1703.9
-635.83 -946.98 1739.4
-619.19 -935.46 1718.2
-594.75 -905.06 1662.3
-571.17 -875.52 1608.1
-575.35 -888.41 1631.8
-587.36 -913.67 1678.2
-591.55 -927.05 1702.8
-587.51 -927.64 1703.8
-570.22 -907.16 1666.2
-566.54 -908.19 1668.1
-570.22 -921.13 1691.9
-549.00 -893.72 1641.5
-535.84 -879.11 1614.7
-539.20 -891.59 1637.6
-535.00 -891.67 1637.8
-509.76 -892.08 1638.5
-508.94 -898.13 1649.6
-457.00 -864.60 1588.0
-466.25 -890.11 1634.9
-452.38 -871.56 1600.8
-459.22 -901.28 1655.4
-443.44 -878.51 1613.6
-405.74 -887.56 1630.2
-401.28 -887.05 1629.3
-401.01 -895.88 1645.5
-401.28 -906.12 1664.3
-393.66 -898.58 1650.5
-379.62 -876.04 1609.1
-380.23 -887.21 1629.6
-388.49 -916.66 1683.7
-384.69 -918.01 1686.1
-363.38 -877.13 1611.1
-357.69 -894.22 1642.4
-345.34 -895.33 1644.5
-344.26 -903.69 1659.8
-302.36 -869.81 1597.6
-314.83 -918.26 1686.6
-300.68 -889.32 1633.4
-284.43 -891.51 1637.5
-277.76 -883.77 1623.3
-249.88 -874.57 1606.4
-252.05 -897.11 1647.8
-240.20 -900.75 1654.4
-223.21 -884.41 1624.4
-224.46 -906.49 1665.0
-219.05 -901.98 1656.7
-208.03 -873.71 1604.8
-199.92 -856.82 1573.8
-176.21 -881.07 1618.3
-173.26 -887.45 1630.0
-162.45 -852.87 1566.5
-143.04 -910.26 1671.9
-138.15 -906.59 1665.2
-133.71 -905.79 1663.7
-129.69 -907.84 1667.5
-124.00 -897.96 1649.3
-118.15 -886.16 1627.6
-115.49 -898.22 1649.8
-111.46 -900.25 1653.5
-105.25 -884.14 1623.9
-100.18 -876.61 1610.1
-96.65 -882.45 1620.8
-94.76 -904.52 1661.4
-92.61 -926.11 1701.0
-82.81 -915.31 1681.2
-62.23 -871.19 1600.2
-58.75 -881.29 1618.7
-38.81 -905.46 1663.1
-34.40 -903.11 1658.8
-8.63 -906.12 1664.3
-4.40 -923.34 1695.9
8.45 -887.47 1630.0
12.82 -897.50 1648.5
17.15 -900.35 1653.7
21.11 -886.47 1628.2
24.86 -870.18 1598.3
29.61 -888.32 1631.6
34.55 -906.93 1665.8
37.99 -886.34 1628.0
45.07 -860.43 1580.4
65.72 -862.52 1584.2
71.05 -877.74 1612.2
74.78 -872.40 1602.4
79.44 -878.05 1612.7
82.34 -864.59 1588.0
92.96 -887.32 1629.8
98.79 -902.02 1656.8
100.84 -882.34 1620.6
103.44 -868.86 1595.9
135.33 -916.76 1683.8
139.22 -885.94 1627.2
160.99 -866.85 1592.2
164.81 -865.25 1589.2
190.10 -887.14 1629.4
190.84 -871.24 1600.2
207.23 -870.38 1598.7
209.59 -863.03 1585.2
235.79 -868.72 1595.6
240.52 -870.83 1599.5
246.05 -875.79 1608.6
261.25 -914.37 1679.5
265.60 -899.60 1652.3
261.27 -870.91 1599.6
257.97 -833.45 1530.8
274.04 -871.95 1601.5
281.12 -881.11 1618.4
276.03 -852.46 1565.7
281.55 -856.89 1573.9
287.73 -863.20 1585.5
292.52 -841.51 1545.6
295.59 -838.84 1540.7
303.18 -848.89 1559.2
326.48 -878.98 1614.5
323.81 -860.75 1581.0
324.30 -840.78 1544.3
334.05 -855.48 1571.3
373.13 -861.06 1581.5
373.98 -853.65 1567.9
386.78 -864.08 1587.1
402.55 -889.85 1634.4
411.84 -882.51 1620.9
414.74 -879.75 1615.9
472.44 -893.80 1641.7
468.47 -870.60 1599.1
486.53 -865.86 1590.3
486.45 -858.44 1576.7
484.19 -847.33 1556.3
486.88 -845.00 1552.0
503.20 -866.16 1590.9
525.24 -889.52 1633.8
505.07 -848.52 1558.5
486.74 -811.24 1490.0
492.53 -814.42 1495.9
512.62 -841.01 1544.7
518.51 -831.21 1526.7
556.58 -853.15 1567.0
579.46 -881.79 1619.6
578.45 -873.92 1605.2
575.55 -863.32 1585.7
589.98 -878.69 1613.9
597.46 -883.56 1622.9
576.19 -846.15 1554.1
579.83 -834.00 1531.8
594.82 -849.75 1560.8
595.27 -844.63 1551.4
609.16 -858.54 1576.9
615.73 -862.02 1583.3
619.72 -861.87 1583.0
619.14 -855.39 1571.1
604.39 -818.85 1504.0
708.58 -880.48 1617.2
705.73 -871.78 1601.2
709.34 -871.12 1600.0
692.51 -845.51 1553.0
677.31 -822.17 1510.1
694.69 -838.42 1540.0
719.24 -863.08 1585.3
717.94 -856.64 1573.4
733.71 -832.86 1529.7
747.99 -844.51 1551.1
769.03 -863.62 1586.2
797.69 -891.04 1636.6
796.53 -885.03 1625.6
779.83 -861.92 1583.1
769.72 -846.29 1554.4
749.48 -819.74 1505.6
790.11 -850.89 1562.9
796.75 -853.66 1568.0
791.54 -843.78 1549.8
809.68 -858.75 1577.3
814.72 -859.76 1579.1
786.62 -825.95 1517.1
812.16 -816.04 1498.9
833.01 -833.01 1530.0
842.73 -838.74 1540.5
852.06 -844.02 1550.2
844.40 -832.51 1529.1
808.44 -782.36 1437.0
794.54 -765.38 1405.8
1009.71 -797.14 1464.1
1056.63 -831.06 1526.4
1058.48 -829.40 1523.4
1022.70 -798.39 1466.4
1005.70 -767.99 1410.6
1063.13 -808.90 1485.7
1107.68 -836.74 1536.9
1039.64 -776.96 1427.1
1075.76 -801.10 1471.4
1073.04 -796.25 1462.5
1061.51 -782.17 1436.6
1071.22 -786.56 1444.7
1112.61 -808.47 1484.9
1131.82 -819.59 1505.4
1116.31 -805.58 1479.6
1141.60 -818.21 1502.8
1163.21 -830.86 1526.1
1168.72 -831.97 1528.1
1131.77 -802.94 1474.8
1069.97 -756.54 1389.6
1138.02 -793.97 1458.3
1136.63 -790.37 1451.7
1149.40 -796.61 1463.2
1133.18 -782.79 1437.8
1108.89 -763.50 1402.3
1131.35 -776.42 1426.1
1179.67 -806.94 1482.1
1199.47 -817.82 1502.1
1170.43 -795.44 1461.0
1165.46 -789.51 1450.1
1187.61 -801.93 1472.9
1175.10 -790.93 1452.7
1167.73 -783.46 1439.0
1156.82 -773.67 1421.0
1126.03 -750.69 1378.8
1162.93 -770.39 1415.0
1180.00 -779.24 1431.3
1172.44 -771.83 1417.6
-1549.80 -1038.12 1897.7
-1528.53 -1027.13 1877.6
-1495.14 -1007.91 1842.5
-1471.93 -1011.65 1849.3
-1508.69 -1040.31 1901.7
-1507.07 -1042.60 1905.9
-1440.60 -999.89 1827.8
-1433.76 -1005.06 1837.3
-1468.28 -1032.69 1887.8
-1469.73 -1054.81 1928.2
-1356.18 -997.05 1822.6
-1305.50 -969.93 1773.1
-1266.53 -944.30 1726.2
-1144.71 -875.12 1599.8
-1144.91 -878.46 1605.9
-1139.27 -877.32 1603.8
-1154.74 -892.49 1631.5
-1175.88 -912.17 1667.5
-1169.60 -910.65 1664.7
-1162.80 -908.71 1661.1
-1134.69 -900.07 1645.4
-1132.08 -901.39 1647.8
-1118.61 -897.44 1640.5
-1114.36 -900.88 1646.8
-1080.66 -877.00 1603.2
-1082.14 -881.59 1611.6
-1089.91 -898.32 1642.2
-1056.62 -874.30 1598.2
-1024.96 -854.81 1562.6
-1043.30 -873.55 1596.9
-1048.20 -888.23 1623.7
-1051.88 -894.95 1636.0
-1037.89 -886.62 1620.8
-1014.18 -869.89 1590.2
-994.00 -856.06 1564.9
-988.96 -855.20 1563.3
-1027.46 -892.15 1630.9
-1036.75 -903.94 1652.4
-960.40 -855.04 1563.0
-947.77 -858.28 1569.0
-990.79 -901.11 1647.3
-980.94 -896.01 1637.9
-945.62 -867.50 1585.8
-929.94 -860.60 1573.2
-967.74 -919.79 1681.4
-948.09 -905.19 1654.7
-877.50 -865.19 1581.6
-866.94 -862.85 1577.3
-877.90 -877.90 1604.8
-859.42 -863.52 1578.5
-865.97 -886.98 1621.4
-865.05 -890.37 1627.6
-875.05 -905.07 1654.5
-888.28 -923.29 1687.8
-884.67 -924.09 1689.3
-833.65 -875.12 1599.8
-833.94 -879.81 1608.3
-857.70 -909.42 1662.4
-818.42 -881.06 1610.6
-811.29 -877.85 1604.7
-781.90 -891.79 1630.2
-769.43 -882.33 1612.9
-764.59 -886.42 1620.4
-767.09 -894.23 1634.7
-749.44 -878.51 1605.9
-749.26 -883.21 1614.5
-746.79 -885.24 1618.3
-751.03 -895.29 1636.6
-754.06 -904.02 1652.6
-740.01 -892.24 1631.0
-738.93 -896.06 1638.0
-755.39 -921.32 1684.2
-750.88 -921.14 1683.9
-702.47 -882.27 1612.8
-709.47 -896.40 1638.6
-699.75 -889.44 1625.9
-717.14 -917.06 1676.4
-723.46 -930.79 1701.5
-655.75 -859.40 1571.0
-685.67 -904.23 1653.0
-701.61 -931.06 1702.0
-684.85 -914.58 1671.9
-661.16 -888.57 1624.3
-636.69 -861.17 1574.2
-630.30 -886.63 1620.8
-639.05 -904.97 1654.3
-620.21 -884.21 1616.4
-607.00 -883.29 1614.7
-605.09 -886.62 1620.8
-608.71 -898.17 1641.9
-625.45 -929.37 1698.9
-631.84 -945.52 1728.4
-602.27 -934.40 1708.1
-593.23 -927.20 1694.9
-577.55 -909.42 1662.5
-556.71 -889.89 1626.7
-572.25 -921.72 1684.9
-573.91 -931.49 1702.8
-545.93 -899.92 1645.1
-557.25 -925.83 1692.4
-540.53 -905.17 1654.7
-526.44 -888.63 1624.4
-533.67 -908.10 1660.0
-528.87 -907.25 1658.5
-505.03 -888.01 1623.3
-512.86 -909.36 1662.3
-499.51 -893.20 1632.8
-477.05 -860.31 1572.7
-478.85 -871.01 1592.2
-495.48 -909.10 1661.9
-470.38 -902.28 1649.4
-458.17 -886.92 1621.3
-431.43 -892.47 1631.5
-412.79 -907.27 1658.5
-407.41 -904.89 1654.2
-402.27 -902.96 1650.6
-397.55 -901.97 1648.8
-392.23 -899.57 1644.4
-380.84 -883.06 1614.3
-369.04 -874.91 1599.4
-378.79 -908.23 1660.3
-369.99 -897.33 1640.3
-349.58 -857.68 1567.9
-354.58 -880.19 1609.0
-371.39 -932.89 1705.4
-359.51 -913.94 1670.7
-300.11 -879.50 1607.8
-277.65 -874.40 1598.4
-282.36 -902.70 1650.2
-278.91 -905.37 1655.0
-251.63 -870.40 1591.1
-248.53 -873.99 1597.7
-242.61 -898.10 1641.7
-243.61 -917.87 1677.9
-218.82 -887.91 1623.1
-214.44 -887.19 1621.8
-201.59 -868.08 1586.9
-198.40 -872.11 1594.3
-196.97 -884.26 1616.4
-197.61 -906.42 1657.0
-192.95 -904.73 1653.9
-144.18 -894.78 1635.7
-138.47 -885.36 1618.5
-111.75 -906.91 1657.9
-109.11 -920.92 1683.5
-103.18 -907.14 1658.3
-98.89 -907.25 1658.5
-95.01 -911.19 1665.7
-91.13 -915.61 1673.8
-87.98 -928.17 1696.7
-81.56 -905.73 1655.7
-74.33 -871.29 1592.7
-60.25 -908.03 1659.9
-56.36 -914.81 1672.3
-50.07 -880.33 1609.3
-34.04 -897.79 1641.2
-21.07 -889.24 1625.6
-16.77 -884.46 1616.8
-12.57 -884.00 1616.0
-8.71 -918.56 1679.2
-4.23 -893.13 1632.7
4.13 -870.58 1591.4
8.82 -930.08 1700.2
17.69 -932.93 1705.4
24.97 -878.18 1605.3
30.33 -914.14 1671.1
35.29 -930.89 1701.7
38.78 -909.26 1662.2
44.77 -858.79 1569.9
61.10 -859.52 1571.2
87.60 -880.13 1608.9
95.26 -913.59 1670.1
100.72 -924.03 1689.1
117.07 -882.23 1612.7
121.63 -884.97 1617.8
130.54 -888.53 1624.3
140.03 -923.33 1687.9
140.64 -899.24 1643.8
156.65 -893.34 1633.0
160.25 -889.82 1626.6
186.54 -874.65 1598.9
186.16 -853.92 1561.0
197.38 -849.96 1553.7
213.56 -901.24 1647.5
219.28 -907.21 1658.4
211.89 -859.79 1571.7
222.72 -870.28 1590.9
256.03 -885.61 1618.9
251.21 -854.92 1562.8
277.16 -886.09 1619.8
281.72 -887.21 1621.8
276.89 -834.63 1525.7
285.85 -849.49 1552.9
301.17 -847.30 1548.9
312.51 -845.38 1545.4
332.23 -854.88 1562.7
358.60 -879.82 1608.3
378.01 -876.48 1602.2
384.24 -881.25 1610.9
384.93 -873.33 1596.5
396.74 -845.57 1545.7
418.01 -873.27 1596.4
426.46 -882.18 1612.7
431.26 -858.46 1569.3
458.49 -871.55 1593.2
464.34 -859.43 1571.1
468.66 -859.89 1571.9
472.98 -860.33 1572.7
475.25 -857.07 1566.7
473.85 -847.31 1548.9
466.36 -826.91 1511.6
481.86 -847.26 1548.8
501.25 -874.07 1597.8
484.77 -838.42 1532.7
475.80 -816.20 1492.0
500.82 -852.21 1557.9
508.94 -859.09 1570.4
493.97 -827.20 1512.1
533.91 -880.11 1608.9
531.55 -869.44 1589.4
543.33 -849.20 1552.4
544.93 -845.45 1545.5
553.94 -853.15 1559.6
564.21 -862.67 1577.0
576.26 -862.35 1576.4
582.73 -865.89 1582.9
563.86 -831.99 1520.9
583.98 -843.98 1542.8
594.88 -853.87 1560.9
615.13 -865.28 1581.8
642.06 -891.28 1629.3
631.68 -822.74 1504.0
650.73 -832.14 1521.2
669.16 -835.46 1527.2
668.64 -829.90 1517.1
696.44 -849.42 1552.8
694.04 -841.62 1538.5
699.70 -843.64 1542.2
718.76 -861.69 1575.2
736.18 -862.96 1577.5
738.15 -860.50 1573.0
737.77 -846.03 1546.6
783.45 -893.56 1633.5
771.85 -875.59 1600.6
765.97 -864.28 1579.9
774.55 -869.30 1589.1
768.22 -848.66 1551.4
791.72 -839.46 1534.6
783.96 -791.46 1446.8
802.10 -805.92 1473.2
812.56 -812.56 1485.4
804.39 -800.60 1463.5
817.97 -799.03 1460.7
827.21 -804.34 1470.4
794.29 -768.78 1405.4
957.97 -795.79 1454.7
963.08 -781.57 1428.7
978.07 -790.70 1445.4
1024.13 -809.33 1479.5
1031.09 -811.79 1484.0
1027.60 -794.23 1451.9
1045.13 -804.82 1471.2
1066.96 -818.65 1496.5
1125.49 -821.73 1502.1
1111.14 -808.45 1477.9
1111.35 -800.32 1463.0
1120.08 -803.87 1469.5
1112.13 -795.45 1454.1
1137.62 -810.94 1482.4
1136.34 -807.30 1475.8
1099.13 -778.24 1422.7
1155.46 -812.67 1485.6
1168.25 -818.94 1497.0
1132.39 -791.17 1446.3
1110.53 -773.34 1413.7
1121.54 -778.44 1423.0
1123.46 -777.22 1420.8
1135.09 -782.69 1430.8
1172.51 -805.86 1473.1
1195.72 -819.15 1497.4
1174.75 -802.17 1466.4
1159.43 -789.16 1442.6
1165.96 -791.05 1446.1
1153.99 -780.42 1426.6
1149.49 -774.89 1416.5
1157.73 -777.97 1422.1
1148.52 -769.33 1406.4
1157.47 -768.01 1403.9
1194.51 -790.10 1444.3
-1569.19 -1049.43 1909.3
-1499.44 -1005.95 1830.2
-1521.33 -1023.88 1862.9
-1559.37 -1052.82 1915.5
-1533.47 -1038.64 1889.7
-1556.37 -1060.93 1930.3
-1453.11 -1003.45 1825.7
-1503.58 -1041.70 1895.3
-1460.39 -1015.09 1846.9
-1443.29 -1013.17 1843.4
-1470.52 -1035.71 1884.4
-1440.15 -1017.71 1851.6
-1403.42 -1001.77 1822.6
-1409.10 -1009.22 1836.2
-1438.11 -1033.49 1880.3
-1389.11 -1022.54 1860.4
-1292.59 -968.30 1761.7
-1239.18 -931.58 1694.9
-1182.70 -911.75 1658.8
-1193.34 -923.31 1679.9
-1181.76 -917.70 1669.7
-1173.37 -914.54 1663.9
-1119.20 -885.34 1610.8
-1148.33 -929.18 1690.6
-1121.62 -911.05 1657.6
-1096.57 -894.13 1626.8
-1090.40 -892.52 1623.9
-1031.70 -854.38 1554.5
-1046.23 -869.81 1582.5
-1021.85 -877.06 1595.7
-1025.05 -883.37 1607.2
-1007.76 -872.02 1586.6
-980.72 -862.71 1569.6
-1021.15 -902.01 1641.1
-1015.96 -901.18 1639.6
-1000.36 -894.84 1628.1
-995.67 -902.06 1641.2
-982.05 -893.54 1625.7
-962.44 -879.47 1600.1
-965.69 -886.26 1612.5
-944.35 -870.44 1583.7
-923.21 -881.62 1604.0
-935.60 -897.49 1632.9
-921.93 -888.40 1616.4
-904.92 -888.16 1615.9
-886.63 -890.83 1620.8
-851.61 -880.69 1602.3
-857.44 -891.06 1621.2
-842.67 -880.03 1601.1
-822.10 -867.09 1577.6
-881.59 -934.48 1700.2
-860.72 -921.58 1676.7
-848.93 -913.57 1662.2
-865.68 -936.35 1703.6
-785.29 -867.09 1577.6
-813.30 -902.72 1642.4
-844.19 -941.94 1713.8
-821.11 -921.03 1675.7
-803.44 -915.75 1666.1
-802.49 -919.61 1673.1
-764.85 -881.24 1603.3
-773.81 -901.36 1639.9
-788.81 -923.91 1681.0
-784.32 -923.75 1680.7
-764.38 -905.30 1647.1
-742.72 -884.59 1609.4
-717.14 -868.77 1580.6
-746.63 -914.95 1664.7
-756.72 -932.70 1697.0
-734.43 -910.52 1656.6
-710.16 -885.61 1611.3
-697.91 -875.49 1592.9
-711.78 -898.20 1634.2
-704.89 -894.83 1628.1
-693.94 -908.11 1652.2
-688.02 -917.36 1669.0
-705.47 -946.58 1722.2
-681.02 -919.59 1673.1
-654.45 -889.38 1618.1
-656.70 -898.19 1634.2
-665.14 -915.65 1665.9
-658.01 -911.75 1658.8
-645.68 -900.55 1638.5
-631.50 -886.60 1613.1
-649.36 -917.77 1669.8
-655.75 -945.70 1720.6
-647.32 -939.95 1710.1
-640.82 -936.92 1704.6
-594.61 -894.02 1626.6
-607.42 -926.43 1685.5
-584.00 -903.71 1644.2
-583.07 -908.90 1653.7
-564.49 -886.45 1612.8
-560.84 -907.61 1651.3
-561.85 -930.57 1693.1
-557.52 -930.67 1693.3
-542.89 -928.17 1688.7
-533.16 -926.48 1685.6
-521.74 -929.48 1691.1
-508.59 -913.73 1662.4
-490.43 -888.65 1616.8
-496.71 -907.78 1651.6
-503.82 -928.79 1689.8
-470.68 -915.45 1665.6
-462.80 -908.45 1652.8
-463.95 -919.23 1672.4
-461.96 -923.92 1681.0
-439.79 -914.07 1663.1
-431.22 -905.13 1646.8
-416.97 -883.97 1608.3
-414.10 -886.76 1613.4
-418.59 -934.12 1699.5
-390.31 -889.75 1618.8
-375.38 -874.52 1591.1
-393.06 -925.88 1684.5
-357.81 -861.99 1568.3
-366.69 -893.55 1625.7
-370.99 -947.60 1724.1
-365.39 -944.68 1718.7
-328.74 -917.01 1668.4
-326.55 -923.06 1679.4
-313.37 -897.76 1633.4
-295.60 -895.25 1628.8
-293.03 -900.32 1638.1
-290.41 -905.39 1647.3
-282.62 -894.27 1627.0
-278.20 -893.62 1625.9
-285.47 -931.08 1694.0
-275.56 -912.80 1660.8
-254.25 -883.61 1607.6
-248.13 -876.72 1595.1
-232.85 -866.03 1575.7
-241.45 -914.06 1663.1
-241.42 -930.57 1693.1
-231.13 -907.40 1650.9
-223.21 -892.83 1624.4
-204.25 -883.70 1607.8
-201.11 -888.23 1616.1
-197.82 -892.28 1623.4
-197.19 -908.78 1653.4
-194.37 -915.70 1666.0
-149.59 -880.92 1602.8
-148.79 -901.25 1639.7
-143.72 -896.13 1630.4
-137.12 -880.91 1602.7
-128.78 -880.72 1602.4
-126.55 -894.31 1627.1
-120.84 -883.39 1607.3
-112.66 -884.61 1609.5
-111.16 -906.37 1649.1
-107.52 -911.78 1658.9
-100.78 -890.25 1619.7
