ply
format ascii 1.0
element vertex 2104
property float x
property float y
property float z
end_header
651.75 -776.56 1782.9
657.79 -772.79 1774.3
647.99 -755.99 1735.7
660.81 -765.63 1757.8
713.78 -749.47 1720.7
730.54 -762.30 1750.2
770.10 -765.54 1757.6
766.70 -744.54 1709.4
799.17 -754.28 1731.8
802.05 -748.58 1718.7
823.60 -764.44 1755.1
792.58 -719.75 1652.5
825.28 -745.42 1711.4
828.58 -744.40 1709.1
867.52 -771.13 1770.4
859.84 -756.30 1736.4
848.62 -742.54 1704.8
873.54 -760.39 1745.8
858.01 -743.02 1705.9
904.34 -748.42 1718.3
943.13 -743.88 1707.9
996.42 -764.38 1754.9
963.82 -726.11 1667.1
1007.63 -745.73 1712.1
1006.77 -741.83 1703.2
1019.27 -747.76 1716.8
1028.93 -751.57 1725.5
1006.38 -731.91 1680.4
1001.43 -722.06 1657.8
1039.35 -724.53 1663.5
1045.09 -725.52 1665.7
1052.06 -724.37 1663.1
1079.44 -740.18 1699.4
1107.19 -741.07 1701.4
1152.33 -765.18 1756.8
1120.52 -741.13 1701.6
1106.65 -729.08 1673.9
1164.45 -752.41 1727.5
1155.03 -743.47 1706.9
1182.85 -727.91 1671.2
1227.19 -741.61 1702.7
1228.04 -739.47 1697.8
1202.29 -721.37 1656.2
1220.62 -714.51 1640.5
1208.83 -705.15 1619.0
1250.19 -726.75 1668.6
1301.36 -753.89 1730.9
1265.15 -730.40 1676.9
1228.17 -706.62 1622.3
1233.29 -707.14 1623.5
1303.41 -734.81 1687.1
1248.39 -701.44 1610.4
1340.64 -745.79 1712.3
1387.98 -769.58 1766.9
1429.65 -790.07 1813.9
1399.28 -770.75 1769.6
1411.23 -767.27 1761.6
1484.19 -804.33 1846.7
1426.65 -770.67 1769.4
1408.47 -751.18 1724.7
1482.80 -788.32 1809.9
1505.65 -797.95 1832.0
1485.16 -784.61 1801.4
1444.62 -760.80 1746.7
-1690.36 -898.33 2050.3
-1648.40 -892.89 2037.9
-1663.56 -909.84 2076.6
-1656.51 -908.93 2074.5
-1629.44 -896.99 2047.2
-1582.77 -882.80 2014.8
-1685.39 -943.15 2152.6
-1666.00 -935.39 2134.9
-1578.78 -889.38 2029.9
-1611.75 -910.99 2079.2
-1635.31 -927.41 2116.7
-1616.66 -919.92 2099.6
-1551.77 -895.05 2042.8
-1586.62 -927.82 2117.6
-1573.85 -923.55 2107.8
-1503.77 -898.01 2049.6
-1570.21 -941.01 2147.7
-1533.61 -922.35 2105.1
-1497.03 -916.66 2092.1
-1454.63 -903.79 2062.8
-1450.29 -907.78 2071.8
-1463.17 -919.24 2098.0
-1430.84 -902.29 2059.3
-1435.61 -908.68 2073.9
-1428.56 -907.62 2071.5
-1386.37 -884.14 2017.9
-1379.96 -883.38 2016.2
-1362.43 -875.48 1998.1
-1270.47 -819.50 1870.4
-1334.24 -873.98 1994.7
-1256.50 -826.26 1885.8
-1234.92 -821.66 1875.3
-1207.14 -806.35 1840.4
-1218.52 -817.18 1865.1
-1234.41 -831.14 1896.9
-1184.32 -800.60 1827.2
-1233.47 -843.95 1926.2
-1215.25 -841.71 1921.1
-1191.82 -832.31 1899.6
-1154.78 -819.99 1871.5
-1172.68 -836.21 1908.5
-1179.18 -844.41 1927.2
-1184.15 -851.58 1943.6
-1142.41 -825.08 1883.1
-1169.66 -848.38 1936.3
-1149.93 -841.29 1920.1
-1116.38 -820.29 1872.2
-1102.12 -813.36 1856.3
-1095.54 -812.05 1853.4
-1102.25 -827.92 1889.6
-1057.17 -801.17 1828.5
-1099.47 -840.77 1918.9
-1077.82 -839.41 1915.8
-1072.06 -838.79 1914.4
-1026.29 -806.71 1841.2
-1029.30 -812.86 1855.2
-1057.51 -839.06 1915.0
-1063.90 -848.11 1935.7
-1027.38 -830.76 1896.1
-1015.02 -824.70 1882.2
-984.76 -844.79 1928.1
-986.98 -851.02 1942.3
-944.20 -831.09 1896.8
-933.51 -825.99 1885.2
-903.41 -816.45 1863.4
-918.89 -843.98 1926.2
-808.20 -808.20 1844.6
-819.64 -824.52 1881.8
-823.91 -833.77 1903.0
-771.33 -830.28 1895.0
-756.81 -825.17 1883.3
-709.83 -794.44 1813.2
-696.93 -785.21 1792.1
-719.16 -815.69 1861.7
-691.76 -811.86 1852.9
-673.74 -807.53 1843.1
-702.88 -848.47 1936.5
-711.52 -865.08 1974.4
-708.76 -867.98 1981.0
-679.99 -838.82 1914.5
-622.80 -828.77 1891.5
-581.03 -791.89 1807.4
-593.54 -815.51 1861.3
-605.23 -838.39 1913.5
-583.45 -821.69 1875.4
-547.98 -826.86 1887.2
-524.79 -828.87 1891.8
-510.45 -829.48 1893.2
-516.51 -847.48 1934.2
-482.88 -816.06 1862.5
-473.17 -824.39 1881.5
-454.31 -799.77 1825.3
-455.75 -810.75 1850.4
-454.67 -817.43 1865.7
-443.59 -806.09 1839.8
-454.19 -834.32 1904.2
-437.75 -831.23 1897.1
-431.81 -829.27 1892.7
-426.70 -828.87 1891.8
-415.19 -815.89 1862.1
-403.43 -802.11 1830.7
-392.60 -789.88 1802.8
-372.08 -795.97 1816.7
-370.26 -802.23 1831.0
-368.91 -809.68 1848.0
-375.46 -834.90 1905.5
-370.32 -834.45 1904.5
-357.57 -816.61 1863.8
-344.85 -798.35 1822.1
-334.53 -785.22 1792.1
-337.50 -803.34 1833.5
-340.09 -821.07 1873.9
-327.43 -801.97 1830.4
-321.06 -797.92 1821.1
-319.12 -804.95 1837.2
-300.06 -817.90 1866.7
-294.52 -829.57 1893.4
-282.57 -823.35 1879.2
-282.35 -837.14 1910.6
-267.33 -806.77 1841.3
-261.34 -803.04 1832.8
-261.63 -818.80 1868.8
-258.48 -824.22 1881.2
-253.31 -823.27 1879.0
-244.06 -808.76 1845.9
-235.22 -795.04 1814.6
-230.00 -793.27 1810.5
-228.43 -804.25 1835.6
-225.50 -810.84 1850.6
-219.02 -804.67 1836.5
-212.19 -796.89 1818.8
-213.24 -819.04 1869.3
-216.07 -849.19 1938.1
-189.69 -801.43 1829.1
-180.28 -781.23 1783.0
-164.90 -774.13 1766.8
-160.77 -776.28 1771.7
-163.37 -812.03 1853.3
-163.67 -838.19 1913.0
-129.57 -811.00 1851.0
-123.99 -805.92 1839.4
-114.03 -802.94 1832.6
-105.47 -774.99 1768.8
-99.91 -767.48 1751.6
-99.51 -800.84 1827.8
-45.72 -772.72 1763.6
-42.01 -788.81 1800.3
-37.93 -801.29 1828.8
-33.44 -807.34 1842.6
-19.02 -803.80 1834.5
-9.75 -824.30 1881.3
13.97 -786.96 1796.1
18.65 -788.15 1798.8
23.15 -782.51 1786.0
32.76 -790.89 1805.1
37.99 -802.49 1831.5
42.26 -793.62 1811.3
46.10 -779.14 1778.3
51.99 -798.75 1823.0
58.05 -817.55 1865.9
79.06 -785.94 1793.8
87.03 -817.14 1865.0
89.24 -793.80 1811.7
101.16 -814.06 1858.0
105.80 -812.76 1855.0
108.80 -799.44 1824.6
113.29 -797.73 1820.7
117.34 -793.21 1810.4
119.67 -777.88 1775.4
128.91 -778.04 1775.7
138.71 -808.34 1844.9
144.61 -814.62 1859.2
150.78 -772.17 1762.4
159.67 -793.63 1811.3
165.24 -797.88 1821.0
171.97 -807.31 1842.6
176.10 -804.35 1835.8
182.35 -810.98 1850.9
188.40 -816.40 1863.3
189.50 -800.64 1827.3
194.68 -802.45 1831.5
197.10 -793.08 1810.1
198.29 -779.32 1778.7
206.90 -794.70 1813.8
216.33 -812.46 1854.3
223.80 -822.22 1876.6
233.07 -820.60 1872.9
235.66 -812.80 1855.1
238.64 -806.60 1840.9
234.81 -778.09 1775.9
243.08 -746.93 1704.7
254.02 -766.59 1749.6
256.06 -759.19 1732.7
259.92 -757.36 1728.5
268.62 -769.43 1756.1
270.97 -763.22 1741.9
275.96 -764.56 1745.0
280.68 -765.09 1746.2
283.19 -759.67 1733.8
290.44 -766.94 1750.4
297.01 -772.22 1762.5
294.96 -755.29 1723.8
302.21 -740.19 1689.4
316.55 -753.47 1719.7
335.24 -765.62 1747.4
345.07 -777.56 1774.6
354.32 -787.90 1798.2
351.64 -771.78 1761.5
346.58 -750.93 1713.9
348.30 -745.09 1700.5
366.36 -773.94 1766.4
377.96 -788.58 1799.8
377.35 -759.18 1732.7
391.95 -779.29 1778.6
395.78 -777.75 1775.1
413.40 -776.27 1771.7
401.95 -746.48 1703.7
447.63 -727.40 1660.2
501.91 -778.19 1776.1
485.75 -746.29 1703.3
504.03 -760.54 1735.8
527.41 -788.78 1800.3
524.96 -778.23 1776.2
529.65 -758.57 1731.3
526.47 -747.67 1706.4
535.22 -753.77 1720.3
542.10 -757.15 1728.1
557.31 -759.55 1733.6
575.67 -778.30 1776.3
579.32 -777.03 1773.4
580.07 -771.91 1761.7
587.16 -775.24 1769.4
588.72 -771.27 1760.3
597.90 -777.28 1774.0
619.62 -799.36 1824.4
635.55 -789.76 1802.5
625.23 -771.27 1760.3
629.04 -770.35 1758.2
647.70 -776.33 1771.8
666.85 -793.64 1811.4
637.30 -753.17 1719.0
671.55 -746.66 1704.1
689.80 -752.10 1716.5
706.57 -765.45 1747.0
674.56 -726.12 1657.2
729.52 -756.38 1726.3
726.15 -748.29 1707.9
732.12 -740.88 1690.9
790.74 -750.76 1713.5
785.29 -737.30 1682.8
833.20 -777.96 1775.6
822.80 -764.03 1743.8
783.96 -723.98 1652.4
855.25 -745.03 1700.4
892.07 -773.13 1764.5
871.51 -725.54 1655.9
938.03 -758.50 1731.2
952.33 -766.40 1749.2
953.27 -763.52 1742.6
967.67 -771.40 1760.6
963.18 -764.22 1744.2
936.42 -739.51 1687.8
1004.80 -771.87 1761.7
993.77 -756.52 1726.6
1030.03 -780.60 1781.6
1015.79 -766.37 1749.1
980.32 -729.84 1665.7
1016.19 -746.68 1704.2
1007.57 -737.14 1682.4
1062.45 -745.04 1700.4
1021.92 -713.65 1628.8
1090.29 -745.99 1702.6
1048.40 -714.44 1630.6
1118.70 -753.23 1719.1
1158.73 -774.02 1766.6
1102.70 -733.68 1674.5
1129.91 -743.02 1695.8
1171.52 -761.49 1738.0
1171.09 -758.29 1730.7
1165.48 -732.21 1671.2
1190.68 -745.28 1701.0
1174.32 -732.32 1671.4
1144.28 -710.97 1622.7
1196.07 -727.11 1659.5
1213.98 -735.35 1678.3
1204.26 -726.86 1658.9
1218.55 -730.27 1666.7
1233.24 -736.46 1680.8
1209.96 -720.01 1643.3
1235.60 -727.58 1660.6
1201.84 -705.25 1609.6
1219.39 -713.07 1627.5
1260.82 -734.76 1677.0
1220.56 -708.85 1617.8
1306.59 -743.48 1696.9
1379.42 -782.29 1785.4
1330.39 -751.96 1716.2
1299.07 -729.38 1664.7
1328.73 -743.56 1697.1
1307.10 -729.04 1663.9
1386.61 -770.85 1759.3
1399.58 -775.51 1770.0
1334.40 -736.97 1682.0
1378.41 -753.89 1720.6
1495.13 -815.09 1860.3
1475.68 -801.89 1830.2
1396.59 -756.49 1726.6
1322.85 -711.98 1625.0
1380.66 -740.73 1690.6
1431.48 -765.57 1747.3
1424.75 -759.57 1733.6
1425.20 -757.42 1728.7
1406.31 -745.04 1700.4
-1683.79 -923.37 2095.0
-1683.81 -926.37 2101.8
-1630.70 -900.06 2042.2
-1628.47 -904.71 2052.7
-1654.29 -922.06 2092.1
-1595.80 -898.30 2038.2
-1651.58 -932.79 2116.4
-1627.64 -922.33 2092.7
-1581.80 -899.35 2040.5
-1606.62 -925.85 2100.7
-1587.51 -917.95 2082.7
-1531.36 -888.50 2015.9
-1550.99 -906.08 2055.8
-1600.66 -938.32 2129.0
-1589.55 -935.03 2121.5
-1566.62 -924.74 2098.2
-1568.54 -929.10 2108.0
-1595.68 -948.48 2152.0
-1601.93 -955.54 2168.0
-1607.01 -961.94 2182.6
-1557.56 -942.29 2138.0
-1574.74 -956.09 2169.3
-1526.68 -930.23 2110.6
-1520.66 -929.90 2109.9
-1546.50 -949.12 2153.5
-1527.75 -944.43 2142.8
-1507.49 -935.31 2122.1
-1412.15 -892.43 2024.9
-1383.29 -884.06 2005.8
-1333.97 -862.26 1956.4
-1354.59 -878.93 1994.2
-1288.74 -839.41 1904.5
-1316.14 -860.55 1952.5
-1323.98 -869.02 1971.7
-1276.93 -841.39 1909.0
-1241.05 -820.93 1862.6
-1228.18 -815.59 1850.5
-1288.86 -859.24 1949.5
-1222.76 -821.62 1864.2
-1190.05 -806.01 1828.8
-1172.26 -797.14 1808.6
-1152.12 -789.76 1791.9
-1247.25 -858.43 1947.7
-1224.13 -849.40 1927.2
-1156.34 -832.96 1889.9
-1143.35 -827.11 1876.6
-1087.47 -807.29 1831.7
-1129.47 -842.15 1910.8
-1112.80 -837.06 1899.2
-1088.27 -848.65 1925.5
-994.47 -793.71 1800.9
-1009.17 -809.24 1836.1
-1015.66 -818.30 1856.7
-1045.70 -846.52 1920.7
-1050.14 -854.18 1938.1
-988.86 -828.11 1878.9
-1007.37 -847.79 1923.5
-979.63 -828.55 1879.9
-993.61 -853.10 1935.6
-967.90 -835.24 1895.1
-929.61 -818.83 1857.9
-915.26 -810.39 1838.7
-934.42 -831.69 1887.0
-941.87 -842.72 1912.1
-923.42 -830.59 1884.5
-885.25 -804.78 1826.0
-900.27 -822.83 1866.9
-920.33 -845.70 1918.8
-910.37 -845.70 1918.8
-884.77 -826.43 1875.1
-885.80 -831.96 1887.7
-880.87 -831.94 1887.6
-869.30 -825.60 1873.2
-822.87 -822.87 1867.0
-823.17 -828.04 1878.7
-813.04 -822.72 1866.7
-800.39 -814.77 1848.6
-805.77 -825.19 1872.3
-808.85 -833.36 1890.8
-768.31 -816.33 1852.2
-757.02 -835.67 1896.1
-738.35 -820.38 1861.4
-732.14 -840.98 1908.1
-707.34 -835.05 1894.7
-700.76 -838.93 1903.5
-707.10 -852.54 1934.3
-701.01 -851.23 1931.4
-677.24 -840.37 1906.7
-684.74 -855.93 1942.0
-657.60 -828.09 1878.9
-616.25 -787.69 1787.2
-639.23 -823.25 1867.9
-613.74 -796.46 1807.1
-632.69 -833.78 1891.8
-589.95 -789.70 1791.7
-575.73 -782.99 1776.5
-600.86 -830.46 1884.2
-599.97 -836.02 1896.9
-591.42 -837.85 1901.0
-548.55 -783.65 1778.0
-547.51 -788.79 1789.7
-544.92 -827.12 1876.7
-514.23 -802.01 1819.7
-505.58 -795.83 1805.7
-505.12 -802.53 1820.9
-508.25 -815.11 1849.4
-488.75 -791.30 1795.4
-488.43 -798.40 1811.5
-511.30 -843.89 1914.7
-499.75 -849.58 1927.6
-473.06 -820.62 1861.9
-471.84 -826.94 1876.3
-443.24 -793.17 1799.6
-436.40 -789.24 1790.7
-436.93 -798.70 1812.2
-457.19 -844.80 1916.8
-428.48 -809.34 1836.3
-421.65 -805.39 1827.4
-424.26 -819.59 1859.6
-419.84 -820.38 1861.4
-410.21 -810.88 1839.8
-398.12 -796.23 1806.6
-386.38 -781.96 1774.2
-385.00 -828.49 1879.8
-372.47 -811.79 1841.9
-357.06 -788.32 1788.6
-350.62 -784.29 1779.5
-362.27 -821.14 1863.1
-365.36 -839.35 1904.4
-343.85 -800.74 1816.8
-322.67 -806.67 1830.3
-325.10 -824.89 1871.6
-295.56 -810.40 1838.7
-301.77 -841.01 1908.2
-287.20 -813.74 1846.3
-274.13 -803.48 1823.0
-280.74 -837.31 1899.8
-273.40 -829.97 1883.1
-264.59 -817.83 1855.6
-261.51 -823.28 1867.9
-254.62 -816.72 1853.1
-245.85 -803.75 1823.6
-238.19 -793.97 1801.4
-230.52 -783.78 1778.3
-218.75 -791.22 1795.2
-216.21 -799.05 1813.0
-215.76 -853.00 1935.4
-206.63 -836.35 1897.6
-190.72 -790.78 1794.2
-184.79 -785.34 1781.9
-179.93 -784.31 1779.5
-171.82 -789.46 1791.2
-163.90 -773.95 1756.0
-157.55 -765.26 1736.3
-157.66 -788.32 1788.6
-156.88 -808.17 1833.7
-126.27 -766.61 1739.4
-126.31 -795.30 1804.5
-122.95 -803.88 1823.9
-106.63 -788.10 1788.1
-104.45 -807.13 1831.3
-78.10 -780.97 1772.0
-60.48 -790.91 1794.5
-56.97 -807.09 1831.2
-52.41 -809.97 1837.7
-48.38 -822.51 1866.2
-18.87 -802.14 1820.0
-14.73 -834.42 1893.2
-9.75 -828.79 1880.4
-4.88 -830.00 1883.2
0.00 -836.86 1898.8
4.67 -794.51 1802.7
9.16 -778.78 1767.0
14.12 -800.14 1815.4
18.93 -804.56 1825.5
23.21 -789.22 1790.7
27.57 -781.13 1772.3
59.13 -773.17 1754.3
65.96 -800.93 1817.2
70.70 -801.27 1818.0
88.66 -793.30 1799.9
98.20 -834.71 1893.9
101.96 -825.35 1872.6
102.37 -791.02 1794.7
107.55 -794.94 1803.7
114.15 -808.53 1834.5
118.65 -806.81 1830.6
121.84 -796.63 1807.5
134.46 -788.21 1788.4
185.37 -808.00 1833.3
189.98 -807.42 1832.0
189.17 -784.36 1779.6
205.41 -775.99 1760.6
212.52 -785.41 1782.0
224.73 -812.87 1844.3
233.53 -827.08 1876.6
228.28 -792.00 1797.0
267.40 -770.47 1748.1
275.93 -781.79 1773.8
277.71 -773.95 1756.0
279.55 -766.50 1739.1
277.60 -749.09 1699.6
318.21 -795.52 1805.0
334.53 -812.43 1843.3
325.22 -778.70 1766.8
333.71 -756.42 1716.2
342.99 -767.22 1740.8
347.72 -767.69 1741.8
350.09 -763.01 1731.2
354.28 -752.84 1708.1
376.67 -790.54 1793.7
374.85 -777.12 1763.2
372.11 -753.09 1708.7
373.41 -746.81 1694.4
386.04 -745.77 1692.1
397.89 -760.01 1724.4
402.37 -760.04 1724.5
397.78 -743.11 1686.1
420.34 -768.37 1743.4
433.14 -783.34 1777.3
450.82 -766.39 1738.9
464.17 -781.27 1772.6
459.10 -765.17 1736.1
455.52 -751.82 1705.8
461.12 -753.76 1710.2
465.78 -754.13 1711.0
496.90 -782.15 1774.6
516.98 -806.31 1829.4
489.36 -756.28 1715.9
511.28 -776.06 1760.8
516.06 -776.38 1761.5
544.33 -771.13 1749.6
560.94 -788.09 1788.1
555.76 -768.13 1742.8
566.69 -776.92 1762.8
569.47 -774.49 1757.2
559.34 -754.66 1712.3
551.04 -726.18 1647.6
596.79 -780.42 1770.7
600.98 -779.90 1769.5
610.23 -780.00 1769.7
628.64 -797.53 1809.5
623.14 -784.69 1780.4
620.10 -763.89 1733.2
692.67 -759.70 1723.7
685.49 -747.01 1694.9
694.59 -752.10 1706.5
720.75 -765.80 1737.5
733.63 -769.86 1746.7
741.18 -773.01 1753.9
728.45 -755.10 1713.3
721.73 -743.61 1687.2
741.65 -759.52 1723.3
729.30 -742.40 1684.4
829.82 -783.72 1778.2
826.90 -772.38 1752.4
827.14 -768.38 1743.4
829.33 -766.23 1738.5
875.90 -767.54 1741.5
885.33 -763.99 1733.4
911.67 -731.05 1658.7
928.17 -740.80 1680.8
921.52 -718.61 1630.5
985.77 -751.48 1705.0
960.65 -722.61 1639.5
954.46 -714.79 1621.8
1028.72 -737.90 1674.2
1033.98 -738.56 1675.7
1047.48 -741.96 1683.4
1081.04 -762.56 1730.2
1046.08 -734.85 1667.3
1040.86 -719.29 1632.0
1034.91 -712.29 1616.1
1079.12 -727.98 1651.7
1105.43 -742.78 1685.3
1089.54 -729.22 1654.5
1134.85 -750.68 1703.2
1117.19 -736.13 1670.2
1122.91 -731.39 1659.5
1131.08 -712.16 1615.8
1134.04 -711.39 1614.1
1197.48 -732.27 1661.5
1188.89 -724.41 1643.6
1206.79 -724.93 1644.8
1220.90 -730.82 1658.2
1182.97 -705.63 1601.0
1262.93 -748.08 1697.3
1305.43 -770.56 1748.3
1246.31 -733.12 1663.4
1213.53 -711.38 1614.1
1244.77 -727.19 1649.9
1271.01 -739.97 1678.9
1279.65 -742.46 1684.6
1280.88 -740.64 1680.5
1235.64 -712.06 1615.6
1280.99 -733.22 1663.6
1340.44 -764.68 1735.0
1338.22 -760.86 1726.3
1277.91 -721.74 1637.6
1282.21 -717.02 1626.9
1345.36 -749.87 1701.4
1339.44 -744.13 1688.4
1331.11 -737.10 1672.4
1343.38 -741.48 1682.3
1369.28 -753.32 1709.2
1424.29 -781.06 1772.2
1443.89 -789.27 1790.8
1398.70 -762.11 1729.2
1388.48 -754.13 1711.0
1424.79 -771.38 1750.2
1384.60 -747.24 1695.4
1345.43 -723.81 1642.2
1364.98 -732.01 1660.9
1396.63 -746.63 1694.0
1444.08 -769.57 1746.1
-1690.49 -914.79 2063.4
-1666.30 -907.44 2046.9
-1713.56 -942.18 2125.2
-1688.67 -934.51 2107.9
-1642.06 -911.66 2056.4
-1540.89 -890.18 2007.9
-1570.63 -910.43 2053.6
-1528.14 -910.49 2053.7
-1562.09 -933.98 2106.7
-1573.45 -944.07 2129.5
-1564.07 -941.75 2124.2
-1524.62 -921.24 2078.0
-1542.17 -941.83 2124.4
-1519.59 -931.36 2100.8
-1530.10 -941.18 2123.0
-1570.71 -969.64 2187.2
-1561.27 -967.31 2181.9
-1491.77 -927.61 2092.4
-1428.60 -891.57 2011.1
-1434.16 -898.32 2026.3
-1369.48 -877.08 1978.4
-1334.88 -858.14 1935.6
-1324.11 -864.21 1949.3
-1336.24 -875.47 1974.7
-1328.34 -873.64 1970.6
-1306.84 -862.82 1946.2
-1213.98 -814.08 1836.3
-1198.86 -813.51 1835.0
-1190.23 -810.88 1829.0
-1215.78 -831.60 1875.8
-1181.20 -814.45 1837.1
-1215.04 -841.18 1897.4
-1228.49 -853.95 1926.2
-1180.07 -823.64 1857.8
-1180.47 -827.29 1866.1
-1210.77 -852.03 1921.9
-1162.75 -821.61 1853.3
-1125.89 -798.87 1802.0
-1111.98 -792.29 1787.1
-1124.26 -814.61 1837.5
-1094.84 -850.99 1919.5
-1084.01 -846.42 1909.2
-1063.12 -833.92 1881.0
-1045.55 -823.91 1858.4
-1044.01 -826.51 1864.3
-1034.27 -822.61 1855.5
-984.76 -786.89 1774.9
-1005.25 -810.84 1829.0
-1024.72 -830.46 1873.2
-1017.27 -828.35 1868.4
-981.86 -803.34 1812.1
-958.00 -791.39 1785.1
-939.35 -779.75 1758.8
-971.47 -830.60 1873.5
-957.68 -822.93 1856.2
-983.91 -849.74 1916.7
-957.83 -831.41 1875.4
-918.86 -801.66 1808.3
-933.04 -818.21 1845.6
-929.51 -819.31 1848.1
-883.12 -782.45 1764.9
-914.36 -845.17 1906.4
-911.01 -846.65 1909.7
-871.28 -823.14 1856.7
-880.55 -836.53 1886.9
-881.10 -841.72 1898.6
-850.88 -817.41 1843.8
-839.85 -811.38 1830.2
-844.66 -820.67 1851.1
-849.38 -829.97 1872.1
-842.60 -832.86 1878.6
-821.47 -821.47 1852.9
-838.64 -843.57 1902.8
-836.62 -846.52 1909.4
-796.46 -810.69 1828.6
-787.54 -836.46 1886.7
-762.70 -815.14 1838.7
-754.65 -811.60 1830.7
-760.66 -823.24 1856.9
-754.34 -821.60 1853.2
-756.01 -828.70 1869.3
-719.27 -825.47 1862.0
-704.38 -825.00 1860.9
-702.67 -828.67 1869.2
-700.59 -831.95 1876.6
-723.84 -865.57 1952.4
-686.24 -838.19 1890.7
-681.38 -856.74 1932.5
-632.96 -801.75 1808.5
-636.46 -818.31 1845.8
-648.79 -846.89 1910.3
-601.25 -809.56 1826.1
-583.74 -792.22 1787.0
-589.44 -826.18 1863.6
-580.56 -820.47 1850.7
-586.52 -835.79 1885.3
-572.77 -823.05 1856.5
-571.81 -828.63 1869.1
-566.24 -827.58 1866.7
-545.68 -818.52 1846.3
-548.46 -829.96 1872.1
-535.20 -817.14 1843.2
-534.66 -854.46 1927.3
-517.53 -834.89 1883.2
-480.09 -781.87 1763.6
-477.46 -785.06 1770.8
-495.19 -822.10 1854.4
-466.52 -814.04 1836.2
-456.68 -822.02 1854.2
-436.22 -793.56 1790.0
-443.56 -824.44 1859.6
-440.85 -828.41 1868.6
-422.03 -820.09 1849.8
-424.30 -833.97 1881.1
-416.42 -828.00 1867.7
-405.85 -816.47 1841.7
-399.11 -812.47 1832.6
-379.71 -801.62 1808.2
-392.89 -839.79 1894.3
-391.82 -848.12 1913.1
-373.58 -818.99 1847.4
-363.51 -828.80 1869.5
-343.53 -804.70 1815.1
-327.95 -812.75 1833.3
-326.19 -820.26 1850.2
-324.02 -826.97 1865.3
-298.33 -822.82 1856.0
-300.92 -843.55 1902.8
-291.72 -831.40 1875.3
-281.55 -816.02 1840.6
-276.59 -815.48 1839.4
-275.93 -827.78 1867.2
-267.75 -817.60 1844.2
-250.27 -807.48 1821.4
-245.25 -806.50 1819.2
-240.48 -806.33 1818.8
-241.25 -825.07 1861.1
-240.76 -840.19 1895.2
-204.20 -812.05 1831.7
-202.47 -824.34 1859.4
-193.73 -807.99 1822.5
-188.67 -806.56 1819.3
-184.64 -809.56 1826.1
-180.21 -810.95 1829.2
-175.24 -809.90 1826.9
-167.74 -796.74 1797.2
-133.71 -788.46 1778.5
-126.01 -769.57 1735.9
-121.91 -772.12 1741.6
-117.72 -774.26 1746.4
-82.86 -787.17 1775.6
-78.26 -787.25 1775.7
-72.95 -779.62 1758.5
-60.33 -793.59 1790.0
-57.37 -817.54 1844.1
-53.14 -826.11 1863.4
-48.22 -824.53 1859.9
-42.29 -803.51 1812.4
-33.84 -826.68 1864.7
-4.64 -792.75 1788.1
0.00 -819.50 1848.5
4.66 -796.80 1797.3
18.98 -811.35 1830.1
24.14 -825.52 1862.1
27.94 -796.31 1796.2
59.35 -780.62 1760.8
64.54 -788.26 1778.0
90.38 -813.40 1834.7
97.07 -829.91 1872.0
97.58 -794.60 1792.3
100.39 -780.34 1760.2
107.94 -802.50 1810.1
113.07 -805.63 1817.2
116.11 -794.19 1791.4
119.45 -785.58 1772.0
160.55 -784.38 1769.3
163.06 -774.53 1747.1
179.32 -766.61 1729.2
183.09 -763.62 1722.4
190.58 -775.94 1750.2
204.20 -812.05 1831.7
196.04 -761.87 1718.5
211.46 -769.35 1735.4
228.45 -813.84 1835.7
232.57 -811.61 1830.7
230.88 -774.14 1746.2
237.91 -782.37 1764.7
241.30 -778.52 1756.1
242.98 -769.45 1735.6
276.45 -774.96 1748.0
276.09 -761.47 1717.6
323.32 -813.06 1834.0
327.15 -810.75 1828.8
331.76 -810.44 1828.1
324.92 -782.56 1765.2
346.88 -790.89 1784.0
350.65 -788.97 1779.6
349.73 -776.68 1751.9
356.12 -780.73 1761.1
353.54 -765.26 1726.2
363.18 -739.33 1667.7
382.83 -743.91 1678.0
390.92 -751.09 1694.2
399.08 -758.26 1710.4
398.90 -749.57 1690.8
408.55 -751.21 1694.5
422.09 -767.84 1732.0
442.71 -764.68 1724.9
453.63 -775.72 1749.7
466.21 -781.58 1763.0
474.79 -788.24 1778.0
485.84 -798.83 1801.9
488.54 -788.12 1777.7
516.73 -788.93 1779.5
506.29 -766.15 1728.2
530.15 -761.81 1718.4
533.18 -759.78 1713.8
544.08 -756.40 1706.2
551.81 -760.97 1716.5
551.65 -754.65 1702.2
554.27 -752.22 1696.7
541.01 -728.44 1643.1
584.79 -769.22 1735.1
593.04 -774.13 1746.1
591.79 -766.64 1729.3
613.01 -788.16 1777.8
590.86 -754.01 1700.8
619.77 -746.34 1683.5
656.11 -784.58 1769.7
674.07 -794.94 1793.1
663.18 -776.74 1752.0
655.39 -762.39 1719.7
652.08 -753.41 1699.4
693.97 -770.58 1738.2
688.98 -760.10 1714.5
750.64 -777.93 1754.7
745.42 -767.88 1732.1
802.59 -766.72 1729.5
820.91 -779.86 1759.1
810.57 -765.79 1727.3
819.07 -761.20 1717.0
824.24 -726.52 1638.8
870.11 -763.02 1721.1
886.19 -765.35 1726.4
897.25 -727.15 1640.2
927.13 -747.83 1686.8
932.42 -748.56 1688.5
934.10 -746.40 1683.6
943.31 -739.94 1669.0
984.96 -769.08 1734.8
958.04 -724.89 1635.1
982.65 -740.24 1669.7
957.01 -717.75 1619.0
1018.00 -731.42 1649.8
1032.08 -738.43 1665.6
1036.59 -729.45 1645.4
1049.57 -706.60 1593.8
1052.09 -705.52 1591.4
1103.89 -734.49 1656.8
1113.80 -738.22 1665.1
1081.45 -705.83 1592.1
1166.78 -736.23 1660.7
1179.58 -741.57 1672.7
1190.79 -745.88 1682.4
1165.53 -727.39 1640.7
1128.80 -699.36 1577.5
1166.23 -719.95 1623.9
1176.87 -723.90 1632.9
1288.22 -764.88 1725.3
1259.62 -745.31 1681.2
1222.94 -721.11 1626.6
1253.05 -736.33 1660.9
1311.16 -767.84 1732.0
1306.04 -737.07 1662.6
1312.97 -738.54 1665.9
1304.67 -731.47 1649.9
1307.48 -730.65 1648.1
1312.04 -730.81 1648.4
1408.01 -776.68 1751.9
1425.19 -781.11 1761.9
1395.96 -762.65 1720.3
1448.98 -789.10 1779.9
1425.63 -773.91 1745.7
1361.39 -736.70 1661.7
1359.94 -733.59 1654.7
1377.72 -740.85 1671.1
1412.44 -757.14 1707.8
-1681.66 -915.34 2052.7
-1687.35 -924.28 2072.7
-1661.85 -913.22 2047.9
-1684.56 -928.67 2082.6
-1671.04 -927.16 2079.2
-1668.12 -928.53 2082.3
-1657.53 -925.63 2075.8
-1550.31 -894.81 2006.6
-1561.79 -904.47 2028.3
-1599.01 -929.16 2083.7
-1643.74 -961.64 2156.5
-1551.61 -910.84 2042.6
-1519.59 -895.10 2007.3
-1540.31 -926.34 2077.3
-1574.31 -960.22 2153.3
-1485.50 -915.79 2053.7
-1550.52 -959.31 2151.3
-1528.52 -949.12 2128.4
-1464.57 -916.02 2054.2
-1473.89 -925.22 2074.8
-1459.78 -919.72 2062.5
-1418.65 -897.09 2011.7
-1411.29 -902.39 2023.6
-1425.77 -915.05 2052.0
-1398.46 -900.88 2020.2
-1341.42 -867.38 1945.1
-1294.22 -840.02 1883.8
-1288.09 -852.12 1910.9
-1313.25 -872.12 1955.7
-1294.44 -862.96 1935.2
-1244.13 -849.16 1904.3
-1204.72 -825.54 1851.3
-1198.62 -824.65 1849.3
-1133.26 -785.97 1762.6
-1154.59 -804.01 1803.0
-1158.15 -809.77 1815.9
-1152.12 -808.84 1813.8
-1191.12 -839.64 1882.9
-1195.46 -853.19 1913.3
-1189.24 -852.29 1911.3
-1153.97 -830.47 1862.3
-1112.99 -804.35 1803.8
-1109.10 -811.77 1820.4
-1091.44 -802.25 1799.1
-1093.82 -817.98 1834.3
-1065.08 -803.48 1801.8
-1058.49 -812.77 1822.7
-1061.80 -818.97 1836.6
-1004.38 -785.25 1760.9
-1040.38 -817.10 1832.4
-1071.03 -845.03 1895.0
-1086.80 -861.42 1931.8
-1067.63 -858.09 1924.3
-1007.81 -813.82 1825.0
-1017.23 -829.21 1859.5
-1023.61 -838.38 1880.1
-995.74 -819.46 1837.7
-991.91 -820.23 1839.4
-989.83 -822.46 1844.4
-981.58 -819.57 1837.9
-973.80 -817.04 1832.2
-954.02 -812.33 1821.7
-998.30 -854.27 1915.7
-993.39 -854.31 1915.8
-950.96 -821.94 1843.2
-950.87 -826.01 1852.3
-924.94 -807.56 1811.0
-905.40 -802.72 1800.1
-881.59 -785.66 1761.9
-876.15 -784.88 1760.1
-872.77 -785.95 1762.5
-883.74 -800.02 1794.1
-867.82 -824.67 1849.3
-883.36 -844.10 1892.9
-866.88 -837.66 1878.5
-819.78 -810.36 1817.2
-810.06 -805.38 1806.1
-793.60 -793.60 1779.7
-830.35 -845.09 1895.1
-806.89 -826.10 1852.6
-752.21 -788.91 1769.1
-759.39 -801.32 1797.0
-770.57 -833.58 1869.3
-752.31 -818.97 1836.6
-750.56 -822.27 1844.0
-756.75 -834.37 1871.1
-728.36 -808.25 1812.5
-698.52 -780.17 1749.5
-721.93 -827.81 1856.4
-715.99 -826.51 1853.5
-680.62 -790.99 1773.8
-668.63 -809.89 1816.2
-671.68 -819.36 1837.4
-645.68 -793.26 1778.9
-684.09 -858.85 1926.0
-654.74 -828.05 1856.9
-630.88 -803.79 1802.5
-629.36 -807.84 1811.6
-631.33 -828.93 1858.9
-582.31 -807.73 1811.3
-575.75 -805.11 1805.5
-554.88 -808.81 1813.8
-568.14 -835.21 1873.0
-547.19 -832.89 1867.8
-530.82 -830.01 1861.3
-528.46 -841.62 1887.4
-519.50 -842.96 1890.4
-488.35 -799.96 1793.9
-492.33 -814.24 1826.0
-503.74 -841.20 1886.4
-463.16 -812.89 1822.9
-465.39 -825.22 1850.6
-465.04 -833.19 1868.5
-472.28 -855.07 1917.5
-452.99 -828.87 1858.8
-422.12 -797.85 1789.2
-411.20 -812.94 1823.0
-376.16 -798.76 1791.2
-378.38 -813.51 1824.3
-383.00 -833.88 1870.0
-372.46 -842.94 1890.3
-358.62 -822.44 1844.3
-338.44 -797.42 1788.2
-340.99 -814.59 1826.7
-331.75 -803.67 1802.2
-332.27 -816.43 1830.9
-328.77 -819.55 1837.9
-320.32 -810.21 1816.9
-311.02 -798.44 1790.5
-299.49 -844.46 1893.7
-297.49 -852.81 1912.4
-283.50 -826.47 1853.4
-275.38 -816.65 1831.3
-274.20 -827.40 1855.5
-265.79 -816.35 1830.7
-242.82 -803.18 1801.1
-239.54 -807.85 1811.6
-241.02 -829.11 1859.3
-237.42 -833.38 1868.9
-199.65 -798.60 1790.9
-193.67 -793.11 1778.6
-188.13 -789.24 1769.9
-180.23 -794.86 1782.5
-174.12 -788.14 1767.4
-170.71 -793.58 1779.6
-151.52 -789.73 1771.0
-145.37 -781.34 1752.2
-141.21 -783.51 1757.0
-140.65 -806.40 1808.4
-138.86 -823.59 1846.9
-130.85 -803.81 1802.6
-124.29 -791.74 1775.5
-117.86 -779.66 1748.4
-99.88 -780.90 1751.2
-94.36 -772.85 1733.1
-92.48 -795.32 1783.5
-90.65 -820.63 1840.3
-86.57 -827.22 1855.1
-79.60 -805.33 1806.0
-72.16 -775.70 1739.5
-58.00 -767.34 1720.8
-55.27 -792.22 1776.6
-50.90 -795.94 1784.9
-45.83 -788.25 1767.7
-32.63 -801.80 1798.1
-18.78 -807.58 1811.0
0.00 -791.73 1775.5
4.62 -794.58 1781.9
9.20 -790.91 1773.6
13.67 -783.97 1758.1
18.65 -801.87 1798.2
23.68 -814.48 1826.5
27.35 -783.91 1757.9
41.03 -784.22 1758.6
46.16 -793.95 1780.5
50.49 -789.42 1770.3
70.64 -759.42 1703.0
75.01 -758.94 1701.9
80.57 -769.85 1726.4
88.13 -797.85 1789.2
93.52 -804.27 1803.6
94.71 -775.70 1739.5
106.20 -794.22 1781.1
111.88 -801.84 1798.1
114.93 -790.75 1773.3
118.16 -781.70 1753.0
123.90 -789.30 1770.0
130.13 -799.34 1792.5
133.31 -790.68 1773.1
136.97 -785.27 1761.0
141.14 -783.11 1756.1
145.74 -783.37 1756.7
148.17 -772.27 1731.8
151.02 -764.01 1713.3
160.47 -788.62 1768.5
164.86 -787.65 1766.3
179.34 -771.17 1729.4
187.75 -787.62 1766.3
199.80 -818.24 1834.9
208.66 -834.66 1871.7
195.64 -764.78 1715.0
216.03 -774.12 1736.0
230.27 -808.30 1812.6
236.20 -812.53 1822.1
234.38 -790.47 1772.6
236.10 -780.94 1751.3
240.32 -779.91 1749.0
243.26 -774.83 1737.6
254.09 -780.42 1750.1
264.03 -796.72 1786.7
272.45 -781.04 1751.5
280.33 -790.45 1772.6
275.83 -765.20 1716.0
303.66 -779.54 1748.1
311.89 -788.90 1769.1
311.04 -775.34 1738.7
310.52 -762.99 1711.0
315.17 -763.50 1712.2
315.11 -752.77 1688.1
325.85 -757.38 1698.5
349.00 -800.38 1794.9
354.75 -802.86 1800.4
336.85 -752.45 1687.4
379.03 -776.12 1740.5
399.63 -772.32 1732.0
415.18 -793.46 1779.4
416.22 -786.71 1764.2
412.50 -771.20 1729.4
418.93 -774.79 1737.5
423.66 -775.20 1738.4
425.10 -769.65 1726.0
451.14 -753.36 1689.4
464.12 -767.58 1721.3
471.70 -772.69 1732.8
497.55 -777.99 1744.7
505.60 -783.45 1756.9
491.40 -754.65 1692.3
494.46 -752.63 1687.8
515.05 -750.76 1683.6
520.73 -752.65 1687.8
534.64 -747.63 1676.6
552.17 -765.91 1717.6
560.24 -770.89 1728.7
570.65 -778.98 1746.9
574.51 -778.08 1744.9
560.38 -753.02 1688.7
599.33 -780.94 1751.3
611.57 -790.91 1773.6
581.27 -746.11 1673.2
608.49 -763.94 1713.2
607.53 -757.22 1698.1
659.07 -792.73 1777.7
669.92 -794.66 1782.0
643.58 -747.95 1677.3
665.78 -753.38 1689.5
715.10 -754.58 1692.2
741.64 -773.10 1733.7
756.61 -761.04 1706.6
744.19 -744.19 1668.9
768.19 -750.73 1683.5
777.69 -730.94 1639.2
816.01 -762.80 1710.6
843.41 -784.14 1758.5
830.30 -767.81 1721.8
798.41 -734.36 1646.8
797.90 -730.00 1637.0
847.37 -751.28 1684.8
872.36 -769.46 1725.5
897.51 -787.61 1766.2
873.33 -743.63 1667.6
886.37 -751.02 1684.2
884.26 -745.55 1671.9
910.48 -763.91 1713.1
918.97 -763.59 1712.4
910.86 -742.50 1665.1
915.20 -742.52 1665.1
915.50 -739.27 1657.8
912.14 -733.12 1644.0
994.89 -784.96 1760.3
986.98 -775.16 1738.3
911.06 -712.28 1597.3
976.67 -743.31 1666.9
1022.64 -774.86 1737.6
1014.72 -765.49 1716.6
999.58 -750.77 1683.6
1011.55 -756.47 1696.4
1003.33 -740.65 1660.9
1026.98 -754.87 1692.8
1015.74 -743.44 1667.2
995.14 -725.27 1626.4
1000.56 -723.10 1621.6
1103.55 -730.04 1637.1
1150.37 -738.30 1655.6
1162.75 -737.98 1654.9
1206.39 -762.86 1710.7
1199.21 -755.54 1694.3
1154.40 -724.66 1625.1
1122.44 -702.04 1574.3
1144.45 -713.21 1599.4
1167.09 -724.69 1625.1
1162.07 -713.85 1600.8
1174.92 -719.17 1612.8
1172.82 -715.34 1604.2
1213.06 -721.96 1619.0
1226.10 -727.20 1630.8
1266.41 -748.53 1678.6
1293.15 -748.89 1679.4
1251.66 -722.44 1620.1
1237.56 -709.54 1591.2
1257.71 -718.69 1611.7
1312.83 -747.70 1676.7
1339.60 -760.43 1705.3
1309.21 -740.74 1661.1
1292.14 -728.68 1634.1
1392.34 -772.52 1732.4
1436.78 -792.07 1776.2
1439.16 -790.85 1773.5
1474.37 -805.05 1805.3
1376.12 -749.03 1679.7
1387.92 -753.06 1688.8
1417.18 -766.52 1718.9
1383.25 -745.83 1672.5
-1677.63 -918.45 2047.7
-1658.76 -940.87 2097.7
-1653.92 -944.32 2105.4
-1571.13 -915.17 2040.4
-1610.60 -941.33 2098.7
-1634.67 -961.90 2144.6
-1642.50 -973.12 2169.6
-1619.16 -969.26 2161.0
-1529.20 -918.58 2048.0
-1530.62 -922.64 2057.1
-1577.95 -954.50 2128.1
-1439.86 -915.79 2041.8
-1435.03 -916.09 2042.5
-1437.73 -921.21 2053.9
-1439.31 -925.66 2063.8
-1398.03 -905.84 2019.6
-1358.60 -883.60 1970.0
-1332.63 -869.98 1939.7
-1312.59 -860.14 1917.7
-1224.32 -814.65 1816.3
-1249.11 -834.35 1860.2
-1249.25 -837.67 1867.6
-1153.82 -795.26 1773.1
-1161.84 -813.76 1814.3
-1168.89 -822.02 1832.7
-1167.84 -824.64 1838.6
-1148.27 -814.14 1815.2
-1147.72 -817.10 1821.8
-1172.49 -838.18 1868.8
-1183.69 -849.70 1894.5
-1197.75 -863.38 1925.0
-1181.17 -854.99 1906.3
-1118.55 -813.06 1812.8
-1067.67 -803.07 1790.5
-1039.79 -785.52 1751.4
-1067.29 -813.39 1813.5
-1058.44 -810.23 1806.4
-1046.81 -804.88 1794.5
-1064.25 -821.94 1832.6
-1047.94 -812.97 1812.6
-1013.57 -789.85 1761.0
-1040.04 -821.59 1831.8
-1074.80 -852.93 1901.7
-1023.62 -823.66 1836.4
-1014.41 -820.06 1828.4
-993.99 -807.32 1800.0
-1012.87 -830.46 1851.6
-1002.79 -826.11 1841.9
-989.37 -822.89 1834.7
-1016.32 -849.39 1893.8
-1000.97 -840.62 1874.2
-987.87 -833.67 1858.7
-976.14 -827.81 1845.6
-958.83 -817.14 1821.9
-955.86 -822.71 1834.3
-970.79 -839.74 1872.2
-945.95 -822.36 1833.5
-926.36 -809.40 1804.6
-922.18 -830.92 1852.6
-889.18 -809.63 1805.1
-867.63 -815.76 1818.8
-863.27 -816.09 1819.5
-857.71 -815.29 1817.7
-865.14 -826.90 1843.6
-863.84 -830.24 1851.1
-854.31 -825.68 1840.9
-850.65 -826.75 1843.3
-810.65 -834.78 1861.2
-796.56 -825.18 1839.8
-765.33 -807.33 1800.0
-780.69 -828.59 1847.4
-778.67 -831.54 1854.0
-758.81 -815.37 1817.9
-773.10 -835.91 1863.7
-762.52 -834.91 1861.5
-756.54 -833.64 1858.7
-739.79 -825.70 1841.0
-716.75 -805.18 1795.2
-713.66 -806.95 1799.1
-693.56 -799.90 1783.4
-699.42 -812.07 1810.6
-697.22 -814.99 1817.1
-694.00 -816.75 1821.0
-672.81 -797.24 1777.5
-647.05 -793.90 1770.0
-658.95 -814.27 1815.5
-681.88 -848.67 1892.2
-592.79 -794.98 1772.4
-560.88 -776.25 1730.7
-549.81 -806.08 1797.2
-570.83 -844.04 1881.8
-564.70 -842.19 1877.7
-563.85 -848.22 1891.2
-545.15 -834.60 1860.8
-517.08 -798.70 1780.8
-513.27 -799.96 1783.6
-529.34 -832.50 1856.1
-535.06 -849.23 1893.4
-502.49 -820.10 1828.5
-512.73 -844.78 1883.5
-497.62 -827.77 1845.6
-492.39 -827.02 1843.9
-490.69 -832.25 1855.5
-451.71 -789.35 1759.9
-461.83 -815.28 1817.7
-447.29 -814.54 1816.1
-452.57 -832.92 1857.1
-443.25 -824.55 1838.4
-427.22 -803.36 1791.1
-421.92 -820.14 1828.6
-387.65 -798.37 1780.0
-388.60 -809.97 1805.9
-363.59 -816.91 1821.3
-361.14 -822.08 1832.9
-341.18 -808.56 1802.7
-349.91 -840.75 1874.5
-346.34 -843.90 1881.5
-329.18 -813.54 1813.8
-309.78 -776.69 1731.7
-304.29 -774.15 1726.0
-298.05 -769.59 1715.8
-285.27 -822.51 1833.8
-277.42 -813.46 1813.7
-271.45 -809.67 1805.2
-272.33 -826.55 1842.8
-270.53 -835.73 1863.3
-266.68 -838.83 1870.2
-258.11 -826.90 1843.6
-248.43 -810.90 1808.0
-246.86 -821.29 1831.1
-246.38 -835.75 1863.4
-234.45 -811.19 1808.6
-219.34 -774.42 1726.6
-209.75 -788.86 1758.8
-200.38 -770.34 1717.5
-191.50 -788.81 1758.7
-190.46 -803.66 1791.8
-154.81 -787.70 1756.2
-153.55 -804.98 1794.8
-146.21 -790.44 1762.3
-140.57 -784.45 1749.0
-136.48 -787.04 1754.7
-131.34 -783.49 1746.8
-121.04 -775.57 1729.2
-120.69 -803.05 1790.4
-115.65 -800.30 1784.3
-106.79 -769.77 1716.2
-103.98 -782.13 1743.8
-100.57 -790.81 1763.2
-96.06 -791.31 1764.3
-93.48 -808.57 1802.8
-90.83 -827.06 1844.0
-86.78 -834.09 1859.7
-79.92 -813.32 1813.4
-73.49 -794.58 1771.6
-54.57 -786.65 1753.9
-49.81 -783.43 1746.7
-46.45 -803.52 1791.5
-41.14 -790.88 1763.3
-31.03 -766.81 1709.7
-27.76 -800.39 1784.5
-23.36 -808.19 1801.9
-18.82 -813.94 1814.7
-13.81 -796.36 1775.5
0.00 -798.02 1779.2
4.65 -803.75 1792.0
9.24 -799.24 1781.9
13.74 -792.27 1766.4
18.41 -796.35 1775.5
22.98 -795.10 1772.7
45.22 -782.25 1744.1
50.36 -792.02 1765.9
67.23 -775.43 1728.9
71.07 -768.41 1713.2
74.66 -759.75 1693.9
84.23 -766.96 1710.0
91.63 -792.63 1767.2
95.21 -784.36 1748.8
101.37 -762.51 1700.1
110.42 -795.92 1774.5
117.13 -810.52 1807.1
118.60 -789.16 1759.5
122.32 -783.74 1747.4
128.02 -790.97 1763.5
130.72 -779.82 1738.6
136.90 -789.49 1760.2
143.64 -801.60 1787.2
145.53 -786.76 1754.1
172.43 -764.90 1705.4
178.04 -770.02 1716.8
180.52 -761.71 1698.3
188.24 -775.38 1728.7
192.37 -773.97 1725.6
201.44 -774.41 1726.6
209.97 -789.67 1760.6
218.65 -771.98 1721.2
227.99 -788.84 1758.8
229.85 -779.68 1738.3
229.16 -762.40 1699.8
246.45 -789.56 1760.4
263.33 -828.28 1846.7
260.94 -806.12 1797.3
259.24 -786.81 1754.2
262.07 -781.69 1742.8
270.37 -792.79 1767.6
281.61 -811.98 1810.4
282.78 -801.99 1788.1
284.13 -792.81 1767.6
288.76 -792.94 1767.9
290.85 -786.19 1752.9
292.40 -778.23 1735.1
289.23 -758.14 1690.3
293.04 -756.65 1687.0
301.91 -768.09 1712.5
309.41 -764.69 1704.9
321.99 -784.57 1749.3
329.09 -790.72 1763.0
333.02 -789.20 1759.6
330.20 -771.96 1721.1
336.62 -776.48 1731.2
347.34 -790.66 1762.8
335.46 -753.70 1680.4
382.78 -788.34 1757.6
404.62 -786.51 1753.6
420.01 -807.34 1800.0
421.31 -800.95 1785.8
415.52 -781.37 1742.1
419.83 -780.98 1741.2
428.69 -788.98 1759.1
434.57 -791.38 1764.4
435.38 -784.59 1749.3
457.24 -760.61 1695.8
466.21 -768.13 1712.6
513.22 -807.15 1799.6
510.73 -796.00 1774.7
497.10 -767.84 1712.0
499.70 -765.02 1705.7
499.07 -737.95 1645.3
521.31 -764.30 1704.1
524.60 -762.65 1700.4
541.53 -767.91 1712.1
565.18 -794.93 1772.3
572.51 -798.74 1780.8
569.67 -788.42 1757.8
578.14 -793.79 1769.8
580.05 -790.14 1761.7
587.71 -758.76 1691.7
599.30 -767.99 1712.3
606.69 -771.75 1720.7
598.40 -755.64 1684.8
605.76 -759.40 1693.1
599.10 -745.65 1662.5
661.55 -789.30 1759.8
674.11 -772.33 1721.9
679.08 -772.90 1723.2
688.50 -768.45 1713.3
680.29 -754.43 1682.0
669.50 -737.73 1644.8
691.90 -743.47 1657.6
701.73 -749.38 1670.8
740.65 -776.57 1731.4
765.96 -788.76 1758.6
749.22 -753.58 1680.2
779.09 -779.09 1737.0
796.00 -782.43 1744.5
770.11 -752.71 1678.2
779.24 -757.35 1688.6
780.60 -742.00 1654.3
790.96 -747.74 1667.1
814.95 -766.23 1708.4
830.30 -776.44 1731.1
833.66 -775.39 1728.8
819.20 -757.87 1689.7
809.86 -745.24 1661.6
882.54 -791.09 1763.8
874.17 -775.55 1729.1
891.42 -745.01 1661.0
883.86 -735.13 1639.0
891.26 -737.74 1644.8
875.11 -720.92 1607.3
874.87 -717.31 1599.3
872.81 -712.24 1588.0
893.82 -722.58 1611.0
921.62 -741.58 1653.4
902.27 -722.65 1611.2
919.28 -732.88 1634.0
962.04 -763.46 1702.2
961.03 -748.91 1669.7
994.75 -771.71 1720.6
1002.91 -774.57 1727.0
1004.05 -772.01 1721.2
991.50 -758.98 1692.2
988.75 -753.54 1680.1
989.28 -750.64 1673.6
983.11 -742.70 1655.9
995.51 -748.79 1669.5
995.48 -745.54 1662.2
989.07 -734.37 1637.3
1007.82 -745.09 1661.2
989.24 -728.25 1623.7
992.94 -727.88 1622.8
1009.35 -736.78 1642.7
1040.55 -756.36 1686.4
1085.43 -772.75 1722.9
1050.29 -744.67 1660.3
1066.99 -747.33 1666.2
1079.48 -726.65 1620.1
1116.93 -743.19 1657.0
1123.19 -744.49 1659.9
1151.43 -748.86 1669.6
1135.99 -730.58 1628.9
1139.82 -727.64 1622.3
1169.31 -743.72 1658.2
1152.82 -730.54 1628.8
1152.97 -722.69 1611.3
1183.84 -739.37 1648.5
1181.88 -735.49 1639.8
1174.38 -728.20 1623.6
1181.73 -730.14 1627.9
1191.85 -733.77 1636.0
1211.44 -743.19 1657.0
1241.11 -758.70 1691.6
1223.54 -732.43 1633.0
1240.57 -740.06 1650.0
1284.30 -763.52 1702.3
1305.47 -773.45 1724.5
1266.91 -748.04 1667.8
1240.14 -729.74 1627.0
1253.27 -734.97 1638.7
1270.47 -742.54 1655.5
1250.92 -728.65 1624.6
1249.13 -725.16 1616.8
1264.05 -731.37 1630.6
1238.50 -714.20 1592.4
1284.88 -728.80 1624.9
1272.88 -712.65 1588.9
1308.67 -730.32 1628.3
1353.34 -750.41 1673.1
1448.38 -797.99 1779.2
1294.44 -708.67 1580.0
1421.25 -775.64 1729.3
1433.14 -779.66 1738.3
1374.57 -745.46 1662.0
-1651.27 -915.04 2028.4
-1615.61 -924.73 2049.9
-1671.12 -966.03 2141.5
-1574.89 -913.44 2024.9
-1555.17 -911.11 2019.7
-1567.13 -921.22 2042.1
-1595.60 -941.13 2086.3
-1527.47 -904.01 2004.0
-1602.80 -955.09 2117.2
-1597.03 -958.22 2124.1
-1583.13 -953.16 2112.9
-1533.53 -929.74 2061.0
-1499.63 -912.36 2022.5
-1478.16 -915.30 2029.0
-1299.91 -840.83 1863.9
-1351.04 -877.17 1944.5
-1384.25 -902.10 1999.7
-1413.54 -924.64 2049.7
-1376.81 -904.02 2004.0
-1349.26 -889.28 1971.3
-1331.32 -880.80 1952.5
-1271.86 -844.67 1872.4
-1215.32 -810.21 1796.0
-1194.70 -812.02 1800.0
-1212.96 -827.66 1834.7
-1202.26 -823.59 1825.7
-1158.74 -796.92 1766.6
-1107.88 -771.08 1709.3
-1168.04 -819.51 1816.6
-1192.76 -840.24 1862.6
-1172.56 -829.37 1838.5
-1124.90 -798.91 1771.0
-1137.18 -824.45 1827.6
-1154.73 -840.68 1863.6
-1134.40 -829.35 1838.5
-1018.06 -790.81 1753.0
-989.80 -772.31 1712.0
-1004.82 -802.01 1777.9
-1013.95 -813.03 1802.3
-987.96 -795.86 1764.2
-960.32 -777.19 1722.8
-975.27 -792.98 1757.8
-972.53 -794.46 1761.1
-970.68 -796.69 1766.1
-976.38 -805.17 1784.9
-970.07 -811.50 1798.9
-1005.42 -845.14 1873.5
-1001.06 -845.55 1874.4
-985.79 -836.72 1854.8
-971.90 -828.97 1837.6
-963.27 -825.66 1830.3
-952.51 -820.48 1818.8
-921.79 -805.99 1786.7
-948.94 -833.91 1848.6
-883.30 -830.78 1841.6
-886.47 -838.29 1858.3
-893.13 -849.20 1882.5
-897.31 -857.86 1901.7
-882.13 -848.01 1879.8
-860.78 -832.09 1844.5
-829.06 -805.91 1786.5
-821.96 -808.03 1791.2
-847.57 -837.94 1857.5
-831.23 -826.48 1832.1
-807.76 -836.61 1854.5
-802.86 -836.52 1854.4
-771.68 -808.86 1793.0
-740.26 -805.03 1784.5
-745.00 -815.28 1807.3
-717.10 -789.72 1750.6
-716.80 -804.67 1783.7
-723.32 -817.26 1811.7
-696.97 -808.48 1792.2
-704.46 -822.66 1823.6
-703.22 -826.76 1832.7
-712.11 -842.90 1868.5
-703.87 -838.86 1859.5
-679.46 -815.35 1807.4
-671.07 -810.88 1797.5
-680.34 -827.82 1835.1
-684.01 -838.16 1858.0
-668.93 -825.49 1829.9
-671.57 -834.66 1850.2
-672.54 -841.89 1866.3
-623.84 -786.57 1743.6
-623.91 -798.23 1769.5
-599.60 -828.02 1835.5
-579.64 -806.86 1788.6
-543.95 -802.09 1778.0
-567.11 -843.40 1869.6
-564.19 -846.29 1876.0
-543.67 -822.59 1823.5
-527.56 -805.22 1785.0
-532.27 -819.60 1816.8
-532.22 -826.84 1832.9
-534.37 -837.66 1856.9
-495.64 -821.35 1820.7
-493.58 -825.80 1830.6
-461.08 -794.34 1760.9
-462.97 -805.57 1785.7
-455.85 -801.19 1776.0
-444.49 -789.19 1749.4
-429.13 -785.99 1742.3
-441.53 -817.29 1811.7
-437.91 -819.31 1816.2
-427.89 -809.26 1793.9
-417.12 -806.43 1787.7
-394.95 -799.09 1771.4
-392.70 -803.89 1782.0
-401.50 -831.68 1843.6
-389.78 -817.12 1811.4
-354.84 -801.84 1777.5
-354.09 -810.68 1797.1
-342.77 -795.22 1762.8
-342.47 -805.26 1785.1
-324.03 -772.35 1712.1
-297.20 -834.07 1848.9
-268.18 -790.91 1753.3
-271.46 -814.39 1805.3
-270.34 -825.24 1829.4
-266.60 -828.35 1836.2
-257.92 -815.96 1808.8
-244.32 -787.24 1745.1
-238.74 -783.80 1737.5
-241.26 -807.29 1789.6
-247.70 -845.08 1873.3
-242.20 -842.87 1868.4
-226.84 -805.52 1785.6
-217.54 -788.57 1748.1
-214.61 -794.50 1761.2
-209.66 -793.07 1758.0
-206.00 -796.54 1765.7
-205.51 -812.69 1801.5
-199.67 -807.97 1791.1
-194.48 -805.71 1786.1
-192.31 -816.12 1809.1
-184.74 -803.62 1781.4
-177.59 -792.33 1756.4
-175.04 -801.51 1776.7
-153.79 -810.90 1797.6
-125.98 -782.87 1735.4
-121.31 -781.76 1733.0
-120.76 -808.14 1791.4
-118.19 -822.62 1823.6
-111.78 -810.42 1796.5
-105.89 -801.08 1775.8
-99.90 -790.09 1751.4
-96.61 -800.46 1774.4
-94.99 -826.43 1832.0
-76.59 -783.95 1737.8
-73.08 -794.71 1761.7
-68.44 -793.95 1760.0
-62.93 -782.10 1733.7
-36.33 -790.20 1751.7
-31.63 -786.12 1742.6
-27.38 -793.96 1760.0
-22.41 -780.00 1729.1
-13.57 -787.03 1744.6
-9.24 -803.49 1781.1
8.94 -777.99 1724.6
13.48 -781.68 1732.8
18.26 -794.42 1761.0
22.66 -788.64 1748.2
68.76 -797.65 1768.2
75.68 -823.06 1824.5
76.11 -779.02 1726.9
100.19 -757.97 1680.2
107.48 -779.22 1727.3
115.13 -801.28 1776.2
117.57 -786.80 1744.1
119.72 -771.50 1710.2
123.87 -769.74 1706.3
127.38 -764.29 1694.2
134.37 -779.34 1727.6
142.33 -798.89 1770.9
145.61 -791.78 1755.2
146.48 -772.37 1712.1
158.61 -766.60 1699.4
162.37 -763.58 1692.7
166.54 -762.60 1690.5
175.11 -781.27 1731.9
179.75 -781.92 1733.3
182.47 -774.38 1716.6
190.43 -788.93 1748.9
204.42 -790.41 1752.1
209.45 -792.25 1756.2
222.09 -757.72 1679.7
244.82 -788.88 1748.7
265.55 -825.09 1829.0
259.26 -791.42 1754.4
257.07 -771.20 1709.6
264.18 -779.10 1727.1
274.46 -795.95 1764.4
279.95 -798.53 1770.1
285.74 -801.93 1777.7
294.38 -813.04 1802.3
301.19 -818.86 1815.2
298.50 -799.06 1771.3
291.12 -767.49 1701.3
291.98 -758.28 1680.9
306.27 -772.33 1712.1
321.69 -799.62 1772.6
322.85 -791.20 1753.9
317.54 -767.38 1701.1
337.63 -804.77 1784.0
335.09 -777.40 1723.3
340.07 -749.02 1660.4
357.22 -767.36 1701.0
362.61 -769.45 1705.7
373.80 -783.63 1737.1
383.78 -794.98 1762.3
377.54 -772.84 1713.2
389.63 -761.75 1688.6
406.51 -785.92 1742.2
409.78 -783.53 1736.9
404.73 -765.47 1696.8
414.94 -776.33 1720.9
430.68 -797.22 1767.2
429.57 -786.79 1744.1
422.81 -766.34 1698.8
440.32 -751.14 1665.1
449.43 -751.92 1666.8
469.88 -778.65 1726.1
473.84 -777.82 1724.2
464.81 -755.86 1675.5
485.83 -748.09 1658.3
487.23 -743.67 1648.5
516.01 -760.90 1686.7
528.70 -760.28 1685.3
567.64 -809.59 1794.6
561.60 -794.46 1761.1
539.94 -757.66 1679.5
549.61 -765.06 1695.9
571.63 -789.39 1749.9
577.23 -790.85 1753.1
555.05 -754.52 1672.6
585.10 -754.12 1671.7
601.26 -769.27 1705.3
600.65 -762.87 1691.1
615.77 -776.41 1721.1
618.87 -774.70 1717.3
610.13 -752.93 1669.1
648.84 -784.02 1738.0
648.34 -778.00 1724.6
657.40 -757.53 1679.3
692.70 -792.95 1757.8
678.28 -761.42 1687.9
679.71 -758.14 1680.6
678.33 -751.77 1666.5
710.30 -758.23 1680.8
724.57 -768.75 1704.1
733.86 -773.88 1715.5
743.55 -779.39 1727.7
748.17 -779.53 1728.0
741.71 -768.19 1702.9
763.29 -772.16 1711.7
744.01 -748.31 1658.8
762.90 -762.90 1691.2
806.39 -801.78 1777.4
797.65 -788.58 1748.1
768.71 -755.68 1675.1
778.77 -744.54 1650.5
824.20 -766.90 1700.0
857.25 -789.21 1749.5
861.92 -777.06 1722.6
827.68 -742.35 1645.6
884.18 -754.15 1671.8
901.64 -765.29 1696.5
898.61 -751.72 1666.4
912.71 -759.86 1684.4
901.99 -747.36 1656.7
901.86 -743.71 1648.6
900.35 -738.97 1638.1
910.04 -743.41 1648.0
956.31 -777.56 1723.7
971.59 -782.67 1735.0
942.76 -755.95 1675.7
938.87 -749.37 1661.2
946.01 -734.85 1629.0
971.84 -751.56 1666.0
984.62 -758.07 1680.5
965.79 -740.30 1641.1
1002.25 -735.83 1631.1
1033.41 -755.52 1674.8
1044.30 -747.77 1657.6
1073.29 -762.26 1689.7
1093.15 -773.20 1714.0
1095.96 -772.06 1711.5
1072.05 -731.51 1621.6
1112.91 -756.43 1676.8
1143.60 -774.27 1716.4
1126.55 -759.76 1684.2
1100.49 -739.32 1638.9
1109.33 -742.40 1645.7
1105.08 -736.72 1633.1
1125.35 -741.71 1644.2
1135.31 -745.45 1652.5
1153.29 -754.41 1672.3
1184.63 -769.13 1705.0
1122.86 -720.95 1598.2
1121.47 -717.41 1590.3
1147.81 -723.62 1604.1
1196.73 -751.74 1666.4
1214.03 -759.86 1684.4
1180.19 -736.03 1631.6
1162.72 -722.55 1601.7
1177.22 -728.95 1615.9
1201.20 -741.16 1643.0
1234.16 -758.81 1682.1
1215.43 -744.67 1650.7
1193.96 -721.35 1599.1
1234.58 -743.31 1647.7
1245.40 -747.24 1656.4
1244.92 -744.38 1650.1
1222.26 -728.33 1614.5
1198.34 -711.64 1577.5
1248.69 -724.24 1605.5
1265.58 -712.66 1579.8
1332.67 -748.01 1658.2
1310.00 -732.92 1624.7
1348.93 -752.29 1667.6
1420.11 -789.46 1750.0
1464.14 -803.66 1781.5
1429.24 -782.04 1733.6
1458.00 -795.27 1762.9
-1651.43 -944.45 2081.6
-1649.05 -946.17 2085.4
-1625.61 -938.88 2069.4
-1666.18 -965.50 2128.0
-1580.84 -919.09 2025.8
-1593.35 -964.83 2126.6
-1541.48 -939.93 2071.7
-1515.41 -927.26 2043.8
-1489.88 -927.86 2045.1
-1299.01 -845.08 1862.6
-1328.71 -867.63 1912.3
-1339.56 -877.99 1935.2
-1364.15 -897.47 1978.1
-1273.07 -850.33 1874.2
-1271.65 -852.64 1879.3
-1241.23 -841.92 1855.7
-1239.80 -844.22 1860.7
-1205.74 -824.24 1816.7
-1160.51 -796.43 1755.4
-1202.94 -828.80 1826.7
-1213.30 -839.24 1849.7
-1203.62 -835.85 1842.3
-1230.17 -857.68 1890.4
-1175.70 -822.99 1813.9
-1133.19 -796.42 1755.4
-1124.75 -793.67 1749.3
-1109.43 -789.23 1739.5
-1105.05 -789.32 1739.7
-1132.89 -826.06 1820.7
-1182.87 -866.12 1909.0
-1143.84 -841.06 1853.8
-1077.68 -795.76 1753.9
-1057.18 -783.93 1727.8
-1018.69 -795.85 1754.1
-987.18 -774.69 1707.5
-1019.60 -811.05 1787.6
-1012.73 -809.26 1783.7
-953.70 -765.59 1687.4
-955.40 -774.05 1706.1
-979.04 -796.89 1756.4
-1002.02 -819.41 1806.0
-1008.62 -828.68 1826.5
-960.52 -792.88 1747.6
-948.72 -794.39 1750.9
-962.70 -809.96 1785.2
-966.43 -817.03 1800.8
-961.34 -816.67 1800.0
-949.29 -810.37 1786.1
-930.78 -798.46 1759.9
-959.33 -843.63 1859.4
-912.19 -810.32 1786.0
-839.45 -773.18 1704.1
-865.75 -805.88 1776.2
-888.55 -831.53 1832.8
-884.17 -831.88 1833.5
-884.18 -836.39 1843.5
-876.18 -833.32 1836.7
-873.36 -835.18 1840.8
-874.07 -840.45 1852.4
-855.47 -827.11 1823.0
-857.72 -833.90 1838.0
-849.79 -830.80 1831.2
-803.53 -789.98 1741.2
-808.94 -799.80 1762.8
-816.56 -811.92 1789.5
-765.82 -788.34 1737.6
-801.59 -830.05 1829.5
-805.60 -839.17 1849.6
-775.05 -812.17 1790.1
-764.09 -805.52 1775.4
-765.54 -811.94 1789.6
-741.89 -806.40 1777.4
-748.81 -819.01 1805.2
-738.39 -812.69 1791.2
-717.19 -794.35 1750.8
-702.16 -813.77 1793.6
-706.38 -824.11 1816.4
-686.59 -806.40 1777.4
-679.69 -809.15 1783.4
-679.47 -814.43 1795.1
-664.29 -801.73 1767.1
-653.75 -794.48 1751.1
-660.87 -808.75 1782.6
-661.48 -815.21 1796.8
-645.92 -801.67 1767.0
-638.34 -797.92 1758.7
-628.92 -791.81 1745.2
-618.02 -783.72 1727.4
-629.35 -803.92 1771.9
-657.60 -846.17 1865.0
-659.59 -855.02 1884.5
-622.87 -813.45 1792.9
-618.34 -813.61 1793.3
-596.53 -821.99 1811.7
-608.47 -845.10 1862.7
-551.24 -810.65 1786.7
-539.70 -800.40 1764.1
-539.71 -807.26 1779.3
-532.51 -803.36 1770.7
-535.91 -829.95 1829.3
-533.01 -832.83 1835.6
-532.36 -839.31 1849.9
-534.66 -850.59 1874.8
-506.17 -812.66 1791.2
-495.24 -809.98 1785.3
-466.42 -784.84 1729.9
-472.26 -818.27 1803.5
-461.40 -807.44 1779.7
-442.23 -781.72 1723.0
-442.95 -790.98 1743.4
-442.00 -797.43 1757.6
-436.12 -795.01 1752.3
-447.99 -825.25 1818.9
-430.72 -801.87 1767.4
-396.57 -806.98 1778.6
-401.39 -826.39 1821.4
-404.82 -843.38 1858.9
-387.68 -817.40 1801.6
-357.17 -791.21 1743.9
-352.44 -790.73 1742.8
-362.37 -823.58 1815.2
-362.94 -835.71 1842.0
-354.12 -826.29 1821.2
-341.97 -808.71 1782.5
-296.77 -837.65 1846.3
-291.80 -837.12 1845.1
-271.26 -791.17 1743.8
-266.13 -789.38 1739.9
-266.18 -803.14 1770.2
-263.01 -807.49 1779.8
-232.50 -782.45 1724.6
-236.82 -812.62 1791.1
-235.17 -823.10 1814.2
-216.09 -787.83 1736.4
-216.72 -806.92 1778.5
