ply
format ascii 1.0
element vertex 2344
property float x
property float y
property float z
end_header
556.75 153.59 2468.3
570.16 155.50 2499.1
574.97 155.05 2491.8
585.86 156.23 2510.8
600.97 158.50 2547.3
607.45 158.47 2546.8
608.55 157.04 2523.9
611.65 156.17 2509.8
624.95 157.88 2537.4
651.40 162.85 2617.2
657.79 162.75 2615.7
664.16 162.65 2614.0
156.63 156.63 2626.7
159.82 153.16 2568.5
166.64 153.31 2571.0
173.21 153.23 2569.6
173.92 148.15 2484.5
177.43 145.75 2444.2
184.11 146.02 2448.8
190.89 146.35 2454.2
198.89 147.56 2474.6
202.37 145.45 2439.3
205.42 143.17 2401.0
214.14 144.86 2429.3
220.56 144.94 2430.7
220.60 140.94 2363.5
224.57 139.60 2341.1
236.65 143.24 2402.1
244.04 140.32 2353.2
246.80 138.45 2321.8
257.29 140.90 2362.9
260.13 139.14 2333.4
260.34 136.09 2282.2
264.56 135.22 2267.6
268.93 134.47 2255.0
273.85 134.01 2247.4
283.91 136.04 2281.4
290.48 136.35 2286.6
288.87 132.88 2228.4
299.13 134.90 2262.3
318.36 140.81 2361.5
326.00 141.47 2372.5
324.43 138.18 2317.3
328.91 137.54 2306.6
331.03 135.96 2280.1
350.02 138.80 2327.7
369.81 144.16 2417.6
372.25 142.69 2393.0
367.39 138.52 2323.1
372.78 138.29 2319.2
390.23 142.46 2389.2
405.25 145.64 2442.3
417.39 145.45 2439.3
415.84 142.75 2394.0
414.24 140.11 2349.7
418.56 139.52 2339.8
429.42 141.10 2366.2
443.67 143.73 2410.3
454.11 145.06 2432.7
460.76 145.17 2434.5
465.91 144.81 2428.5
466.83 143.16 2400.8
463.18 140.17 2350.7
464.94 138.88 2329.0
477.66 140.85 2362.1
487.95 142.06 2382.4
485.97 139.72 2343.1
486.66 138.19 2317.4
499.47 140.09 2349.4
516.00 142.99 2397.9
520.45 142.51 2389.8
518.63 140.34 2353.4
531.18 142.06 2382.4
552.88 146.16 2451.2
568.69 148.63 2492.6
575.73 148.78 2495.1
575.74 147.13 2467.5
578.59 146.24 2452.4
586.93 146.73 2460.7
591.56 146.30 2453.5
606.54 148.41 2488.9
634.36 153.58 2575.6
659.59 156.40 2622.8
162.44 148.91 2610.7
166.15 146.21 2563.5
169.68 143.57 2517.2
173.99 136.71 2396.8
184.96 140.32 2460.1
196.02 143.75 2520.3
199.48 141.56 2482.0
198.11 136.20 2387.9
202.81 135.21 2370.5
213.12 137.90 2417.7
220.06 138.32 2425.1
220.54 134.77 2362.9
223.37 132.81 2328.5
233.85 135.39 2373.7
242.35 136.71 2396.9
240.78 132.43 2321.8
242.09 129.90 2277.5
250.95 131.45 2304.7
259.40 132.72 2326.8
265.01 132.51 2323.2
267.37 130.71 2291.8
270.28 129.26 2266.3
275.34 128.88 2259.6
285.55 130.88 2294.6
296.56 133.15 2334.5
299.57 131.81 2310.9
304.02 131.14 2299.3
317.21 134.20 2352.9
337.76 137.61 2412.6
330.65 132.26 2318.8
357.50 135.60 2377.5
372.13 138.76 2432.8
369.23 135.39 2373.6
367.75 132.63 2325.4
376.32 133.53 2341.2
384.33 134.21 2353.0
389.78 133.99 2349.1
403.17 136.46 2392.4
413.07 137.69 2414.0
420.17 137.97 2418.9
427.30 138.24 2423.7
427.76 136.39 2391.2
433.59 136.27 2389.2
441.57 136.82 2398.9
445.38 136.09 2386.0
457.30 137.82 2416.2
468.23 139.20 2440.6
471.09 138.19 2422.8
469.42 135.88 2382.4
465.98 133.14 2334.2
473.38 133.52 2340.9
486.62 135.51 2375.9
487.66 134.11 2351.2
492.47 133.76 2345.1
509.51 136.70 2396.6
525.95 139.41 2444.2
530.30 138.89 2435.1
529.66 137.09 2403.5
542.99 138.90 2435.3
554.71 140.27 2459.3
559.44 139.86 2452.1
571.09 141.17 2475.0
577.18 141.09 2473.6
575.01 139.01 2437.2
577.98 138.21 2423.2
602.64 142.56 2499.4
642.33 150.33 2635.7
646.15 149.63 2623.5
664.55 150.72 2642.6
162.90 142.54 2618.1
167.40 140.62 2582.8
174.40 140.86 2587.3
178.57 138.89 2551.0
177.92 133.44 2450.9
184.61 133.69 2455.4
196.13 137.29 2521.7
200.23 135.64 2491.3
197.15 129.38 2376.3
199.86 127.18 2336.0
207.45 128.13 2353.4
211.52 126.91 2331.0
215.47 125.69 2308.6
221.59 125.77 2310.0
229.87 127.03 2333.3
235.56 126.84 2329.7
237.52 124.70 2290.3
242.86 124.39 2284.8
250.12 125.06 2297.0
256.78 125.40 2303.3
265.73 126.83 2329.5
271.58 126.74 2327.8
272.32 124.32 2283.5
275.38 123.04 2260.0
283.00 123.81 2274.1
290.94 124.69 2290.2
298.07 125.19 2299.4
306.94 126.39 2321.4
315.92 127.58 2343.4
326.37 129.32 2375.2
334.90 130.24 2392.2
329.99 126.00 2314.2
330.56 123.96 2276.8
351.37 129.45 2377.7
368.41 131.13 2408.5
366.98 128.44 2359.2
367.80 126.62 2325.7
371.46 125.82 2311.0
375.05 125.02 2296.2
381.33 125.13 2298.2
395.59 127.81 2347.5
409.25 130.22 2391.7
420.06 131.66 2418.3
430.30 132.89 2440.8
433.45 131.92 2423.0
433.29 129.99 2387.5
435.12 128.70 2363.8
435.00 126.87 2330.4
443.25 127.51 2342.0
459.27 130.33 2393.9
467.15 130.80 2402.5
468.52 129.46 2377.8
468.00 127.64 2344.3
477.40 128.53 2360.8
492.50 130.92 2404.6
496.65 130.37 2394.6
505.06 130.94 2405.1
515.60 132.04 2425.3
525.60 132.98 2442.6
531.22 132.81 2439.3
531.89 131.41 2413.6
546.76 133.51 2452.2
559.62 135.08 2481.1
557.52 133.04 2443.7
561.29 132.44 2432.6
587.25 137.02 2516.8
595.90 136.02 2498.3
602.49 136.05 2498.8
646.20 144.36 2651.6
653.64 144.49 2653.9
648.06 141.76 2603.8
160.75 133.96 2583.5
167.30 133.84 2581.1
176.51 135.78 2618.5
187.49 133.92 2582.7
188.46 129.97 2506.6
194.30 129.53 2498.1
203.37 131.21 2530.5
205.68 128.55 2479.2
202.44 122.69 2366.2
204.14 120.08 2315.9
209.83 119.90 2312.4
215.59 119.77 2309.9
220.28 119.07 2296.4
226.96 119.45 2303.8
237.00 121.54 2343.9
243.42 121.71 2347.3
244.16 119.10 2297.0
247.02 117.63 2268.6
256.04 119.09 2296.7
267.35 121.52 2343.7
276.94 123.08 2373.7
281.70 122.48 2362.1
284.36 121.00 2333.6
291.55 121.48 2342.8
296.40 120.98 2333.1
300.68 120.27 2319.5
308.81 121.10 2335.6
317.30 122.04 2353.6
326.14 123.07 2373.5
332.59 123.18 2375.7
331.72 120.63 2326.4
336.34 120.12 2316.6
350.98 123.15 2375.1
359.97 124.13 2393.9
362.57 122.90 2370.3
362.73 120.91 2331.9
365.67 119.89 2312.2
371.83 119.95 2313.2
383.47 121.74 2347.8
397.90 124.34 2398.0
407.26 125.31 2416.7
415.37 125.87 2427.5
413.79 123.52 2382.2
411.81 121.12 2335.9
424.01 122.90 2370.2
433.35 123.81 2387.8
433.73 122.18 2356.3
432.86 120.24 2318.9
436.25 119.52 2305.0
447.85 121.04 2334.3
464.36 123.83 2388.1
474.37 124.84 2407.5
477.45 124.01 2391.7
489.94 125.63 2422.8
499.58 126.47 2439.2
499.35 124.84 2407.6
503.69 124.37 2398.5
510.27 124.46 2400.2
522.73 125.96 2429.2
530.44 126.30 2435.7
528.52 124.36 2398.3
540.31 125.65 2423.3
555.30 127.66 2461.9
555.37 126.22 2434.3
559.35 125.70 2424.1
585.73 130.16 2510.3
614.97 133.69 2578.3
592.27 127.37 2456.4
599.23 127.49 2458.8
632.47 133.15 2567.9
657.07 136.89 2640.0
161.64 127.97 2597.8
169.58 128.88 2616.3
174.18 127.29 2584.0
177.71 125.06 2538.7
186.86 126.80 2574.1
193.50 126.77 2573.6
196.88 124.69 2531.3
203.48 124.71 2531.8
206.28 122.48 2486.5
203.57 117.21 2379.4
206.19 115.22 2339.1
213.38 115.83 2351.5
218.03 115.07 2336.0
221.74 113.87 2311.6
229.25 114.62 2326.9
240.04 116.94 2374.0
247.88 117.74 2390.3
250.11 115.90 2352.9
248.89 112.59 2285.7
253.53 112.02 2274.2
266.82 115.22 2339.0
278.36 117.53 2385.9
287.18 118.62 2408.0
297.63 117.81 2391.7
298.45 115.72 2349.3
304.44 115.69 2348.5
314.88 117.31 2381.4
326.55 119.31 2422.2
332.75 114.95 2333.6
332.08 112.67 2287.3
341.10 113.70 2308.2
352.44 115.46 2343.8
357.63 115.17 2338.0
357.87 113.32 2300.6
360.88 112.41 2281.9
369.03 113.09 2295.8
382.87 115.47 2344.1
402.52 119.50 2425.9
417.95 120.32 2442.6
408.55 115.86 2352.0
406.83 113.67 2307.7
419.84 115.61 2346.9
426.27 115.70 2348.8
423.84 113.42 2302.6
454.12 115.04 2335.5
468.06 117.02 2375.5
474.38 117.05 2376.3
489.80 119.31 2422.1
502.04 120.74 2451.2
493.53 117.21 2379.5
489.59 114.84 2331.4
500.98 116.08 2356.5
518.80 118.76 2411.0
537.31 121.53 2467.2
546.85 122.24 2481.5
543.64 120.11 2438.2
542.84 118.55 2406.7
553.00 119.40 2423.9
568.85 121.44 2465.3
580.81 122.62 2489.2
594.04 124.03 2517.9
620.58 125.44 2546.5
627.53 125.51 2547.9
162.59 121.95 2613.1
169.92 122.34 2621.7
173.67 120.23 2576.4
176.76 117.84 2525.1
185.44 119.21 2554.5
193.15 119.88 2569.0
197.68 118.61 2541.6
204.79 118.91 2548.0
208.04 117.02 2507.7
204.54 111.56 2390.7
206.56 109.36 2343.4
215.57 110.86 2375.7
222.14 111.07 2380.1
226.73 110.30 2363.6
235.35 111.48 2388.8
241.48 111.45 2388.2
244.10 109.85 2353.8
251.61 110.46 2367.1
255.95 109.69 2350.6
256.44 107.35 2300.3
265.38 108.57 2326.4
275.62 110.25 2362.4
283.55 110.95 2377.6
291.19 111.52 2389.7
294.83 110.56 2369.2
299.99 110.20 2361.5
310.13 111.65 2392.4
318.06 112.26 2405.5
326.85 113.14 2424.5
333.57 113.29 2427.6
328.38 109.46 2345.6
330.11 108.04 2315.1
338.72 108.87 2333.0
346.10 109.30 2342.0
355.75 110.41 2365.9
361.15 110.18 2361.0
361.90 108.57 2326.5
362.80 107.05 2294.0
369.23 107.20 2297.0
378.57 108.16 2317.8
394.23 110.88 2376.0
412.01 114.10 2444.9
415.98 113.45 2431.1
406.03 109.08 2337.5
404.97 107.20 2297.1
422.18 110.13 2360.0
432.74 111.28 2384.5
431.85 109.48 2346.1
434.25 108.56 2326.3
435.99 107.50 2303.6
441.94 107.50 2303.5
449.60 107.90 2312.2
456.14 108.03 2315.0
466.22 108.99 2335.4
485.31 111.99 2399.9
501.70 114.31 2449.5
496.84 111.79 2395.5
490.88 109.08 2337.5
500.42 109.85 2353.9
512.56 111.16 2381.9
525.47 112.60 2412.9
542.19 114.82 2460.4
546.53 114.39 2451.2
545.10 112.78 2416.7
554.84 113.49 2431.9
574.98 116.29 2491.9
591.55 118.31 2535.2
600.07 118.70 2543.5
154.08 113.88 2583.9
159.51 112.99 2563.6
167.68 114.02 2587.1
174.36 114.00 2586.6
179.99 113.32 2571.2
184.37 111.94 2539.9
188.08 110.25 2501.5
193.90 109.88 2493.1
202.49 111.04 2519.4
208.15 110.58 2509.0
207.20 106.74 2421.8
208.08 104.04 2360.6
216.05 104.94 2380.9
221.52 104.61 2373.4
224.75 103.26 2343.0
231.75 103.68 2352.3
236.38 103.04 2337.8
241.97 102.84 2333.2
252.70 104.78 2377.3
254.57 103.04 2337.9
252.92 99.99 2268.8
263.83 101.93 2312.8
276.34 104.40 2368.7
280.27 103.58 2350.1
283.37 102.50 2325.6
287.46 101.81 2310.0
292.73 101.56 2304.3
301.43 102.49 2325.3
307.88 102.63 2328.5
318.48 104.12 2362.4
326.53 104.74 2376.4
325.37 102.43 2324.1
331.00 102.31 2321.3
335.03 101.70 2307.6
337.38 100.62 2283.0
354.61 103.94 2358.2
368.89 106.29 2411.6
368.85 104.51 2371.2
369.08 102.86 2333.8
378.31 103.73 2353.5
390.37 105.34 2390.0
395.75 105.12 2385.1
402.43 105.25 2388.0
413.84 106.59 2418.5
412.75 104.73 2376.1
410.22 102.56 2326.9
426.27 105.02 2382.9
442.96 107.58 2440.8
448.54 107.40 2436.7
446.21 105.36 2390.4
443.09 103.19 2341.2
455.35 104.61 2373.5
468.34 106.16 2408.6
466.63 104.38 2368.2
468.42 103.42 2346.5
485.16 105.74 2399.2
498.95 107.37 2436.1
501.56 106.58 2418.2
503.87 105.75 2399.4
503.18 104.32 2366.9
505.05 103.44 2347.0
523.19 105.88 2402.4
545.04 109.01 2473.3
553.11 109.34 2480.7
556.16 108.67 2465.7
565.57 109.26 2479.0
157.42 109.51 2640.0
163.81 109.21 2632.6
167.50 107.20 2584.4
169.74 104.46 2518.1
177.70 105.31 2538.6
184.25 105.29 2538.1
187.20 103.28 2489.8
192.45 102.64 2474.4
198.99 102.70 2475.9
202.31 101.15 2438.5
205.35 99.56 2400.2
210.65 99.13 2389.7
216.61 99.02 2387.1
219.68 97.64 2353.8
237.01 97.23 2344.0
251.47 100.59 2424.9
257.06 100.32 2418.3
253.74 96.66 2330.2
252.51 93.96 2265.0
264.08 96.03 2315.0
278.34 98.97 2385.8
283.73 98.69 2379.1
284.13 96.72 2331.8
284.78 94.93 2288.4
291.63 95.22 2295.6
301.85 96.59 2328.5
308.44 96.76 2332.7
319.45 98.29 2369.5
327.79 98.96 2385.6
326.52 96.75 2332.3
333.86 97.12 2341.3
339.37 96.96 2337.5
342.97 96.27 2320.8
362.07 99.88 2407.9
373.77 101.36 2443.5
371.04 98.95 2385.3
371.77 97.51 2350.8
381.84 98.54 2375.5
389.93 99.03 2387.3
390.72 97.68 2354.8
391.85 96.45 2325.2
397.37 96.33 2322.3
412.11 98.41 2372.5
425.53 100.13 2413.7
424.38 98.41 2372.3
424.10 96.94 2336.9
436.83 98.44 2373.1
441.49 98.11 2365.1
443.51 97.21 2343.4
460.67 99.60 2401.2
474.87 101.31 2442.2
474.21 99.83 2406.7
474.15 98.52 2375.1
488.98 100.30 2418.0
499.81 101.23 2440.3
499.79 99.96 2409.7
502.90 99.34 2394.8
503.65 98.27 2369.1
513.72 99.03 2387.3
540.89 103.03 2483.7
547.04 102.97 2482.4
537.30 99.96 2409.8
544.78 100.19 2415.3
559.18 101.67 2451.0
576.90 103.71 2500.2
600.43 105.57 2545.0
607.37 105.63 2546.4
620.64 106.78 2574.1
174.19 100.50 2584.2
181.35 100.75 2590.7
184.92 99.06 2547.4
184.67 95.52 2456.2
190.69 95.35 2451.7
198.05 95.83 2464.2
204.06 95.65 2459.7
210.05 95.48 2455.2
213.65 94.26 2423.8
217.81 93.35 2400.3
224.72 93.63 2407.7
228.90 92.80 2386.3
231.41 91.34 2348.9
243.47 93.64 2407.9
256.34 93.78 2411.6
257.55 91.98 2365.2
261.06 91.07 2341.7
266.26 90.77 2334.1
273.74 91.25 2346.3
283.64 92.49 2378.4
288.39 92.04 2366.7
293.08 91.59 2355.1
304.12 93.10 2394.0
309.71 92.91 2389.2
311.48 91.61 2355.7
320.82 92.54 2379.7
327.69 92.74 2384.8
326.00 90.55 2328.5
332.62 90.71 2332.7
343.71 92.07 2367.4
354.10 93.18 2396.2
366.87 94.88 2439.7
371.54 94.46 2428.9
373.85 93.46 2403.3
380.08 93.46 2403.3
382.83 92.62 2381.7
383.21 91.24 2346.2
386.84 90.67 2331.4
391.06 90.24 2320.6
399.94 90.89 2337.3
417.79 93.54 2405.2
436.68 96.33 2477.0
440.79 95.82 2464.1
431.10 92.38 2375.4
434.70 91.84 2361.6
451.81 94.13 2420.4
466.18 94.50 2429.9
464.05 92.81 2386.5
470.59 92.88 2388.3
477.52 93.02 2392.0
484.67 93.21 2396.7
487.43 92.55 2379.8
490.91 92.05 2366.9
497.61 92.15 2369.6
500.79 91.61 2355.6
513.35 92.77 2385.6
533.08 95.19 2447.8
531.39 93.78 2411.4
519.52 90.61 2330.1
538.12 91.73 2358.7
556.06 93.72 2409.9
568.35 94.72 2435.8
573.87 94.59 2432.4
580.07 94.58 2432.0
591.42 95.39 2452.9
612.10 97.68 2511.6
155.79 94.83 2612.6
160.61 93.69 2581.3
170.58 95.52 2631.7
177.44 95.54 2632.3
182.83 94.80 2611.9
184.65 92.32 2543.6
187.61 90.57 2495.3
196.91 91.89 2531.7
201.67 91.08 2509.3
205.16 89.76 2472.9
212.55 90.17 2484.3
217.45 89.54 2466.8
226.05 90.42 2491.1
235.25 86.67 2387.9
241.78 86.79 2391.2
247.30 86.55 2384.6
252.14 86.10 2372.1
256.28 85.43 2353.5
259.98 84.64 2332.0
265.27 84.40 2325.4
271.68 84.52 2328.7
280.71 85.43 2353.8
287.57 85.66 2360.0
294.58 85.92 2367.2
301.88 86.25 2376.3
303.19 84.89 2338.9
307.58 84.43 2326.2
319.65 86.06 2371.0
342.39 87.15 2401.1
346.47 86.62 2386.4
348.00 85.47 2354.9
351.30 84.80 2336.2
364.17 86.41 2380.8
374.96 87.49 2410.4
382.15 87.71 2416.4
385.88 87.13 2400.6
386.95 85.99 2369.1
390.96 85.52 2356.3
396.57 85.42 2353.3
406.88 86.31 2377.9
420.57 87.88 2421.2
435.33 89.63 2469.3
443.27 88.65 2442.5
445.06 87.76 2417.8
459.92 89.43 2463.8
464.97 89.17 2456.8
456.81 86.42 2381.0
455.70 85.06 2343.6
463.29 85.34 2351.3
474.04 86.19 2374.6
484.32 86.93 2395.0
484.86 85.93 2367.3
486.69 85.17 2346.5
505.05 87.29 2405.0
519.54 88.70 2443.8
520.55 87.80 2419.1
529.30 88.22 2430.5
537.89 88.59 2440.9
537.40 87.48 2410.3
533.01 85.77 2363.1
538.17 85.62 2358.9
560.61 88.19 2429.6
578.17 89.94 2477.9
579.20 89.11 2455.0
579.66 88.21 2430.3
590.07 88.83 2447.3
608.60 90.64 2497.3
618.77 91.19 2512.3
621.05 90.57 2495.3
635.18 91.68 2525.7
158.24 89.44 2653.8
160.26 86.81 2575.6
167.75 87.23 2588.1
174.36 87.18 2586.7
179.50 86.43 2564.3
189.37 87.92 2608.7
201.34 87.25 2588.7
197.36 82.77 2455.7
201.54 81.88 2429.3
209.75 82.63 2451.7
216.59 82.81 2457.1
227.42 84.47 2506.3
234.88 80.35 2384.1
239.89 79.96 2372.6
243.40 79.11 2347.1
246.25 78.08 2316.6
252.40 78.12 2318.0
258.01 78.00 2314.4
268.46 79.32 2353.4
280.27 80.97 2402.4
285.35 80.64 2392.7
288.08 79.68 2364.2
291.52 78.95 2342.6
295.24 78.33 2324.0
299.75 77.93 2312.4
307.21 78.31 2323.5
315.67 78.92 2341.5
327.34 80.29 2382.3
354.83 82.37 2444.0
351.54 80.18 2378.8
350.73 78.61 2332.5
358.61 79.02 2344.4
370.23 80.22 2380.0
378.28 80.62 2391.9
390.51 81.88 2429.5
401.00 82.75 2455.1
399.18 81.08 2405.8
398.27 79.65 2363.4
406.41 80.05 2375.2
417.52 81.01 2403.7
424.44 81.14 2407.5
427.50 80.54 2389.7
434.21 80.64 2392.6
445.64 81.60 2421.0
451.89 81.59 2420.8
449.03 79.96 2372.6
455.53 80.03 2374.4
469.66 81.41 2415.4
469.70 80.34 2383.8
472.91 79.84 2368.9
489.11 81.52 2418.7
495.74 81.58 2420.4
496.68 80.71 2394.7
514.13 82.51 2448.2
523.53 83.00 2462.6
519.54 81.37 2414.4
533.18 82.52 2448.3
546.33 83.56 2479.1
548.54 82.92 2460.2
547.35 81.79 2426.7
553.78 81.81 2427.3
577.51 84.36 2502.9
588.66 85.03 2522.8
582.24 83.18 2467.9
591.54 83.59 2480.1
612.14 85.57 2538.8
623.80 86.27 2559.7
625.52 85.60 2539.7
623.03 84.37 2503.3
632.06 84.71 2513.4
156.53 81.67 2625.1
159.59 79.79 2564.8
167.50 80.40 2584.3
174.58 80.57 2589.9
181.19 80.53 2588.4
192.86 82.65 2656.7
199.04 79.61 2559.0
195.54 75.69 2433.0
201.14 75.43 2424.5
209.26 76.09 2445.9
215.82 76.17 2448.3
226.27 77.58 2493.6
241.66 76.31 2452.9
243.33 74.87 2406.6
243.94 73.18 2352.3
243.52 71.28 2291.0
254.15 70.93 2279.8
267.01 72.82 2340.7
279.37 74.50 2394.6
284.90 74.32 2388.9
287.62 73.43 2360.4
291.06 72.76 2338.8
296.52 72.62 2334.1
302.73 72.66 2335.3
309.86 72.91 2343.5
318.10 73.41 2359.5
319.07 72.24 2322.1
324.70 72.16 2319.3
340.75 74.35 2389.7
346.68 74.29 2387.8
352.59 74.23 2385.9
361.02 74.69 2400.9
364.38 74.11 2382.2
370.57 74.11 2382.2
380.81 74.91 2407.9
395.78 76.60 2462.2
408.05 76.51 2459.2
408.93 75.50 2426.6
418.42 76.08 2445.3
421.49 75.49 2426.5
418.92 73.93 2376.2
424.89 73.89 2375.2
433.35 74.29 2387.9
446.58 75.48 2426.1
455.04 75.84 2437.7
458.73 75.41 2423.8
471.57 76.47 2458.0
476.12 75.18 2416.4
469.62 73.19 2352.5
477.07 73.40 2359.1
489.56 74.36 2390.2
497.53 74.63 2398.8
506.57 75.05 2412.2
506.94 74.19 2384.6
512.01 74.03 2379.4
534.28 76.33 2453.3
538.63 76.04 2444.2
531.18 74.12 2382.4
538.82 74.32 2388.9
555.38 75.73 2434.3
575.53 77.60 2494.3
582.80 77.71 2497.7
577.69 76.18 2448.6
589.04 76.83 2469.6
611.96 78.96 2538.1
637.32 79.67 2560.7
152.02 72.71 2549.4
168.03 73.93 2592.5
175.53 74.26 2604.0
182.53 74.36 2607.6
191.64 75.29 2640.0
197.63 74.96 2628.5
203.08 74.46 2611.1
207.41 73.60 2580.6
206.61 71.02 2490.4
208.42 69.47 2436.1
215.74 69.80 2447.5
227.19 71.40 2503.7
237.29 70.54 2473.6
239.52 69.34 2431.2
243.85 68.78 2411.7
247.98 68.19 2391.2
251.04 67.35 2361.7
256.45 67.16 2355.1
267.13 68.34 2396.2
271.34 67.83 2378.6
274.76 67.16 2355.1
277.47 66.35 2326.6
287.00 65.77 2306.3
298.81 67.08 2352.1
304.42 66.97 2348.4
311.32 67.15 2354.6
321.86 68.09 2387.4
325.22 67.50 2366.8
324.86 66.18 2320.4
333.72 66.74 2340.4
339.95 66.78 2341.5
345.89 66.75 2340.6
360.60 68.39 2398.1
370.76 69.12 2423.8
375.05 68.76 2411.0
382.55 68.99 2419.0
393.59 69.83 2448.6
401.87 70.17 2460.4
408.57 70.22 2462.3
416.27 70.45 2470.2
427.85 70.24 2463.1
423.12 68.45 2400.0
424.75 67.71 2374.4
430.35 67.63 2371.3
441.55 68.41 2398.7
445.91 68.12 2388.8
445.01 67.06 2351.3
451.08 67.05 2351.2
453.52 66.52 2332.4
463.40 67.07 2351.8
471.81 67.40 2363.4
479.68 67.65 2372.0
492.80 68.62 2406.1
489.04 67.24 2357.9
487.09 66.15 2319.5
501.79 67.31 2360.3
521.09 69.06 2421.6
535.39 70.11 2458.4
531.78 68.82 2413.1
518.82 66.36 2326.9
538.30 67.29 2359.4
561.19 69.36 2432.1
578.08 70.65 2477.5
583.93 70.59 2475.1
590.01 70.54 2473.6
606.85 71.78 2516.9
620.35 72.59 2545.5
625.14 72.38 2538.1
150.45 68.39 2637.8
153.10 66.57 2567.6
160.54 66.89 2580.1
170.70 68.28 2633.6
177.83 68.40 2638.1
183.59 68.00 2622.7
191.44 68.37 2637.2
194.27 66.99 2583.8
196.74 65.58 2529.5
207.34 66.88 2579.8
208.61 63.21 2438.3
211.11 62.09 2394.9
219.71 62.77 2421.2
226.02 62.78 2421.7
229.86 62.12 2396.2
235.13 61.88 2386.6
242.26 62.12 2396.0
249.03 62.26 2401.3
254.02 61.96 2389.7
261.12 62.17 2398.0
270.36 62.87 2425.2
273.40 62.14 2396.7
274.55 61.01 2353.3
273.93 59.55 2297.0
287.02 59.80 2306.4
302.74 61.78 2383.1
312.28 62.46 2409.0
313.84 61.54 2373.6
319.08 61.36 2366.8
326.74 61.65 2377.9
330.98 61.29 2364.2
334.31 60.78 2344.5
334.52 59.74 2304.1
338.17 59.33 2288.4
350.66 60.46 2332.0
364.74 61.82 2384.5
373.08 62.18 2398.4
377.90 61.95 2389.5
386.00 62.26 2401.4
396.58 62.95 2428.0
405.32 63.33 2442.8
414.64 63.79 2460.5
430.96 64.32 2481.0
428.35 62.99 2429.7
427.59 61.97 2390.3
430.92 61.56 2374.4
441.40 62.17 2397.9
445.57 61.88 2387.0
462.66 60.88 2348.1
473.21 61.46 2370.4
484.07 62.06 2393.8
493.64 62.49 2410.2
486.23 60.78 2344.3
488.56 60.32 2326.5
507.22 61.86 2385.9
513.98 61.93 2388.5
515.21 61.33 2365.8
534.83 62.92 2427.0
546.92 63.60 2453.0
535.38 61.54 2373.6
539.23 61.28 2363.5
554.04 62.25 2401.1
561.53 62.39 2406.6
575.71 63.26 2440.2
590.97 64.24 2477.7
604.78 65.03 2508.3
614.23 65.34 2520.4
618.72 65.13 2512.1
633.07 65.94 2543.6
163.59 61.35 2629.2
171.03 61.57 2638.7
177.50 61.44 2633.3
182.55 60.85 2607.9
191.23 61.47 2634.4
194.50 60.36 2587.0
192.64 57.79 2476.8
199.26 57.85 2479.3
207.47 58.35 2500.7
207.00 56.46 2419.5
209.01 55.33 2371.2
217.28 55.87 2394.5
223.81 55.95 2397.9
227.58 55.36 2372.5
230.05 54.48 2335.1
234.23 54.05 2316.6
245.84 55.32 2370.6
255.09 56.00 2399.8
259.19 55.54 2380.3
266.06 55.69 2386.6
273.30 55.90 2395.8
278.27 55.65 2385.2
275.37 53.88 2309.0
286.05 53.64 2298.6
302.38 55.54 2380.2
310.50 55.89 2395.3
310.32 54.76 2346.9
313.89 54.33 2328.3
319.95 54.33 2328.5
328.09 54.68 2343.5
335.18 54.85 2350.6
335.40 53.90 2310.2
339.07 53.54 2294.5
347.56 53.93 2311.4
357.05 54.47 2334.2
371.87 55.78 2390.6
384.01 56.66 2428.2
381.42 55.37 2372.9
380.49 54.36 2329.5
393.57 55.35 2371.9
407.02 56.36 2415.3
422.21 57.57 2467.5
432.72 57.27 2454.5
435.54 56.81 2434.7
437.01 56.19 2408.0
445.04 56.41 2417.7
456.24 57.03 2444.1
449.90 55.47 2377.2
454.91 54.59 2339.6
472.54 55.96 2398.2
479.31 56.02 2401.0
480.93 55.49 2378.2
481.03 54.80 2348.6
489.92 55.12 2362.1
508.52 56.50 2421.5
516.61 56.70 2430.0
512.96 55.62 2383.8
505.46 54.16 2321.0
516.36 54.67 2343.2
538.25 56.33 2414.1
536.51 55.50 2378.6
535.26 54.74 2346.1
545.08 55.12 2362.3
555.89 55.59 2382.4
573.45 56.71 2430.6
591.94 57.91 2481.7
609.50 58.98 2527.9
619.00 59.27 2540.0
623.30 59.05 2530.7
627.31 58.81 2520.4
639.80 59.36 2544.1
169.88 54.36 2620.9
175.86 52.11 2512.3
185.82 53.09 2559.7
192.42 53.08 2559.2
194.13 51.77 2495.9
198.80 51.30 2473.5
204.83 51.21 2469.0
209.91 50.89 2453.5
217.10 51.08 2462.9
218.92 50.04 2412.6
218.80 48.62 2344.3
224.06 48.45 2335.8
228.30 48.06 2317.3
234.75 48.15 2321.7
248.75 49.75 2398.6
258.17 50.38 2428.8
262.12 49.93 2407.3
267.62 49.79 2400.6
274.00 49.82 2401.9
280.26 49.82 2402.2
278.23 48.39 2333.0
284.59 47.43 2286.9
300.88 49.12 2368.5
308.72 49.40 2381.6
314.66 49.36 2379.8
324.59 49.94 2407.7
322.96 48.75 2350.4
322.43 47.77 2303.0
333.64 48.53 2339.8
338.01 48.29 2328.1
345.81 48.54 2340.1
358.29 49.42 2382.7
363.72 49.32 2377.8
374.51 49.93 2407.5
385.13 50.51 2435.2
381.28 49.20 2372.0
385.02 48.89 2357.3
402.92 50.36 2428.3
406.71 50.06 2413.5
411.78 49.91 2406.5
428.62 51.18 2467.5
435.04 50.44 2431.9
430.07 49.15 2369.8
439.82 49.56 2389.4
452.41 50.27 2423.6
457.92 50.18 2419.5
462.09 49.96 2408.6
460.28 49.10 2367.2
463.29 48.77 2351.3
476.20 49.48 2385.4
483.53 49.59 2391.1
481.06 48.71 2348.7
487.91 48.79 2352.4
508.34 50.21 2420.7
517.26 50.46 2433.1
516.35 49.77 2399.6
512.93 48.85 2355.3
516.61 48.62 2344.3
530.45 49.34 2379.1
533.90 49.09 2367.0
539.73 49.07 2365.7
551.63 49.58 2390.7
565.69 50.28 2424.4
569.12 50.03 2412.3
571.09 49.66 2394.3
593.60 51.06 2461.9
606.97 51.66 2490.6
618.79 52.11 2512.4
631.69 52.64 2538.0
635.20 52.39 2525.8
166.20 46.54 2564.2
180.55 46.81 2579.3
191.25 47.81 2634.6
198.12 47.82 2635.1
199.18 46.47 2560.8
203.61 45.98 2533.4
208.98 45.71 2518.9
212.91 45.16 2488.5
218.78 45.04 2482.0
219.11 43.82 2414.7
223.37 43.43 2393.2
233.24 44.13 2431.4
236.35 43.54 2399.0
242.20 43.47 2395.4
242.57 42.45 2339.1
249.58 41.60 2292.1
262.32 42.70 2353.0
268.34 42.69 2352.4
274.13 42.64 2349.7
281.79 42.88 2362.9
287.59 42.83 2360.2
292.38 42.64 2349.5
303.04 43.29 2385.4
309.77 43.37 2389.6
314.68 43.19 2379.9
326.48 43.95 2421.7
326.66 43.14 2377.3
323.14 41.89 2308.1
331.12 42.14 2322.1
335.58 41.95 2311.4
343.49 42.18 2324.4
362.47 43.75 2410.5
374.47 44.43 2448.1
375.45 43.80 2413.6
375.62 43.10 2375.1
379.88 42.89 2363.3
392.77 43.64 2404.7
405.23 44.32 2442.2
403.24 43.43 2392.9
403.20 42.76 2356.4
414.78 43.34 2387.9
423.39 43.58 2401.6
420.09 42.62 2348.3
427.17 42.12 2320.6
447.11 43.47 2395.2
459.62 44.07 2428.5
467.95 44.27 2439.1
470.42 43.91 2419.3
463.51 42.69 2352.4
465.66 42.33 2332.6
479.00 42.99 2368.7
482.29 42.73 2354.7
487.73 42.68 2351.6
506.73 43.79 2413.0
519.99 44.39 2445.9
523.74 44.17 2433.9
525.08 43.76 2411.1
533.20 43.91 2419.6
541.35 44.06 2428.0
539.42 43.40 2391.5
549.10 43.68 2406.8
564.92 44.43 2448.3
566.85 44.09 2429.4
556.75 42.83 2359.8
559.99 42.61 2347.8
583.55 43.92 2420.3
597.05 44.46 2449.9
608.78 44.86 2471.7
627.86 45.78 2522.6
636.20 45.91 2529.8
644.58 46.04 2537.0
168.27 40.39 2596.2
177.80 41.03 2637.7
184.82 41.07 2640.2
191.63 41.06 2639.7
205.62 41.12 2643.7
208.59 40.37 2595.3
212.79 39.90 2564.9
213.00 38.73 2489.6
215.28 37.99 2442.2
219.21 37.58 2415.8
227.65 37.94 2439.1
250.36 38.52 2476.1
246.81 37.02 2380.0
259.78 36.25 2330.3
266.54 36.35 2336.6
272.06 36.27 2331.9
280.03 36.53 2348.1
291.11 37.16 2389.0
301.28 37.66 2421.0
304.82 37.32 2399.4
304.51 36.54 2349.1
305.91 35.99 2313.6
313.94 36.22 2328.7
324.22 36.70 2359.5
331.19 36.80 2365.6
340.59 37.16 2388.6
346.94 37.17 2389.7
342.48 36.05 2317.6
348.21 36.02 2315.7
363.00 36.92 2373.1
366.55 36.65 2356.4
370.01 36.39 2339.6
378.15 36.59 2352.5
384.57 36.63 2354.5
390.19 36.58 2351.6
392.46 36.23 2328.9
396.64 36.06 2318.0
403.85 36.17 2324.9
407.61 35.97 2312.1
413.07 35.92 2309.1
418.15 35.84 2304.1
425.56 35.96 2311.9
441.99 36.83 2367.8
453.68 37.29 2397.2
461.19 37.39 2403.9
471.01 37.68 2422.3
471.07 37.19 2390.7
476.64 37.14 2387.6
493.29 37.95 2439.3
497.95 37.82 2431.2
504.61 37.85 2432.9
508.60 37.67 2421.9
507.12 37.11 2385.4
516.40 37.33 2399.8
523.62 37.40 2404.4
524.83 37.05 2381.6
524.62 36.60 2352.9
526.47 36.31 2334.1
540.45 36.85 2368.9
563.59 37.99 2442.5
572.33 38.16 2452.8
568.48 37.48 2409.6
579.26 37.78 2428.6
595.06 38.39 2468.0
598.73 38.22 2456.8
600.67 37.94 2438.8
609.53 38.10 2449.0
616.72 38.15 2452.4
622.70 38.12 2450.8
641.83 38.90 2500.7
664.72 39.88 2563.9
160.52 33.44 2579.8
168.28 33.66 2596.3
176.73 33.99 2621.8
182.52 33.80 2607.4
183.89 32.84 2533.1
188.69 32.53 2509.7
197.41 32.90 2538.1
204.91 33.05 2549.6
212.05 33.13 2556.0
215.31 32.62 2516.6
213.00 31.32 2416.4
222.92 30.96 2388.4
238.89 32.28 2490.4
254.66 31.83 2455.6
249.22 30.39 2344.6
252.20 30.02 2316.1
262.34 30.50 2353.2
267.57 30.41 2345.6
271.83 30.20 2330.0
281.46 30.59 2360.1
295.11 31.39 2421.9
302.90 31.55 2434.0
304.07 31.03 2393.6
306.96 30.70 2368.0
312.21 30.61 2361.3
314.88 30.28 2335.7
319.47 30.14 2325.0
327.74 30.35 2341.0
339.33 30.85 2379.7
346.67 30.95 2387.8
343.23 30.11 2322.6
347.33 29.94 2309.8
360.44 30.55 2356.4
365.64 30.47 2350.5
370.65 30.38 2343.7
386.89 31.20 2406.9
402.80 31.47 2427.6
400.45 30.80 2376.3
403.23 30.55 2356.6
408.82 30.51 2353.6
411.79 30.28 2335.8
415.90 30.14 2324.9
426.38 30.46 2349.4
438.43 30.88 2381.8
447.88 31.10 2399.4
453.33 31.05 2395.3
452.54 30.58 2358.8
454.42 30.29 2337.0
459.87 30.25 2333.9
470.78 30.57 2358.3
487.36 31.24 2410.0
491.75 31.12 2401.0
497.72 31.11 2399.7
502.04 30.99 2390.7
501.11 30.56 2357.1
511.37 30.81 2376.4
522.36 31.09 2398.6
527.21 31.01 2392.4
534.87 31.10 2398.9
545.41 31.35 2418.1
545.58 31.00 2391.4
553.50 31.10 2398.8
579.62 32.20 2484.1
588.79 32.00 2468.6
586.41 31.53 2432.1
585.02 31.12 2400.5
581.09 30.58 2359.3
601.58 31.33 2417.1
623.33 32.13 2478.6
621.24 31.70 2445.1
632.66 31.95 2464.9
647.43 32.37 2497.2
657.04 32.53 2509.2
659.80 32.34 2495.0
665.58 32.31 2492.5
154.40 26.85 2589.3
158.97 26.50 2554.9
164.66 26.35 2540.5
170.89 26.29 2535.1
183.15 27.13 2616.5
190.91 27.27 2629.9
190.20 26.23 2529.7
193.00 25.73 2481.4
199.63 25.76 2483.9
205.36 25.67 2475.4
210.97 25.57 2465.9
210.81 24.80 2391.6
224.97 25.00 2410.4
235.75 25.49 2457.6
240.00 25.26 2436.1
245.75 25.20 2430.5
246.93 24.69 2381.1
247.54 24.15 2328.8
256.86 24.46 2358.9
262.57 24.43 2355.3
263.84 23.99 2312.9
273.12 24.28 2341.0
287.39 24.99 2409.8
297.42 25.31 2440.8
301.18 25.10 2420.2
304.71 24.87 2398.6
310.31 24.83 2393.8
317.72 24.92 2403.0
322.37 24.80 2391.2
323.70 24.43 2355.7
329.27 24.39 2351.9
333.70 24.27 2340.2
333.89 23.85 2299.8
342.80 24.06 2319.7
360.13 24.84 2394.9
366.50 24.85 2396.0
364.57 24.30 2343.7
364.41 23.90 2304.2
375.00 24.19 2332.9
395.56 25.11 2421.8
402.32 25.15 2424.7
401.46 24.71 2382.3
405.77 24.59 2371.4
408.32 24.38 2350.7
408.33 24.02 2316.2
415.21 24.07 2321.0
428.35 24.48 2360.3
440.07 24.79 2390.7
448.81 24.93 2404.3
459.85 25.20 2429.7
465.55 25.16 2426.6
451.77 24.09 2323.4
474.29 24.32 2345.4
478.12 24.21 2334.4
483.32 24.17 2330.3
491.37 24.27 2339.8
494.47 24.12 2325.9
507.39 24.45 2357.9
521.52 24.83 2394.7
535.41 25.20 2429.6
552.90 25.42 2451.3
542.04 24.64 2375.8
544.07 24.45 2357.9
563.96 25.06 2417.0
580.00 25.49 2458.4
577.21 25.10 2420.0
567.91 24.43 2355.4
579.91 24.42 2354.5
631.79 26.32 2538.4
653.06 26.39 2544.4
654.23 26.17 2523.4
645.91 25.58 2466.7
654.96 25.19 2429.1
157.97 20.60 2649.2
161.83 20.23 2600.9
166.80 20.02 2573.5
179.11 19.90 2558.7
188.53 20.20 2597.1
189.38 19.59 2518.8
193.85 19.39 2492.4
202.04 19.55 2513.8
209.92 19.68 2530.2
217.37 19.76 2540.6
219.51 19.37 2490.3
223.39 19.15 2461.8
228.60 19.05 2449.3
231.55 18.77 2413.8
232.85 18.38 2363.5
235.69 18.13 2331.0
243.43 18.26 2347.3
250.93 18.36 2360.6
258.71 18.48 2375.9
263.13 18.36 2360.3
272.57 18.58 2389.4
290.77 18.56 2386.3
299.21 18.70 2404.4
307.24 18.81 2418.5
313.79 18.83 2420.7
322.06 18.94 2435.7
320.24 18.48 2375.4
315.40 17.85 2295.4
325.67 18.09 2326.2
335.12 18.28 2350.2
335.91 18.00 2313.7
345.88 18.20 2340.5
360.58 18.65 2398.0
364.24 18.52 2381.2
364.43 18.22 2342.8
366.92 18.05 2320.1
388.58 18.21 2341.9
397.98 18.37 2361.6
403.25 18.33 2356.7
406.45 18.20 2339.9
405.74 17.90 2301.4
411.87 17.91 2302.4
428.36 18.36 2360.4
442.61 18.70 2404.5
446.25 18.59 2390.6
452.24 18.59 2389.5
459.16 18.61 2393.3
446.43 17.86 2295.9
467.87 18.23 2343.7
480.25 18.47 2374.9
477.73 18.14 2332.5
482.72 18.10 2327.4
490.97 18.18 2337.9
496.67 17.95 2308.1
509.62 18.20 2340.1
521.86 18.42 2368.1
534.68 18.65 2398.0
530.03 18.28 2349.9
538.05 18.34 2358.3
561.39 18.92 2433.0
553.97 18.47 2374.2
558.66 18.22 2342.2
574.95 18.55 2384.6
579.13 18.48 2376.4
617.94 19.51 2508.9
643.68 19.70 2533.4
641.39 19.44 2498.9
647.71 19.43 2498.3
643.65 19.12 2458.1
645.51 18.99 2441.0
661.48 19.27 2477.1
663.57 19.14 2461.0
165.69 13.81 2662.8
180.58 13.89 2678.9
184.63 13.68 2637.5
189.04 13.50 2604.1
192.98 13.31 2566.7
201.61 13.44 2592.1
211.89 13.67 2636.5
226.54 13.33 2570.0
232.70 13.30 2564.4
239.85 13.32 2569.8
233.56 12.62 2434.8
241.88 12.09 2332.5
246.07 12.00 2314.9
250.70 11.94 2302.4
265.57 12.35 2382.2
283.02 12.31 2373.2
287.87 12.25 2362.5
303.05 12.63 2435.2
308.25 12.58 2426.5
312.00 12.48 2406.8
319.97 12.55 2419.9
317.44 12.21 2354.7
321.24 11.90 2294.6
335.54 12.20 2353.2
340.80 12.17 2347.4
341.35 11.98 2309.9
346.76 11.96 2306.0
356.38 12.08 2329.9
363.20 12.11 2334.9
374.74 12.29 2369.5
382.31 12.33 2378.4
379.61 12.05 2324.2
386.13 12.07 2327.2
397.49 12.23 2358.7
404.27 12.25 2362.6
416.72 12.44 2399.0
426.23 12.54 2417.7
416.81 12.08 2330.0
416.05 11.89 2292.5
435.92 12.28 2368.2
445.16 12.37 2384.8
443.32 12.15 2342.4
441.45 11.93 2301.0
448.54 11.96 2306.8
467.44 12.30 2372.4
476.69 12.38 2387.9
475.70 12.20 2352.4
484.56 12.27 2365.9
502.22 12.56 2421.4
507.42 12.53 2416.3
501.35 12.23 2358.3
506.14 12.20 2352.1
516.22 12.29 2370.4
516.27 12.15 2342.8
515.32 11.98 2311.2
530.26 12.19 2350.9
560.08 12.73 2454.9
566.70 12.59 2428.7
552.92 12.15 2343.6
575.38 12.51 2412.3
594.18 12.78 2464.3
600.45 12.78 2463.9
607.19 12.78 2465.3
599.93 12.50 2410.4
611.42 12.61 2431.3
626.70 12.79 2466.6
620.77 12.54 2418.6
623.38 12.47 2404.5
640.36 12.68 2445.5
664.70 13.03 2513.6
675.94 13.13 2531.3
674.25 12.97 2500.7
687.38 13.09 2525.1
154.83 7.04 2714.6
167.30 6.97 2688.8
170.36 6.81 2628.5
179.84 6.92 2667.9
187.21 6.93 2674.4
193.53 6.91 2666.0
199.50 6.88 2653.5
202.23 6.74 2600.1
206.61 6.66 2570.7
225.49 6.63 2558.1
230.17 6.58 2536.6
239.94 6.67 2570.8
236.04 6.38 2460.7
241.99 6.05 2333.5
248.50 6.06 2337.8
259.70 6.04 2329.6
273.60 6.22 2398.4
273.94 6.09 2348.1
282.19 6.00 2315.9
296.38 6.17 2381.6
300.82 6.14 2368.0
305.31 6.11 2355.3
313.41 6.15 2370.4
316.78 6.09 2349.7
316.36 5.97 2302.4
320.83 5.94 2291.6
329.90 6.00 2313.6
340.09 6.07 2342.4
345.59 6.06 2338.6
345.28 5.95 2296.2
349.58 5.93 2285.4
363.36 6.06 2335.9
382.39 6.27 2417.9
390.41 6.30 2428.8
387.84 6.16 2374.5
393.01 6.14 2368.6
403.31 6.20 2393.2
403.77 6.12 2359.7
409.37 6.11 2356.7
426.41 6.27 2418.7
425.09 6.16 2376.3
426.41 6.09 2349.6
448.42 6.32 2436.1
457.64 6.27 2418.1
452.01 6.11 2356.0
455.80 6.08 2344.1
474.41 6.24 2407.7
483.54 6.28 2422.2
485.22 6.22 2399.4
497.21 6.29 2427.6
508.12 6.35 2449.9
505.78 6.24 2408.5
502.19 6.12 2362.2
509.72 6.14 2368.8
524.10 6.24 2406.6
529.19 6.23 2401.4
533.60 6.20 2393.2
554.03 6.37 2456.3
559.86 6.36 2453.9
551.06 6.19 2388.2
560.35 6.23 2401.5
572.45 6.29 2426.4
579.33 6.30 2428.9
580.59 6.24 2408.0
588.14 6.26 2413.4
596.68 6.28 2422.6
592.21 6.17 2379.4
607.28 6.26 2414.8
622.27 6.35 2449.2
617.04 6.23 2404.1
627.65 6.28 2421.0
652.78 6.46 2492.9
654.48 6.42 2474.9
641.89 6.23 2403.8
662.02 6.37 2455.3
687.53 6.43 2478.4
166.43 -0.00 2674.8
166.81 -0.00 2573.6
173.05 -0.00 2567.2
181.00 -0.00 2585.7
188.25 -0.00 2593.2
195.38 -0.00 2598.7
199.21 -0.00 2561.3
203.40 -0.00 2530.8
216.12 -0.00 2605.1
222.42 -0.00 2523.2
218.78 -0.00 2411.1
220.34 -0.00 2360.7
231.27 -0.00 2410.9
235.21 -0.00 2387.4
235.30 -0.00 2327.1
246.22 -0.00 2374.3
256.54 -0.00 2413.4
259.80 -0.00 2385.9
259.59 -0.00 2328.6
261.81 -0.00 2295.1
269.89 -0.00 2313.3
274.02 -0.00 2297.7
280.26 -0.00 2300.0
290.33 -0.00 2333.0
298.43 -0.00 2349.1
306.73 -0.00 2366.2
309.35 -0.00 2339.6
307.43 -0.00 2280.4
317.59 -0.00 2311.3
333.03 -0.00 2378.8
334.14 -0.00 2343.3
336.06 -0.00 2314.7
344.13 -0.00 2328.7
346.62 -0.00 2305.1
355.33 -0.00 2323.0
373.97 -0.00 2404.1
383.64 -0.00 2425.9
381.52 -0.00 2373.5
386.55 -0.00 2366.6
399.73 -0.00 2409.1
402.81 -0.00 2390.3
395.68 -0.00 2312.4
404.06 -0.00 2326.2
423.80 -0.00 2403.9
450.12 -0.00 2411.3
453.18 -0.00 2394.5
451.63 -0.00 2354.1
450.64 -0.00 2317.6
464.16 -0.00 2355.7
483.74 -0.00 2423.2
495.72 -0.00 2451.4
497.61 -0.00 2429.6
498.37 -0.00 2402.9
500.23 -0.00 2382.0
500.73 -0.00 2355.4
509.52 -0.00 2367.8
525.17 -0.00 2411.5
531.99 -0.00 2414.1
539.26 -0.00 2418.6
547.87 -0.00 2429.0
538.51 -0.00 2360.3
533.53 -0.00 2312.2
549.67 -0.00 2355.7
555.69 -0.00 2355.3
554.50 -0.00 2324.8
567.23 -0.00 2352.6
587.91 -0.00 2412.4
590.94 -0.00 2399.3
579.89 -0.00 2329.9
590.21 -0.00 2346.9
599.87 -0.00 2361.0
615.06 -0.00 2396.3
647.23 -0.00 2496.5
657.09 -0.00 2509.4
640.67 -0.00 2422.7
634.16 -0.00 2374.8
659.94 -0.00 2447.6
688.97 -0.00 2530.9
691.89 -0.00 2517.7
694.21 -0.00 2502.5
153.81 -6.99 2696.6
157.74 -6.86 2645.3
166.50 -6.94 2675.8
174.50 -6.98 2692.3
174.39 -6.71 2587.1
182.45 -6.52 2513.4
189.16 -6.52 2515.9
199.60 -6.65 2566.2
211.09 -6.81 2626.5
216.04 -6.75 2604.0
215.67 -6.54 2520.8
222.86 -6.55 2528.2
229.18 -6.55 2525.6
224.80 -6.24 2408.5
229.74 -6.21 2395.0
239.42 -6.30 2430.2
245.36 -6.29 2426.6
252.61 -6.32 2435.9
259.39 -6.33 2440.2
263.15 -6.27 2416.7
262.14 -6.10 2351.4
269.29 -6.12 2360.7
281.24 -6.25 2410.6
284.80 -6.19 2388.1
290.42 -6.18 2383.4
298.48 -6.22 2398.5
304.73 -6.22 2398.7
305.96 -6.12 2360.2
302.01 -5.92 2284.1
310.77 -5.98 2305.1
333.10 -6.28 2424.2
337.66 -6.14 2368.0
333.91 -5.96 2299.9
336.67 -5.91 2278.3
345.57 -5.96 2298.2
360.92 -6.12 2359.5
373.05 -6.22 2398.2
375.05 -6.15 2371.5
375.97 -6.06 2339.0
385.10 -6.11 2357.7
394.32 -6.16 2376.5
392.34 -6.04 2328.2
390.28 -5.91 2280.8
404.06 -6.03 2326.2
417.20 -6.14 2366.5
425.26 -6.16 2377.3
441.05 -6.30 2430.3
440.81 -6.21 2394.8
429.75 -5.97 2302.2
430.86 -5.90 2276.6
440.70 -5.96 2297.1
451.02 -6.01 2319.5
462.03 -6.08 2344.9
478.45 -6.21 2396.7
486.01 -6.23 2403.3
483.36 -6.12 2360.0
495.32 -6.19 2388.2
509.89 -6.29 2428.0
513.62 -6.26 2416.0
525.29 -6.33 2441.1
528.99 -6.30 2429.1
522.74 -6.15 2372.1
529.03 -6.15 2372.7
536.43 -6.17 2378.2
542.51 -6.16 2377.9
556.46 -6.25 2411.6
575.34 -6.39 2465.8
583.47 -6.41 2473.1
569.58 -6.19 2388.0
568.17 -6.11 2356.5
577.73 -6.15 2370.6
597.03 -6.16 2374.1
596.42 -6.09 2347.4
600.64 -6.07 2340.1
624.14 -6.24 2407.4
623.14 -6.17 2379.8
633.77 -6.21 2396.6
657.37 -6.38 2461.7
667.23 -6.42 2474.6
681.09 -6.49 2501.9
695.07 -6.56 2529.2
704.93 -6.35 2449.6
161.31 -14.03 2705.2
168.23 -14.02 2703.7
179.84 -13.83 2667.9
178.41 -13.22 2548.7
182.52 -13.04 2514.4
205.00 -13.23 2550.7
211.90 -13.24 2554.2
215.92 -13.09 2523.7
228.30 -13.43 2589.9
247.41 -13.37 2579.1
249.28 -12.78 2465.4
246.63 -12.33 2378.2
250.93 -12.24 2360.7
252.33 -12.02 2317.3
261.69 -12.17 2347.4
279.04 -12.68 2446.1
285.99 -12.71 2451.3
284.44 -12.37 2385.1
291.74 -12.41 2394.3
301.69 -12.57 2424.3
304.09 -12.41 2393.7
301.33 -12.05 2324.5
303.19 -11.89 2293.0
318.65 -12.26 2363.6
331.20 -12.50 2410.3
331.23 -12.27 2365.9
333.14 -12.11 2336.3
335.77 -11.99 2312.7
336.96 -11.82 2280.2
344.68 -11.89 2292.2
354.87 -12.03 2320.0
360.90 -12.03 2320.1
375.67 -12.32 2375.4
389.77 -12.57 2424.8
387.67 -12.31 2373.5
384.17 -12.01 2315.3
390.34 -12.01 2316.3
397.02 -12.03 2320.2
402.69 -12.02 2318.3
407.30 -11.98 2310.3
414.69 -12.02 2318.2
431.23 -12.32 2376.2
434.83 -12.25 2362.3
428.09 -11.89 2293.4
433.46 -11.88 2290.3
448.24 -12.11 2336.4
457.51 -12.20 2352.9
467.06 -12.29 2370.4
474.92 -12.34 2379.0
473.32 -12.14 2340.6
476.14 -12.05 2324.7
495.32 -12.38 2388.1
513.58 -12.68 2445.6
520.90 -12.70 2450.2
526.13 -12.68 2445.0
522.18 -12.43 2397.8
518.43 -12.20 2352.5
527.94 -12.28 2367.8
530.70 -12.20 2352.9
531.61 -12.08 2330.1
543.41 -12.21 2355.1
560.11 -12.45 2400.5
585.59 -12.73 2455.1
570.27 -12.26 2365.2
563.28 -11.98 2311.3
579.45 -12.20 2352.7
613.45 -12.78 2464.8
606.75 -12.38 2388.1
597.90 -12.08 2329.5
608.32 -12.17 2346.4
634.66 -12.32 2376.7
657.33 -12.64 2437.9
664.01 -12.65 2439.2
668.83 -12.62 2433.7
669.88 -12.52 2414.8
675.68 -12.51 2413.2
708.67 -13.00 2507.8
704.82 -12.81 2471.4
706.60 -12.62 2433.5
161.19 -21.02 2703.1
167.11 -20.89 2685.7
175.86 -21.10 2713.2
179.23 -20.68 2658.9
179.60 -19.96 2565.6
186.07 -19.94 2563.2
191.55 -19.82 2547.7
193.78 -19.38 2491.4
203.48 -19.69 2531.8
212.31 -19.90 2559.1
218.30 -19.85 2551.6
224.69 -19.83 2549.0
232.78 -19.95 2565.4
242.26 -20.19 2595.6
251.78 -18.88 2427.9
257.90 -18.87 2426.3
253.19 -18.08 2325.2
257.15 -17.94 2306.6
272.35 -18.57 2387.4
276.71 -18.45 2371.8
277.21 -18.08 2324.5
287.26 -18.34 2357.5
302.18 -18.89 2428.2
308.75 -18.90 2430.4
305.69 -18.34 2358.2
307.51 -18.09 2325.7
317.71 -18.33 2356.6
324.52 -18.37 2361.7
329.14 -18.29 2351.0
335.26 -18.29 2351.1
338.35 -18.13 2330.5
340.03 -17.90 2300.9
344.67 -17.83 2292.2
351.54 -17.87 2298.2
357.82 -17.89 2300.3
372.39 -18.31 2354.7
389.29 -18.84 2421.8
389.76 -18.56 2386.3
389.89 -18.28 2349.8
399.97 -18.46 2373.5
408.82 -18.58 2389.2
417.74 -18.70 2404.9
418.76 -18.47 2375.3
422.96 -18.39 2364.4
431.04 -18.47 2375.1
426.32 -18.01 2316.0
430.29 -17.93 2305.1
447.59 -18.39 2364.9
452.18 -18.33 2356.9
450.82 -18.03 2318.5
460.28 -18.17 2336.0
467.87 -18.23 2343.7
473.31 -18.20 2340.6
484.15 -18.39 2363.9
496.33 -18.61 2393.0
506.79 -18.77 2413.3
507.37 -18.56 2386.6
505.08 -18.26 2347.2
506.64 -18.09 2326.4
508.30 -17.94 2306.6
533.37 -18.61 2392.2
551.81 -19.03 2446.5
538.72 -18.37 2361.3
534.64 -18.02 2317.1
548.74 -18.29 2351.8
569.22 -18.77 2412.7
582.33 -18.99 2441.4
578.70 -18.67 2400.1
569.43 -18.17 2336.5
583.27 -18.42 2368.2
606.20 -18.94 2435.6
606.78 -18.77 2412.8
622.50 -19.06 2450.1
645.42 -19.17 2464.8
618.16 -18.18 2337.6
622.01 -18.12 2329.3
621.40 -17.92 2304.6
636.22 -18.01 2315.1
667.73 -18.72 2407.0
671.63 -18.66 2398.7
701.05 -19.29 2480.8
709.19 -19.34 2486.8
701.29 -18.78 2415.2
135.93 -28.62 2759.5
141.88 -28.38 2736.2
150.15 -28.60 2757.8
155.39 -28.25 2724.4
162.55 -28.27 2726.0
177.34 -27.28 2630.9
178.89 -26.50 2555.6
186.28 -26.61 2566.1
192.75 -26.59 2563.6
196.17 -26.16 2522.2
205.56 -26.52 2557.6
214.71 -26.84 2588.0
215.23 -26.09 2515.7
215.03 -25.30 2439.4
219.04 -25.03 2414.0
223.58 -24.84 2395.5
234.51 -25.35 2444.6
248.87 -25.52 2461.3
254.15 -25.41 2450.7
264.68 -24.62 2374.2
264.18 -24.02 2315.9
275.09 -24.45 2357.9
282.06 -24.53 2365.1
291.01 -24.77 2388.2
304.39 -25.37 2446.0
312.22 -24.49 2361.3
314.36 -24.18 2331.8
321.52 -24.27 2339.9
325.94 -24.14 2328.2
331.01 -24.07 2321.4
333.17 -23.80 2294.8
346.01 -24.28 2341.4
362.36 -24.99 2409.8
362.57 -24.58 2370.3
362.11 -24.14 2327.9
368.78 -24.18 2331.9
377.38 -24.35 2347.7
387.82 -24.62 2374.4
399.05 -24.94 2405.0
403.95 -24.86 2397.1
408.30 -24.75 2386.2
411.74 -24.58 2370.4
407.46 -23.97 2311.2
414.85 -24.05 2319.1
426.75 -24.39 2351.5
424.68 -23.93 2307.1
431.20 -23.96 2310.0
450.93 -24.71 2382.6
457.07 -24.71 2382.4
461.31 -24.60 2372.4
477.09 -25.11 2421.3
481.56 -25.02 2412.3
484.00 -24.82 2393.4
484.94 -24.55 2367.7
486.36 -24.32 2345.0
495.68 -24.48 2360.4
494.47 -24.12 2325.9
496.66 -23.94 2308.0
502.80 -23.94 2308.8
515.18 -24.24 2337.8
552.27 -25.10 2420.7
548.79 -24.66 2378.4
564.18 -25.07 2417.9
576.78 -25.35 2444.8
580.46 -25.24 2433.6
583.14 -25.08 2418.6
581.49 -24.74 2386.0
567.95 -23.91 2306.0
599.59 -24.47 2359.9
651.64 -25.55 2464.2
632.83 -24.58 2369.8
651.31 -24.58 2370.0
687.49 -25.70 2478.3
699.65 -25.91 2498.8
713.00 -26.17 2523.1
704.51 -25.62 2470.4
155.73 -35.39 2730.3
161.77 -35.17 2713.0
179.76 -34.57 2666.7
185.73 -34.39 2653.3
192.79 -34.43 2655.8
198.59 -34.24 2641.3
199.81 -33.30 2569.0
206.35 -33.28 2567.5
215.77 -33.71 2600.8
216.67 -32.83 2532.5
215.46 -31.69 2444.3
218.59 -31.23 2408.9
223.94 -31.10 2399.4
235.36 -31.81 2453.5
238.91 -31.44 2425.1
233.37 -29.92 2308.0
240.94 -30.12 2323.3
260.32 -31.75 2449.0
271.20 -31.54 2432.7
265.64 -30.19 2328.7
271.83 -30.20 2330.0
278.97 -30.32 2339.2
288.58 -30.70 2368.3
297.84 -31.02 2393.3
305.08 -31.13 2401.5
318.24 -31.20 2406.9
316.89 -30.47 2350.5
320.56 -30.24 2332.9
325.38 -30.13 2324.1
331.29 -30.12 2323.3
333.02 -29.73 2293.8
345.71 -30.33 2339.4
369.36 -31.30 2414.7
367.48 -30.62 2362.4
372.84 -30.56 2357.5
383.08 -30.89 2383.2
394.42 -31.30 2414.8
393.80 -30.77 2373.4
386.49 -29.73 2293.5
399.52 -30.27 2334.9
412.93 -30.82 2377.2
411.96 -30.29 2336.8
423.82 -30.71 2369.2
434.23 -31.02 2392.7
430.64 -30.33 2339.5
428.98 -29.79 2298.1
440.31 -30.16 2326.5
454.80 -30.73 2370.6
467.21 -31.15 2402.8
492.71 -31.58 2436.5
482.92 -30.56 2357.9
479.45 -29.97 2311.6
483.75 -29.86 2303.6
484.68 -29.55 2279.9
489.91 -29.51 2276.7
507.46 -30.21 2330.2
531.73 -31.28 2412.9
542.05 -31.51 2431.1
529.13 -30.41 2345.9
532.46 -30.25 2333.8
551.02 -30.96 2388.1
545.76 -30.32 2339.0
551.21 -29.96 2311.0
571.64 -30.73 2370.9
570.82 -30.36 2342.3
584.55 -30.13 2324.4
589.23 -30.06 2319.1
607.05 -30.66 2365.1
633.13 -31.66 2442.1
630.44 -31.21 2407.6
620.17 -30.40 2345.2
610.11 -29.62 2284.8
619.02 -29.76 2295.8
650.30 -30.97 2388.9
678.59 -32.01 2469.3
684.00 -31.67 2442.8
671.92 -30.82 2377.7
688.04 -31.27 2412.6
692.44 -31.19 2406.2
689.55 -30.78 2374.7
725.58 -32.11 2476.7
153.16 -41.77 2685.3
160.40 -41.84 2689.9
180.96 -41.76 2684.6
185.86 -41.30 2655.2
191.70 -41.08 2640.7
202.44 -40.49 2602.8
207.14 -40.09 2577.4
213.86 -40.10 2577.8
220.67 -40.12 2579.3
226.08 -39.90 2564.7
223.46 -38.31 2462.6
222.54 -37.09 2384.4
229.33 -37.19 2390.7
250.80 -36.70 2359.4
260.96 -37.28 2396.5
268.98 -37.53 2412.8
275.04 -37.51 2411.1
272.87 -36.38 2338.9
272.10 -35.49 2281.6
280.10 -35.76 2298.7
287.45 -35.93 2309.9
291.96 -35.75 2298.3
301.29 -36.16 2324.3
310.76 -36.56 2350.3
316.07 -36.47 2344.5
320.27 -36.26 2330.8
325.92 -36.21 2328.0
336.21 -36.68 2357.9
341.77 -36.62 2354.0
338.54 -35.64 2290.8
343.30 -35.51 2283.1
360.13 -36.62 2354.3
371.16 -37.12 2386.0
376.41 -37.02 2380.1
386.56 -37.41 2404.8
389.73 -37.12 2386.1
379.88 -35.61 2289.4
399.17 -36.29 2332.8
419.25 -37.54 2413.6
425.49 -37.54 2413.5
440.94 -37.26 2395.5
434.10 -36.18 2325.6
436.39 -35.87 2305.8
441.78 -35.82 2302.7
446.77 -35.74 2297.7
461.79 -36.46 2343.7
477.62 -37.22 2392.5
474.46 -36.50 2346.2
476.69 -36.20 2327.4
486.13 -36.46 2343.8
492.36 -36.47 2344.6
494.64 -36.19 2326.7
487.79 -35.26 2266.8
517.30 -36.52 2347.4
525.27 -36.65 2355.9
531.53 -36.66 2356.5
558.02 -38.05 2445.9
562.33 -37.49 2410.0
578.18 -37.30 2398.0
586.66 -37.45 2407.3
580.59 -36.67 2357.3
595.28 -37.21 2391.8
597.94 -36.99 2377.7
578.38 -35.41 2276.4
599.33 -36.32 2335.0
627.59 -37.66 2420.7
610.66 -36.28 2332.1
611.90 -35.64 2291.4
655.96 -37.84 2432.8
665.25 -38.01 2443.8
670.09 -37.93 2438.3
680.05 -37.43 2406.5
686.37 -37.44 2406.8
697.67 -37.71 2424.3
699.84 -37.49 2410.2
717.97 -38.12 2450.7
133.36 -49.13 2707.3
143.21 -50.12 2761.8
148.17 -49.39 2721.5
150.19 -47.79 2633.3
157.36 -47.89 2638.9
181.39 -47.03 2591.2
186.26 -46.57 2565.8
192.88 -46.56 2565.3
202.67 -47.29 2605.7
215.43 -47.12 2596.7
214.35 -45.47 2505.4
223.79 -46.07 2538.7
225.89 -45.18 2489.4
234.09 -43.12 2376.1
245.82 -44.12 2431.2
249.48 -43.66 2405.7
256.81 -43.85 2416.0
265.28 -44.21 2436.2
271.29 -44.16 2433.5
280.02 -44.55 2454.7
280.97 -43.71 2408.3
280.14 -42.63 2349.0
287.95 -42.89 2363.1
299.79 -43.72 2409.0
308.58 -44.08 2429.1
304.88 -42.68 2351.9
302.36 -41.50 2286.7
314.73 -42.37 2334.5
325.02 -42.93 2365.4
323.83 -41.98 2313.1
328.30 -41.78 2302.3
336.44 -42.06 2317.3
334.87 -41.12 2266.0
336.90 -40.66 2240.4
351.95 -41.76 2300.9
364.53 -42.53 2343.4
371.40 -42.62 2348.4
373.05 -42.12 2320.8
377.73 -41.31 2276.5
398.76 -42.94 2366.3
407.59 -43.23 2382.0
415.81 -43.44 2393.8
414.71 -42.69 2352.3
421.32 -42.74 2355.2
452.80 -44.02 2425.7
454.57 -43.00 2369.4
442.94 -41.34 2278.0
452.49 -41.68 2296.5
463.50 -42.14 2321.8
463.34 -41.58 2291.3
469.65 -41.61 2293.0
482.86 -42.25 2328.1
492.55 -42.57 2345.5
490.26 -41.85 2306.1
512.97 -42.24 2327.8
530.04 -43.14 2377.2
546.68 -43.99 2423.7
560.00 -44.55 2454.5
561.32 -44.15 2432.7
568.44 -44.21 2436.2
566.16 -43.55 2399.7
559.99 -42.61 2347.8
578.39 -43.54 2398.9
588.53 -43.83 2414.9
582.72 -42.94 2365.9
579.56 -42.26 2328.6
611.48 -43.24 2382.4
630.07 -44.10 2430.3
604.05 -41.87 2306.9
620.64 -42.18 2324.2
668.11 -44.54 2454.3
636.14 -42.01 2314.8
629.69 -41.19 2269.9
662.92 -42.97 2367.6
672.41 -43.18 2379.4
695.67 -44.27 2439.4
712.36 -44.52 2453.3
713.44 -44.20 2435.3
721.80 -44.32 2442.2
727.90 -44.31 2441.4
139.16 -55.66 2683.8
146.26 -55.72 2686.4
150.64 -54.78 2641.1
152.47 -53.03 2556.9
161.62 -53.87 2597.4
183.68 -54.42 2624.0
189.00 -54.00 2603.6
190.39 -52.52 2532.3
194.36 -51.83 2498.9
210.89 -54.42 2624.0
216.24 -54.06 2606.5
211.02 -51.16 2466.5
215.70 -50.75 2447.0
227.59 -52.02 2508.2
232.37 -51.64 2489.6
228.84 -49.48 2385.5
236.14 -49.71 2396.9
273.27 -50.84 2451.3
276.04 -50.19 2419.8
280.37 -49.84 2403.2
282.61 -49.15 2369.7
287.82 -48.99 2362.0
297.43 -49.57 2390.1
304.16 -49.66 2394.2
298.18 -47.71 2300.3
299.20 -46.93 2262.8
315.91 -48.60 2343.3
327.46 -49.43 2383.1
326.17 -48.32 2329.8
325.32 -47.32 2281.4
328.38 -46.91 2261.8
337.04 -47.30 2280.7
349.37 -48.19 2323.4
363.87 -49.34 2378.8
375.12 -50.02 2411.5
383.09 -50.24 2422.4
385.89 -49.79 2400.7
375.03 -47.62 2296.1
381.80 -47.73 2301.1
406.71 -50.06 2413.5
428.92 -50.46 2433.0
430.46 -49.91 2406.3
456.08 -50.68 2443.3
462.28 -49.98 2409.5
449.21 -47.92 2310.2
458.85 -48.30 2328.7
479.33 -49.80 2401.1
487.30 -49.98 2409.7
488.08 -49.43 2383.0
496.85 -49.68 2395.5
498.48 -49.23 2373.7
486.28 -47.44 2287.4
508.21 -47.83 2306.2
518.26 -48.21 2324.4
533.90 -49.09 2367.0
546.18 -49.65 2394.0
541.96 -48.72 2348.8
542.29 -48.20 2324.1
544.78 -47.89 2309.1
565.48 -48.64 2345.3
575.72 -49.00 2362.4
582.21 -49.03 2363.9
590.88 -49.24 2374.1
591.06 -48.75 2350.3
615.50 -50.24 2422.5
626.37 -50.62 2440.4
608.71 -48.70 2347.9
603.27 -47.78 2303.8
608.85 -47.75 2302.4
616.23 -47.86 2307.7
634.04 -48.77 2351.5
651.28 -49.62 2392.4
632.14 -47.71 2300.2
647.91 -47.55 2292.7
700.30 -50.93 2455.6
716.50 -50.73 2445.7
715.53 -50.21 2421.0
707.59 -49.22 2373.3
743.18 -51.25 2471.2
123.73 -61.87 2651.4
145.17 -62.21 2666.3
150.86 -61.72 2645.0
154.42 -60.43 2589.7
158.50 -59.44 2547.4
168.38 -60.62 2597.8
179.99 -62.31 2670.2
186.18 -62.06 2659.8
