ply
format ascii 1.0
element vertex 2100
property float x
property float y
property float z
end_header
1694.90 1046.69 2049.4
1712.99 1238.91 2438.1
1715.39 1236.09 2432.5
1713.50 1230.21 2421.0
1732.43 1239.26 2438.8
1743.91 1242.93 2446.0
1733.36 1230.94 2422.4
1745.90 1235.37 2431.1
1757.93 1239.41 2439.1
1742.35 1224.02 2408.8
1722.85 1205.99 2373.3
1704.85 1189.15 2340.2
1699.28 1181.06 2324.2
1695.84 1174.50 2311.3
1676.98 1157.35 2277.6
1681.65 1156.50 2275.9
1687.96 1156.79 2276.5
1658.35 1132.53 2228.7
1655.70 1126.80 2217.5
1678.56 1138.40 2240.3
1663.64 1124.39 2212.7
1628.53 1096.88 2158.6
1617.27 1085.57 2136.3
1619.95 1083.65 2132.6
1629.92 1086.61 2138.4
1632.01 1084.32 2133.9
1633.53 1081.66 2128.6
1627.66 1074.14 2113.8
1618.33 1064.40 2094.7
1654.98 1084.87 2135.0
1672.40 1092.63 2150.2
1661.31 1081.78 2128.9
1666.17 1081.35 2128.0
1652.09 1068.68 2103.1
1623.54 1046.76 2059.9
1633.45 1049.69 2065.7
1668.78 1068.89 2103.5
1696.72 1083.25 2131.8
1715.46 1091.66 2148.3
1705.21 1081.62 2128.6
1673.91 1058.34 2082.7
1642.45 1035.11 2037.0
1635.40 1027.37 2021.8
1666.98 1043.86 2054.2
1683.39 1050.78 2067.9
1685.13 1048.52 2063.4
1719.29 1066.39 2098.6
1762.43 1089.70 2144.5
1753.01 1080.47 2126.3
1712.08 1051.93 2070.1
1741.72 1272.04 2516.1
1743.80 1268.81 2509.7
1718.90 1246.04 2464.7
1672.64 1208.02 2389.5
1665.93 1198.73 2371.1
1678.33 1203.21 2380.0
1685.41 1203.86 2381.3
1701.06 1210.61 2394.6
1709.24 1212.01 2397.4
1707.74 1206.55 2386.6
1725.61 1214.78 2402.9
1745.17 1224.13 2421.4
1739.30 1215.64 2404.6
1697.48 1182.17 2338.4
1659.22 1151.42 2277.5
1667.19 1152.85 2280.4
1677.91 1156.15 2286.9
1657.34 1137.96 2250.9
1658.65 1134.87 2244.8
1684.23 1148.34 2271.4
1673.93 1137.34 2249.7
1630.84 1104.21 2184.2
1612.52 1088.03 2152.2
1624.73 1092.49 2161.0
1616.86 1083.46 2143.1
1616.19 1079.31 2134.9
1628.97 1084.12 2144.4
1638.96 1087.06 2150.2
1643.33 1086.27 2148.7
1618.87 1066.48 2109.5
1587.47 1042.28 2061.7
1586.17 1034.46 2046.2
1629.10 1058.92 2094.6
1645.33 1065.91 2108.4
1654.16 1068.09 2112.7
1644.63 1058.43 2093.6
1627.56 1043.99 2065.0
1649.58 1054.65 2086.1
1658.39 1056.82 2090.4
1659.68 1054.19 2085.2
1682.99 1065.53 2107.6
1677.31 1058.49 2093.7
1665.16 1047.44 2071.9
1652.93 1036.40 2050.0
1640.62 1025.39 2028.2
1666.95 1038.51 2054.2
1688.66 1048.69 2074.3
1695.70 1049.72 2076.4
1694.49 1045.65 2068.3
1702.71 1047.41 2071.8
1741.16 1067.69 2111.9
1748.87 1069.06 2114.6
1730.41 1257.30 2499.8
1731.93 1253.71 2492.6
1720.72 1240.97 2467.3
1690.33 1214.53 2414.8
1678.87 1201.85 2389.5
1687.04 1203.26 2392.3
1698.96 1207.32 2400.4
1718.40 1216.68 2419.0
1699.23 1198.73 2383.3
1672.37 1175.51 2337.2
1684.23 1179.57 2345.2
1697.19 1184.37 2354.8
1718.87 1195.20 2376.3
1703.62 1180.37 2346.8
1656.62 1143.72 2274.0
1656.38 1139.50 2265.6
1665.43 1141.67 2269.9
1644.81 1123.56 2233.9
1622.95 1104.74 2196.5
1624.15 1101.69 2190.4
1629.75 1101.64 2190.3
1602.61 1079.53 2146.3
1570.51 1047.01 2081.7
1603.91 1065.61 2118.7
1632.38 1080.82 2148.9
1659.82 1095.26 2177.6
1650.70 1085.54 2158.3
1616.06 1059.17 2105.9
1603.90 1047.66 2083.0
1600.17 1041.72 2071.2
1611.20 1045.40 2078.5
1642.80 1062.34 2112.2
1651.63 1064.51 2116.5
1652.46 1061.51 2110.5
1659.00 1062.20 2111.9
1659.20 1058.83 2105.2
1653.04 1051.44 2090.5
1636.99 1037.83 2063.4
1628.37 1029.00 2045.9
1642.34 1034.46 2056.7
1655.77 1039.54 2066.8
1662.80 1040.59 2068.9
1655.23 1032.52 2052.9
1647.60 1024.47 2036.9
1675.13 1038.26 2064.3
1698.04 1049.11 2085.9
1703.93 1049.40 2086.4
1701.55 1044.62 2076.9
1684.34 1030.79 2049.4
1696.68 1035.08 2058.0
1722.12 1047.31 2082.3
1705.06 1270.56 2539.2
1717.63 1275.01 2548.1
1731.12 1246.66 2491.5
1714.07 1229.80 2457.8
1703.80 1217.90 2434.0
1710.98 1218.52 2435.2
1701.63 1207.41 2413.0
1695.41 1198.58 2395.4
1707.88 1202.99 2404.2
1681.66 1180.22 2358.7
1660.13 1160.89 2320.1
1676.28 1167.95 2334.2
1690.31 1173.49 2345.2
1711.98 1184.27 2366.8
1718.48 1184.52 2367.3
1688.95 1160.02 2318.3
1649.38 1128.83 2256.0
1618.91 1104.06 2206.5
1612.45 1095.79 2189.9
1604.83 1086.78 2171.9
1610.95 1087.11 2172.6
1621.51 1090.42 2179.2
1609.87 1078.83 2156.1
1578.66 1054.26 2107.0
1562.68 1036.42 2071.3
1612.90 1066.06 2130.5
1659.39 1093.04 2184.5
1668.89 1095.56 2189.5
1643.97 1075.54 2149.5
1625.12 1059.62 2117.7
1627.15 1057.37 2113.2
1615.51 1046.29 2091.0
1618.03 1044.42 2087.3
1648.52 1060.55 2119.5
1655.08 1061.23 2120.9
1636.97 1046.15 2090.7
1623.36 1034.02 2066.5
1628.67 1033.99 2066.5
1629.93 1031.40 2061.3
1636.96 1032.46 2063.4
1652.11 1038.62 2075.7
1663.82 1042.59 2083.6
1675.54 1046.53 2091.5
1662.19 1034.85 2068.2
1634.72 1014.47 2027.4
1647.55 1019.16 2036.8
1694.48 1044.84 2088.1
1700.96 1045.50 2089.4
1690.93 1036.03 2070.5
1710.38 1044.63 2087.7
1714.49 1043.84 2086.1
1696.04 1029.36 2057.2
1690.57 1022.82 2044.1
1685.75 1249.67 2510.5
1689.49 1247.62 2506.4
1713.42 1260.44 2532.1
1714.05 1256.10 2523.4
1713.61 1251.00 2513.2
1720.44 1251.23 2513.6
1703.69 1234.37 2479.8
1684.71 1216.03 2442.9
1714.57 1232.95 2476.9
1704.76 1216.78 2444.4
1673.73 1190.21 2391.0
1681.91 1191.61 2393.9
1672.47 1180.56 2371.7
1658.66 1166.53 2343.5
1662.45 1164.93 2340.3
1656.54 1156.57 2323.5
1653.26 1150.10 2310.5
1650.47 1144.01 2298.2
1647.63 1137.93 2286.0
1658.33 1141.22 2292.6
1652.16 1132.91 2275.9
1648.66 1126.48 2263.0
1630.86 1110.37 2230.7
1609.65 1092.06 2193.9
1611.97 1089.78 2189.3
1607.64 1083.04 2175.8
1617.64 1085.97 2181.6
1615.46 1080.73 2171.1
1592.68 1061.79 2133.1
1597.05 1061.02 2131.5
1600.30 1059.51 2128.5
1582.82 1044.34 2098.0
1603.38 1054.28 2118.0
1629.63 1067.88 2145.3
1621.03 1058.63 2126.7
1629.87 1060.80 2131.1
1643.25 1065.89 2141.3
1629.43 1053.37 2116.1
1601.28 1031.70 2072.6
1601.49 1028.38 2065.9
1627.96 1041.89 2093.1
1635.61 1043.32 2095.9
1616.88 1027.95 2065.1
1604.93 1016.98 2043.0
1611.35 1017.69 2044.5
1628.75 1025.31 2059.8
1651.41 1036.18 2081.6
1661.37 1039.03 2087.3
1667.86 1039.71 2088.7
1677.27 1042.19 2093.7
1660.41 1028.38 2065.9
1642.86 1014.24 2037.5
1666.27 1025.40 2059.9
1709.15 1048.42 2106.2
1712.13 1046.90 2103.2
1695.61 1033.52 2076.3
1707.99 1037.76 2084.8
1713.27 1037.69 2084.7
1695.40 1023.64 2056.4
1687.54 1015.70 2040.5
1647.49 1273.97 2572.7
1665.67 1257.48 2539.4
1670.05 1255.82 2536.1
1676.96 1256.07 2536.6
1669.04 1245.26 2514.7
1681.02 1249.32 2522.9
1707.94 1264.41 2553.4
1679.39 1233.71 2491.4
1670.64 1222.57 2468.9
1688.83 1231.17 2486.3
1706.04 1238.99 2502.1
1710.75 1237.70 2499.5
1692.91 1220.17 2464.1
1665.99 1196.26 2415.8
1686.33 1206.33 2436.1
1697.76 1209.97 2443.5
1649.32 1171.08 2364.9
1622.37 1147.67 2317.7
1633.07 1150.98 2324.3
1644.32 1154.65 2331.8
1649.70 1154.19 2330.8
1622.86 1131.26 2284.5
1586.69 1102.03 2225.5
1590.24 1100.49 2222.4
1595.94 1100.45 2222.3
1590.24 1092.57 2206.4
1597.53 1093.65 2208.6
1616.28 1102.53 2226.5
1637.28 1112.88 2247.4
1612.31 1092.03 2205.3
1584.99 1069.73 2160.3
1593.85 1071.92 2164.7
1596.10 1069.67 2160.1
1592.79 1063.72 2148.1
1578.34 1050.39 2121.2
1581.03 1048.53 2117.4
1612.13 1065.46 2151.6
1621.00 1067.62 2156.0
1607.47 1055.08 2130.7
1597.22 1044.76 2109.8
1593.65 1038.86 2097.9
1587.20 1031.14 2082.3
1597.10 1034.05 2088.2
1621.74 1046.46 2113.3
1619.21 1041.31 2102.9
1618.34 1037.26 2094.7
1644.83 1050.71 2121.8
1649.67 1050.29 2121.0
1633.88 1036.78 2093.7
1640.40 1037.47 2095.1
1652.09 1041.42 2103.1
1643.04 1032.30 2084.7
1644.32 1029.72 2079.5
1651.96 1031.13 2082.3
1648.57 1025.66 2071.3
1641.07 1017.68 2055.1
1636.42 1011.51 2042.7
1643.42 1012.56 2044.8
1649.25 1012.88 2045.5
1658.01 1015.00 2049.7
1687.36 1029.67 2079.4
1707.39 1038.57 2097.3
1707.39 1035.27 2090.7
1718.01 1038.42 2097.0
1721.54 1037.27 2094.7
1689.99 1015.06 2049.9
1668.42 998.96 2017.3
1637.31 1259.47 2556.8
1651.22 1240.05 2517.4
1672.34 1250.96 2539.5
1688.44 1258.05 2553.9
1688.21 1252.97 2543.6
1694.61 1252.83 2543.3
1711.01 1255.18 2548.1
1676.00 1224.77 2486.4
1686.42 1227.66 2492.3
1723.40 1249.79 2537.2
1703.14 1230.41 2497.8
1673.19 1199.64 2435.4
1665.66 1189.75 2415.3
1662.26 1182.89 2401.3
1650.88 1170.40 2376.0
1625.61 1148.20 2330.9
1621.44 1141.01 2316.3
1634.80 1146.17 2326.8
1648.20 1151.32 2337.3
1648.77 1147.50 2329.5
1617.60 1121.69 2277.1
1604.55 1108.60 2250.5
1630.29 1122.30 2278.4
1620.93 1111.83 2257.1
1601.17 1094.32 2221.6
1617.74 1101.69 2236.5
1646.92 1117.55 2268.7
1625.88 1099.35 2231.8
1562.47 1052.73 2137.1
1548.74 1039.79 2110.9
1569.64 1050.11 2131.8
1561.88 1041.25 2113.8
1580.57 1046.37 2124.2
1627.23 1073.52 2179.3
1642.28 1079.70 2191.9
1635.56 1071.58 2175.4
1628.22 1063.10 2158.2
1623.63 1056.47 2144.7
1611.66 1045.10 2121.6
1597.35 1032.30 2095.6
1593.12 1026.08 2083.0
1603.59 1029.33 2089.6
1628.86 1042.03 2115.4
1655.92 1055.79 2143.3
1648.82 1047.75 2127.0
1619.92 1025.95 2082.8
1632.15 1030.26 2091.5
1665.67 1047.94 2127.4
1665.90 1044.62 2120.7
1643.59 1027.24 2085.4
1625.78 1012.78 2056.0
1613.08 1001.59 2033.3
1624.71 1005.52 2041.3
1634.04 1008.01 2046.3
1626.45 1000.08 2030.2
1629.33 998.62 2027.3
1647.43 1006.47 2043.2
1668.52 1016.09 2062.7
1679.67 1019.61 2069.9
1680.81 1017.05 2064.7
1688.44 1018.42 2067.5
1707.32 1026.55 2084.0
1724.47 1033.59 2098.3
1707.77 1020.36 2071.4
1665.95 992.26 2014.4
1645.05 1253.69 2558.5
1637.48 1242.91 2536.5
1674.59 1265.99 2583.7
1668.72 1246.60 2544.1
1673.10 1244.95 2540.7
1673.38 1240.27 2531.2
1686.93 1245.43 2541.7
1707.70 1255.86 2563.0
1707.44 1250.80 2552.6
1684.41 1229.16 2508.5
1696.00 1228.14 2506.4
1724.69 1244.15 2539.1
1698.15 1220.34 2490.5
1651.85 1178.11 2404.3
1652.68 1174.27 2396.5
1657.69 1173.42 2394.7
1644.16 1159.50 2366.3
1615.66 1135.17 2316.7
1603.47 1122.43 2290.7
1608.26 1121.63 2289.0
1618.38 1124.54 2295.0
1616.72 1119.27 2284.2
1631.69 1125.51 2297.0
1663.41 1143.22 2333.1
1655.80 1133.86 2314.0
1616.14 1102.71 2250.4
1606.13 1091.94 2228.4
1631.44 1105.17 2255.4
1640.46 1107.31 2259.8
1599.67 1075.94 2195.8
1558.65 1044.63 2131.9
1564.71 1044.98 2132.6
1594.48 1061.11 2165.5
1595.61 1058.14 2159.5
1586.75 1048.59 2140.0
1620.03 1066.85 2177.2
1646.20 1080.32 2204.7
1641.21 1073.32 2190.4
1647.35 1073.62 2191.1
1652.37 1073.19 2190.2
1637.70 1060.02 2163.3
1616.17 1042.51 2127.6
1611.46 1035.94 2114.2
1619.15 1037.35 2117.0
1616.06 1031.88 2105.9
1628.29 1036.18 2114.7
1634.27 1036.50 2115.3
1606.54 1015.51 2072.5
1593.55 1003.94 2048.9
1622.37 1018.70 2079.0
1657.03 1037.02 2116.4
1656.66 1033.37 2108.9
1635.47 1016.79 2075.1
1616.47 1001.68 2044.2
1613.60 996.64 2034.0
1634.54 1006.28 2053.6
1649.13 1011.97 2065.2
1646.24 1006.92 2054.9
1647.98 1004.74 2050.5
1664.96 1011.83 2065.0
1684.93 1020.68 2083.0
1693.17 1022.39 2086.5
1682.53 1012.73 2066.8
1678.33 1007.00 2055.1
1690.68 1011.20 2063.7
1701.86 1014.67 2070.8
1694.03 1006.83 2054.7
1609.52 1276.75 2619.5
1610.35 1272.04 2609.8
1620.38 1274.61 2615.1
1625.06 1272.96 2611.7
1652.32 1252.56 2569.9
1627.19 1228.56 2520.6
1646.17 1237.92 2539.8
1660.67 1243.85 2552.0
1642.80 1225.58 2514.5
1641.55 1219.81 2502.6
1650.43 1221.58 2506.3
1663.77 1217.08 2497.0
1666.98 1214.70 2492.2
1627.11 1172.02 2404.6
1616.54 1159.96 2379.9
1662.01 1179.09 2419.1
1662.33 1174.88 2410.5
1644.65 1158.03 2375.9
1608.29 1128.20 2314.7
1592.95 1113.29 2284.1
1594.53 1110.26 2277.9
1587.01 1100.95 2258.8
1585.30 1095.72 2248.1
1591.59 1096.04 2248.7
1614.57 1107.81 2272.9
1625.77 1111.43 2280.3
1599.12 1089.25 2234.8
1580.43 1072.64 2200.7
1590.43 1075.54 2206.7
1596.09 1075.50 2206.6
1585.90 1064.82 2184.7
1601.37 1071.38 2198.1
1614.14 1076.09 2207.8
1596.10 1060.31 2175.4
1602.24 1060.64 2176.1
1610.58 1062.42 2179.7
1607.28 1056.54 2167.7
1613.39 1056.86 2168.3
1613.37 1053.17 2160.8
1627.84 1058.94 2172.6
1651.87 1070.86 2197.1
1645.67 1063.18 2181.3
1620.28 1043.19 2140.3
1605.46 1030.12 2113.5
1608.06 1028.28 2109.7
1631.04 1039.44 2132.6
1644.44 1044.44 2142.8
1616.32 1023.13 2099.1
1582.92 998.62 2048.8
1587.20 994.64 2040.7
1616.01 1009.34 2070.8
1650.69 1027.58 2108.3
1656.07 1027.53 2108.1
1639.47 1013.88 2080.2
1609.46 992.06 2035.4
1640.30 1004.48 2060.9
1677.07 1023.66 2100.2
1666.63 1014.00 2080.4
1661.98 1007.91 2067.9
1670.78 1009.99 2072.2
1681.94 1013.47 2079.3
1690.76 1015.54 2083.5
1681.88 1006.99 2066.0
1679.44 1002.33 2056.5
1691.80 1006.51 2065.0
1700.61 1008.56 2069.2
1690.38 999.34 2050.3
1687.24 994.36 2040.1
1611.41 1260.81 2600.6
1612.15 1256.14 2591.0
1627.92 1252.76 2584.0
1634.96 1253.02 2584.5
1621.65 1237.75 2553.0
1627.13 1236.89 2551.3
1660.58 1247.10 2572.3
1638.86 1225.86 2528.5
1592.57 1163.32 2399.5
1580.17 1149.78 2371.6
1602.22 1161.30 2395.4
1605.22 1158.98 2390.6
1595.75 1147.72 2367.3
1582.03 1133.49 2338.0
1574.45 1123.75 2317.9
1609.15 1144.15 2360.0
1630.37 1154.85 2382.0
1622.75 1145.11 2362.0
1614.52 1135.02 2341.1
1589.28 1113.09 2295.9
1579.25 1101.94 2272.9
1589.86 1105.22 2279.7
1601.02 1108.86 2287.2
1603.66 1106.58 2282.5
1599.31 1099.52 2267.9
1602.96 1098.00 2264.8
1613.59 1101.25 2271.5
1613.98 1097.51 2263.8
1607.31 1089.01 2246.2
1606.53 1084.55 2237.1
1591.03 1070.22 2207.5
1571.05 1053.00 2172.0
1573.36 1050.78 2167.4
1601.96 1066.07 2198.9
1619.13 1073.68 2214.6
1605.50 1060.88 2188.2
1592.33 1048.47 2162.6
1581.27 1037.53 2140.1
1590.10 1039.68 2144.5
1607.30 1047.26 2160.1
1598.89 1038.17 2141.4
1604.38 1038.13 2141.3
1622.20 1046.04 2157.6
1609.75 1034.44 2133.7
1602.83 1026.47 2117.2
1606.01 1025.00 2114.2
1601.25 1018.48 2100.8
1617.42 1025.28 2114.8
1646.14 1039.96 2145.1
1632.81 1028.07 2120.5
1588.00 996.50 2055.4
1583.70 987.17 2036.2
1613.10 1002.16 2067.1
1642.60 1017.10 2097.9
1642.18 1013.49 2090.5
1624.39 999.21 2061.0
1615.20 983.85 2029.3
1659.52 1007.57 2078.3
1658.98 1003.98 2070.8
1650.20 995.44 2053.2
1653.69 994.34 2051.0
1676.58 1004.88 2072.7
1695.42 1012.92 2089.3
1687.72 1005.11 2073.2
1686.48 1001.18 2065.1
1698.26 1004.98 2072.9
1705.89 1006.32 2075.7
1714.13 1008.00 2079.1
1729.55 1013.87 2091.3
1612.86 1260.47 2613.9
1623.39 1263.39 2619.9
1633.44 1255.46 2603.5
1597.59 1222.84 2535.9
1589.68 1211.81 2513.0
1594.59 1210.59 2510.4
1617.42 1222.93 2536.0
1647.84 1240.88 2573.3
1650.33 1237.75 2566.8
1637.21 1222.98 2536.1
1584.30 1174.02 2434.6
1581.89 1167.59 2421.3
1573.83 1157.05 2399.4
1567.72 1148.02 2380.7
1596.33 1164.38 2414.6
1601.97 1163.93 2413.7
1571.58 1137.41 2358.7
1575.04 1135.49 2354.7
1598.66 1148.07 2380.8
1611.47 1152.82 2390.6
1614.43 1150.51 2385.9
1622.59 1151.91 2388.8
1604.58 1134.80 2353.3
1573.32 1108.48 2298.7
1586.58 1113.60 2309.3
1601.45 1119.81 2322.2
1561.35 1087.68 2255.6
1535.31 1065.55 2209.7
1561.76 1079.88 2239.4
1588.85 1094.54 2269.8
1614.98 1108.44 2298.6
1633.71 1117.17 2316.7
1621.85 1105.00 2291.5
1619.60 1099.44 2279.9
1622.17 1097.18 2275.3
1617.13 1089.81 2260.0
1614.20 1083.90 2247.7
1595.43 1067.45 2213.6
1583.63 1055.76 2189.4
1594.73 1059.35 2196.8
1615.72 1069.48 2217.8
1625.23 1071.96 2223.0
1601.13 1052.33 2182.3
1577.42 1033.10 2142.4
1594.02 1040.31 2157.3
1628.99 1059.41 2196.9
1629.02 1055.74 2189.3
1602.24 1034.78 2145.9
1589.84 1023.22 2121.9
1589.69 1019.59 2114.4
1601.31 1023.52 2122.5
1618.03 1030.66 2137.3
1622.37 1029.90 2135.7
1618.21 1023.76 2123.0
1610.03 1015.14 2105.1
1612.59 1013.32 2101.3
1636.78 1025.06 2125.7
1629.65 1017.16 2109.3
1609.28 1001.09 2076.0
1615.19 1001.42 2076.7
1629.72 1007.07 2088.4
1644.29 1012.71 2100.1
1660.05 1019.04 2113.2
1657.90 1014.38 2103.5
1660.36 1012.55 2099.8
1675.60 1018.50 2112.1
1653.00 1001.49 2076.8
1637.86 989.10 2051.1
1662.43 1000.68 2075.2
1676.51 1005.91 2086.0
1686.52 1008.66 2091.7
1714.21 1021.93 2119.2
1721.92 1023.25 2121.9
1700.07 1007.05 2088.4
1689.37 997.53 2068.6
1691.06 995.37 2064.1
1699.28 997.05 2067.6
1708.10 999.08 2071.8
1696.62 989.25 2051.4
1607.10 1259.80 2626.6
1604.56 1252.50 2611.4
1592.71 1238.03 2581.2
1610.01 1246.24 2598.3
1618.56 1247.64 2601.3
1603.07 1230.57 2565.7
1624.36 1241.76 2589.0
1633.88 1243.90 2593.5
1621.61 1229.50 2563.4
1624.63 1226.76 2557.7
1616.66 1215.78 2534.8
1616.09 1210.43 2523.7
1630.02 1215.94 2535.2
1628.89 1210.22 2523.2
1618.63 1197.79 2497.3
1603.89 1177.46 2454.9
1589.77 1162.48 2423.7
1577.58 1149.02 2395.6
1599.57 1160.47 2419.5
1603.16 1158.54 2415.5
1571.72 1131.39 2358.9
1574.66 1129.11 2354.1
1596.73 1140.52 2377.9
1622.01 1154.12 2406.3
1640.10 1162.53 2423.8
1624.83 1147.30 2392.1
1583.24 1113.69 2322.0
1569.22 1099.65 2292.7
1599.85 1116.88 2328.6
1615.30 1123.42 2342.3
1574.66 1091.06 2274.8
1537.49 1061.33 2212.8
1552.78 1067.90 2226.5
1563.32 1071.16 2233.3
1573.87 1074.42 2240.1
1588.74 1080.58 2252.9
1574.07 1066.68 2224.0
1588.41 1072.46 2236.0
1607.65 1081.51 2254.9
1602.57 1074.18 2239.6
1597.96 1067.23 2225.1
1594.94 1061.38 2212.9
1599.51 1060.61 2211.3
1604.07 1059.83 2209.7
1618.51 1065.57 2221.6
1621.98 1064.06 2218.5
1591.77 1040.56 2169.5
1575.77 1026.47 2140.1
1601.23 1039.40 2167.1
1610.12 1041.51 2171.5
1583.36 1020.63 2128.0
1587.16 1019.53 2125.7
1602.70 1025.95 2139.1
1576.20 1005.51 2096.4
1601.10 1014.40 2115.0
1626.88 1027.21 2141.7
1627.25 1023.95 2134.9
1623.06 1017.85 2122.2
1626.21 1016.38 2119.1
1651.02 1028.41 2144.2
1668.48 1035.80 2159.6
1672.25 1034.67 2157.2
1642.12 1012.64 2111.3
1620.47 995.97 2076.5
1657.51 1015.36 2117.0
1685.09 1025.46 2138.0
1677.73 1017.64 2121.7
1704.24 1026.99 2141.2
1683.95 1011.46 2108.8
1702.76 1019.45 2125.5
1689.36 1008.17 2102.0
1671.17 994.11 2072.7
1697.08 1006.28 2098.0
1701.80 1005.86 2097.2
1701.19 1002.30 2089.7
1710.64 1004.66 2094.7
1697.52 993.80 2072.0
1690.27 986.44 2056.7
1700.27 989.15 2062.3
1689.96 980.07 2043.4
1579.68 1247.47 2615.0
1586.73 1242.37 2604.4
1606.41 1252.45 2625.5
1597.55 1240.29 2600.0
1578.37 1220.25 2558.0
1572.20 1210.39 2537.3
1558.10 1194.55 2504.1
1559.59 1190.73 2496.1
1600.47 1216.88 2550.9
1628.70 1233.25 2585.2
1635.74 1233.51 2585.8
1617.91 1215.08 2547.1
1591.44 1190.35 2495.3
1570.77 1170.13 2452.9
1564.49 1160.75 2433.3
1622.37 1194.07 2503.1
1597.98 1166.78 2445.9
1586.89 1154.10 2419.3
1576.71 1142.18 2394.3
1599.74 1154.32 2419.8
1604.87 1153.50 2418.1
1553.82 1112.46 2332.0
1536.54 1095.83 2297.2
1550.23 1101.32 2308.7
1566.04 1108.27 2323.2
1581.37 1114.84 2337.0
1564.87 1098.99 2303.8
1550.86 1085.01 2274.5
1560.91 1087.91 2280.6
1573.62 1092.62 2290.4
1571.56 1087.09 2278.8
1562.03 1076.46 2256.5
1554.01 1066.93 2236.6
1564.56 1070.18 2243.4
1570.86 1070.51 2244.1
1550.37 1052.65 2206.6
1542.59 1035.90 2171.5
1580.12 1057.24 2216.3
1591.77 1061.18 2224.5
1590.94 1056.80 2215.3
1591.71 1053.50 2208.4
1598.46 1054.18 2209.8
1604.11 1054.13 2209.7
1599.32 1047.24 2195.3
1585.11 1034.26 2168.1
1579.08 1026.68 2152.2
1587.39 1028.45 2155.9
1591.81 1027.70 2154.3
1579.54 1016.21 2130.3
1578.33 1011.89 2121.2
1607.82 1027.22 2153.3
1615.02 1028.25 2155.5
1578.42 1001.48 2099.4
1577.95 994.32 2084.4
1607.64 1009.57 2116.3
1611.93 1008.83 2114.8
1631.55 1017.65 2133.3
1659.78 1031.75 2162.8
1652.72 1023.90 2146.4
1640.45 1012.89 2123.3
1653.89 1017.78 2133.5
1632.89 1001.51 2099.4
1624.44 993.01 2081.6
1674.21 1020.05 2138.3
1693.52 1028.41 2155.8
1664.77 1007.62 2112.3
1637.61 987.94 2071.0
1646.98 990.34 2076.0
1662.79 996.59 2089.1
1664.60 994.44 2084.6
1685.14 1003.45 2103.5
1672.87 992.93 2081.4
1649.92 976.16 2046.3
1672.25 986.20 2067.3
1692.28 994.82 2085.4
1706.45 999.96 2096.2
1696.33 990.87 2077.1
1662.95 968.30 2029.8
1662.18 964.80 2022.5
1679.88 972.01 2037.6
1703.02 982.30 2059.2
1582.82 1243.16 2620.2
1590.85 1238.83 2611.1
1585.87 1229.72 2591.9
1551.21 1197.77 2524.6
1556.21 1196.58 2522.1
1570.96 1202.87 2535.3
1562.24 1191.20 2510.7
1568.65 1191.13 2510.6
1587.88 1200.75 2530.9
1598.77 1204.01 2537.7
1586.37 1189.78 2507.7
1551.94 1159.20 2443.3
1531.73 1139.46 2401.7
1516.37 1123.46 2368.0
1528.50 1127.88 2377.3
1578.95 1160.43 2445.9
1598.01 1165.08 2455.7
1574.78 1143.59 2410.4
1553.40 1123.61 2368.3
1562.54 1125.77 2372.8
1602.97 1150.37 2424.7
1580.24 1125.23 2371.7
1550.09 1099.48 2317.4
1550.85 1095.78 2309.6
1530.77 1077.43 2270.9
1510.55 1059.12 2232.3
1541.43 1076.65 2269.3
1574.02 1095.23 2308.4
1554.68 1077.68 2271.5
1535.73 1060.52 2235.3
1549.96 1066.32 2247.5
1557.33 1067.38 2249.8
1542.91 1053.55 2220.6
1548.63 1053.53 2220.6
1567.18 1062.20 2238.8
1558.45 1052.39 2218.1
1569.53 1055.97 2225.7
1586.02 1063.16 2240.8
1577.71 1053.73 2221.0
1588.28 1056.93 2227.7
1580.41 1047.88 2208.7
1557.78 1029.14 2169.2
1571.55 1034.51 2180.5
1590.83 1043.45 2199.3
1603.59 1048.06 2209.0
1605.94 1045.86 2204.4
1585.12 1028.64 2168.1
1574.11 1017.89 2145.4
1596.80 1028.92 2168.7
1615.13 1037.08 2185.9
1613.48 1032.40 2176.0
1622.38 1034.48 2180.4
1630.75 1036.20 2184.0
1617.25 1024.07 2158.5
1611.53 1016.93 2143.4
1614.20 1015.12 2139.6
1600.48 1003.04 2114.1
1591.20 993.82 2094.7
1588.08 988.50 2083.5
1599.69 992.35 2091.6
1623.30 1003.59 2115.3
1613.29 994.05 2095.2
1603.21 984.52 2075.1
1618.29 990.46 2087.6
1622.49 989.72 2086.1
1639.36 996.69 2100.7
1674.18 1014.49 2138.3
1679.02 1014.06 2137.4
1677.48 1009.80 2128.4
1677.07 1006.24 2120.9
1664.97 995.72 2098.7
1658.05 988.35 2083.2
1648.74 979.61 2064.7
1656.94 981.30 2068.3
1681.61 992.69 2092.3
1694.57 997.13 2101.7
1691.64 992.21 2091.3
1685.11 985.23 2076.6
1692.16 986.20 2078.6
1674.88 973.02 2050.9
1682.17 968.04 2040.4
1718.48 985.84 2077.9
1588.35 1246.04 2640.7
1560.70 1208.71 2561.6
1527.54 1178.02 2496.6
1529.09 1174.24 2488.6
1569.09 1199.90 2542.9
1581.45 1204.28 2552.2
1568.82 1189.69 2521.3
1562.46 1179.95 2500.7
1567.37 1178.77 2498.2
1557.41 1166.45 2472.1
1527.98 1139.72 2415.4
1522.23 1130.80 2396.5
1529.39 1131.50 2398.0
1523.02 1122.23 2378.3
1543.72 1132.89 2400.9
1570.04 1147.58 2432.1
1572.72 1144.94 2426.5
1571.81 1139.72 2415.4
1557.63 1124.96 2384.1
1546.39 1112.42 2357.6
1564.21 1120.81 2375.3
1581.07 1128.45 2391.5
1573.27 1118.50 2370.4
1553.53 1100.16 2331.6
1542.94 1088.43 2306.7
1551.47 1090.22 2310.5
1538.66 1077.06 2282.6
1528.35 1065.75 2258.7
1568.72 1089.72 2309.5
1583.04 1095.49 2321.7
1546.34 1066.04 2259.3
1516.79 1041.72 2207.7
1520.38 1040.26 2204.6
1539.88 1049.66 2224.5
1538.70 1044.94 2214.5
1538.00 1040.58 2205.3
1550.11 1044.89 2214.4
1565.47 1051.35 2228.1
1600.76 1071.10 2270.0
1616.80 1077.87 2284.3
1608.02 1068.10 2263.6
1606.75 1063.38 2253.6
1586.42 1046.12 2217.0
1561.60 1026.03 2174.5
1572.66 1029.58 2182.0
1579.90 1030.62 2184.2
1580.57 1027.37 2177.3
1594.41 1032.68 2188.6
1584.57 1022.67 2167.3
1587.37 1020.85 2163.5
1625.07 1041.42 2207.1
1615.69 1031.78 2186.7
1586.19 1009.39 2139.2
1597.27 1012.90 2146.6
1608.36 1016.40 2154.1
1625.10 1023.42 2168.9
1650.31 1035.71 2195.0
1634.47 1022.25 2166.5
1602.71 998.95 2117.1
1592.85 989.41 2096.9
1589.72 984.11 2085.6
1603.05 989.00 2096.0
1629.53 1001.94 2123.4
1625.81 996.29 2111.4
1622.04 990.64 2099.5
1632.58 993.75 2106.1
1631.64 989.86 2097.8
1632.39 987.02 2091.8
1652.18 995.68 2110.2
1662.19 998.41 2115.9
1665.83 997.31 2113.6
1684.58 1005.22 2130.4
1691.73 1006.19 2132.4
1683.10 997.80 2114.6
1672.07 988.04 2094.0
1677.39 987.98 2093.8
1699.17 997.58 2114.2
1712.77 1002.33 2124.2
1708.68 996.73 2112.4
1692.72 984.27 2086.0
1689.71 979.38 2075.6
1689.03 975.89 2068.2
1676.42 965.53 2046.3
1683.42 966.51 2048.3
1717.92 983.21 2083.7
1733.96 989.28 2096.6
1545.92 1200.91 2559.2
1546.68 1196.37 2549.5
1535.33 1182.53 2520.0
1506.90 1155.72 2462.9
1511.30 1154.20 2459.6
1561.02 1187.17 2529.9
1586.56 1201.54 2560.5
1555.78 1173.32 2500.4
1530.66 1149.58 2449.8
1534.48 1147.69 2445.7
1524.90 1135.83 2420.5
1520.18 1127.68 2403.1
1536.83 1135.37 2419.5
1532.54 1127.60 2402.9
1515.13 1110.28 2366.0
1535.82 1120.90 2388.7
1561.63 1135.16 2419.0
1544.53 1118.24 2383.0
1524.25 1099.16 2342.3
1507.37 1082.67 2307.2
1492.39 1067.68 2275.2
1510.57 1076.43 2293.9
1527.28 1084.07 2310.2
1527.05 1079.67 2300.8
1515.93 1067.64 2275.2
1505.23 1055.99 2250.3
1513.64 1057.80 2254.2
1534.05 1067.94 2275.8
1557.15 1079.86 2301.2
1581.39 1092.48 2328.1
1579.45 1087.00 2316.4
1558.51 1068.53 2277.1
1545.87 1055.86 2250.1
1523.06 1036.37 2208.5
1518.15 1029.16 2193.2
1544.59 1043.17 2223.0
1572.74 1058.23 2255.1
1581.73 1060.34 2259.6
1591.80 1063.16 2265.6
1581.45 1052.36 2242.6
1553.20 1029.78 2194.5
1567.51 1035.47 2206.6
1590.53 1046.86 2230.9
1593.52 1045.02 2227.0
1594.31 1041.77 2220.0
1591.24 1036.03 2207.8
1584.84 1028.16 2191.0
1586.07 1025.28 2184.9
1600.48 1030.91 2196.9
1593.40 1022.72 2179.4
1600.09 1023.38 2180.8
1621.76 1033.58 2202.6
1595.12 1013.04 2158.8
1570.00 993.60 2117.4
1587.19 1000.98 2133.1
1596.03 1003.06 2137.5
1611.05 1009.00 2150.2
1637.37 1021.95 2177.8
1621.48 1008.55 2149.2
1605.49 995.18 2120.8
1610.93 995.15 2120.7
1616.92 995.45 2121.3
1640.57 1006.59 2145.1
1644.89 1005.83 2143.4
1620.61 987.65 2104.7
1617.40 982.38 2093.5
1627.36 985.12 2099.3
1621.21 978.13 2084.4
1617.32 972.54 2072.5
1633.62 979.09 2086.5
1638.95 979.04 2086.4
1639.05 975.88 2079.6
1653.10 981.02 2090.6
1675.34 990.97 2111.8
1681.87 991.59 2113.1
1690.74 993.59 2117.4
1717.83 1006.23 2144.3
1709.70 998.24 2127.3
1693.84 985.80 2100.8
1710.98 992.59 2115.2
1716.32 992.50 2115.0
1703.26 981.82 2092.3
1691.91 972.18 2071.7
1692.99 969.72 2066.5
1713.16 978.17 2084.5
1724.40 981.50 2091.6
1716.49 973.94 2075.5
1508.79 1234.46 2645.3
1506.57 1168.89 2504.8
1522.61 1176.27 2520.6
1550.76 1192.89 2556.2
1557.03 1187.56 2544.8
1517.31 1152.39 2469.4
1522.68 1151.60 2467.7
1559.37 1174.42 2516.6
1541.73 1156.30 2477.8
1523.93 1138.21 2439.0
1533.16 1140.37 2443.6
1532.49 1135.18 2432.5
1538.23 1134.76 2431.6
1533.99 1127.01 2415.0
1509.66 1104.63 2367.1
1507.23 1098.39 2353.7
1540.99 1118.46 2396.7
1556.73 1125.34 2411.5
1530.99 1102.31 2362.1
1514.20 1085.88 2326.9
1501.35 1072.39 2298.0
1490.43 1060.38 2272.2
1511.17 1070.91 2294.8
1525.32 1076.69 2307.2
1522.49 1070.50 2293.9
1514.97 1061.07 2273.7
1508.91 1052.73 2255.9
1514.22 1052.36 2255.0
1532.04 1060.64 2272.8
1544.16 1064.94 2282.0
1556.84 1069.59 2292.0
1577.97 1079.98 2314.2
1582.30 1078.84 2311.8
1567.60 1064.78 2281.7
1541.64 1043.22 2235.5
1543.15 1040.32 2229.3
1579.79 1061.05 2273.7
1609.11 1076.73 2307.3
1618.20 1078.80 2311.7
1605.82 1066.60 2285.6
1571.80 1040.16 2228.9
1562.40 1030.15 2207.5
1597.30 1049.32 2248.5
1621.49 1061.34 2274.3
1624.02 1059.14 2269.6
1614.51 1049.14 2248.2
1602.20 1037.39 2223.0
1611.71 1039.82 2228.2
1629.49 1047.53 2244.7
1630.24 1044.28 2237.7
1609.97 1027.64 2202.1
1606.18 1021.60 2189.1
1616.77 1024.71 2195.8
1619.03 1022.55 2191.2
1622.95 1021.44 2188.8
1613.99 1012.26 2169.1
1597.68 998.55 2139.7
1593.61 992.56 2126.9
1599.63 992.88 2127.6
1619.76 1001.91 2147.0
1638.82 1010.23 2164.8
1624.49 997.98 2138.5
1610.06 985.75 2112.3
1637.68 999.26 2141.3
1646.00 1000.94 2144.9
1630.28 988.05 2117.2
1635.69 988.00 2117.1
1639.94 987.25 2115.5
1627.48 976.49 2092.5
1614.35 965.39 2068.7
1622.55 967.08 2072.3
1633.66 970.49 2079.6
1637.81 969.76 2078.0
1640.79 968.33 2075.0
1651.93 971.72 2082.3
1674.78 981.96 2104.2
1698.88 992.85 2127.5
1713.66 998.25 2139.1
1692.56 982.78 2105.9
1669.57 966.31 2070.7
1680.16 969.32 2077.1
1699.06 977.10 2093.8
1700.80 974.98 2089.2
1678.12 958.93 2054.8
1667.85 950.04 2035.8
1701.71 966.27 2070.6
1724.91 976.36 2092.2
1724.79 973.23 2085.5
1506.75 1225.95 2641.7
1496.70 1206.80 2600.4
1437.43 1153.81 2486.3
1458.33 1165.36 2511.1
1488.52 1168.62 2518.2
1498.32 1171.18 2523.7
1490.96 1150.35 2478.8
1504.07 1155.49 2489.9
1528.80 1169.46 2520.0
1538.16 1171.62 2524.6
1542.19 1169.71 2520.5
1512.13 1142.07 2461.0
1488.66 1119.62 2412.6
1496.85 1121.07 2415.7
1528.14 1139.74 2455.9
1557.12 1156.54 2492.1
1563.00 1156.10 2491.2
1559.43 1148.72 2475.3
1523.95 1117.98 2409.1
1481.21 1082.19 2331.9
1492.76 1086.19 2340.6
1524.92 1105.11 2381.3
1521.97 1098.52 2367.1
1501.28 1079.23 2325.6
1499.18 1073.41 2313.0
1505.66 1073.76 2313.8
1498.37 1064.32 2293.4
1492.03 1055.63 2274.7
1500.48 1057.43 2278.6
1502.26 1054.53 2272.3
1496.27 1046.22 2254.4
1486.07 1035.04 2230.3
1483.55 1029.29 2217.9
1492.95 1031.81 2223.4
1525.44 1038.23 2237.2
1553.37 1053.23 2269.5
1561.84 1054.98 2273.3
1569.26 1056.01 2275.5
1602.74 1074.50 2315.4
1614.50 1078.34 2323.6
1619.88 1077.91 2322.7
1610.24 1067.53 2300.3
1579.01 1042.96 2247.4
1588.53 1045.39 2252.6
1623.47 1064.47 2293.8
1642.84 1073.24 2312.6
1648.69 1073.15 2312.5
1656.18 1074.12 2314.5
1650.57 1066.62 2298.4
1641.62 1057.01 2277.7
1652.88 1060.45 2285.1
1642.71 1050.16 2262.9
1615.93 1029.36 2218.1
1611.08 1022.64 2203.6
1621.13 1025.38 2209.5
1644.54 1036.52 2233.5
1659.67 1042.39 2246.2
1651.40 1033.57 2227.2
1630.76 1017.09 2191.7
1614.47 1003.44 2162.2
1608.19 996.07 2146.4
1602.41 989.07 2131.3
1611.26 991.12 2135.7
1626.34 996.97 2148.3
1606.86 981.66 2115.3
1617.96 985.09 2122.7
1670.13 1013.40 2183.7
1673.95 1012.29 2181.3
1653.13 996.33 2146.9
1648.25 990.06 2133.4
1643.33 983.80 2119.9
1646.42 982.37 2116.8
1649.51 980.93 2113.7
1629.41 965.78 2081.1
1612.68 952.70 2052.9
1638.30 964.66 2078.7
1663.43 976.24 2103.6
1645.41 962.51 2074.0
1640.75 956.66 2061.4
1668.31 969.57 2089.3
1687.73 977.68 2106.7
1670.68 964.68 2078.7
1651.76 950.69 2048.6
1654.03 948.95 2044.8
1666.36 952.97 2053.5
1685.26 960.70 2070.2
1679.20 954.21 2056.2
1674.29 948.41 2043.7
1712.36 966.92 2083.5
1733.19 975.60 2102.3
1730.08 970.80 2091.9
1476.08 1205.24 2611.7
1476.39 1199.99 2600.3
1499.65 1213.35 2629.3
1458.53 1164.21 2522.8
1484.64 1179.76 2556.5
1508.07 1193.05 2585.3
1485.12 1169.70 2534.7
1492.12 1170.03 2535.4
1503.85 1174.05 2544.1
1479.06 1149.67 2491.3
1484.54 1148.90 2489.6
1518.18 1169.86 2535.0
1502.33 1147.70 2487.0
1499.56 1140.69 2471.8
1492.85 1130.76 2450.3
1482.65 1118.27 2423.2
1481.60 1112.76 2411.3
1486.36 1111.65 2408.9
1496.01 1114.18 2414.4
1526.34 1132.03 2453.0
1545.46 1141.46 2473.5
1542.88 1134.84 2459.1
1522.86 1115.51 2417.2
1470.30 1072.59 2324.2
1454.34 1056.62 2289.6
1490.35 1078.39 2336.8
1532.58 1104.45 2393.3
1540.74 1105.86 2396.3
1502.89 1074.36 2328.1
1482.52 1055.56 2287.3
1503.20 1066.01 2310.0
1508.65 1065.64 2309.2
1490.56 1048.69 2272.5
1485.67 1041.14 2256.1
1485.85 1037.18 2247.5
1477.22 1027.13 2225.7
1517.61 1031.05 2234.2
1532.85 1037.44 2248.1
1547.61 1043.47 2261.1
1586.77 1065.83 2309.6
1622.92 1086.01 2353.3
1617.18 1078.12 2336.2
1586.83 1053.94 2283.8
1610.32 1065.57 2309.0
1617.81 1066.55 2311.2
1595.18 1047.75 2270.4
1613.91 1056.16 2288.6
1627.85 1061.38 2299.9
1625.01 1055.66 2287.6
1654.73 1071.06 2320.9
1686.75 1087.83 2357.3
1687.22 1084.21 2349.4
1683.82 1078.13 2336.2
1670.49 1065.76 2309.4
1635.59 1039.77 2253.1
1597.18 1011.73 2192.4
1582.87 999.12 2165.0
1595.63 1003.61 2174.8
1622.32 1016.81 2203.4
1650.77 1031.01 2234.1
1655.32 1030.23 2232.4
1637.46 1015.57 2200.7
1624.54 1004.06 2175.7
1621.09 998.45 2163.6
1617.58 992.86 2151.5
1618.56 990.05 2145.4
1625.17 990.68 2146.7
1625.54 987.53 2139.9
1657.17 1003.32 2174.1
1675.81 1011.17 2191.1
1645.91 989.77 2144.8
1627.30 975.28 2113.4
1625.23 970.77 2103.6
1628.88 969.70 2101.3
1640.59 973.42 2109.3
1647.12 974.05 2110.7
1629.32 960.33 2081.0
1619.54 951.41 2061.7
1653.34 968.07 2097.8
1687.26 984.70 2133.8
1678.63 976.46 2115.9
1647.09 954.99 2069.4
1648.85 952.91 2064.9
1693.53 975.56 2114.0
1702.41 977.51 2118.2
1654.01 946.67 2051.4
1644.30 935.10 2026.3
1667.91 945.50 2048.8
1692.18 956.22 2072.1
1717.73 967.58 2096.7
1739.76 976.90 2116.9
1742.68 975.46 2113.8
1729.97 965.31 2091.8
1478.15 1200.15 2615.3
1475.71 1192.70 2599.1
1469.52 1182.29 2576.4
1473.39 1180.04 2571.5
1496.70 1193.32 2600.4
1496.41 1187.73 2588.3
1487.19 1175.14 2560.8
1475.51 1160.73 2529.4
1464.17 1146.72 2498.9
1481.47 1155.16 2517.3
1487.96 1155.13 2517.2
1458.82 1127.56 2457.2
1450.88 1116.55 2433.2
1470.10 1126.44 2454.7
1486.99 1134.47 2472.2
1491.44 1132.98 2469.0
1480.90 1120.17 2441.0
1468.30 1105.91 2410.0
1468.22 1101.16 2399.6
1478.33 1104.07 2406.0
1494.32 1111.32 2421.8
1513.81 1121.11 2443.1
1529.44 1127.97 2458.0
1534.27 1126.83 2455.6
1515.30 1108.29 2415.2
1479.27 1077.49 2348.0
1467.40 1064.46 2319.7
1491.41 1077.47 2348.0
1500.48 1079.61 2352.7
1515.60 1086.08 2366.8
1556.00 1110.53 2420.0
1550.04 1101.84 2401.1
1518.63 1075.19 2343.0
1527.71 1077.31 2347.7
1527.62 1072.97 2338.2
1504.45 1052.52 2293.6
1490.34 1038.54 2263.2
1480.23 1027.45 2239.0
1497.92 1035.67 2256.9
1509.97 1039.94 2266.2
1494.00 1024.96 2233.6
1488.85 1017.48 2217.3
1497.73 1019.61 2221.9
1530.73 1038.08 2262.2
1559.66 1053.67 2296.1
1556.59 1047.59 2282.9
1545.02 1035.86 2257.3
1558.23 1040.78 2268.0
1603.88 1067.24 2325.7
1605.01 1063.99 2318.6
1585.82 1047.35 2282.4
1621.63 1067.02 2325.2
1642.02 1076.44 2345.7
1631.28 1065.45 2321.8
1636.08 1064.66 2320.1
1634.93 1060.01 2309.9
1648.38 1064.83 2320.5
1696.67 1092.04 2379.7
1693.92 1086.32 2367.3
1657.23 1058.95 2307.6
1654.30 1053.28 2295.3
1643.07 1042.38 2271.5
1617.99 1022.80 2228.9
1587.78 1000.13 2179.5
1588.93 997.31 2173.3
1619.47 1012.88 2207.3
1612.30 1004.85 2189.7
1607.85 998.56 2176.0
1620.12 1002.66 2185.0
1608.32 991.89 2161.5
1625.07 998.74 2176.4
1649.76 1010.40 2201.9
1634.47 997.59 2173.9
1624.73 988.24 2153.5
1630.79 988.53 2154.2
1630.60 985.04 2146.6
1646.89 991.49 2160.6
1650.67 990.40 2158.3
1621.82 969.81 2113.4
1604.29 956.09 2083.5
1607.34 954.69 2080.4
1616.13 956.70 2084.8
1631.28 962.45 2097.4
1641.26 965.13 2103.2
1639.08 960.65 2093.4
1643.84 960.26 2092.6
1670.14 972.42 2119.1
1697.11 984.88 2146.2
1700.77 983.78 2143.8
1679.81 968.49 2110.5
1655.20 951.20 2072.8
1672.84 958.23 2088.1
1699.38 970.29 2114.4
1669.25 950.02 2070.3
1664.21 938.11 2044.3
1694.45 952.12 2074.8
1694.93 949.37 2068.9
1691.19 944.29 2057.8
1697.01 944.56 2058.4
1687.80 936.49 2040.8
1470.65 1176.52 2578.4
1457.88 1161.03 2544.5
1463.99 1160.64 2543.6
1464.97 1156.21 2533.9
1457.03 1144.81 2508.9
1452.73 1136.36 2490.4
1447.41 1127.19 2470.3
1459.00 1131.21 2479.1
1459.25 1126.44 2468.7
1435.69 1103.42 2418.2
1431.00 1095.03 2399.8
1445.37 1101.24 2413.4
1457.39 1105.61 2423.0
1476.67 1115.42 2444.5
1481.04 1113.95 2441.3
1470.37 1101.22 2413.4
1474.18 1099.39 2409.4
1478.45 1097.92 2406.2
1489.07 1101.16 2413.3
1513.96 1114.88 2443.3
1534.52 1125.32 2466.2
1526.51 1114.79 2443.1
1494.11 1086.63 2381.4
1488.32 1077.96 2362.4
1508.38 1088.01 2384.4
1506.01 1081.87 2371.0
1491.04 1066.76 2337.9
1485.50 1058.50 2319.8
1503.62 1067.08 2338.6
1525.35 1078.16 2362.8
1522.28 1071.68 2348.7
1519.15 1065.22 2334.5
1506.25 1051.98 2305.5
1494.77 1039.84 2278.9
1490.90 1033.06 2264.0
1483.87 1024.16 2244.5
1505.20 1034.82 2267.9
1532.31 1049.36 2299.7
1531.46 1044.72 2289.6
1519.63 1032.64 2263.1
1521.28 1029.79 2256.8
1534.44 1034.72 2267.6
1541.85 1035.74 2269.9
1570.88 1051.23 2303.8
1592.10 1061.40 2326.1
1577.88 1047.95 2296.7
1595.45 1055.63 2313.5
1613.06 1063.29 2330.3
1610.44 1057.60 2317.8
1632.94 1068.39 2341.4
1641.02 1069.70 2344.3
1621.10 1052.82 2307.3
1616.16 1045.75 2291.8
1641.48 1058.24 2319.2
1684.26 1081.86 2371.0
1700.02 1088.01 2384.4
1662.35 1060.05 2323.2
1620.08 1029.37 2255.9
1612.66 1020.97 2237.5
1614.51 1018.47 2232.0
1600.36 1005.94 2204.6
1601.57 1003.12 2198.4
1634.88 1020.35 2236.2
1662.76 1034.08 2266.3
1650.12 1022.61 2241.1
1629.58 1006.34 2205.4
1627.92 1001.80 2195.5
1612.77 989.01 2167.5
1623.36 992.05 2174.1
1640.16 998.85 2189.0
1617.49 981.65 2151.3
1617.33 978.18 2143.7
1633.58 984.62 2157.9
1615.19 970.22 2126.3
1616.07 967.44 2120.2
1630.63 972.85 2132.1
1611.45 958.16 2099.9
1607.07 952.34 2087.1
1623.92 959.09 2101.9
1636.20 963.12 2110.7
1656.60 971.87 2129.9
1662.01 971.81 2129.8
1655.82 964.98 2114.8
1644.33 955.12 2093.2
1654.32 957.77 2099.0
1680.69 969.84 2125.5
1683.73 968.42 2122.3
1682.06 964.31 2113.3
1676.25 957.85 2099.2
1655.06 942.69 2066.0
1642.62 932.58 2043.8
1664.40 941.91 2064.3
1674.99 944.87 2070.7
1676.09 942.47 2065.5
1704.55 955.41 2093.8
1717.59 959.67 2103.2
1699.58 946.60 2074.5
1683.27 934.56 2048.1
1678.27 928.86 2035.6
1458.84 1192.98 2629.4
1469.24 1195.89 2635.8
1479.66 1198.80 2642.3
1458.65 1176.33 2592.7
1471.28 1181.08 2603.2
1487.18 1188.38 2619.3
1475.93 1174.04 2587.7
1471.03 1164.84 2567.4
1475.79 1163.35 2564.1
1475.41 1157.83 2552.0
1465.62 1145.02 2523.7
1459.94 1135.51 2502.7
1468.29 1136.95 2505.9
1492.23 1150.40 2535.6
1483.58 1138.72 2509.8
1450.57 1108.52 2443.3
1444.97 1099.43 2423.2
1458.91 1105.24 2436.0
1438.79 1085.29 2392.1
1426.68 1071.54 2361.8
1464.74 1095.43 2414.4
1487.97 1108.06 2442.3
1481.61 1098.65 2421.5
1476.63 1090.34 2403.2
1483.32 1090.68 2403.9
1503.29 1100.73 2426.1
1516.43 1105.73 2437.1
1499.94 1089.17 2400.6
1474.87 1066.54 2350.7
1475.98 1062.95 2342.8
1472.05 1055.78 2327.0
1448.54 1034.67 2280.5
1449.95 1031.47 2273.4
1459.89 1034.33 2279.8
1471.37 1038.26 2288.4
1486.42 1044.67 2302.5
1497.46 1048.22 2310.4
1509.03 1052.11 2318.9
1499.16 1041.08 2294.6
1490.21 1030.78 2271.9
1514.60 1043.52 2300.0
1538.06 1055.53 2326.5
1519.21 1038.52 2289.0
1507.47 1026.48 2262.5
1534.12 1040.58 2293.5
1552.01 1048.66 2311.3
1528.64 1028.89 2267.8
1515.06 1015.85 2239.0
1537.68 1027.07 2263.8
1582.53 1053.02 2320.9
1620.72 1074.34 2367.9
1621.96 1071.10 2360.8
1636.45 1076.61 2372.9
1649.92 1081.41 2383.5
1634.55 1067.34 2352.5
1646.41 1071.08 2360.8
1674.41 1085.27 2392.0
1673.43 1080.63 2381.8
1651.86 1062.78 2342.5
1661.57 1065.11 2347.6
1676.19 1070.56 2359.6
1663.07 1058.32 2332.6
1669.50 1058.56 2333.2
1671.55 1056.03 2327.6
1644.49 1035.20 2281.7
1627.17 1020.62 2249.5
1634.54 1021.58 2251.7
1656.83 1031.84 2274.3
1668.68 1035.53 2282.4
1673.89 1035.09 2281.4
1679.64 1034.99 2281.2
1677.57 1030.09 2270.4
1669.86 1021.77 2252.1
1649.75 1005.94 2217.2
1634.56 993.22 2189.1
1624.91 983.94 2168.7
1623.09 979.45 2158.8
1645.58 989.61 2181.2
1665.88 998.39 2200.5
1652.67 987.09 2175.6
1629.68 970.05 2138.1
1621.98 962.19 2120.8
1622.82 959.43 2114.7
1637.40 964.80 2126.5
1640.52 963.39 2123.4
1639.00 959.28 2114.3
1659.42 967.99 2133.5
1666.57 968.94 2135.6
1671.40 968.53 2134.7
1670.41 964.76 2126.4
1662.39 956.97 2109.2
1671.25 958.92 2113.5
1660.21 949.47 2092.7
1646.17 938.37 2068.2
1666.14 946.67 2086.5
1668.50 944.94 2082.7
1670.83 943.21 2078.9
1705.11 959.47 2114.7
1699.77 953.40 2101.4
1684.28 941.69 2075.6
1708.60 952.25 2098.8
1718.07 954.49 2103.8
1716.20 950.43 2094.8
1717.28 948.03 2089.5
1706.94 939.35 2070.4
1694.12 929.38 2048.4
1439.22 1221.58 2707.9
1434.68 1183.10 2622.6
1437.43 1179.78 2615.3
1440.59 1176.82 2608.7
1439.21 1170.20 2594.0
1436.86 1162.85 2577.8
1433.52 1154.78 2559.9
1424.63 1142.33 2532.3
1447.23 1155.13 2560.6
1479.13 1175.20 2605.1
1481.68 1171.87 2597.7
1458.73 1148.50 2545.9
1446.26 1133.55 2512.8
1452.29 1133.18 2512.0
1449.43 1125.89 2495.8
1451.66 1122.61 2488.6
1469.40 1131.31 2507.8
1482.49 1136.35 2519.0
1463.83 1117.14 2476.4
1451.19 1102.65 2444.3
1467.55 1110.23 2461.1
1457.13 1097.58 2433.1
1413.43 1060.07 2349.9
1440.67 1071.27 2374.7
1460.43 1081.34 2397.1
1450.56 1069.48 2370.8
1443.03 1059.44 2348.5
1446.18 1057.29 2343.8
1469.97 1070.19 2372.3
1486.96 1078.05 2389.8
1478.78 1067.66 2366.7
1462.55 1051.59 2331.1
1439.71 1030.90 2285.2
1468.89 1030.59 2284.6
1503.22 1050.44 2328.6
1532.62 1066.70 2364.6
1527.97 1059.23 2348.1
1504.33 1038.70 2302.5
1516.42 1042.92 2311.9
1565.61 1072.50 2377.5
1559.81 1064.34 2359.4
1508.90 1025.58 2273.5
1507.50 1020.64 2262.5
1546.14 1042.74 2311.5
1544.76 1037.79 2300.5
1551.39 1030.32 2284.0
1583.65 1047.74 2322.6
1609.16 1060.58 2351.0
1617.78 1062.24 2354.7
1639.19 1072.25 2376.9
1675.62 1091.98 2420.6
1681.71 1091.85 2420.4
1663.64 1076.11 2385.5
1661.59 1070.80 2373.7
1684.29 1081.43 2397.3
1687.61 1079.57 2393.1
1685.49 1074.27 2381.4
1688.75 1072.42 2377.3
1690.91 1069.88 2371.7
1712.16 1079.41 2392.8
1724.72 1083.40 2401.6
1708.76 1069.51 2370.8
1672.86 1043.29 2312.7
1661.03 1032.21 2288.2
1656.30 1025.61 2273.5
1641.52 1012.85 2245.2
1651.66 1015.51 2251.1
1661.82 1018.16 2257.0
1656.35 1011.25 2241.7
1646.34 1001.62 2220.3
1641.87 995.42 2206.6
1641.84 991.95 2198.9
1645.73 990.85 2196.5
1655.82 993.50 2202.3
1654.60 989.35 2193.1
1653.35 985.21 2184.0
1670.27 991.90 2198.8
1676.97 992.49 2200.1
1655.07 976.21 2164.0
1642.22 965.36 2140.0
1644.79 963.61 2136.1
1634.67 954.47 2115.8
1627.95 947.37 2100.1
1642.56 952.69 2111.9
1638.66 947.27 2099.9
1632.40 940.52 2084.9
1640.05 941.81 2087.8
1641.29 939.42 2082.5
1668.23 951.71 2109.7
1676.51 953.31 2113.3
1658.96 940.26 2084.3
1673.68 945.52 2096.0
1698.46 956.41 2120.1
1721.54 966.28 2142.0
1719.84 959.14 2126.2
1685.94 937.23 2077.6
1691.20 937.16 2077.5
1704.82 941.71 2087.5
1706.50 939.66 2083.0
1700.97 933.65 2069.7
1685.78 922.41 2044.7
1702.40 928.58 2058.4
1405.24 1227.81 2737.5
1447.56 1233.63 2750.5
1440.74 1221.81 2724.1
1441.23 1216.25 2711.7
1410.32 1161.83 2590.4
1394.26 1143.16 2548.7
1406.71 1147.93 2559.4
1419.66 1153.06 2570.8
1425.87 1152.69 2570.0
1431.62 1151.95 2568.4
1454.19 1164.70 2596.8
1469.57 1171.59 2612.1
1452.00 1152.28 2569.1
1443.46 1140.27 2542.3
1455.11 1144.25 2551.2
1441.78 1128.63 2516.4
1431.08 1115.21 2486.4
1437.53 1115.21 2486.4
1443.03 1114.49 2484.8
1454.63 1118.45 2493.7
1438.92 1101.47 2455.8
1419.74 1082.00 2412.4
1428.38 1083.82 2416.4
1442.28 1089.58 2429.3
1446.66 1088.14 2426.1
1425.13 1067.31 2379.6
1408.23 1050.10 2341.3
1422.06 1055.86 2354.1
1427.21 1055.16 2352.6
1414.38 1041.23 2321.5
1433.51 1042.01 2323.2
1472.53 1065.89 2376.5
1464.35 1055.56 2353.4
1430.83 1027.11 2290.0
1450.21 1036.72 2311.4
1462.69 1041.34 2321.7
1461.61 1027.88 2291.7
1486.22 1040.96 2320.9
1493.23 1041.65 2322.4
1514.45 1052.21 2346.0
1531.69 1059.93 2363.2
1514.26 1043.70 2327.0
1522.81 1045.42 2330.8
1569.38 1073.13 2392.6
1567.63 1063.53 2371.2
1534.32 1036.87 2311.8
1550.65 1043.82 2327.3
1577.45 1057.75 2358.3
1562.56 1043.72 2327.0
1548.08 1030.07 2296.6
1586.55 1051.62 2344.6
1592.52 1051.55 2344.5
1585.28 1042.79 2325.0
1607.10 1053.14 2348.0
1612.00 1052.37 2346.3
1622.76 1055.40 2353.1
1645.28 1066.04 2376.8
1665.74 1075.27 2397.4
1662.11 1068.94 2383.3
1640.66 1051.24 2343.8
1644.97 1050.11 2341.3
1672.53 1063.78 2371.8
1695.32 1074.32 2395.3
1717.65 1084.50 2418.0
1708.95 1071.19 2388.3
1673.28 1045.04 2330.0
1698.92 1057.24 2357.2
1702.63 1055.75 2353.9
1674.85 1034.82 2307.2
1656.86 1020.06 2274.3
1636.52 1003.97 2238.4
1639.97 1002.53 2235.2
1655.12 1008.23 2247.9
1655.22 1004.75 2240.1
1669.85 1010.09 2252.0
1690.70 1019.13 2272.2
1667.70 1001.78 2233.5
1649.08 987.16 2200.9
1646.74 982.36 2190.2
1634.15 971.50 2166.0
1624.31 962.35 2145.6
1635.48 965.66 2153.0
1655.23 973.99 2171.6
1644.71 964.52 2150.5
1643.86 960.77 2142.1
1658.51 966.07 2153.9
1669.15 969.00 2160.5
1684.44 974.61 2172.9
1687.03 972.85 2169.0
1671.62 960.77 2142.1
1663.09 952.70 2124.1
1667.90 952.30 2123.2
1657.52 943.26 2103.1
1674.56 949.83 2117.7
1696.93 959.38 2139.0
1691.75 953.33 2125.5
1703.01 956.56 2132.7
1722.54 964.40 2150.2
1736.22 968.93 2160.3
1729.83 959.17 2138.5
1700.68 939.99 2095.8
1705.97 939.92 2095.6
1720.22 944.76 2106.4
1717.14 940.08 2096.0
1705.62 930.83 2075.3
1689.22 918.98 2048.9
1704.06 924.14 2060.4
1436.57 1217.19 2729.6
1435.78 1210.56 2714.7
1407.86 1181.23 2648.9
1405.52 1173.54 2631.7
1430.55 1171.69 2627.6
1396.68 1138.52 2553.2
1417.60 1144.73 2567.1
1436.91 1154.90 2589.9
1431.81 1145.45 2568.7
1442.10 1148.34 2575.2
1465.21 1161.36 2604.4
1454.03 1147.22 2572.7
1423.38 1117.91 2506.9
1415.56 1106.71 2481.8
1438.70 1119.71 2511.0
1463.34 1133.76 2542.5
1457.29 1124.01 2520.6
1449.74 1113.20 2496.4
1451.97 1109.95 2489.1
1428.20 1086.95 2437.5
1412.28 1070.10 2399.7
1423.27 1073.70 2407.8
1430.96 1074.78 2410.2
1428.61 1068.35 2395.8
1426.19 1061.93 2381.4
1428.05 1058.73 2374.2
1425.53 1052.32 2359.9
1415.18 1040.22 2332.7
1411.05 1032.77 2316.0
1418.56 1033.86 2318.5
1421.17 1031.40 2312.9
1441.44 1041.71 2336.1
1481.00 1065.82 2390.1
1471.85 1054.82 2365.5
1429.89 1020.50 2288.5
1441.81 1024.76 2298.1
1486.69 1052.31 2359.8
1490.78 1050.88 2356.6
1467.25 1030.07 2310.0
1475.25 1031.47 2313.1
1494.86 1040.96 2334.4
1497.34 1038.48 2328.8
1497.25 1034.25 2319.3
1491.52 1026.17 2301.2
1503.60 1030.35 2310.6
1542.86 1053.06 2361.5
1560.21 1060.70 2378.6
1554.44 1052.61 2360.5
1589.94 1072.43 2404.9
1602.69 1072.61 2405.4
1589.51 1059.67 2376.3
1608.10 1067.93 2394.9
1626.76 1076.16 2413.3
1635.50 1077.80 2417.0
1611.03 1057.62 2371.7
1595.90 1043.71 2340.5
1609.81 1048.81 2352.0
1629.07 1057.36 2371.2
1655.32 1070.36 2400.3
1669.39 1075.41 2411.6
1681.35 1079.08 2419.9
1725.28 1099.07 2464.7
1726.03 1095.49 2456.7
1739.36 1095.86 2457.5
1723.71 1082.04 2426.5
1741.77 1089.40 2443.0
1710.66 1066.06 2390.7
1693.05 1051.28 2357.5
1725.28 1063.61 2385.2
1683.16 1033.94 2318.6
1692.31 1035.86 2322.9
1694.81 1033.72 2318.1
1673.36 1017.02 2280.7
1665.15 1008.47 2261.5
1671.98 1009.06 2262.8
1692.83 1018.06 2283.0
1710.93 1025.37 2299.4
1684.01 1005.73 2255.4
1662.02 989.16 2218.2
1656.31 982.36 2203.0
1637.49 967.86 2170.5
1621.39 955.07 2141.8
1627.99 955.68 2143.1
1643.16 961.31 2155.8
1640.62 956.57 2145.1
1648.95 958.17 2148.7
1660.15 961.44 2156.0
1668.50 963.03 2159.6
1678.59 965.61 2165.4
1675.95 960.88 2154.8
1686.04 963.45 2160.6
1703.13 969.99 2175.2
1695.78 962.62 2158.7
1671.42 945.67 2120.7
1668.01 940.65 2109.4
1671.02 939.26 2106.3
1671.65 936.56 2100.3
1689.94 943.73 2116.3
1698.83 945.63 2120.6
1699.44 942.92 2114.5
1710.12 945.79 2121.0
1697.04 935.55 2098.0
1683.28 925.00 2074.3
1704.65 933.76 2094.0
1699.17 927.80 2080.6
1676.27 912.40 2046.1
1723.49 935.14 2097.1
1741.27 938.87 2105.4
1397.59 1165.80 2629.6
1425.33 1177.45 2655.9
1453.26 1189.03 2682.0
1445.03 1176.66 2654.1
1435.33 1163.23 2623.8
1413.37 1140.03 2571.5
1424.55 1143.65 2579.7
1445.70 1155.21 2605.7
1441.99 1146.88 2587.0
1429.07 1131.35 2551.9
1427.91 1125.22 2538.1
1435.86 1126.29 2540.5
1422.16 1110.45 2504.8
1405.54 1092.49 2464.3
1420.30 1098.96 2478.9
1449.55 1116.54 2518.5
1447.64 1110.08 2503.9
1425.51 1088.23 2454.6
1413.06 1073.92 2422.4
1422.66 1076.44 2428.1
1441.29 1085.73 2449.0
1421.48 1066.11 2404.8
1398.63 1044.39 2355.8
1429.19 1062.57 2396.8
1461.35 1081.78 2440.1
1449.82 1068.62 2410.4
1435.76 1053.71 2376.8
1445.81 1056.56 2383.2
1463.67 1065.05 2402.4
1442.54 1045.23 2357.7
1448.88 1041.00 2348.1
1500.80 1073.80 2422.1
1496.65 1066.36 2405.3
1458.70 1035.01 2334.6
1455.79 1028.68 2320.3
1488.76 1047.65 2363.1
1511.88 1059.55 2390.0
1505.97 1051.11 2370.9
1503.00 1044.77 2356.6
1512.10 1046.84 2361.3
1492.84 1029.34 2321.8
1468.84 1008.72 2275.3
1479.84 1012.21 2283.2
1511.31 1029.62 2322.4
1526.52 1035.85 2336.5
1518.12 1026.08 2314.5
1516.85 1021.19 2303.4
1557.96 1044.75 2356.6
1602.88 1070.68 2415.1
1586.64 1055.71 2381.3
1567.14 1038.69 2342.9
1580.97 1043.81 2354.5
1602.71 1054.09 2377.7
1612.96 1056.77 2383.7
1614.26 1053.58 2376.5
1625.57 1056.93 2384.1
1638.51 1061.30 2393.9
1657.85 1069.78 2413.0
1658.60 1066.24 2405.1
1647.54 1055.17 2380.1
1680.90 1072.51 2419.2
1751.69 1089.23 2456.9
1734.80 1074.82 2424.4
1730.84 1060.84 2392.9
1697.55 1036.72 2338.5
1716.72 1044.70 2356.5
1719.84 1042.88 2352.4
1697.86 1025.92 2314.1
1685.80 1015.04 2289.6
1688.76 1013.26 2285.5
1678.79 1003.75 2264.1
1666.50 992.93 2239.7
1667.08 989.83 2232.7
1670.46 988.40 2229.5
1679.48 990.32 2233.8
1676.03 984.88 2221.5
1642.93 962.13 2170.2
1633.61 953.41 2150.5
1672.24 972.63 2193.9
1694.40 982.18 2215.4
1679.88 970.47 2189.0
1668.71 960.77 2167.2
1655.15 949.77 2142.3
1643.24 939.78 2119.8
1630.66 929.48 2096.6
1629.04 925.47 2087.5
1650.08 934.32 2107.5
1646.69 929.32 2096.2
1642.09 923.67 2083.5
1659.11 930.19 2098.2
1665.61 930.78 2099.5
1670.35 930.39 2098.6
1668.59 926.40 2089.6
1656.76 916.85 2068.1
1667.94 920.06 2075.3
1688.64 928.48 2094.3
1693.93 928.41 2094.1
1696.84 927.03 2091.0
1690.78 920.77 2076.9
1720.94 928.33 2094.0
1406.12 1213.40 2753.1
1429.62 1215.18 2757.1
1411.77 1194.04 2709.2
1441.26 1212.94 2752.0
1431.05 1192.54 2705.8
1411.36 1170.39 2655.5
1432.29 1181.98 2681.8
1434.81 1178.34 2673.6
1431.53 1170.00 2654.6
