ply
format ascii 1.0
element vertex 2277
property float x
property float y
property float z
end_header
90.12 45.06 2483.0
98.53 45.98 2533.7
105.55 46.18 2544.4
112.97 46.52 2563.1
116.38 45.26 2493.9
133.84 46.84 2581.1
143.48 45.65 2515.5
245.94 46.53 2563.8
250.07 46.07 2538.3
253.57 45.51 2507.8
260.93 45.66 2516.1
278.48 47.54 2619.8
280.54 46.76 2576.3
273.84 44.58 2456.4
286.70 45.61 2513.3
320.12 47.68 2627.1
313.00 45.65 2515.2
315.01 45.00 2479.7
337.14 47.20 2600.8
351.73 47.35 2609.0
353.60 46.70 2573.4
366.11 47.46 2615.1
365.98 46.58 2566.6
360.86 45.11 2485.5
383.10 47.05 2592.4
-134.94 42.61 2739.3
-126.22 42.07 2704.7
-119.31 42.11 2707.0
-111.72 41.90 2693.4
-104.05 41.62 2675.7
-96.22 41.24 2650.9
-80.00 40.00 2571.4
-72.94 39.79 2557.7
-66.34 39.80 2558.8
-59.80 39.87 2563.0
-52.77 39.58 2544.1
-45.52 39.02 2508.3
-38.88 38.88 2499.4
-32.63 39.16 2517.5
-26.28 39.43 2534.6
-19.50 39.01 2507.6
-13.10 39.30 2526.7
-6.63 39.77 2556.7
0.00 39.34 2528.7
6.47 38.79 2493.7
12.76 38.29 2461.7
19.06 38.12 2450.6
26.17 39.26 2523.6
46.95 40.25 2587.3
53.99 40.49 2603.1
73.17 39.91 2565.6
91.40 39.17 2518.0
101.72 40.69 2615.7
113.90 40.20 2584.2
145.93 39.80 2558.5
245.12 40.85 2626.3
247.67 40.16 2581.8
256.94 40.57 2608.1
262.53 40.39 2596.4
273.52 41.03 2637.5
275.35 39.34 2528.7
302.53 40.34 2593.1
309.86 39.56 2542.9
350.08 41.19 2647.6
337.85 38.98 2506.0
344.64 39.02 2508.1
360.58 40.06 2575.6
366.00 39.93 2566.7
366.34 39.25 2523.2
-128.65 35.74 2756.8
-121.25 35.66 2751.1
-111.73 34.92 2693.5
-102.58 34.19 2637.8
-96.48 34.46 2658.0
-89.83 34.55 2665.3
-79.51 33.13 2555.5
-70.75 32.16 2480.8
-64.81 32.41 2500.0
-58.83 32.68 2521.1
-51.65 32.28 2490.3
-38.38 31.99 2467.5
-32.79 32.79 2529.6
-26.50 33.13 2555.6
-19.74 32.90 2537.7
-13.12 32.79 2529.8
-6.56 32.81 2530.8
0.00 33.12 2554.8
6.69 33.45 2580.8
12.94 32.34 2494.8
25.46 31.82 2454.7
32.23 32.23 2486.6
38.91 32.43 2501.5
45.56 32.54 2510.4
51.50 32.19 2483.3
58.01 32.23 2486.1
64.89 32.45 2502.9
70.69 32.13 2478.8
78.48 32.70 2522.6
164.81 35.83 2763.9
204.89 35.33 2725.1
202.76 33.79 2606.9
208.83 33.68 2598.4
224.21 35.03 2702.5
229.42 33.74 2602.7
239.55 34.22 2639.9
273.43 33.34 2572.3
276.88 32.96 2542.8
275.86 32.08 2474.5
312.72 33.99 2622.2
308.29 32.80 2530.1
329.40 33.61 2592.9
340.26 33.36 2573.4
337.06 32.41 2500.2
356.76 33.66 2596.4
369.19 34.18 2637.1
371.23 33.75 2603.4
-137.95 29.04 2800.5
-114.26 28.57 2754.5
-104.25 27.80 2680.8
-97.39 27.82 2683.1
-81.59 27.20 2622.6
-72.23 26.27 2532.8
-65.77 26.31 2537.0
-59.32 26.36 2542.2
-51.73 25.87 2494.3
-31.99 25.59 2467.7
-25.90 25.90 2497.7
-19.36 25.81 2488.8
-12.90 25.80 2487.8
-6.49 25.98 2504.9
0.00 26.44 2549.9
6.72 26.90 2593.9
13.03 26.07 2513.8
19.14 25.52 2460.8
26.09 26.09 2515.7
33.13 26.50 2555.6
40.13 26.75 2579.5
46.52 26.58 2563.4
52.23 26.12 2518.3
58.69 26.08 2515.2
65.41 26.16 2523.0
71.15 25.87 2494.9
78.70 26.23 2529.6
87.14 26.81 2585.4
93.11 26.60 2565.2
100.45 26.79 2582.9
150.91 28.74 2771.7
163.38 28.41 2740.0
172.01 28.67 2764.5
180.64 28.90 2787.0
194.95 28.88 2785.0
199.24 28.46 2744.6
207.29 28.59 2757.1
210.75 28.10 2709.7
222.65 26.99 2602.4
235.22 27.67 2668.5
240.91 27.53 2655.0
246.44 27.38 2640.4
254.75 27.54 2655.7
262.35 27.62 2663.0
273.13 27.31 2633.7
270.16 26.36 2541.5
273.53 26.05 2512.0
280.19 26.06 2513.3
285.83 25.98 2505.6
298.76 25.98 2505.1
315.08 26.82 2585.7
343.68 26.96 2599.2
347.22 26.71 2575.6
361.95 27.32 2634.1
368.92 27.33 2635.2
-137.90 21.77 2799.5
-128.70 21.45 2757.9
-119.89 21.16 2720.3
-111.40 20.89 2685.6
-101.89 20.38 2619.9
-93.87 20.12 2586.2
-87.00 20.08 2581.5
-79.95 19.99 2569.7
-72.89 19.88 2555.9
-66.06 19.82 2548.1
-59.32 19.77 2542.2
-53.44 20.04 2576.4
-46.74 20.03 2575.5
-38.77 19.39 2492.6
-32.11 19.26 2476.7
-25.88 19.41 2495.8
-19.24 19.24 2473.9
-12.88 19.32 2483.9
-6.51 19.54 2511.9
0.00 19.44 2498.9
6.43 19.29 2479.9
12.77 19.15 2461.9
19.23 19.23 2471.9
26.54 19.90 2558.8
40.61 20.30 2610.6
46.09 19.75 2539.5
51.82 19.43 2498.4
58.18 19.39 2493.2
66.68 20.00 2572.1
74.57 20.34 2614.9
79.32 19.83 2549.7
84.44 19.49 2505.5
90.97 19.49 2506.3
98.89 19.78 2543.0
107.13 20.09 2582.7
170.53 21.32 2740.6
180.13 21.62 2779.1
195.10 21.68 2787.1
199.46 21.37 2747.7
207.45 21.46 2759.1
211.69 21.17 2721.7
208.37 20.16 2592.6
223.93 20.36 2617.4
236.90 20.90 2687.5
242.36 20.77 2670.9
243.75 20.31 2611.6
248.07 20.11 2586.1
253.04 19.98 2568.5
259.03 19.93 2561.9
267.56 20.07 2580.1
273.23 19.99 2570.4
278.75 19.45 2500.4
294.45 20.08 2581.2
307.31 20.49 2634.1
313.45 20.44 2628.3
339.88 19.99 2570.6
369.28 20.14 2589.7
-144.94 14.49 2795.2
-111.36 13.92 2684.7
-103.52 13.80 2662.0
-96.77 13.82 2666.2
-88.29 13.58 2619.5
-79.92 13.32 2568.7
-72.81 13.24 2552.9
-66.06 13.21 2548.1
-59.32 13.18 2542.3
-53.46 13.36 2577.4
-47.21 13.49 2601.5
-39.60 13.20 2545.7
-32.82 13.13 2531.8
-26.44 13.22 2549.8
-19.79 13.20 2544.9
-13.37 13.37 2577.9
-6.62 13.24 2554.0
0.00 12.88 2484.0
6.45 12.90 2487.0
12.94 12.94 2494.9
19.25 12.83 2474.9
26.18 13.09 2524.8
33.32 13.33 2570.7
39.02 13.01 2508.7
45.31 12.95 2496.6
52.19 13.05 2516.4
57.85 12.86 2479.3
65.49 13.10 2526.1
86.43 13.30 2564.5
90.64 12.95 2497.3
97.85 13.05 2516.1
104.82 13.10 2526.8
164.46 14.30 2758.1
180.06 14.41 2778.1
183.27 14.10 2718.8
195.31 14.47 2790.1
203.78 14.05 2710.3
224.10 13.58 2619.4
234.09 13.77 2655.7
234.69 13.41 2586.3
248.84 13.45 2594.1
269.80 13.84 2668.4
271.90 13.60 2621.9
281.16 13.72 2645.1
286.53 13.64 2631.4
304.30 13.52 2608.3
318.31 13.84 2669.1
329.23 13.72 2645.6
-137.32 7.23 2787.6
-105.74 7.05 2718.9
-97.54 6.97 2687.2
-87.98 6.77 2610.5
-80.10 6.68 2574.7
-73.46 6.68 2575.9
-66.87 6.69 2579.1
-60.18 6.69 2579.3
-53.50 6.69 2579.4
-46.60 6.66 2567.6
-39.43 6.57 2534.7
-32.99 6.60 2544.8
-26.67 6.67 2571.9
-20.06 6.69 2578.9
0.00 6.61 2550.0
6.55 6.55 2525.0
13.36 6.68 2576.0
20.25 6.75 2603.9
26.80 6.70 2583.9
33.12 6.62 2554.8
38.37 6.40 2466.7
52.96 6.62 2553.4
61.61 6.85 2640.3
67.57 6.76 2606.1
75.54 6.87 2648.9
84.31 6.49 2501.6
90.46 6.46 2492.4
99.71 6.65 2564.1
105.44 6.59 2541.8
119.06 7.00 2701.4
142.66 7.13 2751.3
155.74 7.08 2730.6
170.59 7.11 2741.7
214.02 7.13 2751.7
226.24 7.30 2814.9
233.65 7.30 2816.3
240.68 7.08 2730.4
251.51 6.80 2622.0
263.37 6.75 2604.7
267.88 6.70 2583.1
279.15 6.81 2626.2
290.76 6.92 2670.2
289.06 6.72 2592.9
295.47 6.72 2590.2
-104.73 -0.00 2693.0
-95.47 -0.00 2630.3
-87.58 -0.00 2598.5
-81.10 -0.00 2606.7
-75.09 -0.00 2632.9
-68.89 -0.00 2657.1
-61.77 -0.00 2647.3
-54.68 -0.00 2636.4
-47.63 -0.00 2624.6
-40.33 -0.00 2592.7
-32.94 -0.00 2540.8
-25.95 -0.00 2501.9
-19.77 -0.00 2541.9
0.00 -0.00 2510.0
6.57 -0.00 2533.0
34.01 -0.00 2623.8
39.06 -0.00 2510.7
51.22 -0.00 2469.5
61.05 -0.00 2616.3
74.77 -0.00 2621.9
79.36 -0.00 2550.8
83.64 -0.00 2481.6
92.53 -0.00 2549.3
102.63 -0.00 2639.0
109.46 -0.00 2638.7
118.14 -0.00 2680.4
128.01 -0.00 2743.0
159.46 -0.00 2674.3
210.98 -0.00 2806.1
239.48 -0.00 2639.2
241.62 -0.00 2588.7
253.52 -0.00 2642.9
260.40 -0.00 2643.2
279.79 -0.00 2632.2
-105.31 -7.02 2707.9
-96.23 -6.87 2651.2
-88.56 -6.81 2627.5
-82.03 -6.84 2636.7
-75.97 -6.91 2663.9
-54.56 -6.82 2630.4
-46.45 -6.64 2559.6
-39.82 -6.64 2559.7
-32.94 -6.59 2540.8
-25.97 -6.49 2503.9
-19.77 -6.59 2541.9
-13.39 -6.70 2583.0
-6.53 -6.53 2519.0
0.00 -6.41 2472.0
6.66 -6.66 2570.0
26.63 -6.66 2567.9
38.56 -6.43 2478.7
46.43 -6.63 2558.6
52.05 -6.51 2509.5
59.04 -6.56 2530.3
66.17 -6.62 2552.1
71.64 -6.51 2512.0
79.45 -6.62 2553.8
88.08 -6.78 2613.5
92.17 -6.58 2539.3
97.30 -6.49 2502.1
108.09 -6.76 2605.8
148.36 -7.06 2725.0
155.34 -7.06 2723.6
165.30 -7.19 2772.1
168.05 -7.00 2700.8
186.03 -7.15 2759.7
189.79 -7.03 2711.4
214.02 -7.13 2751.7
223.59 -7.21 2782.0
226.21 -7.07 2726.6
232.55 -7.05 2718.1
244.27 -6.98 2691.9
248.74 -6.72 2593.1
271.09 -7.13 2751.7
316.33 -7.19 2773.0
-104.18 -13.89 2678.9
-94.31 -13.47 2598.3
-86.53 -13.31 2567.5
-80.04 -13.34 2572.7
-74.09 -13.47 2597.9
-68.27 -13.65 2633.1
-61.89 -13.75 2652.2
-53.85 -13.46 2596.4
-45.40 -12.97 2501.6
-38.59 -12.86 2480.7
-32.35 -12.94 2495.8
-25.82 -12.91 2489.8
-19.46 -12.97 2501.9
-13.04 -13.04 2514.9
-6.54 -13.07 2521.0
0.00 -13.25 2556.0
6.59 -13.19 2543.0
12.88 -12.88 2484.9
19.50 -13.00 2506.9
25.68 -12.84 2475.8
39.05 -13.02 2510.7
46.80 -13.37 2578.5
52.25 -13.06 2519.4
60.18 -13.37 2579.3
68.55 -13.71 2644.1
73.09 -13.29 2562.9
79.82 -13.30 2565.7
88.08 -13.55 2613.5
91.84 -13.12 2530.3
97.69 -13.03 2512.1
109.87 -13.73 2648.7
119.94 -14.11 2721.3
128.01 -14.22 2743.0
142.66 -14.27 2751.3
153.58 -13.96 2692.6
178.84 -14.31 2759.2
186.76 -14.37 2770.7
191.33 -14.17 2733.3
225.19 -14.53 2801.9
238.68 -14.47 2789.8
248.15 -14.18 2734.7
250.26 -13.90 2681.3
253.13 -13.68 2638.9
271.19 -14.27 2752.6
285.10 -14.26 2749.2
300.50 -14.31 2759.7
329.56 -14.33 2763.4
336.74 -14.33 2763.5
-114.55 -21.48 2761.5
-103.91 -20.78 2671.9
-95.47 -20.46 2630.2
-88.79 -20.49 2634.4
-81.41 -20.35 2616.7
-74.77 -20.39 2621.9
-68.13 -20.44 2628.0
-61.09 -20.36 2618.2
-54.91 -20.59 2647.4
-47.83 -20.50 2635.5
-39.77 -19.88 2556.6
-32.57 -19.54 2512.7
-25.88 -19.41 2495.8
-19.44 -19.44 2499.8
-13.17 -19.76 2540.9
-6.69 -20.07 2579.9
0.00 -19.80 2545.9
6.38 -19.14 2460.9
12.88 -19.33 2484.9
20.19 -20.19 2595.8
26.85 -20.13 2588.8
33.04 -19.82 2548.7
39.37 -19.68 2530.6
58.20 -19.40 2494.2
67.82 -20.35 2616.0
74.46 -20.31 2610.9
81.00 -20.25 2603.7
88.79 -20.49 2634.4
92.31 -19.78 2543.2
109.08 -20.45 2629.7
118.88 -20.98 2697.3
131.31 -20.73 2665.7
164.52 -21.46 2759.0
198.31 -22.03 2833.0
198.67 -21.29 2736.7
204.30 -21.13 2717.2
212.39 -21.24 2730.7
233.89 -21.93 2819.2
254.53 -21.21 2727.1
269.27 -21.83 2807.0
288.71 -21.65 2784.0
292.99 -21.44 2756.4
298.00 -21.29 2736.7
-104.45 -27.85 2685.8
-96.01 -27.43 2645.1
-89.12 -27.42 2644.4
-81.56 -27.19 2621.6
-73.80 -26.84 2587.8
-66.27 -26.51 2556.0
-59.81 -26.58 2563.2
-54.08 -27.04 2607.3
-47.56 -27.17 2620.4
-39.91 -26.61 2565.6
-32.70 -26.16 2522.7
-26.02 -26.02 2508.7
-19.49 -25.99 2505.8
-13.17 -26.34 2539.8
-6.58 -26.33 2538.9
6.43 -25.72 2479.9
13.56 -27.13 2615.8
26.62 -26.62 2566.7
32.99 -26.39 2544.6
39.69 -26.46 2551.6
45.45 -25.97 2504.5
51.59 -25.79 2487.3
57.89 -25.73 2481.2
65.15 -26.06 2513.0
73.49 -26.72 2576.8
82.59 -27.53 2654.6
90.78 -27.93 2693.3
94.34 -26.95 2599.1
100.06 -26.68 2572.9
112.81 -28.20 2719.5
121.52 -28.59 2757.2
125.90 -27.98 2697.9
133.77 -28.16 2715.6
140.43 -28.09 2708.2
161.78 -28.14 2713.0
211.94 -29.23 2818.9
218.82 -29.18 2813.4
233.39 -29.17 2813.2
232.96 -28.24 2722.9
243.83 -28.69 2766.1
251.48 -28.74 2771.5
264.28 -29.36 2831.5
292.62 -29.26 2821.7
292.67 -28.55 2753.3
323.17 -28.73 2770.1
-119.67 -35.20 2715.1
-113.55 -35.49 2737.4
-105.18 -35.06 2704.7
-96.15 -34.34 2649.0
-88.85 -34.17 2636.3
-81.25 -33.85 2611.5
-73.46 -33.39 2575.7
-66.26 -33.13 2555.9
-60.11 -33.39 2576.1
-53.16 -33.23 2563.2
-45.70 -32.65 2518.4
-39.18 -32.65 2518.5
-32.82 -32.82 2531.6
-26.33 -32.91 2538.7
-19.89 -33.16 2557.7
-13.31 -33.27 2566.8
-6.57 -32.87 2535.8
0.00 -32.51 2507.8
6.66 -33.31 2569.8
13.61 -34.02 2624.7
20.03 -33.38 2574.7
25.85 -32.31 2492.7
32.06 -32.06 2473.6
40.50 -33.75 2603.5
61.55 -34.20 2638.1
67.51 -33.75 2603.9
74.00 -33.64 2594.7
80.16 -33.40 2576.5
104.72 -34.91 2692.7
113.63 -35.51 2739.4
118.04 -34.72 2678.2
124.59 -34.61 2669.9
134.99 -35.52 2740.4
144.10 -36.02 2779.0
146.93 -34.98 2698.8
172.94 -36.03 2779.4
218.58 -36.43 2810.3
247.60 -36.41 2808.9
272.40 -36.81 2839.7
276.95 -36.44 2811.2
281.55 -36.10 2784.6
287.56 -35.94 2772.9
294.99 -35.97 2775.1
306.54 -36.49 2815.1
308.65 -35.89 2768.6
312.56 -35.52 2740.0
-128.13 -42.71 2745.7
-110.98 -41.62 2675.4
-104.56 -41.82 2688.6
-97.13 -41.63 2675.9
-90.30 -41.68 2679.2
-82.99 -41.49 2667.4
-75.65 -41.26 2652.6
-68.88 -41.33 2656.8
-61.79 -41.19 2648.0
-53.99 -40.49 2603.1
-46.06 -39.48 2538.3
-39.24 -39.24 2522.4
-33.35 -40.02 2572.5
-27.12 -40.69 2615.5
-20.30 -40.59 2609.6
-13.44 -40.33 2592.7
-6.72 -40.31 2591.7
0.00 -40.30 2590.7
6.70 -40.22 2585.7
13.31 -39.93 2566.7
19.98 -39.96 2568.6
26.31 -39.46 2536.6
32.28 -38.74 2490.5
40.23 -40.23 2586.4
69.45 -41.67 2678.8
75.68 -41.28 2653.6
81.40 -40.70 2616.4
85.25 -39.34 2529.3
103.94 -41.57 2672.7
112.01 -42.01 2700.4
119.44 -42.16 2710.0
129.81 -43.27 2781.6
136.27 -43.03 2766.3
141.19 -42.36 2723.0
149.27 -42.65 2741.6
155.78 -42.49 2731.2
220.35 -44.07 2833.1
241.71 -42.65 2742.0
253.37 -43.43 2792.2
258.78 -43.13 2772.6
270.96 -43.94 2824.7
286.17 -44.03 2830.2
291.26 -43.69 2808.6
296.24 -43.35 2787.0
304.25 -43.46 2794.1
-126.40 -49.16 2708.6
-119.92 -49.38 2720.9
-111.97 -48.99 2699.2
-103.39 -48.25 2658.6
-96.47 -48.23 2657.8
-90.06 -48.49 2672.0
-84.07 -49.04 2702.2
-69.71 -48.79 2688.7
-61.81 -48.07 2648.8
-54.63 -47.80 2634.0
-47.08 -47.08 2594.1
-39.86 -46.50 2562.3
-33.70 -47.17 2599.4
-27.25 -47.68 2627.4
-20.23 -47.21 2601.5
-13.22 -46.27 2549.5
-6.52 -45.63 2514.6
0.00 -45.74 2520.6
6.54 -45.78 2522.6
13.05 -45.69 2517.6
19.70 -45.96 2532.5
26.67 -46.67 2571.4
33.77 -47.28 2605.4
40.42 -47.15 2598.3
47.24 -47.24 2603.1
53.80 -47.08 2594.0
59.96 -46.64 2569.9
66.93 -46.85 2581.7
73.99 -47.09 2594.5
81.68 -47.64 2625.3
88.10 -47.44 2614.1
94.73 -47.36 2609.9
105.02 -49.01 2700.5
143.31 -50.16 2763.8
150.40 -50.13 2762.5
159.53 -50.76 2797.0
162.83 -49.56 2730.7
186.87 -50.31 2772.3
197.65 -51.24 2823.6
207.25 -51.81 2855.0
209.22 -50.50 2782.7
214.68 -50.09 2760.2
220.67 -49.83 2745.7
251.00 -51.68 2847.5
264.16 -51.36 2830.2
269.42 -50.97 2808.6
277.81 -51.18 2819.9
278.71 -50.03 2756.5
289.19 -50.61 2788.6
300.35 -51.28 2825.6
307.92 -51.32 2827.8
-127.47 -56.65 2731.4
-118.77 -55.89 2694.8
-109.27 -54.63 2634.2
-104.35 -55.66 2683.4
-90.63 -55.77 2688.9
-82.01 -54.68 2636.2
-76.35 -55.53 2677.3
-69.13 -55.31 2666.5
-61.50 -54.67 2635.7
-54.50 -54.50 2627.9
-47.29 -54.05 2606.0
-40.29 -53.72 2590.1
-33.30 -53.29 2569.2
-26.32 -52.65 2538.3
-19.83 -52.88 2549.4
-13.14 -52.57 2534.4
6.50 -51.99 2506.5
13.27 -53.06 2558.4
19.79 -52.77 2544.4
26.44 -52.87 2549.3
33.65 -53.85 2596.2
40.60 -54.14 2610.1
46.77 -53.45 2577.0
52.24 -52.24 2518.9
59.31 -52.72 2541.8
67.66 -54.12 2609.6
73.70 -53.60 2584.4
80.09 -53.39 2574.2
87.90 -54.09 2608.0
96.17 -54.96 2649.7
106.34 -56.71 2734.3
138.71 -58.41 2816.0
144.18 -57.67 2780.7
147.08 -56.03 2701.4
164.43 -57.19 2757.5
175.71 -58.57 2823.9
179.90 -57.57 2775.6
186.19 -57.29 2762.1
195.34 -57.88 2790.6
203.19 -58.05 2799.0
209.21 -57.71 2782.5
219.94 -58.65 2827.9
228.35 -58.93 2841.2
231.20 -57.80 2786.8
245.90 -57.86 2789.6
261.87 -56.62 2729.9
291.14 -56.81 2739.0
302.71 -57.66 2780.0
-120.79 -63.95 2740.6
-111.62 -62.79 2691.0
-106.76 -64.05 2745.2
-92.24 -63.86 2736.7
-81.33 -60.99 2614.0
-74.04 -60.58 2596.2
-67.29 -60.56 2595.4
-59.93 -59.93 2568.6
-52.90 -59.52 2550.8
-45.73 -58.80 2519.9
-39.79 -59.69 2558.0
-33.56 -60.41 2589.1
-26.30 -59.18 2536.2
-19.61 -58.83 2521.2
-13.41 -60.32 2585.3
-6.77 -60.93 2611.3
0.00 -59.62 2555.3
6.65 -59.88 2566.3
13.43 -60.42 2589.3
19.83 -59.48 2549.2
26.03 -58.57 2510.2
32.49 -58.48 2506.1
39.95 -59.92 2568.0
46.98 -60.41 2588.9
53.96 -60.71 2601.7
76.01 -62.19 2665.2
82.07 -61.55 2638.0
89.27 -61.80 2648.8
95.15 -61.17 2621.6
102.21 -61.33 2628.3
114.44 -64.37 2758.9
130.02 -65.01 2786.2
135.07 -63.98 2741.9
142.05 -63.92 2739.6
146.63 -62.84 2693.3
152.91 -62.55 2680.9
168.29 -65.85 2822.2
181.31 -65.27 2797.4
192.03 -66.47 2848.8
215.04 -66.74 2860.2
219.23 -65.77 2818.7
220.25 -63.94 2740.4
232.51 -65.39 2802.6
244.16 -66.59 2853.8
251.85 -66.67 2857.1
268.15 -65.23 2795.4
292.18 -64.14 2748.8
317.04 -64.85 2779.2
325.77 -65.15 2792.3
-120.61 -70.94 2736.4
-111.00 -69.37 2675.8
-104.23 -69.48 2680.1
-98.45 -70.32 2712.3
-91.25 -70.20 2707.6
-82.53 -68.78 2652.8
-74.38 -67.62 2608.1
-66.92 -66.92 2581.3
-59.11 -65.68 2533.5
-45.71 -65.30 2518.7
-40.46 -67.43 2600.8
-34.07 -68.13 2627.9
-26.66 -66.66 2571.0
-19.73 -65.78 2537.1
-13.38 -66.89 2580.1
-6.83 -68.29 2634.1
0.00 -67.64 2609.1
6.72 -67.20 2592.1
13.40 -67.00 2584.1
20.10 -66.99 2584.1
26.88 -67.20 2592.0
32.86 -65.72 2534.9
39.45 -65.74 2535.8
47.16 -67.37 2598.7
55.12 -68.90 2657.5
69.43 -69.43 2678.2
76.94 -69.95 2698.0
96.16 -68.69 2649.4
101.86 -67.90 2619.1
112.28 -70.18 2706.8
122.67 -72.16 2783.4
127.36 -70.75 2729.1
131.81 -69.37 2675.9
138.52 -69.26 2671.5
150.97 -71.89 2773.0
173.46 -72.27 2787.7
179.10 -71.64 2763.3
192.42 -74.01 2854.6
203.60 -72.71 2804.7
230.18 -71.93 2774.5
242.52 -73.49 2834.7
251.40 -73.94 2852.0
255.57 -73.02 2816.5
254.17 -70.60 2723.3
265.37 -71.72 2766.4
278.45 -73.28 2826.4
279.07 -71.56 2760.0
285.22 -71.30 2750.3
296.71 -72.37 2791.3
299.10 -71.21 2746.8
306.25 -71.22 2747.1
319.74 -72.67 2802.9
-127.44 -77.88 2730.9
-119.54 -77.35 2712.3
-111.20 -76.45 2680.6
-105.58 -77.42 2714.8
-99.06 -77.83 2729.1
-91.32 -77.27 2709.4
-82.78 -75.88 2660.6
-74.74 -74.74 2620.9
-68.19 -75.01 2630.0
-61.07 -74.64 2617.2
-54.20 -74.53 2613.4
-48.26 -75.84 2659.5
-41.15 -75.45 2645.6
-33.44 -73.57 2579.7
-26.58 -73.09 2562.8
-20.00 -73.32 2570.9
-13.34 -73.38 2572.9
-6.70 -73.69 2583.9
0.00 -73.38 2573.0
6.65 -73.18 2565.9
13.26 -72.95 2557.9
19.90 -72.98 2558.9
27.20 -74.80 2622.8
34.10 -75.02 2630.7
40.45 -74.17 2600.6
47.63 -74.85 2624.5
55.26 -75.98 2664.3
94.92 -74.58 2615.2
110.70 -76.11 2668.6
122.89 -79.51 2788.2
130.15 -79.53 2788.8
137.21 -79.44 2785.5
141.00 -77.55 2719.2
150.64 -78.90 2766.8
165.94 -79.36 2782.9
169.97 -77.90 2731.6
179.48 -78.97 2769.1
185.95 -78.67 2758.6
277.25 -80.26 2814.2
282.27 -79.61 2791.6
289.84 -79.71 2794.9
302.18 -81.07 2842.8
308.82 -80.88 2836.1
-93.09 -85.93 2762.1
-83.79 -83.79 2693.4
-75.76 -82.65 2656.6
-69.27 -83.12 2671.8
-61.93 -82.57 2654.0
-54.86 -82.29 2645.2
-48.46 -83.08 2670.3
-40.96 -81.93 2633.4
-33.61 -80.66 2592.5
-26.98 -80.94 2601.6
-20.23 -80.91 2600.7
-13.46 -80.79 2596.7
-6.73 -80.76 2595.7
0.00 -80.01 2571.8
6.70 -80.35 2582.7
13.44 -80.66 2592.7
19.98 -79.91 2568.7
26.97 -80.91 2600.6
33.39 -80.13 2575.5
39.02 -78.04 2508.5
47.32 -81.12 2607.3
69.40 -83.28 2676.8
75.71 -82.59 2654.6
81.34 -81.34 2614.5
87.57 -80.84 2598.3
109.24 -81.93 2633.5
122.44 -86.43 2778.0
131.07 -87.38 2808.6
145.49 -87.29 2805.9
148.23 -84.70 2722.7
153.28 -83.61 2687.3
164.44 -85.80 2757.8
176.35 -88.17 2834.2
179.79 -86.30 2773.8
215.45 -89.15 2865.5
220.20 -88.08 2831.1
224.13 -86.76 2788.7
245.39 -86.61 2783.9
250.20 -85.78 2757.3
256.92 -85.64 2752.7
269.91 -87.54 2813.7
281.64 -88.94 2858.8
286.77 -88.24 2836.2
293.84 -88.15 2833.4
314.62 -87.80 2822.2
318.78 -86.94 2794.5
-107.15 -92.87 2755.4
-84.84 -91.91 2727.1
-76.44 -90.34 2680.4
-69.94 -90.92 2697.6
-62.60 -90.42 2682.7
-54.19 -88.07 2613.0
-46.84 -86.99 2581.1
-39.81 -86.26 2559.2
-32.81 -85.32 2531.4
-26.81 -87.14 2585.4
-20.43 -88.52 2626.4
-13.28 -86.30 2560.5
-6.48 -84.21 2498.6
0.00 -84.82 2516.6
6.66 -86.57 2568.5
13.44 -87.34 2591.5
20.08 -87.00 2581.5
26.88 -87.37 2592.4
32.93 -85.62 2540.3
38.94 -84.37 2503.3
47.75 -88.68 2631.1
60.87 -87.93 2608.8
66.78 -86.81 2575.7
72.99 -86.26 2559.5
80.34 -87.03 2582.3
88.98 -88.98 2640.0
94.80 -88.03 2611.8
101.02 -87.55 2597.6
109.23 -88.75 2633.2
117.06 -89.51 2655.9
126.54 -91.39 2711.5
136.16 -93.16 2764.1
142.27 -92.47 2743.8
145.83 -90.28 2678.5
152.35 -90.03 2671.1
165.32 -93.44 2772.5
179.12 -93.14 2763.6
215.80 -96.74 2870.3
236.49 -96.08 2850.6
251.81 -93.53 2775.0
261.82 -94.55 2805.2
286.14 -95.38 2830.0
294.02 -95.56 2835.2
305.42 -94.53 2804.8
313.66 -92.67 2749.6
-113.24 -99.08 2729.9
-104.27 -97.32 2681.2
-99.47 -99.47 2740.4
-93.85 -101.07 2784.6
-84.15 -98.18 2704.9
-75.58 -96.19 2650.2
-69.18 -96.85 2668.3
-62.80 -97.69 2691.5
-55.02 -96.28 2652.7
-47.07 -94.15 2593.9
-39.60 -92.41 2546.0
-33.24 -93.07 2564.1
-27.59 -96.55 2660.1
-13.20 -92.38 2545.3
-6.53 -91.44 2519.3
0.00 -93.47 2575.3
6.61 -92.53 2549.3
19.49 -90.93 2505.3
26.35 -92.24 2541.2
33.37 -93.43 2574.1
40.93 -95.49 2630.9
47.76 -95.53 2631.8
52.95 -92.66 2552.8
59.14 -92.00 2534.6
66.56 -93.19 2567.4
74.15 -94.38 2600.2
83.41 -97.31 2680.9
104.31 -97.35 2682.2
111.25 -97.34 2681.9
118.10 -97.26 2679.6
126.20 -98.16 2704.3
145.52 -101.86 2806.4
148.15 -98.77 2721.2
154.22 -98.14 2703.8
160.73 -97.83 2695.4
175.17 -98.09 2702.6
188.53 -101.51 2796.8
199.65 -103.52 2852.1
204.55 -102.27 2817.7
209.11 -100.95 2781.3
220.08 -102.70 2829.6
250.88 -100.35 2764.8
262.45 -102.06 2811.9
272.73 -103.19 2843.1
274.05 -100.97 2781.7
279.98 -100.51 2769.1
292.55 -102.39 2821.0
308.74 -102.91 2835.4
315.78 -100.48 2768.2
-100.72 -107.92 2775.1
-92.09 -106.26 2732.4
-84.36 -105.45 2711.6
-77.22 -105.31 2707.9
-70.36 -105.55 2714.0
-63.61 -106.02 2726.2
-55.61 -104.28 2681.4
-47.34 -101.45 2608.6
-40.53 -101.33 2605.7
-34.56 -103.67 2665.8
-13.46 -100.96 2596.0
-6.70 -100.45 2583.0
0.00 -101.89 2620.0
6.68 -100.14 2575.0
26.44 -99.16 2549.9
33.80 -101.41 2607.8
40.49 -101.22 2602.7
46.07 -98.73 2538.7
52.26 -97.98 2519.6
59.91 -99.84 2567.4
67.46 -101.20 2602.2
75.26 -102.63 2638.9
82.40 -103.01 2648.7
88.79 -102.45 2634.5
96.99 -103.92 2672.2
104.61 -104.61 2689.9
111.36 -104.40 2684.7
118.09 -104.20 2679.4
126.23 -105.19 2705.0
143.48 -107.61 2767.2
143.96 -102.83 2644.1
151.36 -103.20 2653.7
159.76 -104.19 2679.2
168.85 -105.53 2713.7
183.94 -110.36 2837.9
191.40 -110.42 2839.4
195.86 -108.81 2798.0
206.55 -110.65 2845.4
216.42 -108.21 2782.5
226.54 -106.19 2730.6
238.42 -108.37 2786.7
251.03 -110.75 2847.8
258.71 -110.88 2851.1
266.51 -111.04 2855.4
273.94 -111.06 2855.7
269.32 -106.31 2733.7
290.57 -106.30 2733.5
300.17 -107.20 2756.6
304.35 -106.17 2730.0
-99.16 -113.32 2731.9
-91.98 -113.21 2729.1
-85.69 -114.25 2754.3
-77.76 -113.10 2726.5
-70.15 -112.24 2705.8
-63.44 -112.78 2718.9
-55.42 -110.84 2672.1
-47.23 -107.95 2602.3
-40.53 -108.08 2605.4
-34.11 -109.16 2631.5
-13.64 -109.08 2629.7
-6.62 -105.85 2551.8
0.00 -104.78 2525.8
6.65 -106.39 2564.8
13.32 -106.56 2568.8
19.50 -103.98 2506.8
25.99 -103.94 2505.7
32.83 -105.06 2532.6
38.84 -103.56 2496.6
45.47 -103.93 2505.4
53.21 -106.41 2565.2
60.43 -107.44 2590.1
67.48 -107.97 2602.9
73.88 -107.47 2590.7
78.98 -105.30 2538.6
99.55 -106.19 2559.9
108.66 -108.66 2619.5
118.56 -111.59 2690.1
138.04 -110.43 2662.1
154.93 -112.67 2716.3
164.38 -114.35 2756.7
174.67 -116.45 2807.2
198.42 -117.58 2834.6
202.55 -115.74 2790.3
211.17 -116.51 2808.7
232.18 -112.57 2713.8
239.69 -112.79 2719.1
251.65 -115.04 2773.2
263.42 -117.07 2822.3
271.34 -117.33 2828.6
267.24 -112.52 2712.5
277.52 -113.85 2744.7
298.14 -116.35 2804.8
321.04 -116.74 2814.3
-104.82 -118.79 2695.3
-97.19 -118.01 2677.6
-93.22 -121.90 2765.7
-85.52 -121.16 2749.0
-76.50 -118.22 2682.3
-69.78 -118.62 2691.5
-63.69 -120.30 2729.6
-56.00 -118.99 2699.8
-48.07 -116.75 2649.0
-40.31 -114.20 2591.2
-33.21 -112.93 2562.3
-26.86 -114.17 2590.3
-20.22 -114.57 2599.4
-13.48 -114.57 2599.4
-6.66 -113.16 2567.5
0.00 -111.80 2536.5
6.67 -113.34 2571.5
13.48 -114.57 2599.4
19.93 -112.94 2562.4
25.91 -110.12 2498.4
38.75 -109.80 2491.3
46.77 -113.58 2577.1
54.01 -114.77 2603.9
60.54 -114.36 2594.8
66.47 -112.99 2563.7
78.81 -111.65 2533.3
87.23 -114.06 2588.0
93.27 -113.26 2569.8
101.64 -115.19 2613.5
110.26 -117.15 2658.1
119.91 -119.91 2720.7
148.27 -120.03 2723.3
175.46 -124.28 2819.8
182.87 -124.35 2821.3
201.95 -122.61 2782.0
222.34 -121.93 2766.4
231.44 -122.95 2789.7
233.86 -120.47 2733.4
238.52 -119.26 2705.9
248.19 -120.55 2735.1
255.50 -120.65 2737.5
279.80 -121.96 2767.2
308.65 -124.93 2834.5
317.79 -125.64 2850.6
-107.06 -128.47 2752.9
-100.55 -129.27 2770.2
-77.80 -127.30 2727.9
-70.57 -127.03 2722.1
-63.85 -127.69 2736.3
-55.74 -125.42 2687.5
-47.34 -121.74 2608.7
-26.71 -120.22 2576.1
-20.19 -121.15 2596.1
-13.50 -121.53 2604.1
-6.76 -121.62 2606.2
0.00 -121.67 2607.2
6.74 -121.25 2598.2
13.41 -120.69 2586.2
19.98 -119.89 2569.1
26.17 -117.75 2523.1
32.60 -117.37 2515.1
40.19 -120.58 2583.9
48.45 -124.58 2669.7
62.01 -124.01 2657.4
67.21 -120.97 2592.3
71.62 -117.19 2511.2
78.37 -117.56 2519.0
88.02 -121.88 2611.7
95.69 -123.03 2636.4
103.37 -124.04 2658.1
111.29 -125.20 2682.8
118.10 -125.04 2679.5
146.73 -125.77 2695.1
151.88 -124.26 2662.8
183.43 -132.07 2830.0
191.00 -132.23 2833.5
194.75 -129.83 2782.2
218.47 -126.85 2718.3
231.50 -130.22 2790.4
262.15 -131.07 2808.7
261.93 -127.42 2730.5
273.23 -126.11 2702.3
292.32 -131.55 2818.8
300.29 -131.83 2825.0
298.12 -127.77 2737.9
303.36 -126.99 2721.2
-100.14 -135.90 2758.8
-93.26 -136.30 2767.1
-87.27 -138.18 2805.2
-79.10 -136.62 2773.5
-70.10 -133.19 2703.8
-62.25 -131.43 2668.0
-55.94 -132.86 2697.2
-48.75 -132.33 2686.3
-40.14 -127.12 2580.6
-33.19 -126.14 2560.7
-26.73 -126.98 2577.7
-19.97 -126.49 2567.8
-13.40 -127.33 2584.8
-6.74 -128.02 2598.8
0.00 -127.72 2592.9
6.69 -127.03 2578.9
13.18 -125.21 2541.9
19.45 -123.19 2500.9
26.28 -124.81 2533.8
33.80 -128.45 2607.6
40.69 -128.84 2615.5
47.85 -129.87 2636.4
61.56 -129.95 2638.1
67.48 -128.22 2603.0
72.89 -125.90 2555.9
79.01 -125.10 2539.7
87.37 -127.70 2592.4
94.19 -127.83 2595.1
101.11 -128.07 2599.9
109.28 -129.78 2634.5
116.50 -130.20 2643.2
124.97 -131.91 2677.8
159.45 -131.72 2674.0
190.71 -139.36 2829.2
191.80 -134.97 2740.0
231.80 -137.63 2794.0
263.32 -138.98 2821.3
278.93 -135.89 2758.6
291.67 -138.54 2812.5
292.97 -135.77 2756.2
322.57 -136.20 2764.9
-115.35 -144.19 2780.9
-108.47 -144.62 2789.1
-101.79 -145.41 2804.4
-93.95 -144.55 2787.7
-71.28 -142.56 2749.4
-62.92 -139.83 2696.6
-56.24 -140.61 2711.8
-49.45 -141.29 2724.9
-41.02 -136.74 2637.1
-33.53 -134.10 2586.3
-26.74 -133.69 2578.4
-19.89 -132.61 2557.5
-13.31 -133.13 2567.5
-6.76 -135.25 2608.5
0.00 -136.34 2629.5
6.77 -135.31 2609.5
13.31 -133.13 2567.5
19.82 -132.14 2548.5
27.00 -134.99 2603.4
34.29 -137.16 2645.2
40.82 -136.07 2624.2
46.90 -133.99 2584.1
52.99 -132.48 2555.0
60.66 -134.80 2599.8
68.54 -137.07 2643.6
75.39 -137.06 2643.4
83.44 -139.07 2682.1
97.55 -139.36 2687.6
102.45 -136.60 2634.5
108.15 -135.19 2607.3
115.52 -135.90 2620.9
123.97 -137.75 2656.5
139.63 -139.63 2692.8
155.31 -141.19 2722.9
162.10 -140.96 2718.5
182.93 -146.34 2822.3
188.87 -145.28 2801.9
204.05 -145.75 2810.8
206.95 -142.72 2752.5
231.11 -144.44 2785.7
257.75 -147.29 2840.5
256.05 -142.25 2743.4
261.10 -141.13 2721.9
276.51 -145.53 2806.7
281.90 -144.57 2788.1
285.35 -142.67 2751.6
296.94 -144.85 2793.5
303.13 -144.35 2783.8
-85.67 -149.92 2753.6
-69.69 -146.35 2688.1
-62.98 -146.96 2699.3
-55.86 -146.64 2693.4
-48.79 -146.38 2688.6
-40.85 -142.96 2625.8
-33.64 -141.28 2594.9
-26.67 -140.03 2572.1
-19.73 -138.13 2537.2
-13.19 -138.52 2544.2
-6.69 -140.48 2580.2
0.00 -142.87 2624.1
6.80 -142.81 2623.1
13.53 -142.05 2609.1
20.35 -142.48 2617.0
26.74 -140.36 2578.0
32.73 -137.47 2525.0
39.59 -138.56 2544.9
46.27 -138.82 2549.8
52.18 -136.97 2515.7
59.61 -139.08 2554.5
68.61 -144.07 2646.2
83.59 -146.28 2686.7
89.50 -144.58 2655.6
95.80 -143.70 2639.4
100.89 -141.24 2594.2
108.18 -141.99 2607.9
117.79 -145.50 2672.5
122.61 -143.04 2627.3
155.63 -148.55 2728.5
186.02 -150.25 2759.7
192.03 -149.35 2743.2
198.67 -149.00 2736.8
204.38 -148.00 2718.3
214.63 -150.24 2759.6
226.62 -153.52 2819.7
231.99 -152.24 2796.3
235.35 -149.77 2750.9
243.83 -150.60 2766.2
249.05 -149.43 2744.7
256.29 -149.51 2746.0
269.83 -153.15 2812.9
288.40 -151.41 2781.0
299.12 -153.21 2814.0
-84.26 -154.47 2708.3
-69.60 -153.13 2684.7
-62.88 -153.71 2694.9
-55.75 -153.32 2688.1
-49.98 -157.08 2754.1
-34.72 -152.77 2678.4
-27.26 -149.93 2628.6
-19.96 -146.34 2565.8
-13.22 -145.38 2548.8
-6.63 -145.89 2557.8
0.00 -146.80 2573.8
6.81 -149.88 2627.7
13.82 -151.98 2664.6
20.58 -150.96 2646.6
26.74 -147.08 2578.7
45.89 -144.22 2528.5
53.23 -146.37 2566.3
59.20 -144.71 2537.2
66.19 -145.62 2553.0
75.36 -150.73 2642.6
83.42 -152.94 2681.3
89.59 -151.61 2658.2
96.04 -150.92 2646.0
100.79 -147.83 2591.8
107.54 -147.87 2592.6
117.20 -151.67 2659.1
122.59 -149.83 2626.9
128.45 -148.73 2607.6
138.35 -152.18 2668.1
144.43 -151.31 2652.8
153.10 -153.10 2684.3
185.26 -156.76 2748.3
193.74 -157.86 2767.7
203.19 -159.65 2799.1
210.93 -160.02 2805.5
230.30 -158.33 2776.0
233.70 -155.80 2731.6
242.48 -156.90 2750.9
247.85 -155.79 2731.4
255.52 -156.15 2737.7
268.84 -159.85 2802.6
319.67 -159.83 2802.3
-101.02 -165.96 2783.2
-71.77 -165.06 2768.2
-63.38 -161.98 2716.4
-55.81 -160.44 2690.6
-49.74 -163.43 2740.7
-35.35 -162.61 2726.9
-28.23 -162.31 2722.0
-21.03 -161.25 2704.1
-13.74 -157.97 2649.3
-6.80 -156.49 2624.3
0.00 -154.52 2591.4
6.75 -155.36 2605.4
13.84 -159.11 2668.2
27.50 -158.15 2652.1
33.74 -155.23 2603.2
53.14 -152.77 2561.9
60.71 -155.14 2601.7
66.70 -153.40 2572.6
74.64 -156.07 2617.3
83.00 -159.09 2668.0
89.64 -158.60 2659.8
97.62 -160.37 2689.5
104.19 -159.76 2679.2
107.28 -154.21 2586.2
129.61 -156.89 2631.1
141.58 -162.82 2730.5
153.14 -160.10 2684.9
179.62 -165.25 2771.3
193.22 -164.60 2760.4
223.20 -165.60 2777.1
260.86 -166.66 2794.9
283.89 -163.24 2737.5
295.55 -165.80 2780.4
-78.04 -170.28 2736.6
-62.56 -166.82 2681.1
-56.60 -169.81 2729.1
-49.62 -170.13 2734.3
-42.30 -169.21 2719.4
-34.62 -166.17 2670.6
-27.56 -165.37 2657.7
-20.64 -165.12 2653.8
-13.53 -162.39 2609.9
-6.80 -163.27 2623.9
0.00 -163.33 2624.9
6.74 -161.65 2598.0
13.63 -163.51 2627.9
20.31 -162.45 2610.9
26.65 -159.90 2569.9
33.77 -162.07 2604.7
40.07 -160.27 2575.7
52.40 -157.21 2526.6
60.25 -160.68 2582.3
66.76 -160.23 2575.2
72.64 -158.48 2547.0
85.49 -157.84 2536.7
94.24 -161.55 2596.3
103.90 -166.25 2671.8
111.36 -167.04 2684.5
115.36 -162.86 2617.4
122.46 -163.28 2624.1
131.75 -166.42 2674.6
142.85 -171.42 2755.0
155.16 -169.26 2720.3
172.00 -172.00 2764.3
178.62 -171.48 2755.9
183.86 -169.71 2727.5
194.66 -173.03 2780.8
253.81 -174.04 2797.1
272.73 -172.25 2768.3
290.33 -169.95 2731.4
-101.02 -180.40 2783.3
-70.35 -175.87 2713.4
-64.13 -178.14 2748.5
-56.78 -177.44 2737.7
-48.89 -174.60 2693.9
-41.83 -174.29 2689.0
-34.34 -171.71 2649.2
-27.36 -171.00 2638.3
-20.46 -170.49 2630.4
-13.42 -167.71 2587.5
-6.75 -168.81 2604.5
0.00 -172.76 2665.4
6.98 -174.57 2693.3
13.69 -171.14 2640.4
19.81 -165.06 2546.6
26.39 -164.92 2544.5
33.91 -169.57 2616.3
40.84 -170.15 2625.2
46.88 -167.43 2583.2
52.99 -165.61 2555.1
59.38 -164.95 2545.0
65.28 -163.20 2517.9
93.39 -166.76 2572.9
103.11 -171.85 2651.4
141.28 -176.60 2724.6
145.61 -173.34 2674.4
155.42 -176.61 2724.9
182.75 -175.72 2711.2
229.04 -178.94 2760.7
252.24 -180.17 2779.8
315.79 -179.43 2768.3
337.26 -179.39 2767.8
351.39 -179.28 2766.0
369.67 -181.21 2795.9
-50.02 -185.79 2756.3
-42.35 -183.52 2722.5
-34.69 -180.36 2675.7
-27.56 -179.16 2657.8
-20.97 -181.72 2695.8
-13.96 -181.45 2691.9
-6.95 -180.65 2679.9
13.53 -175.87 2609.0
19.97 -173.04 2567.1
27.12 -176.27 2614.9
34.53 -179.56 2663.7
41.17 -178.41 2646.7
47.72 -177.25 2629.6
54.56 -177.31 2630.5
60.70 -175.35 2601.4
66.25 -172.25 2555.3
72.30 -170.89 2535.2
79.71 -172.69 2561.9
85.87 -171.74 2547.8
92.25 -171.32 2541.6
101.62 -176.14 2613.1
111.40 -181.03 2685.6
117.91 -180.34 2675.3
121.44 -175.41 2602.3
131.70 -180.23 2673.7
149.60 -185.22 2747.7
178.11 -185.24 2748.0
193.41 -186.25 2763.0
202.49 -188.02 2789.3
207.81 -186.31 2763.9
317.43 -187.57 2782.7
320.27 -185.05 2745.2
329.89 -186.46 2766.2
342.39 -189.41 2809.9
354.97 -188.35 2794.3
376.73 -188.37 2794.4
-78.63 -193.00 2757.1
-35.66 -192.57 2751.0
-27.24 -183.85 2626.4
-13.74 -185.53 2650.5
-7.02 -189.66 2709.4
7.00 -188.89 2698.4
13.64 -184.21 2631.5
20.34 -183.09 2615.5
26.90 -181.55 2593.5
33.40 -180.35 2576.5
40.65 -182.93 2613.3
48.02 -185.23 2646.1
69.34 -187.22 2674.6
76.13 -186.86 2669.4
83.57 -188.03 2686.1
89.65 -186.20 2660.0
94.11 -181.51 2593.0
100.94 -181.70 2595.7
108.82 -183.63 2623.3
112.88 -179.29 2561.3
119.98 -179.96 2570.9
150.17 -193.07 2758.2
199.20 -192.09 2744.1
341.24 -196.03 2800.5
373.47 -193.92 2770.2
-64.47 -200.57 2763.0
-56.52 -197.83 2725.2
-50.04 -200.16 2757.3
-43.17 -201.47 2775.4
-27.89 -195.26 2689.8
-13.48 -188.75 2600.1
-6.94 -194.33 2676.9
0.00 -196.79 2710.9
20.57 -192.00 2645.0
26.57 -185.99 2562.1
33.21 -185.99 2562.0
40.74 -190.10 2618.8
47.29 -189.16 2605.7
53.88 -188.57 2597.6
61.68 -191.89 2643.3
68.53 -191.87 2643.2
75.00 -190.92 2630.0
82.00 -191.34 2635.8
88.59 -190.82 2628.6
93.66 -187.33 2580.5
100.50 -187.60 2584.3
108.34 -189.60 2611.9
115.02 -189.44 2609.6
125.49 -195.20 2689.0
148.03 -197.37 2718.8
164.81 -200.63 2763.8
192.43 -199.56 2749.1
266.38 -201.59 2777.0
269.12 -198.30 2731.6
298.32 -198.88 2739.6
306.99 -199.90 2753.7
311.44 -198.19 2730.2
322.59 -200.72 2765.0
339.61 -202.32 2787.1
-63.53 -204.70 2722.6
-48.55 -201.12 2675.0
-42.30 -204.43 2719.0
-35.48 -205.79 2737.0
-28.37 -205.72 2736.1
-20.96 -202.65 2695.3
-13.58 -196.88 2618.6
-6.75 -195.83 2604.6
0.00 -198.31 2637.6
6.90 -200.18 2662.5
13.88 -201.23 2676.4
20.35 -196.72 2616.5
26.48 -192.00 2553.7
33.31 -193.19 2569.5
40.48 -195.66 2602.3
46.54 -192.80 2564.3
52.85 -191.59 2548.3
60.22 -194.05 2581.0
66.34 -192.39 2558.9
80.53 -194.61 2588.4
89.01 -198.57 2641.1
94.55 -195.85 2604.9
101.99 -197.18 2622.6
108.94 -197.46 2626.3
114.56 -195.42 2599.1
124.81 -201.09 2674.5
154.57 -203.75 2710.0
274.54 -209.52 2786.7
281.29 -209.17 2782.0
304.50 -205.36 2731.4
320.21 -206.36 2744.7
-49.31 -211.35 2717.3
-40.95 -204.77 2632.7
-34.47 -206.79 2658.7
-27.60 -207.03 2661.8
-21.15 -211.53 2719.7
-14.15 -212.31 2729.7
-6.85 -205.41 2641.0
0.00 -203.01 2610.1
6.81 -204.17 2625.1
13.62 -204.32 2627.0
20.26 -202.62 2605.1
26.69 -200.21 2574.1
33.04 -198.26 2549.1
39.59 -197.94 2545.0
46.24 -198.17 2547.9
53.28 -199.79 2568.7
61.40 -204.66 2631.3
68.47 -205.42 2641.1
73.84 -201.38 2589.1
81.82 -204.54 2629.8
90.20 -208.16 2676.4
95.69 -205.05 2636.3
102.90 -205.80 2646.0
109.67 -205.62 2643.7
113.92 -201.03 2584.7
122.60 -204.34 2627.2
132.69 -209.50 2693.6
138.77 -208.16 2676.3
144.44 -206.35 2653.1
147.95 -201.75 2594.0
170.43 -204.52 2629.6
190.83 -212.03 2726.1
199.95 -214.24 2754.5
213.15 -213.15 2740.5
236.27 -214.79 2761.6
237.86 -209.88 2698.4
251.29 -215.39 2769.3
262.76 -218.97 2815.3
295.07 -210.77 2709.8
307.54 -214.56 2758.6
332.85 -212.46 2731.6
350.82 -214.79 2761.5
-27.15 -210.44 2618.4
-21.19 -218.94 2724.1
0.00 -216.22 2690.3
6.91 -214.14 2664.4
13.92 -215.82 2685.3
20.78 -214.77 2672.3
27.08 -209.88 2611.4
33.26 -206.19 2565.5
39.83 -205.78 2560.4
46.50 -205.93 2562.3
53.16 -206.00 2563.2
60.85 -209.60 2607.9
68.62 -212.71 2646.6
74.79 -210.77 2622.5
80.71 -208.51 2594.4
86.59 -206.49 2569.3
93.82 -207.75 2585.0
103.15 -213.18 2652.4
110.68 -214.44 2668.1
115.96 -211.45 2631.0
122.76 -211.43 2630.7
130.60 -213.08 2651.2
136.68 -211.85 2636.0
142.25 -209.99 2612.7
148.66 -209.48 2606.4
155.39 -209.44 2606.0
166.95 -215.65 2683.2
235.46 -221.19 2752.1
256.22 -220.64 2745.3
266.89 -223.61 2782.3
290.27 -224.96 2799.0
308.03 -222.07 2763.0
336.76 -222.12 2763.7
352.38 -222.93 2773.8
-71.80 -229.77 2769.6
-64.09 -227.88 2746.8
-56.73 -226.91 2735.0
-34.58 -221.31 2667.6
-28.30 -226.36 2728.5
0.00 -220.01 2651.9
6.81 -217.86 2626.0
13.73 -219.76 2648.9
20.76 -221.49 2669.7
27.31 -218.51 2633.8
33.37 -213.54 2573.9
39.85 -212.54 2561.9
47.29 -216.17 2605.6
54.95 -219.80 2649.3
61.86 -219.95 2651.2
68.68 -219.77 2649.0
74.89 -217.85 2625.9
80.91 -215.77 2600.8
87.45 -215.26 2594.6
95.40 -218.05 2628.2
103.40 -220.59 2658.9
109.29 -218.58 2634.7
116.11 -218.56 2634.4
124.55 -221.42 2668.9
129.30 -217.76 2624.8
149.31 -217.18 2617.8
155.84 -216.82 2613.4
166.61 -222.14 2677.6
177.22 -218.11 2629.0
228.16 -228.16 2750.1
233.71 -226.63 2731.7
245.55 -231.11 2785.7
247.58 -226.36 2728.5
252.19 -224.17 2702.0
262.65 -227.16 2738.1
284.63 -233.54 2815.0
287.02 -229.62 2767.7
308.18 -229.35 2764.4
351.55 -229.59 2767.3
-71.40 -235.62 2754.0
-63.06 -231.20 2702.4
-48.74 -229.78 2685.7
-42.59 -234.22 2737.7
-35.58 -234.83 2744.7
-28.69 -236.71 2766.7
-14.22 -234.67 2742.9
-6.79 -224.11 2619.4
0.00 -220.10 2572.6
6.75 -222.83 2604.5
13.60 -224.36 2622.4
20.54 -225.98 2641.3
27.65 -228.10 2666.1
34.51 -227.75 2662.1
41.16 -226.38 2646.0
48.87 -230.38 2692.7
69.75 -230.17 2690.3
74.53 -223.59 2613.4
82.72 -227.49 2659.0
97.11 -228.90 2675.5
101.79 -223.94 2617.5
108.90 -224.60 2625.2
117.36 -227.81 2662.7
124.57 -228.38 2669.4
127.99 -222.30 2598.4
149.84 -224.77 2627.1
167.81 -221.51 2589.1
185.70 -226.97 2652.8
221.83 -236.14 2760.0
223.83 -230.82 2697.9
235.36 -235.36 2750.9
255.90 -241.28 2820.2
257.04 -235.62 2754.0
264.69 -236.07 2759.3
270.21 -234.66 2742.8
299.31 -235.17 2748.8
301.71 -231.55 2706.4
-64.99 -245.53 2785.4
-56.12 -238.52 2705.9
-49.83 -242.05 2745.9
-35.16 -239.08 2712.3
-27.31 -232.15 2633.6
-20.78 -235.49 2671.6
-13.71 -233.04 2643.7
-6.89 -234.36 2658.7
6.96 -236.55 2683.6
13.58 -230.93 2619.8
20.31 -230.22 2611.8
27.12 -230.48 2614.7
34.51 -234.69 2662.5
74.26 -229.52 2603.8
81.34 -230.47 2614.6
96.51 -234.38 2658.9
101.23 -229.44 2602.9
108.46 -230.47 2614.6
116.63 -233.26 2646.2
123.33 -232.97 2642.9
128.46 -229.87 2607.7
149.07 -230.39 2613.6
167.40 -237.15 2690.4
170.68 -232.12 2633.3
176.33 -230.59 2615.9
188.44 -237.29 2692.0
213.51 -241.98 2745.1
218.66 -239.83 2720.7
228.97 -243.28 2759.9
233.52 -240.60 2729.5
241.51 -241.51 2739.8
252.16 -244.95 2778.9
258.93 -244.54 2774.2
261.59 -240.38 2727.0
300.65 -243.38 2761.0
308.93 -244.27 2771.2
326.30 -241.18 2736.1
336.91 -243.72 2764.9
-55.84 -244.31 2692.4
-27.81 -243.35 2681.8
-20.88 -243.63 2684.9
-13.78 -241.19 2658.0
-6.95 -243.09 2679.0
0.00 -245.35 2703.9
6.72 -235.05 2590.3
26.56 -232.42 2561.3
34.18 -239.28 2636.9
41.68 -243.16 2679.7
75.26 -239.47 2639.1
80.98 -236.20 2603.1
88.73 -238.89 2632.7
95.19 -237.97 2622.5
100.82 -235.24 2592.4
107.36 -234.85 2588.2
114.80 -236.36 2604.8
122.42 -238.05 2623.4
128.57 -236.84 2610.1
135.53 -237.17 2613.8
144.94 -241.56 2662.1
150.85 -240.00 2644.9
155.91 -237.25 2614.6
166.50 -242.81 2675.9
180.65 -243.18 2679.9
208.25 -251.34 2769.8
206.04 -240.39 2649.1
227.68 -249.02 2744.3
238.56 -253.02 2788.4
241.71 -248.82 2742.1
246.52 -246.52 2716.7
269.70 -248.41 2737.6
272.82 -244.84 2698.2
279.33 -244.41 2693.5
297.19 -253.70 2795.8
303.81 -253.18 2790.1
-50.35 -258.95 2774.5
-21.06 -252.76 2708.1
-13.64 -245.52 2630.5
-6.86 -246.82 2644.5
0.00 -248.03 2657.5
19.82 -237.80 2547.9
27.39 -246.53 2641.4
54.38 -244.72 2622.0
62.08 -248.33 2660.7
69.11 -248.78 2665.5
75.33 -246.54 2641.5
83.04 -249.12 2669.1
88.54 -245.20 2627.1
92.24 -237.19 2541.3
107.05 -240.85 2580.6
114.73 -242.96 2603.2
122.77 -245.53 2630.7
128.49 -243.46 2608.5
135.03 -243.06 2604.2
141.39 -242.38 2596.9
164.17 -246.26 2638.5
175.23 -252.34 2703.6
182.95 -253.31 2714.1
207.31 -248.77 2665.4
231.38 -252.41 2704.4
236.50 -250.41 2683.0
244.12 -251.09 2690.3
258.44 -258.44 2769.0
277.45 -262.84 2816.2
303.09 -259.80 2783.5
327.57 -256.36 2746.7
336.15 -257.48 2758.7
-70.53 -260.98 2720.6
-62.63 -257.46 2684.0
-55.94 -258.72 2697.0
-34.66 -256.46 2673.5
-28.03 -259.24 2702.5
-21.17 -261.15 2722.4
-13.71 -253.71 2644.8
-6.89 -254.95 2657.8
7.01 -259.53 2705.6
13.40 -247.88 2584.1
20.13 -248.26 2588.0
27.36 -253.12 2638.7
34.89 -258.18 2691.4
47.50 -251.09 2617.6
59.10 -242.95 2532.7
66.38 -245.61 2560.4
72.96 -245.40 2558.2
80.36 -247.77 2582.9
106.98 -247.39 2579.0
116.33 -253.18 2639.3
125.38 -257.73 2686.8
132.58 -258.17 2691.4
137.37 -254.14 2649.3
141.73 -249.72 2603.2
154.95 -249.26 2598.5
163.95 -252.75 2634.8
169.65 -251.09 2617.5
176.41 -251.05 2617.1
187.06 -256.34 2672.2
206.81 -263.86 2750.6
209.27 -258.09 2690.6
218.19 -260.42 2714.8
224.20 -259.23 2702.4
232.09 -260.22 2712.7
236.53 -257.40 2683.3
244.06 -258.01 2689.7
250.61 -257.57 2685.1
269.86 -262.76 2739.2
-64.93 -274.15 2782.8
-57.20 -271.72 2758.1
-43.48 -275.37 2795.1
-34.60 -262.93 2668.9
-27.97 -265.68 2696.8
-20.94 -265.20 2691.9
0.00 -257.66 2615.3
6.97 -264.91 2689.0
13.84 -263.05 2670.0
20.17 -255.49 2593.4
26.67 -253.33 2571.4
33.56 -255.09 2589.2
40.28 -255.08 2589.2
46.26 -251.15 2549.2
79.07 -250.38 2541.5
85.58 -250.17 2539.3
99.39 -251.78 2555.7
108.77 -258.32 2622.1
117.66 -262.99 2669.5
137.75 -261.72 2656.6
144.18 -260.90 2648.3
151.08 -260.96 2648.9
158.64 -262.10 2660.4
165.39 -261.86 2658.0
167.75 -254.97 2588.1
198.47 -260.07 2639.8
215.31 -272.73 2768.3
230.89 -274.18 2783.0
238.98 -275.19 2793.3
243.55 -272.20 2763.0
280.43 -273.24 2773.5
288.68 -274.24 2783.7
288.14 -267.05 2710.7
349.56 -271.09 2751.7
-64.40 -279.08 2760.2
-49.00 -272.98 2699.8
-43.13 -280.33 2772.5
-35.74 -278.73 2756.7
-28.06 -273.61 2706.1
0.00 -262.36 2594.8
6.93 -270.21 2672.4
13.83 -269.70 2667.4
20.20 -262.65 2597.7
26.86 -261.84 2589.7
33.98 -265.05 2621.4
40.93 -266.05 2631.3
47.15 -262.72 2598.3
52.75 -257.17 2543.5
59.72 -258.77 2559.3
66.63 -259.86 2570.0
72.75 -257.93 2551.0
80.72 -262.34 2594.5
88.11 -264.32 2614.2
94.41 -262.99 2601.0
102.49 -266.49 2635.6
109.52 -266.96 2640.3
115.35 -264.62 2617.1
123.79 -268.21 2652.6
130.60 -268.07 2651.3
135.24 -263.72 2608.2
142.09 -263.88 2609.8
147.93 -262.24 2593.6
154.22 -261.50 2586.2
162.94 -264.77 2618.6
168.22 -262.42 2595.3
182.72 -263.93 2610.3
192.84 -268.60 2656.5
219.76 -276.47 2734.3
223.26 -272.10 2691.1
229.00 -270.64 2676.6
245.24 -281.30 2782.1
266.69 -281.10 2780.1
288.40 -281.19 2781.0
293.53 -279.21 2761.4
294.25 -273.24 2702.3
311.98 -282.96 2798.5
322.61 -279.60 2765.2
335.54 -278.43 2753.7
-64.50 -286.68 2764.4
-56.08 -280.41 2703.9
-34.87 -279.00 2690.3
-28.10 -280.97 2709.3
-20.80 -277.36 2674.6
-13.66 -273.14 2633.8
-6.80 -271.80 2620.9
0.00 -277.37 2674.7
6.99 -279.54 2695.5
13.66 -273.14 2633.8
20.19 -269.21 2596.0
27.12 -271.17 2614.8
34.29 -274.36 2645.6
41.35 -275.69 2658.4
48.30 -275.99 2661.3
54.80 -274.01 2642.3
60.58 -269.25 2596.4
66.12 -264.49 2550.5
73.13 -265.92 2564.2
82.34 -274.46 2646.5
90.03 -277.01 2671.2
96.55 -275.85 2660.0
103.47 -275.93 2660.7
109.04 -272.60 2628.7
115.10 -270.82 2611.5
123.89 -275.32 2654.9
147.62 -281.19 2711.5
152.31 -276.93 2670.4
158.02 -274.83 2650.1
166.23 -277.05 2671.5
171.07 -273.71 2639.3
177.08 -272.43 2627.0
188.93 -279.89 2699.0
210.42 -280.56 2705.4
216.03 -278.75 2688.0
226.08 -282.60 2725.1
235.83 -277.44 2675.3
273.56 -287.96 2776.7
306.61 -285.22 2750.3
328.18 -285.38 2751.8
-57.59 -295.16 2776.8
-49.48 -289.78 2726.2
-41.54 -283.88 2670.6
-34.88 -286.00 2690.6
-28.56 -292.78 2754.3
-21.50 -293.84 2764.3
-14.07 -288.35 2712.7
-6.98 -286.03 2690.8
0.00 -288.14 2710.7
6.98 -286.24 2692.8
13.59 -278.62 2621.2
20.00 -273.33 2571.4
26.98 -276.50 2601.2
34.27 -281.04 2643.9
40.79 -278.70 2621.9
47.09 -275.83 2595.0
53.96 -276.56 2601.8
60.22 -274.33 2580.8
66.49 -272.62 2564.7
74.44 -277.46 2610.2
82.81 -282.93 2661.7
89.54 -282.38 2656.5
95.66 -280.14 2635.4
102.25 -279.48 2629.2
108.10 -277.02 2606.1
114.45 -276.04 2596.9
124.74 -284.14 2673.0
142.02 -277.27 2608.5
150.40 -280.29 2636.9
161.59 -288.06 2709.9
175.97 -288.60 2715.0
179.37 -282.85 2661.0
187.90 -285.34 2684.3
195.91 -286.87 2698.7
197.57 -279.33 2627.8
214.46 -283.64 2668.4
230.21 -294.96 2774.9
237.86 -286.83 2698.4
249.56 -292.34 2750.3
271.73 -293.18 2758.2
280.31 -294.69 2772.3
296.42 -296.42 2788.7
319.79 -291.37 2741.1
-65.74 -306.80 2817.6
-57.27 -300.65 2761.1
-50.44 -302.62 2779.1
-43.19 -302.30 2776.3
-35.90 -301.56 2769.4
-29.13 -305.90 2809.2
-7.12 -299.09 2746.8
0.00 -296.93 2726.9
7.02 -294.65 2706.0
13.63 -286.31 2629.4
20.53 -287.39 2639.3
34.89 -293.11 2691.9
40.45 -283.15 2600.3
46.79 -280.75 2578.3
53.78 -282.36 2593.1
60.20 -280.94 2580.1
66.68 -280.06 2571.9
73.37 -280.14 2572.8
80.25 -280.88 2579.5
87.40 -282.37 2593.2
94.19 -282.56 2595.0
102.57 -287.19 2637.4
110.59 -290.29 2666.0
116.83 -288.64 2650.8
139.20 -292.32 2684.5
141.17 -282.33 2592.9
151.43 -289.10 2655.0
215.84 -292.42 2685.5
220.37 -289.23 2656.2
237.04 -301.68 2770.6
266.69 -294.76 2707.0
270.14 -290.91 2671.7
280.07 -294.07 2700.6
-64.84 -309.81 2779.0
-57.23 -307.61 2759.3
-51.00 -313.28 2810.1
-14.43 -310.22 2782.7
-7.04 -302.69 2715.2
0.00 -301.92 2708.2
7.01 -301.47 2704.2
13.71 -294.82 2644.6
20.80 -298.14 2674.4
41.23 -295.46 2650.3
47.84 -293.89 2636.2
55.07 -295.98 2655.0
61.64 -294.53 2641.9
67.82 -291.63 2615.9
74.26 -290.28 2603.8
80.51 -288.48 2587.7
86.87 -287.35 2577.6
93.55 -287.33 2577.3
102.00 -292.39 2622.8
110.97 -298.23 2675.1
118.20 -298.97 2681.8
144.80 -296.50 2659.6
149.18 -291.59 2615.6
165.35 -296.25 2657.4
175.94 -302.62 2714.5
182.41 -301.68 2706.1
191.76 -305.39 2739.4
215.54 -298.97 2681.8
232.73 -303.26 2720.3
266.30 -309.49 2776.1
281.32 -302.42 2712.7
295.01 -302.04 2709.3
310.10 -310.10 2781.6
317.56 -310.34 2783.8
-64.99 -317.72 2785.2
-57.32 -315.24 2763.5
-51.06 -320.92 2813.3
-14.52 -319.50 2800.8
-6.93 -304.77 2671.7
0.00 -298.08 2613.1
7.03 -309.19 2710.4
14.25 -313.60 2749.1
20.52 -300.91 2637.8
27.18 -298.97 2620.9
61.30 -299.70 2627.3
66.00 -290.39 2545.6
73.53 -294.11 2578.2
81.16 -297.60 2608.8
86.45 -292.59 2564.9
99.38 -291.52 2555.5
107.40 -295.34 2589.0
116.94 -302.67 2653.2
140.10 -308.21 2701.9
142.17 -297.87 2611.2
171.71 -302.22 2649.3
182.09 -308.16 2701.4
191.21 -311.61 2731.6
216.66 -317.76 2785.6
214.36 -304.25 2667.2
235.30 -304.51 2669.4
241.09 -303.09 2656.9
258.92 -307.91 2699.2
271.11 -313.92 2751.9
290.51 -311.76 2733.0
298.26 -312.47 2739.1
308.91 -316.10 2771.0
-57.73 -324.74 2783.5
-49.92 -320.94 2750.9
-43.64 -327.32 2805.6
-29.11 -327.46 2806.8
-21.04 -315.53 2704.6
-14.33 -322.38 2763.2
-7.11 -319.83 2741.4
13.88 -312.29 2676.8
20.53 -308.00 2640.0
27.36 -307.76 2638.0
47.24 -303.67 2602.9
66.60 -299.68 2568.7
79.60 -298.48 2558.4
99.97 -299.91 2570.6
108.89 -306.24 2625.0
128.09 -303.36 2600.2
141.96 -304.21 2607.5
151.47 -309.83 2655.7
159.64 -312.33 2677.1
164.88 -309.16 2649.9
174.68 -314.43 2695.1
214.06 -310.73 2663.4
221.66 -311.71 2671.8
234.19 -309.95 2656.7
257.33 -312.97 2682.6
272.89 -323.15 2769.9
294.41 -323.13 2769.7
297.27 -311.09 2666.5
-43.37 -332.48 2787.9
-28.48 -327.53 2746.4
-14.25 -327.78 2748.5
-7.14 -328.38 2753.5
27.88 -320.66 2688.8
39.88 -305.72 2563.5
54.52 -313.51 2628.8
69.20 -318.33 2669.2
99.71 -305.77 2563.9
117.61 -318.25 2668.5
156.45 -312.91 2623.8
168.84 -323.62 2713.6
172.96 -318.25 2668.5
179.51 -317.60 2663.1
188.81 -321.68 2697.3
195.91 -321.86 2698.8
200.34 -317.78 2664.6
216.22 -320.85 2690.3
244.45 -321.27 2693.9
264.04 -319.63 2680.1
280.81 -331.21 2777.3
300.02 -328.60 2755.3
298.61 -319.44 2678.5
-79.21 -338.42 2777.3
-50.61 -339.83 2788.9
-43.57 -341.30 2800.9
-36.04 -338.77 2780.2
-28.44 -334.19 2742.6
-21.15 -331.29 2718.8
-14.45 -339.52 2786.4
-7.19 -337.83 2772.5
0.00 -336.02 2757.6
7.14 -335.66 2754.6
13.51 -317.39 2604.7
20.10 -314.84 2583.8
27.07 -318.10 2610.6
46.98 -315.41 2588.4
54.42 -319.74 2624.0
61.92 -323.35 2653.7
69.10 -324.78 2665.4
73.60 -314.48 2580.9
117.31 -324.34 2661.7
120.04 -313.43 2572.2
136.01 -319.63 2623.1
144.04 -322.36 2645.5
158.30 -323.48 2654.7
169.41 -331.76 2722.6
172.20 -323.74 2656.8
193.12 -324.17 2660.4
201.40 -326.40 2678.7
287.85 -338.22 2775.7
-43.34 -346.72 2786.2
-36.14 -346.98 2788.3
-28.74 -344.89 2771.5
-7.24 -347.38 2791.5
20.56 -328.97 2643.5
40.01 -320.05 2571.9
47.36 -324.73 2609.4
54.45 -326.69 2625.2
61.04 -325.56 2616.1
67.41 -323.57 2600.1
75.08 -327.62 2632.6
81.74 -326.97 2627.5
86.91 -320.90 2578.7
124.02 -330.73 2657.6
168.25 -336.49 2704.0
175.68 -337.30 2710.4
205.77 -329.24 2645.7
271.15 -333.73 2681.7
278.96 -334.75 2689.9
-72.89 -357.16 2811.5
-42.91 -350.43 2758.5
-14.47 -354.63 2791.5
-7.27 -356.14 2803.5
27.18 -332.94 2620.8
33.77 -330.91 2604.8
41.32 -337.45 2656.3
53.44 -327.34 2576.7
95.50 -334.25 2631.1
100.65 -328.80 2588.3
127.41 -346.83 2730.1
162.04 -345.21 2717.4
176.20 -345.35 2718.5
242.34 -339.27 2670.7
-58.46 -365.40 2818.8
-50.85 -363.23 2802.1
-43.44 -361.97 2792.3
-28.77 -359.68 2774.6
-7.17 -358.28 2763.9
7.09 -354.68 2736.1
14.36 -359.05 2769.8
20.42 -340.40 2626.0
40.54 -337.80 2605.9
66.65 -333.23 2570.6
149.34 -355.58 2743.0
152.70 -347.06 2677.3
180.69 -347.48 2680.5
-58.30 -371.67 2810.9
-50.98 -371.42 2809.1
-29.02 -370.02 2798.5
-21.84 -371.21 2807.5
-14.49 -369.51 2794.6
20.29 -345.00 2609.2
40.89 -347.59 2628.8
