ply
format ascii 1.0
element vertex 2154
property float x
property float y
property float z
end_header
-850.35 233.09 1664.9
-832.97 229.49 1639.2
-831.37 230.23 1644.5
-830.63 231.21 1651.5
-818.76 229.08 1636.3
-808.71 227.45 1624.7
-817.65 231.17 1651.2
-819.45 232.90 1663.6
-806.36 230.39 1645.6
-801.16 230.12 1643.7
-808.96 233.60 1668.6
-814.92 236.59 1689.9
-815.63 238.08 1700.5
-818.01 240.07 1714.8
-817.35 241.18 1722.7
-811.14 240.67 1719.1
-804.11 239.90 1713.6
-805.06 241.52 1725.1
-824.34 248.68 1776.3
-837.99 254.22 1815.9
-829.95 253.21 1808.6
-828.53 254.21 1815.8
-851.26 262.67 1876.2
-1204.56 224.80 1636.0
-1164.16 218.02 1586.7
-1145.04 215.20 1566.2
-1091.46 205.86 1498.2
-1049.20 198.60 1445.3
-1043.23 198.18 1442.2
-1032.62 196.87 1432.7
-1019.72 195.11 1419.9
-1018.43 195.57 1423.3
-1022.89 197.14 1434.7
-1035.94 200.38 1458.3
-1049.48 203.75 1482.8
-1044.61 203.55 1481.3
-1030.60 201.56 1466.9
-1026.89 201.58 1467.0
-1019.77 200.92 1462.2
-988.85 195.56 1423.2
-981.25 194.78 1417.5
-1006.96 200.63 1460.1
-1011.12 202.22 1471.7
-1000.09 200.78 1461.2
-996.93 200.90 1462.1
-996.56 201.59 1467.1
-994.49 201.95 1469.7
-970.76 197.88 1440.1
-952.11 194.83 1417.9
-965.02 198.24 1442.7
-983.90 202.91 1476.7
-995.51 206.10 1499.9
-996.08 207.03 1506.7
-986.79 205.90 1498.5
-989.51 207.29 1508.6
-1006.31 211.65 1540.3
-1006.20 212.47 1546.2
-985.00 208.82 1519.7
-962.80 204.93 1491.4
-965.43 206.32 1501.5
-981.94 210.70 1533.4
-980.70 211.29 1537.7
-971.99 210.27 1530.2
-955.87 207.63 1511.0
-944.05 205.90 1498.5
-943.89 206.72 1504.4
-934.75 205.57 1496.0
-921.97 203.60 1481.7
-927.56 205.69 1497.0
-944.03 210.22 1529.9
-941.14 210.47 1531.7
-924.24 207.56 1510.6
-910.00 205.23 1493.6
-908.70 205.82 1497.9
-938.71 213.53 1554.0
-966.96 220.90 1607.6
-971.03 222.79 1621.4
-960.79 221.40 1611.3
-939.44 217.42 1582.3
-917.69 213.32 1552.5
-904.61 211.21 1537.1
-908.16 212.98 1550.0
-912.65 214.98 1564.6
-923.07 218.41 1589.5
-929.91 221.01 1608.4
-918.35 219.24 1595.6
-906.83 217.47 1582.7
-895.85 215.82 1570.6
-894.72 216.53 1575.8
-906.75 220.45 1604.3
-905.04 221.05 1608.7
-886.33 217.48 1582.7
-870.14 214.50 1561.0
-869.92 215.45 1567.9
-878.79 218.67 1591.4
-879.44 219.86 1600.1
-873.37 219.38 1596.6
-863.05 217.82 1585.2
-854.66 216.73 1577.3
-868.44 221.29 1610.4
-880.21 225.37 1640.1
-879.23 226.21 1646.3
-868.90 224.64 1634.9
-855.36 222.23 1617.3
-859.47 224.39 1633.0
-857.51 224.99 1637.4
-844.53 222.69 1620.6
-843.95 223.65 1627.6
-860.18 229.09 1667.2
-854.48 228.72 1664.6
-819.44 220.46 1604.4
-812.97 219.84 1599.9
-823.54 223.83 1629.0
-811.69 221.75 1613.8
-788.79 216.61 1576.4
-802.75 221.59 1612.7
-835.06 231.72 1686.4
-832.41 232.20 1689.8
-815.33 228.64 1663.9
-803.57 226.54 1648.7
-804.86 228.11 1660.1
-808.25 230.31 1676.1
-806.00 230.91 1680.5
-805.00 231.88 1687.5
-800.57 231.86 1687.4
-811.38 236.28 1719.6
-820.78 240.34 1749.1
-807.82 237.86 1731.0
-812.05 240.44 1749.8
-833.25 248.10 1805.6
-835.58 250.20 1820.9
-818.89 246.60 1794.6
-823.22 249.32 1814.4
-844.60 257.26 1872.3
-1212.50 222.01 1646.8
-1174.42 215.80 1600.7
-1158.80 213.68 1585.0
-1091.71 202.02 1498.5
-1037.17 192.62 1428.8
-1044.05 194.59 1443.4
-1045.64 195.59 1450.8
-1040.25 195.28 1448.5
-1047.00 197.26 1463.2
-1034.09 195.54 1450.4
-1031.00 195.66 1451.4
-1035.95 197.32 1463.7
-1023.66 195.70 1451.6
-1019.98 195.72 1451.7
-1025.99 197.60 1465.7
-1036.50 200.36 1486.2
-1023.11 198.51 1472.5
-988.84 192.58 1428.5
-987.45 193.03 1431.8
-1016.43 199.45 1479.4
-1030.64 203.01 1505.8
-1015.09 200.70 1488.7
-1002.94 199.06 1476.5
-1006.43 200.51 1487.3
-988.21 197.64 1466.0
-961.20 192.98 1431.5
-965.25 194.55 1443.1
-973.12 196.90 1460.5
-974.87 198.02 1468.8
-980.98 200.04 1483.8
-977.74 200.17 1484.8
-977.21 200.85 1489.8
-991.34 204.56 1517.4
-1005.36 208.28 1545.0
-999.29 207.85 1541.8
-982.44 205.17 1521.9
-990.38 207.66 1540.3
-993.97 209.26 1552.2
-978.81 206.90 1534.7
-980.75 208.16 1544.0
-976.29 208.06 1543.3
-961.76 205.81 1526.6
-958.91 206.05 1528.4
-953.94 205.83 1526.8
-944.77 204.70 1518.4
-941.39 204.82 1519.3
-947.92 207.11 1536.2
-947.62 207.92 1542.2
-933.81 205.75 1526.2
-923.15 204.27 1515.2
-925.42 205.65 1525.4
-939.46 209.67 1555.2
-951.85 213.35 1582.5
-946.27 213.01 1580.0
-925.94 209.34 1552.8
-918.89 208.66 1547.7
-910.85 207.74 1540.9
-902.33 206.70 1533.2
-909.40 209.24 1552.1
-914.89 211.44 1568.4
-925.81 214.92 1594.2
-934.63 217.94 1616.6
-925.03 216.67 1607.2
-917.93 215.98 1602.1
-910.85 215.29 1596.9
-892.99 212.03 1572.8
-887.93 211.80 1571.1
-893.59 214.13 1588.4
-882.20 212.38 1575.4
-871.82 210.86 1564.1
-877.86 213.31 1582.3
-885.27 216.12 1603.1
-883.50 216.71 1607.4
-874.56 215.53 1598.7
-863.28 213.76 1585.6
-854.89 212.70 1577.7
-869.15 217.29 1611.7
-872.46 219.17 1625.7
-863.09 217.87 1616.1
-872.40 221.29 1641.4
-879.27 224.13 1662.5
-874.50 224.01 1661.6
-862.82 222.11 1647.5
-846.14 218.90 1623.7
-840.98 218.66 1621.9
-851.31 222.45 1650.1
-838.84 220.30 1634.1
-809.73 213.74 1585.4
-809.60 214.79 1593.2
-829.15 221.11 1640.1
-825.74 221.33 1641.8
-802.34 216.17 1603.5
-816.69 221.19 1640.7
-842.78 229.45 1702.0
-834.39 228.36 1693.9
-824.73 226.91 1683.1
-820.32 226.90 1683.0
-818.08 227.49 1687.4
-817.97 228.68 1696.2
-803.22 225.77 1674.7
-789.84 223.22 1655.7
-791.01 224.77 1667.2
-807.37 230.68 1711.1
-829.03 238.17 1766.7
-829.04 239.50 1776.5
-823.98 239.37 1775.5
-836.40 244.34 1812.4
-839.54 246.65 1829.5
-825.31 243.84 1808.7
-821.41 244.08 1810.4
-833.82 249.19 1848.4
-1230.57 221.76 1677.2
-1203.66 217.68 1646.3
-1125.32 204.24 1544.7
-1060.77 193.21 1461.3
-1058.27 193.45 1463.0
-1070.88 196.46 1485.8
-1077.60 198.40 1500.5
-1051.29 194.26 1469.2
-1008.35 187.00 1414.3
-1011.66 188.30 1424.1
-1022.97 191.10 1445.3
-1014.73 190.26 1438.9
-1016.22 191.24 1446.4
-1019.96 192.66 1457.1
-1027.07 194.72 1472.7
-1022.21 194.53 1471.2
-995.29 190.11 1437.8
-989.37 189.69 1434.6
-1014.97 195.33 1477.3
-1010.11 195.13 1475.8
-976.68 189.39 1432.4
-985.30 191.79 1450.6
-1009.45 197.25 1491.8
-1007.33 197.59 1494.4
-995.23 195.97 1482.1
-992.56 196.20 1483.9
-992.64 196.98 1489.8
-981.15 195.46 1478.3
-973.54 194.71 1472.6
-984.53 197.68 1495.1
-999.25 201.43 1523.4
-987.77 199.91 1511.9
-975.25 198.16 1498.7
-980.61 200.04 1512.9
-975.13 199.73 1510.5
-969.66 199.41 1508.1
-959.91 198.20 1499.0
-951.26 197.21 1491.5
-960.74 199.99 1512.5
-980.25 204.89 1549.6
-990.60 207.90 1572.4
-979.74 206.47 1561.6
-966.81 204.59 1547.4
-960.76 204.16 1544.1
-960.47 204.95 1550.1
-964.85 206.75 1563.7
-961.90 206.99 1565.5
-954.78 206.33 1560.5
-951.30 206.45 1561.4
-942.15 205.34 1553.0
-944.84 206.81 1564.1
-947.99 208.40 1576.1
-933.23 206.04 1558.3
-923.12 204.69 1548.1
-927.24 206.50 1561.8
-929.79 207.98 1572.9
-930.27 209.00 1580.7
-932.23 210.37 1591.0
-931.65 211.17 1597.1
-933.53 212.54 1607.5
-932.38 213.24 1612.7
-922.29 211.88 1602.4
-914.71 211.09 1596.5
-903.21 209.38 1583.5
-882.43 205.50 1554.2
-880.34 205.95 1557.6
-888.96 208.93 1580.1
-876.12 206.86 1564.5
-864.31 205.02 1550.6
-874.72 208.46 1576.6
-887.42 212.48 1607.0
-872.73 209.95 1587.8
-851.43 205.80 1556.4
-858.28 208.44 1576.4
-868.36 211.90 1602.6
-865.60 212.24 1605.2
-851.09 209.69 1585.9
-841.80 208.41 1576.2
-851.65 211.87 1602.4
-860.47 215.12 1626.9
-857.16 215.34 1628.7
-846.00 213.59 1615.4
-828.92 210.32 1590.7
-837.55 213.58 1615.3
-862.92 221.15 1672.6
-853.13 219.75 1661.9
-826.66 214.01 1618.6
-809.82 210.72 1593.7
-813.69 212.81 1609.5
-826.86 217.37 1644.0
-818.55 216.30 1635.9
-808.06 214.64 1623.3
-810.84 216.51 1637.5
-819.70 220.03 1664.1
-826.26 222.96 1686.3
-819.68 222.36 1681.7
-816.14 222.58 1683.4
-819.92 224.82 1700.3
-809.45 223.15 1687.7
-797.33 221.00 1671.4
-799.74 222.88 1685.6
-804.63 225.47 1705.3
-814.92 229.62 1736.6
-817.93 231.75 1752.7
-815.85 232.45 1758.0
-829.56 237.68 1797.6
-834.81 240.54 1819.2
-817.30 236.83 1791.2
-808.51 235.62 1782.0
-834.47 244.59 1849.8
-1229.66 217.25 1676.0
-1200.40 212.84 1641.9
-1147.82 204.24 1575.6
-1105.99 197.50 1523.6
-1085.90 194.61 1501.2
-1083.90 194.95 1503.9
-1079.58 194.87 1503.3
-1042.27 188.82 1456.6
-1025.89 186.53 1438.9
-1055.65 192.64 1486.1
-1059.39 194.03 1496.8
-1044.75 192.05 1481.5
-1038.74 191.65 1478.4
-1036.15 191.88 1480.2
-1039.82 193.27 1491.0
-1032.66 192.66 1486.2
-1007.40 188.65 1455.3
-1003.14 188.56 1454.6
-1008.45 190.27 1467.8
-983.94 186.35 1437.6
-974.91 186.05 1435.3
-999.09 191.40 1476.5
-996.45 191.62 1478.2
-986.59 190.46 1469.3
-985.05 190.90 1472.7
-993.42 193.27 1491.0
-989.08 193.18 1490.2
-972.67 190.72 1471.3
-973.82 191.70 1478.8
-997.30 197.10 1520.5
-993.99 197.22 1521.4
-972.22 193.67 1494.0
-967.86 193.57 1493.3
-970.51 194.88 1503.4
-974.73 196.52 1516.0
-965.50 195.44 1507.7
-957.90 194.69 1501.9
-960.44 196.01 1512.1
-973.04 199.39 1538.2
-982.89 202.24 1560.1
-972.05 200.84 1549.3
-957.04 198.56 1531.7
-948.91 197.69 1525.0
-935.57 195.73 1509.9
-927.51 194.85 1503.2
-964.73 203.53 1570.1
-969.12 206.20 1590.7
-935.68 199.93 1542.3
-941.47 202.03 1558.5
-947.71 204.25 1575.6
-927.84 200.83 1549.3
-911.64 198.18 1528.8
-922.39 201.40 1553.6
-933.05 204.62 1578.5
-923.95 203.51 1570.0
-916.39 202.74 1564.0
-919.36 204.30 1576.0
-923.78 206.20 1590.7
-926.65 207.77 1602.8
-920.54 207.33 1599.4
-907.03 205.21 1583.1
-890.63 202.42 1561.5
-881.67 201.30 1552.8
-892.30 204.66 1578.8
-903.80 208.25 1606.5
-892.85 206.68 1594.4
-881.46 204.99 1581.4
-891.81 208.37 1607.4
-899.18 211.07 1628.3
-878.69 207.24 1598.7
-853.56 202.26 1560.3
-856.60 203.95 1573.4
-868.59 207.80 1603.0
-866.30 208.25 1606.5
-866.35 209.26 1614.3
-871.50 211.53 1631.8
-857.94 209.25 1614.2
-843.51 206.74 1594.9
-846.28 208.44 1608.0
-841.15 208.21 1606.2
-823.63 204.88 1580.5
-832.74 208.19 1606.0
-860.42 216.19 1667.7
-851.54 215.04 1658.8
-827.79 210.10 1620.8
-815.89 208.13 1605.6
-791.95 203.06 1566.5
-803.66 208.20 1606.1
-825.10 214.87 1657.6
-819.44 214.51 1654.8
-820.36 215.89 1665.4
-822.99 217.72 1679.6
-811.63 215.86 1665.2
-795.13 212.60 1640.1
-787.35 211.65 1632.8
-796.36 215.23 1660.4
-802.25 218.00 1681.7
-805.07 219.96 1696.9
-810.36 222.63 1717.4
-811.77 224.25 1729.9
-805.56 223.77 1726.2
-802.28 224.10 1728.8
-814.81 228.88 1765.6
-823.86 232.73 1795.3
-810.93 230.38 1777.2
-809.97 231.42 1785.2
-843.28 242.32 1869.3
-1220.96 210.66 1658.2
-1204.62 208.57 1641.8
-1178.93 204.85 1612.5
-1129.91 197.03 1551.0
-1095.13 191.65 1508.6
-1081.47 189.94 1495.1
-1064.36 187.60 1476.8
-1045.58 184.96 1455.9
-1047.12 185.90 1463.4
-1068.27 190.35 1498.4
-1081.23 193.36 1522.1
-1070.54 192.15 1512.5
-1057.02 190.42 1498.9
-1052.12 190.24 1497.5
-1039.81 188.71 1485.4
-1035.50 188.62 1484.8
-1033.46 188.95 1487.4
-1013.85 186.06 1464.6
-1009.58 185.97 1463.9
-1014.31 187.55 1476.3
-1017.31 188.82 1486.3
-1018.59 189.77 1493.9
-1005.31 188.02 1480.0
-997.65 187.30 1474.4
-999.45 188.36 1482.7
-995.13 188.27 1482.0
-983.62 186.81 1470.5
-982.62 187.35 1474.7
-995.90 190.62 1500.5
-995.38 191.27 1505.6
-989.91 190.97 1503.2
-1006.26 194.89 1534.1
-1005.09 195.43 1538.4
-986.01 192.49 1515.2
-983.77 192.82 1517.8
-988.53 194.53 1531.3
-990.55 195.71 1540.6
-978.06 194.03 1527.3
-969.88 193.19 1520.7
-971.33 194.27 1529.2
-970.61 194.92 1534.3
-966.16 194.82 1533.6
-961.71 194.73 1532.8
-953.58 193.88 1526.2
-951.24 194.21 1528.8
-942.08 193.15 1520.4
-932.43 191.97 1511.1
-968.09 200.15 1575.5
-991.05 205.77 1619.7
-953.83 198.88 1565.6
-928.68 194.47 1530.8
-942.21 198.15 1559.8
-942.82 199.13 1567.5
-916.83 194.48 1530.9
-910.33 193.94 1526.6
-931.75 199.37 1569.4
-924.68 198.73 1564.3
-898.46 193.94 1526.7
-900.03 195.14 1536.1
-912.07 198.63 1563.6
-916.52 200.49 1578.2
-918.92 201.91 1589.4
-904.41 199.62 1571.4
-882.06 195.57 1539.5
-892.82 198.86 1565.3
-911.34 203.91 1605.1
-898.39 201.93 1589.6
-885.99 200.06 1574.8
-895.50 203.15 1599.1
-903.46 205.90 1620.8
-893.00 204.47 1609.5
-878.74 202.15 1591.3
-883.22 204.14 1606.9
-882.87 205.03 1613.9
-878.68 205.03 1613.9
-882.54 206.91 1628.7
-875.48 206.24 1623.5
-871.27 206.24 1623.5
-883.90 210.25 1655.0
-878.21 209.91 1652.4
-863.70 207.46 1633.1
-867.32 209.35 1648.0
-863.04 209.35 1647.9
-846.35 206.32 1624.1
-846.22 207.32 1632.0
-864.28 212.81 1675.2
-860.38 212.92 1676.1
-842.01 209.43 1648.6
-830.50 207.63 1634.4
-806.95 202.77 1596.2
-787.56 198.92 1565.8
-806.54 204.77 1611.9
-825.32 210.63 1658.0
-816.13 209.37 1648.1
-825.85 212.98 1676.5
-836.76 216.94 1707.7
-833.18 217.16 1709.4
-824.38 216.01 1700.4
-799.65 210.66 1658.3
-793.13 210.07 1653.6
-801.61 213.47 1680.4
-806.99 216.08 1700.9
-810.58 218.23 1717.9
-809.88 219.25 1725.9
-811.23 220.84 1738.4
-815.88 223.34 1758.1
-813.36 223.90 1762.5
-807.51 223.55 1759.7
-813.62 226.52 1783.1
-834.82 233.75 1840.0
-843.51 237.54 1869.8
-841.49 238.34 1876.2
-1207.22 204.76 1645.4
-1150.99 195.91 1574.3
-1122.53 191.75 1540.8
-1105.29 189.48 1522.6
-1086.95 187.00 1502.7
-1065.17 183.91 1477.9
-1046.96 181.42 1457.9
-1048.50 182.35 1465.3
-1059.26 184.89 1485.7
-1064.18 186.43 1498.1
-1055.26 185.54 1490.9
-1043.49 184.15 1479.7
-1052.92 186.49 1498.6
-1054.86 187.53 1506.9
-1035.72 184.81 1485.1
-1019.49 182.60 1467.3
-1015.77 182.61 1467.4
-1027.30 185.38 1489.6
-1028.61 186.31 1497.2
-1028.20 186.95 1502.2
-1026.10 187.27 1504.9
-1009.44 184.94 1486.1
-1004.56 184.75 1484.6
-1009.68 186.40 1497.9
-1005.89 186.42 1498.0
-995.45 185.20 1488.2
-989.46 184.80 1485.0
-997.22 186.98 1502.5
-993.95 187.10 1503.5
-985.75 186.28 1496.9
-1000.49 189.82 1525.3
-997.70 190.04 1527.1
-967.79 185.07 1487.2
-954.24 183.21 1472.3
-970.42 187.07 1503.2
-982.71 190.20 1528.4
-979.35 190.32 1529.4
-978.66 190.96 1534.5
-976.88 191.39 1538.0
-972.96 191.40 1538.1
-980.17 193.61 1555.8
-987.83 195.93 1574.5
-985.94 196.37 1578.0
-988.76 197.75 1589.1
-972.68 195.35 1569.8
-955.62 192.73 1548.7
-970.40 196.54 1579.3
-973.11 197.92 1590.4
-966.99 197.51 1587.2
-974.80 199.96 1606.8
-971.23 200.08 1607.8
-953.29 197.23 1584.9
-935.95 194.48 1562.8
-938.05 195.77 1573.1
-952.79 199.71 1604.8
-940.08 197.91 1590.4
-904.23 191.20 1536.4
-896.73 190.46 1530.4
-917.30 195.69 1572.5
-929.72 199.23 1600.9
-931.08 200.41 1610.5
-915.04 197.85 1589.8
-893.14 193.99 1558.8
-904.86 197.42 1586.4
-924.81 202.70 1628.8
-912.31 200.88 1614.2
-891.57 197.21 1584.8
-893.29 198.51 1595.2
-893.03 199.37 1602.1
-873.93 196.02 1575.2
-865.50 195.04 1567.3
-875.78 198.29 1593.4
-883.56 201.00 1615.2
-886.50 202.63 1628.3
-896.02 205.78 1653.6
-895.52 206.66 1660.6
-874.30 202.74 1629.1
-869.14 202.52 1627.4
-879.83 206.01 1655.4
-883.90 207.98 1671.2
-883.74 208.96 1679.2
-876.17 208.20 1673.0
-858.51 205.02 1647.5
-856.96 205.67 1652.7
-862.23 207.97 1671.2
-844.26 204.67 1644.7
-835.90 203.67 1636.6
-833.87 204.21 1641.0
-830.02 204.31 1641.8
-828.40 204.97 1647.0
-823.65 204.84 1646.1
-818.89 204.72 1645.1
-808.40 203.16 1632.5
-818.16 206.69 1660.9
-837.85 212.79 1709.9
-843.84 215.45 1731.3
-837.16 214.89 1726.8
-814.96 210.31 1690.0
-798.50 207.18 1664.8
-798.83 208.39 1674.6
-799.96 209.83 1686.1
-799.34 210.82 1694.1
-799.11 211.92 1702.9
-801.36 213.70 1717.2
-810.24 217.27 1745.9
-813.58 219.39 1763.0
-807.31 218.93 1759.3
-812.60 221.62 1780.9
-816.97 224.08 1800.7
-807.37 222.72 1789.7
-828.71 229.93 1847.7
-1217.48 202.20 1659.4
-1170.02 195.00 1600.3
-1149.14 192.20 1577.4
-1110.78 186.45 1530.2
-1072.59 180.69 1482.8
-1050.27 177.56 1457.2
-1032.09 175.12 1437.2
-1029.61 175.33 1438.9
-1036.95 177.22 1454.4
-1039.04 178.23 1462.7
-1026.73 176.76 1450.6
-1020.20 176.28 1446.7
-1035.41 179.57 1473.7
-1046.53 182.17 1495.0
-1036.51 181.10 1486.2
-1031.63 180.92 1484.8
-1039.21 182.93 1501.3
-1033.17 182.55 1498.2
-1018.69 180.67 1482.7
-1018.31 181.29 1487.8
-1016.79 181.71 1491.2
-1001.27 179.62 1474.1
-998.08 179.73 1475.0
-1007.12 182.06 1494.1
-1007.77 182.88 1500.8
-994.56 181.18 1486.9
-983.05 179.78 1475.4
-982.59 180.40 1480.5
-970.03 178.79 1467.3
-975.58 180.52 1481.5
-1003.44 186.41 1529.8
-1009.35 188.25 1544.9
-988.62 185.12 1519.2
-963.65 181.17 1486.8
-967.94 182.70 1499.4
-984.54 186.59 1531.3
-984.94 187.42 1538.1
-967.65 184.88 1517.2
-949.90 182.23 1495.5
-957.76 184.49 1514.0
-976.15 188.80 1549.4
-983.83 191.07 1568.1
-980.37 191.19 1569.1
-981.63 192.24 1577.6
-964.52 189.67 1556.6
-946.44 186.90 1533.8
-960.72 190.52 1563.6
-980.61 195.29 1602.7
-993.09 198.62 1630.0
-980.70 196.98 1616.5
-957.57 193.16 1585.2
-944.29 191.30 1569.9
-932.08 189.64 1556.4
-927.57 189.55 1555.5
-935.75 192.05 1576.1
-946.88 195.19 1601.9
-936.22 193.84 1590.8
-911.02 189.46 1554.8
-914.51 191.03 1567.7
-905.97 190.09 1560.0
-886.01 186.74 1532.5
-911.78 193.04 1584.2
-931.92 198.19 1626.5
-926.26 197.88 1624.0
-928.47 199.26 1635.3
-919.87 198.32 1627.5
-904.46 195.90 1607.7
-896.42 195.05 1600.8
-885.50 193.57 1588.6
-887.17 194.84 1599.0
-898.88 198.34 1627.8
-906.65 201.00 1649.6
-910.50 202.81 1664.4
-900.03 201.44 1653.1
-896.24 201.55 1654.0
-899.51 203.26 1668.1
-880.63 199.95 1640.9
-867.01 197.81 1623.4
-869.78 199.41 1636.5
-875.29 201.66 1655.0
-877.48 203.16 1667.3
-861.16 200.37 1644.4
-835.29 195.32 1602.9
-829.71 194.98 1600.2
-830.99 196.26 1610.7
-832.21 197.55 1621.2
-843.80 201.31 1652.1
-845.34 202.71 1663.6
-844.14 203.46 1669.7
-837.10 202.80 1664.3
-826.08 201.17 1650.9
-829.28 203.00 1666.0
-826.25 203.32 1668.6
-817.05 202.11 1658.7
-819.70 203.84 1672.8
-816.62 204.15 1675.4
-801.39 201.42 1653.0
-807.83 204.13 1675.2
-818.91 208.05 1707.4
-807.16 206.18 1692.0
-797.18 204.74 1680.2
-784.70 202.64 1663.0
-772.72 200.65 1646.7
-781.39 204.03 1674.4
-797.90 209.50 1719.3
-809.63 213.78 1754.4
-812.08 215.64 1769.7
-804.97 214.96 1764.1
-794.60 213.41 1751.4
-798.18 215.60 1769.4
-835.84 227.08 1863.6
-1211.38 197.60 1656.9
-1181.60 193.43 1621.9
-1133.23 186.17 1561.1
-1084.48 178.80 1499.3
-1053.97 174.40 1462.3
-1031.14 171.24 1435.8
-1025.19 170.87 1432.7
-1028.50 172.04 1442.6
-1027.73 172.54 1446.8
-1024.65 172.65 1447.7
-1026.14 173.54 1455.1
-1040.20 176.57 1480.5
-1050.17 178.92 1500.2
-1043.56 178.45 1496.3
-1040.93 178.67 1498.1
-1036.60 178.59 1497.5
-1019.83 176.36 1478.8
-1016.65 176.48 1479.8
-1028.08 179.14 1502.1
-1027.09 179.64 1506.3
-1011.55 177.60 1489.2
-997.74 175.85 1474.5
-996.77 176.35 1478.7
-1015.75 180.40 1512.7
-1019.67 181.80 1524.4
-984.37 176.19 1477.4
-959.14 172.35 1445.1
-967.50 174.53 1463.4
-992.75 179.79 1507.6
-1003.11 182.38 1529.3
-991.61 181.01 1517.8
-1002.40 183.71 1540.4
-1009.86 185.82 1558.1
-997.83 184.34 1545.7
-998.75 185.25 1553.4
-977.10 181.97 1525.8
-938.44 175.48 1471.4
-927.17 174.08 1459.7
-940.95 177.39 1487.4
-964.70 182.62 1531.3
-975.59 185.44 1554.9
-964.24 184.05 1543.2
-957.14 183.45 1538.3
-960.02 184.77 1549.3
-961.80 185.89 1558.7
-959.90 186.31 1562.2
-963.69 187.84 1575.0
-976.75 191.19 1603.2
-964.93 189.69 1590.5
-945.95 186.75 1566.0
-938.35 186.05 1560.1
-938.43 186.87 1566.9
-946.63 189.33 1587.5
-939.52 188.72 1582.5
-934.95 188.63 1581.7
-937.44 189.97 1592.9
-925.81 188.44 1580.1
-918.23 187.73 1574.1
-898.19 184.45 1546.6
-879.24 181.37 1520.8
-906.04 187.74 1574.2
-927.69 193.09 1619.1
-923.52 193.10 1619.2
-922.80 193.83 1625.3
-910.78 192.18 1611.5
-886.14 187.85 1575.1
-869.42 185.15 1552.5
-876.02 187.43 1571.6
-894.13 192.20 1611.6
-898.13 193.96 1626.4
-896.32 194.48 1630.8
-911.67 198.75 1666.6
-913.09 200.01 1677.1
-885.08 194.80 1633.4
-862.91 190.84 1600.2
-861.09 191.35 1604.5
-863.94 192.92 1617.6
-869.99 195.22 1636.9
-877.36 197.84 1658.9
-861.94 195.32 1637.8
-828.61 188.69 1582.2
-811.59 185.74 1557.4
-816.64 187.83 1575.0
-828.46 191.50 1605.8
-842.41 195.71 1641.1
-847.17 197.82 1658.7
-843.29 197.92 1659.5
-829.09 195.58 1640.0
-809.16 191.86 1608.8
-800.47 190.79 1599.8
-805.56 193.00 1618.3
-815.86 196.49 1647.6
-819.01 198.29 1662.6
-801.52 195.08 1635.8
-779.36 190.69 1599.0
-773.39 190.25 1595.2
-789.03 195.14 1636.2
-807.93 200.89 1684.5
-803.94 200.99 1685.3
-806.33 202.68 1699.5
-806.12 203.74 1708.4
-783.47 199.11 1669.6
-780.75 199.53 1673.0
-788.48 202.63 1699.0
-791.09 204.44 1714.2
-791.14 205.61 1724.0
-780.83 204.08 1711.2
-784.95 206.33 1730.1
-805.33 212.90 1785.2
-825.88 219.60 1841.4
-1215.74 194.00 1662.9
-1167.77 187.01 1602.9
-1145.74 184.14 1578.3
-1119.12 180.50 1547.2
-1082.70 175.26 1502.2
-1056.32 171.60 1470.9
-1052.05 171.53 1470.2
-1057.60 173.06 1483.4
-1037.74 170.43 1460.8
-1016.23 167.51 1435.8
-1030.94 170.56 1461.9
-1055.86 175.33 1502.8
-1056.66 176.11 1509.5
-1040.92 174.13 1492.6
-1042.85 175.11 1500.9
-1042.47 175.70 1506.0
-1024.56 173.33 1485.7
-1021.37 173.44 1486.6
-1024.92 174.70 1497.4
-1017.21 174.05 1491.8
-1019.59 175.12 1501.0
-1024.16 176.58 1513.5
-997.53 172.65 1479.9
-989.88 171.99 1474.2
-1011.58 176.44 1512.3
-994.51 174.14 1492.6
-967.05 169.99 1457.0
-972.64 171.64 1471.2
-991.32 175.63 1505.4
-995.13 177.00 1517.1
-978.76 174.78 1498.1
-984.16 176.44 1512.4
-1005.75 181.03 1551.7
-1008.30 182.22 1561.9
-1004.35 182.24 1562.1
-978.39 178.25 1527.8
-957.90 175.23 1501.9
-964.19 177.10 1518.0
-954.99 176.12 1509.6
-955.36 176.92 1516.4
-965.75 179.58 1539.3
-953.38 178.02 1525.9
-953.67 178.81 1532.7
-963.90 181.49 1555.6
-958.88 181.30 1554.0
-949.17 180.22 1544.8
-950.40 181.22 1553.3
-961.95 184.20 1578.9
-964.11 185.41 1589.2
-959.03 185.22 1587.6
-949.33 184.14 1578.3
-947.33 184.54 1581.8
-955.00 186.85 1601.5
-947.34 186.16 1595.7
-920.98 181.77 1558.0
-901.32 178.68 1531.5
-912.44 181.68 1557.3
-925.96 185.19 1587.4
-931.37 187.11 1603.8
-937.70 189.22 1621.9
-927.59 188.02 1611.6
-912.56 185.82 1592.7
-907.96 185.72 1591.9
-906.30 186.23 1596.2
-895.82 184.92 1585.0
-873.66 181.17 1552.9
-870.10 181.27 1553.8
-890.27 186.34 1597.2
-897.72 188.77 1618.0
-890.65 188.16 1612.8
-893.18 189.59 1625.1
-911.89 194.48 1667.0
-910.92 195.20 1673.1
-880.07 189.49 1624.2
-856.03 185.20 1587.4
-853.77 185.60 1590.9
-867.42 189.48 1624.2
-883.27 193.89 1661.9
-879.89 194.09 1663.7
-851.95 188.86 1618.8
-837.58 186.59 1599.3
-841.66 188.43 1615.1
-814.09 183.17 1570.0
-804.00 182.73 1566.2
-807.11 184.36 1580.3
-808.35 185.59 1590.8
-800.57 184.75 1583.5
-798.18 185.14 1587.0
-805.56 187.83 1609.9
-792.02 185.63 1591.1
-785.17 184.99 1585.6
-796.35 188.61 1616.7
-786.40 187.24 1604.9
-776.50 185.86 1593.1
-782.69 188.35 1614.4
-780.59 188.85 1618.7
-782.76 190.40 1632.0
-796.43 194.78 1669.5
-815.48 200.53 1718.8
-827.11 204.51 1752.9
-817.04 203.13 1741.1
-798.19 199.55 1710.4
-789.51 198.48 1701.3
-785.03 198.46 1701.1
-778.07 197.81 1695.5
-779.37 199.27 1708.0
-795.83 204.64 1754.1
-806.76 208.65 1788.4
-816.73 212.44 1821.0
-1225.38 191.19 1676.0
-1162.72 182.06 1596.0
-1130.16 177.60 1556.9
-1098.91 173.30 1519.2
-1057.30 167.34 1467.0
-1051.88 167.08 1464.7
-1067.32 170.15 1491.6
-1072.26 171.56 1503.9
-1052.36 168.99 1481.4
-1019.30 164.28 1440.1
-1023.11 165.50 1450.8
-1033.75 167.84 1471.3
-1018.62 166.00 1455.2
-1017.78 166.48 1459.4
-1034.53 169.85 1488.9
-1032.48 170.15 1491.5
-1012.90 167.55 1468.8
-1017.63 168.96 1481.2
-1028.50 171.42 1502.7
-1017.42 170.21 1492.1
-1017.56 170.89 1498.0
-1030.51 173.73 1522.9
-1012.76 171.39 1502.4
-996.19 169.24 1483.6
-1009.02 172.08 1508.5
-999.13 171.06 1499.5
-978.80 168.23 1474.8
-984.92 169.95 1489.8
-1004.12 173.94 1524.8
-1004.62 174.72 1531.6
-984.95 171.98 1507.6
-978.94 171.61 1504.3
-988.09 173.90 1524.5
-989.61 174.87 1533.0
-984.10 174.60 1530.6
-985.03 175.47 1538.2
-991.83 177.40 1555.1
-996.95 179.04 1569.5
-986.58 177.91 1559.6
-968.29 175.33 1537.0
-959.61 174.47 1529.5
-957.80 174.87 1532.9
-969.13 177.67 1557.5
-976.68 179.81 1576.2
-969.01 179.14 1570.4
-961.36 178.48 1564.6
-963.59 179.65 1574.9
-968.37 181.31 1589.4
-964.84 181.42 1590.4
-962.84 181.82 1593.9
-956.20 181.35 1589.7
-943.96 179.80 1576.2
-941.95 180.20 1579.7
-939.42 180.50 1582.3
-919.16 177.38 1555.0
-902.53 174.94 1533.6
-915.15 178.17 1561.9
-923.66 180.63 1583.4
-924.08 181.52 1591.2
-928.45 183.19 1605.9
-917.37 181.82 1593.9
-910.29 181.23 1588.7
-912.60 182.52 1600.0
-898.65 180.55 1582.7
-875.45 176.70 1549.0
-867.52 175.90 1542.0
-878.57 178.97 1568.9
-895.32 183.23 1606.2
-899.37 184.92 1621.0
-899.02 185.71 1628.0
-909.67 188.80 1655.1
-905.89 188.91 1656.0
-881.16 184.62 1618.5
-878.38 184.92 1621.1
-884.09 187.02 1639.4
-877.96 186.62 1635.9
-887.31 189.52 1661.4
-882.07 189.32 1659.6
-856.37 184.71 1619.2
-852.62 184.80 1620.0
-863.62 188.12 1649.1
-854.27 187.01 1639.3
-810.62 178.34 1563.3
-805.94 180.01 1578.0
-826.57 185.56 1626.6
-819.16 184.84 1620.3
-816.25 185.13 1622.9
-833.35 189.99 1665.5
-829.89 190.18 1667.2
-810.96 186.82 1637.7
-809.29 187.42 1642.9
-813.29 189.34 1659.8
-815.91 190.96 1674.0
-815.86 191.97 1682.8
-808.86 191.34 1677.4
-797.14 189.59 1662.0
-797.05 190.60 1670.8
-808.43 194.38 1704.0
-813.30 196.62 1723.6
-807.94 196.41 1721.7
-795.02 194.34 1703.6
-789.28 194.01 1700.8
-788.14 194.82 1707.9
-784.48 195.01 1709.5
-789.06 197.27 1729.3
-811.23 203.97 1788.0
-829.05 209.64 1837.8
-819.37 208.40 1826.8
-813.80 208.18 1825.0
-1195.19 182.89 1640.6
-1159.63 178.09 1597.5
-1124.80 173.36 1555.0
-1083.70 167.62 1503.6
-1079.96 167.65 1503.8
-1071.58 166.95 1497.5
-1055.12 164.98 1479.9
-1069.29 167.81 1505.3
-1069.55 168.46 1511.1
-1045.12 165.22 1482.0
-1029.37 163.33 1465.1
-1017.67 162.07 1453.8
-1021.40 163.27 1464.6
-1024.51 164.38 1474.5
-1007.75 162.30 1455.8
-1012.53 163.68 1468.2
-1041.51 169.00 1515.9
-1043.89 170.03 1525.2
-1023.79 167.39 1501.5
-1018.88 167.22 1500.0
-1027.92 169.35 1519.1
-1029.10 170.20 1526.7
-1031.92 171.32 1536.8
-1029.15 171.53 1538.6
-1003.75 167.94 1506.5
-983.96 165.27 1482.5
-991.16 167.14 1499.2
-1013.63 171.60 1539.3
-1018.48 173.10 1552.7
-1009.11 172.19 1544.6
-1012.81 173.51 1556.4
-1004.00 172.69 1549.0
-988.20 170.65 1530.8
-975.69 169.17 1517.5
-969.13 168.71 1513.4
-986.14 172.37 1546.2
-1002.49 175.95 1578.3
-1000.63 176.34 1581.8
-990.25 175.23 1571.8
-971.98 172.71 1549.2
-960.64 171.40 1537.5
-971.43 174.05 1561.2
-978.99 176.14 1580.0
-976.53 176.43 1582.6
-973.55 176.64 1584.4
-975.75 177.78 1594.7
-978.42 179.03 1605.9
-961.43 176.67 1584.8
-947.08 174.78 1567.8
-960.00 177.93 1596.1
-968.20 180.23 1616.7
-957.45 179.00 1605.7
-946.23 177.68 1593.8
-935.56 176.44 1582.7
-928.47 175.88 1577.6
-921.39 175.31 1572.5
-909.81 173.88 1559.7
-906.28 173.97 1560.6
-907.73 175.03 1570.1
-903.17 174.94 1569.2
-902.08 175.52 1574.4
-907.87 177.45 1591.7
-896.88 176.10 1579.6
-882.01 173.97 1560.6
-881.37 174.65 1566.6
-885.08 176.20 1580.5
-894.06 178.81 1604.0
-889.91 178.81 1604.0
-881.90 178.04 1597.0
-892.14 180.95 1623.2
-889.85 181.34 1626.7
-880.40 180.27 1617.1
-893.75 183.88 1649.4
-902.24 186.52 1673.1
-898.39 186.62 1674.0
-893.13 186.43 1672.3
-872.93 183.10 1642.4
-849.59 179.08 1606.4
-848.64 179.76 1612.5
-848.58 180.64 1620.3
-827.80 177.09 1588.5
-821.34 176.59 1584.0
-829.95 179.34 1608.7
-822.55 178.63 1602.4
-834.64 182.18 1634.2
-855.16 187.61 1682.9
-847.19 186.82 1675.8
-844.61 187.21 1679.3
-862.94 192.26 1724.6
-862.45 193.15 1732.6
-845.15 190.27 1706.7
-839.38 189.97 1704.0
-838.88 190.86 1712.0
-813.49 186.06 1669.0
-786.97 180.96 1623.2
-805.16 186.14 1669.7
-817.12 189.93 1703.7
-805.38 188.21 1688.3
-805.64 189.30 1698.1
-805.43 190.29 1707.0
-795.88 189.08 1696.0
-790.16 188.76 1693.2
-792.40 190.35 1707.5
-789.58 190.74 1711.0
-782.59 190.12 1705.4
-778.10 190.10 1705.3
-790.05 194.13 1741.3
-823.93 203.61 1826.4
-832.19 206.85 1855.4
-803.46 200.86 1801.8
-797.13 200.45 1798.0
-1160.04 174.63 1603.7
-1132.25 171.06 1571.0
-1110.38 168.36 1546.2
-1086.85 165.39 1518.9
-1042.02 159.14 1461.5
-1030.84 158.01 1451.1
-1062.28 163.43 1500.9
-1067.13 164.78 1513.3
-1037.01 160.72 1476.0
-1013.87 157.71 1448.4
-1024.44 159.95 1468.9
-1034.93 162.19 1489.5
-1026.65 161.49 1483.1
-1038.73 164.01 1506.2
-1051.87 166.71 1531.0
-1039.03 165.30 1518.1
-1003.23 160.21 1471.3
-983.26 157.62 1447.5
-1009.70 162.48 1492.2
-1027.63 166.00 1524.5
-1018.24 165.12 1516.4
-1002.22 163.15 1498.3
-991.79 162.08 1488.5
-987.46 162.00 1487.8
-989.16 162.92 1496.2
-1005.61 166.28 1527.1
-1014.31 168.38 1546.4
-1009.31 168.22 1544.9
-1018.98 170.51 1565.9
-1016.66 170.80 1568.6
-992.71 167.45 1537.8
-972.11 164.63 1511.9
-974.69 165.74 1522.1
-999.73 170.68 1567.5
-1003.23 171.98 1579.4
-988.05 170.07 1561.9
-983.02 169.91 1560.4
-970.06 168.36 1546.1
-952.39 165.98 1524.3
-957.43 167.55 1538.7
-965.03 169.59 1557.4
-962.09 169.78 1559.2
-956.54 169.51 1556.8
-955.68 170.08 1561.9
-962.04 171.94 1579.0
-948.20 170.19 1563.0
-940.07 169.46 1556.2
-958.66 173.55 1593.8
-975.05 177.28 1628.1
-972.44 177.58 1630.8
-954.56 175.07 1607.8
-936.77 172.56 1584.8
-922.60 170.70 1567.7
-907.99 168.74 1549.7
-910.01 169.87 1560.0
-919.97 172.50 1584.1
-918.88 173.06 1589.4
-911.81 172.50 1584.2
-908.71 172.70 1586.0
-913.00 174.30 1600.7
-902.48 173.08 1589.5
-887.59 171.00 1570.4
-896.69 173.55 1593.9
-909.11 176.77 1623.4
-898.13 175.45 1611.3
-873.68 171.47 1574.7
-882.10 173.93 1597.4
-908.64 180.01 1653.2
-899.60 179.07 1644.5
-882.97 176.59 1621.8
-882.09 177.26 1627.9
-875.98 176.88 1624.4
-869.88 176.50 1620.9
-862.85 175.92 1615.6
-862.38 176.68 1622.6
-860.01 177.06 1626.1
-862.73 178.50 1639.3
-867.24 180.32 1656.0
-853.28 178.30 1637.4
-855.42 179.64 1649.7
-848.85 179.15 1645.3
-826.37 175.29 1609.8
-821.24 175.09 1607.9
-822.89 176.33 1619.4
-837.95 180.48 1657.5
-858.66 185.90 1707.2
-864.02 188.03 1726.8
-850.67 186.08 1708.9
-832.53 183.07 1681.3
-824.62 182.28 1674.0
-814.54 181.01 1662.3
-781.84 174.67 1604.1
-774.99 174.06 1598.5
-811.40 183.22 1682.6
-819.46 186.04 1708.5
-804.71 183.68 1686.9
-801.99 184.06 1690.4
-798.82 184.34 1692.9
-797.33 185.02 1699.1
-799.60 186.57 1713.4
-798.87 187.44 1721.4
-792.27 186.94 1716.8
-788.58 187.12 1718.5
-787.37 187.90 1725.6
-786.94 188.87 1734.5
-806.93 194.78 1788.8
-821.80 199.51 1832.3
-799.19 195.15 1792.2
-792.88 194.74 1788.5
-1179.37 172.69 1624.6
-1152.07 169.30 1592.7
-1138.86 167.96 1580.1
-1129.18 167.13 1572.3
-1092.85 162.34 1527.3
-1037.00 154.61 1454.5
-1009.10 151.00 1420.5
-1023.91 153.77 1446.7
-1040.92 156.90 1476.1
-1021.74 154.58 1454.2
-1007.20 152.95 1438.9
-1026.91 156.52 1472.5
-1040.24 159.14 1497.2
-1035.34 158.99 1495.7
-1037.80 159.96 1504.9
-1040.22 160.94 1514.1
-1039.22 161.39 1518.3
-1015.20 158.26 1488.9
-988.49 154.69 1455.2
-1008.78 158.47 1490.8
-1014.47 159.97 1505.0
-991.22 156.91 1476.2
-990.23 157.36 1480.4
-995.30 158.78 1493.8
-987.65 158.18 1488.1
-987.15 158.72 1493.2
-986.09 159.17 1497.4
-976.26 158.21 1488.4
-976.82 158.93 1495.1
-992.02 162.04 1524.4
-988.68 162.14 1525.4
-962.66 158.51 1491.2
-969.61 160.30 1508.0
-999.59 165.92 1561.0
-1009.56 168.26 1582.9
-997.55 166.94 1570.5
-983.99 165.34 1555.5
-980.03 165.36 1555.6
-980.31 166.08 1562.5
-975.27 165.92 1560.9
-963.41 164.58 1548.3
-952.63 163.42 1537.4
-950.26 163.70 1540.0
-944.74 163.44 1537.6
-931.96 161.91 1523.2
-926.48 161.64 1520.7
-930.31 163.00 1533.5
-939.23 165.27 1554.8
-954.75 168.73 1587.3
-966.04 171.46 1613.0
-964.47 171.93 1617.4
-946.11 169.39 1593.6
-930.88 167.40 1574.8
-918.75 165.94 1561.1
-904.15 164.03 1543.1
-907.68 165.40 1556.0
-931.17 170.44 1603.4
-943.00 173.38 1631.1
-925.90 171.00 1608.7
-913.35 169.45 1594.1
-923.05 172.02 1618.3
-918.40 171.94 1617.5
-892.19 167.80 1578.6
-889.07 167.98 1580.3
-901.03 171.03 1609.0
-889.11 169.55 1595.1
-877.73 168.16 1582.0
-898.17 172.89 1626.5
-911.23 176.23 1657.9
-888.32 172.61 1623.9
-886.02 172.98 1627.4
-899.83 176.52 1660.7
-875.69 172.61 1623.9
-851.23 168.60 1586.1
-846.15 168.41 1584.3
-847.61 169.52 1594.8
-850.43 170.92 1607.9
-859.21 173.54 1632.6
-877.59 178.12 1675.7
-879.69 179.44 1688.1
-866.15 177.56 1670.4
-845.38 174.17 1638.6
-828.83 171.63 1614.6
-828.22 172.37 1621.6
-842.01 176.13 1657.0
-867.78 182.46 1716.5
-860.64 181.89 1711.1
-839.27 178.29 1677.3
-823.35 175.82 1654.1
-801.35 172.02 1618.3
-795.77 171.72 1615.5
-788.44 171.04 1609.1
-795.53 173.49 1632.2
-825.11 180.91 1701.9
-834.49 183.95 1730.5
-817.49 181.17 1704.4
-800.17 178.30 1677.4
-795.77 178.29 1677.3
-793.90 178.85 1682.5
-792.86 179.60 1689.6
-785.47 178.91 1683.1
-773.49 177.17 1666.7
-781.60 180.03 1693.7
-793.75 183.86 1729.7
-792.92 184.71 1737.7
-792.88 185.76 1747.6
-809.58 190.76 1794.6
-820.77 194.52 1830.0
-822.48 196.06 1844.4
-1206.51 172.36 1662.0
-1160.04 166.91 1609.5
-1125.31 162.50 1567.0
-1065.21 154.38 1488.6
-1045.29 152.04 1466.1
-1050.83 153.41 1479.3
-1039.64 152.33 1468.9
-1030.77 151.58 1461.7
-1027.08 151.60 1461.8
-1026.24 152.04 1466.1
-1021.97 151.97 1465.4
-1013.14 151.22 1458.1
-1028.16 154.03 1485.3
-1049.30 157.79 1521.5
-1050.56 158.58 1529.1
-1047.29 158.68 1530.1
-1047.95 159.38 1536.9
-1045.77 159.66 1539.6
-1042.47 159.77 1540.6
-1021.89 157.21 1516.0
-1010.85 156.12 1505.4
-1021.99 158.45 1527.9
-1018.13 158.46 1528.1
-1001.60 156.50 1509.1
-990.08 155.31 1497.6
-979.15 154.20 1486.9
-968.25 153.08 1476.2
-966.11 153.35 1478.7
-989.49 157.69 1520.6
-993.75 159.00 1533.2
-970.94 155.97 1504.0
-981.65 158.33 1526.8
-993.88 160.95 1552.0
-987.26 160.53 1548.0
-1002.55 163.68 1578.4
-1016.13 166.58 1606.3
-976.50 160.74 1550.0
-939.73 155.33 1497.8
-957.52 158.92 1532.5
-967.80 161.30 1555.4
-963.31 161.22 1554.7
-966.66 162.46 1566.6
-957.97 161.68 1559.1
-940.98 159.49 1537.9
-937.55 159.58 1538.8
-942.38 161.09 1553.4
-939.42 161.27 1555.1
-943.13 162.61 1568.0
-959.06 166.07 1601.4
-960.58 167.06 1610.9
-949.86 165.91 1599.9
-943.23 165.48 1595.7
-942.18 166.02 1600.9
-937.57 165.94 1600.1
-922.92 164.08 1582.2
-927.85 165.69 1597.7
-951.66 170.70 1646.1
-945.96 170.44 1643.6
-921.95 166.87 1609.1
-920.77 167.41 1614.3
-921.54 168.32 1623.1
-901.68 165.45 1595.4
-879.49 162.12 1563.3
-872.50 161.57 1558.0
-889.78 165.54 1596.3
-907.87 169.69 1636.3
-903.65 169.70 1636.4
-891.27 168.16 1621.6
-885.16 167.80 1618.1
-900.49 171.52 1654.0
-913.77 174.88 1686.4
-889.11 170.98 1648.8
-867.89 167.71 1617.2
-865.56 168.07 1620.7
-861.81 168.16 1621.5
-858.52 168.34 1623.3
-855.22 168.52 1625.0
-861.61 170.62 1645.2
-882.18 175.56 1692.9
-889.25 177.85 1715.0
-874.32 175.74 1694.7
-863.56 174.46 1682.3
-844.70 171.51 1653.9
-839.48 171.32 1652.0
-860.32 176.48 1701.7
-848.74 175.00 1687.5
-824.74 170.93 1648.3
-807.11 168.15 1621.4
-803.29 168.23 1622.2
-814.42 171.46 1653.3
-808.33 171.08 1649.7
-816.21 173.66 1674.6
-829.20 177.37 1710.3
-822.57 176.90 1705.8
-806.48 174.37 1681.5
-790.92 171.94 1658.0
-792.10 173.14 1669.5
-794.50 174.62 1683.8
-789.65 174.51 1682.8
-778.91 173.09 1669.1
-779.11 174.10 1678.9
-800.13 179.81 1733.8
-812.61 183.64 1770.8
-811.70 184.48 1778.9
-805.40 184.09 1775.2
-814.67 187.28 1805.9
-822.99 190.29 1834.9
-821.04 190.94 1841.2
-1176.56 165.06 1632.4
-1135.39 159.86 1581.0
-1076.99 152.18 1505.1
-1058.20 150.07 1484.2
-1072.37 152.64 1509.6
-1068.03 152.58 1509.0
-1057.37 151.61 1499.4
-1050.75 151.21 1495.5
-1051.00 151.81 1501.4
-1047.80 151.91 1502.4
-1028.68 149.70 1480.5
-1034.58 151.12 1494.6
-1035.34 151.80 1501.3
-1015.20 149.41 1477.6
-1016.52 150.17 1485.2
-1020.63 151.35 1496.8
-1032.52 153.70 1520.1
-1040.98 155.55 1538.4
-1025.42 153.81 1521.2
-1017.70 153.24 1515.6
-1028.82 155.52 1538.1
-1024.95 155.54 1538.3
-996.83 151.86 1501.9
-972.68 148.76 1471.3
-976.59 149.95 1483.0
-979.36 150.97 1493.1
-970.64 150.22 1485.7
-987.50 153.44 1517.5
-1014.53 158.27 1565.3
-1014.36 158.88 1571.3
-1002.85 157.71 1559.7
-994.06 156.96 1552.3
-986.37 156.38 1546.6
-1001.14 159.36 1576.1
-1018.99 162.87 1610.8
-982.53 157.69 1559.6
-949.44 153.01 1513.3
-970.90 157.12 1553.9
-997.46 162.09 1603.1
-1009.15 164.67 1628.6
-987.25 161.78 1600.0
-952.41 156.73 1550.0
-941.68 155.62 1539.1
-943.95 156.66 1549.3
-952.38 158.73 1569.9
-952.99 159.51 1577.6
-950.50 159.78 1580.3
-961.81 162.38 1606.0
-964.85 163.61 1618.1
-955.64 162.75 1609.6
-948.49 162.24 1604.6
-946.91 162.68 1609.0
-953.87 164.61 1628.0
-950.21 164.70 1628.9
-928.04 161.58 1598.0
-923.93 161.58 1598.1
-940.19 165.17 1633.5
-938.48 165.61 1637.9
-915.03 162.21 1604.3
-893.68 159.15 1574.0
-883.72 158.10 1563.6
-872.34 156.78 1550.6
-869.76 157.04 1553.1
-891.90 161.79 1600.1
-899.35 163.90 1621.0
-884.09 161.88 1601.0
-883.77 162.58 1607.9
-890.60 164.61 1628.0
-899.24 167.00 1651.7
-904.94 168.86 1670.1
-898.27 168.43 1665.8
-894.91 168.61 1667.5
-899.05 170.21 1683.4
-900.32 171.28 1694.0
-885.24 169.24 1673.8
-870.24 167.19 1653.5
-861.79 166.38 1645.6
-866.25 168.08 1662.3
-881.19 171.83 1699.4
-874.96 171.47 1695.9
-868.29 171.03 1691.5
-854.84 169.23 1673.7
-836.50 166.45 1646.2
-843.43 168.69 1668.3
-834.60 167.78 1659.4
-814.67 164.62 1628.1
-798.85 162.27 1604.8
-795.95 162.52 1607.4
-824.28 169.19 1673.3
-834.80 172.26 1703.7
-812.02 168.45 1666.0
-796.36 166.08 1642.6
-797.22 167.16 1653.2
-788.13 166.15 1643.2
-780.37 165.40 1635.9
-788.86 168.12 1662.7
-778.53 166.83 1649.9
-761.48 164.08 1622.7
-773.18 167.52 1656.8
-796.47 173.53 1716.3
-807.82 176.99 1750.5
-810.29 178.54 1765.8
-809.81 179.45 1774.7
-803.11 178.98 1770.1
-808.30 181.17 1791.8
-812.57 183.18 1811.7
-810.68 183.82 1818.0
-830.95 189.51 1874.3
-1161.60 158.78 1611.7
-1139.65 156.34 1586.9
-1096.32 150.94 1532.1
-1064.17 147.05 1492.6
-1066.78 147.95 1501.7
-1071.09 149.09 1513.3
-1067.32 149.11 1513.5
-1053.80 147.76 1499.9
-1048.32 147.54 1497.6
-1061.10 149.89 1521.5
-1057.29 149.91 1521.7
-1044.41 148.64 1508.8
-1027.04 146.72 1489.3
-996.19 142.85 1450.0
-986.87 142.05 1441.8
-998.34 144.25 1464.2
-1017.58 147.59 1498.1
-1037.81 151.10 1533.7
-1032.29 150.87 1531.4
-1016.76 149.18 1514.2
-1019.59 150.17 1524.3
-1016.84 150.35 1526.1
-990.39 147.01 1492.2
-965.71 143.91 1460.7
-968.54 144.90 1470.8
-1001.95 150.49 1527.5
-1023.69 154.37 1566.9
-993.65 150.43 1527.0
-972.97 147.89 1501.2
-992.38 151.45 1537.3
-999.80 153.19 1555.0
-989.41 152.22 1545.1
-979.59 151.32 1535.9
-981.55 152.24 1545.3
-986.67 153.66 1559.7
-978.99 153.09 1554.0
-974.51 153.02 1553.2
-978.47 154.28 1566.0
-987.65 156.38 1587.3
-1001.99 159.31 1617.1
-983.25 156.99 1593.5
-959.37 153.82 1561.4
-959.02 154.42 1567.4
-950.87 153.76 1560.7
-948.42 154.02 1563.3
-959.36 156.46 1588.1
-968.65 158.66 1610.4
-961.99 158.25 1606.3
-947.17 156.49 1588.4
-947.68 157.26 1596.2
-949.18 158.20 1605.7
-946.08 158.37 1607.6
-952.54 160.16 1625.7
-947.38 160.00 1624.1
-923.21 156.62 1589.7
-909.64 155.01 1573.4
-917.01 156.97 1593.3
-917.36 157.74 1601.1
-896.45 154.84 1571.7
-886.97 153.90 1562.2
-888.80 154.93 1572.6
-883.74 154.76 1570.8
-887.45 156.13 1584.7
-894.01 158.01 1603.9
-886.96 157.50 1598.7
-892.93 159.30 1617.0
-915.14 164.03 1665.0
-901.77 162.40 1648.5
-889.89 161.03 1634.5
-906.07 164.74 1672.2
-909.80 166.21 1687.1
-903.57 165.87 1683.7
-903.93 166.74 1692.5
-910.78 168.83 1713.7
-901.72 167.97 1704.9
-875.98 163.98 1664.4
-857.34 161.28 1637.1
-849.85 160.67 1630.8
-852.93 162.06 1644.9
-855.50 163.36 1658.2
-858.01 164.67 1671.4
-865.89 167.02 1695.4
-869.16 168.51 1710.4
-859.33 167.46 1699.8
-834.77 163.51 1659.7
-825.09 162.45 1649.0
-818.10 161.92 1643.5
-787.71 156.72 1590.7
-787.91 157.58 1599.5
-813.93 163.65 1661.1
-806.08 162.93 1653.8
-792.61 161.07 1634.9
-795.22 162.47 1649.1
-794.33 163.16 1656.1
-793.83 163.94 1664.1
-802.26 166.59 1690.9
-793.14 165.60 1680.9
-764.18 160.43 1628.5
-764.50 161.39 1638.2
-794.12 168.58 1711.2
-812.16 173.38 1759.9
-794.68 170.61 1731.7
-774.01 167.12 1696.3
-779.00 169.15 1717.0
-797.41 174.15 1767.7
-805.00 176.82 1794.8
-806.39 178.16 1808.4
-827.90 183.98 1867.4
-1163.54 154.86 1614.4
-1140.42 152.33 1588.0
-1111.00 148.94 1552.6
-1090.39 146.71 1529.4
-1071.58 144.70 1508.5
-1055.72 143.08 1491.6
-1070.94 145.68 1518.7
-1076.32 146.95 1531.9
-1048.50 143.68 1497.9
-1040.18 143.07 1491.5
-1043.82 144.11 1502.3
-1038.34 143.89 1500.0
-1039.10 144.54 1506.7
-1026.84 143.37 1494.6
-1004.49 140.78 1467.6
-1004.13 141.27 1472.7
-1010.47 142.70 1487.6
-1017.32 144.22 1503.4
-1033.58 147.09 1533.3
-1039.72 148.53 1548.4
-1021.43 146.48 1527.0
-997.67 143.63 1497.3
-991.67 143.33 1494.1
-987.87 143.34 1494.3
-988.45 143.99 1501.0
-1020.16 149.19 1555.3
-1035.87 152.09 1585.5
-1000.35 147.46 1537.3
-968.81 143.38 1494.7
-977.96 145.32 1514.9
-996.74 148.71 1550.2
-997.64 149.44 1557.9
-984.05 148.01 1542.9
-981.73 148.26 1545.6
-978.86 148.43 1547.4
-963.23 146.66 1528.9
-955.08 146.03 1522.3
-954.88 146.60 1528.3
-968.34 149.29 1556.3
-986.94 152.79 1592.8
-975.05 151.58 1580.2
-957.98 149.56 1559.1
-971.16 152.26 1587.2
-976.45 153.74 1602.7
-960.48 151.87 1583.2
-957.99 152.13 1585.9
-963.69 153.69 1602.2
-953.46 152.72 1592.1
-946.84 152.32 1587.9
-955.49 154.38 1609.4
-958.48 155.54 1621.5
-958.38 156.21 1628.5
-957.25 156.72 1633.7
-944.04 155.24 1618.4
-913.87 150.95 1573.6
-894.35 148.39 1546.9
-896.80 149.47 1558.1
-893.26 149.55 1559.0
-896.62 150.80 1572.0
-911.74 154.04 1605.8
-913.48 155.04 1616.3
-907.36 154.71 1612.8
-905.15 155.05 1616.3
-905.83 155.89 1625.1
-906.95 156.81 1634.7
-922.49 160.24 1670.5
-930.67 162.43 1693.3
-903.86 158.50 1652.3
-892.45 157.24 1639.2
-908.62 160.86 1676.9
-909.03 161.70 1685.7
-898.57 160.61 1674.3
-896.12 160.95 1677.9
-899.74 162.39 1692.9
-904.22 164.00 1709.7
-893.79 162.91 1698.3
-857.97 157.15 1638.3
-832.98 153.33 1598.5
-839.34 155.28 1618.7
-845.16 157.14 1638.1
-844.52 157.82 1645.2
-847.93 159.26 1660.2
-849.47 160.36 1671.7
-836.58 158.74 1654.8
-820.61 156.51 1631.6
-818.56 156.93 1635.9
-825.37 159.06 1658.1
-807.77 156.48 1631.2
-794.67 154.75 1613.2
-808.39 158.26 1649.8
-807.99 159.02 1657.7
-801.03 158.49 1652.2
-796.25 158.39 1651.2
-788.46 157.69 1643.9
-783.27 157.50 1641.9
-787.90 159.30 1660.7
-790.33 160.67 1674.9
-773.64 158.15 1648.7
-769.29 158.13 1648.5
-793.87 164.10 1710.6
-813.58 169.12 1763.0
-799.41 167.11 1742.1
-792.78 166.66 1737.4
-814.56 172.22 1795.3
-807.41 171.69 1789.8
-785.19 167.93 1750.6
-792.77 170.54 1777.8
-821.61 177.78 1853.3
-1173.18 152.47 1633.6
-1135.55 148.12 1587.0
-1102.72 144.36 1546.7
-1072.33 140.89 1509.5
-1053.01 138.86 1487.8
-1065.37 141.00 1510.8
-1068.47 141.94 1520.8
-1039.52 138.60 1485.0
-1035.21 138.54 1484.4
-1043.99 140.24 1502.5
-1037.95 139.95 1499.4
-1038.70 140.58 1506.2
-1039.43 141.21 1512.9
-1032.25 140.76 1508.2
-1018.90 139.47 1494.3
-1012.88 139.17 1491.2
-1023.64 141.19 1512.8
-1043.78 144.52 1548.5
-1039.34 144.46 1547.8
-1009.96 140.92 1509.9
-1007.24 141.09 1511.7
-1022.71 143.82 1540.9
-1025.42 144.77 1551.1
-1031.93 146.26 1567.1
-1019.24 145.03 1553.9
-990.24 141.46 1515.7
-987.47 141.63 1517.5
-989.58 142.50 1526.8
-997.05 144.15 1544.5
-1015.78 147.45 1579.8
-1013.95 147.78 1583.4
-997.62 145.99 1564.2
-977.09 143.57 1538.3
-956.11 141.07 1511.4
-952.24 141.07 1511.5
-956.31 142.26 1524.2
-960.33 143.45 1537.0
-977.99 146.70 1571.8
-1004.97 151.38 1621.9
-1000.87 151.39 1622.1
-965.98 146.73 1572.1
-960.93 146.58 1570.5
-968.84 148.42 1590.2
-956.00 147.08 1575.8
-953.00 147.25 1577.6
-958.22 148.69 1593.1
-952.10 148.38 1589.8
-950.58 148.79 1594.1
-966.35 151.92 1627.7
-977.42 154.33 1653.5
-969.68 153.78 1647.7
-961.96 153.23 1641.8
-948.73 151.80 1626.4
-918.55 147.62 1581.7
-903.49 145.86 1562.7
-910.89 147.71 1582.6
-895.40 145.86 1562.8
-888.39 145.37 1557.6
-914.37 150.31 1610.4
-926.40 152.98 1639.1
-913.88 151.61 1624.4
-904.34 150.72 1614.9
-902.11 151.05 1618.4
-901.32 151.62 1624.5
-904.83 152.93 1638.5
-901.56 153.10 1640.3
-895.90 152.85 1637.7
-906.44 155.39 1664.9
-903.57 155.64 1667.6
-884.60 153.10 1640.4
-889.31 154.66 1657.1
-902.40 157.70 1689.6
-889.15 156.14 1673.0
-875.51 154.50 1655.4
-877.71 155.65 1667.7
-854.43 152.28 1631.5
-833.60 149.30 1599.7
-843.63 151.85 1627.0
-854.92 154.66 1657.1
-858.34 156.06 1672.1
-844.47 154.32 1653.4
-827.97 152.08 1629.4
-821.00 151.57 1624.0
-810.47 150.40 1611.4
-794.64 148.22 1588.1
-787.34 147.63 1581.7
-795.54 149.95 1606.6
-808.92 153.27 1642.2
-812.06 154.68 1657.3
-802.04 153.58 1645.5
-802.93 154.57 1656.1
-805.50 155.90 1670.4
-798.96 155.47 1665.8
-794.58 155.46 1665.6
-776.95 152.84 1637.6
-756.47 149.63 1603.2
-766.18 152.39 1632.7
-788.40 157.68 1689.4
-788.99 158.68 1700.1
-783.27 158.41 1697.3
-789.19 160.51 1719.8
-804.52 164.56 1763.1
-819.25 168.53 1805.7
-804.70 166.49 1783.8
-780.05 162.32 1739.2
-784.81 164.26 1760.0
-809.26 170.37 1825.4
-835.03 176.83 1894.6
-1203.57 151.53 1669.9
-1155.91 146.05 1609.6
-1111.94 141.01 1554.0
-1072.21 136.46 1503.9
-1049.98 134.12 1478.1
-1038.78 133.18 1467.7
-1046.00 134.60 1483.3
-1044.57 134.91 1486.7
-1028.82 133.37 1469.7
-1038.23 135.09 1488.7
-1037.90 135.55 1493.8
-1023.36 134.15 1478.4
-1036.60 136.40 1503.1
-1049.76 138.65 1528.0
-1045.93 138.67 1528.2
-1037.04 138.01 1520.9
-1022.57 136.60 1505.4
-1024.92 137.44 1514.7
-1035.59 139.41 1536.3
-1021.72 138.07 1521.6
-1009.57 136.96 1509.3
-1025.10 139.61 1538.5
-1025.08 140.15 1544.5
-1013.49 139.11 1533.0
-1022.23 140.86 1552.3
-1010.12 139.74 1540.0
-978.41 135.89 1497.6
-971.87 135.52 1493.5
-985.41 137.96 1520.3
-1004.79 141.24 1556.5
-1013.79 143.08 1576.8
-1002.29 142.02 1565.2
-988.14 140.59 1549.3
-969.77 138.54 1526.7
-952.01 136.56 1504.9
-952.93 137.25 1512.6
-959.12 138.72 1528.7
-965.25 140.18 1544.9
-976.58 142.42 1569.5
-998.31 146.20 1611.1
-998.43 146.83 1618.1
-967.19 142.83 1574.1
-955.89 141.76 1562.3
-957.60 142.62 1571.7
-955.65 142.94 1575.2
-963.48 144.73 1595.0
-971.23 146.52 1614.7
-968.14 146.69 1616.6
-959.94 146.08 1609.8
-969.57 148.19 1633.1
-966.67 149.70 1649.8
-939.36 146.12 1610.3
-919.21 143.63 1582.8
-914.13 143.47 1581.1
-923.48 145.59 1604.5
-909.94 144.11 1588.1
-892.50 141.99 1564.8
-908.13 145.14 1599.5
-920.68 147.82 1629.0
-908.67 146.56 1615.2
-900.12 145.85 1607.4
-900.34 146.57 1615.2
-898.58 146.96 1619.6
-901.14 148.07 1631.8
-915.17 151.09 1665.1
-927.63 153.87 1695.7
-919.95 153.32 1689.7
-898.51 150.47 1658.2
-882.87 148.56 1637.2
-892.30 150.87 1662.7
-896.93 152.39 1679.4
-875.75 149.52 1647.8
-861.69 147.84 1629.2
-862.56 148.72 1638.9
-856.44 148.39 1635.4
-854.02 148.71 1638.9
-856.18 149.83 1651.2
-859.19 151.11 1665.3
-857.14 151.51 1669.7
-838.28 148.93 1641.3
-811.87 144.98 1597.7
-795.53 142.79 1573.6
-806.15 145.44 1602.8
-811.30 147.13 1621.4
-803.93 146.55 1615.0
-812.94 148.97 1641.7
-804.23 148.15 1632.6
-786.34 145.62 1604.8
-782.54 145.69 1605.5
-788.73 147.62 1626.9
-796.13 149.81 1651.0
-793.94 150.20 1655.3
-796.88 151.58 1670.5
-785.22 150.18 1655.0
-758.74 145.91 1608.0
-761.67 147.28 1623.1
-796.14 154.81 1706.0
-810.54 158.49 1746.6
-795.95 156.51 1724.8
-791.42 156.50 1724.6
-789.78 157.06 1730.9
-785.23 157.05 1730.7
-788.47 158.60 1747.8
-783.47 158.51 1746.8
-784.56 159.65 1759.4
-804.57 164.68 1814.8
-819.92 168.81 1860.3
-833.47 172.61 1902.3
-1177.03 144.47 1639.0
-1128.36 139.00 1576.9
-1082.22 133.80 1517.9
-1054.18 130.81 1484.0
-1043.54 129.97 1474.4
-1052.48 131.56 1492.5
-1047.02 131.36 1490.2
-1026.12 129.22 1465.9
-1043.53 131.90 1496.3
-1050.01 133.21 1511.2
-1018.97 129.76 1472.0
-1015.82 129.84 1473.0
-1045.41 134.13 1521.6
-1056.24 136.03 1543.2
-1038.89 134.31 1523.6
-1014.89 131.70 1494.1
-1018.38 132.66 1505.0
-1031.30 134.86 1529.9
-1027.45 134.88 1530.1
-1026.36 135.26 1534.4
-1007.57 133.30 1512.2
-973.41 129.28 1466.6
-980.10 130.68 1482.5
-1007.04 134.80 1529.2
-1014.65 136.36 1546.9
-1003.66 135.41 1536.2
-999.22 135.35 1535.5
-1014.31 137.95 1564.9
-1015.23 138.63 1572.6
-1005.33 137.83 1563.6
-989.01 136.14 1544.4
-969.53 134.00 1520.2
-964.04 133.79 1517.7
-960.16 133.79 1517.8
-981.26 137.30 1557.6
-1006.45 141.40 1604.1
-997.64 140.75 1596.7
-994.13 140.83 1597.7
-995.33 141.59 1606.3
-975.55 139.36 1581.0
-957.43 137.35 1558.2
-959.69 138.26 1568.5
-971.25 140.52 1594.1
-979.60 142.34 1614.7
-970.34 141.60 1606.3
-960.60 140.78 1597.1
-968.82 142.60 1617.7
-971.34 143.59 1629.0
-969.74 143.98 1633.4
-978.27 145.88 1655.0
-979.12 146.65 1663.7
-956.75 143.94 1632.9
-937.01 141.59 1606.3
