ply
format ascii 1.0
element vertex 2313
property float x
property float y
property float z
end_header
10.44 808.75 2012.6
15.57 804.64 2002.3
20.51 794.93 1978.2
25.41 787.82 1960.5
30.54 788.91 1963.2
35.88 794.48 1977.0
40.96 793.70 1975.1
46.21 795.89 1980.6
51.71 801.44 1994.4
56.63 798.04 1985.9
61.64 796.12 1981.1
66.61 794.20 1976.4
71.22 788.55 1962.3
76.77 793.33 1974.2
83.58 809.65 2014.8
89.32 814.42 2026.7
93.49 805.02 2003.3
98.08 800.09 1991.0
102.79 796.65 1982.4
108.12 798.05 1985.9
113.52 799.81 1990.3
117.23 790.02 1966.0
120.98 781.36 1944.4
126.61 784.97 1953.4
132.78 791.55 1969.8
137.28 788.08 1961.1
145.70 806.56 2007.1
158.86 820.79 2042.5
159.82 799.08 1988.5
161.95 784.44 1952.1
169.35 795.44 1979.4
177.63 809.78 2015.1
182.57 808.51 2012.0
185.41 798.31 1986.6
189.11 792.20 1971.4
195.27 796.49 1982.0
201.30 800.02 1990.8
206.22 799.10 1988.5
208.97 790.01 1965.9
210.70 777.58 1935.0
217.52 784.07 1951.1
229.04 806.86 2007.9
237.85 819.26 2038.7
240.32 809.78 2015.1
241.66 796.97 1983.2
249.60 806.01 2005.7
257.89 815.79 2030.1
258.07 800.01 1990.8
259.26 787.94 1960.8
266.62 794.73 1977.7
275.46 805.59 2004.7
285.73 820.14 2040.9
296.17 834.67 2077.1
307.60 851.41 2118.7
317.48 863.32 2148.4
325.29 869.32 2163.3
-109.81 845.55 2117.8
-102.87 833.79 2088.4
-97.94 837.96 2098.8
-91.33 827.30 2072.1
-83.54 804.03 2013.8
-79.22 813.37 2037.2
-74.42 818.63 2050.4
-67.45 799.05 2001.3
-62.27 799.11 2001.5
-57.08 799.16 2001.6
-51.29 789.94 1978.5
-45.47 778.12 1948.9
-29.76 763.76 1913.0
-25.28 778.62 1950.2
-20.44 786.80 1970.6
-15.57 799.05 2001.3
-10.47 806.10 2019.0
-5.17 796.47 1994.9
0.00 792.39 1984.7
5.25 809.08 2026.4
10.64 819.45 2052.4
15.56 798.68 2000.4
20.07 772.71 1935.3
25.14 774.17 1939.0
30.49 782.67 1960.3
35.98 791.54 1982.5
41.23 793.73 1988.0
45.93 785.91 1968.4
50.79 782.16 1959.0
55.34 774.70 1940.3
59.93 769.08 1926.3
65.92 780.89 1955.8
71.73 788.98 1976.1
77.13 791.88 1983.4
83.69 805.52 2017.5
89.16 807.66 2022.9
92.96 795.36 1992.1
98.03 794.53 1990.0
103.22 794.81 1990.7
107.41 787.68 1972.9
111.51 780.55 1955.0
117.78 788.59 1975.1
124.27 797.37 1997.1
127.14 783.19 1961.6
130.33 771.97 1933.5
135.26 771.48 1932.3
144.15 792.82 1985.7
153.66 815.99 2043.8
157.35 807.72 2023.0
161.75 803.51 2012.5
168.01 808.54 2025.1
172.35 804.32 2014.5
177.14 802.32 2009.5
181.89 800.31 2004.5
184.63 789.80 1978.2
190.07 791.12 1981.5
198.08 802.76 2010.6
201.01 793.72 1988.0
202.57 779.89 1953.3
210.53 790.78 1980.6
217.53 797.60 1997.7
220.49 789.66 1977.8
228.51 799.78 2003.2
236.88 810.64 2030.4
238.88 799.74 2003.1
236.81 775.95 1943.5
241.44 774.63 1940.2
252.73 794.30 1989.4
255.90 788.19 1974.1
259.24 782.81 1960.6
268.84 796.19 1994.2
273.93 795.95 1993.6
280.43 799.75 2003.1
292.89 820.09 2054.0
306.40 842.61 2110.4
-118.78 865.38 2181.6
-108.66 831.23 2095.5
-101.68 818.80 2064.2
-96.08 816.68 2058.9
-88.91 800.18 2017.3
-82.03 784.42 1977.5
-78.39 799.60 2015.8
-74.62 815.51 2055.9
-68.48 805.99 2031.9
-62.41 795.73 2006.0
-56.42 784.72 1978.3
-51.32 785.14 1979.3
-46.08 783.34 1974.8
-39.94 763.84 1925.7
-34.85 761.66 1920.2
-30.33 773.49 1950.0
-25.57 782.36 1972.3
-20.62 788.65 1988.2
-15.64 797.89 2011.5
-10.53 805.27 2030.1
-5.20 794.95 2004.1
0.00 790.90 1993.9
5.28 808.60 2038.5
10.75 822.60 2073.8
15.77 804.15 2027.3
20.37 779.07 1964.0
25.52 780.89 1968.6
31.56 804.83 2029.0
42.06 804.39 2027.9
45.34 770.81 1943.2
50.98 779.98 1966.3
56.47 785.46 1980.2
61.37 782.46 1972.6
67.70 796.78 2008.7
73.51 803.35 2025.2
78.83 804.02 2026.9
84.00 803.21 2024.9
87.93 791.34 1995.0
91.66 779.11 1964.1
96.60 777.92 1961.1
102.45 783.72 1975.8
107.41 782.52 1972.8
111.92 778.38 1962.3
118.66 789.32 1989.9
125.18 798.05 2011.9
128.10 783.95 1976.3
133.14 783.46 1975.1
140.19 794.38 2002.6
146.63 801.25 2019.9
153.52 809.94 2041.9
157.05 800.98 2019.3
161.59 797.53 2010.6
166.93 798.12 2012.1
170.13 788.78 1988.5
175.41 789.36 1990.0
180.70 789.94 1991.4
186.09 790.88 1993.8
194.33 803.57 2025.8
200.81 808.53 2038.3
202.21 793.30 1999.9
206.11 788.35 1987.4
216.62 808.35 2037.9
222.75 811.46 2045.7
224.50 798.79 2013.8
228.61 794.92 2004.0
232.88 791.79 1996.1
242.18 805.51 2030.7
247.38 805.29 2030.2
248.67 792.62 1998.2
256.47 800.82 2018.9
261.27 799.50 2015.5
266.06 798.17 2012.2
275.79 811.47 2045.7
281.27 811.96 2047.0
285.84 809.88 2041.7
296.30 824.25 2077.9
309.21 844.82 2129.8
323.21 867.56 2187.1
-111.07 844.11 2142.0
-102.60 820.76 2082.8
-95.77 808.76 2052.3
-90.87 812.51 2061.8
-85.81 815.15 2068.5
-79.65 807.16 2048.3
-73.64 799.54 2028.9
-67.54 789.71 2004.0
-61.45 778.40 1975.3
-56.23 776.99 1971.7
-51.75 786.57 1996.0
-47.34 799.44 2028.6
-41.81 794.35 2015.7
-36.16 785.22 1992.6
-31.18 790.01 2004.7
-25.49 775.01 1966.7
-19.90 756.33 1919.3
-15.17 768.81 1950.9
-10.25 778.72 1976.1
-5.18 787.53 1998.4
0.00 802.56 2036.6
5.27 801.46 2033.8
10.47 795.58 2018.9
15.75 797.77 2024.4
20.86 792.62 2011.4
25.90 787.47 1998.3
31.84 806.51 2046.6
42.60 809.38 2053.9
46.45 784.41 1990.5
52.78 802.33 2036.0
58.54 808.87 2052.6
63.68 806.62 2046.9
69.45 812.06 2060.7
74.59 809.80 2054.9
79.15 802.03 2035.2
83.49 793.17 2012.7
87.39 781.37 1982.8
91.09 769.20 1951.9
95.73 765.83 1943.4
101.29 769.77 1953.4
107.15 775.53 1968.0
112.61 778.00 1974.2
117.82 778.63 1975.8
122.75 777.43 1972.8
127.37 774.39 1965.1
134.26 784.89 1991.7
140.50 790.98 2007.2
146.09 793.05 2012.4
154.42 809.38 2053.9
159.65 808.88 2052.6
163.08 799.59 2029.0
167.38 795.06 2017.5
170.20 783.95 1989.3
175.16 783.07 1987.1
180.61 784.37 1990.4
186.34 786.77 1996.5
193.52 795.00 2017.4
198.89 795.56 2018.8
205.20 799.76 2029.5
214.35 814.54 2067.0
220.94 819.10 2078.5
222.95 806.86 2047.5
225.11 795.72 2019.2
229.44 792.61 2011.3
233.30 788.03 1999.7
242.17 800.22 2030.6
248.61 804.01 2040.2
251.18 795.41 2018.4
258.81 802.84 2037.3
263.06 799.70 2029.3
265.56 791.46 2008.4
272.92 797.78 2024.4
284.81 816.81 2072.7
296.55 834.74 2118.2
299.06 826.48 2097.3
303.33 823.31 2089.2
320.77 855.37 2170.6
-112.08 846.21 2161.6
-104.56 831.01 2122.7
-98.46 826.00 2109.9
-94.15 836.29 2136.2
-86.50 816.33 2085.2
-78.24 787.62 2011.9
-72.32 780.04 1992.5
-66.31 770.26 1967.6
-60.90 766.31 1957.5
-56.23 771.83 1971.6
-52.01 785.36 2006.1
-47.83 802.53 2050.0
-42.31 798.56 2039.8
-36.60 789.49 2016.7
-31.40 790.24 2018.6
-25.53 770.95 1969.3
-10.13 765.17 1954.5
-5.20 785.59 2006.7
0.00 803.09 2051.4
5.32 803.81 2053.3
10.39 784.49 2003.9
15.34 772.08 1972.2
20.52 774.62 1978.7
25.73 777.15 1985.1
30.79 774.94 1979.5
36.18 780.37 1993.4
42.79 807.68 2063.1
59.07 810.82 2071.2
63.56 799.83 2043.1
68.60 796.86 2035.5
74.18 800.08 2043.7
79.25 797.82 2038.0
83.99 792.65 2024.8
88.37 784.93 2005.0
93.38 783.39 2001.1
99.57 791.32 2021.3
104.12 786.13 2008.1
108.91 783.12 2000.4
114.99 789.22 2016.0
120.64 792.02 2023.1
123.84 779.18 1990.3
126.57 764.51 1952.9
132.24 768.04 1961.9
137.25 767.56 1960.6
142.17 766.71 1958.5
149.74 779.67 1991.6
156.90 789.72 2017.3
162.62 792.12 2023.4
167.68 791.25 2021.2
171.46 784.56 2004.1
174.58 775.33 1980.5
177.99 767.91 1961.5
185.90 779.73 1991.8
195.02 795.91 2033.1
202.81 805.90 2058.6
216.08 815.70 2083.6
217.39 800.63 2045.1
221.23 795.36 2031.7
225.51 791.90 2022.8
231.86 795.69 2032.5
237.71 797.66 2037.6
243.60 799.63 2042.6
247.47 795.07 2030.9
248.98 783.26 2000.8
255.63 787.75 2012.2
262.93 794.04 2028.3
268.35 794.54 2029.6
274.16 796.11 2033.6
284.55 810.69 2070.8
298.36 834.30 2131.1
303.40 832.96 2127.7
304.39 820.77 2096.6
317.91 842.18 2151.3
-112.57 844.24 2170.9
-105.94 836.37 2150.7
-100.59 838.27 2155.6
-95.34 841.25 2163.2
-86.96 815.26 2096.4
-77.98 779.83 2005.3
-71.40 765.05 1967.3
-66.37 765.83 1969.3
-61.79 772.41 1986.2
-56.12 765.22 1967.7
-51.07 765.99 1969.7
-46.74 779.08 2003.3
-41.05 769.69 1979.2
-35.55 761.75 1958.8
-30.54 763.59 1963.5
-25.74 772.32 1986.0
-20.60 772.34 1986.0
-15.09 754.59 1940.4
-10.09 756.78 1946.0
-5.15 773.10 1988.0
0.00 785.42 2019.7
5.26 789.41 2029.9
10.30 772.73 1987.0
15.34 766.92 1972.1
20.70 776.32 1996.3
25.90 777.03 1998.1
30.89 772.29 1985.9
36.06 772.62 1986.7
42.36 794.33 2042.6
48.72 812.05 2088.1
53.46 801.86 2061.9
58.14 792.75 2038.5
63.07 788.35 2027.2
67.85 782.86 2013.1
73.16 783.89 2015.7
79.00 789.98 2031.4
84.60 793.16 2039.6
89.76 792.00 2036.6
95.64 796.99 2049.4
100.44 792.92 2038.9
103.44 775.82 1995.0
109.26 780.43 2006.8
116.52 794.45 2042.9
121.08 789.64 2030.5
122.97 768.54 1976.3
126.63 759.75 1953.6
133.36 769.41 1978.5
138.93 771.82 1984.7
144.66 774.95 1992.7
150.78 779.88 2005.4
156.38 781.92 2010.7
161.87 783.23 2014.0
166.75 781.64 2009.9
171.93 781.49 2009.5
176.78 779.89 2005.4
181.01 775.77 1994.8
189.70 790.41 2032.5
196.44 796.38 2047.8
201.61 795.85 2046.5
208.75 802.89 2064.6
211.07 791.52 2035.3
215.11 787.01 2023.7
221.62 791.50 2035.3
221.67 773.28 1988.4
223.71 762.64 1961.1
233.27 777.58 1999.5
242.92 792.14 2036.9
249.15 795.17 2044.7
253.12 790.99 2034.0
259.61 794.73 2043.6
266.87 800.62 2058.7
274.46 807.22 2075.7
282.50 814.90 2095.4
287.33 813.21 2091.1
294.87 819.07 2106.2
303.26 827.08 2126.8
307.74 824.30 2119.6
318.05 836.96 2152.2
-107.18 840.52 2175.8
-99.85 826.57 2139.7
-93.21 816.93 2114.8
-87.96 819.17 2120.6
-81.53 809.88 2096.5
-74.11 788.70 2041.7
-68.28 782.64 2026.0
-62.19 772.25 1999.1
-55.23 748.17 1936.8
-39.91 743.25 1924.0
-35.27 750.85 1943.7
-30.58 759.53 1966.2
-26.03 775.77 2008.2
-21.14 787.32 2038.1
-15.71 780.49 2020.4
-10.31 767.89 1987.8
-5.17 769.69 1992.5
0.00 787.71 2039.1
5.36 798.16 2066.2
10.37 772.93 2000.9
15.28 758.87 1964.5
20.62 768.22 1988.7
25.81 769.28 1991.4
31.41 780.06 2019.3
37.36 795.17 2058.4
42.94 799.82 2070.5
48.35 800.50 2072.2
53.02 790.00 2045.1
57.60 780.23 2019.8
62.25 772.97 2001.0
66.71 764.63 1979.4
72.28 769.26 1991.4
78.38 778.55 2015.4
83.71 779.56 2018.0
88.57 776.25 2009.5
93.98 777.97 2013.9
98.28 770.68 1995.1
101.60 756.92 1959.4
107.73 764.39 1978.8
115.03 779.04 2016.7
119.80 776.06 2009.0
124.52 773.08 2001.3
131.32 782.68 2026.1
137.25 786.52 2036.1
141.92 783.16 2027.4
147.08 782.68 2026.1
152.66 784.35 2030.4
158.11 785.29 2032.9
163.35 785.15 2032.5
167.74 781.05 2021.9
172.40 778.39 2015.0
178.81 783.63 2028.6
185.13 788.14 2040.2
192.03 794.80 2057.5
196.70 792.12 2050.5
201.24 789.07 2042.7
207.90 794.28 2056.1
211.64 788.36 2040.8
216.88 788.17 2040.3
226.16 802.32 2077.0
228.90 793.17 2053.3
225.70 764.30 1978.5
230.12 761.95 1972.5
236.83 767.13 1985.8
240.22 761.55 1971.4
247.22 767.43 1986.6
256.78 780.81 2021.3
264.22 787.38 2038.3
272.12 795.02 2058.1
280.00 802.29 2076.9
284.40 799.55 2069.8
290.85 802.52 2077.5
297.72 806.55 2087.9
302.10 803.80 2080.8
311.90 815.32 2110.6
325.74 836.82 2166.3
-102.55 843.21 2197.5
-94.56 823.25 2145.5
-88.20 815.81 2126.2
-81.75 806.58 2102.1
-74.31 785.52 2047.2
-68.28 777.35 2025.9
-62.02 764.87 1993.4
-56.24 756.69 1972.1
-51.45 761.39 1984.3
-45.98 756.06 1970.4
-40.87 756.10 1970.5
-36.22 765.80 1995.8
-31.53 777.65 2026.7
-26.68 789.86 2058.5
-21.52 796.32 2075.4
-15.81 779.86 2032.5
-10.25 758.74 1977.4
-5.14 761.25 1984.0
0.00 780.96 2035.3
5.42 802.45 2091.3
10.65 788.11 2054.0
15.57 768.04 2001.7
20.87 772.32 2012.8
25.95 768.00 2001.6
31.32 772.64 2013.6
37.71 797.32 2078.0
53.84 796.84 2076.7
57.76 777.10 2025.3
61.61 759.86 1980.3
65.39 744.41 1940.1
77.14 761.11 1983.6
83.47 772.14 2012.3
87.78 764.19 1991.6
92.58 761.25 1983.9
98.08 764.03 1991.2
102.80 760.72 1982.6
108.33 763.49 1989.8
114.86 772.70 2013.8
120.62 776.17 2022.8
126.49 780.00 2032.8
132.04 781.68 2037.2
136.48 776.91 2024.8
141.45 775.36 2020.7
146.87 776.31 2023.2
153.42 782.97 2040.6
159.91 788.91 2056.0
164.69 786.27 2049.2
168.51 779.34 2031.1
173.18 776.69 2024.2
179.46 781.18 2035.9
183.60 776.39 2023.4
188.03 773.01 2014.6
193.48 773.92 2017.0
198.85 774.46 2018.4
209.49 794.98 2071.9
217.12 803.35 2093.7
219.63 792.83 2066.2
225.85 795.84 2074.1
231.69 797.43 2078.2
231.72 779.42 2031.3
231.18 760.34 1981.6
233.05 749.81 1954.2
239.07 752.82 1962.0
248.82 767.20 1999.5
258.06 779.44 2031.3
265.05 784.55 2044.7
266.11 772.23 2012.6
267.00 759.92 1980.5
274.72 767.15 1999.3
284.48 779.70 2032.0
297.05 799.34 2083.2
307.73 813.28 2119.6
313.94 815.15 2124.4
323.38 825.17 2150.5
328.98 825.25 2150.7
-114.55 841.96 2209.2
-107.55 832.09 2183.3
-102.25 835.03 2191.0
-94.93 820.88 2153.9
-87.15 800.68 2100.9
-79.53 779.40 2045.1
-73.32 769.86 2020.0
-68.34 772.76 2027.7
-63.20 774.24 2031.5
-58.45 781.06 2049.4
-53.65 788.59 2069.2
-48.07 785.07 2059.9
-41.53 763.03 2002.1
-35.74 750.60 1969.5
-31.28 766.30 2010.7
-26.60 781.99 2051.9
-21.24 780.59 2048.2
-15.43 756.03 1983.8
-10.26 754.26 1979.1
-5.28 776.71 2038.0
0.00 779.91 2046.4
5.34 784.54 2058.6
10.68 785.25 2060.4
15.92 780.25 2047.3
21.15 777.38 2039.8
26.04 765.61 2008.9
31.20 764.52 2006.0
37.25 782.29 2052.7
43.21 794.01 2083.4
48.37 790.05 2073.0
53.84 791.43 2076.6
58.77 785.33 2060.6
63.00 771.75 2025.0
67.21 759.95 1994.0
83.82 770.08 2020.6
90.53 782.81 2054.0
95.15 777.04 2038.9
100.38 776.60 2037.7
104.58 768.68 2017.0
109.49 766.46 2011.1
113.74 759.96 1994.1
116.89 747.06 1960.2
124.16 760.47 1995.4
131.25 771.73 2025.0
136.54 771.97 2025.6
142.42 775.41 2034.6
146.12 767.11 2012.8
150.89 764.85 2006.9
157.37 771.11 2023.3
162.29 769.56 2019.2
169.19 777.23 2039.4
177.31 789.86 2072.5
182.57 789.35 2071.2
185.20 777.83 2041.0
187.06 763.84 2004.2
189.90 754.45 1979.6
195.17 755.00 1981.0
205.25 773.62 2029.9
215.86 793.29 2081.5
221.40 793.81 2082.9
222.30 778.03 2041.5
222.45 760.48 1995.4
226.83 757.81 1988.4
230.73 753.72 1977.7
236.35 755.29 1981.8
246.29 770.31 2021.2
252.15 772.22 2026.2
257.45 772.35 2026.6
265.04 779.20 2044.6
266.82 769.08 2018.0
267.22 755.42 1982.2
274.45 761.20 1997.3
284.60 774.74 2032.8
297.57 795.32 2086.8
310.81 815.89 2140.8
320.09 825.50 2166.0
330.96 824.60 2163.7
-106.35 817.24 2159.1
-98.37 797.88 2107.9
-92.83 797.25 2106.2
-86.60 790.26 2087.8
-79.05 769.46 2032.8
-72.94 760.68 2009.6
-68.65 771.00 2036.9
-64.16 780.61 2062.3
-58.42 775.35 2048.4
-52.72 769.74 2033.6
-47.04 763.06 2015.9
-40.40 737.26 1947.7
-30.24 735.90 1944.2
-25.92 756.81 1999.4
-20.81 759.66 2006.9
-15.56 757.20 2000.4
-10.65 777.74 2054.7
-5.38 785.18 2074.4
0.00 772.09 2039.8
5.31 775.98 2050.0
10.65 777.39 2053.8
15.69 763.57 2017.3
20.64 753.29 1990.1
25.85 754.69 1993.8
31.46 765.64 2022.7
36.38 758.88 2004.9
40.98 747.88 1975.8
46.78 758.81 2004.7
53.01 773.99 2044.8
57.86 767.92 2028.8
62.07 755.13 1995.0
67.52 758.26 2003.2
72.06 751.48 1985.3
80.94 738.61 1951.3
89.33 767.19 2026.8
95.84 777.37 2053.7
100.23 770.21 2034.8
103.51 755.62 1996.3
109.69 762.60 2014.7
115.27 764.98 2021.0
116.71 740.85 1957.2
122.11 742.87 1962.6
131.84 769.97 2034.2
140.12 786.81 2078.7
143.52 776.09 2050.3
144.75 754.77 1994.0
150.39 757.12 2000.2
157.94 768.64 2030.7
161.08 758.62 2004.2
166.01 757.42 2001.0
174.60 772.45 2040.7
180.34 774.42 2045.9
184.17 768.27 2029.7
187.31 759.64 2006.9
191.22 754.54 1993.4
197.54 758.96 2005.1
201.75 755.27 1995.3
206.10 752.27 1987.4
214.07 762.31 2013.9
217.72 756.85 1999.5
221.92 753.49 1990.6
230.10 763.51 2017.1
233.64 758.03 2002.6
239.32 759.59 2006.7
249.67 775.56 2048.9
256.18 779.22 2058.6
259.20 772.32 2040.4
264.30 771.75 2038.9
269.01 770.12 2034.6
272.46 764.97 2021.0
277.36 764.04 2018.5
284.97 770.47 2035.5
297.16 788.82 2084.0
309.19 806.11 2129.6
319.81 819.17 2164.2
-115.28 835.79 2223.3
-105.89 808.12 2149.7
-98.54 793.80 2111.6
-93.57 798.10 2123.0
-87.30 791.14 2104.5
-79.81 771.52 2052.3
-72.87 754.71 2007.6
-67.95 757.93 2016.2
-62.88 759.75 2021.0
-56.65 746.78 1986.5
-50.97 739.09 1966.0
-45.24 728.93 1939.0
-40.32 730.72 1943.8
-35.97 745.18 1982.3
-31.17 753.30 2003.9
-26.46 767.40 2041.4
-20.93 758.62 2018.0
-15.38 743.51 1977.8
-10.31 747.74 1989.1
-5.09 738.25 1963.8
0.00 738.95 1965.7
5.21 755.49 2009.7
10.43 755.84 2010.6
15.36 742.45 1975.0
20.71 750.88 1997.4
26.56 770.22 2048.8
31.81 768.78 2045.0
36.18 749.40 1993.5
40.49 733.89 1952.2
45.96 740.54 1969.9
52.11 755.62 2010.0
56.89 749.95 1994.9
61.65 744.97 1981.7
67.79 756.17 2011.5
73.55 761.74 2026.3
77.78 751.83 1999.9
81.28 736.64 1959.5
86.81 740.44 1969.6
93.74 755.12 2008.7
98.71 753.29 2003.8
102.77 745.12 1982.1
109.89 758.73 2018.3
117.72 775.85 2063.8
121.43 765.56 2036.5
125.07 755.62 2010.0
132.80 770.26 2049.0
146.39 786.18 2091.3
146.43 758.32 2017.2
150.87 754.33 2006.6
159.82 772.45 2054.8
164.51 769.51 2047.0
166.38 753.93 2005.5
171.55 753.78 2005.1
178.19 759.95 2021.5
183.40 759.80 2021.1
189.30 762.44 2028.2
196.03 768.24 2043.6
198.07 755.81 2010.5
197.96 736.02 1957.9
210.39 744.08 1979.3
216.39 747.05 1987.2
223.04 752.11 2000.7
235.39 775.72 2063.5
242.96 782.86 2082.5
243.52 767.62 2041.9
248.75 767.41 2041.4
261.37 789.57 2100.3
271.39 787.02 2093.6
271.57 772.12 2053.9
273.31 762.12 2027.3
276.70 757.00 2013.7
286.25 768.63 2044.6
300.58 792.45 2108.0
310.66 804.40 2139.8
318.16 809.37 2153.0
-113.49 817.11 2188.7
-105.71 801.13 2145.9
-99.80 798.43 2138.6
-94.64 801.65 2147.3
-88.23 794.04 2126.9
-80.10 768.95 2059.7
-72.73 748.04 2003.7
-67.69 749.85 2008.5
-62.52 750.25 2009.6
-57.31 750.30 2009.7
-52.50 755.95 2024.9
-46.90 750.39 2010.0
-42.06 757.07 2027.9
-37.13 763.75 2045.8
-31.78 762.73 2043.0
-21.64 779.22 2087.2
-15.53 745.66 1997.3
-10.15 730.98 1958.0
-5.10 734.13 1966.4
0.00 746.73 2000.2
5.30 762.81 2043.2
10.60 763.15 2044.2
15.62 749.85 2008.5
21.03 757.18 2028.2
26.84 772.90 2070.3
32.00 767.98 2057.1
36.75 756.06 2025.2
41.44 745.88 1997.9
46.29 740.60 1983.8
51.69 744.41 1993.9
57.85 757.30 2028.5
64.18 770.18 2063.0
70.03 775.72 2077.8
75.41 775.66 2077.7
80.06 768.60 2058.7
84.03 756.30 2025.8
89.07 754.48 2020.9
95.48 763.83 2046.0
99.57 754.67 2021.4
102.67 739.21 1980.0
108.86 746.45 1999.4
115.68 757.19 2028.2
121.98 763.72 2045.7
128.38 770.25 2063.2
133.77 770.49 2063.8
140.23 776.66 2080.3
144.23 769.21 2060.4
143.78 739.42 1980.6
149.80 743.83 1992.4
160.61 770.91 2064.9
167.51 778.10 2084.2
171.56 772.03 2067.9
173.61 757.59 2029.2
177.28 750.81 2011.1
183.30 754.15 2020.0
190.07 760.26 2036.4
196.29 763.93 2046.2
197.96 750.18 2009.4
201.62 744.44 1994.0
209.93 755.76 2024.4
216.62 760.80 2037.9
221.14 758.18 2030.8
224.79 752.77 2016.4
233.99 765.80 2051.2
241.53 772.90 2070.3
241.95 757.40 2028.8
246.46 755.11 2022.6
257.89 773.66 2072.3
268.39 788.73 2112.7
270.53 779.12 2086.9
271.56 766.75 2053.8
274.17 759.23 2033.7
278.97 757.96 2030.2
290.00 773.33 2071.4
299.91 785.22 2103.3
304.86 783.93 2099.8
315.00 795.80 2131.6
-115.91 828.79 2235.5
-107.92 812.22 2190.8
-101.24 804.32 2169.5
-95.55 803.71 2167.8
-89.97 804.13 2169.0
-82.50 786.49 2121.4
-73.81 753.90 2033.5
-67.59 743.53 2005.5
-63.42 755.75 2038.5
-59.05 767.62 2070.5
-53.85 770.10 2077.2
-47.90 761.11 2052.9
-42.27 755.58 2038.0
-36.70 749.71 2022.2
-31.54 751.82 2027.9
-27.07 774.09 2088.0
-21.70 775.85 2092.7
-15.68 747.36 2015.9
-10.31 736.95 1987.8
-5.20 743.56 2005.6
0.00 756.77 2041.2
5.41 774.15 2088.1
10.87 776.92 2095.6
16.07 765.79 2065.6
21.11 754.65 2035.5
26.32 752.89 2030.8
31.68 754.95 2036.3
36.72 750.05 2023.1
41.57 743.07 2004.3
46.65 741.30 1999.5
51.93 742.64 2003.1
57.87 752.33 2029.3
63.89 761.31 2053.5
69.39 763.34 2059.0
75.30 769.18 2074.7
80.53 767.73 2070.8
84.38 754.11 2034.1
89.27 750.91 2025.4
95.60 759.52 2048.6
99.66 750.06 2023.1
102.80 735.04 1982.6
109.20 743.63 2005.8
115.19 748.75 2019.6
120.69 750.38 2024.0
127.61 760.34 2050.9
133.82 765.44 2064.6
138.46 761.51 2054.0
140.48 744.04 2006.9
143.56 733.17 1977.6
153.51 756.98 2041.8
163.36 778.69 2100.4
169.00 779.59 2102.8
171.63 766.97 2068.7
172.16 746.03 2012.3
177.92 748.31 2018.4
186.25 760.97 2052.6
190.66 757.35 2042.8
194.39 751.30 2026.5
201.07 756.68 2041.0
209.81 769.31 2075.1
213.88 764.63 2062.4
216.20 754.07 2034.0
224.47 764.27 2061.5
232.25 772.37 2083.3
234.62 762.50 2056.7
235.10 747.10 2015.1
237.37 737.92 1990.4
243.83 741.86 2001.0
248.83 741.31 1999.5
252.76 737.65 1989.7
259.29 741.58 2000.3
264.65 742.05 2001.5
272.51 749.41 2021.4
282.91 763.32 2058.9
290.24 768.60 2073.1
296.18 770.08 2077.1
309.03 789.12 2128.5
-96.74 808.08 2195.0
-89.15 791.24 2149.2
-83.44 789.93 2145.7
-76.15 772.39 2098.0
-68.50 748.28 2032.6
-63.24 748.34 2032.7
-58.46 754.60 2049.7
-52.83 750.16 2037.7
-47.29 746.06 2026.5
-41.98 745.06 2023.8
-36.75 745.44 2024.8
-31.83 753.41 2046.5
-26.68 757.58 2057.8
-20.86 740.67 2011.9
-15.46 731.71 1987.5
-10.42 740.01 2010.1
-5.17 734.14 1994.1
0.00 735.18 1997.0
5.27 747.96 2031.7
10.52 746.92 2028.9
15.90 752.44 2043.8
21.34 757.60 2057.9
26.43 750.67 2039.0
31.59 747.54 2030.5
37.22 755.11 2051.1
42.87 760.95 2067.0
47.68 752.27 2043.4
52.56 746.36 2027.3
57.17 738.03 2004.7
61.63 729.34 1981.1
67.56 737.92 2004.4
73.97 750.29 2038.0
79.61 753.68 2047.2
83.86 744.29 2021.7
88.52 739.39 2008.4
94.55 745.87 2026.0
100.76 753.03 2045.5
106.44 755.71 2052.7
110.32 745.95 2026.2
113.58 733.10 1991.3
119.06 735.07 1996.7
126.08 746.00 2026.4
134.05 761.41 2068.2
140.84 769.23 2089.5
144.01 757.39 2057.3
148.23 751.75 2042.0
152.66 747.49 2030.4
156.51 740.81 2012.3
164.03 751.36 2040.9
168.75 748.81 2034.0
169.90 731.10 1985.9
176.34 736.47 2000.5
185.81 753.87 2047.7
191.69 756.12 2053.9
198.23 760.78 2066.5
207.69 776.09 2108.1
216.97 770.24 2092.2
214.10 741.52 2014.2
217.03 733.78 1993.2
228.49 754.56 2049.6
234.60 757.11 2056.5
236.82 747.30 2029.9
240.46 742.29 2016.3
244.14 737.63 2003.6
246.37 728.85 1979.8
250.48 725.90 1971.7
257.33 730.83 1985.2
266.10 740.90 2012.5
277.64 758.16 2059.4
281.61 754.50 2049.4
282.14 741.93 2015.3
294.04 759.16 2062.1
314.01 796.23 2162.8
-103.12 807.78 2209.7
-93.18 772.87 2114.2
-86.04 758.19 2074.1
-80.74 758.95 2076.2
-75.40 759.36 2077.3
-69.57 754.61 2064.3
-64.05 752.61 2058.8
-58.96 755.75 2067.4
-52.97 746.87 2043.1
-47.06 737.31 2016.9
-41.43 730.13 1997.3
-35.94 723.99 1980.5
-31.44 738.78 2021.0
-26.56 749.10 2049.2
-21.04 741.57 2028.6
-15.80 742.61 2031.5
-10.70 754.64 2064.4
-5.34 752.24 2057.8
0.00 737.83 2018.4
5.21 735.08 2010.8
10.47 738.16 2019.3
15.91 747.76 2045.6
21.35 752.55 2058.7
26.44 745.67 2039.8
31.55 741.52 2028.5
37.15 748.36 2047.2
43.12 760.00 2079.0
48.33 757.21 2071.4
53.09 748.59 2047.8
57.51 737.22 2016.7
62.30 732.02 2002.5
68.59 743.98 2035.2
74.68 752.15 2057.6
79.79 750.03 2051.8
85.49 753.39 2060.9
91.82 761.55 2083.3
95.72 749.81 2051.2
99.55 738.75 2020.9
106.38 749.98 2051.6
111.43 748.18 2046.7
114.90 736.43 2014.5
120.73 740.10 2024.6
126.02 740.34 2025.2
131.85 743.66 2034.3
140.33 761.02 2081.8
145.38 759.19 2076.8
148.49 747.76 2045.6
151.59 737.02 2016.2
154.75 727.30 1989.6
161.53 734.71 2009.8
170.36 750.66 2053.5
176.05 752.22 2057.8
177.06 734.28 2008.7
180.53 727.29 1989.6
187.14 732.96 2005.0
194.72 742.03 2029.9
205.10 761.01 2081.8
213.09 770.41 2107.5
217.34 766.13 2095.8
216.36 744.08 2035.5
214.26 719.31 1967.7
220.56 723.23 1978.4
235.22 753.77 2062.0
246.49 772.34 2112.8
247.45 758.49 2074.9
248.10 744.30 2036.1
251.45 738.63 2020.6
256.85 739.11 2021.9
262.26 739.57 2023.2
269.40 744.81 2037.5
281.63 763.66 2089.0
286.07 761.04 2081.9
286.16 747.19 2044.0
298.66 765.67 2094.5
310.35 781.41 2137.6
-101.32 788.06 2171.2
-93.47 769.73 2120.7
-88.02 770.15 2121.8
-81.14 757.26 2086.3
-74.57 745.74 2054.6
-68.84 741.36 2042.5
-63.37 739.37 2037.0
-58.26 741.47 2042.8
-52.28 731.96 2016.6
-46.40 721.77 1988.6
-40.76 713.28 1965.2
-35.53 710.58 1957.7
-31.24 729.03 2008.6
-26.56 743.73 2049.0
-21.15 740.33 2039.7
-15.79 736.94 2030.3
-10.63 744.11 2050.1
-5.40 756.40 2084.0
0.00 756.75 2084.9
5.36 750.26 2067.0
10.70 749.23 2064.2
15.83 738.64 2035.0
20.68 723.96 1994.6
25.92 725.64 1999.2
31.29 730.06 2011.4
36.74 734.80 2024.5
42.57 745.00 2052.6
48.11 748.38 2061.9
53.28 745.95 2055.2
58.47 744.20 2050.3
64.05 747.21 2058.7
70.65 760.80 2096.1
81.28 758.63 2090.1
86.11 753.44 2075.8
91.48 753.37 2075.6
94.27 733.18 2020.0
99.45 732.76 2018.8
107.78 754.49 2078.7
113.52 756.78 2085.0
117.78 749.53 2065.0
121.95 742.27 2045.0
125.48 731.95 2016.6
130.38 730.14 2011.6
137.47 740.25 2039.5
143.59 744.56 2051.3
147.73 738.65 2035.1
153.76 742.27 2045.0
160.20 747.59 2059.7
165.21 746.09 2055.6
172.06 752.75 2073.9
177.80 754.31 2078.2
178.86 736.48 2029.1
183.40 733.61 2021.2
191.14 743.31 2047.9
193.44 731.94 2016.6
198.16 730.08 2011.4
208.73 749.28 2064.3
215.78 755.21 2080.7
217.64 743.15 2047.5
218.11 727.02 2003.0
224.60 731.25 2014.7
239.89 763.29 2102.9
246.99 751.70 2071.0
245.80 732.17 2017.2
247.36 721.46 1987.7
254.22 726.34 2001.1
261.51 732.22 2017.4
267.65 734.72 2024.2
278.60 750.06 2066.5
286.43 756.60 2084.5
290.44 752.98 2074.5
299.31 761.87 2099.0
307.08 767.71 2115.1
315.91 775.91 2137.7
-103.34 797.98 2214.3
-97.27 795.35 2207.0
-89.73 779.51 2163.1
-81.13 751.80 2086.2
-74.43 738.99 2050.6
-68.55 732.95 2033.9
-62.78 727.24 2018.0
-57.58 727.63 2019.1
-52.38 728.02 2020.2
-47.18 728.73 2022.2
-41.65 723.69 2008.2
-36.48 724.40 2010.1
-31.72 734.93 2039.4
-26.66 741.06 2056.4
-21.31 740.40 2054.6
-15.94 738.72 2049.9
-10.78 748.90 2078.2
5.46 759.08 2106.4
10.81 751.28 2084.7
15.83 733.64 2035.8
20.64 717.35 1990.6
25.82 717.67 1991.5
31.64 732.90 2033.7
37.69 748.46 2076.9
43.09 748.77 2077.8
48.04 741.95 2058.9
53.25 740.22 2054.0
58.39 737.80 2047.3
62.87 728.26 2020.9
68.23 729.56 2024.5
74.81 742.72 2061.0
79.52 736.89 2044.8
84.74 736.15 2042.8
90.60 740.82 2055.7
95.00 733.63 2035.8
101.98 746.08 2070.3
108.36 753.10 2089.8
111.82 740.14 2053.8
116.70 737.34 2046.1
121.65 735.21 2040.2
127.51 738.49 2049.3
134.99 750.57 2082.8
140.31 750.12 2081.5
144.43 743.57 2063.4
149.69 743.11 2062.1
156.78 751.44 2085.2
160.48 743.53 2063.3
162.55 728.86 2022.5
169.32 735.49 2040.9
175.14 737.71 2047.1
177.11 724.05 2009.2
182.53 724.92 2011.6
192.69 744.02 2064.6
197.82 743.18 2062.3
198.60 726.47 2015.9
205.02 730.70 2027.6
211.68 735.59 2041.2
213.04 722.26 2004.2
215.02 711.62 1974.7
222.80 720.21 1998.5
234.86 741.94 2058.8
240.02 741.41 2057.4
241.50 729.76 2025.0
243.61 720.46 1999.2
247.91 717.90 1992.1
257.75 731.17 2028.9
263.17 731.63 2030.2
267.99 730.40 2026.8
278.95 745.65 2069.1
286.66 751.81 2086.2
289.63 745.53 2068.8
297.42 751.67 2085.8
311.12 772.25 2142.9
-96.57 783.89 2191.0
-87.42 754.01 2107.5
-80.54 740.95 2071.0
-75.24 741.68 2073.0
-69.81 741.07 2071.3
-64.47 741.46 2072.4
-59.35 744.54 2081.0
-54.27 748.97 2093.4
-48.32 740.93 2070.9
-42.11 726.48 2030.5
-36.54 720.45 2013.7
-31.46 723.51 2022.2
-26.23 723.87 2023.2
-20.78 716.82 2003.5
-15.94 733.34 2049.7
0.00 739.76 2067.6
5.36 740.09 2068.6
10.71 739.08 2065.7
15.97 734.69 2053.5
21.19 730.97 2043.1
25.68 708.71 1980.9
37.01 729.55 2039.1
43.05 742.65 2075.7
47.05 721.39 2016.3
51.13 705.53 1972.0
57.68 723.67 2022.7
63.92 735.06 2054.5
68.64 728.61 2036.5
74.53 734.61 2053.3
79.22 728.83 2037.1
84.45 728.42 2036.0
92.05 747.20 2088.4
98.37 754.19 2108.0
103.13 749.06 2093.6
106.99 738.21 2063.3
111.25 731.05 2043.3
116.90 733.31 2049.6
122.43 734.56 2053.1
129.08 742.19 2074.4
135.35 747.13 2088.2
139.35 739.62 2067.3
145.01 741.18 2071.6
152.00 749.13 2093.8
157.05 747.32 2088.8
158.49 729.05 2037.7
161.18 717.50 2005.4
168.76 727.77 2034.1
174.80 730.99 2043.1
177.09 718.76 2009.0
181.32 714.92 1998.2
190.05 728.53 2036.3
197.27 735.75 2056.5
200.43 727.88 2034.4
203.86 721.34 2016.2
207.29 715.14 1998.8
211.82 712.95 1992.7
216.83 712.44 1991.3
222.67 714.61 1997.4
232.91 730.50 2041.8
243.28 746.05 2085.2
249.73 749.20 2094.0
249.73 733.26 2049.5
251.95 724.36 2024.6
262.23 738.54 2064.2
268.48 741.00 2071.1
270.55 732.09 2046.2
278.67 739.55 2067.1
287.92 749.68 2095.4
292.35 747.11 2088.2
302.06 757.89 2118.3
-93.82 756.10 2128.8
-86.52 740.79 2085.7
-81.08 740.53 2084.9
-75.34 737.25 2075.7
-69.55 732.96 2063.6
-64.00 730.67 2057.2
-58.70 731.06 2058.2
-53.46 732.44 2062.1
-47.39 721.44 2031.2
-42.19 722.48 2034.1
-37.40 731.88 2060.6
-31.59 721.20 2030.5
-25.81 707.17 1991.0
-20.61 705.85 1987.3
-15.94 727.95 2049.5
-10.73 734.99 2069.3
-5.19 710.57 2000.5
0.00 703.87 1981.7
5.22 715.59 2014.7
10.52 720.60 2028.8
15.81 721.93 2032.5
21.38 732.29 2061.7
26.42 723.90 2038.1
30.68 700.45 1972.1
36.37 711.80 2004.0
42.42 726.49 2045.4
46.47 707.38 1991.6
50.95 697.98 1965.1
58.05 723.03 2035.6
64.09 731.67 2060.0
68.57 722.59 2034.4
74.79 731.90 2060.6
79.91 729.83 2054.8
84.06 719.72 2026.3
90.42 728.68 2051.6
96.26 732.62 2062.6
100.53 724.85 2040.8
106.59 730.11 2055.6
113.13 738.05 2077.9
119.31 742.97 2091.8
125.44 747.21 2103.7
129.24 737.75 2077.1
132.41 725.62 2042.9
137.81 726.17 2044.5
144.93 735.41 2070.5
149.05 729.28 2053.2
150.95 713.13 2007.8
157.38 718.68 2023.4
165.39 730.90 2057.8
168.04 719.42 2025.5
169.00 701.60 1975.3
175.33 706.46 1989.0
183.77 719.32 2025.2
188.45 717.17 2019.1
191.22 708.02 1993.4
197.63 712.52 2006.1
204.59 718.69 2023.4
211.64 724.85 2040.8
219.87 734.67 2068.4
225.07 734.16 2067.0
231.31 736.97 2074.9
235.88 734.45 2067.8
240.41 731.93 2060.7
248.60 740.38 2084.5
250.28 729.54 2054.0
250.29 714.37 2011.3
258.40 722.48 2034.1
265.91 728.58 2051.3
269.16 723.05 2035.7
277.38 730.80 2057.5
286.61 740.87 2085.9
290.88 737.98 2077.7
300.57 748.69 2107.9
-95.52 764.15 2167.2
-88.97 756.25 2144.8
-82.25 745.69 2114.9
-75.40 732.46 2077.4
-69.64 728.53 2066.2
-64.11 726.59 2060.7
-58.29 720.66 2043.9
-52.65 716.05 2030.8
-46.93 709.11 2011.1
-42.01 714.13 2025.4
-37.03 719.48 2040.6
-31.05 703.89 1996.3
-25.70 698.92 1982.2
-20.81 707.59 2006.8
-15.79 715.91 2030.4
-10.44 709.61 2012.5
-5.19 705.62 2001.2
0.00 718.59 2038.0
5.27 716.93 2033.3
10.44 709.61 2012.5
15.52 703.61 1995.5
20.79 706.92 2004.9
26.45 719.54 2040.7
31.60 716.19 2031.2
36.59 710.84 2016.0
41.66 708.15 2008.4
46.84 707.78 2007.4
52.68 716.38 2031.8
58.26 720.33 2042.9
62.44 707.65 2007.0
67.64 707.59 2006.8
74.78 726.48 2060.4
80.45 729.41 2068.7
85.14 723.69 2052.5
90.24 721.96 2047.6
94.80 716.24 2031.3
99.36 711.17 2017.0
105.70 718.73 2038.4
112.40 727.94 2064.5
118.76 734.16 2082.2
126.28 746.68 2117.7
131.40 744.58 2111.7
134.78 733.19 2079.4
140.34 734.07 2081.9
144.66 728.64 2066.5
145.62 707.29 2006.0
150.44 705.52 2000.9
159.92 724.96 2056.1
167.86 736.43 2088.6
170.52 724.69 2055.3
182.38 708.69 2009.9
189.75 716.82 2033.0
192.09 706.07 2002.5
197.98 708.56 2009.6
205.99 718.33 2037.3
214.24 728.42 2065.9
218.45 724.60 2055.1
219.63 711.19 2017.0
229.41 725.57 2057.8
237.46 733.98 2081.7
240.39 726.51 2060.5
247.12 730.61 2072.1
252.99 732.06 2076.2
257.14 728.56 2066.3
263.85 732.31 2076.9
270.12 734.74 2083.8
271.86 724.95 2056.1
278.36 728.03 2064.8
289.28 742.31 2105.3
295.17 743.40 2108.4
303.34 750.08 2127.3
-90.92 767.15 2191.8
-82.46 742.13 2120.4
-77.04 742.85 2122.4
-72.43 752.16 2149.0
-65.89 741.32 2118.0
-59.25 727.17 2077.6
-53.65 724.24 2069.3
-47.93 719.00 2054.3
-42.34 714.41 2041.2
-36.79 709.49 2027.1
-30.93 695.97 1988.5
-25.69 693.68 1982.0
-20.87 704.27 2012.2
-15.87 714.20 2040.6
-10.60 715.20 2043.4
-5.31 716.86 2048.2
0.00 720.82 2059.5
5.26 709.92 2028.3
10.46 705.95 2017.0
15.64 703.96 2011.3
20.79 701.63 2004.7
26.25 708.88 2025.4
31.50 708.86 2025.3
36.60 705.86 2016.7
41.89 706.81 2019.5
47.27 709.09 2026.0
53.04 715.99 2045.7
58.50 717.92 2051.2
63.87 718.53 2053.0
70.55 732.68 2093.4
76.21 734.93 2099.8
80.18 721.66 2061.9
86.11 726.54 2075.8
92.60 735.38 2101.1
95.44 715.84 2045.2
98.18 697.61 1993.2
105.44 711.71 2033.5
113.06 726.80 2076.6
117.14 718.79 2053.7
121.99 716.06 2045.9
128.57 723.21 2066.3
133.42 720.47 2058.5
138.48 719.04 2054.4
142.27 711.35 2032.4
144.78 698.05 1994.4
151.20 703.86 2011.0
161.36 726.14 2074.7
170.34 741.82 2119.5
174.40 735.75 2102.1
173.86 711.24 2032.1
176.85 702.21 2006.3
187.82 724.45 2069.9
195.52 733.18 2094.8
197.93 722.17 2063.3
199.43 708.52 2024.3
202.93 702.44 2007.0
212.56 717.40 2049.7
218.32 718.87 2053.9
216.44 695.69 1987.7
223.21 700.77 2002.2
237.12 727.52 2078.6
245.73 737.18 2106.2
245.53 720.57 2058.8
244.17 701.34 2003.8
254.54 715.90 2045.4
267.87 738.00 2108.6
279.69 755.17 2157.6
287.67 746.85 2133.8
291.57 742.68 2122.0
297.77 744.42 2126.9
306.12 751.38 2146.8
-90.49 757.81 2181.3
-82.89 740.50 2131.5
-78.30 749.42 2157.2
-72.30 745.22 2145.1
-64.66 721.99 2078.2
-58.73 715.47 2059.5
-53.72 719.78 2071.9
-48.63 724.09 2084.3
-43.56 729.71 2100.4
-37.97 726.78 2092.0
-32.01 715.00 2058.1
-26.53 711.09 2046.8
-21.50 720.29 2073.3
-15.99 714.40 2056.4
-10.43 698.66 2011.1
-5.21 697.68 2008.3
0.00 698.34 2010.2
5.31 711.79 2048.9
10.94 732.79 2109.3
16.27 726.54 2091.3
21.51 720.62 2074.3
26.77 717.32 2064.8
31.68 707.45 2036.4
37.30 713.99 2055.2
43.23 724.13 2084.4
47.91 713.26 2053.1
52.88 708.63 2039.8
58.81 716.46 2062.3
64.77 723.30 2082.0
70.32 724.88 2086.6
74.73 715.31 2059.0
79.40 709.35 2041.8
86.22 722.07 2078.5
92.30 727.57 2094.3
94.60 704.22 2027.1
105.08 704.06 2026.6
113.30 722.98 2081.1
117.93 718.30 2067.6
121.47 707.72 2037.1
126.44 705.98 2032.1
131.88 706.86 2034.7
137.64 709.37 2041.9
143.04 709.92 2043.5
147.15 704.24 2027.1
152.03 702.48 2022.1
160.69 717.74 2066.0
168.66 729.06 2098.6
171.81 719.44 2070.9
174.97 710.46 2045.0
181.72 716.21 2061.6
191.47 733.06 2110.1
197.60 735.52 2117.2
199.71 723.27 2081.9
200.71 707.75 2037.2
205.28 705.30 2030.2
216.44 725.06 2087.1
225.49 736.97 2121.3
226.84 723.73 2083.2
228.41 711.80 2048.9
236.88 721.40 2076.5
246.91 735.24 2116.4
247.63 721.34 2076.4
245.51 699.95 2014.8
255.33 712.79 2051.8
262.96 719.11 2069.9
268.97 720.85 2074.9
280.59 737.24 2122.1
284.87 734.09 2113.1
292.06 738.42 2125.5
301.67 748.60 2154.8
-97.96 766.37 2222.5
-90.71 754.06 2186.9
-84.32 747.62 2168.2
-78.19 742.80 2154.2
-71.02 726.57 2107.1
-63.71 706.09 2047.7
-58.08 702.23 2036.5
-53.66 713.68 2069.8
-49.09 725.45 2103.9
-43.70 726.47 2106.8
-37.83 718.68 2084.2
-32.10 711.54 2063.5
-26.79 712.54 2066.4
-21.58 717.45 2080.7
-15.98 708.34 2054.2
-10.50 698.24 2025.0
-5.28 702.81 2038.2
0.00 708.35 2054.3
5.47 727.26 2109.1
16.46 729.52 2115.7
21.54 716.14 2076.9
26.51 705.04 2044.7
31.94 707.95 2053.1
38.27 727.15 2108.8
43.76 727.45 2109.7
47.92 708.18 2053.8
52.21 694.45 2014.0
57.41 694.08 2012.9
63.12 699.58 2028.8
68.57 701.48 2034.4
74.86 711.20 2062.5
81.78 725.14 2103.0
86.33 717.58 2081.1
89.84 702.85 2038.4
94.80 700.50 2031.5
100.67 704.66 2043.6
105.95 704.57 2043.3
111.65 707.09 2050.6
116.89 706.68 2049.4
121.12 700.40 2031.2
128.01 709.41 2057.4
135.29 719.72 2087.3
141.06 721.56 2092.6
146.26 720.47 2089.4
151.58 720.03 2088.2
157.68 723.15 2097.2
159.79 708.40 2054.4
160.46 688.44 1996.6
167.56 696.44 2019.7
175.02 705.40 2045.7
179.46 702.01 2035.9
186.50 708.69 2055.3
194.68 719.25 2085.9
199.15 715.85 2076.0
201.70 705.95 2047.3
208.01 709.36 2057.2
217.19 722.17 2094.4
224.07 726.86 2108.0
229.17 725.71 2104.6
234.67 725.85 2105.0
239.10 722.74 2096.0
244.58 722.88 2096.4
249.39 721.06 2091.2
251.54 711.80 2064.3
258.22 715.48 2075.0
262.45 712.36 2065.9
263.59 701.15 2033.4
269.78 703.53 2040.3
279.53 714.96 2073.5
293.19 735.75 2133.7
-97.66 758.30 2215.8
-89.37 737.34 2154.6
-83.58 735.47 2149.1
-77.94 734.89 2147.4
-72.41 735.27 2148.5
-66.32 729.50 2131.7
-58.83 705.92 2062.8
-52.97 699.17 2043.0
-48.67 713.78 2085.7
-43.52 718.02 2098.1
-37.74 711.58 2079.3
-32.08 705.78 2062.3
-26.67 704.18 2057.7
-21.42 706.79 2065.3
-15.96 702.27 2052.1
-10.55 696.46 2035.1
-5.37 708.44 2070.1
0.00 721.72 2108.9
5.47 721.72 2108.9
10.85 716.21 2092.8
16.01 704.54 2058.7
20.96 691.58 2020.8
26.22 692.20 2022.7
32.08 705.78 2062.3
37.82 713.20 2084.0
42.56 702.16 2051.8
47.39 695.00 2030.8
52.40 691.72 2021.3
57.15 685.85 2004.1
62.38 686.13 2004.9
68.24 692.88 2024.6
75.13 708.35 2069.9
82.40 725.12 2118.8
87.30 720.19 2104.5
90.33 701.36 2049.4
94.88 695.79 2033.1
100.56 698.62 2041.4
105.59 696.92 2036.5
112.56 707.51 2067.4
119.20 715.18 2089.8
122.12 700.86 2048.0
127.53 701.40 2049.6
135.76 716.81 2094.6
142.38 722.84 2112.2
146.71 717.24 2095.8
150.95 711.63 2079.4
157.88 718.61 2099.8
160.72 707.18 2066.4
161.35 687.03 2007.6
168.40 694.65 2029.8
173.39 693.55 2026.6
175.36 680.83 1989.4
185.28 698.75 2041.8
196.60 720.86 2106.4
199.85 712.96 2083.3
201.30 699.26 2043.3
206.08 697.49 2038.1
213.65 705.06 2060.2
221.54 713.27 2084.2
227.81 715.99 2092.2
231.50 710.66 2076.6
234.03 702.10 2051.6
239.40 702.24 2052.0
244.09 700.44 2046.7
248.07 696.71 2035.8
256.78 706.16 2063.4
266.59 718.17 2098.6
273.42 721.82 2109.2
281.28 728.03 2127.3
303.99 757.12 2212.4
-98.40 758.29 2232.7
-90.82 743.58 2189.4
-85.67 748.15 2202.8
-79.72 745.97 2196.4
-73.87 744.42 2191.9
-67.02 731.62 2154.2
-58.85 700.81 2063.4
-53.33 698.60 2056.9
-49.35 718.25 2114.8
-43.61 714.11 2102.6
-37.42 700.32 2062.0
-32.06 700.02 2061.1
-26.85 703.58 2071.6
-21.53 705.21 2076.4
-16.01 699.11 2058.5
-10.61 695.27 2047.1
-5.40 707.81 2084.1
0.00 718.43 2115.3
5.47 716.82 2110.6
10.64 697.20 2052.8
20.60 674.66 1986.5
26.33 689.76 2030.9
31.91 696.81 2051.7
37.32 698.39 2056.3
42.65 698.36 2056.2
48.20 701.53 2065.6
53.16 696.35 2050.3
57.79 688.27 2026.5
62.10 677.94 1996.1
66.79 673.06 1981.8
73.54 688.11 2026.1
80.59 703.80 2072.3
87.68 717.87 2113.7
93.23 718.45 2115.4
97.43 709.05 2087.7
102.69 708.01 2084.7
106.02 694.44 2044.7
111.10 693.07 2040.7
119.51 711.60 2095.2
124.24 707.65 2083.6
127.39 695.35 2047.4
133.17 697.82 2054.7
141.28 711.83 2095.9
146.96 713.00 2099.4
149.77 700.70 2063.1
155.44 702.18 2067.5
163.13 712.32 2097.3
168.68 712.83 2098.8
174.49 714.30 2103.2
177.80 705.83 2078.2
180.83 696.71 2051.4
192.10 719.00 2117.0
201.07 731.66 2154.3
201.36 712.92 2099.1
205.08 707.00 2081.7
212.62 714.20 2102.9
216.85 710.19 2091.1
221.32 707.14 2082.1
227.48 709.52 2089.1
230.84 703.27 2070.7
233.89 696.37 2050.4
239.92 698.42 2056.4
243.27 692.80 2039.9
246.09 685.90 2019.6
257.34 702.31 2067.9
269.91 721.59 2124.6
279.35 731.91 2155.0
290.07 745.09 2193.8
299.60 754.75 2222.3
-79.61 739.26 2193.4
-73.20 731.98 2171.8
-65.89 713.83 2118.0
-59.14 698.88 2073.6
-54.72 711.37 2110.7
-49.65 717.16 2127.8
-43.02 699.00 2074.0
-37.49 696.16 2065.5
-32.68 708.00 2100.7
-27.28 709.30 2104.5
-21.83 709.32 2104.6
-16.18 701.03 2080.0
-10.69 694.65 2061.1
-5.40 701.69 2081.9
0.00 705.84 2094.3
5.38 699.45 2075.3
10.41 676.45 2007.0
20.61 669.72 1987.1
26.51 689.18 2044.8
32.40 701.93 2082.7
38.12 707.97 2100.6
43.88 713.05 2115.6
48.61 702.16 2083.3
52.58 683.60 2028.3
57.62 681.00 2020.5
62.47 676.80 2008.1
78.88 683.66 2028.4
85.94 698.27 2071.8
91.51 699.80 2076.3
95.74 691.43 2051.5
102.30 699.97 2076.8
107.18 696.70 2067.1
110.31 682.89 2026.2
116.52 688.55 2042.9
124.74 705.04 2091.9
131.44 711.95 2112.4
134.56 699.73 2076.1
139.99 699.94 2076.8
147.20 708.75 2102.9
151.60 703.86 2088.4
155.14 695.45 2063.4
160.90 697.24 2068.7
167.45 702.21 2083.5
173.92 706.53 2096.3
180.93 712.76 2114.8
187.79 718.03 2130.4
194.65 722.97 2145.1
198.49 716.78 2126.7
201.88 709.30 2104.5
208.87 714.55 2120.1
214.98 716.61 2126.2
217.80 707.86 2100.2
221.39 701.97 2082.8
226.43 700.84 2079.4
230.08 695.58 2063.8
233.43 689.69 2046.3
240.87 695.85 2064.6
245.60 694.08 2059.3
247.08 683.41 2027.7
257.42 697.18 2068.5
267.85 710.61 2108.4
274.57 713.89 2118.1
287.44 732.69 2173.9
299.32 748.30 2220.2
-79.50 732.56 2190.4
-72.71 721.52 2157.4
-67.57 726.33 2171.8
-62.56 733.68 2193.7
-55.38 714.38 2136.0
-48.16 690.32 2064.1
-42.60 686.87 2053.8
-37.86 697.68 2086.1
-32.66 702.15 2099.5
-27.03 697.42 2085.3
-21.56 695.22 2078.7
-15.95 686.03 2051.3
-10.67 687.95 2057.0
-5.44 702.23 2099.7
0.00 698.10 2087.4
5.29 682.56 2040.9
10.49 676.85 2023.8
15.78 678.42 2028.5
21.10 680.63 2035.1
26.88 693.61 2073.9
32.92 707.86 2116.5
38.79 714.81 2137.3
44.07 710.65 2124.9
48.25 691.59 2067.9
53.53 690.60 2064.9
60.24 706.41 2112.2
64.82 696.85 2083.6
68.27 677.46 2025.6
72.76 670.43 2004.6
78.43 674.49 2016.8
84.67 682.67 2041.2
89.20 676.90 2023.9
94.44 676.83 2023.7
102.29 694.49 2076.6
109.63 707.08 2114.2
115.50 709.53 2121.5
118.88 697.09 2084.3
124.16 696.36 2082.1
134.19 721.27 2156.6
142.65 707.76 2116.2
146.19 698.47 2088.4
152.06 700.57 2094.7
157.39 700.13 2093.4
161.25 693.37 2073.2
165.76 689.76 2062.4
172.09 693.74 2074.3
178.97 699.61 2091.9
187.02 709.58 2121.7
195.40 720.18 2153.4
197.59 708.02 2117.0
199.05 693.97 2075.0
202.52 687.50 2055.6
204.75 677.24 2025.0
214.25 690.96 2066.0
224.77 707.21 2114.6
230.81 708.92 2119.7
235.41 706.22 2111.6
239.53 702.25 2099.8
248.21 711.52 2127.5
252.87 709.12 2120.3
254.04 697.27 2084.9
262.89 706.52 2112.5
271.40 714.51 2136.4
273.69 706.11 2111.3
282.06 713.45 2133.2
300.19 744.69 2226.7
-79.87 730.28 2200.6
-73.70 725.62 2186.6
-69.04 736.38 2219.0
-63.99 744.61 2243.8
-56.73 726.08 2188.0
-48.47 689.28 2077.1
-42.18 674.83 2033.5
-37.25 681.16 2052.6
-31.92 680.87 2051.7
-26.92 689.08 2076.5
-21.89 700.44 2110.7
-16.27 694.16 2091.8
-10.93 699.52 2107.9
-5.48 701.73 2114.6
0.00 685.04 2064.3
5.28 675.59 2035.8
10.56 675.59 2035.8
16.19 690.69 2081.3
22.11 707.37 2131.6
27.68 708.61 2135.3
33.29 710.16 2140.0
38.84 710.13 2139.9
43.77 700.34 2110.4
48.80 694.01 2091.3
55.15 705.93 2127.2
60.82 707.78 2132.8
64.17 684.43 2062.5
69.16 680.91 2051.9
75.40 689.36 2077.3
80.63 688.04 2073.3
86.27 690.18 2079.8
92.83 698.92 2106.1
100.22 712.69 2147.6
105.54 711.04 2142.6
110.20 705.29 2125.3
115.80 705.83 2127.0
118.87 691.59 2084.0
122.44 681.43 2053.4
130.76 697.37 2101.5
140.73 720.53 2171.2
146.02 718.85 2166.2
149.09 706.79 2129.8
154.45 706.05 2127.6
156.31 689.90 2078.9
156.51 667.79 2012.3
164.59 679.60 2047.9
174.89 699.57 2108.1
180.00 698.18 2103.9
186.33 701.49 2113.9
196.75 719.54 2168.3
201.01 714.68 2153.6
202.55 700.73 2111.6
205.93 693.67 2090.3
205.48 674.39 2032.2
212.56 680.18 2049.7
224.94 702.27 2116.2
232.84 709.61 2138.3
240.85 716.95 2160.4
248.54 723.02 2178.7
256.65 730.03 2199.9
260.37 724.51 2183.2
263.09 716.49 2159.1
274.12 730.99 2202.7
284.89 729.31 2197.7
290.74 729.71 2198.9
-80.76 732.63 2225.1
-74.78 730.51 2218.6
-68.41 724.00 2198.9
-61.93 714.98 2171.5
-56.50 717.53 2179.2
-49.65 700.68 2128.1
-42.33 671.95 2040.8
-31.90 675.14 2050.5
-27.31 693.61 2106.6
-22.20 704.89 2140.8
-16.50 698.34 2120.9
-11.02 699.91 2125.7
-5.51 699.29 2123.8
0.00 685.85 2083.0
5.35 679.90 2064.9
10.63 675.20 2050.7
16.19 685.20 2081.0
22.16 703.64 2137.0
27.80 706.12 2144.6
33.20 702.66 2134.1
38.50 698.56 2121.6
43.02 682.90 2074.0
47.53 670.67 2036.9
53.89 684.39 2078.6
59.65 688.72 2091.7
63.74 674.60 2048.9
69.59 679.87 2064.8
76.01 689.50 2094.1
81.50 690.07 2095.8
87.28 692.81 2104.2
93.94 701.81 2131.5
100.26 707.36 2148.3
104.27 696.97 2116.8
106.74 677.83 2058.7
110.00 665.25 2020.5
115.50 666.73 2024.9
121.69 671.95 2040.8
127.97 677.16 2056.6
135.55 688.61 2091.4
145.23 709.41 2154.6
153.05 719.91 2186.4
157.46 714.17 2169.0
158.06 692.21 2102.3
157.37 666.20 2023.3
164.49 673.88 2046.6
175.42 696.20 2114.4
181.43 698.24 2120.6
185.56 693.12 2105.1
193.55 702.32 2133.0
201.69 711.51 2161.0
207.43 711.98 2162.4
214.10 715.56 2173.2
216.63 705.43 2142.5
220.07 698.73 2122.1
229.03 709.45 2154.7
232.40 702.74 2134.3
235.56 695.72 2113.0
243.45 702.69 2134.1
252.33 712.13 2162.8
262.03 723.44 2197.2
-75.38 730.59 2236.5
-68.14 715.43 2190.1
-61.60 705.55 2159.8
-56.20 708.08 2167.6
-49.94 699.12 2140.2
-43.07 678.35 2076.6
-37.20 669.69 2050.1
-32.32 678.72 2077.7
-27.23 686.19 2100.6
-21.76 685.59 2098.8
-16.30 684.67 2095.9
-10.99 692.14 2118.8
-5.61 706.43 2162.5
0.00 707.67 2166.3
5.54 698.66 2138.8
10.97 691.21 2115.9
16.35 686.85 2102.6
21.96 691.80 2117.8
27.81 700.79 2145.3
33.50 703.56 2153.8
39.05 702.91 2151.8
43.86 690.77 2114.6
48.34 676.76 2071.7
54.67 688.83 2108.7
60.65 694.69 2126.6
65.00 682.53 2089.4
70.03 678.76 2077.8
75.48 679.32 2079.6
80.79 678.64 2077.5
86.48 681.06 2084.9
93.22 690.92 2115.1
99.58 697.05 2133.8
104.58 693.56 2123.1
107.96 680.14 2082.1
111.48 668.89 2047.6
117.21 671.29 2055.0
121.67 666.55 2040.4
125.76 660.25 2021.2
134.43 677.51 2074.0
145.60 705.60 2160.0
150.78 703.63 2154.0
152.41 685.86 2099.6
159.68 693.79 2123.9
166.19 698.00 2136.7
169.72 689.83 2111.7
176.97 696.81 2133.1
181.73 693.89 2124.2
184.36 683.23 2091.5
191.47 689.28 2110.0
198.75 695.62 2129.5
205.32 699.18 2140.4
213.33 707.37 2165.4
218.51 705.97 2161.1
224.65 707.66 2166.3
235.04 722.31 2211.2
239.17 717.50 2196.4
242.48 710.53 2175.1
251.07 718.98 2201.0
254.40 712.31 2180.5
258.40 707.80 2166.7
268.32 719.32 2202.0
-75.28 723.80 2233.4
-69.02 718.92 2218.4
-63.27 718.97 2218.5
-57.23 715.32 2207.3
-50.44 700.57 2161.8
-44.15 689.82 2128.6
-38.74 691.70 2134.4
-33.07 688.95 2125.9
-27.40 684.97 2113.6
-22.25 695.47 2146.0
-16.94 705.96 2178.4
-10.99 686.86 2119.5
-5.39 674.23 2080.5
0.00 683.48 2109.0
5.47 683.17 2108.1
11.00 687.79 2122.3
16.68 695.17 2145.1
22.09 690.23 2129.8
27.61 690.21 2129.8
32.97 686.79 2119.2
38.03 679.06 2095.4
43.83 684.89 2113.4
49.66 689.78 2128.5
55.35 691.90 2135.0
60.50 687.54 2121.6
65.76 685.03 2113.8
71.88 691.14 2132.7
77.64 693.24 2139.1
83.40 695.03 2144.6
87.97 687.26 2120.7
93.37 686.57 2118.6
100.72 699.44 2158.3
106.91 703.36 2170.4
110.41 690.04 2129.3
114.05 678.87 2094.8
121.20 688.63 2124.9
127.03 690.38 2130.3
127.45 663.82 2048.4
132.07 660.33 2037.6
143.41 689.46 2127.5
148.77 688.73 2125.2
152.60 681.24 2102.1
162.51 700.49 2161.5
169.12 704.67 2174.4
172.74 696.55 2149.4
179.46 701.03 2163.2
183.25 694.13 2141.9
187.26 688.46 2124.4
195.82 699.37 2158.1
203.85 707.82 2184.1
211.29 713.81 2202.6
218.44 718.56 2217.3
222.61 713.48 2201.6
225.90 705.95 2178.3
233.51 711.91 2196.7
237.18 705.90 2178.2
239.50 696.22 2148.3
254.39 722.70 2230.1
-63.70 718.05 2233.6
-56.60 701.88 2183.3
-50.52 696.10 2165.3
-44.81 694.61 2160.7
-39.18 694.03 2158.8
-33.33 688.85 2142.7
-27.93 692.55 2154.2
-22.93 710.93 2211.4
-17.42 719.82 2239.1
-11.27 698.71 2173.4
-5.38 667.20 2075.4
0.00 658.02 2046.8
5.35 662.91 2062.1
10.85 672.70 2092.5
16.45 679.73 2114.4
21.76 674.51 2098.1
27.17 673.88 2096.2
32.44 670.49 2085.6
37.14 657.92 2046.5
42.56 659.73 2052.1
48.44 667.34 2075.8
54.21 672.20 2090.9
59.71 673.07 2093.7
65.40 675.78 2102.1
72.93 695.61 2163.8
84.43 697.94 2171.0
87.13 675.24 2100.4
92.06 671.51 2088.8
98.93 681.52 2119.9
105.87 690.92 2149.2
110.29 683.81 2127.1
115.12 679.75 2114.4
123.78 697.70 2170.3
131.66 709.82 2208.0
134.23 693.53 2157.3
132.47 657.07 2043.9
146.29 671.83 2089.8
154.78 685.46 2132.2
162.99 696.94 2167.9
167.70 693.15 2156.1
172.19 688.75 2142.4
179.52 695.64 2163.9
186.31 700.08 2177.7
193.42 705.43 2194.3
199.16 705.58 2194.8
204.01 702.69 2185.8
213.45 715.33 2225.1
225.93 718.36 2234.5
228.33 707.83 2201.8
232.37 702.79 2186.1
231.69 684.04 2127.8
235.35 678.69 2111.1
252.42 711.37 2212.8
-63.96 715.22 2242.9
-56.92 700.08 2195.4
-50.94 696.17 2183.1
-44.69 687.10 2154.7
-38.60 678.32 2127.1
-32.87 673.79 2112.9
-27.56 678.06 2126.3
-22.62 695.70 2181.6
-17.15 703.01 2204.6
-11.41 701.80 2200.8
-5.61 689.66 2162.7
0.00 677.51 2124.6
5.53 680.24 2133.2
11.02 677.50 2124.6
16.40 672.32 2108.3
21.51 661.37 2074.0
26.65 655.58 2055.8
32.45 665.28 2086.3
37.93 666.47 2090.0
43.17 663.71 2081.3
48.87 667.92 2094.5
54.32 668.19 2095.4
59.32 663.29 2080.0
64.29 658.99 2066.5
70.86 670.48 2102.5
77.55 681.35 2136.7
80.86 663.08 2079.3
85.73 659.07 2066.8
93.18 674.18 2114.2
97.81 668.34 2095.8
102.24 661.89 2075.6
108.89 669.70 2100.1
116.35 681.45 2137.0
124.85 698.05 2189.0
132.55 708.87 2222.9
136.11 697.55 2187.4
135.22 665.30 2086.3
138.37 654.59 2052.7
146.99 669.64 2099.9
152.00 667.71 2093.9
156.04 661.84 2075.4
164.79 675.66 2118.8
174.15 690.98 2166.8
175.32 673.89 2113.2
190.64 689.66 2162.7
205.16 721.00 2261.0
207.70 709.65 2225.4
-64.74 718.08 2270.3
-57.26 698.53 2208.5
-52.27 708.52 2240.0
-46.74 712.77 2253.5
-40.02 697.43 2205.0
-33.75 686.30 2169.8
-27.39 668.23 2112.7
-21.81 665.23 2103.2
-16.83 684.25 2163.3
-11.38 693.91 2193.8
-5.70 695.72 2199.6
