ply
format ascii 1.0
element vertex 2180
property float x
property float y
property float z
end_header
234.55 -390.91 2513.0
238.83 -387.30 2489.8
240.77 -380.16 2443.9
244.56 -376.25 2418.7
251.89 -377.83 2428.9
260.31 -380.94 2448.9
264.02 -377.17 2424.7
269.36 -375.85 2416.2
280.02 -381.85 2454.7
287.56 -383.42 2464.8
294.92 -384.68 2472.9
306.62 -391.43 2516.3
308.41 -385.51 2478.3
306.64 -375.48 2413.8
315.60 -378.71 2434.6
319.99 -376.46 2420.1
325.76 -375.87 2416.3
339.58 -384.43 2471.3
343.81 -382.01 2455.8
349.22 -380.97 2449.1
360.70 -386.46 2484.4
364.98 -384.19 2469.8
372.72 -385.57 2478.7
380.20 -386.64 2485.5
379.05 -379.05 2436.7
383.36 -377.08 2424.1
397.96 -385.13 2475.8
94.73 -412.75 2609.9
102.10 -415.20 2625.4
113.60 -407.63 2577.5
128.59 -412.83 2610.4
144.16 -399.72 2527.5
149.46 -396.39 2506.5
155.57 -395.39 2500.2
159.47 -389.10 2460.3
164.02 -384.82 2433.3
170.51 -385.22 2435.8
178.22 -388.27 2455.1
182.85 -384.62 2432.0
186.82 -379.87 2402.0
196.65 -386.96 2446.8
203.93 -388.75 2458.1
204.03 -377.14 2384.8
208.00 -373.17 2359.6
218.98 -381.65 2413.2
230.23 -390.11 2466.8
236.00 -389.09 2460.3
237.87 -381.84 2414.4
241.58 -377.86 2389.3
247.92 -378.07 2390.6
255.20 -379.68 2400.8
262.85 -381.75 2413.9
271.66 -385.38 2436.8
279.91 -388.06 2453.8
284.93 -386.24 2442.3
284.51 -377.29 2385.7
287.62 -373.30 2360.4
296.58 -376.90 2383.2
302.91 -377.09 2384.4
312.04 -380.69 2407.2
317.27 -379.48 2399.5
315.47 -370.07 2340.0
331.62 -374.61 2368.7
344.62 -382.21 2416.8
359.99 -392.13 2479.5
368.88 -394.77 2496.2
368.75 -387.82 2452.3
366.75 -379.18 2397.7
372.67 -378.89 2395.8
384.60 -384.60 2431.9
393.42 -387.07 2447.5
405.98 -393.09 2485.6
414.36 -394.93 2497.2
421.64 -395.69 2502.1
101.79 -420.73 2617.4
111.03 -404.95 2519.2
117.69 -405.37 2521.9
150.99 -407.00 2532.1
155.56 -401.87 2500.1
158.32 -392.62 2442.6
161.50 -385.12 2395.9
168.30 -386.47 2404.3
176.15 -390.05 2426.5
183.29 -391.87 2437.9
189.50 -391.64 2436.5
196.81 -393.62 2448.8
201.81 -391.01 2432.5
204.54 -384.28 2390.7
210.86 -384.51 2392.1
218.98 -387.90 2413.2
227.66 -392.08 2439.2
238.17 -399.10 2482.9
244.84 -399.48 2485.2
247.25 -393.06 2445.3
252.20 -390.91 2431.9
257.18 -388.91 2419.5
262.21 -387.07 2408.0
273.41 -394.22 2452.5
284.50 -400.89 2494.0
289.97 -399.51 2485.5
290.01 -390.88 2431.8
284.52 -375.33 2335.0
303.03 -375.76 2337.7
318.18 -386.81 2406.4
327.35 -390.30 2428.1
331.65 -387.97 2413.6
340.80 -391.29 2434.3
345.88 -389.90 2425.6
352.04 -389.76 2424.8
366.28 -398.41 2478.6
372.72 -398.42 2478.7
370.19 -389.01 2420.1
374.50 -386.98 2407.5
384.61 -390.91 2431.9
391.54 -391.54 2435.9
401.52 -395.15 2458.3
408.05 -395.30 2459.2
419.34 -399.99 2488.4
79.33 -416.50 2550.0
86.37 -418.56 2562.6
100.60 -422.51 2586.8
106.52 -419.41 2567.8
111.29 -412.44 2525.1
116.35 -407.24 2493.3
124.65 -413.31 2530.4
129.91 -409.23 2505.5
133.71 -401.13 2455.9
142.58 -408.31 2499.9
150.75 -412.92 2528.1
156.24 -410.12 2510.9
159.97 -403.14 2468.2
164.02 -397.44 2433.3
171.47 -400.11 2449.6
178.01 -400.52 2452.1
183.37 -398.35 2438.9
190.11 -399.24 2444.3
197.91 -402.21 2462.5
203.93 -401.49 2458.1
207.65 -396.42 2427.1
210.60 -390.24 2389.2
214.88 -386.78 2368.0
225.37 -394.39 2414.6
237.60 -404.57 2477.0
244.93 -406.08 2486.2
248.44 -401.32 2457.1
253.62 -399.46 2445.6
258.75 -397.59 2434.2
260.50 -390.75 2392.3
268.27 -393.05 2406.4
279.69 -400.46 2451.8
285.85 -400.19 2450.1
293.05 -401.35 2457.3
295.39 -395.95 2424.2
296.83 -389.59 2385.2
306.03 -393.46 2409.0
309.26 -389.66 2385.7
315.34 -389.54 2384.9
329.86 -399.63 2446.7
339.98 -404.13 2474.3
345.18 -402.71 2465.6
346.16 -396.51 2427.6
351.05 -394.93 2417.9
363.68 -401.96 2461.0
367.28 -398.95 2442.5
361.68 -386.21 2364.5
378.90 -391.32 2395.9
387.94 -394.20 2413.4
399.61 -399.61 2446.6
409.18 -402.79 2466.0
423.44 -410.41 2512.7
79.15 -422.12 2544.0
84.51 -416.03 2507.3
90.89 -415.50 2504.1
97.26 -414.97 2500.9
103.49 -413.95 2494.8
110.90 -417.50 2516.2
118.65 -421.87 2542.5
123.82 -417.08 2513.6
126.08 -403.45 2431.5
131.35 -400.29 2412.5
141.29 -411.03 2477.2
148.69 -413.74 2493.5
153.60 -409.59 2468.5
159.91 -409.37 2467.2
166.61 -410.11 2471.7
171.82 -407.27 2454.5
176.08 -402.46 2425.5
181.30 -400.10 2411.3
187.74 -400.51 2413.8
195.54 -403.70 2433.0
201.81 -403.61 2432.5
205.80 -399.13 2405.4
208.96 -393.33 2370.5
218.58 -388.59 2341.9
230.82 -399.25 2406.2
238.45 -401.60 2420.3
244.56 -401.34 2418.8
252.60 -404.16 2435.8
258.33 -403.24 2430.3
260.71 -397.28 2394.3
266.41 -396.52 2389.7
275.66 -400.96 2416.5
279.79 -397.92 2398.2
284.87 -396.34 2388.6
292.76 -398.66 2402.6
300.36 -400.48 2413.6
309.76 -404.58 2438.3
313.06 -400.72 2415.0
314.30 -394.42 2377.1
323.13 -397.70 2396.8
326.81 -394.64 2378.4
325.48 -385.75 2324.8
336.68 -391.78 2361.2
352.75 -403.14 2429.6
360.22 -404.45 2437.6
358.04 -395.08 2381.0
360.64 -391.20 2357.7
375.72 -400.76 2415.3
388.92 -408.05 2459.2
400.00 -412.90 2488.5
404.54 -410.96 2476.8
405.14 -405.14 2441.7
416.71 -410.30 2472.8
430.27 -417.23 2514.6
433.39 -413.99 2495.0
441.39 -415.42 2503.7
462.46 -428.95 2585.2
52.76 -428.64 2543.6
59.07 -426.63 2531.6
65.96 -428.76 2544.3
72.33 -427.40 2536.2
78.22 -423.71 2514.3
84.44 -422.18 2505.3
90.71 -421.15 2499.1
96.83 -419.62 2490.0
103.89 -422.07 2504.6
112.20 -428.99 2545.7
119.61 -431.93 2563.1
124.50 -425.90 2527.3
126.38 -410.75 2437.4
131.08 -405.71 2407.5
141.17 -417.11 2475.1
149.10 -421.36 2500.4
154.02 -417.15 2475.4
160.16 -416.42 2471.0
164.62 -411.54 2442.1
167.41 -403.01 2391.5
173.00 -401.62 2383.2
179.59 -402.54 2388.7
185.06 -400.97 2379.4
191.98 -402.54 2388.7
200.34 -406.93 2414.8
206.22 -406.19 2410.3
211.64 -404.61 2401.0
215.86 -400.88 2378.8
218.49 -394.50 2341.0
225.64 -396.39 2352.2
234.29 -400.76 2378.1
241.88 -403.14 2392.2
251.38 -408.49 2424.0
258.22 -409.37 2429.3
262.42 -406.12 2410.0
270.23 -408.49 2424.0
276.33 -408.21 2422.4
277.04 -400.17 2374.6
277.62 -392.30 2327.9
280.83 -388.38 2304.7
290.37 -393.21 2333.4
302.17 -400.84 2378.6
310.52 -403.68 2395.5
317.02 -404.04 2397.6
322.60 -403.25 2392.9
322.92 -396.03 2350.1
324.25 -390.30 2316.1
337.94 -399.38 2369.9
356.57 -413.88 2456.0
366.85 -418.33 2482.4
369.77 -414.40 2459.1
378.09 -416.54 2471.8
387.08 -419.34 2488.4
393.69 -419.51 2489.4
403.12 -422.63 2507.9
406.28 -419.18 2487.4
408.36 -414.74 2461.1
420.97 -420.97 2498.0
436.42 -429.80 2550.5
441.83 -428.64 2543.6
437.44 -418.14 2481.3
442.46 -416.81 2473.4
52.32 -431.68 2522.8
59.16 -433.85 2535.5
66.52 -439.05 2565.9
72.16 -432.95 2530.2
77.42 -425.83 2488.6
84.50 -429.00 2507.2
91.53 -431.49 2521.7
97.98 -431.12 2519.5
105.36 -434.61 2539.9
110.37 -428.50 2504.2
114.37 -419.35 2450.8
121.92 -423.51 2475.1
126.84 -418.57 2446.2
128.98 -405.38 2369.1
136.23 -408.69 2388.5
145.28 -416.88 2436.3
151.57 -416.82 2436.0
155.88 -411.53 2405.1
158.31 -401.87 2348.6
166.58 -407.19 2379.7
177.57 -418.56 2446.1
181.36 -412.76 2412.2
183.91 -404.61 2364.6
189.29 -403.01 2355.3
195.93 -404.11 2361.7
204.45 -408.90 2389.7
212.42 -412.34 2409.8
219.15 -413.25 2415.1
224.63 -411.81 2406.7
224.41 -400.30 2339.4
235.33 -398.26 2327.5
247.51 -408.39 2386.7
254.88 -410.30 2397.8
259.64 -408.01 2384.5
267.28 -410.24 2397.5
273.31 -409.96 2395.9
276.12 -404.98 2366.8
279.14 -400.51 2340.6
287.39 -403.57 2358.5
301.57 -414.66 2423.4
305.90 -412.02 2407.9
306.34 -404.36 2363.2
314.04 -406.41 2375.1
321.02 -407.44 2381.2
329.90 -410.82 2400.9
341.34 -417.19 2438.1
346.15 -415.37 2427.5
354.44 -417.73 2441.3
366.69 -424.59 2481.4
372.11 -423.43 2474.6
377.34 -422.11 2466.9
383.13 -421.45 2463.0
390.14 -422.12 2466.9
399.20 -424.95 2483.5
405.47 -424.78 2482.5
411.58 -424.44 2480.5
425.38 -431.92 2524.2
441.22 -441.22 2578.6
459.17 -445.67 2604.5
457.91 -438.00 2559.7
465.75 -439.13 2566.4
465.94 -433.13 2531.3
481.75 -435.56 2545.5
39.37 -439.61 2530.8
45.27 -433.26 2494.2
51.46 -431.01 2481.3
58.79 -437.66 2519.6
65.24 -437.12 2516.5
70.05 -426.66 2456.2
75.89 -423.72 2439.3
83.47 -430.18 2476.5
91.52 -438.01 2521.6
99.01 -442.25 2546.0
105.85 -443.23 2551.6
110.41 -435.14 2505.1
113.03 -420.73 2422.1
118.91 -419.32 2414.0
126.28 -423.02 2435.3
131.34 -419.04 2412.4
137.80 -419.66 2416.0
146.04 -425.41 2449.0
150.95 -421.41 2426.0
153.71 -411.95 2371.6
158.71 -408.98 2354.5
169.40 -420.35 2419.9
176.78 -423.01 2435.2
177.15 -409.27 2356.2
183.15 -409.03 2354.7
191.98 -414.92 2388.6
195.03 -408.35 2350.8
199.74 -405.54 2334.6
209.47 -412.78 2376.3
218.16 -417.63 2404.3
223.61 -416.17 2395.9
223.56 -404.83 2330.6
235.83 -405.14 2332.4
246.79 -413.38 2379.8
253.10 -413.61 2381.1
254.73 -406.35 2339.3
259.19 -403.86 2325.0
272.18 -414.46 2386.0
282.51 -420.63 2421.6
284.86 -414.90 2388.6
292.04 -416.31 2396.6
303.15 -423.14 2436.0
304.65 -416.56 2398.1
304.56 -408.11 2349.4
311.58 -409.33 2356.5
318.51 -410.39 2362.6
328.01 -414.66 2387.2
339.69 -421.47 2426.4
345.16 -420.47 2420.6
349.19 -417.78 2405.1
356.74 -419.32 2414.0
359.79 -415.61 2392.7
362.42 -411.57 2369.4
369.79 -412.93 2377.2
378.89 -416.16 2395.8
387.45 -418.70 2410.4
393.23 -418.19 2407.5
407.21 -426.30 2454.2
429.46 -442.67 2548.4
441.04 -447.72 2577.5
449.22 -449.22 2586.1
458.98 -452.23 2603.5
463.44 -450.01 2590.7
-234.32 -442.60 2510.5
-223.13 -446.26 2531.3
-216.19 -445.49 2526.9
-206.84 -439.53 2493.1
-200.26 -439.27 2491.7
12.95 -440.47 2498.4
19.75 -447.75 2539.8
26.40 -448.78 2545.6
32.82 -446.34 2531.7
39.44 -447.02 2535.6
45.34 -440.40 2498.1
51.38 -436.73 2477.3
58.12 -439.14 2490.9
64.12 -435.99 2473.0
69.23 -427.98 2427.6
75.34 -426.90 2421.5
81.54 -426.52 2419.3
88.13 -428.04 2428.0
97.02 -439.80 2494.7
105.39 -447.91 2540.7
111.40 -445.61 2527.6
115.65 -436.88 2478.1
120.17 -430.07 2439.5
125.96 -428.28 2429.3
133.05 -430.82 2443.8
141.83 -438.39 2486.7
148.79 -439.89 2495.2
152.54 -432.19 2451.5
157.34 -427.97 2427.5
164.07 -429.11 2434.0
173.03 -435.79 2471.9
179.13 -435.02 2467.6
179.58 -421.09 2388.5
185.36 -420.14 2383.2
191.66 -420.41 2384.7
192.18 -408.38 2316.4
205.57 -411.15 2332.1
215.22 -418.14 2371.8
221.59 -418.57 2374.2
225.25 -413.97 2348.2
230.99 -413.36 2344.7
238.99 -416.71 2363.7
247.19 -420.23 2383.7
256.85 -425.99 2416.3
262.19 -424.50 2407.9
259.63 -410.57 2328.9
265.26 -409.94 2325.3
277.14 -418.79 2375.5
281.35 -415.91 2359.2
282.62 -408.89 2319.3
287.20 -406.87 2307.9
295.83 -410.53 2328.7
303.79 -413.16 2343.5
308.35 -411.13 2332.0
312.97 -409.27 2321.5
319.96 -410.51 2328.5
328.75 -413.98 2348.2
338.76 -418.83 2375.7
348.33 -422.97 2399.2
356.73 -425.57 2414.0
360.51 -422.67 2397.5
360.18 -415.13 2354.7
364.18 -412.74 2341.2
375.34 -418.41 2373.3
386.82 -424.25 2406.5
396.87 -428.37 2429.8
415.75 -441.73 2505.6
421.91 -441.38 2503.6
416.25 -428.87 2432.7
427.27 -433.65 2459.8
440.14 -440.14 2496.6
454.92 -448.32 2543.0
507.05 -459.72 2607.7
506.52 -453.20 2570.7
-243.48 -454.06 2538.2
-232.66 -445.93 2492.8
-231.23 -455.85 2548.2
-217.69 -455.18 2544.5
6.61 -456.08 2549.5
12.80 -441.46 2467.8
19.47 -447.79 2503.2
26.07 -449.72 2514.0
32.52 -448.83 2509.0
39.61 -455.50 2546.3
46.15 -454.95 2543.2
52.13 -449.65 2513.6
58.65 -449.62 2513.4
65.11 -449.24 2511.3
70.80 -444.11 2482.6
75.61 -434.75 2430.3
80.34 -426.44 2383.8
87.19 -429.75 2402.3
96.21 -442.55 2473.9
102.04 -440.04 2459.9
105.59 -428.56 2395.7
111.28 -426.58 2384.6
117.26 -425.82 2380.4
123.67 -426.65 2385.0
131.28 -431.34 2411.2
139.64 -437.96 2448.2
146.38 -439.13 2454.7
150.33 -432.20 2416.0
155.42 -428.97 2398.0
163.01 -432.59 2418.2
173.03 -442.18 2471.8
179.33 -441.92 2470.4
180.17 -428.67 2396.3
185.27 -426.13 2382.1
191.18 -425.52 2378.7
194.54 -419.47 2344.8
201.58 -421.48 2356.1
206.43 -418.94 2341.9
211.48 -416.91 2330.6
221.13 -423.83 2369.3
228.44 -426.01 2381.4
231.76 -420.83 2352.4
237.30 -419.85 2347.0
245.46 -423.42 2366.9
255.17 -429.44 2400.6
263.88 -433.52 2423.4
265.62 -426.23 2382.6
262.91 -412.29 2304.7
265.95 -407.79 2279.6
276.10 -414.15 2315.1
283.21 -415.77 2324.2
287.81 -413.72 2312.7
296.69 -417.79 2335.4
305.56 -421.67 2357.2
311.57 -421.53 2356.4
310.47 -411.97 2302.9
322.87 -412.56 2306.2
336.11 -421.66 2357.1
342.66 -422.21 2360.2
347.50 -420.66 2351.5
359.47 -427.65 2390.6
368.22 -430.62 2407.2
370.68 -426.28 2383.0
379.64 -429.43 2400.5
391.34 -435.52 2434.6
402.41 -440.74 2463.7
410.89 -442.99 2476.4
406.01 -431.00 2409.3
408.77 -427.35 2388.9
428.77 -441.57 2468.4
439.60 -446.07 2493.6
451.60 -451.60 2524.5
464.98 -458.33 2562.1
472.30 -459.00 2565.8
-260.58 -456.01 2512.7
-247.77 -456.41 2514.9
-237.64 -449.59 2477.3
-233.65 -454.32 2503.4
-210.15 -459.70 2533.1
-201.42 -454.81 2506.1
6.59 -461.05 2540.5
13.17 -460.87 2539.5
19.61 -457.65 2521.7
25.80 -451.57 2488.2
32.14 -449.95 2479.3
39.04 -455.47 2509.7
45.63 -456.34 2514.5
51.70 -452.39 2492.8
57.50 -447.19 2464.1
63.17 -442.16 2436.4
69.73 -443.74 2445.1
75.57 -440.85 2429.2
80.97 -435.99 2402.4
88.33 -441.67 2433.7
96.01 -448.05 2468.8
100.57 -439.97 2424.3
104.54 -430.47 2372.0
110.59 -430.07 2369.8
116.72 -430.01 2369.5
123.20 -431.21 2376.0
129.29 -430.97 2374.7
136.16 -433.23 2387.2
145.08 -441.55 2433.0
151.49 -441.83 2434.6
156.75 -438.91 2418.5
164.59 -443.12 2441.7
169.65 -439.83 2423.6
170.92 -427.29 2354.4
177.95 -429.52 2366.8
189.85 -442.97 2440.9
196.77 -444.31 2448.2
201.20 -440.13 2425.2
205.77 -436.48 2405.1
208.24 -428.73 2362.4
212.36 -424.72 2340.3
220.94 -429.60 2367.2
229.28 -433.77 2390.2
234.07 -431.18 2375.9
239.38 -429.65 2367.5
247.38 -432.91 2385.4
251.83 -429.96 2369.2
255.14 -425.23 2343.1
262.67 -427.60 2356.2
266.02 -423.22 2332.0
270.05 -420.08 2314.7
280.98 -427.59 2356.1
289.03 -430.47 2372.0
294.85 -429.99 2369.3
303.87 -434.11 2392.0
313.14 -438.40 2415.7
319.30 -438.25 2414.9
318.22 -428.37 2360.4
317.80 -419.74 2312.8
327.92 -425.08 2342.3
334.85 -426.17 2348.3
334.45 -418.06 2303.6
338.43 -415.61 2290.1
348.92 -421.11 2320.4
364.63 -432.61 2383.8
374.91 -437.39 2410.1
378.24 -434.05 2391.7
383.04 -432.47 2383.0
391.76 -435.29 2398.5
398.30 -435.64 2400.5
401.42 -432.30 2382.0
414.07 -439.16 2419.9
452.40 -465.71 2566.1
459.20 -465.86 2567.0
465.48 -465.48 2564.9
464.08 -457.54 2521.1
481.06 -467.69 2577.1
-265.34 -459.49 2496.2
-235.84 -452.56 2458.6
-230.07 -453.75 2465.0
-227.38 -461.25 2505.8
-220.24 -459.91 2498.5
-211.04 -454.05 2466.7
-204.93 -454.69 2470.2
-201.40 -461.28 2506.0
-19.76 -467.59 2540.2
-13.18 -467.78 2541.3
0.00 -468.69 2546.2
6.52 -462.90 2514.7
13.02 -462.17 2510.8
19.37 -458.36 2490.1
25.42 -451.29 2451.7
31.55 -448.02 2433.9
38.23 -452.35 2457.4
44.58 -452.15 2456.3
50.88 -451.58 2453.3
57.01 -449.75 2443.3
62.65 -444.83 2416.6
69.22 -446.79 2427.3
76.30 -451.47 2452.6
83.09 -453.78 2465.2
90.04 -456.64 2480.7
97.15 -459.85 2498.2
102.44 -454.56 2469.4
107.18 -447.64 2431.8
111.45 -439.63 2388.3
115.55 -431.80 2345.8
122.99 -436.63 2372.0
130.25 -440.36 2392.3
136.10 -439.22 2386.1
144.02 -444.58 2415.2
150.93 -446.50 2425.6
156.62 -444.80 2416.4
163.85 -447.44 2430.7
168.20 -442.30 2402.8
173.26 -439.33 2386.7
184.28 -451.17 2451.0
190.45 -450.72 2448.6
191.24 -438.00 2379.5
198.43 -440.26 2391.7
205.84 -442.87 2405.9
209.70 -437.90 2379.0
215.38 -436.91 2373.5
226.14 -446.00 2422.9
245.01 -446.04 2423.1
248.89 -441.78 2400.0
249.02 -431.22 2342.7
257.15 -434.71 2361.6
269.52 -445.03 2417.7
272.48 -439.69 2388.6
276.20 -435.78 2367.4
283.30 -437.27 2375.5
287.35 -434.09 2358.2
293.01 -433.42 2354.6
302.37 -438.13 2380.2
313.00 -444.46 2414.6
322.15 -439.86 2389.6
325.02 -435.41 2365.4
331.04 -435.26 2364.6
333.58 -430.63 2339.4
334.44 -424.02 2303.5
339.14 -422.44 2294.9
344.67 -421.92 2292.1
354.95 -427.14 2320.5
371.26 -439.32 2386.7
381.76 -444.34 2413.9
383.34 -438.98 2384.8
388.57 -437.92 2379.0
398.61 -442.21 2402.3
406.31 -443.81 2411.1
412.05 -443.27 2408.1
428.39 -453.97 2466.2
450.15 -470.01 2553.4
464.54 -478.01 2596.8
476.16 -476.16 2586.8
478.86 -472.21 2565.3
491.88 -478.40 2598.9
-271.19 -464.89 2490.5
-239.93 -454.60 2435.3
-229.16 -445.94 2389.0
-217.85 -448.16 2400.8
-214.44 -454.11 2432.7
-205.33 -447.99 2399.9
-199.15 -448.08 2400.4
-189.26 -439.57 2354.9
-19.39 -465.34 2492.9
-12.85 -462.77 2479.1
-6.46 -464.98 2491.0
0.00 -455.99 2442.8
6.36 -457.64 2451.6
12.85 -462.59 2478.2
19.24 -461.67 2473.2
25.39 -457.07 2448.6
31.22 -449.53 2408.2
37.41 -448.96 2405.2
44.50 -457.75 2452.2
51.76 -465.80 2495.4
57.67 -461.37 2471.6
63.08 -454.19 2433.2
69.72 -456.36 2444.8
76.94 -461.65 2473.1
82.65 -457.76 2452.3
88.22 -453.68 2430.4
96.07 -461.16 2470.5
102.27 -460.20 2465.3
106.52 -451.16 2416.9
110.26 -441.03 2362.7
115.11 -436.21 2336.9
123.34 -444.04 2378.8
130.30 -446.73 2393.2
136.09 -445.38 2386.0
141.14 -441.84 2367.0
144.94 -434.81 2329.3
149.87 -431.63 2312.3
156.24 -432.65 2317.8
165.86 -442.28 2369.4
176.24 -453.19 2427.8
183.61 -455.85 2442.0
185.86 -446.06 2389.6
189.58 -440.31 2358.8
199.80 -449.54 2408.3
206.67 -450.91 2415.6
209.95 -444.60 2381.8
214.48 -441.21 2363.6
224.03 -448.05 2400.3
232.82 -453.06 2427.1
234.82 -444.92 2383.5
241.53 -445.90 2388.8
248.27 -446.88 2394.0
251.29 -441.29 2364.1
262.35 -449.75 2409.4
270.16 -452.36 2423.4
268.79 -439.84 2356.3
271.97 -435.16 2331.2
278.52 -435.94 2335.4
281.75 -431.62 2312.2
286.81 -430.21 2304.7
293.31 -430.99 2308.9
300.97 -433.40 2321.8
310.25 -437.99 2346.4
314.12 -434.94 2330.0
320.86 -435.88 2335.1
331.03 -441.37 2364.5
336.07 -439.95 2356.9
339.94 -437.07 2341.4
343.44 -433.82 2324.0
347.58 -431.48 2311.5
353.15 -430.96 2308.7
364.74 -437.69 2344.8
375.59 -443.33 2375.0
378.17 -439.16 2352.7
387.92 -443.34 2375.0
402.94 -453.30 2428.4
409.56 -453.66 2430.3
414.03 -451.66 2419.6
423.15 -454.73 2436.1
452.73 -472.41 2530.8
464.01 -477.26 2556.8
470.96 -477.59 2558.5
479.91 -479.91 2570.9
489.64 -482.93 2587.2
-266.55 -474.59 2507.6
-248.56 -453.62 2396.8
-242.51 -453.92 2398.4
-238.66 -458.48 2422.5
-212.51 -443.24 2342.0
-213.82 -459.09 2425.7
-209.75 -464.00 2451.7
-205.31 -468.36 2474.7
-186.69 -454.27 2400.3
-185.36 -466.60 2465.4
-32.90 -480.29 2537.7
-13.04 -475.86 2514.3
-6.47 -472.15 2494.7
0.00 -462.11 2441.7
6.32 -461.55 2438.7
12.78 -466.38 2464.2
19.13 -465.44 2459.3
25.49 -465.24 2458.2
31.64 -461.88 2440.5
37.08 -451.08 2383.4
43.13 -449.76 2376.4
51.00 -465.36 2458.8
57.78 -468.68 2476.4
63.18 -461.21 2436.9
69.77 -463.04 2446.6
76.45 -465.05 2457.2
81.52 -457.76 2418.7
86.78 -452.52 2391.0
94.16 -458.24 2421.2
101.04 -460.98 2435.7
106.04 -455.36 2406.0
110.80 -449.36 2374.3
116.85 -448.94 2372.1
123.49 -450.74 2381.6
128.85 -447.89 2366.5
135.52 -449.68 2376.0
141.54 -449.25 2373.7
143.95 -437.86 2313.5
147.45 -430.55 2274.9
155.97 -437.90 2313.8
167.97 -454.15 2399.6
174.16 -454.07 2399.2
176.82 -445.09 2351.7
183.11 -445.56 2354.2
191.14 -450.11 2378.2
198.73 -453.35 2395.4
202.80 -448.62 2370.4
208.13 -446.86 2361.1
214.82 -448.06 2367.4
218.44 -442.95 2340.5
221.27 -436.55 2306.6
229.99 -441.82 2334.5
244.09 -456.88 2414.1
250.79 -457.69 2418.3
253.98 -452.21 2389.4
260.42 -452.64 2391.7
263.18 -446.79 2360.7
261.98 -434.65 2296.6
265.35 -430.46 2274.5
274.43 -435.51 2301.1
280.43 -435.56 2301.4
283.52 -431.19 2278.3
287.85 -428.84 2265.9
295.53 -431.47 2279.8
304.69 -436.13 2304.4
308.99 -433.77 2291.9
316.16 -435.47 2300.9
328.29 -443.79 2344.9
335.36 -445.11 2351.9
339.50 -442.56 2338.4
343.43 -439.83 2323.9
348.45 -438.56 2317.3
355.07 -439.32 2321.3
364.27 -443.20 2341.8
372.50 -445.78 2355.4
377.22 -444.14 2346.7
389.49 -451.31 2384.6
406.93 -464.16 2452.5
413.50 -457.36 2416.6
414.71 -451.85 2387.5
471.10 -484.37 2559.3
-254.01 -469.93 2449.4
-238.24 -452.05 2356.2
-221.82 -443.64 2312.4
-222.26 -456.88 2381.4
-214.54 -453.60 2364.3
-206.65 -449.76 2344.3
-202.79 -454.74 2370.3
-197.82 -457.46 2384.5
-195.77 -467.32 2435.9
-191.78 -473.05 2465.7
-185.86 -474.27 2472.1
-181.34 -479.24 2498.0
-46.12 -487.54 2541.2
-39.35 -485.30 2529.6
-31.93 -472.51 2462.9
-25.49 -471.58 2458.0
0.00 -476.13 2481.7
6.38 -472.17 2461.1
12.79 -473.11 2466.0
19.13 -471.97 2460.1
25.46 -471.01 2455.1
31.44 -465.35 2425.6
36.72 -452.90 2360.7
48.16 -445.51 2322.2
56.61 -465.45 2426.1
64.07 -474.09 2471.1
70.16 -471.98 2460.2
76.26 -470.25 2451.1
81.84 -465.89 2428.4
87.71 -463.58 2416.4
95.07 -469.00 2444.6
101.80 -470.84 2454.2
105.95 -461.19 2403.9
109.65 -450.78 2349.6
115.63 -450.35 2347.4
122.11 -451.80 2354.9
128.78 -453.81 2365.4
136.86 -460.33 2399.4
142.41 -458.20 2388.3
144.25 -444.77 2318.3
149.03 -441.13 2299.3
159.06 -452.71 2359.7
168.03 -460.53 2400.5
171.17 -452.37 2357.9
174.45 -445.14 2320.3
181.27 -447.13 2330.6
188.45 -449.86 2344.8
195.22 -451.46 2353.1
200.86 -450.42 2347.8
207.77 -452.20 2357.0
216.14 -456.98 2381.9
221.63 -455.56 2374.6
225.01 -450.02 2345.6
234.40 -456.47 2379.3
244.66 -464.23 2419.8
247.43 -457.74 2385.9
250.54 -452.19 2357.0
256.79 -452.44 2358.3
264.14 -454.57 2369.4
267.76 -450.32 2347.2
266.71 -438.59 2286.1
271.63 -436.96 2277.6
281.37 -443.01 2309.1
288.36 -444.56 2317.2
294.77 -445.17 2320.4
304.61 -450.82 2349.8
311.63 -452.17 2356.9
314.22 -447.16 2330.8
314.41 -438.99 2288.2
319.14 -437.34 2279.6
327.57 -440.74 2297.3
332.57 -439.46 2290.6
340.39 -441.92 2303.4
349.31 -445.67 2323.0
357.28 -448.11 2335.7
368.03 -453.90 2365.9
377.24 -457.64 2385.4
383.75 -458.02 2387.4
391.52 -459.88 2397.1
403.85 -466.95 2433.9
413.31 -463.41 2415.5
411.50 -454.49 2368.9
421.21 -458.38 2389.2
432.93 -464.31 2420.1
441.12 -466.33 2430.7
476.40 -489.63 2552.1
486.27 -492.93 2569.3
488.63 -488.63 2546.9
500.44 -493.77 2573.7
-262.87 -480.86 2473.0
-254.10 -476.43 2450.2
-244.84 -470.85 2421.5
-231.21 -456.34 2346.9
-225.84 -457.78 2354.3
-223.44 -465.49 2394.0
-213.02 -456.47 2347.6
-207.32 -457.33 2352.0
-204.37 -464.47 2388.7
-193.26 -452.96 2329.5
-185.37 -448.49 2306.5
-184.23 -460.56 2368.6
-181.06 -468.27 2408.2
-65.15 -488.66 2513.1
-57.22 -476.86 2452.4
-51.60 -483.75 2487.9
-32.32 -484.77 2493.1
-25.54 -478.87 2462.7
-19.62 -490.52 2522.7
-6.44 -483.28 2485.4
0.00 -473.74 2436.4
6.30 -472.78 2431.5
12.61 -472.97 2432.4
18.86 -471.43 2424.5
24.98 -468.37 2408.8
30.75 -461.29 2372.4
36.51 -456.32 2346.8
42.18 -451.91 2324.1
47.69 -447.11 2299.4
54.82 -456.82 2349.4
62.00 -465.00 2391.4
67.86 -462.68 2379.5
74.11 -463.22 2382.3
79.89 -460.89 2370.3
86.27 -462.18 2376.9
94.14 -470.72 2420.9
101.55 -476.02 2448.1
106.50 -469.86 2416.4
109.60 -456.65 2348.5
114.85 -453.36 2331.6
122.46 -459.21 2361.7
130.32 -465.44 2393.7
137.18 -467.66 2405.1
141.41 -461.12 2371.5
145.03 -453.23 2330.9
151.50 -454.50 2337.4
158.72 -457.85 2354.7
164.66 -457.39 2352.3
170.52 -456.74 2348.9
176.35 -456.08 2345.6
183.24 -458.09 2355.9
190.72 -461.43 2373.0
195.45 -458.10 2355.9
199.01 -452.30 2326.1
208.44 -459.80 2364.7
219.23 -469.78 2416.0
226.17 -471.19 2423.3
230.90 -468.04 2407.1
234.29 -462.42 2378.2
238.03 -457.75 2354.1
240.93 -451.74 2323.3
244.40 -447.07 2299.2
250.08 -446.57 2296.7
257.27 -448.73 2307.7
268.19 -457.14 2351.0
275.23 -458.72 2359.1
277.08 -451.76 2323.3
283.61 -452.57 2327.5
289.44 -452.24 2325.8
294.76 -451.16 2320.2
301.69 -452.53 2327.3
305.69 -449.54 2311.9
312.89 -451.29 2320.9
318.14 -450.19 2315.3
319.67 -443.99 2283.4
324.51 -442.51 2275.8
331.56 -444.06 2283.7
341.09 -448.81 2308.2
350.31 -452.99 2329.7
358.74 -456.03 2345.3
364.84 -456.05 2345.4
369.24 -453.99 2334.8
374.06 -452.49 2327.1
379.62 -451.93 2324.2
388.71 -455.52 2342.7
395.28 -456.09 2345.6
409.64 -465.50 2394.0
424.41 -475.09 2443.3
422.72 -466.24 2397.8
420.80 -457.39 2352.3
427.94 -458.50 2358.0
-250.84 -476.59 2418.8
-245.51 -478.44 2428.2
-235.43 -470.86 2389.7
-225.26 -462.70 2348.3
-218.59 -461.46 2342.0
-211.23 -458.67 2327.9
-208.60 -466.29 2366.5
-202.59 -466.58 2368.0
-188.87 -448.57 2276.6
-183.16 -449.04 2279.0
-183.76 -465.51 2362.6
-176.19 -461.75 2343.5
-169.72 -460.67 2338.0
-171.77 -483.51 2453.9
-85.96 -502.55 2550.5
-78.47 -496.99 2522.3
-72.64 -501.86 2547.0
-65.48 -497.64 2525.6
-57.29 -483.75 2455.1
-51.19 -486.29 2468.0
-45.20 -490.76 2490.7
-38.70 -490.20 2487.9
-32.54 -494.67 2510.5
-19.57 -495.66 2515.6
-12.78 -485.61 2464.6
-6.38 -485.04 2461.7
0.00 -485.43 2463.6
6.31 -479.24 2432.2
12.49 -474.59 2408.7
18.31 -463.95 2354.7
23.83 -452.73 2297.7
30.13 -457.94 2324.1
36.75 -465.46 2362.3
43.01 -466.99 2370.0
49.24 -467.74 2373.9
55.66 -470.03 2385.5
61.92 -470.58 2388.3
66.40 -458.76 2328.3
71.09 -450.23 2285.0
77.90 -455.41 2311.3
85.41 -463.67 2353.2
91.32 -462.66 2348.1
96.46 -458.18 2325.3
103.08 -460.83 2338.8
108.22 -456.92 2318.9
114.46 -457.83 2323.6
123.21 -468.20 2376.2
128.87 -466.40 2367.0
133.31 -460.54 2337.3
140.81 -465.30 2361.5
147.71 -467.74 2373.9
152.00 -462.07 2345.1
156.86 -458.52 2327.1
161.84 -455.55 2312.0
166.31 -451.42 2291.0
173.40 -454.42 2306.3
181.70 -460.31 2336.2
186.70 -457.71 2323.0
188.95 -448.76 2277.5
195.73 -450.78 2287.8
208.34 -465.71 2363.6
215.40 -467.72 2373.8
218.22 -460.69 2338.1
225.54 -463.27 2351.2
231.58 -463.16 2350.6
238.41 -464.59 2357.9
245.07 -465.62 2363.1
244.28 -452.81 2298.1
245.50 -444.23 2254.6
251.71 -444.88 2257.9
261.61 -451.87 2293.3
272.82 -460.77 2338.5
278.92 -460.82 2338.8
281.34 -454.93 2308.9
282.99 -448.07 2274.1
287.56 -446.02 2263.6
294.35 -447.41 2270.7
299.63 -446.50 2266.1
308.15 -450.38 2285.8
320.12 -459.04 2329.7
328.64 -462.53 2347.4
327.40 -452.41 2296.1
328.44 -445.74 2262.2
339.21 -452.28 2295.4
349.56 -458.04 2324.7
356.20 -458.83 2328.6
360.29 -456.36 2316.1
364.93 -454.66 2307.5
369.83 -453.34 2300.8
373.91 -451.06 2289.2
381.13 -452.60 2297.0
393.46 -460.04 2334.8
413.92 -476.63 2419.0
421.84 -471.47 2392.8
420.42 -463.08 2350.2
427.38 -464.02 2355.0
441.29 -472.37 2397.4
506.02 -506.02 2568.2
-253.34 -487.68 2442.9
-247.47 -488.59 2447.5
-238.20 -482.67 2417.8
-228.90 -476.35 2386.2
-218.66 -467.69 2342.8
-208.82 -459.41 2301.3
-201.18 -455.61 2282.3
-186.06 -462.14 2315.0
-186.33 -478.24 2395.6
-178.53 -474.04 2374.6
-170.99 -470.22 2355.4
-171.55 -489.24 2450.8
-157.56 -505.51 2532.2
-146.09 -511.33 2561.4
-98.40 -505.10 2530.2
-91.49 -503.19 2520.6
-84.17 -498.54 2497.3
-77.34 -496.23 2485.8
-71.93 -503.51 2522.2
-51.75 -498.12 2495.2
-44.20 -486.21 2435.6
-37.57 -482.12 2415.1
-31.40 -483.51 2422.0
-25.48 -490.57 2457.4
-19.02 -488.23 2445.7
-12.58 -484.32 2426.1
-6.35 -488.83 2448.7
0.00 -487.26 2440.8
6.22 -479.04 2399.6
12.48 -480.60 2407.5
18.59 -477.07 2389.8
24.15 -464.92 2328.9
30.43 -468.63 2347.5
37.06 -475.66 2382.7
43.42 -477.60 2392.4
49.56 -476.99 2389.4
55.84 -477.74 2393.1
61.74 -475.36 2381.2
65.95 -461.63 2312.5
70.50 -452.40 2266.2
77.07 -456.47 2286.6
84.38 -464.07 2324.6
90.05 -462.26 2315.6
96.13 -462.61 2317.3
103.94 -470.77 2358.2
108.76 -465.24 2330.5
114.74 -464.99 2329.3
122.64 -472.17 2365.2
127.42 -467.22 2340.4
132.30 -463.05 2319.5
140.04 -468.84 2348.6
145.75 -467.60 2342.3
148.81 -458.34 2296.0
155.80 -461.39 2311.3
163.06 -465.03 2329.4
165.80 -455.96 2284.0
171.18 -454.51 2276.8
178.27 -457.55 2292.0
182.21 -452.58 2267.1
188.78 -454.24 2275.4
200.07 -466.83 2338.5
210.39 -476.48 2386.8
215.12 -473.26 2370.7
214.38 -458.53 2296.9
218.03 -453.74 2272.9
225.51 -456.95 2289.0
233.85 -461.70 2312.8
244.34 -470.35 2356.1
248.00 -465.75 2333.1
249.09 -456.67 2287.6
254.85 -456.35 2286.0
262.04 -458.56 2297.1
270.42 -462.71 2317.8
277.16 -463.94 2324.0
280.01 -458.75 2298.0
282.98 -453.94 2273.9
289.53 -454.97 2279.1
293.58 -452.11 2264.7
296.52 -447.69 2242.6
305.91 -452.98 2269.1
319.30 -463.89 2323.7
326.57 -465.67 2332.7
324.47 -454.26 2275.5
327.44 -450.23 2255.3
340.62 -460.14 2305.0
349.83 -464.43 2326.4
354.84 -463.09 2319.8
360.72 -462.92 2318.9
367.35 -463.71 2322.9
372.61 -462.76 2318.1
378.00 -461.99 2314.3
383.04 -460.84 2308.5
392.78 -465.29 2330.8
407.59 -475.53 2382.0
412.92 -474.56 2377.2
412.95 -467.60 2342.3
416.08 -464.32 2325.9
428.76 -471.63 2362.5
452.07 -470.40 2356.3
491.31 -504.41 2526.7
-235.62 -496.70 2456.2
-222.10 -481.23 2379.7
-210.14 -468.31 2315.8
-200.74 -460.51 2277.2
-193.62 -457.65 2263.1
-190.14 -463.47 2291.9
-188.71 -474.83 2348.0
-186.69 -485.40 2400.3
-180.94 -486.67 2406.6
-175.30 -488.34 2414.9
-144.57 -512.56 2534.7
-118.44 -513.22 2537.9
-113.12 -519.02 2566.6
-105.34 -513.53 2539.5
-97.36 -506.26 2503.5
-91.59 -510.27 2523.3
-84.99 -509.91 2521.6
-78.70 -511.54 2529.6
-72.20 -511.97 2531.7
-66.07 -515.38 2548.6
-59.65 -516.99 2556.6
-51.71 -504.14 2493.0
-44.36 -494.26 2444.1
-37.81 -491.50 2430.5
-30.99 -483.40 2390.4
-24.68 -481.23 2379.7
-18.59 -483.22 2389.6
-12.40 -483.43 2390.6
-6.25 -487.20 2409.2
0.00 -484.62 2396.5
6.18 -481.85 2382.8
12.52 -488.38 2415.1
18.97 -493.13 2438.6
25.12 -489.75 2421.8
31.04 -484.19 2394.3
37.08 -481.99 2383.5
42.70 -475.83 2353.0
47.93 -467.28 2310.7
54.49 -472.21 2335.1
60.76 -473.97 2343.8
65.41 -463.83 2293.7
70.38 -457.45 2262.1
77.13 -462.77 2288.4
84.62 -471.44 2331.3
91.07 -473.58 2341.9
98.11 -478.28 2365.1
112.54 -487.68 2411.6
116.18 -476.93 2358.5
121.36 -473.31 2340.5
126.24 -468.89 2318.7
131.17 -465.07 2299.8
138.63 -470.14 2324.9
144.21 -468.69 2317.7
148.49 -463.27 2290.9
156.84 -470.52 2326.7
163.46 -472.22 2335.1
165.51 -461.06 2280.0
171.90 -462.36 2286.4
180.00 -468.00 2314.3
183.06 -460.60 2277.7
188.60 -459.72 2273.3
199.80 -472.26 2335.4
210.03 -481.84 2382.7
215.45 -480.15 2374.4
215.27 -466.42 2306.5
217.64 -458.81 2268.9
223.95 -459.69 2273.2
231.66 -463.33 2291.2
241.39 -470.70 2327.6
245.80 -467.62 2312.4
247.70 -460.01 2274.8
255.59 -463.63 2292.7
264.68 -469.21 2320.3
275.28 -477.15 2359.5
283.64 -480.95 2378.3
282.96 -469.59 2322.2
282.11 -458.43 2267.0
290.00 -461.63 2282.8
295.70 -461.29 2281.1
297.40 -454.85 2249.3
305.63 -458.44 2267.0
315.40 -464.18 2295.4
319.61 -461.67 2283.0
323.76 -459.15 2270.5
333.33 -464.29 2295.9
346.76 -474.52 2346.5
356.07 -478.86 2368.0
353.63 -467.51 2311.8
351.35 -456.75 2258.6
361.05 -461.67 2283.0
370.09 -465.60 2302.4
379.23 -469.53 2321.8
388.47 -473.45 2341.2
390.79 -468.95 2319.0
395.98 -467.98 2314.2
401.14 -467.00 2309.3
400.66 -459.58 2272.6
408.45 -461.72 2283.2
426.10 -474.79 2347.9
442.11 -485.70 2401.8
-258.42 -497.93 2431.1
-249.96 -493.67 2410.3
-229.79 -490.63 2395.5
-220.90 -484.75 2366.8
-213.22 -481.27 2349.8
-201.84 -468.98 2289.8
-192.85 -461.68 2254.1
-187.29 -462.38 2257.5
-183.99 -468.87 2289.2
-181.58 -478.17 2334.6
-175.49 -478.06 2334.1
-170.39 -480.75 2347.2
-169.67 -496.44 2423.9
-165.92 -504.14 2461.4
-158.55 -501.02 2446.2
-155.76 -512.71 2503.3
-151.51 -520.40 2540.8
-146.06 -524.48 2560.8
-140.72 -529.36 2584.6
-132.87 -524.82 2562.4
-122.77 -510.46 2492.3
-103.83 -512.64 2502.9
-99.44 -523.72 2557.0
-93.21 -525.97 2568.0
-86.16 -523.61 2556.5
-78.48 -516.63 2522.4
-70.88 -509.05 2485.4
-64.69 -511.09 2495.4
-58.32 -511.92 2499.4
-50.89 -502.52 2453.5
-43.91 -495.53 2419.4
-37.55 -494.34 2413.6
-30.89 -488.14 2383.3
-24.53 -484.54 2365.8
-18.42 -484.96 2367.8
-12.15 -479.95 2343.3
-6.04 -477.34 2330.6
0.00 -480.56 2346.3
6.12 -483.36 2360.0
12.33 -486.97 2377.6
18.57 -488.97 2387.4
24.52 -484.34 2364.8
30.23 -477.71 2332.4
36.27 -477.49 2331.3
41.93 -473.26 2310.7
47.72 -471.23 2300.8
54.92 -482.03 2353.5
60.84 -480.60 2346.5
65.02 -466.93 2279.8
70.62 -464.89 2269.8
77.98 -473.88 2313.7
84.93 -479.25 2339.9
90.91 -478.80 2337.7
95.95 -473.74 2313.0
102.37 -475.70 2322.6
111.21 -488.07 2383.0
118.09 -491.02 2397.4
122.11 -482.34 2355.0
125.75 -473.06 2309.7
129.54 -465.18 2271.2
135.70 -466.12 2275.8
143.53 -472.46 2306.7
150.25 -474.78 2318.1
155.24 -471.70 2303.1
158.38 -463.42 2262.6
163.72 -461.93 2255.4
173.43 -472.45 2306.7
181.89 -478.97 2338.5
185.32 -472.27 2305.8
188.35 -464.98 2270.2
196.53 -470.48 2297.1
206.66 -480.17 2344.4
211.80 -478.07 2334.1
215.62 -473.16 2310.2
222.31 -474.65 2317.5
227.97 -473.94 2314.0
235.10 -476.22 2325.1
241.87 -477.70 2332.3
242.99 -468.19 2285.9
244.92 -460.69 2249.3
252.97 -464.75 2269.1
265.88 -477.38 2330.8
278.79 -468.60 2287.9
281.97 -464.08 2265.8
293.81 -473.69 2312.8
302.23 -477.52 2331.5
306.89 -475.38 2321.0
309.93 -470.85 2298.9
314.58 -468.90 2289.4
322.99 -472.52 2307.1
331.49 -476.13 2324.7
333.31 -470.21 2295.8
338.71 -469.44 2292.0
346.28 -471.65 2302.8
342.48 -458.58 2239.0
358.73 -464.58 2268.3
370.84 -472.53 2307.1
383.00 -480.26 2344.9
385.55 -475.91 2323.6
380.34 -462.26 2257.0
389.34 -466.03 2275.4
399.27 -470.78 2298.6
402.16 -467.22 2281.2
413.25 -473.14 2310.1
416.78 -470.37 2296.6
416.70 -463.65 2263.7
427.95 -469.56 2292.6
444.27 -480.79 2347.4
-254.97 -497.51 2398.7
-245.62 -503.83 2429.2
-240.24 -505.77 2438.5
-228.27 -493.56 2379.7
-221.43 -492.06 2372.4
-213.55 -488.12 2353.4
-202.34 -476.09 2295.4
-171.73 -473.73 2284.1
-170.23 -486.38 2345.0
-168.22 -498.42 2403.1
-162.94 -501.34 2417.2
-155.94 -498.99 2405.9
-153.19 -510.62 2461.9
-149.33 -519.42 2504.3
-143.81 -522.94 2521.3
-139.21 -530.31 2556.9
-132.34 -529.37 2552.3
-125.40 -528.02 2545.8
-118.32 -525.85 2535.3
-110.42 -519.62 2505.3
-105.07 -525.35 2533.0
-97.75 -521.35 2513.6
-89.43 -511.05 2464.0
-84.44 -519.62 2505.3
-78.28 -521.89 2516.3
-70.17 -510.36 2460.7
-63.52 -508.16 2450.1
-57.24 -508.80 2453.1
-49.91 -499.08 2406.3
-43.14 -493.01 2377.0
-36.93 -492.42 2374.2
-30.71 -491.43 2369.4
-24.67 -493.47 2379.2
-18.28 -487.59 2350.9
-11.90 -476.03 2295.1
0.00 -474.61 2288.3
6.07 -485.58 2341.2
12.43 -497.35 2397.9
18.34 -489.02 2357.8
23.76 -475.20 2291.1
29.53 -472.54 2278.3
35.74 -476.59 2297.8
41.65 -475.96 2294.8
47.76 -477.56 2302.5
55.21 -490.73 2366.0
61.49 -491.92 2371.7
65.57 -476.86 2299.2
70.98 -473.17 2281.4
79.03 -486.33 2344.8
86.80 -496.03 2391.6
91.66 -488.88 2357.1
95.45 -477.26 2301.1
100.59 -473.36 2282.3
108.05 -480.20 2315.3
116.06 -488.66 2356.1
121.39 -485.56 2341.1
126.48 -481.85 2323.2
131.82 -479.35 2311.1
136.04 -473.20 2281.5
141.69 -472.31 2277.2
148.27 -474.47 2287.6
153.19 -471.35 2272.6
158.03 -468.23 2257.5
165.06 -471.59 2273.8
173.78 -479.41 2311.4
181.03 -482.76 2327.6
187.35 -483.47 2331.0
193.35 -483.38 2330.6
199.02 -482.47 2326.2
206.55 -486.00 2343.2
210.54 -481.24 2320.3
213.33 -474.06 2285.6
224.06 -484.46 2335.8
234.48 -493.64 2380.1
235.27 -482.61 2326.9
235.28 -470.57 2268.8
239.24 -466.81 2250.7
244.59 -465.88 2246.2
254.90 -474.23 2286.5
270.41 -491.66 2370.5
276.39 -480.69 2317.6
277.46 -472.28 2277.0
287.63 -479.39 2311.3
299.59 -489.12 2358.2
307.76 -482.77 2327.6
305.71 -470.33 2267.6
314.69 -475.00 2290.2
327.44 -485.10 2338.9
334.78 -486.95 2347.8
335.82 -479.74 2313.0
338.25 -474.74 2288.9
342.75 -472.76 2279.4
347.65 -471.38 2272.7
359.13 -478.84 2308.7
369.26 -484.27 2334.9
376.72 -486.09 2343.7
384.23 -487.91 2352.4
381.99 -477.49 2302.2
382.27 -470.48 2268.4
397.74 -482.11 2324.4
407.12 -486.11 2343.7
409.45 -481.70 2322.5
418.91 -485.70 2341.8
420.95 -481.09 2319.5
416.67 -469.48 2263.6
422.89 -469.87 2265.5
438.95 -481.04 2319.3
-263.64 -508.45 2421.2
-237.91 -494.12 2352.9
-237.72 -506.72 2412.9
-229.46 -502.34 2392.1
-219.86 -494.68 2355.6
-209.55 -484.96 2309.3
-202.66 -482.82 2299.1
-195.49 -479.85 2285.0
-186.05 -470.93 2242.5
-176.77 -477.27 2272.7
-176.12 -491.91 2342.4
-170.78 -494.05 2352.6
-165.40 -496.19 2362.8
-162.39 -505.91 2409.1
-158.01 -511.94 2437.8
-154.20 -520.43 2478.3
-149.55 -526.67 2507.9
-146.63 -539.88 2570.8
-124.47 -530.65 2526.9
-118.25 -532.15 2534.0
-111.22 -529.95 2523.6
-105.71 -535.14 2548.3
-98.23 -530.47 2526.0
-87.51 -506.28 2410.9
-80.80 -503.45 2397.4
-76.54 -516.64 2460.2
-70.03 -515.65 2455.5
-63.51 -514.45 2449.8
-57.28 -515.51 2454.8
-50.17 -507.93 2418.7
-43.54 -503.85 2399.3
-36.97 -499.14 2376.9
-30.55 -494.85 2356.4
-24.52 -496.50 2364.3
-18.19 -491.17 2338.9
-12.04 -487.69 2322.3
-6.07 -491.39 2340.0
0.00 -489.54 2331.2
6.13 -496.73 2365.4
12.45 -504.33 2401.6
18.24 -492.61 2345.8
23.97 -485.41 2311.5
30.23 -489.71 2331.9
36.50 -492.77 2346.5
42.48 -491.52 2340.6
48.16 -487.59 2321.9
55.06 -495.58 2359.9
62.02 -502.33 2392.0
66.96 -493.05 2347.9
71.40 -481.92 2294.9
78.26 -487.63 2322.1
86.33 -499.50 2378.6
91.54 -494.32 2353.9
95.85 -485.24 2310.7
101.61 -484.16 2305.5
107.31 -482.87 2299.4
113.30 -483.02 2300.1
120.36 -487.48 2321.3
127.38 -491.31 2339.6
132.31 -487.14 2319.7
136.15 -479.48 2283.2
141.13 -476.33 2268.2
147.06 -476.46 2268.9
154.62 -481.71 2293.9
162.32 -486.96 2318.9
164.76 -476.63 2269.6
168.78 -471.42 2244.8
179.04 -483.42 2302.0
188.50 -492.54 2345.4
194.55 -492.44 2345.0
200.17 -491.32 2339.6
204.81 -487.94 2323.5
206.10 -476.98 2271.3
209.30 -470.93 2242.5
220.12 -481.87 2294.6
233.30 -497.31 2368.1
237.02 -492.28 2344.2
238.60 -483.16 2300.7
244.70 -483.44 2302.1
247.11 -476.57 2269.4
254.23 -478.89 2280.4
270.83 -498.57 2374.1
277.53 -488.69 2327.1
277.68 -478.55 2278.8
284.34 -479.83 2284.9
292.65 -483.76 2303.6
304.57 -493.40 2349.5
307.35 -488.14 2324.5
308.43 -480.45 2287.8
320.66 -490.06 2333.6
327.41 -491.12 2338.7
328.94 -484.44 2306.8
331.57 -479.59 2283.7
335.65 -476.98 2271.3
346.95 -484.53 2307.3
358.28 -491.87 2342.2
363.91 -491.28 2339.4
367.39 -487.84 2323.1
376.84 -492.32 2344.4
386.72 -497.21 2367.6
385.80 -488.28 2325.2
387.61 -483.02 2300.1
401.01 -492.14 2343.5
408.76 -494.17 2353.2
411.62 -490.31 2334.8
421.12 -494.35 2354.1
428.08 -495.35 2358.8
429.75 -490.28 2334.7
433.64 -487.84 2323.0
446.02 -494.89 2356.6
459.48 -502.95 2395.0
467.91 -505.34 2406.4
-260.01 -507.63 2387.8
-255.95 -511.91 2407.9
-238.84 -515.40 2424.3
-230.18 -510.14 2399.6
-220.20 -501.56 2359.2
-209.88 -491.73 2313.0
-202.73 -488.94 2299.9
-201.90 -501.68 2359.8
-197.76 -506.76 2383.7
-185.11 -489.66 2303.3
-177.21 -484.36 2278.4
-176.10 -497.93 2342.2
-170.20 -498.44 2344.6
-165.04 -501.22 2357.7
-162.37 -512.10 2408.8
-155.90 -511.35 2405.3
-149.99 -512.47 2410.6
-148.30 -528.74 2487.1
-130.03 -533.11 2507.7
-121.18 -523.00 2460.1
-115.68 -527.01 2479.0
-110.43 -532.68 2505.6
-106.22 -544.37 2560.6
-99.63 -544.63 2561.9
-89.80 -525.98 2474.1
-81.19 -512.10 2408.8
-75.31 -514.63 2420.8
-68.79 -512.80 2412.1
-62.34 -511.17 2404.5
-57.18 -520.98 2450.6
-50.87 -521.42 2452.7
-43.98 -515.21 2423.5
-37.23 -508.78 2393.2
-30.62 -502.15 2362.0
-24.48 -501.75 2360.1
-18.40 -503.01 2366.1
-12.33 -505.72 2378.8
-6.22 -510.09 2399.4
0.00 -508.63 2392.5
6.13 -502.60 2364.2
12.13 -497.40 2339.7
17.95 -490.74 2308.3
23.84 -488.65 2298.5
30.23 -495.70 2331.7
36.68 -501.30 2358.0
43.32 -507.51 2387.3
55.45 -505.18 2376.3
60.74 -498.08 2342.9
65.61 -489.11 2300.7
69.99 -478.26 2249.7
76.21 -480.72 2261.2
83.59 -489.61 2303.0
88.95 -486.24 2287.2
93.57 -479.54 2255.7
100.74 -485.93 2285.7
108.21 -492.94 2318.7
113.68 -490.60 2307.7
120.10 -492.41 2316.2
126.67 -494.63 2326.6
131.24 -489.16 2300.9
134.56 -479.75 2256.6
139.00 -474.90 2233.9
145.65 -477.73 2247.2
154.28 -486.58 2288.8
161.83 -491.47 2311.8
164.32 -481.22 2263.6
168.32 -475.95 2238.8
178.72 -488.51 2297.9
187.78 -496.70 2336.4
193.39 -495.57 2331.1
199.48 -495.67 2331.6
204.62 -493.49 2321.3
208.20 -487.79 2294.5
213.56 -486.44 2288.1
219.53 -486.53 2288.6
227.24 -490.35 2306.5
234.34 -492.71 2317.6
239.58 -491.14 2310.3
250.37 -500.74 2355.4
257.57 -502.88 2365.5
259.84 -495.51 2330.8
280.40 -499.84 2351.2
279.43 -487.51 2293.2
284.68 -486.33 2287.6
290.89 -486.80 2289.8
300.26 -492.42 2316.3
307.32 -494.12 2324.3
312.85 -493.34 2320.6
318.23 -492.35 2316.0
318.29 -483.33 2273.5
325.45 -485.22 2282.4
334.07 -489.17 2301.0
337.48 -485.50 2283.7
347.93 -491.91 2313.8
354.99 -493.37 2320.7
356.05 -486.61 2288.9
361.09 -485.39 2283.2
372.14 -492.19 2315.2
377.68 -491.59 2312.3
372.15 -476.82 2242.9
374.07 -471.91 2219.8
387.26 -481.15 2263.2
395.82 -484.43 2278.7
400.20 -482.59 2270.0
417.28 -495.90 2332.6
432.24 -506.33 2381.7
431.84 -498.74 2346.0
433.24 -493.41 2320.9
442.70 -497.27 2339.1
452.24 -501.13 2357.3
458.33 -501.11 2357.1
470.28 -507.41 2386.8
-230.16 -516.30 2399.3
-217.17 -500.70 2326.9
-203.85 -483.42 2246.6
-199.10 -486.05 2258.7
-200.37 -503.97 2342.0
-201.86 -523.57 2433.1
-194.10 -519.69 2415.1
-178.86 -494.83 2299.6
-170.73 -488.63 2270.8
-168.27 -498.79 2318.0
-166.18 -510.85 2374.0
-163.47 -521.85 2425.1
-157.15 -521.72 2424.5
-150.94 -522.01 2425.9
-148.58 -536.16 2491.6
-143.58 -541.70 2517.4
-134.05 -529.80 2462.1
-126.87 -526.51 2446.8
-122.37 -534.56 2484.2
-117.67 -542.61 2521.6
-113.13 -552.34 2566.8
-98.74 -546.36 2539.0
-90.39 -535.90 2490.4
-82.95 -529.63 2461.3
-76.55 -529.47 2460.5
-69.67 -525.72 2443.1
-62.53 -519.03 2412.0
-56.76 -523.47 2432.7
-50.30 -521.82 2425.0
-43.32 -513.64 2387.0
-37.22 -514.93 2392.9
-31.08 -516.00 2397.9
-24.50 -508.44 2362.8
-18.16 -502.35 2334.5
-12.07 -500.88 2327.7
-6.04 -501.10 2328.7
0.00 -508.46 2362.9
6.16 -510.99 2374.6
12.22 -506.98 2356.0
18.13 -501.51 2330.6
23.84 -494.76 2299.2
29.93 -496.85 2309.0
36.22 -501.04 2328.4
42.61 -505.23 2347.9
48.71 -505.41 2348.7
53.75 -495.71 2303.7
60.05 -498.42 2316.2
66.22 -499.64 2321.9
70.86 -490.15 2277.8
77.42 -494.31 2297.1
84.19 -499.10 2319.4
88.75 -491.07 2282.1
94.01 -487.66 2266.2
101.98 -497.90 2313.8
109.06 -502.89 2337.0
114.00 -498.00 2314.3
118.26 -490.79 2280.8
122.41 -483.80 2248.3
130.22 -491.29 2283.1
137.11 -494.79 2299.4
139.71 -483.17 2245.4
144.50 -479.73 2229.4
153.54 -490.15 2277.8
161.67 -496.99 2309.6
166.99 -495.02 2300.4
173.88 -497.65 2312.7
179.61 -496.93 2309.3
183.68 -491.80 2285.5
189.98 -492.75 2289.9
196.87 -495.16 2301.1
202.37 -494.01 2295.7
206.15 -488.87 2271.9
214.17 -493.79 2294.7
223.25 -500.80 2327.3
229.80 -501.93 2332.6
235.79 -501.81 2332.0
235.32 -488.29 2269.2
240.21 -486.28 2259.8
249.39 -492.85 2290.3
253.74 -489.79 2276.1
260.13 -490.70 2280.3
265.40 -489.51 2274.8
270.18 -487.49 2265.4
275.61 -486.72 2261.9
282.60 -488.66 2270.9
290.62 -492.27 2287.7
299.10 -496.50 2307.3
305.49 -497.17 2310.5
309.29 -493.68 2294.2
313.00 -490.18 2277.9
315.14 -484.38 2251.0
324.46 -489.63 2275.4
336.14 -498.21 2315.3
343.02 -499.49 2321.2
352.26 -504.10 2342.6
358.35 -504.12 2342.7
359.33 -497.07 2310.0
364.41 -495.84 2304.3
367.92 -492.53 2288.9
365.50 -481.54 2237.8
367.64 -476.78 2215.7
377.29 -481.77 2238.9
391.02 -491.74 2285.2
400.30 -495.89 2304.5
397.95 -485.73 2257.3
407.77 -490.50 2279.4
426.07 -505.20 2347.8
429.67 -502.29 2334.2
431.94 -497.93 2313.9
442.10 -502.67 2336.0
455.15 -510.50 2372.4
465.94 -515.64 2396.3
465.69 -508.58 2363.5
466.04 -502.35 2334.5
475.74 -506.24 2352.6
492.21 -517.13 2403.2
-229.10 -506.44 2325.5
-219.58 -498.51 2289.1
-209.88 -489.73 2248.7
-199.00 -491.64 2257.5
-195.93 -498.74 2290.1
-193.75 -508.60 2335.4
-194.55 -527.16 2420.6
-187.17 -524.08 2406.5
-177.30 -513.57 2358.2
-173.13 -519.39 2385.0
-165.95 -516.30 2370.8
-158.32 -511.50 2348.7
-155.29 -521.78 2395.9
-152.56 -533.97 2451.9
-149.43 -545.73 2505.9
-143.95 -549.64 2523.8
-135.99 -543.97 2497.8
-130.09 -546.38 2508.9
-123.65 -546.66 2510.2
-117.38 -547.79 2515.4
-112.72 -556.99 2557.6
-106.55 -559.39 2568.6
-97.89 -548.18 2517.1
-89.17 -535.04 2456.8
-82.81 -535.09 2457.0
-77.33 -541.30 2485.6
-69.91 -533.90 2451.6
-62.42 -524.36 2407.8
-56.25 -525.03 2410.9
-49.48 -519.53 2385.6
-42.50 -509.98 2341.7
-36.52 -511.28 2347.7
-30.76 -516.83 2373.2
-24.45 -513.44 2357.6
-18.06 -505.57 2321.5
-11.97 -502.82 2308.9
-5.97 -501.12 2301.1
0.00 -506.23 2324.5
6.05 -508.35 2334.3
12.00 -504.09 2314.7
18.05 -505.36 2320.5
24.07 -505.56 2321.5
29.89 -502.14 2305.8
35.76 -500.64 2298.8
41.75 -501.04 2300.7
47.33 -496.98 2282.0
52.61 -490.99 2254.6
59.21 -497.34 2283.7
67.19 -513.05 2355.8
79.22 -511.91 2350.6
84.39 -506.34 2325.0
90.03 -504.16 2315.0
96.35 -505.81 2322.6
103.35 -510.65 2344.8
109.23 -509.74 2340.6
114.32 -505.43 2320.9
118.71 -498.57 2289.3
121.23 -484.90 2226.6
127.20 -485.68 2230.2
139.48 -509.41 2339.1
149.73 -503.09 2310.1
155.56 -502.59 2307.8
163.22 -507.81 2331.8
167.90 -503.69 2312.8
174.67 -505.93 2323.1
180.05 -504.14 2314.9
182.73 -495.13 2273.5
187.86 -493.12 2264.3
194.02 -493.87 2267.8
198.74 -491.00 2254.6
203.92 -489.41 2247.3
213.15 -497.35 2283.8
219.58 -498.51 2289.1
223.45 -493.94 2268.1
233.40 -502.72 2308.4
237.31 -498.36 2288.4
237.19 -485.95 2231.4
241.64 -483.29 2219.2
247.44 -483.37 2219.5
254.89 -486.62 2234.5
262.20 -489.44 2247.4
269.22 -491.62 2257.5
271.33 -484.93 2226.7
274.85 -480.98 2208.6
284.92 -488.44 2242.8
295.55 -496.52 2279.9
302.00 -497.41 2284.0
305.73 -493.88 2267.8
315.50 -500.04 2296.1
323.92 -503.88 2313.7
325.25 -496.75 2281.0
328.52 -492.78 2262.8
335.56 -494.50 2270.7
344.81 -499.38 2293.1
352.69 -502.14 2305.7
355.68 -497.96 2286.5
359.18 -494.61 2271.2
361.05 -489.17 2246.2
366.73 -488.97 2245.3
377.37 -495.29 2274.3
387.33 -500.55 2298.5
401.05 -510.42 2343.8
409.63 -513.57 2358.2
407.42 -503.28 2311.0
405.66 -493.85 2267.7
411.54 -493.84 2267.6
417.94 -494.46 2270.5
423.82 -494.45 2270.4
438.78 -504.90 2318.4
457.86 -519.73 2386.5
468.68 -524.93 2410.4
468.66 -517.99 2378.5
477.09 -520.46 2389.9
495.27 -533.37 2449.1
499.22 -530.81 2437.4
-239.57 -522.13 2369.4
-225.53 -504.48 2289.2
-220.77 -507.17 2301.5
-216.12 -510.29 2315.6
-211.14 -512.77 2326.8
-207.38 -518.45 2352.6
-202.32 -521.14 2364.8
-188.80 -501.51 2275.8
-180.05 -493.67 2240.2
-182.68 -517.59 2348.7
-181.31 -531.42 2411.5
-172.05 -522.29 2370.0
-160.07 -503.91 2286.7
-154.76 -505.93 2295.8
-153.82 -522.98 2373.2
-149.57 -529.72 2403.8
-145.16 -536.46 2434.4
-143.32 -553.73 2512.7
-138.95 -562.40 2552.1
-132.40 -562.69 2553.4
-125.60 -561.90 2549.8
-117.37 -554.23 2515.0
-111.03 -555.15 2519.2
-103.13 -547.90 2486.3
-93.21 -528.17 2396.7
-87.57 -531.66 2412.6
-83.65 -546.97 2482.1
-77.04 -545.73 2476.4
-68.87 -532.22 2415.1
-61.61 -523.65 2376.2
-55.56 -524.75 2381.2
-43.84 -532.34 2415.7
-36.80 -521.39 2366.0
-30.33 -515.59 2339.7
-24.03 -510.66 2317.3
-17.71 -501.85 2277.3
-11.90 -505.94 2295.9
-6.02 -511.33 2320.3
0.00 -507.24 2301.8
5.89 -500.35 2270.5
11.77 -500.13 2269.5
17.83 -505.29 2292.9
23.86 -507.00 2300.7
29.73 -505.48 2293.8
35.27 -499.65 2267.3
40.81 -495.54 2248.7
47.04 -499.82 2268.1
53.15 -501.95 2277.7
58.75 -499.33 2265.9
65.45 -505.75 2295.0
72.85 -516.04 2341.7
78.82 -515.36 2338.6
83.92 -509.50 2312.0
89.45 -506.88 2300.1
94.84 -503.82 2286.2
100.80 -503.98 2287.0
108.17 -510.80 2317.9
115.17 -515.25 2338.1
117.88 -501.01 2273.5
137.31 -507.46 2302.8
155.87 -509.58 2312.4
159.52 -502.20 2278.9
165.26 -501.68 2276.5
173.25 -507.81 2304.4
179.72 -509.22 2310.7
183.64 -503.54 2285.0
191.55 -508.80 2308.9
200.58 -516.63 2344.4
203.95 -509.88 2313.7
207.61 -504.19 2287.9
213.13 -503.22 2283.5
215.64 -495.39 2248.0
219.02 -489.92 2223.1
228.27 -497.51 2257.6
240.01 -510.01 2314.3
248.32 -514.81 2336.1
250.61 -507.18 2301.5
254.45 -502.98 2282.4
264.06 -510.11 2314.8
273.49 -516.60 2344.2
270.81 -500.42 2270.8
273.01 -483.46 2193.8
289.82 -502.74 2281.4
297.40 -505.57 2294.2
300.56 -500.93 2273.1
304.00 -496.93 2255.0
312.94 -501.88 2277.5
325.24 -511.95 2323.1
330.87 -511.35 2320.4
333.54 -506.27 2297.4
339.95 -506.94 2300.4
340.41 -498.88 2263.8
338.62 -487.84 2213.7
348.59 -493.83 2240.9
359.60 -501.09 2273.8
362.88 -497.49 2257.5
370.00 -499.21 2265.3
373.49 -496.04 2250.9
375.44 -490.95 2227.9
390.45 -502.85 2281.9
399.88 -507.31 2302.1
407.55 -509.43 2311.7
416.98 -513.67 2330.9
417.60 -507.09 2301.1
417.54 -499.88 2268.3
419.47 -495.21 2247.2
430.19 -500.91 2273.0
447.86 -514.43 2334.4
456.50 -517.37 2347.7
464.83 -519.87 2359.1
482.58 -532.72 2417.4
508.37 -546.98 2482.1
507.01 -538.70 2444.5
518.32 -543.91 2468.2
-244.05 -538.17 2413.7
-236.42 -535.05 2399.7
-228.67 -531.50 2383.8
-221.27 -528.58 2370.7
-215.17 -528.70 2371.3
-210.61 -532.72 2389.3
-203.55 -530.45 2379.1
-188.38 -506.27 2270.6
-175.46 -502.99 2256.0
-176.45 -523.27 2346.9
-169.06 -519.24 2328.8
-159.64 -508.48 2280.6
-156.58 -517.90 2322.8
-156.20 -537.32 2409.9
-152.28 -545.65 2447.3
-143.92 -538.13 2413.6
-138.29 -540.60 2424.6
-136.80 -560.23 2512.7
-124.96 -565.59 2536.7
-115.62 -552.40 2477.5
-110.11 -557.03 2498.3
-102.96 -553.39 2482.0
-94.86 -543.87 2439.3
-90.56 -556.32 2495.1
-84.23 -557.24 2499.2
-75.82 -543.36 2437.0
-69.64 -544.49 2442.1
-63.80 -548.66 2460.8
-56.15 -536.51 2406.3
-49.30 -530.01 2377.1
-43.83 -538.52 2415.3
-37.31 -534.85 2398.8
-30.12 -518.11 2323.8
