ply
format ascii 1.0
element vertex 2280
property float x
property float y
property float z
end_header
492.82 782.99 1776.5
501.12 788.80 1789.7
493.70 769.99 1747.0
492.39 760.96 1726.6
502.94 770.27 1747.7
502.81 763.19 1731.6
488.61 735.08 1667.8
488.73 728.81 1653.6
504.56 745.88 1692.3
517.40 758.26 1720.4
528.23 767.51 1741.4
535.65 771.70 1750.9
535.78 765.40 1736.6
529.54 750.19 1702.1
523.69 735.76 1669.4
519.06 723.29 1641.1
521.31 720.50 1634.8
533.39 731.26 1659.2
535.64 728.47 1652.8
532.42 718.34 1629.8
533.41 714.01 1620.0
536.38 712.38 1616.3
547.24 721.17 1636.3
569.39 744.58 1689.4
590.00 765.65 1737.2
594.70 765.90 1737.8
588.87 752.69 1707.8
579.56 735.27 1668.3
582.27 733.22 1663.6
596.31 745.38 1691.2
608.00 754.45 1711.8
620.41 764.28 1734.1
629.17 769.48 1745.9
644.59 782.72 1775.9
652.86 787.13 1785.9
647.12 774.72 1757.8
658.92 783.33 1777.3
434.18 843.42 1925.0
424.44 815.13 1860.4
429.48 815.52 1861.3
441.20 828.47 1890.8
444.19 824.93 1882.8
446.72 820.60 1872.9
451.13 819.80 1871.1
453.79 815.86 1862.1
453.77 807.23 1842.4
449.64 791.56 1806.6
450.05 784.11 1789.6
454.45 783.70 1788.7
461.14 787.19 1796.6
478.95 809.42 1847.4
492.11 823.43 1879.3
486.35 805.82 1839.1
481.59 790.18 1803.4
484.56 787.40 1797.1
482.65 776.84 1773.0
485.51 774.07 1766.7
502.62 793.86 1811.9
505.54 791.08 1805.5
492.14 763.04 1741.5
489.54 752.12 1716.6
499.31 760.21 1735.1
511.23 771.40 1760.6
509.26 761.64 1738.3
497.53 737.56 1683.4
500.53 735.57 1678.8
509.89 742.86 1695.5
518.26 748.59 1708.5
529.65 758.57 1731.3
533.54 757.71 1729.4
533.57 751.45 1715.1
534.65 746.74 1704.3
535.66 742.02 1693.5
544.76 748.48 1708.3
544.03 741.46 1692.3
534.69 722.90 1649.9
529.73 710.51 1621.6
528.97 703.90 1606.5
541.21 714.57 1630.9
561.19 735.20 1678.0
560.44 728.58 1662.9
557.84 719.66 1642.5
572.19 732.57 1672.0
576.43 732.46 1671.7
580.07 731.58 1669.7
596.51 746.74 1704.3
603.28 749.66 1711.0
607.60 749.52 1710.7
620.01 759.29 1733.0
629.08 764.85 1745.7
638.21 770.41 1758.3
640.72 767.95 1752.7
639.37 760.94 1736.7
655.63 774.83 1768.4
670.09 786.42 1794.9
676.20 788.12 1798.8
692.49 801.58 1829.5
708.91 815.00 1860.1
727.79 831.06 1896.8
433.97 838.02 1924.0
426.06 813.39 1867.5
421.80 796.20 1828.0
424.03 791.52 1817.3
432.12 797.77 1831.6
439.22 802.05 1841.4
448.09 809.45 1858.4
455.30 813.72 1868.2
456.16 806.69 1852.1
453.16 793.04 1820.7
451.58 782.12 1795.7
454.18 778.60 1787.6
460.41 781.30 1793.8
478.22 803.41 1844.6
491.38 817.35 1876.6
485.61 799.83 1836.3
482.97 787.76 1808.6
487.63 787.71 1808.5
484.54 775.26 1779.9
485.70 769.79 1767.4
500.61 786.00 1804.6
501.77 780.52 1792.0
496.59 765.39 1757.3
502.88 768.03 1763.3
505.11 764.50 1755.2
509.11 763.66 1753.3
522.17 776.32 1782.4
525.95 775.09 1779.5
504.14 736.48 1690.9
503.98 723.66 1661.5
523.91 745.90 1712.5
542.17 765.42 1757.3
557.08 779.92 1790.6
555.57 771.37 1771.0
553.68 762.44 1750.5
555.90 759.27 1743.2
548.75 743.46 1706.9
543.99 731.12 1678.6
543.39 724.52 1663.4
536.36 709.52 1629.0
541.98 711.34 1633.2
562.26 732.25 1681.2
562.11 726.42 1667.8
557.43 714.88 1641.3
569.09 724.30 1662.9
567.89 717.33 1646.9
566.30 709.99 1630.1
589.38 733.46 1684.0
603.49 745.49 1711.6
600.69 736.61 1691.2
604.65 736.10 1690.0
622.09 751.88 1726.3
640.02 768.02 1763.3
640.31 762.93 1751.6
637.36 754.06 1731.3
651.04 764.85 1756.0
662.24 772.61 1773.8
671.56 778.09 1786.4
690.45 794.49 1824.1
707.86 808.98 1857.4
727.74 826.09 1896.6
749.81 845.42 1941.0
422.52 850.14 1963.5
422.52 840.01 1940.2
424.98 834.95 1928.5
431.98 838.85 1937.5
431.53 828.34 1913.2
426.65 809.67 1870.1
425.08 797.62 1842.2
422.11 783.25 1809.0
424.90 779.76 1801.0
437.69 794.51 1835.0
451.73 811.18 1873.6
452.22 803.40 1855.6
445.77 783.62 1809.9
447.11 777.79 1796.4
449.96 774.68 1789.2
451.87 770.02 1778.5
457.38 771.54 1782.0
466.38 778.86 1798.9
470.33 777.67 1796.2
477.79 782.27 1806.8
488.40 791.87 1829.0
488.31 784.11 1811.0
479.64 762.86 1761.9
478.07 753.18 1739.6
490.69 765.85 1768.8
500.47 773.87 1787.4
504.06 772.28 1783.7
510.41 774.90 1789.8
512.46 770.99 1780.7
506.47 755.18 1744.2
508.35 751.28 1735.2
524.06 767.70 1773.1
514.61 747.31 1726.0
499.35 718.90 1660.4
516.49 737.21 1702.7
529.50 749.38 1730.8
541.29 759.62 1754.5
558.12 776.72 1794.0
558.27 770.50 1779.6
542.18 742.16 1714.1
529.14 718.42 1659.3
542.43 730.54 1687.3
556.43 743.39 1717.0
558.22 739.86 1708.8
553.60 727.97 1681.4
551.19 719.13 1660.9
562.75 728.52 1682.6
571.17 733.73 1694.7
575.17 733.23 1693.5
583.96 738.80 1706.4
579.24 727.31 1679.9
566.79 706.37 1631.5
578.88 716.10 1653.9
598.16 734.50 1696.5
600.59 732.10 1690.9
603.92 730.83 1688.0
620.43 745.40 1721.6
634.24 756.56 1747.4
631.64 748.11 1727.9
628.62 739.29 1707.5
641.60 749.29 1730.6
659.23 764.53 1765.8
674.41 776.74 1794.0
691.03 790.43 1825.6
704.83 800.72 1849.4
717.40 809.50 1869.7
732.06 820.50 1895.1
755.92 841.59 1943.8
414.04 848.52 1971.6
412.83 835.72 1941.9
413.02 826.04 1919.4
415.45 821.01 1907.7
414.25 809.01 1879.8
417.33 805.53 1871.7
421.98 805.16 1870.8
421.91 795.87 1849.3
427.74 797.81 1853.8
432.55 797.81 1853.8
430.57 785.44 1825.0
438.51 791.23 1838.5
444.79 793.92 1844.7
437.55 772.69 1795.4
436.90 763.43 1773.9
443.95 767.66 1783.7
449.02 768.42 1785.5
453.63 768.40 1785.4
455.27 763.38 1773.8
459.85 763.35 1773.7
468.64 770.24 1789.7
481.05 782.89 1819.1
486.22 783.61 1820.8
479.85 765.91 1779.6
478.61 756.66 1758.2
484.37 758.53 1762.5
488.41 757.72 1760.6
488.71 751.16 1745.4
488.43 743.84 1728.4
490.34 739.97 1719.4
499.87 747.56 1737.0
501.76 743.68 1728.0
498.92 732.93 1703.0
509.32 741.65 1723.3
518.24 748.06 1738.2
521.89 746.84 1735.4
525.26 745.24 1731.6
524.01 737.17 1712.9
530.31 739.76 1718.9
542.40 750.32 1743.4
550.17 754.78 1753.8
540.97 736.08 1710.3
522.85 705.64 1639.6
529.88 709.35 1648.2
552.63 733.90 1705.3
563.88 742.89 1726.2
561.03 733.32 1703.9
560.99 727.54 1690.5
574.40 739.14 1717.5
584.67 746.58 1734.7
578.35 732.87 1702.9
576.97 725.58 1685.9
586.68 732.25 1701.4
588.86 729.48 1695.0
589.17 724.46 1683.3
596.82 728.47 1692.7
602.96 730.59 1697.6
610.37 734.21 1706.0
612.15 731.06 1698.7
610.43 723.79 1681.8
618.17 727.77 1691.0
625.95 731.74 1700.3
640.86 743.93 1728.6
661.41 762.46 1771.6
670.74 767.88 1784.2
680.45 773.66 1797.7
693.20 782.79 1818.9
704.70 790.41 1836.6
723.31 805.84 1872.4
750.83 830.92 1930.7
411.91 849.56 1986.0
407.78 830.65 1941.8
409.75 824.49 1927.4
413.00 821.03 1919.3
417.40 819.89 1916.6
418.99 813.34 1901.3
415.49 797.17 1863.5
413.43 784.08 1832.9
419.41 786.40 1838.3
431.66 800.26 1870.7
435.66 798.72 1867.1
432.87 784.87 1834.8
436.55 782.95 1830.3
438.69 778.33 1819.5
435.97 765.27 1788.9
440.39 764.88 1788.0
450.59 774.45 1810.4
459.10 780.95 1825.6
465.87 784.37 1833.6
469.91 783.19 1830.8
470.00 775.50 1812.9
474.44 775.08 1811.9
475.10 768.54 1796.6
468.05 749.79 1752.7
464.63 737.15 1723.2
466.65 733.31 1714.2
479.16 745.86 1743.6
489.34 754.58 1764.0
488.14 745.77 1743.4
486.34 736.20 1721.0
496.86 745.29 1742.2
515.15 765.76 1790.1
515.87 759.99 1776.6
511.84 747.38 1747.1
512.39 741.62 1733.7
511.02 733.21 1714.0
511.95 728.21 1702.3
512.56 722.84 1689.8
520.41 727.69 1701.1
536.23 743.51 1738.1
543.97 747.96 1748.5
547.60 746.73 1745.6
552.61 747.39 1747.1
549.19 736.72 1722.2
534.87 711.72 1663.8
537.12 709.00 1657.4
564.08 738.67 1726.8
577.74 750.61 1754.7
562.93 725.66 1696.3
561.37 718.03 1678.5
574.52 729.19 1704.6
571.09 719.32 1681.5
575.06 718.83 1680.4
589.60 731.46 1709.9
601.23 740.32 1730.6
611.42 747.29 1746.9
601.34 729.56 1705.5
590.43 711.11 1662.3
611.20 730.78 1708.3
626.20 743.33 1737.6
622.34 733.47 1714.6
626.65 733.32 1714.2
634.49 737.26 1723.5
648.82 748.64 1750.1
665.86 762.97 1783.6
672.28 765.01 1788.3
675.11 762.96 1783.5
680.22 763.51 1784.8
695.65 775.55 1813.0
717.89 794.98 1858.4
736.98 810.68 1895.1
763.39 828.68 1937.2
407.59 835.57 1965.2
401.88 813.69 1913.7
402.63 805.26 1893.9
410.66 811.42 1908.4
419.93 819.87 1928.3
421.36 812.97 1912.0
417.88 796.88 1874.2
415.42 783.09 1841.8
420.61 783.87 1843.6
429.13 790.76 1859.8
429.76 783.11 1841.8
426.68 768.96 1808.5
429.65 765.90 1801.3
439.95 775.83 1824.7
445.77 777.73 1829.2
443.65 765.88 1801.3
447.42 764.34 1797.7
455.68 770.42 1812.0
462.41 773.83 1820.0
462.28 765.80 1801.1
457.88 750.93 1766.1
464.09 753.57 1772.3
467.01 750.87 1766.0
466.31 742.48 1746.3
470.34 741.69 1744.4
467.55 730.27 1717.5
475.41 735.54 1729.9
494.96 758.63 1784.2
503.79 765.02 1799.3
498.60 750.18 1764.4
504.91 752.77 1770.5
515.34 761.41 1790.8
508.06 743.95 1749.7
512.03 743.12 1747.8
520.97 749.47 1762.7
515.70 735.43 1729.7
512.67 724.80 1704.7
522.95 733.02 1724.0
540.37 751.03 1766.4
542.15 747.17 1757.3
535.91 732.40 1722.6
548.07 742.84 1747.1
561.75 755.14 1776.0
555.86 741.14 1743.1
539.59 713.65 1678.4
528.44 693.31 1630.6
541.24 704.47 1656.9
570.40 736.59 1732.4
571.30 731.98 1721.6
559.50 711.30 1672.9
561.97 708.95 1667.4
567.10 709.96 1669.8
579.16 719.56 1692.3
587.38 724.28 1703.5
592.30 724.90 1704.9
602.13 731.48 1720.4
592.28 714.22 1679.8
575.71 689.17 1620.9
590.76 702.06 1651.2
620.43 732.02 1721.6
632.37 740.77 1742.2
640.89 745.43 1753.2
652.35 753.42 1772.0
646.78 741.76 1744.6
642.38 731.60 1720.7
662.38 749.18 1762.0
678.63 762.30 1792.9
684.09 763.21 1795.0
699.55 775.18 1823.2
714.47 786.40 1849.5
725.46 793.17 1865.5
741.61 805.45 1894.4
757.20 816.98 1921.5
404.15 833.88 1973.2
402.52 820.13 1940.7
402.81 810.60 1918.2
401.07 797.25 1886.6
406.55 798.41 1889.3
415.59 806.44 1908.3
416.56 798.82 1890.3
411.21 779.38 1844.3
406.64 761.86 1802.8
414.00 766.83 1814.6
424.32 777.12 1838.9
431.82 782.07 1850.7
435.55 780.17 1846.1
428.10 758.49 1794.8
428.42 750.88 1776.9
437.62 758.86 1795.7
439.18 753.54 1783.1
442.01 750.49 1775.9
449.08 754.65 1785.8
450.51 749.32 1773.2
445.20 733.01 1734.6
447.83 729.97 1727.4
461.45 744.71 1762.2
470.73 752.25 1780.1
476.99 754.85 1786.2
477.98 749.15 1772.7
471.61 732.11 1732.4
487.36 749.43 1773.4
511.47 771.95 1826.7
492.48 736.46 1742.7
490.10 726.25 1718.5
491.71 722.06 1708.6
493.52 718.24 1699.6
507.52 732.09 1732.4
518.54 741.42 1754.5
515.62 730.83 1729.4
515.24 724.01 1713.3
528.52 736.31 1742.4
541.38 747.84 1769.6
538.52 737.64 1745.5
522.87 710.23 1680.7
525.23 707.54 1674.3
543.49 726.14 1718.3
542.81 719.33 1702.2
545.44 717.00 1696.7
551.20 718.77 1700.8
544.30 704.13 1666.2
553.48 710.37 1681.0
563.60 717.71 1698.4
561.74 709.79 1679.6
566.01 709.69 1679.4
572.96 712.92 1687.0
575.44 710.58 1681.5
574.55 704.15 1666.3
578.17 703.30 1664.2
586.38 707.99 1675.4
588.45 705.28 1668.9
583.66 694.42 1643.2
587.19 693.56 1641.2
606.46 711.17 1682.9
619.58 721.37 1707.0
629.62 727.86 1722.4
639.41 733.97 1736.8
632.45 720.91 1705.9
630.23 713.39 1688.1
650.50 731.25 1730.4
673.27 751.66 1778.7
686.32 761.02 1800.8
699.13 769.99 1822.1
710.70 777.48 1839.8
724.71 787.52 1863.5
745.27 804.50 1903.7
757.82 812.67 1923.0
769.09 819.35 1938.9
412.17 878.58 2091.9
396.82 824.16 1962.3
399.32 818.85 1949.6
405.32 820.78 1954.2
407.35 814.71 1939.8
407.39 804.84 1916.3
405.75 791.94 1885.6
407.30 785.51 1870.3
412.55 786.28 1872.1
411.78 775.67 1846.8
413.31 769.62 1832.4
426.51 785.16 1869.4
434.48 790.84 1883.0
439.14 790.46 1882.0
440.19 783.63 1865.8
430.20 757.53 1803.6
423.16 737.11 1755.0
425.08 732.58 1744.2
435.58 742.78 1768.5
446.87 754.09 1795.5
445.87 744.64 1773.0
439.05 725.78 1728.0
440.30 720.49 1715.5
450.09 729.14 1736.1
465.61 746.81 1778.1
476.83 757.31 1803.1
483.15 759.90 1809.3
483.95 753.84 1794.9
472.50 729.01 1735.7
482.38 737.23 1755.3
508.21 769.45 1832.0
502.42 753.63 1794.4
486.61 723.21 1721.9
487.48 717.92 1709.3
494.95 722.36 1719.9
503.25 727.92 1733.1
514.48 737.58 1756.1
522.67 742.74 1768.4
522.69 736.31 1753.1
525.58 733.99 1747.6
532.74 737.64 1756.3
539.40 740.54 1763.2
541.99 737.84 1756.8
532.14 718.39 1710.5
529.29 708.63 1687.2
542.00 719.70 1713.6
549.76 724.07 1724.0
560.12 731.77 1742.3
566.56 734.26 1748.2
560.04 720.06 1714.4
560.92 715.50 1703.6
563.20 712.81 1697.2
563.39 707.52 1684.6
569.75 710.00 1690.5
569.56 704.34 1677.0
564.79 693.15 1650.4
570.49 694.89 1654.5
581.10 702.52 1672.7
589.63 707.56 1684.7
592.04 705.22 1679.1
593.79 702.15 1671.8
603.97 709.01 1688.1
616.74 718.79 1711.4
623.90 721.95 1718.9
623.44 716.29 1705.5
623.22 711.00 1692.9
627.80 711.22 1693.4
636.94 716.55 1706.1
651.37 727.73 1732.7
666.90 739.99 1761.9
676.61 745.65 1775.4
686.70 751.66 1789.7
703.57 764.96 1821.3
723.28 781.15 1859.9
733.66 787.11 1874.1
735.22 783.59 1865.7
750.14 794.27 1891.1
765.86 805.64 1918.2
782.39 817.73 1947.0
401.15 872.77 2090.9
395.33 826.59 1980.3
389.47 803.90 1925.9
394.10 803.17 1924.2
397.79 800.55 1917.9
397.82 790.74 1894.4
401.40 788.11 1888.1
403.38 782.47 1874.6
404.11 774.55 1855.6
408.54 773.82 1853.9
413.75 774.58 1855.7
421.22 779.50 1867.5
431.01 788.55 1889.2
435.28 787.41 1886.4
439.11 785.52 1881.9
438.88 776.47 1860.2
435.74 762.54 1826.9
435.26 753.51 1805.2
432.47 740.72 1774.6
438.18 742.60 1779.1
448.38 751.97 1801.5
446.03 740.32 1773.6
438.52 720.43 1726.0
451.88 727.52 1743.0
470.95 750.71 1798.5
484.83 765.27 1833.4
493.38 771.21 1847.6
491.86 761.43 1824.2
478.03 732.98 1756.0
474.69 720.99 1727.3
486.83 732.52 1754.9
494.60 737.32 1766.4
493.84 729.44 1747.5
493.24 721.93 1729.6
498.97 723.74 1733.9
502.39 722.19 1730.2
508.40 724.36 1735.4
524.43 740.64 1774.4
532.69 745.76 1786.7
527.90 732.69 1755.3
527.00 725.19 1737.4
545.57 744.38 1783.3
556.33 746.41 1788.2
558.66 743.34 1780.8
561.79 741.38 1776.2
560.39 733.52 1757.3
564.29 732.67 1755.3
563.60 725.92 1739.1
561.38 717.32 1718.5
566.63 718.32 1720.9
568.36 714.90 1712.7
568.00 708.90 1698.3
574.39 711.36 1704.2
573.93 705.36 1689.9
574.00 700.10 1677.3
584.92 708.06 1696.3
587.69 706.10 1691.6
588.90 702.31 1682.6
587.89 695.96 1667.3
585.88 688.51 1649.5
600.40 700.46 1678.1
617.57 715.31 1713.7
615.53 707.86 1695.8
605.09 690.92 1655.3
607.66 688.96 1650.6
616.02 693.56 1661.6
630.30 704.71 1688.3
649.61 721.29 1728.0
659.54 727.30 1742.4
663.23 726.39 1740.3
681.26 741.10 1775.5
706.84 763.76 1829.8
707.66 759.56 1819.7
698.58 744.85 1784.5
709.51 751.52 1800.4
732.53 770.83 1846.7
760.26 794.82 1904.2
403.25 871.89 2101.9
390.68 833.44 2009.2
390.17 821.41 1980.2
393.14 816.91 1969.3
392.01 804.13 1938.5
391.11 792.11 1909.6
389.67 779.35 1878.8
391.89 774.11 1866.2
397.90 776.39 1871.7
401.99 774.91 1868.1
405.06 771.55 1860.0
404.11 760.68 1833.8
404.23 752.06 1813.0
407.31 749.08 1805.8
412.21 749.47 1806.8
423.36 761.10 1834.8
434.02 771.59 1860.1
439.47 772.70 1862.8
441.71 768.20 1851.9
444.33 764.45 1842.9
445.37 758.07 1827.5
442.33 744.98 1795.9
443.84 739.74 1783.3
449.81 741.96 1788.7
450.56 735.60 1773.3
452.37 731.11 1762.5
466.48 746.36 1799.3
478.41 757.87 1827.0
485.01 760.81 1834.1
489.26 760.01 1832.2
483.10 743.23 1791.7
476.98 726.83 1752.2
482.48 728.27 1755.7
489.98 732.68 1766.3
493.27 730.77 1761.7
495.28 727.01 1752.6
497.74 723.99 1745.3
501.72 723.19 1743.4
503.60 719.43 1734.3
508.05 719.37 1734.2
522.77 733.72 1768.8
532.88 741.40 1787.3
530.22 731.34 1763.1
525.29 718.34 1731.7
540.05 732.28 1765.3
563.98 751.97 1812.8
560.80 741.56 1787.7
558.34 732.26 1765.3
556.62 724.06 1745.5
559.64 722.12 1740.8
565.80 724.22 1745.9
569.95 723.74 1744.7
571.47 719.96 1735.6
569.72 712.15 1716.8
573.20 710.94 1713.9
583.49 718.14 1731.2
584.29 713.63 1720.4
585.93 710.22 1712.1
593.00 713.38 1719.8
592.46 707.41 1705.4
601.08 712.39 1717.4
607.89 715.16 1724.1
604.13 705.56 1700.9
616.90 715.24 1724.2
621.55 715.46 1724.8
606.82 693.51 1671.9
606.23 687.93 1658.4
618.78 697.22 1680.8
625.28 699.61 1686.6
637.34 708.15 1707.1
653.75 721.38 1739.0
661.07 724.46 1746.5
662.44 721.03 1738.2
677.47 732.40 1765.6
703.38 755.31 1820.8
705.87 752.93 1815.1
697.45 739.02 1781.6
708.37 745.66 1797.6
738.29 772.06 1861.2
773.68 803.82 1937.8
790.97 816.48 1968.3
395.40 873.18 2118.2
399.52 870.20 2111.0
405.01 870.21 2111.0
402.70 853.72 2071.0
398.76 834.24 2023.8
398.57 823.02 1996.5
397.32 809.93 1964.8
396.66 798.34 1936.7
393.22 781.52 1895.9
393.38 772.19 1873.2
402.11 779.70 1891.5
409.17 783.83 1901.5
413.91 783.47 1900.6
414.85 776.01 1882.5
408.63 755.49 1832.7
405.22 740.58 1796.5
414.84 749.54 1818.3
430.41 768.93 1865.3
432.08 763.34 1851.8
428.56 748.81 1816.5
435.86 753.27 1827.3
443.63 758.47 1840.0
450.59 762.17 1848.9
453.82 759.55 1842.6
448.71 743.18 1802.9
447.71 733.88 1780.3
453.23 735.35 1783.9
459.46 737.92 1790.1
467.11 742.71 1801.7
472.70 744.16 1805.2
478.07 745.23 1807.8
480.81 742.22 1800.5
484.48 740.70 1796.8
489.11 740.65 1796.7
488.07 732.10 1776.0
488.66 726.14 1761.5
488.93 719.82 1746.2
488.12 712.03 1727.3
493.07 712.71 1729.0
499.57 715.60 1736.0
506.62 719.23 1744.8
516.59 726.89 1763.3
516.63 720.56 1748.0
511.81 707.63 1716.6
529.07 725.19 1759.2
544.64 740.15 1795.5
541.60 729.78 1770.4
545.30 728.59 1767.5
549.53 728.13 1766.3
548.19 720.34 1747.5
547.03 712.93 1729.5
545.50 705.16 1710.6
553.28 709.45 1721.0
563.69 717.01 1739.4
566.95 715.44 1735.6
567.58 710.59 1723.8
574.31 713.40 1730.6
586.97 723.47 1755.1
592.61 724.80 1758.3
588.37 714.13 1732.4
584.91 704.55 1709.2
586.50 701.16 1700.9
592.03 702.49 1704.1
606.81 714.69 1733.7
619.55 724.33 1757.1
622.10 722.00 1751.5
632.79 729.09 1768.7
635.97 727.48 1764.8
631.18 716.84 1739.0
640.35 722.10 1751.7
646.36 723.74 1755.7
646.22 718.52 1743.0
655.48 723.75 1755.7
669.72 734.38 1781.5
672.84 732.75 1777.6
669.30 723.93 1756.2
664.65 714.05 1732.2
670.32 715.30 1735.2
683.44 724.44 1757.4
686.11 722.46 1752.6
701.42 733.72 1779.9
735.78 764.64 1854.9
765.99 790.86 1918.5
777.68 797.74 1935.2
393.60 875.90 2138.3
389.28 854.26 2085.4
391.94 848.31 2070.9
396.10 845.73 2064.6
396.33 834.93 2038.3
395.16 821.52 2005.5
396.56 813.72 1986.5
396.75 803.68 1962.0
393.66 787.32 1922.0
387.53 765.38 1868.5
387.62 756.11 1845.8
396.48 763.95 1865.0
405.43 771.78 1884.1
412.10 775.14 1892.3
417.01 775.14 1892.3
414.44 761.41 1858.8
413.13 750.29 1831.6
424.91 762.91 1862.4
431.20 765.50 1868.8
422.96 742.52 1812.7
423.18 734.75 1793.7
434.51 746.22 1821.7
433.35 736.23 1797.3
431.18 724.76 1769.3
443.77 738.06 1801.8
447.31 736.19 1797.2
442.44 720.67 1759.3
444.24 716.23 1748.5
457.55 730.22 1782.6
472.42 746.42 1822.2
470.52 736.06 1796.9
468.02 724.98 1769.8
474.27 727.52 1776.0
481.27 731.16 1784.9
493.68 742.87 1813.5
500.81 746.49 1822.4
496.54 733.21 1789.9
491.61 719.21 1755.8
495.62 718.42 1753.8
505.23 725.69 1771.6
500.00 711.71 1737.4
495.38 698.84 1706.0
514.15 718.90 1755.0
522.87 724.68 1769.1
510.38 701.22 1711.8
520.67 709.18 1731.3
543.48 733.92 1791.7
547.78 733.46 1790.6
547.13 726.44 1773.4
546.95 720.15 1758.1
546.42 713.50 1741.8
546.08 707.22 1726.5
538.88 692.22 1689.9
540.34 688.50 1680.8
561.00 709.10 1731.1
574.66 720.61 1759.2
572.13 711.79 1737.6
575.37 710.22 1733.8
583.61 714.81 1745.0
584.17 709.99 1733.2
582.86 702.99 1716.2
581.47 696.00 1699.1
584.86 694.80 1696.2
591.91 697.92 1703.8
604.54 707.53 1727.2
614.48 713.88 1742.7
615.12 709.41 1731.8
624.51 715.02 1745.5
647.57 736.09 1797.0
663.22 748.49 1827.2
657.54 736.82 1798.7
648.50 721.57 1761.5
640.25 707.41 1727.0
641.64 704.02 1718.7
672.89 733.22 1789.9
694.54 751.63 1834.9
679.82 730.69 1783.8
662.85 707.63 1727.5
674.56 715.31 1746.2
694.15 731.17 1785.0
696.20 728.47 1778.4
711.23 739.31 1804.8
727.07 750.83 1833.0
736.11 755.23 1843.7
767.15 781.99 1909.0
386.89 855.52 2101.8
383.83 836.97 2056.2
387.45 833.29 2047.2
388.05 823.29 2022.7
385.51 807.00 1982.6
386.00 797.39 1959.0
389.09 793.34 1949.1
392.50 790.03 1940.9
391.77 778.57 1912.8
390.70 766.75 1883.7
395.22 766.04 1882.0
395.28 756.82 1859.3
395.42 747.97 1837.6
405.34 757.60 1861.2
413.17 763.15 1874.9
411.36 750.98 1845.0
411.04 741.76 1822.3
420.73 750.62 1844.1
424.68 749.15 1840.5
424.80 741.04 1820.6
433.79 748.41 1838.7
441.79 753.92 1852.2
437.21 738.09 1813.3
429.80 717.85 1763.6
437.26 722.62 1775.3
444.77 727.39 1787.0
443.95 718.56 1765.3
443.94 711.20 1747.3
455.39 722.19 1774.3
471.19 739.76 1817.4
469.74 730.20 1793.9
461.76 710.75 1746.2
462.19 704.50 1730.8
475.14 717.27 1762.2
493.61 738.07 1813.3
497.54 736.92 1810.4
489.50 718.24 1764.5
493.53 717.45 1762.6
506.67 729.80 1793.0
518.17 739.57 1817.0
515.10 728.57 1789.9
503.85 706.29 1735.2
515.90 716.78 1761.0
529.12 728.70 1790.3
522.26 712.99 1751.7
521.91 706.38 1735.4
532.84 715.01 1756.6
537.06 714.56 1755.5
536.60 707.95 1739.3
544.09 711.85 1748.8
551.34 715.37 1757.5
557.78 717.80 1763.5
557.18 711.19 1747.2
541.65 685.79 1684.8
545.08 684.62 1682.0
565.87 705.10 1732.3
570.86 705.71 1733.8
575.85 706.31 1735.3
585.28 712.32 1750.0
582.86 703.92 1729.4
578.84 693.72 1704.3
586.78 697.92 1714.6
598.73 706.77 1736.4
597.91 700.54 1721.1
601.95 700.04 1719.9
617.78 713.17 1752.1
624.06 715.17 1757.0
622.19 707.86 1739.1
634.80 717.00 1761.5
640.18 717.92 1763.8
624.72 695.61 1709.0
633.86 700.81 1721.7
643.70 706.71 1736.2
637.91 695.50 1708.7
661.92 716.70 1760.8
683.53 735.02 1805.8
669.38 714.92 1756.4
665.39 705.85 1734.1
689.93 726.97 1786.0
715.38 748.76 1839.5
724.71 753.50 1851.2
729.63 753.63 1851.5
733.52 752.69 1849.2
733.57 747.86 1837.3
753.11 762.82 1874.1
790.69 795.76 1955.0
384.03 843.79 2086.3
386.39 837.17 2069.9
383.13 818.74 2024.3
377.53 795.88 1967.8
382.30 795.18 1966.1
390.65 801.85 1982.6
388.70 787.50 1947.1
387.50 775.00 1916.2
391.92 773.92 1913.5
395.01 770.26 1904.5
401.29 772.86 1910.9
402.39 765.52 1892.8
394.00 740.54 1831.0
394.81 733.21 1812.9
405.52 744.26 1840.2
406.05 736.56 1821.2
406.07 728.13 1800.3
416.13 737.68 1823.9
424.00 743.19 1837.6
428.76 743.19 1837.6
432.03 740.62 1831.2
434.83 737.32 1823.0
442.60 742.43 1835.7
447.79 743.15 1837.5
449.87 738.74 1826.6
451.90 734.34 1815.7
443.42 713.13 1763.2
445.60 702.16 1736.1
460.37 718.18 1775.7
466.84 721.06 1782.9
466.92 714.11 1765.7
464.99 704.25 1741.3
475.54 713.31 1763.7
495.26 735.81 1819.3
500.18 736.11 1820.1
491.16 716.08 1770.5
493.70 713.12 1763.2
509.64 729.39 1803.4
524.49 743.82 1839.1
526.36 739.75 1829.1
519.87 724.10 1790.4
517.64 714.62 1766.9
516.88 707.31 1748.9
516.57 700.73 1732.6
522.62 702.83 1737.8
530.04 706.72 1747.4
530.69 701.59 1734.7
532.92 698.62 1727.4
543.15 706.10 1745.9
543.70 700.97 1733.2
543.62 695.12 1718.7
552.25 700.42 1731.8
545.52 686.30 1696.9
542.00 671.04 1659.2
562.28 690.68 1707.7
582.79 710.28 1756.2
595.24 719.82 1779.8
596.76 716.11 1770.6
584.12 695.59 1719.9
584.24 690.47 1707.2
606.53 711.42 1759.0
614.95 715.92 1770.1
613.86 709.35 1753.9
623.87 715.62 1769.4
628.01 715.11 1768.1
623.64 704.99 1743.1
628.03 704.84 1742.7
625.39 696.86 1723.0
616.56 682.15 1686.6
633.08 695.49 1719.6
654.29 713.77 1764.8
660.34 715.37 1768.8
665.75 716.25 1771.0
667.85 713.59 1764.4
662.59 703.16 1738.6
667.94 704.04 1740.8
675.98 707.74 1749.9
684.41 711.78 1759.9
710.62 734.15 1815.2
732.96 752.24 1859.9
750.67 765.38 1892.4
765.74 775.69 1917.9
769.06 774.03 1913.8
786.76 786.76 1945.3
384.09 850.48 2116.4
382.18 834.34 2076.2
391.67 843.19 2098.3
394.88 838.44 2086.4
384.52 805.42 2004.3
385.29 796.27 1981.5
392.78 801.07 1993.5
391.04 787.16 1958.8
381.38 757.87 1885.9
376.95 739.59 1840.5
387.04 749.88 1866.1
399.92 765.28 1904.4
403.51 762.74 1898.1
396.69 740.82 1843.5
389.80 719.27 1789.9
392.45 715.65 1780.9
399.51 720.05 1791.8
406.01 723.36 1800.1
414.00 729.21 1814.6
420.39 732.13 1821.9
422.78 728.13 1811.9
423.85 721.94 1796.5
429.37 723.39 1800.1
439.71 732.85 1823.7
444.43 732.83 1823.6
446.03 727.73 1810.9
448.68 724.44 1802.8
440.62 704.08 1752.1
438.50 693.54 1725.9
455.25 712.76 1773.7
470.82 729.77 1816.0
478.81 734.81 1828.5
474.94 721.72 1796.0
469.47 706.48 1758.1
480.31 715.85 1781.4
500.08 738.22 1837.0
501.84 733.82 1826.1
490.08 709.92 1766.6
489.09 701.93 1746.7
501.95 713.78 1776.2
511.37 720.57 1793.1
507.46 708.61 1763.4
514.32 711.78 1771.3
526.47 722.15 1797.0
520.49 707.68 1761.1
515.40 694.67 1728.7
525.74 702.50 1748.2
537.26 711.75 1771.2
533.59 700.90 1744.2
531.99 692.93 1724.3
539.17 696.43 1733.0
536.88 687.74 1711.4
542.66 689.44 1715.7
556.97 701.87 1746.6
555.98 694.97 1729.4
551.74 684.16 1702.5
547.66 673.71 1676.5
556.61 679.32 1690.5
579.15 701.32 1745.2
593.36 712.95 1774.2
603.52 719.58 1790.7
599.03 708.77 1763.8
593.80 697.26 1735.1
610.98 712.05 1771.9
629.26 727.88 1811.3
637.83 732.33 1822.4
630.29 718.34 1787.6
616.00 696.94 1734.3
626.04 703.16 1749.8
645.03 719.27 1789.9
640.26 708.86 1764.0
629.91 692.45 1723.2
636.50 694.77 1728.9
648.31 702.72 1748.7
664.47 715.23 1779.8
681.43 728.43 1812.7
684.96 727.18 1809.6
681.46 718.54 1788.1
687.25 719.76 1791.1
696.09 724.12 1802.0
692.42 715.50 1780.5
706.06 724.76 1803.6
734.91 749.42 1864.9
759.90 769.83 1915.7
775.38 780.42 1942.1
779.45 779.45 1939.7
379.27 834.39 2089.8
380.83 826.02 2068.9
393.55 841.76 2108.3
407.34 859.31 2152.3
407.13 847.28 2122.1
389.18 799.12 2001.5
379.80 769.60 1927.6
387.01 774.01 1938.6
385.77 761.65 1907.7
375.78 732.54 1834.7
381.32 734.03 1838.5
392.61 746.44 1869.6
393.79 739.55 1852.3
397.23 737.03 1846.0
400.64 734.51 1839.7
400.41 725.45 1817.0
404.52 724.37 1814.3
407.59 721.49 1807.1
412.28 721.50 1807.1
418.86 724.77 1815.3
421.24 720.79 1805.3
425.28 719.70 1802.6
433.63 725.85 1818.0
442.27 732.36 1834.3
444.81 728.73 1825.2
447.30 725.09 1816.1
450.64 722.91 1810.6
449.18 713.13 1786.1
453.80 713.11 1786.1
465.37 723.91 1813.1
476.13 733.25 1836.5
479.92 731.76 1832.8
470.57 710.47 1779.5
466.49 697.48 1746.9
478.53 708.59 1774.8
493.40 723.65 1812.5
489.90 711.73 1782.6
487.99 702.35 1759.1
498.31 710.55 1779.7
498.06 703.67 1762.4
494.39 692.15 1733.6
498.84 692.09 1733.4
514.49 707.42 1771.8
530.32 722.74 1810.2
528.60 714.07 1788.5
531.84 712.20 1783.8
550.12 730.33 1829.2
552.62 727.37 1821.8
539.77 704.44 1764.4
532.98 689.74 1727.5
535.17 686.80 1720.2
538.17 684.94 1715.5
549.31 693.39 1736.7
566.23 708.93 1775.6
568.74 706.34 1769.1
557.38 686.69 1719.9
546.37 667.79 1672.6
556.48 674.78 1690.1
580.51 698.42 1749.3
599.18 715.30 1791.6
612.37 725.43 1816.9
610.64 717.86 1798.0
607.91 709.23 1776.4
620.63 718.62 1799.9
634.07 728.71 1825.1
642.37 732.78 1835.3
635.15 719.22 1801.4
618.38 695.11 1741.0
625.60 698.13 1748.6
641.42 710.64 1779.9
632.79 696.07 1743.4
630.41 688.54 1724.5
645.42 699.96 1753.1
639.06 688.22 1723.8
636.83 681.06 1705.8
669.45 711.00 1780.8
689.15 726.91 1820.6
686.00 718.67 1800.0
692.50 720.57 1804.8
701.37 724.91 1815.6
697.72 716.33 1794.1
706.96 721.01 1805.9
731.37 740.99 1855.9
759.11 764.07 1913.7
777.38 777.38 1947.1
784.61 779.55 1952.5
384.26 839.87 2117.3
389.93 840.26 2118.3
393.72 836.66 2109.2
399.55 837.40 2111.1
405.73 838.87 2114.8
393.61 802.96 2024.3
374.91 754.75 1902.7
372.93 741.01 1868.1
388.50 762.07 1921.2
395.93 766.80 1933.1
387.13 740.39 1866.5
384.13 725.58 1829.2
390.64 728.87 1837.5
398.95 735.41 1854.0
410.31 747.35 1884.1
418.41 753.14 1898.7
413.39 735.45 1854.1
407.12 715.97 1805.0
414.09 719.95 1815.0
422.99 727.17 1833.2
420.33 714.55 1801.4
419.00 704.47 1776.0
425.99 708.43 1786.0
433.24 712.75 1796.8
437.89 712.74 1796.8
442.32 712.37 1795.9
456.66 727.80 1834.8
466.18 735.31 1853.7
467.51 729.89 1840.1
475.51 734.88 1852.6
473.96 725.16 1828.1
464.72 703.98 1774.7
467.15 700.72 1766.5
474.35 704.62 1776.4
481.12 707.80 1784.4
490.37 714.55 1801.4
493.77 712.71 1796.7
499.14 713.72 1799.3
506.28 717.23 1808.1
502.54 705.39 1778.3
499.93 695.35 1753.0
505.98 697.43 1758.2
509.97 696.65 1756.3
513.16 694.80 1751.6
521.35 699.71 1764.0
535.22 712.07 1795.1
547.61 722.28 1820.9
544.12 711.54 1793.8
542.40 703.28 1773.0
546.38 702.48 1771.0
547.56 698.14 1760.0
550.09 695.56 1753.5
543.55 681.67 1718.5
543.95 676.63 1705.8
561.19 692.43 1745.6
564.47 690.91 1741.8
556.99 676.34 1705.1
570.98 687.87 1734.1
589.23 704.32 1775.6
601.75 713.70 1799.2
611.97 720.25 1815.7
608.13 710.26 1790.6
604.77 700.98 1767.2
616.55 709.27 1788.1
627.51 716.49 1806.3
632.99 717.39 1808.5
636.60 716.18 1805.5
631.10 704.81 1776.8
626.42 694.51 1750.9
629.86 693.30 1747.8
636.81 695.94 1754.5
650.22 705.56 1778.7
660.50 711.67 1794.1
648.70 694.06 1749.7
629.47 668.81 1686.1
645.24 680.84 1716.4
678.08 710.59 1791.4
686.21 714.22 1800.6
676.92 699.79 1764.2
668.81 686.76 1731.3
681.96 695.60 1753.6
708.88 718.27 1810.8
726.78 731.56 1844.3
746.56 746.56 1882.1
777.99 772.94 1948.6
392.24 851.73 2161.3
391.11 837.30 2124.7
389.10 821.43 2084.5
390.70 813.51 2064.4
392.90 807.04 2047.9
394.84 800.20 2030.6
388.39 776.78 1971.2
377.08 744.37 1888.9
383.48 747.29 1896.3
396.46 762.80 1935.7
392.77 746.26 1893.7
384.84 722.18 1832.6
386.51 716.45 1818.1
397.91 728.71 1849.2
412.45 746.33 1893.9
421.18 753.16 1911.2
416.79 736.65 1869.3
406.85 710.82 1803.8
409.87 707.96 1796.5
418.94 715.50 1815.6
416.44 703.32 1784.7
421.07 703.32 1784.8
433.93 716.93 1819.3
437.55 715.13 1814.7
438.70 709.39 1800.2
435.32 696.52 1767.5
441.70 699.36 1774.7
453.58 710.77 1803.6
457.32 709.32 1800.0
466.85 716.78 1818.9
466.38 708.90 1798.9
461.08 693.91 1760.9
468.26 697.79 1770.7
471.86 696.33 1767.0
474.95 694.16 1761.5
487.84 706.20 1792.1
494.92 709.70 1800.9
493.31 700.77 1778.3
492.83 693.62 1760.1
496.60 692.50 1757.3
502.14 693.86 1760.7
507.17 694.51 1762.4
509.61 691.61 1755.0
515.95 694.02 1761.1
527.62 703.49 1785.2
524.70 693.51 1759.9
520.58 682.14 1731.0
533.97 693.71 1760.3
548.87 707.02 1794.1
553.44 706.92 1793.9
555.79 704.00 1786.5
559.50 702.84 1783.5
554.44 690.78 1752.9
551.51 681.54 1729.5
565.37 693.03 1758.6
573.01 696.78 1768.2
569.94 687.55 1744.7
580.52 694.80 1763.1
594.73 706.24 1792.1
595.10 701.21 1779.4
593.92 694.43 1762.2
597.47 693.25 1759.2
601.92 693.12 1758.8
605.75 692.28 1756.7
608.64 690.40 1752.0
613.68 690.96 1753.4
617.47 690.12 1751.2
624.71 693.10 1758.8
633.23 697.47 1769.9
644.35 704.62 1788.0
659.07 715.57 1815.8
659.11 710.53 1803.0
655.84 702.03 1781.5
649.54 690.42 1752.0
636.53 671.89 1705.0
640.47 671.39 1703.7
661.01 688.17 1746.3
681.41 704.58 1788.0
683.17 701.63 1780.5
673.05 686.60 1742.3
683.51 692.63 1757.6
708.41 713.10 1809.6
724.25 724.25 1837.9
732.95 728.16 1847.8
751.79 742.02 1883.0
781.28 766.16 1944.2
391.75 845.06 2158.6
379.95 808.07 2064.1
386.52 810.62 2070.6
396.41 819.98 2094.6
387.43 790.57 2019.4
379.32 763.69 1950.8
386.56 768.03 1961.9
388.19 761.25 1944.5
385.84 746.94 1908.0
390.24 745.90 1905.3
387.61 731.60 1868.8
380.95 710.17 1814.0
387.22 713.06 1821.4
403.16 733.46 1873.6
409.42 735.98 1880.0
409.47 727.42 1858.1
413.28 725.64 1853.6
411.10 713.52 1822.6
406.48 697.48 1781.6
408.16 692.50 1768.9
415.73 697.50 1781.7
430.65 714.60 1825.4
442.32 725.98 1854.4
444.92 722.40 1845.3
445.05 714.92 1826.2
440.38 699.97 1788.0
438.46 689.66 1761.7
441.42 687.16 1755.3
449.65 692.82 1769.8
463.52 706.99 1805.9
466.07 703.76 1797.7
463.60 693.10 1770.5
470.32 696.26 1778.5
473.70 694.45 1773.9
474.86 689.46 1761.2
486.03 698.96 1785.4
495.09 705.26 1801.5
495.96 699.91 1787.9
492.74 688.92 1759.8
493.44 683.58 1746.1
501.01 687.75 1756.8
507.85 690.86 1764.7
515.51 695.01 1775.3
527.16 704.44 1799.4
540.52 715.95 1828.8
540.11 709.19 1811.5
522.35 679.96 1736.9
522.45 674.27 1722.4
537.81 688.22 1758.0
542.85 688.83 1759.5
549.84 691.89 1767.4
558.83 697.39 1781.4
565.06 699.38 1786.5
572.74 703.11 1796.0
575.86 701.25 1791.3
573.19 692.41 1768.7
567.20 679.74 1736.3
575.13 683.81 1746.7
591.37 697.63 1782.0
593.50 694.72 1774.6
587.51 682.41 1743.2
585.89 675.34 1725.1
590.86 675.91 1726.5
595.53 676.13 1727.1
610.36 687.79 1756.9
628.42 702.90 1795.5
627.32 696.51 1779.2
629.91 694.28 1773.5
635.32 695.17 1775.7
642.96 698.46 1784.2
665.68 717.98 1834.0
673.81 721.60 1843.2
664.79 706.93 1805.8
652.33 688.83 1759.5
649.84 681.43 1740.6
665.09 692.61 1769.2
669.17 692.09 1767.9
673.58 691.91 1767.4
695.48 709.58 1812.5
706.75 716.24 1829.6
700.73 705.40 1801.9
706.57 706.57 1804.9
726.88 722.10 1844.5
738.37 728.72 1861.4
747.49 732.93 1872.2
386.08 827.31 2127.4
381.80 806.62 2074.2
395.42 823.79 2118.3
400.75 823.45 2117.4
387.76 786.00 2021.2
381.60 763.20 1962.5
390.68 771.08 1982.8
390.34 760.41 1955.3
385.98 742.27 1908.7
392.63 745.50 1917.0
392.68 736.27 1893.3
386.46 715.66 1840.3
392.99 718.89 1848.6
402.52 727.44 1870.6
401.81 717.51 1845.0
405.59 715.75 1840.5
413.83 721.80 1856.0
415.56 716.48 1842.4
414.72 706.91 1817.8
418.18 704.79 1812.3
427.55 712.59 1832.4
434.66 716.48 1842.4
438.78 715.40 1839.6
440.69 710.79 1827.7
440.55 703.00 1807.7
437.62 690.97 1776.8
436.57 682.13 1754.1
443.16 685.30 1762.2
455.09 696.57 1791.2
471.12 713.81 1835.5
474.91 712.37 1831.8
469.67 697.53 1793.7
473.82 696.79 1791.8
486.65 708.71 1822.4
497.19 717.09 1844.0
497.25 710.36 1826.6
496.24 702.22 1805.7
497.87 697.96 1794.7
495.92 688.78 1771.1
496.14 682.76 1755.7
502.70 685.51 1762.7
504.12 681.24 1751.8
506.26 678.03 1743.5
520.48 690.90 1776.6
535.92 705.15 1813.3
546.71 713.10 1833.7
540.59 699.04 1797.5
525.32 673.49 1731.8
525.09 667.48 1716.4
539.70 680.29 1749.3
556.42 695.52 1788.5
562.09 696.81 1791.8
564.95 694.61 1786.2
573.48 699.37 1798.4
577.19 698.21 1795.4
574.81 689.77 1773.7
569.99 678.56 1744.9
575.59 679.83 1748.1
589.48 690.79 1776.3
586.24 681.67 1752.9
574.49 662.88 1704.5
578.21 662.07 1702.5
588.60 668.86 1719.9
597.84 674.26 1733.8
616.70 690.33 1775.1
635.74 706.38 1816.4
635.00 700.37 1800.9
638.58 699.18 1797.9
644.99 701.08 1802.8
648.88 700.23 1800.6
668.77 716.54 1842.5
673.37 716.35 1842.1
659.47 696.63 1791.3
652.19 684.12 1759.2
655.60 682.92 1756.1
671.23 694.38 1785.5
676.02 694.54 1786.0
680.13 694.01 1784.6
703.09 712.59 1832.4
718.14 722.96 1859.0
716.27 716.27 1841.8
709.51 704.81 1812.4
713.31 703.93 1810.1
740.33 725.81 1866.4
764.81 744.94 1915.6
387.74 825.34 2136.5
387.37 812.93 2104.4
397.47 822.54 2129.3
399.70 815.82 2111.9
395.84 797.03 2063.3
397.81 790.31 2045.9
393.90 772.25 1999.1
381.15 737.56 1909.3
382.97 731.57 1893.8
396.34 747.53 1935.1
401.18 747.19 1934.2
399.66 735.18 1903.2
397.60 722.48 1870.3
398.72 715.78 1852.9
405.33 718.98 1861.2
417.01 730.99 1892.3
424.15 734.87 1902.4
424.55 727.11 1882.3
427.35 723.58 1873.1
434.10 726.75 1881.3
441.31 730.61 1891.3
446.42 730.94 1892.2
444.58 720.02 1863.9
440.40 705.59 1826.5
444.46 704.52 1823.8
445.37 698.53 1808.3
446.47 678.82 1757.3
469.88 707.19 1830.7
480.71 716.26 1854.2
482.16 711.31 1841.4
481.87 703.91 1822.2
489.95 708.76 1834.8
497.11 712.20 1843.7
493.97 700.96 1814.6
496.15 697.42 1805.4
501.29 698.06 1807.0
497.84 686.84 1778.0
497.06 679.46 1758.9
500.29 677.66 1754.3
498.31 668.90 1731.6
504.06 670.58 1735.9
521.96 688.24 1781.7
535.55 699.98 1812.0
543.94 704.75 1824.4
544.27 699.11 1809.8
535.00 681.33 1763.7
537.86 679.16 1758.1
555.07 695.00 1799.1
566.06 702.86 1819.5
566.48 697.56 1805.8
563.71 688.47 1782.2
565.96 685.59 1774.8
571.33 686.52 1777.2
570.64 680.20 1760.8
571.90 676.29 1750.7
584.56 685.83 1775.4
592.91 690.18 1786.7
585.22 675.95 1749.8
582.75 667.92 1729.0
595.88 677.76 1754.5
594.54 671.11 1737.3
591.58 662.75 1715.6
602.70 670.16 1734.8
613.28 676.88 1752.2
630.19 690.43 1787.3
651.98 709.09 1835.6
650.57 702.42 1818.3
646.84 693.37 1794.9
673.14 716.41 1854.6
684.23 723.05 1871.7
666.16 699.00 1809.5
654.99 682.47 1766.7
660.39 683.32 1768.9
677.71 696.41 1802.8
685.53 699.62 1811.1
691.71 701.12 1815.0
696.90 701.60 1816.2
693.95 693.95 1796.4
703.52 698.83 1809.1
708.00 698.63 1808.5
710.75 696.73 1803.6
737.08 717.81 1858.2
394.92 834.97 2176.1
385.16 802.86 2092.4
386.13 793.71 2068.6
394.81 800.44 2086.1
396.70 793.41 2067.8
399.04 787.43 2052.2
395.50 770.18 2007.2
383.12 736.39 1919.2
385.89 732.20 1908.2
393.67 737.50 1922.1
393.53 728.03 1897.4
402.11 734.73 1914.8
410.20 740.36 1929.5
410.48 731.94 1907.6
416.63 734.06 1913.1
419.97 731.25 1905.8
418.39 720.03 1876.5
426.14 724.94 1889.3
436.25 733.69 1912.1
435.93 724.92 1889.3
436.35 717.56 1870.1
443.13 720.69 1878.3
443.20 712.98 1858.2
440.76 701.43 1828.1
446.16 702.46 1830.7
451.56 703.49 1833.4
442.72 682.53 1778.8
452.61 683.54 1781.4
471.89 705.46 1838.6
478.28 707.86 1844.8
489.68 717.55 1870.1
496.16 712.92 1858.0
490.92 698.62 1820.7
495.11 697.87 1818.8
504.26 704.06 1834.9
508.22 702.95 1832.0
503.31 689.71 1797.5
501.54 680.99 1774.8
503.52 677.47 1765.6
513.50 684.67 1784.4
530.90 701.54 1828.3
535.04 700.77 1826.3
533.86 693.08 1806.3
543.30 699.21 1822.3
544.71 694.97 1811.2
537.34 679.71 1771.5
541.86 679.62 1771.2
551.09 685.38 1786.2
554.24 683.57 1781.5
562.99 688.62 1794.7
568.69 689.89 1798.0
572.98 689.43 1796.8
580.70 693.09 1806.3
581.81 688.86 1795.3
585.48 687.71 1792.3
587.38 684.50 1783.9
585.39 676.85 1764.0
595.22 682.88 1779.7
611.12 695.74 1813.2
609.05 688.09 1793.3
592.27 664.06 1730.7
588.37 654.72 1706.3
599.47 662.10 1725.5
613.76 672.86 1753.6
635.06 691.10 1801.1
649.03 701.14 1827.3
638.72 685.00 1785.2
631.08 671.94 1751.2
652.80 690.11 1798.5
684.44 718.42 1872.3
687.48 716.53 1867.4
673.16 696.70 1815.7
675.06 693.81 1808.2
688.50 702.75 1831.5
692.06 701.54 1828.3
695.26 699.99 1824.3
696.76 696.76 1815.9
694.82 690.16 1798.7
704.74 695.35 1812.2
721.25 706.92 1842.4
737.20 717.80 1870.7
750.15 725.63 1891.1
758.99 729.42 1901.0
393.39 838.09 2199.1
401.25 830.75 2179.8
393.16 802.69 2106.2
393.40 792.19 2078.6
392.98 780.64 2048.3
393.11 770.50 2021.7
393.66 761.42 1997.9
384.73 734.48 1927.2
389.74 734.51 1927.3
400.20 744.67 1954.0
396.90 729.31 1913.6
403.03 731.42 1919.2
414.44 742.96 1949.5
417.92 740.17 1942.1
417.57 730.75 1917.4
414.07 716.10 1879.0
416.50 711.92 1868.0
427.94 723.07 1897.3
431.19 720.28 1889.9
423.86 700.08 1836.9
427.13 697.64 1830.5
436.61 705.29 1850.6
443.79 709.10 1860.6
448.38 708.73 1859.6
442.53 692.04 1815.8
436.46 675.36 1772.1
441.27 675.70 1773.0
447.46 678.11 1779.3
452.52 678.78 1781.1
459.22 681.87 1789.2
464.31 682.53 1790.9
474.87 691.15 1813.5
493.46 711.16 1866.0
497.29 709.72 1862.2
495.72 700.68 1838.5
503.16 704.42 1848.3
503.18 697.80 1831.0
497.34 683.26 1792.8
504.73 686.99 1802.6
515.48 695.19 1824.1
517.58 691.67 1814.9
527.68 698.82 1833.6
535.51 702.86 1844.2
529.67 689.03 1808.0
522.04 673.16 1766.3
524.41 670.34 1758.9
542.44 687.40 1803.7
550.86 692.11 1816.0
547.52 682.08 1789.7
549.59 678.90 1781.4
553.01 677.44 1777.5
562.04 682.81 1791.6
574.53 692.26 1816.4
586.28 700.68 1838.5
584.90 693.39 1819.4
577.34 678.95 1781.5
585.36 682.92 1791.9
592.25 685.52 1798.7
594.73 683.01 1792.2
609.41 694.44 1822.1
617.61 698.38 1832.5
607.71 681.94 1789.3
604.92 673.66 1767.6
615.51 680.30 1785.0
617.54 677.45 1777.6
622.32 677.64 1778.1
633.37 684.60 1796.3
635.67 682.07 1789.7
633.51 674.82 1770.7
633.16 669.61 1757.0
637.25 669.11 1755.7
650.06 677.72 1778.3
666.54 690.01 1810.5
665.17 683.78 1794.2
657.79 671.49 1761.9
662.85 671.99 1763.3
679.92 684.58 1796.3
697.47 697.47 1830.1
703.03 698.28 1832.2
705.54 696.07 1826.4
721.68 707.24 1855.7
745.16 725.42 1903.4
753.65 728.86 1912.5
756.62 726.95 1907.5
393.72 833.08 2200.9
392.40 818.44 2162.2
400.05 822.65 2173.3
399.50 810.11 2140.2
389.72 779.44 2059.2
379.53 748.80 1978.2
383.60 746.74 1972.8
388.19 745.73 1970.1
377.71 716.17 1892.0
381.51 714.12 1886.6
401.28 741.61 1959.3
407.51 743.71 1964.8
408.95 737.12 1947.4
415.37 739.56 1953.8
416.49 732.62 1935.5
413.33 718.40 1897.9
409.37 703.15 1857.6
410.72 697.26 1842.1
418.18 701.77 1854.0
416.94 691.73 1827.5
417.24 684.47 1808.3
427.90 694.16 1833.9
437.18 701.41 1853.0
443.72 704.16 1860.3
449.85 706.21 1865.7
445.56 692.04 1828.3
444.00 682.36 1802.7
453.65 689.92 1822.7
452.63 681.28 1799.9
450.35 670.92 1772.5
459.59 677.79 1790.6
467.75 682.92 1804.2
473.35 684.25 1807.7
486.89 696.93 1841.2
499.39 707.87 1870.1
506.88 711.58 1879.9
508.74 707.40 1868.9
502.83 692.58 1829.7
499.24 681.21 1799.7
508.17 686.97 1814.9
516.92 692.38 1829.2
516.71 685.81 1811.8
528.88 695.65 1837.8
539.09 702.74 1856.6
530.88 685.92 1812.1
521.66 668.09 1765.0
522.95 663.92 1754.0
539.62 679.18 1794.3
546.66 682.16 1802.2
541.63 670.15 1770.5
555.85 681.96 1801.7
571.89 695.80 1838.2
573.74 692.29 1828.9
578.67 692.51 1829.5
584.74 694.09 1833.7
578.16 680.74 1798.4
569.38 665.04 1757.0
577.06 668.65 1766.5
591.54 680.04 1796.6
600.83 685.32 1810.5
607.50 687.55 1816.4
607.27 682.01 1801.8
609.10 678.84 1793.4
618.50 684.09 1807.3
625.81 686.98 1814.9
623.89 679.76 1795.8
618.45 668.84 1767.0
618.51 663.99 1754.2
635.54 677.29 1789.3
648.59 686.19 1812.8
648.66 681.33 1800.0
653.17 681.17 1799.6
647.32 670.28 1770.8
644.27 662.41 1750.0
659.13 672.96 1777.9
668.18 677.46 1789.8
674.30 678.96 1793.7
692.45 692.45 1829.4
695.66 690.93 1825.3
686.68 677.40 1789.6
694.86 680.87 1798.8
719.15 699.97 1849.2
743.66 719.04 1899.6
753.53 723.79 1912.2
396.75 821.84 2186.2
397.84 812.49 2161.3
400.01 805.57 2142.9
392.49 779.60 2073.8
381.79 748.10 1990.0
385.89 746.05 1984.6
398.85 760.96 2024.2
396.02 745.75 1983.8
387.04 719.49 1913.9
394.65 724.36 1926.9
408.42 740.26 1969.2
417.58 747.52 1988.5
421.57 745.45 1983.0
419.60 733.03 1949.9
418.46 722.34 1921.5
416.17 709.93 1888.5
413.30 696.85 1853.7
416.25 693.75 1845.4
417.28 687.56 1829.0
420.33 684.81 1821.7
427.19 688.25 1830.8
432.58 689.27 1833.5
433.62 683.42 1818.0
434.58 677.58 1802.4
443.47 684.08 1819.7
455.59 695.38 1849.8
463.32 699.81 1861.6
459.87 687.44 1828.7
458.81 678.85 1805.8
469.31 687.37 1828.5
478.51 693.83 1845.7
485.64 697.20 1854.6
494.26 702.62 1869.0
501.73 706.32 1878.9
507.78 707.96 1883.2
508.91 702.77 1869.5
508.22 695.21 1849.3
509.20 690.03 1835.6
511.11 686.22 1825.4
512.47 681.73 1813.5
521.25 687.10 1827.7
542.31 708.42 1884.5
544.53 698.73 1858.7
529.01 672.86 1789.9
525.79 662.95 1763.5
541.14 676.42 1799.3
546.27 677.01 1800.9
544.26 668.79 1779.1
562.11 684.93 1822.0
572.90 692.25 1841.5
568.84 681.67 1813.3
574.30 682.57 1815.7
580.34 684.14 1819.9
580.64 678.97 1806.1
579.41 672.12 1787.9
580.14 667.62 1775.9
587.59 670.87 1784.6
596.55 675.78 1797.7
602.29 677.00 1800.9
604.44 674.18 1793.4
608.66 673.71 1792.1
609.52 669.55 1781.1
608.48 663.38 1764.7
616.33 666.93 1774.1
622.04 668.12 1777.3
614.29 654.94 1742.2
624.04 660.48 1756.9
648.46 681.35 1812.5
660.99 689.52 1834.2
664.93 688.68 1832.0
659.47 678.18 1804.0
658.77 672.69 1789.4
676.03 685.48 1823.4
690.47 695.26 1849.5
702.37 702.37 1868.4
703.33 698.52 1858.1
686.44 677.10 1801.2
690.58 676.58 1799.8
712.39 693.27 1844.2
723.45 699.34 1860.3
734.93 705.73 1877.3
757.22 722.34 1921.5
403.61 818.58 2192.6
395.52 791.03 2118.8
392.64 774.52 2074.6
386.17 751.47 2012.9
384.59 738.42 1977.9
392.28 743.26 1990.9
397.27 742.94 1990.0
395.55 730.24 1956.0
401.76 732.32 1961.6
414.48 746.06 1998.4
415.22 738.17 1977.2
410.19 720.34 1929.5
417.17 723.77 1938.7
425.20 728.91 1952.4
421.16 713.49 1911.1
416.30 697.06 1867.1
424.45 702.53 1881.8
430.37 704.24 1886.3
423.63 685.43 1836.0
421.13 673.80 1804.8
428.83 678.58 1817.6
432.66 677.21 1814.0
433.39 671.06 1797.5
442.05 677.19 1813.9
449.44 681.26 1824.8
453.02 679.53 1820.2
459.79 682.57 1828.3
468.67 688.66 1844.6
473.20 688.28 1843.6
475.82 685.18 1835.3
479.83 684.12 1832.5
485.03 684.75 1834.2
490.24 685.38 1835.8
493.98 683.97 1832.1
503.14 690.01 1848.3
510.87 694.01 1859.0
502.06 675.66 1809.8
494.52 659.36 1766.2
504.18 666.07 1784.1
521.66 682.90 1829.2
533.63 692.28 1854.3
534.96 687.80 1842.3
536.49 683.67 1831.3
530.76 670.44 1795.8
527.82 660.92 1770.3
544.00 675.32 1808.9
554.90 682.96 1829.4
558.46 681.51 1825.5
562.00 680.07 1821.6
558.80 670.56 1796.1
569.57 677.84 1815.6
589.53 695.83 1863.8
587.38 687.66 1842.0
579.65 673.14 1803.1
581.02 669.34 1792.9
584.69 668.22 1789.9
593.94 673.44 1803.9
605.03 680.66 1823.2
612.03 683.20 1830.0
615.74 682.06 1826.9
622.17 683.91 1831.9
625.87 682.76 1828.8
620.63 671.96 1799.9
624.23 670.82 1796.8
636.23 678.65 1817.8
635.78 673.18 1803.2
627.36 659.41 1766.3
633.07 660.59 1769.4
647.10 670.38 1795.7
653.53 672.20 1800.5
660.30 674.35 1806.3
672.31 681.78 1826.2
688.35 693.16 1856.7
702.22 702.22 1880.9
696.59 691.79 1853.0
678.47 669.17 1792.4
679.23 665.37 1782.2
699.90 680.98 1824.1
716.67 692.62 1855.2
722.63 693.72 1858.2
728.26 694.49 1860.3
743.93 704.78 1887.8
402.75 811.17 2188.0
387.05 768.72 2073.5
376.71 737.94 1990.4
380.47 735.23 1983.1
388.50 740.73 1998.0
392.78 739.05 1993.4
394.46 732.57 1976.0
396.61 727.13 1961.3
406.05 734.99 1982.5
411.76 736.03 1985.3
405.51 715.91 1931.0
401.14 699.55 1886.9
409.21 705.02 1901.6
420.34 715.58 1930.1
419.07 705.03 1901.7
411.52 684.27 1845.7
417.34 685.98 1850.3
432.60 702.97 1896.1
434.76 698.54 1884.2
425.10 675.44 1821.9
426.37 670.00 1807.2
438.90 682.21 1840.1
448.30 689.32 1859.3
448.42 682.18 1840.0
447.55 673.68 1817.1
451.57 672.65 1814.3
458.32 675.67 1822.5
465.57 679.36 1832.4
467.96 675.94 1823.2
475.97 680.63 1835.9
484.99 686.66 1852.1
489.27 685.94 1850.2
493.30 684.87 1847.3
489.96 673.70 1817.2
491.91 669.94 1807.0
505.54 682.00 1839.6
502.96 672.18 1813.1
495.42 655.98 1769.4
505.60 663.31 1789.2
519.23 675.00 1820.7
527.80 679.96 1834.1
531.18 678.20 1829.3
535.06 677.11 1826.4
544.00 682.38 1840.6
555.16 690.32 1862.0
558.82 688.88 1858.1
558.08 682.09 1839.8
558.62 676.98 1826.0
559.38 672.20 1813.1
561.19 668.76 1803.8
576.51 681.32 1837.7
591.98 693.87 1871.6
584.97 680.09 1834.4
583.56 672.98 1815.2
591.65 676.85 1825.7
584.56 663.43 1789.5
583.19 656.66 1771.2
601.94 672.48 1813.9
616.39 683.29 1843.0
612.90 674.19 1818.5
612.33 668.42 1802.9
629.40 681.85 1839.2
638.03 686.00 1850.4
642.06 685.18 1848.1
654.18 692.95 1869.1
652.27 685.84 1849.9
642.06 670.18 1807.7
643.41 666.72 1798.3
653.36 672.16 1813.0
665.62 679.89 1833.9
677.66 687.27 1853.8
683.26 688.08 1855.9
692.81 692.81 1868.7
700.76 695.90 1877.0
688.14 678.65 1830.5
677.64 663.72 1790.2
686.47 667.79 1801.2
706.18 682.32 1840.4
721.98 692.90 1869.0
722.14 688.44 1856.9
721.91 683.66 1844.0
745.18 701.06 1891.0
397.67 818.39 2223.0
392.36 795.93 2162.0
400.87 801.73 2177.7
398.06 785.07 2132.5
385.41 749.71 2036.4
386.81 742.25 2016.2
396.53 750.77 2039.3
402.19 751.46 2041.2
406.38 749.44 2035.7
410.92 748.09 2032.0
416.57 748.77 2033.9
418.98 743.68 2020.1
410.87 720.29 1956.5
404.99 701.32 1905.0
407.16 696.59 1892.1
412.87 697.95 1895.8
422.65 706.08 1917.9
426.19 703.70 1911.5
422.44 689.50 1872.9
427.71 690.17 1874.7
440.40 702.66 1908.6
441.91 697.24 1893.9
435.79 680.02 1847.1
440.79 680.34 1848.0
447.99 684.03 1858.0
446.33 674.24 1831.4
446.11 666.82 1811.3
450.34 666.12 1809.4
456.39 668.12 1814.8
462.47 670.10 1820.2
470.91 675.44 1834.7
484.86 688.50 1870.2
488.00 686.10 1863.6
486.29 676.99 1838.9
495.64 683.31 1856.1
497.22 678.89 1844.1
490.57 663.44 1802.1
495.20 663.38 1801.9
503.61 668.34 1815.4
507.50 667.27 1812.5
520.87 678.56 1843.2
538.25 694.84 1887.4
532.39 681.07 1850.0
521.60 661.32 1796.3
533.09 669.90 1819.7
549.77 684.80 1860.1
556.67 687.36 1867.1
556.81 681.61 1851.5
555.50 674.20 1831.3
555.47 668.45 1815.7
561.49 670.01 1819.9
568.08 672.22 1826.0
571.30 670.46 1821.2
573.94 668.03 1814.6
584.28 674.53 1832.2
599.90 686.98 1866.0
603.45 685.52 1862.1
592.92 668.21 1815.1
588.66 658.18 1787.8
604.18 670.27 1820.6
609.68 671.12 1823.0
597.39 652.53 1772.5
593.37 643.19 1747.1
606.65 652.60 1772.7
620.97 662.99 1800.9
630.77 668.43 1815.6
653.43 687.31 1866.9
661.56 690.75 1876.3
655.19 679.10 1844.6
661.08 680.24 1847.7
665.38 679.74 1846.4
671.93 681.53 1851.2
676.23 681.02 1849.9
673.33 673.33 1829.0
685.12 680.33 1848.0
694.35 684.70 1859.9
699.63 685.16 1861.1
707.27 687.89 1868.5
708.53 684.43 1859.1
721.27 692.03 1879.8
735.46 700.91 1903.9
733.31 694.20 1885.6
738.65 694.63 1886.8
387.47 780.47 2135.0
393.36 781.17 2136.9
405.12 793.36 2170.3
406.73 785.59 2149.0
389.78 742.69 2031.7
381.05 716.36 1959.7
397.42 737.32 2017.0
412.06 754.55 2064.1
410.88 742.74 2031.8
411.05 733.65 2006.9
419.51 739.38 2022.6
