ply
format ascii 1.0
element vertex 2256
property float x
property float y
property float z
end_header
-104.94 920.61 1839.9
-99.45 914.01 1826.7
-93.94 906.51 1811.7
-87.36 887.38 1773.5
-82.10 880.32 1759.3
-77.00 874.14 1747.0
-72.55 875.11 1748.9
-69.58 895.31 1789.3
-66.38 915.06 1828.8
-60.83 903.05 1804.8
-53.73 864.19 1727.1
-49.08 861.12 1721.0
-45.76 883.09 1764.9
-41.20 883.58 1765.8
-36.37 877.35 1753.4
-32.07 884.10 1766.9
-27.92 898.00 1794.7
-23.11 892.21 1783.1
-18.38 886.86 1772.4
-14.11 907.46 1813.6
-9.61 927.17 1853.0
-4.88 941.94 1882.5
0.00 976.40 1951.4
-170.68 993.06 1995.0
-163.46 980.79 1970.3
-155.15 960.95 1930.5
-146.84 939.77 1887.9
-139.95 926.58 1861.4
-135.15 926.72 1861.7
-130.53 928.19 1864.7
-126.73 935.88 1880.1
-123.85 951.14 1910.8
-118.74 949.93 1908.3
-112.00 934.92 1878.2
-105.35 919.46 1847.1
-100.14 915.56 1839.3
-94.78 909.87 1827.9
-87.10 880.14 1768.1
-80.89 862.86 1733.4
-76.80 867.40 1742.5
-73.25 879.05 1766.0
-68.58 877.79 1763.4
-63.85 875.63 1759.1
-60.53 893.96 1795.9
-55.46 887.33 1782.6
-49.56 865.11 1738.0
-45.15 866.95 1741.6
-40.08 854.96 1717.6
-34.88 837.18 1681.8
-31.11 853.25 1714.1
-27.42 877.34 1762.5
-23.36 896.98 1802.0
-19.12 917.94 1844.1
-14.38 920.63 1849.5
-9.63 924.21 1856.7
-4.85 930.90 1870.1
0.00 955.41 1919.4
5.24 1006.21 2021.4
-181.47 990.31 1999.9
-176.87 993.59 2006.5
-164.37 981.10 1981.3
-155.24 956.48 1931.6
-148.31 944.25 1906.9
-142.65 939.53 1897.3
-134.96 920.63 1859.2
-127.66 903.05 1823.7
-123.73 908.94 1835.5
-120.67 921.91 1861.7
-116.75 929.12 1876.3
-111.31 924.36 1866.7
-105.56 916.50 1850.8
-101.17 920.15 1858.2
-96.50 921.58 1861.1
-89.39 898.62 1814.7
-81.98 869.89 1756.7
-76.80 862.88 1742.5
-72.44 864.73 1746.3
-67.12 854.60 1725.8
-63.62 867.98 1752.8
-61.35 901.31 1820.1
-56.02 891.61 1800.6
-49.97 867.71 1752.3
-45.69 872.64 1762.2
-40.77 865.14 1747.1
-35.16 839.45 1695.2
-31.01 846.14 1708.7
-27.45 873.68 1764.3
-23.50 897.66 1812.8
-18.90 902.57 1822.7
-14.00 891.05 1799.4
-9.41 898.60 1814.7
-4.76 909.26 1836.2
0.00 942.99 1904.3
5.24 1001.56 2022.6
-191.19 981.79 1993.1
-183.64 969.21 1967.6
-179.22 972.92 1975.1
-165.95 985.34 2000.3
-157.05 962.59 1954.1
-150.27 951.73 1932.1
-144.88 949.23 1927.0
-137.44 932.62 1893.3
-128.41 903.65 1834.5
-122.59 895.84 1818.6
-119.28 906.55 1840.4
-114.97 910.20 1847.8
-110.94 916.49 1860.6
-106.54 920.14 1867.9
-99.66 901.71 1830.5
-92.70 880.62 1787.7
-87.32 873.21 1772.7
-81.44 859.61 1745.1
-76.17 851.30 1728.2
-71.69 851.37 1728.4
-67.92 860.28 1746.4
-65.67 891.26 1809.3
-61.86 904.14 1835.5
-55.38 876.81 1780.0
-49.97 863.17 1752.3
-46.20 877.80 1782.0
-41.92 884.91 1796.4
-36.83 874.79 1775.9
-32.36 878.36 1783.1
-28.53 903.58 1834.3
-23.80 904.49 1836.2
-18.67 886.83 1800.3
-13.91 881.11 1788.7
-9.41 893.49 1813.9
-4.85 920.90 1869.5
0.00 970.39 1970.0
5.28 1003.53 2037.2
10.46 993.80 2017.5
15.56 985.39 2000.4
-218.87 984.90 2010.0
-211.99 977.23 1994.4
-207.61 980.95 2001.9
-200.56 971.96 1983.6
-195.11 970.40 1980.4
-189.84 969.72 1979.0
-182.41 957.64 1954.4
-178.19 962.20 1963.7
-173.13 962.38 1964.0
-165.69 948.96 1936.6
-161.96 956.58 1952.2
-157.07 957.62 1954.3
-149.52 941.98 1922.4
-143.35 934.23 1906.6
-137.90 930.86 1899.7
-130.62 914.31 1865.9
-122.17 888.09 1812.4
-116.27 878.98 1793.8
-112.58 886.57 1809.3
-109.03 895.91 1828.4
-105.22 903.93 1844.7
-98.93 890.41 1817.2
-92.79 876.88 1789.6
-88.16 876.97 1789.7
-81.48 855.52 1746.0
-75.42 838.45 1711.1
-71.43 843.80 1722.0
-68.06 857.51 1750.0
-64.57 871.65 1778.9
-59.63 866.87 1769.1
-55.10 867.81 1771.0
-51.43 883.70 1803.5
-46.88 885.95 1808.1
-41.94 880.72 1797.4
-37.67 890.00 1816.3
-33.80 912.47 1862.2
-29.16 918.66 1874.8
-23.88 902.85 1842.6
-18.93 894.51 1825.5
-14.24 897.17 1831.0
-9.62 909.50 1856.1
-4.95 935.03 1908.2
0.00 948.23 1935.2
5.00 945.59 1929.8
10.12 956.58 1952.2
15.38 968.89 1977.3
20.87 986.03 2012.3
-224.35 980.89 2012.5
-214.41 959.75 1969.1
-206.60 947.31 1943.6
-201.04 944.90 1938.6
-195.88 944.23 1937.3
-192.31 951.41 1952.0
-187.88 954.66 1958.6
-181.59 948.30 1945.6
-177.47 953.28 1955.8
-172.59 954.33 1958.0
-164.48 937.03 1922.5
-160.12 940.69 1930.0
-154.64 937.79 1924.0
-146.60 918.72 1884.9
-142.62 924.55 1896.9
-139.15 934.31 1916.9
-133.39 928.76 1905.5
-126.35 913.59 1874.4
-118.71 892.72 1831.6
-113.37 888.03 1821.9
-107.64 879.83 1805.1
-101.79 869.87 1784.7
-98.16 878.72 1802.9
-94.42 887.57 1821.0
-89.27 883.29 1812.2
-82.15 857.99 1760.3
-76.64 847.56 1738.9
-73.11 859.02 1762.4
-68.72 861.29 1767.1
-64.27 863.10 1770.8
-59.11 854.85 1753.9
-54.37 851.84 1747.7
-50.69 866.35 1777.5
-46.18 868.15 1781.2
-41.06 857.68 1759.7
-36.63 860.79 1766.0
-32.72 878.78 1803.0
-28.10 880.57 1806.6
-23.34 877.52 1800.4
-18.76 881.49 1808.5
-14.35 899.03 1844.5
-9.84 924.89 1897.6
-5.08 955.13 1959.6
0.00 973.97 1998.3
5.11 960.39 1970.4
10.21 959.51 1968.6
15.38 963.87 1977.6
20.70 973.06 1996.4
-231.78 963.18 1986.7
-224.03 952.13 1963.9
-218.19 948.88 1957.2
-210.24 936.07 1930.8
-203.95 930.20 1918.7
-201.15 940.39 1939.7
-198.61 952.32 1964.3
-192.85 949.05 1957.5
-186.70 943.59 1946.3
-178.76 928.56 1915.3
-173.10 924.82 1907.6
-171.82 945.00 1949.2
-167.41 948.65 1956.7
-160.35 937.07 1932.8
-152.41 919.39 1896.4
-145.29 905.62 1868.0
-142.02 915.77 1888.9
-139.03 928.54 1915.2
-133.65 925.63 1909.2
-126.48 909.65 1876.3
-118.83 888.87 1833.4
-113.31 882.89 1821.1
-107.37 872.99 1800.7
-101.23 860.46 1774.8
-97.33 866.66 1787.6
-94.05 879.39 1813.9
-89.23 878.18 1811.4
-83.66 869.11 1792.7
-79.53 874.86 1804.5
-76.32 891.94 1839.8
-72.08 898.56 1853.4
-66.33 885.99 1827.5
-60.11 864.68 1783.5
-54.06 842.50 1737.8
-49.15 835.58 1723.5
-45.43 849.58 1752.4
-41.04 852.68 1758.8
-36.52 853.59 1760.7
-32.51 868.46 1791.3
-28.12 876.34 1807.6
-23.51 879.42 1813.9
-18.88 882.49 1820.3
-14.41 898.21 1852.7
-9.69 906.08 1868.9
-4.91 917.43 1892.3
0.00 959.75 1979.6
5.20 972.40 2005.7
10.35 967.59 1995.8
15.52 967.58 1995.8
20.44 955.78 1971.4
25.87 967.53 1995.7
-257.50 977.44 2027.0
-253.53 982.44 2037.3
-238.50 964.37 1999.8
-230.45 952.51 1975.3
-227.63 962.25 1995.4
-223.11 965.07 2001.3
-216.31 957.94 1986.5
-203.77 924.43 1917.0
-195.31 908.20 1883.4
-193.46 922.67 1913.4
-188.45 922.42 1912.9
-181.72 913.52 1894.4
-173.50 896.39 1858.9
-168.87 897.43 1861.0
-168.67 922.71 1913.5
-162.89 918.12 1903.9
-154.56 898.35 1862.9
-148.31 889.84 1845.3
-142.92 886.09 1837.5
-139.26 893.16 1852.2
-135.72 901.54 1869.5
-130.89 901.67 1869.8
-124.24 888.80 1843.1
-116.21 864.64 1793.0
-110.35 855.21 1773.5
-106.89 864.43 1792.6
-102.97 870.61 1805.4
-96.98 858.99 1781.3
-91.86 854.32 1771.6
-89.14 872.63 1809.6
-85.38 882.27 1829.6
-79.42 868.90 1801.9
-74.60 867.24 1798.4
-70.89 879.03 1822.9
-65.55 870.86 1805.9
-60.54 866.14 1796.2
-55.55 860.99 1785.5
-49.51 837.16 1736.1
-44.73 832.00 1725.3
-41.25 852.45 1767.8
-37.49 871.60 1807.5
-33.36 886.40 1838.2
-28.92 896.43 1858.9
-24.17 899.06 1864.4
-19.40 902.12 1870.8
-14.31 887.37 1840.2
-9.31 865.66 1795.2
-4.71 875.66 1815.9
0.00 913.45 1894.3
5.03 936.47 1942.0
10.13 942.11 1953.7
15.41 955.13 1980.7
20.58 956.85 1984.2
25.71 956.39 1983.3
31.52 977.21 2026.5
-258.78 977.02 2037.0
-251.11 967.83 2017.9
-243.76 959.48 2000.5
-236.39 950.69 1982.1
-231.51 951.78 1984.4
-226.83 953.73 1988.5
-220.63 949.22 1979.1
-213.11 938.68 1957.1
-200.26 903.59 1883.9
-191.22 884.41 1844.0
-188.94 896.23 1868.6
-185.81 904.60 1886.0
-180.87 904.36 1885.5
-174.17 895.05 1866.1
-171.24 905.14 1887.2
-168.84 918.67 1915.4
-160.98 902.46 1881.6
-154.64 893.99 1863.9
-150.34 897.16 1870.5
-143.97 887.82 1851.1
-139.26 888.40 1852.3
-135.46 895.01 1866.0
-130.33 892.98 1861.8
-124.91 888.79 1853.1
-117.97 872.94 1820.0
-113.15 872.20 1818.5
-110.49 888.72 1852.9
-104.47 878.46 1831.5
-96.69 851.78 1775.9
-91.25 844.10 1759.9
-88.12 858.02 1788.9
-84.21 865.45 1804.4
-78.19 850.84 1774.0
-72.70 840.55 1752.5
-68.44 844.07 1759.8
-64.24 848.90 1769.9
-60.23 857.17 1787.2
-56.70 874.09 1822.4
-51.98 874.14 1822.5
-46.46 859.49 1792.0
-42.26 868.62 1811.0
-38.07 880.33 1835.4
-33.62 888.59 1852.6
-29.03 895.10 1866.2
-24.18 894.70 1865.4
-19.35 894.72 1865.4
-14.23 877.44 1829.4
-9.41 870.10 1814.1
-4.83 893.89 1863.7
0.00 919.84 1917.8
5.03 931.08 1941.3
10.13 937.13 1953.9
15.41 950.09 1980.9
20.94 968.67 2019.6
26.59 983.78 2051.1
31.91 983.75 2051.1
-279.14 987.73 2070.6
-269.58 972.61 2038.9
-259.95 956.63 2005.4
-253.46 951.75 1995.1
-248.46 952.43 1996.6
-239.19 936.41 1963.0
-230.09 920.38 1929.4
-223.79 915.04 1918.2
-217.54 909.69 1907.0
-211.74 906.05 1899.3
-204.71 896.83 1880.0
-198.16 889.32 1864.3
-194.96 896.80 1879.9
-190.85 900.43 1887.5
-186.09 901.04 1888.8
-181.92 904.66 1896.4
-176.03 899.69 1886.0
-169.46 890.85 1867.5
-163.30 883.72 1852.5
-160.99 897.62 1881.7
-159.65 917.96 1924.3
-154.10 914.68 1917.4
-146.57 898.94 1884.4
-140.21 889.64 1864.9
-134.88 886.34 1858.0
-129.51 882.60 1850.2
-123.70 875.42 1835.1
-118.73 873.83 1831.8
-115.62 886.41 1858.2
-109.53 876.21 1836.8
-100.30 838.90 1758.6
-94.73 829.97 1739.8
-91.35 840.39 1761.7
-87.37 846.07 1773.6
-82.78 846.15 1773.8
-77.35 837.20 1755.0
-72.36 832.11 1744.3
-68.40 839.07 1758.9
-64.57 848.60 1778.9
-59.87 847.37 1776.3
-55.74 854.75 1791.8
-51.69 864.70 1812.7
-46.76 860.45 1803.7
-42.87 876.42 1837.2
-38.86 893.68 1873.4
-34.00 893.72 1873.5
-29.07 891.59 1869.0
-23.96 881.72 1848.3
-18.96 872.27 1828.5
-14.29 876.16 1836.7
-9.68 890.81 1867.4
-4.87 896.42 1879.1
0.00 905.89 1899.0
5.00 920.53 1929.7
10.12 930.85 1951.3
15.20 932.13 1954.0
20.39 938.14 1966.6
26.11 960.94 2014.4
31.60 969.09 2031.5
36.85 968.62 2030.5
42.28 972.46 2038.5
47.54 971.98 2037.5
53.08 976.66 2047.4
-285.08 984.33 2074.7
-274.94 967.59 2039.4
-268.07 961.90 2027.4
-257.77 943.43 1988.5
-250.51 935.60 1972.0
-246.81 940.95 1983.3
-238.88 930.12 1960.4
-228.93 910.75 1919.6
-221.60 901.17 1899.4
-216.73 901.39 1899.9
-212.35 903.73 1904.8
-206.48 899.67 1896.3
-200.85 896.46 1889.5
-197.48 903.49 1904.3
-193.23 906.67 1911.0
-185.65 894.05 1884.4
-178.90 884.84 1865.0
-175.28 891.00 1878.0
-170.93 893.73 1883.7
-165.60 891.34 1878.7
-163.69 907.74 1913.3
-160.18 916.02 1930.7
-152.59 900.79 1898.6
-144.19 879.56 1853.9
-136.97 864.30 1821.7
-132.85 868.29 1830.1
-128.70 872.27 1838.5
-123.16 866.83 1827.0
-118.44 866.95 1827.3
-115.23 878.63 1851.9
-109.04 867.61 1828.7
-99.84 830.47 1750.4
-94.28 821.58 1731.7
-92.28 844.37 1779.7
-89.63 863.30 1819.6
-84.25 856.53 1805.3
-78.06 840.34 1771.2
-72.62 830.56 1750.6
-68.30 833.20 1756.2
-63.62 831.56 1752.7
-58.22 819.62 1727.5
-54.17 826.11 1741.2
-50.17 834.73 1759.4
-45.64 835.20 1760.4
-42.09 855.82 1803.8
-38.61 883.29 1861.7
-34.13 892.32 1880.8
-29.00 884.64 1864.6
-23.75 869.24 1832.1
-19.01 869.69 1833.1
-14.47 882.56 1860.2
-9.79 895.43 1887.3
-4.93 901.44 1900.0
0.00 910.02 1918.1
5.05 923.73 1947.0
10.03 918.15 1935.2
14.79 902.28 1901.8
19.98 914.26 1927.0
25.75 942.53 1986.6
31.53 961.79 2027.2
37.23 973.33 2051.5
42.21 965.57 2035.2
46.87 953.10 2008.9
52.03 952.19 2007.0
57.49 956.42 2015.9
63.30 965.36 2034.7
-295.83 978.93 2074.6
-289.41 975.40 2067.2
-281.66 967.22 2049.8
-274.25 959.87 2034.3
-268.93 959.71 2033.9
-260.24 947.26 2007.5
-250.08 928.86 1968.5
-243.36 922.74 1955.6
-239.12 925.95 1962.4
-232.48 919.82 1949.4
-223.71 904.77 1917.5
-217.45 899.47 1906.3
-213.67 904.36 1916.6
-208.55 903.72 1915.3
-203.53 903.49 1914.8
-200.67 913.04 1935.0
-196.15 915.36 1939.9
-188.59 903.23 1914.2
-179.77 884.28 1874.1
-174.02 879.78 1864.5
-170.12 884.63 1874.8
-165.21 884.37 1874.3
-162.54 896.45 1899.8
-158.24 900.01 1907.4
-149.70 878.88 1862.6
-140.19 850.51 1802.5
-133.58 838.30 1776.6
-130.04 845.24 1791.3
-127.37 858.57 1819.6
-123.28 862.96 1828.9
-117.97 858.82 1820.1
-114.28 866.60 1836.6
-110.50 874.38 1853.1
-103.54 856.59 1815.4
-96.64 837.51 1775.0
-93.54 851.25 1804.1
-89.94 861.57 1825.9
-83.70 846.31 1793.6
-79.26 848.52 1798.3
-75.39 857.56 1817.4
-69.28 840.57 1781.4
-63.12 820.59 1739.1
-58.19 814.68 1726.6
-54.48 826.25 1751.1
-51.31 848.92 1799.1
-47.56 865.60 1834.5
-42.60 861.38 1825.5
-37.96 863.55 1830.1
-33.66 875.11 1854.6
-28.68 870.02 1843.8
-23.96 872.18 1848.4
-19.55 889.70 1885.5
-14.50 879.90 1864.8
-9.56 870.10 1844.0
-4.87 886.75 1879.3
0.00 905.53 1919.1
5.02 914.06 1937.2
9.93 903.38 1914.5
14.95 906.78 1921.8
20.58 936.21 1984.1
25.86 941.31 1994.9
30.89 937.01 1985.8
36.42 946.79 2006.5
41.26 938.65 1989.3
45.99 930.07 1971.1
51.15 930.87 1972.8
57.21 946.60 2006.1
63.82 967.87 2051.2
-302.20 976.74 2081.4
-293.94 967.34 2061.4
-288.43 966.78 2060.2
-281.69 962.01 2050.1
-271.13 943.73 2011.1
-263.13 933.87 1990.1
-255.01 923.15 1967.3
-245.30 906.10 1930.9
-238.79 900.43 1918.8
-234.75 904.04 1926.5
-231.85 912.29 1944.1
-226.34 910.41 1940.1
-218.90 900.49 1919.0
-214.08 901.12 1920.3
-209.05 900.91 1919.9
-203.83 899.84 1917.6
-200.77 908.50 1936.0
-196.07 909.97 1939.2
-187.44 892.81 1902.6
-177.61 868.87 1851.6
-171.50 862.27 1837.5
-167.10 864.13 1841.5
-161.64 860.48 1833.7
-158.38 868.69 1851.2
-154.66 874.77 1864.2
-146.44 855.01 1822.0
-142.58 860.24 1833.2
-141.25 881.57 1878.6
-133.18 860.94 1834.7
-126.23 846.23 1803.3
-124.13 864.16 1841.5
-120.55 872.76 1859.9
-115.35 869.91 1853.8
-110.02 865.78 1845.0
-103.03 847.64 1806.3
-96.19 829.08 1766.8
-92.14 833.84 1776.9
-87.72 835.62 1780.7
-83.07 835.28 1780.0
-80.01 851.92 1815.5
-76.10 860.91 1834.6
-69.98 844.43 1799.5
-64.56 834.73 1778.8
-60.29 839.46 1788.9
-55.57 838.25 1786.3
-51.57 848.49 1808.2
-47.63 862.13 1837.2
-42.60 856.65 1825.5
-37.92 857.97 1828.3
-33.63 869.47 1852.9
-29.08 877.15 1869.2
-24.65 892.47 1901.9
-19.62 887.82 1892.0
-14.19 856.40 1825.0
-9.52 861.51 1835.9
-4.94 893.80 1904.7
0.00 891.68 1900.2
4.86 879.36 1873.9
9.73 880.20 1875.7
14.82 894.21 1905.6
20.30 918.40 1957.1
25.35 917.53 1955.3
30.39 916.65 1953.4
35.89 928.09 1977.8
41.09 929.75 1981.3
46.33 931.83 1985.7
51.88 939.00 2001.0
58.41 961.03 2048.0
64.22 968.61 2064.1
69.44 966.85 2060.4
-298.97 960.97 2059.2
-288.46 944.07 2023.0
-280.91 936.38 2006.5
-278.51 945.88 2026.9
-272.12 941.95 2018.5
-261.01 921.22 1974.0
-250.02 900.05 1928.7
-240.62 883.91 1894.1
-233.98 877.42 1880.2
-230.70 883.54 1893.3
-228.54 894.27 1916.3
-222.36 889.45 1906.0
-214.39 877.04 1879.4
-210.37 880.62 1887.0
-206.11 883.35 1892.9
-201.25 883.55 1893.3
-198.16 891.74 1910.9
-193.25 891.94 1911.3
-184.34 873.17 1871.1
-178.14 866.61 1857.0
-175.46 877.32 1880.0
-170.38 876.22 1877.6
-164.19 869.22 1862.6
-157.30 858.00 1838.6
-149.94 843.39 1807.3
-145.57 845.22 1811.2
-145.39 872.36 1869.3
-144.58 897.40 1923.0
-137.12 881.50 1888.9
-129.21 861.38 1845.8
-126.02 872.48 1869.6
-121.55 875.13 1875.3
-115.41 865.54 1854.7
-109.80 859.32 1841.4
-102.56 839.15 1798.2
-95.89 821.94 1761.3
-91.99 827.94 1774.2
-87.31 827.19 1772.5
-82.47 824.74 1767.3
-78.26 828.62 1775.6
-73.17 823.20 1764.0
-68.92 827.07 1772.3
-65.12 837.28 1794.2
-60.60 839.04 1797.9
-55.71 835.71 1790.8
-51.13 836.61 1792.7
-46.72 840.89 1801.9
-42.41 848.12 1817.4
-38.33 862.53 1848.3
-33.58 863.42 1850.2
-28.71 861.33 1845.7
-24.28 874.04 1873.0
-19.27 867.30 1858.5
-14.20 852.09 1825.9
-9.70 872.83 1870.3
-4.98 896.94 1922.0
0.00 888.06 1903.0
4.87 875.79 1876.7
9.74 876.21 1877.6
14.62 877.47 1880.3
19.74 888.44 1903.8
24.91 896.88 1921.9
30.15 904.46 1938.1
35.63 916.27 1963.4
40.82 918.35 1967.9
45.87 917.46 1966.0
51.20 921.64 1974.9
57.22 936.38 2006.5
62.45 936.74 2007.3
67.25 931.18 1995.4
73.50 945.06 2025.1
80.23 962.74 2063.0
-305.97 960.86 2070.5
-297.56 951.14 2049.5
-289.52 942.24 2030.4
-277.53 919.97 1982.4
-271.24 916.06 1974.0
-267.29 920.09 1982.6
-258.89 908.64 1958.0
-249.21 892.17 1922.5
-240.74 879.45 1895.1
-233.31 870.06 1874.8
-229.28 873.21 1881.6
-224.14 872.18 1879.4
-215.11 855.65 1843.8
-207.91 845.81 1822.6
-204.44 851.04 1833.8
-202.68 863.80 1861.3
-200.01 873.22 1881.6
-196.11 877.60 1891.1
-190.25 873.18 1881.6
-185.32 872.95 1881.0
-182.99 885.29 1907.6
-178.08 885.46 1908.0
-170.87 873.89 1883.1
-164.91 868.18 1870.8
-158.31 858.69 1850.3
-152.26 851.71 1835.3
-149.05 860.67 1854.6
-142.72 851.58 1835.0
-136.15 840.38 1810.9
-133.84 855.63 1843.7
-130.67 866.26 1866.6
-126.45 870.59 1876.0
-121.08 866.93 1868.1
-114.45 853.60 1839.4
-108.56 844.88 1820.6
-102.92 837.42 1804.5
-97.71 832.89 1794.7
-93.73 838.87 1807.6
-89.01 838.54 1806.9
-83.78 833.16 1795.3
-79.17 833.66 1796.4
-73.13 818.18 1763.0
-68.04 811.93 1749.6
-64.69 827.15 1782.4
-60.63 834.78 1798.8
-55.77 831.89 1792.6
-51.18 832.79 1794.5
-46.83 838.31 1806.4
-42.55 846.35 1823.7
-38.22 855.23 1842.9
-33.26 850.63 1833.0
-28.25 842.66 1815.8
-23.73 849.43 1830.4
-19.20 859.13 1851.3
-14.43 860.83 1854.9
-9.60 859.16 1851.3
-4.81 861.69 1856.8
0.00 877.27 1890.4
4.97 889.47 1916.7
9.83 879.36 1894.9
14.58 869.67 1874.0
19.62 878.07 1892.1
24.69 883.94 1904.7
29.35 875.50 1886.5
34.01 869.57 1873.8
39.28 878.80 1893.7
44.52 885.49 1908.1
49.40 884.18 1905.3
54.82 892.12 1922.4
60.68 905.11 1950.4
66.37 913.88 1969.3
72.75 930.22 2004.5
79.81 952.45 2052.4
-306.67 957.67 2075.2
-299.68 952.56 2064.1
-291.98 944.95 2047.7
-280.58 924.87 2004.1
-270.14 907.26 1966.0
-262.57 898.78 1947.6
-254.49 888.22 1924.7
-245.24 873.07 1891.9
-237.20 861.65 1867.1
-230.28 853.97 1850.5
-229.06 867.52 1879.8
-226.62 876.90 1900.2
-216.06 854.62 1851.9
-207.29 838.57 1817.1
-203.63 842.94 1826.6
-201.89 855.65 1854.1
-198.67 862.52 1869.0
-193.96 863.13 1870.3
-189.98 867.07 1878.9
-186.84 875.18 1896.5
-183.17 881.21 1909.5
-177.24 876.37 1899.0
-169.40 861.51 1866.8
-163.07 853.74 1850.0
-160.24 864.34 1873.0
-157.59 876.61 1899.6
-152.33 874.67 1895.4
-144.13 855.18 1853.1
-136.28 836.50 1812.6
-132.59 842.91 1826.5
-129.08 850.98 1844.0
-124.50 852.36 1847.0
-119.61 851.64 1845.5
-113.55 842.14 1824.9
-110.07 851.87 1845.9
-106.70 863.27 1870.7
-99.49 843.29 1827.3
-93.68 833.76 1806.7
-89.59 839.29 1818.7
-84.88 839.37 1818.9
-81.45 852.85 1848.1
-76.59 852.09 1846.4
-71.49 848.40 1838.4
-68.18 866.89 1878.5
-62.09 850.20 1842.3
-55.43 822.20 1781.7
-50.87 823.09 1783.6
-46.60 829.42 1797.3
-42.36 837.84 1815.6
-38.09 847.52 1836.5
-33.45 850.49 1842.9
-28.61 848.84 1839.4
-24.21 861.86 1867.6
-19.70 876.54 1899.4
-14.58 864.83 1874.0
-9.55 849.75 1841.4
-4.76 847.67 1836.8
0.00 858.14 1859.5
4.99 888.73 1925.8
10.08 896.68 1943.1
14.64 868.60 1882.2
19.27 857.69 1858.6
24.40 868.56 1882.1
29.15 864.76 1873.9
33.53 852.58 1847.5
38.45 855.48 1853.8
44.61 882.25 1911.8
50.64 901.47 1953.4
55.29 894.72 1938.8
60.12 891.73 1932.3
66.31 908.00 1967.6
73.29 931.80 2019.2
78.87 935.92 2028.1
84.35 938.35 2033.3
-312.52 953.74 2078.4
-304.70 946.18 2061.9
-295.92 935.31 2038.2
-286.61 922.36 2010.0
-276.56 906.50 1975.4
-267.43 893.10 1946.2
-260.87 887.98 1935.1
-253.90 881.19 1920.3
-242.67 859.07 1872.1
-232.26 839.00 1828.3
-227.70 839.63 1829.7
-228.41 860.17 1874.5
-230.18 885.68 1930.0
-223.86 880.51 1918.8
-210.27 845.88 1843.3
-202.22 832.38 1813.9
-199.14 839.22 1828.8
-194.82 841.07 1832.8
-193.68 857.04 1867.6
-192.72 874.67 1906.1
-188.09 876.10 1909.2
-183.00 875.45 1907.8
-177.76 873.96 1904.5
-170.71 863.33 1881.3
-161.96 843.12 1837.3
-156.76 840.78 1832.2
-155.12 857.98 1869.7
-150.66 860.21 1874.6
-143.28 845.38 1842.2
-136.28 831.79 1812.6
-131.21 829.42 1807.5
-126.35 828.30 1805.0
-122.91 836.75 1823.4
-119.14 843.53 1838.2
-114.79 846.55 1844.8
-112.94 869.15 1894.0
-101.96 859.37 1872.7
-94.76 838.64 1827.5
-89.32 832.06 1813.2
-85.39 839.65 1829.7
-82.61 860.15 1874.4
-77.91 861.89 1878.2
-72.98 861.13 1876.6
-62.83 855.43 1864.1
-56.19 828.81 1806.1
-51.61 830.53 1809.9
-47.58 842.25 1835.4
-43.59 857.31 1868.2
-38.66 855.26 1863.8
-33.45 845.71 1842.9
-28.60 843.65 1838.5
-24.14 854.52 1862.2
-19.56 865.39 1885.8
-14.40 849.55 1851.3
-9.44 835.39 1820.5
-4.72 834.56 1818.7
0.00 841.23 1833.2
4.90 867.09 1889.5
9.99 884.18 1926.8
14.67 865.82 1886.8
19.26 852.46 1857.7
24.33 861.19 1876.7
29.21 861.58 1877.5
33.76 853.63 1860.2
38.56 853.18 1859.2
44.55 876.07 1909.1
50.74 898.12 1957.2
55.53 893.49 1947.1
60.54 893.01 1946.0
66.90 910.87 1985.0
73.99 935.40 2038.4
79.72 940.74 2050.0
84.84 938.58 2045.3
-315.22 940.32 2060.8
-308.89 937.33 2054.2
-297.67 919.11 2014.3
-285.86 898.41 1968.9
-277.75 888.80 1947.9
-268.99 876.71 1921.4
-264.83 879.44 1927.3
-262.95 890.00 1950.5
-254.39 877.88 1923.9
-241.74 850.92 1864.8
-232.72 835.89 1831.9
-229.04 839.82 1840.5
-225.21 843.34 1848.2
-223.06 853.46 1870.4
-223.65 874.73 1917.0
-216.67 866.69 1899.4
-204.73 837.98 1836.5
-197.75 828.68 1816.1
-193.28 829.70 1818.3
-192.08 845.17 1852.2
-190.35 859.00 1882.5
-184.70 855.46 1874.8
-180.83 860.19 1885.1
-176.74 864.08 1893.7
-170.22 855.98 1875.9
-162.11 839.17 1839.1
-153.73 819.88 1796.8
-149.17 820.44 1798.0
-146.72 833.00 1825.6
-141.17 828.17 1815.0
-135.80 824.17 1806.2
-132.26 831.34 1821.9
-127.24 829.40 1817.7
-123.64 836.98 1834.3
-119.55 841.65 1844.5
-114.84 842.18 1845.7
-111.64 854.31 1872.3
-106.75 854.00 1871.6
-102.45 858.67 1881.8
-98.01 862.50 1890.2
-91.60 848.49 1859.5
-86.66 847.33 1857.0
-81.49 843.68 1849.0
-74.71 821.77 1801.0
-69.76 818.52 1793.8
-66.01 829.79 1818.5
-61.94 838.57 1837.8
-57.38 841.53 1844.3
-52.73 843.66 1848.9
-48.65 856.16 1876.3
-44.08 862.02 1889.2
-38.75 852.51 1868.3
-33.58 844.24 1850.2
-28.74 843.03 1847.5
-23.83 838.90 1838.5
-18.99 835.60 1831.3
-14.22 834.38 1828.6
-9.48 834.39 1828.6
-4.72 830.24 1819.5
0.00 834.81 1829.5
4.82 848.92 1860.5
9.70 853.48 1870.5
14.54 853.06 1869.5
19.49 857.61 1879.5
24.75 871.28 1909.5
29.90 877.07 1922.1
34.25 861.26 1887.5
38.75 852.51 1868.3
44.21 864.51 1894.6
49.71 874.84 1917.3
54.73 875.61 1919.0
60.01 880.12 1928.8
67.18 909.52 1993.3
75.48 948.87 2079.5
95.02 929.04 2036.0
-299.29 918.86 2025.3
-284.82 890.07 1961.8
-274.28 872.72 1923.5
-266.34 863.14 1902.4
-262.60 867.09 1911.1
-261.74 880.87 1941.5
-254.27 872.51 1923.1
-246.31 862.08 1900.1
-241.56 862.72 1901.5
-236.36 861.72 1899.3
-231.27 861.13 1898.0
-224.58 854.36 1883.1
-221.02 859.51 1894.4
-216.78 862.19 1900.3
-207.46 844.31 1860.9
-202.09 842.04 1855.9
-199.25 850.46 1874.5
-194.15 849.41 1872.2
-188.61 846.31 1865.3
-180.14 829.61 1828.5
-173.70 821.55 1810.8
-172.51 838.60 1848.3
-168.66 843.29 1858.7
-160.91 828.22 1825.5
-153.10 811.89 1789.5
-148.86 814.10 1794.3
-146.86 829.08 1827.4
-143.00 834.16 1838.6
-139.14 839.66 1850.7
-135.95 849.68 1872.8
-131.24 850.64 1874.9
-125.17 842.52 1857.0
-118.67 830.67 1830.9
-112.13 817.59 1802.0
-107.14 815.22 1796.8
-103.38 822.33 1812.5
-100.08 833.99 1838.2
-98.58 862.56 1901.2
-87.59 851.60 1877.0
-80.61 829.80 1828.9
-74.93 819.55 1806.4
-70.96 827.88 1824.7
-66.96 837.03 1844.9
-62.86 846.18 1865.1
-57.80 842.94 1857.9
-52.73 838.86 1848.9
-48.27 844.69 1861.8
-43.49 845.56 1863.7
-38.84 849.73 1872.9
-34.26 856.38 1887.5
-29.32 855.17 1884.9
-24.29 850.24 1874.0
-19.47 851.91 1877.7
-14.66 855.24 1885.0
-9.73 851.12 1875.9
-4.81 842.03 1855.9
0.00 843.69 1859.6
4.89 855.67 1886.0
9.85 861.86 1899.6
14.79 862.67 1901.4
19.26 842.82 1857.7
23.77 832.06 1833.9
29.24 852.69 1879.4
34.04 851.01 1875.7
38.98 852.63 1879.3
45.02 875.30 1929.2
49.83 871.95 1921.9
54.00 859.10 1893.5
59.81 872.26 1922.5
67.61 910.19 2006.1
74.63 932.84 2056.0
79.92 932.35 2055.0
86.71 948.37 2090.3
90.92 935.90 2062.8
93.41 908.15 2001.6
102.85 947.27 2087.9
-308.26 924.79 2050.0
-297.97 909.60 2016.4
-289.16 898.47 1991.7
-279.06 882.84 1957.0
-271.41 874.53 1938.6
-262.48 861.74 1910.3
-256.87 859.54 1905.4
-252.12 860.19 1906.8
-246.66 858.38 1902.8
-243.06 863.11 1913.3
-238.84 865.79 1919.2
-236.46 875.42 1940.6
-232.36 878.92 1948.3
-222.18 859.10 1904.4
-211.61 836.82 1855.0
-204.93 829.25 1838.2
-202.19 837.62 1856.8
-201.18 853.78 1892.6
-198.01 861.34 1909.4
-192.83 860.30 1907.1
-184.79 846.15 1875.7
-174.91 822.56 1823.4
-170.47 823.96 1826.5
-166.93 829.86 1839.6
-159.54 816.49 1810.0
-154.80 816.23 1809.4
-153.53 834.83 1850.6
-150.88 846.87 1877.3
-146.39 849.07 1882.2
-141.06 846.33 1876.1
-136.41 847.70 1879.1
-131.69 848.65 1881.2
-125.54 840.16 1862.4
-119.14 829.19 1838.1
-112.63 816.58 1810.1
-107.19 810.94 1797.6
-102.91 813.91 1804.2
-98.29 814.42 1805.4
-95.56 831.35 1842.9
-92.45 846.64 1876.8
-86.02 831.53 1843.3
-81.61 835.31 1851.7
-78.22 850.59 1885.5
-73.33 850.66 1885.7
-68.65 853.20 1891.3
-63.69 852.44 1889.6
-57.86 838.94 1859.7
-52.86 836.11 1853.5
-48.48 843.56 1870.0
-43.59 842.78 1868.2
-38.88 845.70 1874.7
-34.06 846.56 1876.6
-28.95 839.60 1861.2
-24.19 841.68 1865.8
-19.52 849.10 1882.3
-14.68 851.59 1887.8
-9.72 845.43 1874.1
-4.83 839.68 1861.4
0.00 844.21 1871.4
4.93 858.60 1903.3
9.97 867.64 1923.3
14.77 856.52 1898.7
18.95 824.43 1827.6
34.02 845.74 1874.8
40.45 879.83 1950.4
45.48 879.37 1949.3
49.00 852.60 1890.0
54.18 857.08 1899.9
61.26 888.26 1969.1
66.64 891.90 1977.1
70.57 877.04 1944.2
76.20 883.95 1959.5
83.43 907.30 2011.2
92.13 942.96 2090.3
-328.48 931.60 2077.1
-319.13 920.16 2051.6
-313.09 918.03 2046.8
-303.39 904.95 2017.6
-296.52 899.96 2006.5
-290.49 897.40 2000.8
-282.81 889.56 1983.3
-273.31 875.62 1952.2
-262.86 858.01 1913.0
-258.22 859.07 1915.3
-254.40 862.97 1924.0
-243.73 843.30 1880.2
-235.35 830.92 1852.6
-233.20 840.50 1873.9
-232.93 857.40 1911.6
-228.47 859.24 1915.7
-217.84 837.48 1867.2
-210.16 826.29 1842.3
-206.24 829.75 1850.0
-201.98 831.98 1855.0
-199.34 841.13 1875.4
-192.64 833.17 1857.6
-184.38 817.87 1823.5
-182.46 830.68 1852.1
-178.57 834.93 1861.5
-171.49 824.09 1837.4
-165.52 818.14 1824.1
-160.74 817.89 1823.5
-158.61 831.50 1853.9
-156.55 846.34 1887.0
-153.00 853.84 1903.7
-146.67 845.82 1885.8
-139.62 832.89 1857.0
-135.82 839.15 1870.9
-131.94 845.40 1884.9
-125.48 834.91 1861.5
-118.66 821.14 1830.8
-113.31 816.76 1821.0
-108.93 819.31 1826.7
-105.19 827.18 1844.3
-100.87 830.96 1852.7
-94.66 818.79 1825.5
-88.36 804.57 1793.8
-82.19 789.94 1761.2
-77.99 793.69 1769.6
-75.53 816.67 1820.8
-71.56 825.33 1840.1
-66.96 827.44 1844.8
-62.06 825.87 1841.3
-57.12 823.47 1836.0
-52.83 830.89 1852.5
-48.24 834.62 1860.8
-43.19 830.16 1850.9
-38.64 835.52 1862.8
-33.91 838.01 1868.4
-28.97 835.18 1862.1
-24.33 841.75 1876.7
-19.53 844.63 1883.2
-14.60 842.20 1877.7
-9.66 835.66 1863.2
-4.80 830.35 1851.3
0.00 834.85 1861.4
4.90 848.35 1891.5
9.91 857.35 1911.5
14.67 845.88 1885.9
19.19 829.90 1850.3
23.83 824.56 1838.4
28.82 831.08 1853.0
34.77 859.29 1915.8
40.53 876.44 1954.1
44.68 858.80 1914.7
48.62 841.16 1875.4
54.34 854.61 1905.4
60.55 872.97 1946.3
64.89 863.50 1925.2
69.61 860.16 1917.8
76.13 878.09 1957.7
84.42 912.77 2035.1
-323.65 912.58 2046.5
-316.20 906.44 2032.7
-308.82 900.28 2018.9
-298.37 884.83 1984.3
-290.38 876.23 1965.0
-283.27 870.05 1951.1
-275.20 860.62 1930.0
-265.58 845.93 1897.0
-259.87 843.35 1891.2
-259.32 857.75 1923.5
-255.96 863.25 1935.9
-245.72 845.29 1895.6
-237.88 835.00 1872.5
-236.25 846.55 1898.4
-229.40 839.49 1882.6
-218.62 817.44 1833.1
-215.83 824.94 1849.9
-215.54 842.56 1889.5
-209.78 839.11 1881.7
-203.46 833.23 1868.5
-199.24 835.86 1874.4
-191.13 821.85 1843.0
-184.46 813.52 1824.3
-184.16 833.57 1869.3
-181.10 841.86 1887.9
-175.05 836.35 1875.5
-167.66 823.93 1847.7
-161.70 818.00 1834.4
-158.30 825.05 1850.2
-155.11 833.73 1869.7
-152.34 845.25 1895.5
-146.81 841.74 1887.6
-139.55 827.66 1856.0
-135.55 832.66 1867.3
-131.11 835.23 1873.0
-124.19 821.53 1842.3
-119.07 819.21 1837.1
-115.23 825.83 1851.9
-110.66 827.56 1855.8
-106.85 835.40 1873.4
-102.21 837.12 1877.3
-95.55 821.76 1842.8
-89.75 812.49 1822.0
-83.97 802.40 1799.4
-78.47 793.94 1780.4
-74.85 804.59 1804.3
-70.78 811.58 1820.0
-66.13 812.46 1822.0
-61.07 808.04 1812.1
-55.98 802.40 1799.4
-51.81 810.19 1816.9
-47.34 814.31 1826.1
-42.29 808.24 1812.5
-37.73 811.13 1819.0
-34.02 836.01 1874.8
-29.87 856.40 1920.5
-24.61 846.65 1898.6
-19.37 832.83 1867.6
-14.70 843.02 1890.5
-9.87 849.14 1904.2
-4.83 830.42 1862.2
0.00 821.87 1843.1
4.83 830.01 1861.3
9.69 833.67 1869.5
14.79 847.91 1901.5
19.95 857.67 1923.3
24.65 847.87 1901.4
29.66 850.29 1906.8
34.87 856.77 1921.3
39.60 851.44 1909.4
44.04 841.63 1887.4
48.39 832.22 1866.3
53.85 841.94 1888.1
59.76 856.55 1920.8
64.70 856.08 1919.8
70.17 862.12 1933.3
76.85 881.18 1976.1
85.22 916.10 2054.4
92.35 934.33 2095.3
95.43 911.86 2044.9
101.39 917.87 2058.3
-331.54 929.39 2096.4
-314.39 896.00 2021.0
-298.86 866.19 1953.8
-291.44 859.24 1938.1
-286.50 859.51 1938.8
-278.01 848.93 1914.9
-268.48 834.73 1882.8
-262.41 830.96 1874.3
-259.99 838.84 1892.1
-256.38 843.11 1901.7
-249.97 838.12 1890.5
-244.43 835.94 1885.6
-240.87 840.60 1896.1
-236.36 842.03 1899.3
-226.74 824.93 1860.7
-215.47 800.97 1806.7
-212.53 807.62 1821.7
-211.49 821.93 1854.0
-204.91 814.87 1838.1
-200.59 816.68 1842.1
-198.18 826.55 1864.4
-193.10 825.52 1862.1
-189.42 830.55 1873.4
-185.95 836.78 1887.5
-180.05 832.11 1876.9
-175.81 835.11 1883.7
-170.22 831.64 1875.9
-164.02 824.93 1860.7
-160.71 832.76 1878.4
-155.64 831.70 1876.0
-151.24 834.27 1881.8
-146.88 837.24 1888.5
-140.64 829.29 1870.6
-135.61 828.21 1868.1
-130.28 825.10 1861.1
-125.17 823.20 1856.9
-121.73 832.63 1878.1
-115.51 823.03 1856.5
-108.75 808.57 1823.8
-105.97 823.65 1857.8
-102.31 833.06 1879.1
-96.59 825.86 1862.9
-91.59 824.34 1859.4
-87.29 829.28 1870.6
-83.05 835.44 1884.4
-78.06 834.30 1881.9
-72.84 830.32 1872.9
-66.63 813.78 1835.6
-60.24 792.37 1787.3
-55.24 787.16 1775.5
-51.16 795.31 1793.9
-47.01 803.87 1813.2
-42.25 802.70 1810.6
-37.48 801.11 1807.0
-33.64 821.82 1853.7
-29.46 839.68 1894.0
-24.20 827.54 1866.6
-19.23 821.89 1853.9
-14.71 838.52 1891.4
-9.98 853.13 1924.3
-4.93 843.00 1901.5
0.00 816.66 1842.1
4.72 806.52 1819.2
9.49 811.79 1831.1
14.53 828.39 1868.6
19.86 849.04 1915.1
24.84 849.43 1916.0
29.82 849.81 1916.9
34.94 853.42 1925.0
39.60 846.50 1909.4
43.93 834.71 1882.8
48.50 829.40 1870.8
54.26 843.53 1902.7
59.99 854.82 1928.2
64.77 851.92 1921.6
69.28 846.19 1908.7
74.79 852.60 1923.2
82.72 884.11 1994.2
89.34 898.61 2026.9
94.33 896.09 2021.3
102.52 922.72 2081.3
-334.86 933.21 2117.4
-312.71 886.01 2010.3
-300.11 864.73 1962.0
-294.85 864.21 1960.8
-291.46 869.28 1972.3
-284.33 863.15 1958.4
-275.46 851.42 1931.8
-269.90 849.68 1927.8
-262.48 841.93 1910.3
-254.18 830.96 1885.4
-248.16 827.20 1876.8
-242.77 825.43 1872.8
-237.64 824.45 1870.6
-231.60 820.27 1861.1
-227.28 822.09 1865.2
-221.09 817.09 1853.9
-214.86 811.68 1841.6
-210.96 815.09 1849.4
-204.19 807.26 1831.6
-199.69 808.26 1833.9
-196.43 814.46 1847.9
-190.45 809.43 1836.5
-186.29 812.02 1842.4
-182.63 817.01 1853.7
-177.60 815.98 1851.4
-174.19 822.57 1866.3
-171.62 833.59 1891.3
-168.36 841.79 1909.9
-162.73 838.33 1902.1
-155.41 825.61 1873.2
-149.55 820.13 1860.8
-143.97 815.84 1851.1
-137.96 808.73 1834.9
-133.09 808.06 1833.4
-129.00 812.21 1842.8
-125.16 818.37 1856.8
-121.02 822.91 1867.1
-114.09 808.13 1833.6
-108.26 800.18 1815.5
-106.22 820.82 1862.4
-102.25 827.77 1878.1
-96.16 817.39 1854.6
-90.78 812.24 1842.9
-86.10 813.13 1844.9
-81.44 814.42 1847.8
-76.20 809.66 1837.0
-71.30 808.12 1833.5
-65.46 794.88 1803.5
-60.67 793.33 1800.0
-57.09 808.71 1834.9
-52.57 812.39 1843.2
-48.00 816.06 1851.6
-43.36 818.93 1858.1
-38.63 820.98 1862.7
-33.72 819.00 1858.2
-28.71 813.39 1845.5
-24.04 817.44 1854.7
-19.47 827.55 1877.6
-14.65 830.39 1884.1
-9.77 830.80 1885.0
-4.95 840.89 1907.9
0.00 835.25 1895.1
4.82 819.11 1858.5
9.63 818.70 1857.6
14.61 827.97 1878.6
19.78 840.86 1907.8
24.62 837.21 1899.5
29.41 833.15 1890.3
34.62 840.78 1907.6
39.51 839.53 1904.8
44.47 839.90 1905.6
49.83 847.11 1922.0
54.50 842.22 1910.9
58.91 834.51 1893.4
64.55 844.12 1915.2
70.17 852.12 1933.4
74.19 840.77 1907.6
80.19 851.98 1933.1
88.78 887.76 2014.3
96.34 909.84 2064.3
-311.87 878.44 2004.9
-304.69 872.77 1991.9
-296.63 864.30 1972.6
-290.66 861.80 1966.9
-286.71 865.25 1974.8
-280.64 862.33 1968.1
-273.33 855.43 1952.4
-264.60 843.73 1925.7
-256.87 834.82 1905.3
-251.28 832.67 1900.4
-244.77 827.32 1888.2
-238.55 822.77 1877.8
-231.37 814.62 1859.2
-225.94 812.44 1854.3
-222.82 818.63 1868.4
-219.42 824.03 1880.7
-213.14 818.64 1868.4
-204.38 803.27 1833.3
-197.69 795.48 1815.5
-192.35 792.87 1809.6
-187.61 792.65 1809.1
-184.62 800.01 1825.9
-181.63 807.78 1843.6
-177.41 810.35 1849.5
-173.08 812.51 1854.4
-169.88 820.27 1872.1
-167.15 830.83 1896.2
-161.95 829.39 1892.9
-156.16 824.74 1882.3
-151.90 828.08 1890.0
-144.11 811.81 1852.8
-136.10 793.13 1810.2
-133.48 805.67 1838.8
-131.49 823.02 1878.4
-126.88 824.74 1882.3
-121.90 824.06 1880.8
-116.76 822.17 1876.5
-112.40 825.88 1884.9
-106.90 821.18 1874.2
-99.66 802.04 1830.5
-95.02 802.93 1832.6
-90.82 807.83 1843.7
-85.28 800.70 1827.5
-79.87 793.96 1812.1
-74.99 792.03 1807.7
-70.45 793.70 1811.5
-65.62 792.16 1808.0
-61.77 803.05 1832.8
-57.85 814.74 1859.5
-53.06 815.20 1860.6
-48.60 821.26 1874.4
-44.02 826.52 1886.4
-38.84 820.55 1872.8
-33.54 809.75 1848.1
-28.24 795.33 1815.2
-23.36 789.74 1802.4
-19.32 816.24 1862.9
-14.82 834.72 1905.1
-9.77 825.90 1885.0
-4.89 826.71 1886.8
0.00 831.53 1897.8
4.89 826.71 1886.8
9.85 831.92 1898.7
15.02 846.36 1931.7
20.15 851.16 1942.6
24.84 839.50 1916.0
29.69 836.26 1908.6
35.02 845.46 1929.6
39.55 835.39 1906.6
44.02 826.52 1886.4
49.62 838.52 1913.8
54.60 838.87 1914.6
59.19 833.60 1902.5
65.07 845.97 1930.8
71.21 859.55 1961.8
75.86 854.66 1950.6
80.49 850.18 1940.4
87.33 868.14 1981.4
95.49 896.53 2046.2
103.44 920.09 2099.9
-315.55 883.54 2028.5
-306.78 873.55 2005.6
-297.58 861.97 1979.0
-289.46 853.14 1958.7
-283.15 849.45 1950.3
-274.81 839.42 1927.2
-265.31 825.42 1895.1
-261.48 828.83 1902.9
-258.46 835.02 1917.1
-253.20 834.07 1915.0
-247.12 830.34 1906.4
-239.59 821.44 1886.0
-231.13 808.97 1857.3
-225.27 805.22 1848.7
-221.84 810.19 1860.1
-217.71 812.78 1866.1
-210.74 804.64 1847.4
-204.88 800.46 1837.8
-201.16 804.63 1847.4
-195.54 801.24 1839.6
-190.44 799.83 1836.3
-185.25 798.02 1832.2
-180.09 796.20 1828.0
-179.51 815.06 1871.3
-178.78 834.33 1915.6
-174.60 838.08 1924.2
-171.01 845.01 1940.1
-164.37 836.80 1921.2
-157.30 825.81 1896.0
-153.00 829.14 1903.6
-145.31 813.75 1868.3
-136.30 789.58 1812.8
-132.81 796.88 1829.6
-131.87 820.52 1883.8
-128.24 828.61 1902.4
-122.43 822.75 1889.0
-116.30 814.09 1869.1
-111.52 814.60 1870.3
-105.59 806.33 1851.3
-100.70 805.63 1849.7
-98.20 824.87 1893.8
-91.90 812.59 1865.6
-84.42 787.94 1809.0
-79.66 787.22 1807.4
-75.40 791.68 1817.6
-71.40 799.73 1836.1
-67.08 804.99 1848.2
-61.74 797.86 1831.8
-56.62 792.73 1820.0
-51.39 784.80 1801.8
-46.57 782.45 1796.4
-42.99 802.45 1842.4
-38.61 810.88 1861.7
-33.24 797.73 1831.5
-27.94 782.19 1795.8
-18.96 796.21 1828.0
-14.97 838.55 1925.3
-4.91 824.60 1893.2
0.00 799.84 1836.4
4.84 813.82 1868.5
9.97 837.37 1922.5
14.89 833.76 1914.3
19.52 819.77 1882.1
24.61 826.94 1898.6
30.06 841.69 1932.4
35.45 850.84 1953.5
40.04 840.82 1930.5
44.06 822.42 1888.2
49.07 824.37 1892.7
54.37 830.31 1906.3
59.39 831.45 1908.9
64.55 834.18 1915.2
69.94 839.31 1927.0
75.97 850.81 1953.4
82.35 864.71 1985.3
88.86 878.19 2016.3
96.60 901.64 2070.1
-342.06 921.35 2128.0
-316.13 879.89 2032.2
-308.88 874.28 2019.3
-297.59 856.85 1979.0
-287.85 843.34 1947.8
-281.96 840.85 1942.1
-273.38 830.08 1917.2
-261.99 810.23 1871.4
-255.97 806.53 1862.8
-255.88 821.75 1898.0
-253.56 830.27 1917.7
-243.57 813.54 1879.0
-232.40 792.06 1829.4
-227.83 792.67 1830.8
-225.92 802.75 1854.1
-221.83 805.33 1860.0
-216.95 805.14 1859.6
-213.12 808.90 1868.3
-210.36 817.00 1887.0
-206.81 822.33 1899.3
-201.26 819.76 1893.4
-195.54 816.38 1885.6
-189.59 811.82 1875.0
-185.12 813.57 1879.1
-185.20 835.91 1930.7
-180.40 836.87 1932.9
-172.44 822.79 1900.4
-168.11 825.72 1907.1
-160.61 812.80 1877.3
-153.04 798.69 1844.7
-148.29 798.83 1845.0
-144.52 804.52 1858.2
-139.39 802.67 1853.9
-133.80 798.04 1843.2
-131.03 810.45 1871.9
-125.21 804.23 1857.5
-117.32 783.72 1810.1
-113.73 791.37 1827.8
-111.19 807.34 1864.7
-106.47 808.24 1866.8
-102.74 817.07 1887.1
-99.62 831.84 1921.3
-92.75 815.27 1883.0
-83.86 778.04 1797.0
-74.94 782.16 1806.5
-72.01 801.68 1851.6
-68.04 811.67 1874.7
-63.10 810.55 1872.1
-57.39 798.69 1844.7
-51.62 783.65 1810.0
-46.38 774.56 1789.0
-42.41 786.91 1817.5
-38.86 811.18 1873.6
-34.12 814.00 1880.1
-29.06 808.86 1868.2
-24.25 810.08 1871.0
-19.05 795.40 1837.1
-14.37 799.79 1847.2
-9.94 830.39 1917.9
-4.90 818.08 1889.5
0.00 799.01 1845.5
4.90 817.68 1888.6
9.93 829.20 1915.2
14.63 814.49 1881.2
19.17 800.17 1848.1
24.17 807.30 1864.6
29.60 823.96 1903.1
34.99 834.66 1927.8
40.13 837.80 1935.0
44.89 832.99 1923.9
49.33 823.81 1902.7
53.92 818.60 1890.7
59.30 825.30 1906.2
64.98 834.77 1928.0
70.14 836.69 1932.5
75.89 844.96 1951.6
82.81 864.34 1996.3
90.12 885.30 2044.8
96.61 896.33 2070.2
102.33 899.41 2077.3
-326.19 887.65 2062.5
-309.16 869.85 2021.2
-293.90 841.15 1954.5
-285.29 830.84 1930.5
-280.11 830.32 1929.3
-274.15 827.44 1922.6
-264.79 813.97 1891.3
-256.70 804.02 1868.2
-254.88 813.67 1890.6
-250.30 814.69 1893.0
-238.24 790.97 1837.9
-230.53 780.98 1814.7
-229.64 794.16 1845.3
-229.25 809.69 1881.4
-226.50 817.37 1899.2
-217.69 803.03 1865.9
-210.40 793.79 1844.4
-206.28 796.35 1850.4
-201.43 796.14 1849.9
-197.85 801.05 1861.3
-194.02 805.17 1870.9
-190.60 811.25 1885.0
-188.54 823.63 1913.8
-186.43 836.41 1943.5
-179.72 828.70 1925.6
-169.78 805.23 1871.0
-163.51 798.30 1854.9
-158.49 797.26 1852.5
-153.34 795.44 1848.3
-147.25 788.48 1832.1
-142.24 787.04 1828.8
-137.52 787.17 1829.1
-132.53 785.72 1825.7
-130.00 799.26 1857.1
-124.28 793.46 1843.7
-116.90 776.21 1803.6
-113.78 786.97 1828.6
-111.90 807.60 1876.5
-107.67 812.44 1887.8
-101.49 802.28 1864.2
-96.10 797.63 1853.4
-92.48 807.99 1877.4
-86.64 798.99 1856.5
-80.21 783.27 1820.0
-76.76 796.38 1850.4
-72.86 806.32 1873.6
-68.08 807.18 1875.5
-64.24 820.28 1906.0
-59.36 821.13 1908.0
-53.71 810.51 1883.3
-48.50 805.03 1870.5
-43.65 805.07 1870.6
-39.37 816.97 1898.3
-34.64 821.35 1908.5
-29.52 816.64 1897.5
-24.60 816.66 1897.6
-19.30 800.87 1860.9
-14.16 783.49 1820.5
-9.54 791.41 1838.9
-4.85 805.65 1872.0
0.00 813.16 1889.4
4.94 819.49 1904.1
9.86 818.69 1902.3
14.60 807.61 1876.5
19.20 796.92 1851.7
24.38 809.55 1881.0
30.07 832.05 1933.3
35.20 834.79 1939.7
40.00 830.01 1928.6
44.81 826.41 1920.2
49.31 818.46 1901.8
53.55 808.14 1877.8
58.50 809.27 1880.4
64.61 825.02 1917.0
70.31 833.65 1937.1
75.11 831.21 1931.4
80.87 839.04 1949.6
88.75 866.61 2013.6
96.06 885.88 2058.4
102.29 893.68 2076.5
-306.38 856.83 2003.0
-291.98 830.62 1941.7
-284.21 822.70 1923.2
-277.59 817.89 1912.0
-270.25 810.74 1895.2
-266.05 812.94 1900.4
-263.08 819.03 1914.6
-259.43 823.18 1924.3
-253.30 819.51 1915.7
-246.63 813.88 1902.6
-243.97 821.53 1920.5
-239.97 824.88 1928.3
-236.59 830.57 1941.6
-230.74 827.66 1934.8
-218.85 802.45 1875.9
-213.10 799.13 1868.1
-210.55 807.94 1888.7
-203.51 799.52 1869.0
-198.23 797.75 1864.9
-194.67 803.02 1877.2
-191.51 810.25 1894.1
-188.72 819.43 1915.6
-185.99 829.40 1938.9
-182.71 837.41 1957.6
-176.17 830.52 1941.5
-169.88 824.41 1927.2
-164.52 822.61 1923.0
-159.64 823.15 1924.3
-154.09 820.16 1917.3
-145.72 801.47 1873.6
-137.99 785.13 1835.4
-130.86 771.12 1802.6
-126.33 772.03 1804.7
-124.39 789.42 1845.4
-120.40 794.64 1857.6
-115.03 790.82 1848.7
-111.07 796.81 1862.7
-107.56 806.74 1885.9
-101.94 800.94 1872.3
-96.24 793.96 1856.0
-92.30 801.52 1873.7
-87.66 803.56 1878.5
-82.31 798.93 1867.6
-77.82 802.54 1876.1
-73.07 803.79 1879.0
-68.24 804.25 1880.1
-64.33 816.50 1908.7
-59.13 813.02 1900.6
-53.18 797.74 1864.8
-48.47 799.75 1869.5
-44.01 806.87 1886.2
-39.20 808.48 1890.0
-34.05 802.62 1876.3
-29.24 804.22 1880.0
-24.57 810.93 1895.7
-19.73 813.71 1902.2
-14.83 815.69 1906.8
-9.72 801.94 1874.7
-4.81 794.08 1856.3
0.00 801.16 1872.8
4.88 805.88 1883.9
9.90 816.49 1908.7
14.85 816.48 1908.6
19.47 803.09 1877.3
24.62 812.51 1899.4
30.42 836.47 1955.4
35.69 841.16 1966.3
40.11 827.36 1934.1
44.42 814.34 1903.7
49.52 817.05 1910.0
54.62 819.36 1915.4
59.30 815.38 1906.1
64.98 824.75 1928.0
70.31 828.62 1937.0
74.68 821.48 1920.3
79.88 823.76 1925.7
86.97 844.12 1973.3
95.42 874.69 2044.7
-317.71 868.41 2042.4
-306.25 851.26 2002.1
-296.63 838.75 1972.7
-288.51 830.10 1952.3
-281.82 825.32 1941.1
-272.84 813.55 1913.4
-267.45 812.25 1910.3
-260.06 804.73 1892.6
-252.15 795.25 1870.4
-252.57 812.19 1910.2
-252.07 826.79 1944.5
-248.38 831.30 1955.1
-243.26 831.13 1954.8
-238.03 830.58 1953.5
-230.19 820.68 1930.2
-221.62 807.67 1899.6
-219.04 816.43 1920.2
-215.03 820.13 1928.9
-206.89 807.87 1900.0
-201.04 804.17 1891.3
-197.04 807.85 1900.0
-190.02 799.07 1879.4
-183.21 790.67 1859.6
-178.60 791.62 1861.8
-173.72 791.39 1861.3
-171.68 804.42 1891.9
-169.63 818.23 1924.4
-165.15 820.72 1930.3
-161.16 825.95 1942.6
-155.27 821.41 1931.9
-146.79 802.43 1887.2
-141.23 798.66 1878.4
-136.11 797.23 1875.0
-128.83 782.51 1840.4
-124.39 784.58 1845.3
-120.45 790.17 1858.4
-115.14 786.76 1850.4
-110.30 786.47 1849.7
-105.94 789.70 1857.3
-102.98 804.26 1891.5
-99.62 816.86 1921.2
-93.88 810.30 1905.8
-87.57 797.88 1876.5
-81.34 784.66 1845.5
-76.18 780.83 1836.4
-72.17 789.11 1855.9
-68.00 796.60 1873.5
-63.96 806.83 1897.6
-58.67 801.81 1885.8
-52.39 781.13 1837.1
-47.44 778.04 1829.9
-42.94 782.39 1840.1
-38.07 780.47 1835.6
-33.70 789.50 1856.8
-29.50 806.36 1896.5
-24.87 815.77 1918.6
-20.03 821.27 1931.6
-15.20 831.07 1954.6
-10.06 825.21 1940.8
-4.94 810.74 1906.8
0.00 811.13 1907.7
4.98 817.00 1921.5
10.11 828.73 1949.1
15.18 829.89 1951.8
19.94 817.36 1922.4
24.39 800.12 1881.8
29.19 797.75 1876.2
35.00 820.02 1928.6
40.19 823.90 1937.7
44.40 808.99 1902.7
49.40 810.12 1905.3
55.09 821.42 1931.9
60.53 827.23 1945.6
65.54 826.78 1944.5
69.97 819.68 1927.8
75.50 825.47 1941.4
82.13 841.82 1979.9
88.47 853.47 2007.3
95.90 873.72 2054.9
-318.57 865.44 2047.9
-306.25 846.07 2002.1
-300.06 843.26 1995.5
-294.84 843.15 1995.2
-288.97 841.10 1990.3
-280.90 832.49 1970.0
-272.04 821.16 1943.1
-261.31 803.64 1901.7
-250.17 784.18 1855.6
-247.48 790.97 1871.7
-246.37 803.18 1900.6
-242.21 805.72 1906.6
-238.81 810.97 1919.0
-235.02 815.06 1928.7
-228.55 809.85 1916.4
-221.29 801.55 1896.7
-217.89 807.17 1910.0
-213.19 808.14 1912.3
-206.29 800.59 1894.5
-201.52 801.16 1895.8
-197.50 804.83 1904.5
-190.29 795.32 1882.0
-184.01 789.29 1867.7
-179.73 791.79 1873.6
-172.68 781.87 1850.2
-168.59 785.13 1857.9
-166.88 800.02 1893.1
-163.02 805.22 1905.4
-158.72 808.47 1913.1
-152.61 802.41 1898.8
-146.42 795.56 1882.6
-143.15 804.62 1904.0
-139.11 809.80 1916.3
-132.62 800.61 1894.5
-127.04 796.45 1884.7
-122.05 795.79 1883.1
-114.84 779.97 1845.7
-108.32 767.63 1816.5
-105.40 780.95 1848.0
-103.73 805.15 1905.3
-100.52 819.24 1938.6
-94.92 814.28 1926.9
-88.08 797.64 1887.5
-81.45 780.99 1848.1
-76.33 777.57 1840.0
-72.35 786.19 1860.4
-67.93 790.93 1871.6
-63.71 798.77 1890.2
-58.72 797.66 1887.5
-52.70 780.98 1848.1
-47.96 781.80 1850.0
-43.60 789.63 1868.5
-38.36 781.49 1849.3
-33.68 784.25 1855.8
-29.50 801.41 1896.4
-24.91 811.94 1921.3
-20.15 821.30 1943.5
-10.10 823.28 1948.2
-4.93 803.82 1902.1
0.00 803.05 1900.3
4.95 807.33 1910.4
10.06 819.78 1939.9
15.12 821.71 1944.4
19.73 804.18 1903.0
23.96 781.19 1848.6
28.51 774.55 1832.9
34.05 792.82 1876.1
39.41 802.90 1899.9
43.86 794.30 1879.6
48.66 793.09 1876.7
54.12 801.99 1897.8
59.78 812.06 1921.6
65.10 816.28 1931.6
70.34 818.94 1937.9
76.90 835.60 1977.3
83.39 849.53 2010.3
89.53 858.39 2031.3
-313.89 847.50 2017.9
-302.89 831.68 1980.2
-297.58 831.18 1979.0
-292.28 830.68 1977.8
-286.44 828.64 1973.0
-280.24 825.45 1965.4
-272.80 818.40 1948.6
-264.44 808.28 1924.5
-255.45 795.83 1894.8
-250.01 794.14 1890.8
-246.12 797.44 1898.7
-238.48 788.44 1877.2
-231.85 782.50 1863.1
-232.66 801.95 1909.4
-230.40 811.40 1931.9
-220.10 792.35 1886.6
-213.69 786.78 1873.3
-210.01 791.21 1883.8
-203.78 786.00 1871.4
-200.83 793.51 1889.3
-198.54 804.10 1914.5
-194.55 808.14 1924.1
-191.41 816.02 1942.9
-188.44 825.07 1964.5
-182.19 819.84 1952.0
-173.24 801.87 1909.2
-166.95 795.46 1894.0
-161.76 794.07 1890.6
-156.42 791.90 1885.5
-151.42 791.27 1884.0
-146.27 789.86 1880.6
-141.97 793.09 1888.3
-136.90 792.05 1885.8
-132.16 792.95 1888.0
-128.15 798.48 1901.1
-124.02 803.62 1913.4
-117.53 793.30 1888.8
-112.26 790.70 1882.6
-110.54 814.00 1938.1
-104.58 806.75 1920.8
-97.51 789.83 1880.5
-94.19 803.07 1912.1
-89.33 803.93 1914.1
-84.25 802.84 1911.5
-80.45 814.53 1939.4
-73.53 794.09 1890.7
-66.46 769.00 1831.0
-62.74 781.83 1861.5
-58.23 786.15 1871.8
-53.30 785.04 1869.1
-49.49 801.73 1908.9
-44.67 804.10 1914.5
-39.02 790.20 1881.4
-34.11 789.46 1879.7
-29.71 802.26 1910.2
-24.64 798.42 1901.0
-19.62 794.56 1891.8
-14.87 803.10 1912.1
-9.71 786.85 1873.4
-4.79 776.01 1847.6
0.00 783.37 1865.2
4.88 790.73 1882.7
9.95 805.82 1918.6
14.98 808.91 1926.0
19.55 791.85 1885.4
24.28 786.80 1873.3
29.54 797.62 1899.1
34.43 796.81 1897.2
38.91 787.87 1875.9
43.62 785.13 1869.3
48.82 790.89 1883.1
54.15 797.42 1898.6
59.64 805.11 1916.9
64.76 806.99 1921.4
69.77 807.32 1922.2
76.82 829.69 1975.5
83.85 848.97 2021.4
89.12 849.27 2022.1
96.59 869.31 2069.8
-316.30 848.75 2033.4
-308.48 841.79 2016.7
-296.20 822.22 1969.8
-284.84 804.55 1927.5
-280.46 806.33 1931.8
-275.41 806.20 1931.5
-269.08 802.25 1922.0
-261.53 794.46 1903.3
-254.57 788.20 1888.3
-250.84 791.87 1897.1
-249.44 803.19 1924.2
-244.17 802.27 1922.0
-234.91 787.94 1887.7
-233.21 798.87 1913.9
-233.12 815.93 1954.8
-225.01 805.03 1928.7
-216.09 790.68 1894.3
-210.00 786.28 1883.7
-203.27 779.18 1866.7
-199.94 785.12 1880.9
-199.01 801.02 1919.0
-196.40 810.79 1942.4
-187.33 793.70 1901.5
-178.74 777.75 1863.3
-176.86 790.96 1894.9
-171.98 791.12 1895.3
-166.37 787.82 1887.4
-161.98 790.28 1893.3
-157.79 793.88 1901.9
-154.00 799.78 1916.1
-148.48 796.85 1909.0
-143.69 797.75 1911.2
-137.09 788.27 1888.5
-131.06 781.48 1872.2
-126.16 781.21 1871.6
-121.09 779.79 1868.2
-117.92 791.05 1895.1
-115.60 809.23 1938.7
-105.78 810.97 1942.9
-98.41 792.22 1897.9
-94.82 803.46 1924.9
-89.58 801.24 1919.6
-84.12 796.70 1908.7
-79.99 804.86 1928.2
-72.66 779.91 1868.5
-65.88 757.64 1815.1
-62.42 773.10 1852.2
-58.52 785.09 1880.9
-54.14 792.46 1898.5
-50.16 807.53 1934.6
-45.14 807.57 1934.7
-39.46 794.13 1902.5
-34.48 793.01 1899.8
-29.64 795.35 1905.5
-24.23 780.35 1869.5
-19.20 772.67 1851.1
-14.50 778.08 1864.1
-9.66 777.32 1862.3
-4.86 781.95 1873.3
0.00 791.58 1896.4
4.98 801.59 1920.4
9.93 799.28 1914.9
14.63 785.40 1881.6
19.38 779.99 1868.7
24.45 787.29 1886.1
29.55 793.04 1899.9
34.23 787.23 1886.0
39.38 792.59 1898.8
44.97 804.49 1927.4
50.32 810.22 1941.1
55.83 817.11 1957.6
59.75 801.65 1920.5
62.95 779.65 1867.8
69.10 794.60 1903.7
77.54 832.26 1993.9
84.61 851.43 2039.8
89.94 851.74 2040.5
95.78 856.66 2052.3
103.22 874.65 2095.4
-320.29 854.10 2059.0
-313.80 850.97 2051.4
-302.39 834.17 2011.0
-287.13 805.97 1943.0
-279.52 798.63 1925.3
-275.40 801.16 1931.4
-269.71 799.13 1926.5
-262.65 792.91 1911.5
-256.29 788.58 1901.0
-251.31 788.43 1900.7
-248.71 795.88 1918.6
-245.09 800.29 1929.3
-237.64 792.13 1909.6
-230.74 785.49 1893.6
-225.89 785.70 1894.1
-223.71 795.43 1917.5
-220.68 802.49 1934.6
-212.55 790.87 1906.6
-203.85 776.57 1872.1
-199.04 776.76 1872.5
-197.00 788.00 1899.6
-197.70 811.06 1955.2
-191.85 807.81 1947.4
-177.05 765.61 1845.7
-169.55 753.56 1816.6
-166.96 763.26 1840.0
-163.85 771.04 1858.8
-161.74 784.18 1890.4
-160.00 799.99 1928.5
-156.51 807.77 1947.3
-151.34 807.15 1945.8
-145.90 804.99 1940.6
-138.49 791.36 1907.7
-131.24 777.72 1874.9
-125.40 771.72 1860.4
-120.48 771.06 1858.8
-117.34 782.27 1885.8
-114.72 798.06 1923.9
-111.54 811.17 1955.5
-105.68 805.15 1941.0
-99.36 794.91 1916.3
-94.36 794.61 1915.6
-87.81 780.53 1881.6
-82.37 775.25 1868.9
-78.18 781.83 1884.8
-73.05 779.22 1878.5
-68.12 778.52 1876.8
-63.51 781.65 1884.3
-58.69 782.47 1886.3
-53.51 778.31 1876.3
-48.86 781.80 1884.7
-44.39 789.12 1902.3
-39.15 783.03 1887.7
