ply
format ascii 1.0
element vertex 2184
property float x
property float y
property float z
end_header
-268.37 750.44 1916.9
-262.08 746.69 1907.4
-260.33 755.96 1931.0
-256.99 760.89 1943.6
-250.46 756.40 1932.2
-242.59 747.57 1909.6
-238.16 749.22 1913.8
-233.38 749.79 1915.3
-229.69 753.98 1926.0
-226.05 758.52 1937.6
-219.82 754.37 1927.0
-213.43 749.48 1914.5
-206.70 743.14 1898.3
-202.02 744.04 1900.6
-194.74 735.14 1877.8
-187.76 726.96 1857.0
-188.83 750.36 1916.7
-188.35 768.68 1963.5
-181.57 761.57 1945.4
-175.38 756.65 1932.8
-171.63 762.25 1947.1
-167.73 767.48 1960.5
-161.06 759.99 1941.3
-155.31 756.50 1932.4
-150.40 756.99 1933.7
-144.29 751.31 1919.1
-139.88 754.34 1926.9
-133.54 746.82 1907.7
-127.36 739.66 1889.4
-125.07 755.42 1929.6
-121.01 761.35 1944.8
-115.82 760.36 1942.3
-111.54 765.55 1955.5
-106.28 764.19 1952.1
-100.12 755.91 1930.9
-92.79 737.42 1883.7
-87.31 732.40 1870.9
-84.51 750.69 1917.6
-79.86 753.68 1925.2
-75.13 756.29 1931.9
-73.23 789.88 2017.7
-502.15 818.72 2105.3
-484.70 798.95 2054.5
-463.89 773.15 1988.1
-450.13 758.65 1950.8
-444.88 758.32 1950.0
-439.42 757.63 1948.2
-430.11 750.19 1929.0
-427.12 753.74 1938.2
-422.69 754.81 1940.9
-419.43 758.00 1949.2
-421.56 771.15 1983.0
-409.12 757.64 1948.2
-395.90 742.32 1908.8
-396.38 752.62 1935.3
-398.39 766.13 1970.1
-387.05 754.00 1938.8
-368.28 726.87 1869.1
-366.62 733.25 1885.5
-373.68 757.46 1947.8
-372.61 765.63 1968.8
-365.08 760.59 1955.8
-357.79 755.89 1943.7
-350.39 750.84 1930.7
-343.22 746.13 1918.6
-340.65 751.42 1932.2
-334.65 749.21 1926.5
-324.58 737.68 1896.9
-317.76 733.30 1885.6
-315.44 739.30 1901.1
-314.83 749.60 1927.5
-311.72 754.17 1939.3
-305.64 751.57 1932.6
-301.30 753.26 1937.0
-300.48 763.92 1964.4
-293.26 758.44 1950.3
-286.66 754.38 1939.8
-286.69 767.91 1974.6
-284.42 775.70 1994.7
-275.46 765.16 1967.6
-261.80 740.95 1905.3
-252.95 729.67 1876.3
-249.75 734.56 1888.9
-243.24 729.73 1876.5
-237.15 725.98 1866.8
-234.57 733.03 1884.9
-231.55 738.99 1900.3
-229.56 748.55 1924.9
-228.19 760.64 1955.9
-224.34 764.80 1966.6
-217.23 757.78 1948.6
-209.71 748.95 1925.9
-203.78 745.53 1917.1
-195.78 734.16 1887.8
-187.45 720.97 1853.9
-187.17 738.82 1899.8
-188.96 766.06 1969.9
-184.24 767.66 1974.0
-176.88 758.07 1949.3
-171.95 758.58 1950.6
-168.59 766.32 1970.5
-162.36 761.04 1957.0
-156.04 755.04 1941.5
-150.67 753.36 1937.2
-141.97 734.33 1888.3
-135.34 725.05 1864.4
-134.57 747.59 1922.4
-133.55 770.49 1981.3
-127.23 763.37 1963.0
-119.38 746.11 1918.6
-113.70 741.51 1906.7
-109.14 744.14 1913.5
-104.90 749.30 1926.8
-99.53 746.49 1919.6
-93.83 740.78 1904.9
-89.82 748.47 1924.6
-86.23 760.86 1956.5
-80.82 757.67 1948.3
-75.59 755.93 1943.8
-73.20 784.25 2016.6
-504.30 816.75 2114.3
-482.09 789.36 2043.4
-466.62 772.51 1999.8
-457.45 765.85 1982.5
-444.00 751.78 1946.1
-431.14 738.39 1911.5
-423.75 734.17 1900.5
-422.64 740.87 1917.9
-421.85 748.29 1937.1
-421.55 756.76 1959.0
-423.86 770.19 1993.8
-411.58 757.11 1959.9
-394.15 734.10 1900.4
-390.71 736.91 1907.6
-391.50 747.86 1936.0
-378.41 732.24 1895.6
-369.50 724.41 1875.3
-377.64 750.25 1942.2
-378.93 762.98 1975.1
-372.23 759.75 1966.8
-364.88 755.09 1954.7
-357.75 750.78 1943.5
-350.69 746.46 1932.4
-344.00 742.85 1923.0
-341.10 747.41 1934.8
-334.77 744.49 1927.3
-324.07 731.61 1893.9
-316.48 725.47 1878.0
-314.63 732.51 1896.2
-314.50 743.82 1925.5
-309.91 744.79 1928.0
-302.25 738.28 1911.2
-294.81 732.12 1895.2
-290.85 734.51 1901.4
-290.46 746.18 1931.6
-289.64 757.13 1960.0
-284.92 758.09 1962.5
-277.81 752.62 1948.3
-275.05 758.93 1964.6
-267.24 751.30 1944.9
-256.29 734.36 1901.0
-251.19 733.87 1899.7
-243.69 726.21 1879.9
-236.65 719.62 1862.9
-238.11 739.15 1913.4
-239.09 757.97 1962.1
-230.53 746.71 1933.0
-222.76 737.59 1909.4
-221.89 751.40 1945.1
-217.73 754.46 1953.1
-210.09 745.32 1929.4
-204.15 741.91 1920.6
-197.58 735.99 1905.3
-190.43 727.55 1883.4
-186.60 731.66 1894.0
-184.85 744.38 1927.0
-181.80 752.44 1947.8
-175.94 749.00 1938.9
-170.05 745.20 1929.1
-165.79 748.58 1937.8
-160.80 748.72 1938.2
-155.80 748.86 1938.6
-151.45 752.22 1947.3
-143.70 738.33 1911.3
-136.47 726.23 1880.0
-135.27 746.49 1932.4
-132.22 757.75 1961.6
-123.90 738.44 1911.6
-117.80 731.35 1893.2
-113.91 737.93 1910.3
-108.86 737.30 1908.6
-104.08 738.48 1911.7
-100.20 746.48 1932.4
-95.89 751.97 1946.6
-90.46 748.81 1938.4
-85.53 749.60 1940.5
-81.51 759.04 1964.9
-77.62 770.99 1995.9
-74.00 787.62 2038.9
-495.59 797.25 2077.8
-475.18 772.82 2014.1
-460.83 757.81 1975.0
-455.10 756.79 1972.3
-444.79 748.05 1949.6
-432.94 736.50 1919.5
-426.75 734.41 1914.0
-419.77 730.90 1904.9
-412.84 727.39 1895.7
-409.50 730.19 1903.0
-408.64 737.55 1922.2
-406.73 743.16 1936.8
-399.42 738.93 1925.8
-391.23 732.93 1910.1
-387.19 734.66 1914.7
-390.82 751.18 1957.7
-387.60 764.87 1993.4
-370.26 740.51 1929.9
-365.23 740.47 1929.8
-359.52 739.01 1926.0
-354.50 738.96 1925.9
-349.31 738.55 1924.8
-343.47 736.72 1920.0
-341.39 743.02 1936.4
-335.21 740.47 1929.8
-324.82 728.37 1898.3
-318.77 725.82 1891.6
-318.42 736.35 1919.1
-318.84 749.01 1952.1
-315.08 752.12 1960.1
-302.36 733.60 1911.9
-289.89 715.06 1863.6
-286.15 717.79 1870.7
-285.56 728.67 1899.1
-283.33 735.66 1917.3
-276.97 731.99 1907.7
-272.11 732.23 1908.3
-271.39 743.82 1938.5
-270.27 754.71 1966.9
-265.12 754.58 1966.6
-259.98 754.45 1966.2
-252.43 747.20 1947.3
-241.68 729.99 1902.5
-239.70 739.09 1926.2
-240.88 758.51 1976.8
-232.28 747.32 1947.7
-221.66 729.00 1899.9
-217.95 733.11 1910.6
-215.22 740.77 1930.6
-208.86 735.97 1918.1
-203.24 733.65 1912.0
-196.88 728.47 1898.5
-190.60 723.29 1885.0
-187.67 730.94 1905.0
-184.02 736.10 1918.4
-179.09 736.25 1918.8
-174.91 739.62 1927.6
-170.52 742.27 1934.5
-164.98 739.91 1928.3
-158.85 734.69 1914.7
-153.47 732.69 1909.5
-148.98 734.96 1915.4
-144.53 737.59 1922.3
-140.45 742.36 1934.7
-135.32 741.76 1933.2
-128.63 732.22 1908.3
-123.22 729.47 1901.1
-119.82 738.87 1925.6
-115.29 741.84 1933.4
-109.60 737.28 1921.5
-104.02 733.08 1910.5
-99.32 734.96 1915.4
-96.39 750.79 1956.7
-92.28 758.74 1977.4
-86.50 753.09 1962.7
-81.77 756.39 1971.3
-77.18 761.47 1984.5
-72.95 771.20 2009.9
-70.17 798.83 2081.9
-509.70 805.66 2114.0
-496.43 793.21 2081.3
-480.09 775.54 2034.9
-466.54 762.01 1999.4
-461.80 762.74 2001.4
-448.29 748.84 1964.9
-433.92 733.18 1923.8
-432.41 739.11 1939.4
-430.21 744.00 1952.2
-422.56 739.47 1940.3
-418.31 740.87 1944.0
-412.88 740.17 1942.1
-406.69 738.06 1936.6
-399.56 734.20 1926.5
-391.55 728.58 1911.7
-392.15 739.06 1939.2
-384.18 752.98 1975.8
-366.33 727.71 1909.5
-361.01 726.97 1907.5
-360.34 735.69 1930.4
-359.88 745.11 1955.1
-352.95 741.20 1944.8
-345.24 735.52 1929.9
-347.20 750.57 1969.4
-344.95 756.83 1985.9
-334.09 744.11 1952.5
-327.91 741.57 1945.8
-321.76 739.03 1939.2
-316.69 738.95 1938.9
-317.27 752.24 1973.8
-308.47 743.35 1950.5
-298.48 731.27 1918.8
-296.43 738.58 1938.0
-295.96 750.11 1968.2
-294.24 758.82 1991.1
-287.02 753.42 1976.9
-281.72 752.96 1975.7
-273.05 743.31 1950.4
-263.88 731.88 1920.4
-261.98 740.58 1943.2
-259.59 748.23 1963.3
-254.57 748.45 1963.9
-246.25 738.76 1938.4
-242.33 742.15 1947.3
-241.76 756.15 1984.1
-233.91 747.51 1961.4
-224.01 731.77 1920.1
-219.83 734.44 1927.1
-216.45 739.94 1941.5
-207.62 726.66 1906.7
-199.96 716.91 1881.1
-197.63 726.30 1905.7
-194.90 734.62 1927.6
-186.64 722.02 1894.5
-178.11 707.63 1856.8
-175.33 715.94 1878.6
-173.29 727.80 1909.7
-169.19 731.50 1919.4
-164.01 730.57 1917.0
-158.06 726.10 1905.2
-153.08 725.88 1904.6
-148.89 729.56 1914.3
-144.86 734.30 1926.7
-140.23 736.20 1931.7
-134.59 732.76 1922.7
-128.30 725.41 1903.4
-123.33 725.17 1902.8
-120.91 740.56 1943.2
-117.22 749.19 1965.8
-110.06 735.42 1929.7
-102.99 720.93 1891.7
-98.34 722.80 1896.6
-95.50 738.89 1938.8
-92.10 752.13 1973.5
-87.07 752.92 1975.6
-81.96 752.99 1975.8
-77.06 755.20 1981.6
-73.22 768.79 2017.2
-510.78 801.87 2118.4
-502.07 796.76 2104.9
-488.24 783.34 2069.5
-477.15 774.05 2044.9
-469.77 770.63 2035.9
-454.08 753.36 1990.3
-435.93 731.56 1932.7
-431.33 732.27 1934.6
-432.58 743.02 1963.0
-428.49 744.76 1967.6
-423.39 744.77 1967.6
-416.93 742.34 1961.2
-408.95 737.12 1947.4
-399.90 729.81 1928.1
-394.32 728.75 1925.3
-397.31 743.68 1964.7
-395.88 750.62 1983.1
-386.56 742.59 1961.8
-379.13 738.04 1949.8
-370.35 730.68 1930.4
-363.23 726.46 1919.2
-361.15 732.34 1934.7
-358.32 736.82 1946.6
-348.73 727.35 1921.6
-343.22 726.24 1918.6
-347.49 746.09 1971.1
-342.99 747.42 1974.6
-329.95 729.88 1928.3
-324.29 728.40 1924.4
-318.81 727.28 1921.4
-311.07 720.89 1904.5
-309.07 727.80 1922.8
-305.51 731.21 1931.8
-300.46 731.12 1931.5
-299.94 742.23 1960.9
-301.09 757.90 2002.3
-288.74 752.79 1988.8
-280.64 744.96 1968.1
-269.65 729.05 1926.1
-258.36 711.72 1880.3
-254.44 714.39 1887.3
-254.04 727.25 1921.3
-250.94 732.74 1935.8
-244.57 728.73 1925.2
-242.54 737.73 1949.0
-241.06 748.83 1978.3
-232.56 738.13 1950.0
-222.90 723.19 1910.6
-219.07 726.90 1920.4
-216.53 735.18 1942.3
-208.40 724.45 1913.9
-202.40 720.75 1904.1
-201.76 736.42 1945.5
-196.19 734.47 1940.4
-185.06 711.02 1878.4
-173.74 704.63 1861.5
-172.67 720.29 1902.9
-169.25 726.79 1920.1
-165.10 730.46 1929.8
-160.21 730.95 1931.1
-153.96 725.08 1915.6
-148.29 721.68 1906.6
-145.34 731.70 1933.1
-141.43 737.47 1948.3
-134.44 726.99 1920.6
-126.84 712.26 1881.7
-121.86 711.66 1880.1
-119.56 727.32 1921.5
-115.82 735.19 1942.3
-108.61 720.79 1904.3
-102.72 714.17 1886.7
-99.25 724.51 1914.1
-96.00 737.68 1948.8
-92.22 748.01 1976.2
-87.72 753.39 1990.4
-83.11 758.42 2003.7
-79.89 777.59 2054.3
-503.56 793.66 2111.2
-486.27 774.83 2061.1
-472.42 761.13 2024.7
-462.77 753.94 2005.6
-450.90 742.96 1976.4
-436.29 727.15 1934.3
-431.89 728.19 1937.1
-433.34 739.23 1966.4
-428.65 739.92 1968.3
-422.76 738.55 1964.6
-419.61 742.00 1973.8
-414.88 742.69 1975.6
-407.09 737.85 1962.7
-402.93 739.56 1967.3
-400.80 745.08 1982.0
-394.00 741.95 1973.7
-383.43 731.54 1946.0
-374.25 723.55 1924.7
-369.24 723.51 1924.6
-365.80 726.59 1932.8
-362.31 729.66 1941.0
-357.43 729.96 1941.8
-349.35 723.66 1925.0
-345.16 725.34 1929.5
-344.53 734.65 1954.2
-335.42 725.90 1931.0
-327.69 719.93 1915.1
-326.90 729.23 1939.8
-327.51 742.02 1973.9
-325.99 750.29 1995.9
-313.19 732.47 1948.4
-298.88 710.45 1889.9
-295.67 714.53 1900.7
-297.08 730.10 1942.1
-294.93 737.32 1961.3
-288.02 732.68 1949.0
-281.71 729.43 1940.4
-276.11 727.92 1936.4
-268.58 721.18 1918.4
-261.01 714.07 1899.5
-257.29 717.43 1908.4
-257.08 730.91 1944.3
-253.80 736.02 1957.9
-247.73 733.09 1950.1
-243.21 734.69 1954.3
-239.45 738.74 1965.1
-232.09 731.60 1946.1
-223.85 721.29 1918.7
-218.61 720.43 1916.4
-214.53 723.41 1924.4
-209.69 723.94 1925.8
-206.63 730.77 1943.9
-203.96 739.35 1966.7
-196.36 730.06 1942.0
-188.34 718.66 1911.7
-182.62 715.67 1903.7
-178.33 718.27 1910.7
-175.53 727.19 1934.4
-169.81 724.18 1926.4
-163.25 717.30 1908.1
-157.40 713.23 1897.3
-150.04 701.78 1866.8
-144.50 698.40 1857.8
-141.60 708.00 1883.3
-138.77 718.65 1911.7
-132.92 713.85 1898.9
-128.02 713.96 1899.2
-125.54 728.12 1936.9
-120.77 729.62 1940.9
-114.69 723.05 1923.4
-109.29 720.33 1916.2
-105.25 726.75 1933.2
-100.35 727.54 1935.3
-95.67 730.09 1942.1
-93.00 749.15 1992.8
-89.53 763.64 2031.4
-84.08 761.96 2026.9
-496.56 777.22 2081.8
-479.33 758.50 2031.7
-465.55 744.88 1995.2
-454.06 734.65 1967.8
-440.40 720.65 1930.3
-434.16 718.62 1924.9
-437.97 733.35 1964.3
-434.70 736.44 1972.6
-425.40 729.25 1953.4
-421.32 730.97 1958.0
-419.96 737.49 1975.4
-412.13 732.68 1962.5
-401.51 722.72 1935.8
-400.25 729.57 1954.2
-400.94 740.20 1982.7
-393.59 736.06 1971.6
-382.47 724.69 1941.1
-371.87 713.99 1912.5
-365.65 711.54 1905.9
-365.58 721.14 1931.6
-364.85 729.71 1954.6
-358.57 727.25 1948.0
-348.80 717.54 1922.0
-341.31 712.31 1908.0
-337.48 714.66 1914.3
-333.13 715.97 1917.8
-330.02 720.04 1928.7
-329.20 729.30 1953.5
-329.94 742.36 1988.5
-323.58 751.54 2013.1
-306.16 722.75 1935.9
-299.52 718.85 1925.5
-296.76 724.29 1940.1
-290.71 721.76 1933.3
-284.42 718.54 1924.7
-278.98 717.39 1921.6
-277.66 726.98 1947.3
-274.52 732.06 1960.9
-268.88 730.55 1956.8
-266.90 739.10 1979.7
-261.35 737.94 1976.6
-253.17 729.13 1953.0
-245.58 721.70 1933.1
-239.82 719.47 1927.1
-239.65 734.26 1966.8
-235.95 738.63 1978.5
-226.32 724.22 1939.9
-219.65 718.85 1925.5
-214.71 719.03 1926.0
-209.06 716.77 1919.9
-205.02 720.08 1928.8
-201.23 724.43 1940.4
-195.21 720.76 1930.6
-188.68 715.01 1915.2
-184.20 716.90 1920.3
-180.92 723.68 1938.4
-175.08 720.34 1929.5
-166.33 704.46 1886.9
-160.43 700.06 1875.2
-155.13 698.10 1869.9
-151.36 703.11 1883.3
-149.27 716.50 1919.2
-141.30 701.62 1879.3
-131.86 703.24 1883.7
-130.59 723.25 1937.3
-127.28 733.13 1963.8
-121.68 730.10 1955.6
-116.96 732.29 1961.5
-112.80 738.33 1977.7
-106.36 729.34 1953.6
-99.22 714.40 1913.6
-94.69 717.63 1922.2
-92.12 736.93 1973.9
-89.07 754.48 2020.9
-84.11 757.00 2027.7
-78.61 754.62 2021.3
-74.70 768.32 2058.0
-504.60 784.32 2115.6
-491.81 772.85 2084.6
-472.55 750.83 2025.2
-456.54 733.54 1978.6
-444.52 722.35 1948.4
-440.31 723.73 1952.1
-438.94 729.87 1968.7
-431.21 725.45 1956.8
-422.54 719.33 1940.2
-418.90 721.71 1946.7
-417.76 728.53 1965.1
-410.34 724.43 1954.0
-398.78 712.82 1922.7
-396.80 718.27 1937.4
-396.24 726.44 1959.4
-387.10 718.91 1939.1
-377.88 711.02 1917.8
-368.77 703.12 1896.5
-363.65 702.73 1895.5
-364.83 714.66 1927.7
-362.57 720.10 1942.3
-354.28 713.54 1924.6
-347.92 710.75 1917.1
-343.91 712.74 1922.5
-340.53 716.11 1931.6
-336.62 718.45 1937.9
-330.61 716.32 1932.1
-326.97 719.34 1940.3
-323.75 723.38 1951.2
-322.75 732.58 1976.0
-319.97 738.00 1990.6
-308.32 722.79 1949.6
-300.20 715.48 1929.9
-296.29 718.13 1937.0
-288.02 710.12 1915.4
-279.58 701.40 1891.9
-274.36 700.60 1889.7
-273.52 711.16 1918.2
-272.15 720.69 1943.9
-268.47 724.36 1953.8
-265.49 730.10 1969.3
-258.62 725.15 1955.9
-250.85 717.42 1935.1
-243.54 710.72 1917.0
-236.43 704.37 1899.9
-234.86 714.58 1927.4
-232.26 722.03 1947.5
-223.57 710.47 1916.3
-217.07 705.47 1902.9
-212.40 706.34 1905.2
-209.84 714.47 1927.1
-208.67 727.79 1963.1
-199.85 714.47 1927.1
-189.14 693.52 1870.6
-187.28 704.75 1900.9
-187.32 723.95 1952.7
-184.99 734.84 1982.1
-179.89 734.99 1982.5
-171.08 719.55 1940.9
-164.96 714.84 1928.1
-159.06 710.82 1917.3
-154.65 713.38 1924.2
-152.38 726.33 1959.1
-144.23 711.20 1918.3
-135.75 693.29 1870.0
-132.56 702.07 1893.7
-128.55 707.04 1907.1
-122.60 701.25 1891.5
-119.40 711.41 1918.9
-116.95 727.13 1961.3
-112.36 730.35 1970.0
-105.53 718.64 1938.4
-99.02 707.96 1909.6
-95.04 715.33 1929.5
-91.67 728.26 1964.3
-87.82 738.76 1992.7
-84.26 753.07 2031.3
-80.17 764.26 2061.4
-506.97 782.50 2125.5
-499.77 779.86 2118.3
-485.76 766.43 2081.8
-468.97 748.24 2032.5
-455.98 735.78 1998.6
-442.11 721.61 1960.1
-432.13 713.51 1938.1
-428.52 715.89 1944.6
-423.89 716.57 1946.4
-415.48 710.81 1930.8
-409.68 709.45 1927.1
-412.61 723.34 1964.8
-410.95 729.44 1981.4
-400.52 719.93 1955.5
-391.72 713.13 1937.1
-386.68 713.10 1937.0
-380.92 711.72 1933.2
-374.99 709.98 1928.5
-372.98 715.73 1944.1
-367.40 714.67 1941.3
-357.86 705.78 1917.1
-352.01 704.03 1912.3
-347.53 704.99 1915.0
-346.35 712.77 1936.1
-345.70 721.91 1960.9
-338.66 717.76 1949.7
-329.93 709.85 1928.2
-326.15 712.51 1935.4
-322.79 716.19 1945.4
-319.38 719.86 1955.4
-314.12 719.44 1954.2
-310.05 721.75 1960.5
-309.26 731.92 1988.1
-301.51 725.67 1971.1
-289.93 709.84 1928.1
-282.83 704.60 1913.9
-278.77 706.89 1920.1
-273.22 705.40 1916.1
-267.82 704.25 1913.0
-265.75 712.01 1934.0
-264.21 721.48 1959.8
-260.80 726.16 1972.5
-255.89 726.71 1974.0
-249.06 721.78 1960.6
-242.19 716.49 1946.2
-235.85 712.57 1935.6
-228.56 705.56 1916.5
-220.82 696.81 1892.8
-215.44 695.28 1888.6
-214.13 707.14 1920.8
-214.90 726.56 1973.6
-213.31 738.77 2006.7
-204.18 724.85 1968.9
-194.02 706.44 1918.9
-192.77 720.36 1956.7
-190.43 730.84 1985.2
-185.93 733.41 1992.2
-181.91 738.04 2004.7
-173.70 725.45 1970.5
-167.66 721.46 1959.7
-161.68 717.46 1948.8
-152.75 699.68 1900.5
-146.17 691.88 1879.4
-143.01 700.27 1902.2
-139.40 706.94 1920.3
-133.92 704.30 1913.1
-127.59 696.82 1892.8
-123.67 702.44 1908.0
-122.35 723.93 1966.4
-117.72 726.79 1974.2
-111.23 717.92 1950.1
-106.08 717.32 1948.4
-101.09 717.75 1949.6
-96.74 723.01 1963.9
-92.97 733.44 1992.2
-89.10 744.22 2021.5
-85.50 758.79 2061.1
-515.71 781.89 2138.9
-497.76 762.87 2086.9
-493.90 765.27 2093.4
-485.72 760.97 2081.7
-472.95 749.27 2049.7
-455.92 730.51 1998.4
-438.53 710.72 1944.2
-426.94 699.98 1914.8
-421.98 699.99 1914.9
-420.62 706.04 1931.4
-415.81 706.38 1932.3
-406.49 698.97 1912.1
-405.98 706.70 1933.2
-409.56 721.85 1974.7
-404.06 721.17 1972.8
-398.56 720.48 1970.9
-396.95 726.88 1988.4
-383.41 711.33 1945.9
-369.37 694.41 1899.6
-369.74 704.51 1927.2
-365.77 706.49 1932.7
-360.40 705.77 1930.7
-358.26 711.48 1946.3
-347.14 699.24 1912.8
-339.84 694.45 1899.7
-343.70 712.67 1949.6
-340.71 717.02 1961.4
-333.37 712.21 1948.3
-331.10 718.24 1964.8
-326.90 720.21 1970.2
-322.82 722.51 1976.5
-321.40 730.92 1999.5
-320.44 740.69 2026.2
-313.13 735.85 2013.0
-299.77 716.39 1959.7
-287.93 699.98 1914.8
-280.73 694.43 1899.7
-280.76 706.91 1933.8
-279.42 716.32 1959.5
-270.64 706.68 1933.2
-265.71 706.90 1933.8
-265.30 719.38 1967.9
-262.87 726.75 1988.1
-259.00 730.37 1998.0
-252.94 727.86 1991.1
-243.79 716.13 1959.0
-235.14 705.41 1929.7
-229.86 704.58 1927.4
-223.95 701.70 1919.5
-217.53 697.10 1907.0
-215.46 706.50 1932.7
-215.38 723.07 1978.0
-213.09 732.81 2004.6
-205.61 724.78 1982.7
-197.02 712.30 1948.6
-193.03 716.23 1959.3
-188.17 717.07 1961.6
-182.07 713.12 1950.8
-176.46 710.87 1944.6
-170.54 707.25 1934.7
-166.68 712.18 1948.2
-163.45 720.19 1970.1
-156.79 713.14 1950.8
-149.06 700.60 1916.5
-144.96 704.83 1928.1
-141.42 712.14 1948.1
-136.00 710.20 1942.8
-128.52 696.95 1906.5
-123.53 696.71 1905.9
-122.22 718.06 1964.3
-117.37 719.53 1968.3
-109.50 701.80 1919.8
-103.21 692.97 1895.7
-99.86 704.03 1925.9
-96.96 719.55 1968.4
-93.01 728.54 1993.0
-89.09 738.91 2021.3
-510.15 767.98 2115.8
-497.93 757.72 2087.6
-494.94 761.45 2097.9
-487.40 758.17 2088.8
-475.44 747.89 2060.5
-459.01 730.25 2011.9
-446.76 718.93 1980.7
-440.20 716.61 1974.3
-428.60 705.93 1944.9
-420.76 701.26 1932.0
-421.30 710.62 1957.8
-417.79 713.30 1965.2
-404.75 699.57 1927.4
-395.92 692.86 1908.9
-398.52 706.25 1945.8
-401.31 720.31 1984.5
-398.74 724.99 1997.4
-384.63 708.53 1952.1
-370.92 692.39 1907.6
-371.46 702.76 1936.2
-372.38 714.14 1967.5
-371.40 722.17 1989.7
-365.37 720.45 1984.9
-350.79 701.57 1932.9
-339.28 688.40 1896.6
-339.57 699.10 1926.1
-343.24 717.22 1976.0
-342.38 726.26 2000.9
-336.38 724.51 1996.1
-328.56 718.71 1980.1
-324.45 721.00 1986.4
-323.15 729.70 2010.4
-317.91 729.62 2010.2
-306.29 714.69 1969.0
-298.02 707.17 1948.3
-291.11 702.68 1935.9
-279.44 686.35 1891.0
-275.04 687.59 1894.4
-276.86 704.73 1941.6
-271.39 703.60 1938.5
-262.86 694.34 1913.0
-259.11 697.60 1922.0
-258.27 708.98 1953.3
-255.82 716.31 1973.5
-252.44 721.26 1987.1
-245.62 716.38 1973.7
-238.18 709.46 1954.6
-234.29 713.04 1964.5
-229.25 713.23 1965.0
-223.47 711.05 1959.0
-218.97 712.92 1964.2
-216.27 720.91 1986.2
-211.17 721.08 1986.7
-200.93 703.26 1937.5
-193.49 694.59 1913.7
-190.79 702.90 1936.6
-187.33 708.83 1952.9
-182.57 710.01 1956.1
-177.96 711.85 1961.2
-172.91 712.00 1961.6
-167.94 712.48 1963.0
-163.66 716.02 1972.7
-160.01 722.62 1990.9
-155.02 723.43 1993.1
-148.05 714.70 1969.1
-142.15 710.74 1958.2
-137.22 711.54 1960.4
-130.14 700.75 1930.6
-122.96 688.60 1897.2
-119.58 697.55 1921.8
-117.52 715.36 1970.9
-112.05 713.07 1964.6
-104.73 698.17 1923.5
-100.48 703.37 1937.9
-96.30 709.58 1955.0
-91.20 709.32 1954.3
-88.42 728.14 2006.1
-86.97 760.94 2096.5
-508.79 760.45 2110.2
-499.20 754.23 2092.9
-498.37 761.24 2112.4
-484.99 749.05 2078.5
-467.97 730.87 2028.1
-449.93 710.69 1972.1
-436.12 696.78 1933.5
-437.47 707.08 1962.1
-432.80 707.76 1964.0
-422.70 699.46 1941.0
-420.64 704.45 1954.8
-416.75 706.44 1960.3
-403.91 693.14 1923.4
-394.52 685.47 1902.1
-396.19 697.10 1934.4
-394.35 702.74 1950.1
-387.06 698.73 1938.9
-387.86 709.37 1968.4
-389.40 721.68 2002.6
-380.64 714.98 1984.0
-372.15 708.61 1966.3
-368.07 710.58 1971.8
-358.84 702.52 1949.4
-354.10 703.14 1951.2
-351.84 708.77 1966.8
-343.77 702.70 1949.9
-339.97 705.32 1957.2
-337.57 710.94 1972.8
-330.08 705.86 1958.7
-324.04 703.77 1952.9
-321.52 709.40 1968.5
-320.87 719.38 1996.2
-316.25 720.64 1999.7
-309.00 715.86 1986.5
-305.10 718.79 1994.6
-300.03 719.04 1995.3
-289.72 706.52 1960.5
-276.89 687.27 1907.1
-270.70 684.13 1898.4
-270.04 695.11 1928.9
-266.41 698.69 1938.8
-261.59 699.24 1940.3
-259.22 706.51 1960.5
-256.15 712.11 1976.0
-252.05 715.01 1984.1
-246.98 715.21 1984.7
-241.22 713.39 1979.6
-236.04 713.25 1979.2
-229.77 709.73 1969.4
-223.23 705.20 1956.9
-217.69 703.69 1952.7
-213.70 707.24 1962.5
-207.17 702.35 1949.0
-199.15 692.06 1920.4
-194.32 692.56 1921.8
-192.33 703.52 1952.2
-189.38 711.44 1974.2
-184.30 711.59 1974.6
-179.30 712.08 1976.0
-171.98 703.10 1951.1
-164.87 694.46 1927.1
-160.37 696.62 1933.1
-156.37 701.14 1945.6
-153.62 711.75 1975.1
-148.87 713.57 1980.1
-144.04 715.04 1984.2
-140.16 721.58 2002.3
-133.03 711.21 1973.5
-125.74 699.13 1940.0
-121.55 703.97 1953.5
-118.63 716.93 1989.4
-114.45 723.12 2006.6
-108.19 716.11 1987.1
-102.66 713.48 1979.9
-97.35 712.21 1976.3
-90.88 701.79 1947.4
-86.71 708.98 1967.4
-83.29 723.61 2008.0
-78.06 723.34 2007.2
-74.64 741.02 2056.3
-71.50 764.46 2121.3
-512.06 759.84 2123.8
-509.67 764.51 2136.8
-502.88 762.60 2131.5
-482.80 740.29 2069.1
-465.58 721.91 2017.8
-447.77 702.18 1962.6
-438.33 695.28 1943.3
-443.57 711.78 1989.4
-438.22 711.47 1988.6
-427.05 701.58 1960.9
-421.37 700.60 1958.2
-413.55 695.97 1945.3
-410.64 699.60 1955.4
-410.93 708.85 1981.3
-405.79 708.84 1981.2
-396.72 701.88 1961.8
-386.63 692.93 1936.8
-385.06 699.19 1954.3
-391.15 719.71 2011.6
-387.16 722.01 2018.0
-374.03 707.06 1976.3
-364.56 698.73 1953.0
-354.35 688.73 1925.0
-348.49 687.02 1920.2
-350.13 700.25 1957.2
-345.68 701.53 1960.8
-341.21 702.80 1964.3
-338.48 707.73 1978.1
-325.80 691.69 1933.3
-314.27 677.64 1894.0
-318.59 697.87 1950.6
-323.97 721.10 2015.5
-319.75 723.36 2021.8
-312.88 719.62 2011.4
-304.78 712.87 1992.5
-295.51 703.10 1965.2
-290.51 703.34 1965.9
-282.80 696.90 1947.8
-275.58 691.45 1932.6
-274.31 701.02 1959.4
-268.29 698.57 1952.5
-261.17 693.10 1937.2
-259.93 703.34 1965.9
-257.69 711.24 1987.9
-253.80 714.79 1997.9
-249.04 716.00 2001.2
-242.78 712.85 1992.4
-237.01 711.04 1987.4
-230.50 706.87 1975.7
-223.62 701.36 1960.3
-217.24 697.19 1948.7
-212.45 698.03 1951.0
-207.34 697.87 1950.6
-200.58 692.00 1934.2
-195.90 693.17 1937.4
-194.15 705.07 1970.7
-189.35 706.23 1973.9
-182.52 699.67 1955.6
-178.94 705.52 1972.0
-173.12 702.65 1963.9
-165.81 693.38 1938.0
-161.13 694.86 1942.2
-153.40 682.90 1908.7
-147.17 676.97 1892.2
-147.02 699.61 1955.4
-146.41 721.57 2016.8
-141.59 723.70 2022.8
-133.52 708.69 1980.8
-124.87 689.29 1926.6
-119.49 687.04 1920.3
-117.55 705.30 1971.3
-114.06 715.48 1999.8
-109.20 717.59 2005.7
-104.99 724.41 2024.8
-99.52 722.81 2020.3
-92.89 712.12 1990.4
-87.11 707.15 1976.5
-82.11 708.23 1979.5
-77.79 715.70 2000.4
-75.24 741.68 2073.0
-71.27 756.56 2114.6
-67.23 773.11 2160.9
-514.90 758.51 2135.5
-505.90 753.36 2121.0
-492.20 741.01 2086.3
-485.97 739.75 2082.7
-480.60 739.81 2082.9
-460.73 717.27 2019.4
-449.69 708.14 1993.7
-445.57 709.80 1998.4
-431.25 695.07 1956.9
-425.58 694.09 1954.2
-425.68 702.63 1978.2
-416.43 695.74 1958.8
-411.74 696.39 1960.7
-411.06 703.94 1981.9
-404.59 701.64 1975.4
-399.65 701.95 1976.3
-393.60 700.29 1971.6
-385.19 694.35 1954.9
-385.33 703.87 1981.7
-388.54 719.32 2025.2
-382.05 716.99 2018.6
-370.91 705.76 1987.0
-358.73 692.20 1948.8
-349.78 684.56 1927.3
-348.58 692.10 1948.6
-340.88 686.76 1933.5
-333.73 682.41 1921.3
-336.36 698.20 1965.7
-328.25 691.86 1947.9
-318.85 682.53 1921.6
-324.63 705.94 1987.5
-320.79 708.84 1995.7
-307.62 690.89 1945.2
-306.75 700.41 1971.9
-303.74 705.29 1985.7
-295.88 698.90 1967.7
-291.98 701.79 1975.8
-287.09 702.35 1977.4
-282.86 704.57 1983.7
-281.46 714.09 2010.5
-275.57 712.32 2005.5
-265.54 699.59 1969.6
-261.50 702.46 1977.7
-255.60 700.34 1971.8
-248.06 693.57 1952.7
-244.00 696.42 1960.7
-238.42 694.96 1956.6
-236.20 703.46 1980.5
-233.09 709.64 1997.9
-226.05 703.84 1981.6
-219.61 699.69 1969.9
-213.13 695.20 1957.3
-206.21 689.05 1940.0
-200.26 685.88 1931.0
-196.05 688.71 1939.0
-192.46 693.86 1953.5
-185.54 687.02 1934.2
-179.87 684.50 1927.2
-177.89 696.31 1960.4
-174.17 701.79 1975.8
-169.08 701.93 1976.2
-164.22 703.07 1979.4
-156.17 690.18 1943.2
-146.63 669.61 1885.2
-143.53 678.08 1909.1
-142.77 698.56 1966.7
-137.83 699.34 1968.9
-132.43 697.78 1964.6
-126.38 692.54 1949.8
-119.35 681.28 1918.1
-115.96 690.73 1944.7
-112.65 701.52 1975.1
-107.85 703.62 1981.0
-105.12 720.08 2027.3
-100.90 727.52 2048.3
-95.07 723.59 2037.2
-90.05 725.67 2043.1
-86.01 736.45 2073.4
-82.62 754.58 2124.5
-78.62 769.36 2166.1
-517.52 756.80 2146.4
-491.81 727.03 2061.9
-479.12 716.05 2030.8
-473.24 715.12 2028.2
-470.77 719.38 2040.3
-453.52 700.89 1987.8
-439.02 686.28 1946.4
-431.51 682.39 1935.3
-422.43 675.89 1916.9
-422.49 684.03 1940.0
-428.60 702.28 1991.8
-425.60 705.88 2002.0
-416.14 698.70 1981.6
-410.81 698.37 1980.7
-405.86 698.69 1981.6
-402.03 700.97 1988.0
-396.87 700.96 1988.0
-389.33 696.69 1975.9
-385.63 699.28 1983.3
-384.93 707.44 2006.4
-377.43 703.16 1994.2
-365.48 690.35 1957.9
-361.58 692.60 1964.3
-360.35 700.10 1985.6
-357.34 704.32 1997.5
-348.20 696.40 1975.1
-341.92 694.04 1968.4
-345.39 711.71 2018.5
-337.46 706.07 2002.5
-327.91 696.81 1976.3
-327.32 706.60 2004.0
-317.75 697.00 1976.8
-307.28 685.08 1943.0
-308.88 700.13 1985.6
-304.26 701.36 1989.1
-294.72 691.06 1959.9
-294.70 703.15 1994.2
-293.56 712.94 2022.0
-286.28 707.90 2007.7
-281.95 710.10 2013.9
-275.53 707.03 2005.2
-265.62 694.71 1970.3
-259.48 691.95 1962.5
-251.56 684.24 1940.6
-245.88 682.45 1935.5
-243.50 689.92 1956.7
-237.81 688.13 1951.6
-235.38 695.92 1973.7
-232.41 702.38 1992.1
-225.38 696.62 1975.7
-220.31 696.80 1976.2
-215.45 697.63 1978.6
-207.28 687.55 1950.0
-199.64 678.78 1925.1
-196.50 685.22 1943.4
-193.63 693.00 1965.4
-186.60 685.86 1945.2
-180.71 682.70 1936.2
-177.01 687.81 1950.7
-171.66 686.63 1947.4
-167.12 688.75 1953.4
-162.87 692.20 1963.2
-155.85 683.71 1939.1
-147.04 666.59 1890.5
-136.94 665.16 1886.5
-136.69 688.50 1952.7
-135.45 708.52 2009.4
-128.92 701.32 1989.0
-121.55 688.81 1953.6
-116.17 686.91 1948.2
-111.08 686.67 1947.5
-105.12 680.79 1930.8
-101.25 688.51 1952.7
-98.71 706.52 2003.8
-94.44 713.58 2023.8
-89.87 718.97 2039.1
-86.35 733.99 2081.7
-82.36 746.69 2117.7
-77.69 754.73 2140.5
-508.01 745.44 2129.8
-497.96 738.74 2110.7
-475.97 713.96 2039.9
-459.22 696.57 1990.2
-446.71 685.29 1958.0
-436.44 677.24 1935.0
-435.96 684.36 1955.3
-433.75 688.90 1968.3
-428.05 687.94 1965.5
-428.34 696.69 1990.5
-431.24 709.98 2028.5
-427.94 713.23 2037.8
-417.28 704.16 2011.9
-407.70 696.69 1990.6
-397.47 687.92 1965.5
-386.07 676.87 1933.9
-386.89 687.24 1963.5
-391.53 704.76 2013.6
-385.94 704.09 2011.7
-373.51 690.73 1973.5
-364.55 683.54 1953.0
-363.41 690.98 1974.2
-363.84 701.69 2004.8
-362.45 709.14 2026.1
-354.05 702.90 2008.3
-348.98 703.18 2009.1
-347.58 710.95 2031.3
-334.74 695.24 1986.4
-323.22 681.79 1948.0
-321.03 687.92 1965.5
-317.25 690.79 1973.7
-312.10 690.71 1973.5
-309.85 697.16 1991.9
-301.65 690.21 1972.0
-293.27 682.60 1950.3
-294.80 698.21 1994.9
-294.88 710.88 2031.1
-288.78 708.82 2025.2
-281.39 703.48 2009.9
-272.54 694.20 1983.4
-261.80 679.67 1941.9
-254.74 674.30 1926.6
-252.85 682.70 1950.6
-252.99 697.00 1991.4
-252.09 709.01 2025.8
-247.48 710.85 2031.0
-240.16 704.81 2013.7
-232.48 697.45 1992.7
-227.06 696.65 1990.4
-223.63 702.08 2006.0
-217.25 698.32 1995.2
-207.64 683.70 1953.4
-198.34 669.39 1912.6
-193.24 668.89 1911.1
-191.94 681.87 1948.2
-186.20 679.39 1941.1
-181.91 682.17 1949.1
-179.63 692.85 1979.6
-174.37 692.33 1978.1
-169.67 694.12 1983.2
-165.11 696.56 1990.2
-157.94 687.80 1965.1
-149.06 670.79 1916.5
-142.56 663.66 1896.2
-137.81 664.43 1898.4
-136.67 683.33 1952.4
-132.51 688.05 1965.9
-123.28 665.73 1902.1
-121.30 682.32 1949.5
-120.93 709.79 2028.0
-114.07 699.99 2000.0
-106.54 684.90 1956.9
-102.07 688.95 1968.4
-99.02 703.55 2010.1
-93.38 700.32 2000.9
-87.53 695.12 1986.0
-84.82 715.65 2044.7
-81.61 734.54 2098.7
-76.25 735.26 2100.7
-72.02 747.87 2136.8
-516.98 744.90 2144.2
-509.06 741.45 2134.2
-497.43 740.62 2131.8
-477.46 718.87 2069.3
-462.22 703.84 2026.0
-450.12 693.28 1995.6
-448.87 699.41 2013.2
-442.44 697.50 2007.7
-432.41 689.80 1985.6
-434.44 701.39 2018.9
-439.26 717.81 2066.2
-428.85 709.46 2042.1
-411.83 689.82 1985.6
-402.88 683.37 1967.1
-393.46 675.95 1945.7
-386.00 671.73 1933.6
-390.85 689.13 1983.6
-390.94 698.47 2010.5
-381.07 690.05 1986.3
-375.03 688.41 1981.6
-372.13 692.58 1993.6
-368.32 695.13 2000.9
-366.49 701.56 2019.4
-364.06 707.02 2035.1
-354.82 699.21 2012.7
-344.24 688.48 1981.8
-337.80 685.83 1974.1
-330.61 681.56 1961.8
-324.25 678.89 1954.2
-320.52 681.74 1962.4
-315.25 681.34 1961.2
-310.57 682.24 1963.8
-308.79 689.62 1985.1
-304.03 690.51 1987.6
-298.84 690.43 1987.4
-293.79 690.66 1988.0
-288.05 689.26 1984.0
-286.47 697.95 2009.0
-283.71 704.03 2026.5
-275.33 696.11 2003.7
-265.16 683.31 1966.9
-260.02 683.19 1966.5
-259.62 695.77 2002.7
-254.62 696.30 2004.3
-248.79 694.54 1999.2
-243.68 694.74 1999.8
-235.76 686.78 1976.9
-231.13 688.27 1981.2
-228.95 697.26 2007.0
-220.87 688.30 1981.2
-209.86 669.54 1927.2
-206.11 673.62 1939.0
-202.69 679.01 1954.5
-194.82 669.37 1926.8
-190.61 672.14 1934.7
-187.44 678.82 1954.0
-185.40 690.09 1986.4
-180.80 692.19 1992.5
-173.18 682.52 1964.6
-168.68 684.95 1971.6
-164.38 688.35 1981.4
-159.20 688.16 1980.8
-152.19 679.77 1956.7
-145.30 671.38 1932.5
-140.24 671.17 1931.9
-136.97 679.79 1956.8
-130.71 673.68 1939.2
-121.16 676.50 1947.3
-121.53 708.05 2038.1
-115.40 702.90 2023.3
-107.65 686.93 1977.3
-102.88 689.31 1984.2
-98.96 697.91 2008.9
-92.44 688.16 1980.8
-86.61 682.65 1965.0
-83.87 702.40 2021.8
-81.50 728.04 2095.6
-77.00 736.96 2121.3
-70.99 731.77 2106.4
-66.39 741.34 2133.9
-503.06 727.26 2109.1
-493.72 721.59 2092.7
-494.36 730.56 2118.7
-486.35 726.80 2107.8
-471.01 711.87 2064.5
-459.43 702.34 2036.9
-458.50 709.07 2056.4
-453.19 709.10 2056.5
-439.40 695.72 2017.7
-437.77 701.48 2034.4
-439.40 712.68 2066.9
-425.09 697.99 2024.3
-412.34 685.52 1988.1
-408.33 687.44 1993.6
-402.03 685.51 1988.0
-397.61 686.78 1991.7
-396.10 693.17 2010.3
-389.79 691.23 2004.6
-380.66 684.15 1984.1
-374.97 683.16 1981.2
-370.86 685.06 1986.7
-366.03 685.66 1988.5
-362.38 688.51 1996.8
-358.68 691.37 2005.0
-350.66 685.85 1989.1
-341.10 677.12 1963.7
-338.06 681.24 1975.7
-334.01 683.44 1982.0
-330.70 687.24 1993.1
-329.93 696.51 2020.0
-326.16 699.67 2029.1
-323.09 704.44 2042.9
-317.18 703.07 2039.0
-308.28 694.93 2015.4
-299.08 685.81 1988.9
-290.01 676.68 1962.5
-283.11 672.39 1950.0
-280.68 678.74 1968.4
-280.92 691.89 2006.6
-275.42 691.14 2004.4
-267.77 684.89 1986.2
-264.94 690.92 2003.7
-260.19 692.09 2007.1
-250.88 680.97 1974.9
-248.87 689.58 1999.9
-247.30 699.81 2029.5
-236.39 683.49 1982.2
-229.02 676.87 1963.0
-226.77 685.47 1987.9
-218.43 675.60 1959.3
-208.69 660.85 1916.5
-206.27 669.13 1940.5
-205.19 682.26 1978.6
-199.82 681.45 1976.3
-195.49 684.20 1984.3
-192.01 690.20 2001.7
-186.07 687.43 1993.6
-177.52 674.58 1956.4
-171.16 669.52 1941.7
-167.93 676.81 1962.8
-162.25 674.34 1955.7
-155.77 668.29 1938.1
-153.26 679.46 1970.5
-150.17 688.69 1997.3
-143.64 682.30 1978.7
-138.80 683.71 1982.8
-136.10 696.18 2019.0
-130.64 694.99 2015.5
-122.44 678.50 1967.7
-116.51 673.71 1953.8
-113.66 687.15 1992.8
-108.87 689.51 1999.7
-102.52 681.78 1977.2
-97.13 679.91 1971.8
-93.97 694.31 2013.6
-91.34 714.58 2072.4
-85.86 713.67 2069.7
-80.83 716.67 2078.4
-77.50 736.28 2135.3
-72.58 742.53 2153.4
-67.03 742.91 2154.5
-496.27 719.87 2103.5
-483.31 708.86 2071.3
-473.50 702.27 2052.1
-457.65 686.48 2006.0
-443.71 673.21 1967.2
-440.68 676.40 1976.5
-437.00 678.63 1983.0
-425.81 669.13 1955.3
-421.94 671.04 1960.8
-420.81 677.39 1979.4
-417.82 680.89 1989.6
-416.13 686.61 2006.3
-414.16 692.01 2022.1
-409.48 692.96 2024.9
-400.33 686.27 2005.3
-394.20 684.67 2000.7
-392.81 691.34 2020.1
-387.92 691.96 2022.0
-380.37 687.79 2009.8
-374.45 686.49 2006.0
-370.77 689.33 2014.3
-368.07 694.08 2028.2
-361.46 691.49 2020.6
-350.77 680.91 1989.7
-345.91 681.49 1991.4
-347.75 695.50 2032.3
-341.51 693.53 2026.6
-336.39 693.80 2027.3
-334.00 699.81 2044.9
-328.82 700.07 2045.7
-321.86 696.48 2035.2
-312.33 687.12 2007.8
-303.36 678.71 1983.2
-293.82 668.69 1954.0
-290.51 672.76 1965.9
-288.91 681.00 1989.9
-283.98 681.55 1991.5
-281.66 688.51 2011.9
-278.34 693.22 2025.6
-272.67 692.15 2022.5
-265.64 687.54 2009.1
-256.62 677.47 1979.6
-251.68 677.99 1981.1
-254.10 698.76 2041.8
-249.67 701.21 2049.0
-235.91 676.95 1978.1
-226.45 664.26 1941.0
-221.91 665.72 1945.3
-218.28 670.08 1958.0
-213.36 670.57 1959.5
-207.14 666.87 1948.7
-202.42 668.00 1952.0
-198.74 672.67 1965.6
-196.20 681.53 1991.5
-190.99 681.36 1991.0
-183.40 672.48 1965.0
-180.66 681.33 1990.9
-179.94 698.57 2041.3
-174.03 696.13 2034.1
-165.58 683.03 1995.9
-159.61 679.61 1985.9
-157.57 693.30 2025.9
-153.90 700.52 2047.0
-146.57 690.95 2019.0
-138.91 679.11 1984.4
-133.91 679.87 1986.6
-129.33 682.88 1995.4
-121.83 670.05 1957.9
-116.43 668.20 1952.5
-114.24 685.43 2002.9
-110.55 694.90 2030.5
-105.20 694.34 2028.9
-99.67 692.48 2023.5
-96.51 707.76 2068.1
-92.95 721.74 2109.0
-86.39 712.75 2082.7
-81.33 715.73 2091.4
-77.91 734.56 2146.5
-74.17 753.07 2200.5
-501.88 722.49 2127.3
-482.60 702.45 2068.3
-468.31 689.30 2029.6
-456.10 678.97 1999.1
-445.71 671.13 1976.1
-438.95 668.64 1968.7
-431.82 665.50 1959.5
-422.70 659.21 1941.0
-421.07 664.57 1956.8
-416.78 665.84 1960.5
-411.12 664.89 1957.7
-411.24 673.41 1982.8
-410.67 680.98 2005.1
-409.04 686.97 2022.7
-402.68 685.07 2017.1
-394.32 679.69 2001.3
-391.12 683.15 2011.5
-391.07 692.30 2038.4
-388.42 697.03 2052.3
-379.61 690.68 2033.6
-373.12 688.43 2027.0
-369.71 691.89 2037.2
-362.41 688.05 2025.9
-351.86 677.85 1995.9
-347.31 679.08 1999.5
-347.86 690.45 2033.0
-340.67 686.59 2021.6
-330.59 676.68 1992.4
-323.41 672.49 1980.1
-321.10 678.46 1997.6
-316.63 679.97 2002.1
-308.34 673.22 1982.2
-300.87 668.04 1967.0
-292.35 660.31 1944.2
-289.77 665.95 1960.8
-288.86 675.73 1989.6
-284.07 676.59 1992.1
-278.60 675.85 1990.0
-272.49 673.52 1983.1
-271.23 683.30 2011.9
-268.58 689.89 2031.3
-259.37 679.56 2000.9
-254.26 679.76 2001.5
-252.07 687.94 2025.6
-242.76 676.64 1992.3
-232.61 662.44 1950.5
-226.41 659.11 1940.7
-223.05 664.08 1955.3
-220.56 671.92 1978.4
-214.15 667.94 1966.7
-206.50 659.78 1942.7
-200.73 657.38 1935.6
-196.23 659.14 1940.8
-193.66 667.61 1965.7
-188.24 666.48 1962.4
-184.69 672.07 1978.8
-186.11 696.57 2051.0
-179.66 692.22 2038.2
-168.03 667.04 1964.0
-164.07 671.66 1977.6
-162.39 686.21 2020.5
-156.96 685.38 2018.0
-150.33 679.08 1999.5
-143.53 671.50 1977.2
-136.31 661.34 1947.2
-131.66 663.37 1953.2
-127.35 667.33 1964.9
-121.34 662.29 1950.0
-117.37 668.48 1968.3
-115.41 687.20 2023.4
-112.08 699.17 2058.6
-105.24 689.30 2029.6
-98.40 678.46 1997.6
-94.12 684.96 2016.8
-89.40 688.89 2028.3
-85.68 701.49 2065.4
-83.31 727.58 2142.3
-74.07 746.35 2197.5
-507.49 724.99 2151.1
-492.46 711.34 2110.6
-478.06 698.29 2071.8
-464.90 686.78 2037.7
-455.87 681.19 2021.1
-450.45 680.91 2020.3
-442.16 676.24 2006.4
-432.52 669.38 1986.1
-429.98 673.46 1998.2
-425.00 673.78 1999.1
-416.89 669.09 1985.2
-414.64 673.79 1999.1
-410.60 675.67 2004.7
-405.02 675.03 2002.8
-402.98 680.36 2018.6
-398.48 681.60 2022.3
-389.24 674.68 2001.8
-383.68 674.03 1999.9
-381.83 679.98 2017.5
-373.98 675.24 2003.4
-368.77 675.20 2003.4
-366.43 680.52 2019.1
-356.83 672.30 1994.7
-343.73 657.13 1949.7
-344.33 668.10 1982.3
-349.57 688.54 2042.9
-341.88 683.76 2028.7
-331.47 673.29 1997.7
-324.88 670.39 1989.1
-322.55 676.32 2006.7
-317.47 676.57 2007.4
-308.73 668.91 1984.7
-304.55 671.04 1991.0
-299.63 671.59 1992.6
-291.65 665.18 1973.6
-285.27 662.23 1964.9
-279.33 660.24 1958.9
-272.37 655.70 1945.5
-269.22 660.34 1959.3
-271.19 677.97 2011.6
-269.91 688.00 2041.3
-262.26 681.87 2023.1
-254.82 676.05 2005.9
-250.04 677.19 2009.3
-249.03 688.81 2043.7
-233.29 673.95 1999.6
-222.68 657.93 1952.1
-222.30 672.08 1994.1
-217.60 673.52 1998.4
-206.06 653.35 1938.5
-194.95 649.85 1928.1
-195.39 668.44 1983.3
-191.65 673.36 1997.9
-189.51 684.33 2030.4
-187.02 694.65 2061.1
-176.80 676.02 2005.8
-167.44 659.60 1957.1
-165.53 672.47 1995.2
-162.74 682.47 2024.9
-156.64 678.77 2013.9
-150.80 676.02 2005.8
-144.60 671.36 1991.9
-136.94 659.36 1956.3
-131.77 658.83 1954.8
-128.98 670.72 1990.1
-123.96 671.46 1992.2
-119.15 673.47 1998.2
-116.47 688.23 2042.0
-112.12 694.06 2059.3
-104.34 678.19 2012.2
-97.59 667.75 1981.2
-93.44 674.84 2002.3
-89.97 687.99 2041.3
-87.51 711.04 2109.7
-84.15 729.30 2163.9
-78.55 729.36 2164.0
-500.23 709.12 2120.3
-491.75 704.84 2107.5
-482.48 699.32 2091.0
-469.47 688.21 2057.8
-460.82 683.28 2043.0
-449.75 674.62 2017.1
-436.97 663.16 1982.9
-431.83 663.17 1982.9
-434.30 674.99 2018.3
-434.01 682.78 2041.5
-430.68 685.90 2050.9
-417.27 672.84 2011.8
-401.75 656.03 1961.5
-405.70 670.97 2006.2
-413.15 692.15 2069.6
-405.39 688.10 2057.4
-392.98 675.92 2021.0
-386.30 673.41 2013.5
-383.54 677.76 2026.5
-377.75 676.80 2023.6
-374.55 680.52 2034.8
-368.75 679.55 2031.9
-355.93 665.44 1989.7
-344.98 654.45 1956.8
-347.36 668.79 1999.7
-353.04 690.03 2063.2
-346.25 687.16 2054.6
-332.65 670.51 2004.8
-322.83 661.04 1976.5
-316.92 659.40 1971.6
-308.51 652.43 1950.8
-299.92 644.82 1928.0
-296.03 647.24 1935.3
-291.53 648.41 1938.8
-283.83 642.35 1920.6
-286.03 658.90 1970.1
-288.12 675.78 2020.6
-278.76 665.93 1991.2
-273.17 664.89 1988.0
-272.79 676.74 2023.5
-269.25 681.04 2036.3
-261.97 675.89 2020.9
-254.89 671.05 2006.5
-247.89 666.20 1992.0
-244.52 671.12 2006.7
-246.35 690.85 2065.7
-237.21 680.00 2033.2
-227.59 667.25 1995.1
-227.52 682.56 2040.9
-223.11 685.26 2049.0
-211.73 666.18 1991.9
-203.19 655.30 1959.4
-202.84 670.92 2006.1
-202.89 688.76 2059.4
-198.41 691.76 2068.4
-191.33 685.59 2049.9
-184.00 678.15 2027.7
-175.03 664.07 1985.6
-167.08 653.14 1952.9
-165.19 665.91 1991.1
-162.41 675.84 2020.8
-155.29 667.74 1996.6
-148.58 660.90 1976.1
-144.85 667.34 1995.4
-139.57 666.82 1993.8
-134.16 665.66 1990.4
-130.99 675.90 2020.9
-126.24 678.53 2028.8
-121.56 681.79 2038.6
-117.10 686.63 2053.1
-111.12 682.60 2041.0
-104.62 674.77 2017.6
-98.84 671.05 2006.5
-94.35 676.19 2021.8
-90.62 687.67 2056.2
-86.24 695.35 2079.1
-80.86 695.41 2079.3
-76.61 705.93 2110.8
-513.56 714.52 2153.1
-488.15 686.62 2069.1
-483.03 686.98 2070.1
-477.91 687.34 2071.2
-468.55 681.53 2053.7
-456.97 672.33 2026.0
-443.25 659.72 1988.0
-433.81 653.27 1968.6
-432.36 658.83 1985.3
-427.62 659.46 1987.2
-419.70 655.15 1974.2
-423.38 669.05 2016.1
-416.81 666.89 2009.6
-396.33 642.16 1935.1
-395.26 648.64 1954.6
-407.68 677.71 2042.2
-405.70 683.28 2059.0
-389.83 665.30 2004.8
-379.96 657.23 1980.5
-379.76 665.88 2006.6
-376.81 669.89 2018.6
-372.94 672.34 2026.0
-366.99 671.07 2022.2
-356.54 661.40 1993.1
-348.05 655.15 1974.2
-343.72 656.65 1978.7
-342.89 664.99 2003.9
-336.40 662.45 1996.2
-323.26 646.52 1948.2
-317.41 644.90 1943.3
-314.90 650.12 1959.1
-308.75 647.86 1952.3
-302.33 644.98 1943.6
-297.69 645.83 1946.1
-292.18 644.81 1943.1
-283.25 647.43 1951.0
-288.48 671.36 2023.1
-282.27 669.08 2016.2
-271.05 654.62 1972.6
-264.88 652.01 1964.8
-263.97 662.52 1996.4
-259.49 664.29 2001.8
-252.94 660.73 1991.0
-246.44 657.17 1980.3
-239.07 651.10 1962.0
-236.86 659.10 1986.1
-233.32 663.66 1999.9
-228.95 666.03 2007.0
-226.22 673.41 2029.2
-219.17 667.94 2012.8
-214.71 670.30 2019.9
-213.14 682.06 2055.3
-208.63 684.73 2063.4
-204.35 688.34 2074.2
-192.89 685.82 2066.6
-184.39 674.36 2032.1
-174.41 656.61 1978.6
-166.48 645.75 1945.9
-165.00 660.01 1988.9
-161.85 668.30 2013.8
-154.16 657.74 1982.0
-147.69 651.89 1964.4
-144.14 658.91 1985.6
-141.00 668.45 2014.3
-137.65 677.67 2042.1
-130.78 669.60 2017.8
-122.98 655.87 1976.4
-118.21 657.85 1982.4
-113.57 660.77 1991.2
-108.94 664.00 2000.9
-103.66 663.45 1999.2
-97.84 659.13 1986.2
-93.23 662.97 1997.8
-87.81 661.16 1992.3
-81.75 653.98 1970.7
-80.00 682.69 2057.2
-79.36 725.56 2186.4
-507.09 700.01 2126.0
-491.78 686.34 2084.5
-490.31 691.89 2101.3
-488.54 697.13 2117.3
-468.90 676.71 2055.2
-447.26 652.89 1982.9
-442.13 652.91 1983.0
-441.30 659.36 2002.6
-429.03 648.66 1970.1
-411.31 637.02 1934.7
-420.18 658.79 2000.8
-418.86 664.93 2019.5
-402.93 647.74 1967.3
-392.73 639.44 1942.1
-395.69 652.64 1982.1
-392.39 655.70 1991.4
-371.55 646.40 1963.2
-371.33 654.99 1989.3
-370.46 662.66 2012.6
-363.19 658.93 2001.2
-351.95 647.79 1967.4
-347.81 649.59 1972.9
-347.56 658.80 2000.9
-345.39 664.61 2018.5
-337.44 659.31 2002.4
-329.27 653.39 1984.4
-327.92 661.05 2007.7
-323.89 663.46 2015.0
-316.11 658.13 1998.8
-308.85 653.73 1985.5
-303.52 653.34 1984.3
-301.31 659.76 2003.8
-294.82 656.89 1995.0
-285.65 647.81 1967.5
-281.85 650.82 1976.6
-278.13 654.13 1986.7
-269.19 645.03 1959.0
-263.94 644.62 1957.8
-264.30 658.16 1998.9
-261.27 663.63 2015.5
-256.36 664.45 2018.0
-248.39 657.19 1996.0
-239.72 647.74 1967.3
-235.92 651.34 1978.2
-230.85 651.52 1978.7
-225.57 651.07 1977.4
-221.76 654.97 1989.2
-219.64 664.16 2017.1
-219.79 680.82 2067.7
-212.43 674.45 2048.4
-202.00 657.80 1997.8
-200.31 669.47 2033.3
-198.81 682.39 2072.5
-189.86 669.77 2034.2
-179.56 651.53 1978.8
-175.80 656.65 1994.3
-173.90 669.25 2032.6
-169.84 674.06 2047.2
-164.34 673.25 2044.8
-158.70 671.82 2040.4
-153.86 673.81 2046.4
-147.48 668.93 2031.6
-141.77 666.86 2025.3
-135.65 662.60 2012.4
-126.58 643.03 1953.0
-121.89 645.00 1958.9
-119.82 661.64 2009.5
-114.47 660.79 2006.9
-109.02 659.32 2002.4
-104.78 665.34 2020.7
-100.02 668.54 2030.4
-94.59 667.36 2026.9
-88.42 660.56 2006.2
-83.94 666.25 2023.5
-83.57 707.57 2149.0
-497.62 689.01 2109.2
-491.32 687.85 2105.7
-492.76 697.61 2135.5
-476.02 681.58 2086.5
-448.84 650.05 1989.9
-438.72 642.78 1967.7
-447.98 664.07 2032.9
-446.78 670.17 2051.6
-425.85 646.47 1979.0
-417.75 641.91 1965.0
-424.21 659.88 2020.0
-420.52 662.32 2027.5
-407.81 650.43 1991.1
-400.95 647.68 1982.7
-399.90 654.38 2003.2
-392.86 651.32 1993.8
-385.86 648.25 1984.4
-387.52 659.84 2019.9
-382.81 660.73 2022.7
-376.15 658.26 2015.1
-372.29 660.68 2022.5
-362.10 651.78 1995.2
-358.75 655.11 2005.4
-362.45 671.60 2055.9
-355.96 669.42 2049.2
-348.22 664.78 2035.0
-340.70 660.44 2021.7
-332.63 654.86 2004.7
-330.32 660.63 2022.3
-325.04 660.57 2022.2
-315.46 651.60 1994.7
-306.89 644.46 1972.8
-300.44 641.62 1964.1
-297.01 645.22 1975.2
-295.74 653.74 2001.3
-292.15 657.35 2012.3
-285.56 654.18 2002.6
-278.74 650.39 1991.0
-271.72 645.98 1977.5
-268.46 650.50 1991.3
-263.50 651.00 1992.9
-255.60 644.11 1971.8
-253.08 650.78 1992.2
-247.87 650.66 1991.8
-239.67 642.51 1966.9
-236.66 648.25 1984.4
-231.14 647.19 1981.2
-225.42 645.51 1976.1
-220.88 647.22 1981.3
-217.65 652.95 1998.8
-219.16 673.50 2061.7
-212.78 670.27 2051.8
-201.49 650.95 1992.7
-199.07 660.07 2020.6
-194.60 662.69 2028.6
-183.20 641.19 1962.8
-176.68 636.06 1947.1
-176.10 652.60 1997.7
-172.74 659.54 2019.0
-167.38 659.05 2017.5
-161.19 655.15 2005.6
-155.06 651.24 1993.6
-152.05 660.65 2022.4
-147.32 662.93 2029.4
-141.55 660.57 2022.1
-135.37 656.02 2008.2
-126.31 636.60 1948.8
-121.75 639.17 1956.7
-119.18 652.90 1998.7
-113.26 648.65 1985.7
-108.07 648.43 1985.0
-103.92 654.71 2004.2
-100.14 664.09 2032.9
-95.63 669.44 2049.3
-90.54 671.06 2054.3
-87.11 686.02 2100.1
-506.08 695.16 2145.1
-486.05 675.06 2083.1
-475.75 668.19 2061.8
-470.86 668.83 2063.8
-454.62 653.20 2015.6
-438.21 636.94 1965.4
-441.54 649.32 2003.6
-449.34 668.66 2063.3
-437.19 658.42 2031.7
-423.80 646.04 1993.5
-424.91 655.72 2023.4
-424.70 663.59 2047.7
-415.76 657.85 2029.9
-402.38 644.83 1989.8
-395.35 641.79 1980.4
-397.76 654.20 2018.7
-399.79 666.32 2056.1
-397.86 672.07 2073.8
-389.47 666.90 2057.9
-380.98 661.42 2040.9
-375.50 661.09 2039.9
-368.32 657.72 2029.5
-367.74 666.19 2055.7
-366.19 673.15 2077.2
-355.08 662.47 2044.2
-348.80 660.60 2038.4
-342.70 659.03 2033.6
-329.29 643.14 1984.6
-321.20 637.29 1966.5
-320.15 645.45 1991.7
-315.10 645.69 1992.4
-308.87 643.48 1985.6
-304.84 645.85 1992.9
-293.97 633.56 1955.0
-285.38 625.84 1931.2
-285.81 637.96 1968.6
-283.08 643.37 1985.2
-275.78 638.38 1969.9
-268.17 632.47 1951.6
-266.62 640.92 1977.7
-263.20 645.10 1990.6
-254.20 635.50 1961.0
-250.75 639.67 1973.8
-252.17 656.69 2026.4
-250.67 666.68 2057.2
-242.03 657.68 2029.4
-231.09 641.92 1980.8
-225.69 641.18 1978.5
-221.47 643.80 1986.6
-215.03 639.98 1974.8
-213.38 650.56 2007.5
-209.80 655.63 2023.1
-201.35 645.35 1991.4
-201.46 662.69 2044.9
-199.56 674.20 2080.4
-189.17 656.85 2026.8
-183.35 654.84 2020.6
-179.66 660.50 2038.1
-173.52 657.26 2028.1
-168.61 658.62 2032.3
-162.91 656.90 2027.0
-154.66 644.41 1988.5
-149.82 645.76 1992.6
-145.50 649.56 2004.4
-140.33 649.67 2004.7
-134.45 646.39 1994.6
-125.85 629.26 1941.7
-119.77 623.81 1924.9
-115.99 630.36 1945.1
-110.96 630.45 1945.4
-106.45 633.61 1955.1
-103.07 644.16 1987.7
-99.98 657.78 2029.7
-96.42 669.56 2066.1
-92.24 678.26 2092.9
-87.10 680.48 2099.8
-82.92 691.02 2132.3
-495.94 683.29 2125.4
-471.59 657.04 2043.8
-454.43 640.33 1991.8
-449.70 640.96 1993.8
-444.55 640.98 1993.8
-440.83 643.10 2000.4
-441.34 651.51 2026.6
-434.70 649.43 2020.1
-426.69 645.24 2007.1
-426.20 652.45 2029.5
-424.04 657.26 2044.5
-420.47 659.97 2052.9
-412.88 656.37 2041.7
-399.37 643.14 2000.5
-395.47 645.23 2007.1
-391.71 647.63 2014.5
-384.50 644.30 2004.2
-387.09 657.53 2045.3
-389.30 670.47 2085.6
-381.30 665.93 2071.4
-372.00 658.97 2049.8
-365.32 656.52 2042.2
-357.86 652.56 2029.9
-349.15 646.18 2010.0
-345.04 648.25 2016.4
-340.89 650.31 2022.9
-329.69 638.77 1987.0
-321.74 633.27 1969.8
-320.99 641.98 1996.9
-318.16 646.75 2011.8
-314.23 649.41 2020.0
-305.93 642.97 2000.0
-290.36 620.78 1931.0
-281.09 622.41 1936.1
-281.95 635.66 1977.3
-277.97 638.29 1985.5
-269.79 631.22 1963.5
-267.59 638.09 1984.9
-267.52 650.44 2023.2
-261.49 648.51 2017.2
-252.98 640.19 1991.4
-249.18 643.72 2002.4
-247.86 653.94 2034.1
-239.16 644.69 2005.4
-231.93 639.09 1988.0
-230.07 648.39 2016.9
-225.75 651.00 2025.0
-219.32 647.51 2014.1
-213.44 645.54 2008.0
-205.73 637.78 1983.9
-197.00 626.35 1948.3
-196.85 642.34 1998.1
-198.17 664.13 2065.8
-190.91 657.57 2045.4
-182.55 646.73 2011.7
-176.45 643.51 2001.7
-173.00 650.05 2022.0
-170.62 661.16 2056.6
-165.17 660.68 2055.1
-157.06 649.20 2019.4
-150.43 643.21 2000.8
-144.44 639.66 1989.7
-137.51 631.52 1964.4
-130.07 620.32 1929.6
-119.86 619.29 1926.4
-116.81 629.77 1958.9
-112.56 634.44 1973.5
-107.82 636.66 1980.4
-104.18 645.91 2009.2
-100.90 658.52 2048.4
-97.20 669.60 2082.9
-92.61 675.48 2101.1
-87.13 675.24 2100.4
-82.58 682.65 2123.4
-78.67 696.78 2167.4
-500.20 683.61 2143.7
-476.01 657.85 2062.9
-453.48 633.84 1987.7
-444.15 627.93 1969.1
-445.50 637.16 1998.1
-448.75 649.37 2036.4
-448.98 657.43 2061.6
-441.84 654.78 2053.3
-428.99 643.48 2017.9
-423.37 642.89 2016.0
-420.67 646.77 2028.2
-416.37 648.27 2032.9
-417.72 658.71 2065.6
-413.30 660.20 2070.3
-406.09 657.22 2061.0
-399.46 655.12 2054.4
-386.04 641.66 2012.2
-382.23 644.03 2019.6
-388.19 663.15 2079.6
-384.34 665.83 2088.0
-371.59 652.93 2047.5
-361.73 644.82 2022.1
-351.49 635.79 1993.8
-339.61 623.46 1955.1
-339.82 633.30 1986.0
-340.19 643.74 2018.7
-332.43 638.89 2003.5
-327.82 640.03 2007.1
-326.67 648.08 2032.3
-323.46 652.22 2045.3
-318.56 653.06 2047.9
-309.04 644.27 2020.4
-297.10 630.06 1975.8
