ply
format ascii 1.0
element vertex 2153
property float x
property float y
property float z
end_header
-1156.10 868.49 2175.2
-1160.38 875.97 2194.0
-1165.45 884.14 2214.4
-1144.19 872.30 2184.8
-1092.99 837.42 2097.4
-1052.57 810.48 2030.0
-1040.94 805.55 2017.6
-1053.04 819.03 2051.4
-1065.41 832.86 2086.0
-1060.56 833.30 2087.1
-1052.31 831.05 2081.5
-1034.34 821.07 2056.5
-1010.57 806.36 2019.6
-991.57 795.32 1992.0
-982.29 792.01 1983.7
-980.54 794.75 1990.6
-972.54 792.44 1984.8
-962.50 788.43 1974.7
-957.83 788.80 1975.7
-956.84 792.22 1984.2
-960.28 799.37 2002.1
-960.39 803.81 2013.2
-943.12 793.67 1987.8
-934.79 790.97 1981.1
-932.87 793.71 1988.0
-924.16 790.67 1980.3
-925.77 796.47 1994.9
-920.22 796.14 1994.1
-901.34 784.22 1964.2
-901.71 788.99 1976.1
-910.56 801.29 2006.9
-902.66 798.90 2001.0
-889.78 792.06 1983.8
-872.38 781.09 1956.3
-861.57 775.92 1943.4
-859.15 778.29 1949.3
-855.57 779.64 1952.7
-853.10 782.01 1958.6
-840.52 775.09 1941.3
-820.53 794.73 1990.5
-806.43 786.01 1968.7
-785.70 770.68 1930.3
-778.85 768.87 1925.7
-791.61 786.50 1969.9
-792.68 792.68 1985.4
-782.96 788.08 1973.9
-772.27 782.43 1959.7
-771.54 786.87 1970.8
-774.83 795.50 1992.4
-768.57 794.36 1989.6
-767.02 798.11 1999.0
-765.75 802.21 2009.3
-764.43 806.32 2019.5
-757.13 804.12 2014.0
-743.62 795.27 1991.9
-751.71 809.53 2027.6
-754.44 818.20 2049.3
-733.29 800.89 2005.9
-728.94 801.83 2008.3
-737.27 816.83 2045.9
-737.54 823.05 2061.4
-731.15 821.88 2058.5
-727.58 823.88 2063.5
-725.83 827.99 2073.8
-721.27 828.93 2076.2
-713.95 826.68 2070.5
-700.30 817.01 2046.3
-697.28 819.70 2053.1
-710.35 841.50 2107.6
-729.70 871.11 2181.8
-741.61 892.25 2234.8
-733.69 889.67 2228.3
-718.24 877.84 2198.7
-704.08 867.42 2172.6
-696.33 864.80 2166.0
-692.31 866.79 2171.0
-691.64 873.05 2186.7
-709.63 903.16 2262.1
-1206.37 896.00 2258.8
-1190.15 888.26 2239.3
-1173.57 880.17 2218.9
-1159.70 874.06 2203.5
-1157.27 876.55 2209.8
-1120.37 852.82 2150.0
-1085.46 830.38 2093.4
-1080.18 830.49 2093.7
-1076.63 831.94 2097.3
-1075.19 835.05 2105.2
-1062.62 829.49 2091.2
-1047.55 821.92 2072.1
-1038.06 818.67 2063.9
-1022.27 810.40 2043.0
-1013.71 807.80 2036.5
-1013.96 812.23 2047.6
-1005.82 809.95 2041.9
-993.98 804.65 2028.5
-973.52 792.28 1997.4
-960.18 785.60 1980.5
-955.09 785.64 1980.6
-954.07 789.04 1989.2
-961.92 799.86 2016.4
-952.70 796.52 2008.0
-933.48 784.74 1978.3
-921.97 779.35 1964.7
-915.70 778.34 1962.2
-919.33 785.80 1981.0
-916.97 788.18 1987.0
-901.23 779.03 1963.9
-894.19 777.33 1959.7
-896.09 783.44 1975.1
-898.31 789.90 1991.3
-895.07 791.60 1995.6
-883.38 785.80 1981.0
-877.85 785.45 1980.1
-881.80 793.62 2000.7
-883.39 799.75 2016.2
-875.14 797.01 2009.3
-855.73 783.99 1976.4
-836.46 770.95 1943.6
-836.54 775.70 1955.6
-845.39 788.69 1988.3
-830.69 779.73 1965.7
-800.50 760.72 1917.8
-819.19 783.35 1974.8
-817.95 787.09 1984.2
-805.99 780.48 1967.6
-786.66 766.62 1932.7
-771.02 756.19 1906.4
-775.43 765.42 1929.6
-790.52 785.38 1980.0
-794.65 794.65 2003.3
-782.85 788.00 1986.6
-781.04 791.38 1995.1
-791.42 807.25 2035.1
-791.48 812.73 2048.9
-785.43 811.96 2047.0
-779.38 811.19 2045.0
-779.97 817.37 2060.6
-775.21 817.98 2062.1
-740.28 786.55 1982.9
-727.22 778.07 1961.5
-747.92 805.86 2031.6
-745.78 809.25 2040.1
-736.55 804.95 2029.3
-739.76 814.27 2052.8
-734.03 813.81 2051.6
-721.08 805.30 2030.2
-721.94 812.18 2047.5
-725.80 822.57 2073.7
-726.77 829.82 2092.0
-725.21 834.27 2103.2
-700.26 811.66 2046.2
-685.20 800.27 2017.5
-704.05 828.62 2089.0
-729.69 865.45 2181.8
-735.73 879.43 2217.1
-722.28 870.15 2193.7
-718.82 872.86 2200.5
-718.79 879.79 2218.0
-709.50 875.43 2207.0
-704.24 876.01 2208.4
-700.67 878.70 2215.2
-1177.86 869.10 2205.4
-1162.19 861.72 2186.7
-1145.71 853.66 2166.3
-1111.71 832.42 2112.3
-1090.21 820.35 2081.7
-1096.31 829.05 2103.8
-1101.01 836.77 2123.4
-1084.86 828.63 2102.7
-1070.94 822.13 2086.2
-1075.54 829.86 2105.8
-1068.09 828.31 2101.9
-1058.95 825.44 2094.6
-1055.77 827.20 2099.1
-1030.19 811.34 2058.9
-1012.35 801.45 2033.7
-1031.44 820.83 2082.9
-1040.72 832.58 2112.7
-1017.53 818.33 2076.6
-985.80 797.03 2022.5
-963.77 783.38 1987.9
-951.70 777.74 1973.6
-948.25 779.11 1977.1
-952.49 786.84 1996.7
-955.83 793.92 2014.6
-949.85 793.28 2013.0
-933.06 783.57 1988.4
-921.96 778.54 1975.6
-917.64 779.23 1977.4
-907.79 775.19 1967.1
-894.06 767.78 1948.3
-889.39 768.11 1949.1
-900.66 782.28 1985.1
-911.76 796.48 2021.1
-914.23 803.26 2038.3
-907.81 802.25 2035.8
-881.95 783.95 1989.4
-865.77 774.10 1964.4
-872.73 784.94 1991.9
-870.55 787.64 1998.7
-867.59 789.66 2003.8
-864.60 791.68 2009.0
-842.36 775.99 1969.2
-829.85 769.13 1951.7
-833.52 777.27 1972.4
-820.72 770.06 1954.1
-810.16 764.87 1940.9
-819.11 778.15 1974.6
-812.14 776.38 1970.1
-793.79 763.65 1937.8
-793.65 768.37 1949.8
-797.68 777.22 1972.3
-784.79 769.60 1952.9
-781.73 771.58 1958.0
-787.31 782.16 1984.8
-776.58 776.58 1970.6
-775.49 780.62 1980.9
-786.26 796.74 2021.8
-783.99 799.77 2029.5
-774.95 795.90 2019.7
-772.64 798.92 2027.3
-777.60 809.56 2054.3
-788.04 826.09 2096.3
-768.10 810.77 2057.4
-728.77 774.64 1965.7
-723.24 774.17 1964.5
-735.74 793.14 2012.7
-741.62 805.19 2043.2
-735.27 804.03 2040.3
-718.19 791.05 2007.4
-713.19 791.27 2007.9
-723.45 808.56 2051.8
-736.29 829.01 2103.7
-746.42 846.69 2148.6
-735.27 840.30 2132.4
-700.21 806.31 2046.1
-685.45 795.33 2018.2
-704.32 823.52 2089.8
-721.07 849.64 2156.0
-717.45 851.97 2162.0
-703.54 842.03 2136.7
-699.34 843.65 2140.8
-713.60 867.73 2202.0
-718.10 880.25 2233.7
-715.91 884.70 2245.0
-715.92 891.96 2263.4
-702.11 881.99 2238.1
-695.09 880.44 2234.2
-1208.76 881.75 2252.3
-1171.13 858.45 2192.8
-1158.58 853.39 2179.9
-1146.96 848.98 2168.6
-1116.91 830.80 2122.2
-1096.68 819.80 2094.1
-1105.82 830.74 2122.1
-1112.67 840.07 2145.9
-1097.76 832.97 2127.7
-1069.55 815.67 2083.5
-1060.85 813.14 2077.1
-1067.15 822.14 2100.1
-1069.51 828.18 2115.5
-1066.71 830.27 2120.8
-1041.50 814.85 2081.5
-1009.72 794.11 2028.5
-1017.95 804.77 2055.7
-1033.56 821.41 2098.2
-1015.36 811.22 2072.2
-990.25 795.36 2031.7
-973.53 786.11 2008.0
-957.73 777.51 1986.1
-951.40 776.55 1983.6
-954.82 783.57 2001.6
-955.73 788.61 2014.4
-959.00 795.65 2032.4
-951.77 794.02 2028.2
-931.81 781.68 1996.7
-920.71 776.68 1984.0
-910.84 772.68 1973.7
-896.69 764.97 1954.0
-889.27 762.95 1948.9
-897.83 774.70 1978.9
-903.54 784.11 2002.9
-900.28 785.79 2007.2
-896.22 786.80 2009.8
-872.69 770.62 1968.5
-853.14 757.79 1935.7
-857.53 766.19 1957.2
-860.69 773.60 1976.1
-864.14 781.35 1995.9
-864.89 786.74 2009.6
-846.33 774.52 1978.4
-830.12 764.32 1952.4
-830.86 769.70 1966.1
-826.08 769.99 1966.9
-822.74 771.64 1971.1
-824.06 777.71 1986.6
-809.90 769.15 1964.7
-802.24 766.70 1958.5
-813.40 782.32 1998.3
-819.09 792.83 2025.2
-806.77 785.95 2007.6
-795.58 780.08 1992.6
-792.77 782.41 1998.6
-775.11 770.01 1966.9
-767.19 767.19 1959.7
-786.53 791.78 2022.5
-793.06 803.71 2053.0
-774.88 790.59 2019.5
-763.55 784.32 2003.5
-762.59 788.70 2014.7
-767.85 799.62 2042.5
-768.38 805.73 2058.2
-750.56 792.55 2024.5
-736.78 783.48 2001.3
-740.84 793.38 2026.6
-741.57 799.83 2043.1
-730.13 793.16 2026.0
-726.35 794.77 2030.2
-734.48 809.54 2067.9
-724.03 803.88 2053.4
-715.19 799.95 2043.4
-733.48 826.53 2111.3
-730.96 829.89 2119.9
-702.29 803.38 2052.2
-693.84 799.77 2042.9
-697.70 810.41 2070.1
-698.16 817.23 2087.5
-706.22 833.11 2128.1
-704.40 837.51 2139.3
-686.23 822.38 2100.7
-685.57 828.17 2115.5
-705.78 859.45 2195.4
-719.62 883.44 2256.7
-708.29 883.89 2257.8
-690.64 869.06 2219.9
-1198.01 876.59 2254.1
-1179.16 867.03 2229.5
-1149.84 849.64 2184.8
-1131.24 840.03 2160.1
-1121.90 837.24 2152.9
-1111.72 833.79 2144.0
-1120.64 844.71 2172.1
-1113.91 843.87 2169.9
-1079.66 822.08 2113.9
-1062.78 813.35 2091.5
-1052.38 809.52 2081.6
-1038.19 802.72 2064.1
-1046.48 813.32 2091.4
-1047.07 818.02 2103.5
-1032.10 810.55 2084.3
-1026.80 810.63 2084.5
-1007.38 799.51 2055.9
-981.04 782.74 2012.8
-966.00 774.87 1992.5
-951.05 766.97 1972.2
-950.87 770.98 1982.5
-961.21 783.59 2015.0
-949.15 778.00 2000.6
-939.98 774.71 1992.1
-946.46 784.36 2016.9
-939.68 783.06 2013.6
-933.30 782.09 2011.1
-928.50 782.45 2012.0
-905.61 767.47 1973.5
-889.93 758.47 1950.3
-892.27 764.80 1966.6
-892.20 769.14 1977.8
-885.14 767.46 1973.5
-877.70 765.44 1968.3
-875.26 767.77 1974.3
-875.06 772.11 1985.4
-874.81 776.46 1996.6
-874.50 780.81 2007.8
-864.04 776.08 1995.6
-852.14 770.01 1980.0
-848.45 771.32 1983.4
-846.96 774.66 1992.0
-842.12 774.96 1992.8
-831.45 769.86 1979.6
-810.68 755.29 1942.2
-794.02 749.07 1926.2
-800.01 759.50 1953.0
-805.16 769.26 1978.1
-805.25 774.28 1991.0
-797.92 772.18 1985.6
-792.01 771.44 1983.7
-801.70 785.98 2021.1
-796.40 785.92 2020.9
-780.12 774.96 1992.7
-790.89 790.89 2033.7
-807.91 813.33 2091.4
-798.72 809.52 2081.6
-779.20 795.11 2044.6
-770.50 791.61 2035.6
-766.46 792.89 2038.9
-758.79 790.41 2032.5
-756.70 793.74 2041.0
-759.43 802.22 2062.8
-756.90 805.21 2070.5
-750.48 804.09 2067.7
-742.16 800.90 2059.4
-741.47 805.95 2072.4
-743.23 813.76 2092.5
-725.54 800.22 2057.7
-703.66 781.84 2010.5
-708.19 792.74 2038.5
-721.45 813.66 2092.3
-709.84 806.64 2074.2
-697.41 798.56 2053.4
-697.06 804.30 2068.2
-702.29 816.62 2099.9
-715.06 837.96 2154.7
-710.25 838.87 2157.1
-690.57 822.10 2114.0
-686.70 824.04 2119.0
-704.91 852.71 2192.7
-705.39 860.23 2212.0
-692.76 851.76 2190.2
-1211.57 876.33 2268.5
-1195.30 868.78 2249.0
-1188.40 868.00 2247.0
-1169.16 858.15 2221.5
-1127.65 831.78 2153.2
-1098.65 814.42 2108.3
-1088.13 810.65 2098.5
-1098.02 822.14 2128.3
-1105.20 831.69 2153.0
-1082.58 818.81 2119.6
-1066.96 811.11 2099.7
-1058.67 808.93 2094.1
-1043.61 801.53 2074.9
-1051.46 811.75 2101.4
-1065.09 826.55 2139.7
-1063.03 829.28 2146.7
-1041.32 816.61 2114.0
-1006.03 793.11 2053.1
-971.40 769.89 1993.0
-948.99 756.14 1957.4
-946.41 758.14 1962.6
-957.69 771.33 1996.7
-964.75 781.24 2022.4
-949.44 773.04 2001.2
-926.57 758.56 1963.7
-919.89 757.26 1960.3
-926.40 766.85 1985.1
-932.79 776.46 2010.0
-931.96 780.12 2019.5
-912.97 768.55 1989.5
-893.72 756.62 1958.6
-892.93 760.26 1968.1
-886.27 758.93 1964.6
-873.06 751.94 1946.5
-871.45 754.91 1954.2
-873.62 761.22 1970.6
-878.76 770.20 1993.8
-883.79 779.20 2017.1
-879.30 779.85 2018.8
-864.69 771.49 1997.1
-847.94 761.10 1970.3
-841.31 759.73 1966.7
-838.01 761.37 1970.9
-830.66 759.31 1965.6
-828.43 761.95 1972.5
-815.65 754.85 1954.1
-808.72 753.12 1949.6
-817.95 766.51 1984.3
-810.61 764.44 1978.9
-802.22 761.35 1970.9
-801.99 766.00 1982.9
-794.32 763.58 1976.7
-787.73 762.15 1973.0
-797.11 776.27 2009.5
-808.40 792.44 2051.4
-808.85 798.14 2066.1
-792.18 786.90 2037.0
-781.07 781.07 2021.9
-788.56 793.89 2055.1
-784.50 795.17 2058.5
-771.10 786.94 2037.2
-762.43 783.46 2028.1
-765.30 791.88 2049.9
-774.94 807.45 2090.2
-764.90 802.60 2077.7
-749.10 791.60 2049.2
-742.73 790.48 2046.3
-734.14 786.96 2037.2
-741.42 800.52 2072.3
-750.74 816.49 2113.6
-738.29 808.87 2093.9
-721.60 796.43 2061.7
-719.54 800.08 2071.2
-725.39 812.65 2103.7
-719.22 811.85 2101.6
-712.46 810.36 2097.8
-706.01 809.20 2094.8
-704.05 813.20 2105.1
-723.91 842.67 2181.4
-726.37 852.20 2206.1
-699.28 826.93 2140.7
-686.09 817.82 2117.1
-685.37 823.55 2131.9
-668.03 809.24 2094.9
-673.51 822.56 2129.4
-1210.84 865.72 2256.2
-1175.37 844.44 2200.8
-1177.91 850.39 2216.3
-1189.23 862.77 2248.5
-1174.39 856.21 2231.4
-1136.78 832.89 2170.7
-1114.30 820.48 2138.3
-1111.99 822.87 2144.5
-1095.32 814.61 2123.0
-1077.45 805.37 2098.9
-1071.30 804.83 2097.5
-1070.72 808.50 2107.1
-1071.38 813.15 2119.2
-1065.60 812.93 2118.7
-1058.98 812.07 2116.4
-1059.53 816.72 2128.5
-1060.86 822.03 2142.3
-1042.49 812.04 2116.3
-1017.98 797.15 2077.5
-994.06 782.55 2039.5
-983.90 778.70 2029.4
-992.66 789.86 2058.5
-974.32 779.46 2031.4
-953.25 766.74 1998.3
-949.73 768.09 2001.8
-938.13 762.87 1988.2
-936.21 765.52 1995.1
-947.05 778.68 2029.4
-937.85 775.43 2020.9
-921.96 766.57 1997.8
-914.04 764.28 1991.8
-904.96 760.99 1983.3
-892.42 754.73 1967.0
-874.50 743.83 1938.5
-872.93 746.78 1946.3
-881.70 758.67 1977.2
-878.47 760.32 1981.5
-877.51 763.95 1991.0
-881.04 771.56 2010.8
-874.31 770.22 2007.3
-859.72 761.90 1985.7
-842.61 751.24 1957.9
-834.52 748.54 1950.8
-830.16 749.17 1952.5
-826.88 750.79 1956.7
-828.69 757.07 1973.1
-836.96 769.38 2005.1
-851.94 788.05 2053.8
-847.31 788.69 2055.5
-825.51 773.27 2015.3
-809.23 762.84 1988.1
-801.89 760.77 1982.7
-807.57 771.10 2009.6
-815.58 783.80 2042.7
-806.06 779.72 2032.1
-799.00 777.98 2027.5
-803.29 787.33 2051.9
-790.75 780.20 2033.3
-776.92 771.71 2011.2
-781.75 781.75 2037.4
-781.08 786.40 2049.5
-770.36 780.92 2035.2
-761.03 776.78 2024.4
-762.93 784.13 2043.6
-765.73 792.50 2065.4
-748.91 780.56 2034.3
-740.64 777.41 2026.1
-742.35 784.77 2045.2
-730.57 777.87 2027.3
-734.72 787.96 2053.6
-754.47 815.05 2124.2
-752.01 818.36 2132.8
-736.76 807.71 2105.0
-735.53 812.37 2117.2
-729.94 812.27 2116.9
-711.27 797.48 2078.4
-713.02 805.55 2099.4
-715.88 815.00 2124.0
-703.41 807.01 2103.2
-710.87 821.94 2142.1
-728.13 848.53 2211.4
-717.63 842.93 2196.8
-689.25 816.07 2126.8
-673.27 803.58 2094.3
-677.70 815.44 2125.2
-708.32 859.27 2239.4
-726.07 895.48 2333.8
-1214.59 866.72 2274.2
-1208.53 866.60 2273.9
-1209.99 871.91 2287.8
-1185.36 858.37 2252.3
-1147.69 835.20 2191.5
-1127.77 824.79 2164.2
-1129.77 830.38 2178.8
-1117.37 825.40 2165.8
-1090.75 809.80 2124.8
-1075.50 802.53 2105.8
-1077.05 807.79 2119.6
-1080.25 814.34 2136.8
-1056.15 800.28 2099.9
-1033.05 786.83 2064.6
-1025.28 784.98 2059.7
-1017.52 783.12 2054.8
-1020.23 789.34 2071.2
-1017.05 791.04 2075.6
-1001.40 783.01 2054.5
-1000.28 786.32 2063.2
-1016.38 803.27 2107.7
-1004.06 797.82 2093.4
-975.92 779.68 2045.8
-968.65 778.10 2041.7
-950.51 767.72 2014.4
-943.32 766.12 2010.2
-957.73 782.14 2052.3
-950.86 780.88 2048.9
-930.55 768.49 2016.4
-918.25 762.62 2001.0
-897.78 749.85 1967.5
-873.55 733.79 1925.4
-876.31 740.33 1942.6
-894.83 760.35 1995.1
-902.35 771.20 2023.5
-897.11 771.20 2023.6
-893.01 772.19 2026.2
-893.81 777.46 2040.0
-879.10 769.21 2018.3
-855.85 753.36 1976.7
-846.22 749.36 1966.3
-845.54 753.30 1976.6
-838.53 751.61 1972.2
-831.91 750.25 1968.6
-839.54 761.81 1998.9
-853.58 779.35 2044.9
-850.05 780.99 2049.2
-827.10 764.67 2006.4
-812.20 755.65 1982.8
-804.51 753.26 1976.5
-806.74 760.20 1994.7
-822.95 780.48 2047.9
-817.59 780.43 2047.8
-793.81 762.68 2001.2
-785.79 759.94 1994.0
-790.51 769.57 2019.3
-797.16 781.21 2049.8
-801.96 791.20 2076.0
-807.32 801.87 2104.0
-807.51 807.51 2118.8
-785.96 791.34 2076.4
-765.59 776.15 2036.6
-763.52 779.43 2045.2
-761.41 782.71 2053.8
-752.42 778.92 2043.8
-752.20 784.21 2057.7
-755.45 793.22 2081.3
-745.50 788.41 2068.7
-734.65 782.57 2053.4
-739.31 793.27 2081.5
-744.14 804.33 2110.5
-735.47 800.85 2101.4
-730.85 801.76 2103.7
-721.32 797.24 2091.9
-713.35 794.41 2084.5
-726.59 815.34 2139.4
-723.35 817.94 2146.2
-704.86 803.21 2107.6
-699.58 803.43 2108.1
-704.00 814.87 2138.1
-718.49 838.24 2199.5
-716.75 842.90 2211.7
-703.43 833.91 2188.1
-711.65 850.51 2231.6
-713.70 859.95 2256.4
-707.47 859.49 2255.2
-1224.94 872.40 2304.8
-1190.44 851.98 2250.8
-1174.26 844.54 2231.2
-1144.52 827.23 2185.4
-1133.38 823.25 2174.9
-1144.52 835.50 2207.3
-1129.45 828.64 2189.2
-1100.61 811.56 2144.0
-1075.39 796.99 2105.6
-1067.94 795.50 2101.6
-1066.05 798.17 2108.7
-1036.04 779.70 2059.9
-1010.47 764.39 2019.4
-1000.26 760.61 2009.4
-993.45 759.39 2006.2
-998.36 767.16 2026.8
-993.61 767.55 2027.8
-976.81 758.59 2004.1
-975.81 761.86 2012.7
-993.67 779.98 2060.6
-999.46 788.76 2083.8
-987.62 783.66 2070.3
-979.90 781.77 2065.4
-964.52 773.73 2044.1
-944.40 761.78 2012.5
-947.22 768.30 2029.8
-952.35 776.78 2052.1
-943.11 773.56 2043.7
-923.65 761.88 2012.8
-895.30 742.69 1962.1
-890.99 743.34 1963.8
-912.32 765.51 2022.4
-910.57 768.46 2030.2
-898.39 762.59 2014.7
-901.60 769.79 2033.7
-905.48 777.65 2054.4
-892.20 770.78 2036.3
-865.41 752.09 1986.9
-854.99 747.47 1974.7
-857.68 754.34 1992.9
-852.48 754.32 1992.8
-841.74 749.35 1979.7
-834.36 747.34 1974.4
-840.90 757.85 2002.1
-845.12 766.39 2024.7
-830.80 758.10 2002.8
-812.61 746.17 1971.3
-803.50 742.48 1961.5
-810.45 753.67 1991.1
-828.93 775.79 2049.6
-837.29 788.68 2083.6
-822.06 779.36 2059.0
-791.98 755.74 1996.6
-777.74 747.04 1973.6
-789.05 762.92 2015.5
-802.89 781.48 2064.6
-813.79 797.40 2106.6
-783.89 783.89 2070.9
-766.18 771.46 2038.1
-766.42 777.06 2052.9
-768.22 784.34 2072.1
-763.09 784.59 2072.8
-760.87 787.85 2081.4
-761.18 793.80 2097.1
-757.25 795.39 2101.3
-752.67 796.31 2103.7
-751.23 800.58 2115.0
-750.05 805.20 2127.2
-727.33 786.60 2078.1
-708.25 771.67 2038.7
-724.03 794.80 2099.8
-742.26 820.98 2168.9
-738.97 823.58 2175.8
-718.51 806.94 2131.8
-709.89 803.44 2122.6
-715.25 815.83 2155.3
-708.97 815.03 2153.2
-711.75 824.73 2178.8
-723.40 844.94 2232.2
-724.43 852.96 2253.4
-712.78 846.07 2235.2
-694.12 830.67 2194.5
-684.10 825.44 2180.7
-689.23 838.56 2215.4
-693.63 851.01 2248.3
-1206.63 853.47 2270.3
-1188.59 844.83 2247.3
-1188.77 849.12 2258.7
-1156.32 830.03 2208.0
-1140.74 822.92 2189.0
-1145.75 830.67 2209.7
-1124.58 819.42 2179.7
-1105.70 809.73 2154.0
-1088.65 801.29 2131.5
-1069.54 791.24 2104.8
-1058.24 786.90 2093.2
-1035.49 773.95 2058.8
-1015.42 762.88 2029.3
-1019.97 770.29 2049.0
-1026.95 779.62 2073.9
-1019.17 777.79 2069.0
-1000.98 767.95 2042.8
-994.94 767.37 2041.3
-1004.60 778.97 2072.1
-1018.24 793.79 2111.6
-1019.42 799.01 2125.4
-1001.38 789.13 2099.2
-987.09 782.12 2080.5
-982.18 782.50 2081.5
-972.02 778.69 2071.4
-963.11 775.84 2063.8
-957.42 775.56 2063.1
-949.74 773.66 2058.0
-931.82 763.35 2030.6
-906.16 746.55 1985.9
-904.14 749.15 1992.8
-919.21 766.01 2037.7
-910.85 763.43 2030.8
-895.20 754.67 2007.5
-894.21 758.25 2017.0
-896.61 764.75 2034.3
-883.37 757.92 2016.1
-868.32 749.44 1993.6
-870.64 755.94 2010.9
-877.74 766.70 2039.5
-877.64 771.26 2051.6
-867.14 766.68 2039.4
-859.99 765.02 2035.0
-847.01 758.13 2016.7
-831.56 748.92 1992.2
-844.08 764.95 2034.8
-853.17 778.05 2069.7
-816.28 749.11 1992.7
-797.17 736.24 1958.5
-811.14 753.94 2005.6
-815.04 762.45 2028.2
-817.43 769.65 2047.4
-805.11 763.01 2029.7
-785.94 749.75 1994.4
-792.74 761.24 2025.0
-782.97 756.87 2013.4
-771.90 751.18 1998.2
-787.93 771.96 2053.5
-781.87 771.23 2051.5
-781.15 775.80 2063.7
-795.31 795.31 2115.6
-779.54 784.95 2088.0
-764.54 775.24 2062.2
-755.21 771.16 2051.4
-749.15 770.40 2049.4
-751.15 777.97 2069.5
-748.89 781.21 2078.1
-748.49 786.46 2092.1
-751.81 795.71 2116.7
-751.57 801.30 2131.5
-731.32 785.49 2089.5
-717.77 776.69 2066.1
-739.64 806.37 2145.0
-750.16 824.03 2192.0
-738.63 817.57 2174.8
-725.99 809.75 2154.0
-725.68 815.69 2169.8
-728.86 825.66 2196.3
-721.01 823.20 2189.8
-715.53 823.42 2190.4
-719.33 834.42 2219.6
-718.95 840.71 2236.4
-705.33 831.49 2211.9
-690.98 821.25 2184.6
-685.49 821.45 2185.1
-696.20 841.24 2237.8
-706.39 860.72 2289.6
-1212.36 851.61 2281.1
-1184.08 835.82 2238.8
-1190.91 844.78 2262.8
-1164.60 830.21 2223.8
-1131.87 810.89 2172.0
-1120.33 806.63 2160.6
-1135.37 821.57 2200.6
-1149.81 836.22 2239.9
-1117.03 816.51 2187.1
-1083.61 796.12 2132.5
-1070.54 790.55 2117.5
-1045.59 776.10 2078.9
-1030.98 769.23 2060.4
-1040.97 780.72 2091.2
-1057.13 797.00 2134.8
-1055.92 800.28 2143.6
-1027.55 782.90 2097.0
-1011.42 774.71 2075.1
-1012.34 779.56 2088.1
-1017.73 787.92 2110.5
-1018.51 792.78 2123.5
-999.23 782.01 2094.7
-978.86 770.25 2063.2
-967.92 765.82 2051.3
-972.32 773.55 2072.0
-975.42 780.33 2090.2
-975.25 784.56 2101.5
-975.03 788.78 2112.8
-937.62 762.81 2043.2
-893.45 731.00 1958.0
-886.41 729.39 1953.7
-894.96 740.66 1983.9
-897.56 747.11 2001.2
-892.38 747.11 2001.2
-891.02 750.34 2009.8
-892.68 756.15 2025.4
-879.07 749.03 2006.3
-863.28 739.96 1982.0
-867.52 748.04 2003.7
-876.14 760.02 2035.8
-885.36 772.68 2069.7
-885.91 777.87 2083.6
-877.93 775.59 2077.5
-863.01 767.12 2054.8
-836.18 747.89 2003.3
-837.10 753.39 2018.0
-855.97 775.22 2076.5
-827.27 753.97 2019.6
-794.20 728.44 1951.2
-795.45 734.26 1966.8
-802.61 745.65 1997.3
-807.88 755.42 2023.4
-807.45 759.95 2035.6
-800.38 758.26 2031.0
-797.81 760.82 2037.9
-779.11 747.95 2003.4
-771.95 751.09 2011.8
-779.43 763.52 2045.2
-793.44 782.57 2096.2
-804.22 798.67 2139.3
-785.41 785.41 2103.8
-763.16 768.49 2058.5
-746.98 757.50 2029.0
-746.16 762.04 2041.2
-754.30 775.85 2078.2
-753.62 780.73 2091.2
-753.83 786.61 2107.0
-737.23 774.90 2075.6
-717.33 759.52 2034.4
-724.41 772.70 2069.7
-740.60 795.87 2131.8
-739.59 800.76 2144.9
-726.01 792.01 2121.4
-735.26 808.23 2164.9
-743.71 823.80 2206.6
-723.85 808.02 2164.3
-707.16 795.55 2130.9
-708.60 803.45 2152.1
-712.57 814.37 2181.3
-704.78 811.91 2174.8
-691.25 802.74 2150.2
-699.59 819.03 2193.8
-708.57 836.34 2240.2
-688.28 819.11 2194.0
-684.44 821.32 2200.0
-1210.06 844.09 2276.8
-1164.89 816.57 2202.5
-1158.53 816.11 2201.3
-1131.02 800.67 2159.6
-1096.21 779.89 2103.6
-1100.11 786.58 2121.6
-1129.18 811.42 2188.7
-1152.77 832.55 2245.7
-1126.87 817.98 2206.3
-1093.39 797.73 2151.7
-1080.27 792.20 2136.8
-1049.72 773.76 2087.1
-1030.00 763.16 2058.5
-1048.03 780.57 2105.4
-1069.66 800.84 2160.1
-1073.85 808.21 2180.0
-1049.98 794.43 2142.8
-1037.90 789.47 2129.4
-1043.26 797.79 2151.9
-1020.09 784.26 2115.4
-992.97 767.54 2070.3
-991.36 770.46 2078.2
-988.90 772.75 2084.3
-967.39 760.09 2050.2
-960.92 759.18 2047.7
-955.67 759.23 2047.9
-948.81 757.99 2044.5
-948.72 762.17 2055.8
-911.81 736.66 1987.0
-890.18 727.40 1962.0
-900.28 739.88 1995.7
-904.80 747.90 2017.3
-902.28 750.15 2023.4
-903.95 755.93 2039.0
-904.40 760.76 2052.0
-888.83 752.09 2028.6
-863.15 734.71 1981.7
-856.86 733.72 1979.1
-862.18 742.72 2003.4
-868.51 752.71 2030.3
-876.93 764.64 2062.5
-876.73 769.15 2074.6
-856.68 756.21 2039.7
-824.40 732.23 1975.1
-815.97 729.27 1967.1
-824.15 741.22 1999.3
-825.73 747.34 2015.8
-821.53 748.27 2018.3
-810.57 743.03 2004.2
-806.03 743.62 2005.8
-814.44 756.26 2039.9
-816.77 763.38 2059.1
-802.71 755.18 2037.0
-792.89 750.88 2025.4
-795.45 758.33 2045.5
-798.60 766.44 2067.3
-801.98 774.89 2090.1
-803.57 781.71 2108.5
-794.37 778.05 2098.6
-781.89 771.10 2079.9
-781.71 776.28 2093.9
-778.51 778.51 2099.9
-760.60 765.95 2066.0
-758.72 769.48 2075.5
-771.30 787.83 2125.0
-774.36 796.64 2148.8
-758.86 786.35 2121.0
-725.47 757.25 2042.5
-719.66 762.31 2056.2
-730.95 780.04 2104.0
-725.09 779.61 2102.8
-721.37 781.48 2107.9
-739.77 807.54 2178.2
-746.69 821.36 2215.5
-725.01 803.69 2167.8
-712.46 795.95 2146.9
-718.59 809.12 2182.4
-714.59 811.00 2187.5
-698.35 798.91 2154.9
-688.33 793.79 2141.1
-699.85 813.64 2194.6
-710.83 833.18 2247.3
-693.90 820.06 2211.9
-677.69 807.58 2178.3
-694.99 835.16 2252.7
-716.89 868.78 2343.4
-719.48 879.36 2371.9
-1230.51 852.35 2315.2
-1219.03 848.54 2304.9
-1182.79 827.37 2247.4
-1127.81 792.82 2153.5
-1100.47 777.44 2111.8
-1112.23 789.68 2145.0
-1130.82 806.92 2191.8
-1143.14 819.83 2226.9
-1125.48 811.26 2203.6
-1099.31 796.44 2163.4
-1090.02 793.76 2156.1
-1064.11 778.88 2115.7
-1028.59 756.78 2055.6
-1032.25 763.44 2073.7
-1044.69 776.68 2109.7
-1040.19 777.40 2111.7
-1041.52 782.52 2125.5
-1053.19 795.49 2160.8
-1065.11 808.80 2196.9
-1047.60 799.78 2172.5
-1021.17 783.82 2129.1
-1019.84 787.05 2137.9
-1015.22 787.77 2139.8
-989.93 772.37 2098.0
-958.38 751.88 2042.3
-929.47 733.25 1991.7
-922.73 732.00 1988.3
-923.96 737.09 2002.2
-915.23 734.25 1994.4
-914.01 737.44 2003.1
-907.66 736.50 2000.6
-904.82 738.42 2005.8
-915.92 751.80 2042.1
-920.68 760.10 2064.7
-920.35 764.27 2076.0
-918.81 767.48 2084.7
-909.63 764.30 2076.1
-889.88 752.16 2043.1
-880.07 748.32 2032.7
-883.40 755.68 2052.7
-877.33 755.04 2050.9
-872.38 755.35 2051.8
-857.09 746.67 2028.2
-822.11 720.61 1957.4
-818.80 722.18 1961.6
-839.78 745.31 2024.5
-834.50 745.27 2024.4
-821.67 738.47 2005.9
-826.42 747.46 2030.3
-823.95 750.00 2037.2
-813.68 745.43 2024.8
-817.85 754.12 2048.4
-823.30 764.11 2075.6
-813.02 759.53 2063.1
-795.90 748.46 2033.0
-790.90 748.72 2033.7
-790.33 753.20 2045.9
-790.04 758.02 2059.0
-797.77 770.64 2093.3
-794.96 773.18 2100.2
-774.82 758.79 2061.1
-767.42 756.76 2055.6
-784.68 779.19 2116.5
-786.97 786.97 2137.6
-768.70 774.16 2102.8
-765.11 776.04 2108.0
-767.58 784.14 2130.0
-751.16 772.93 2099.5
-733.93 760.71 2066.3
-731.93 764.22 2075.8
-733.31 771.34 2095.2
-735.84 779.78 2118.1
-730.88 780.33 2119.6
-728.34 783.52 2128.3
-737.30 799.21 2170.9
-734.30 802.08 2178.7
-720.18 792.75 2153.4
-715.39 793.63 2155.7
-714.71 799.13 2170.7
-703.12 792.41 2152.4
-705.00 800.88 2175.4
-713.70 817.30 2220.0
-705.55 814.54 2212.5
-694.87 808.79 2196.9
-705.16 827.55 2247.9
-716.89 848.32 2304.3
-713.31 858.39 2331.6
-1238.04 851.53 2329.4
-1226.97 848.05 2319.9
-1189.35 826.10 2259.8
-1155.06 806.25 2205.6
-1148.69 805.80 2204.3
-1154.14 813.67 2225.8
-1166.91 826.81 2261.8
-1157.38 824.20 2254.6
-1118.46 800.52 2189.9
-1100.49 791.68 2165.7
-1099.77 795.22 2175.4
-1084.91 788.52 2157.0
-1060.77 774.96 2120.0
-1030.42 756.72 2070.0
-1011.68 746.84 2043.0
-1029.15 763.74 2089.2
-1049.35 782.85 2141.5
-1053.08 789.81 2160.6
-1056.32 796.48 2178.8
-1042.15 790.01 2161.1
-1019.42 776.96 2125.4
-1013.20 776.42 2123.9
-1004.13 773.67 2116.4
-987.79 765.27 2093.4
-961.47 748.99 2048.9
-945.78 740.86 2026.7
-952.55 750.33 2052.6
-950.46 752.89 2059.6
-938.83 747.88 2045.9
-943.02 755.49 2066.7
-941.62 758.68 2075.4
-914.44 741.01 2027.1
-903.38 736.28 2014.1
-908.98 745.15 2038.4
-909.47 749.92 2051.4
-905.70 751.20 2055.0
-893.92 745.81 2040.2
-876.89 735.96 2013.3
-870.16 734.68 2009.8
-876.92 744.85 2037.6
-874.61 747.40 2044.5
-874.49 751.85 2056.7
-862.51 746.10 2041.0
-843.99 734.58 2009.5
-859.18 752.45 2058.4
-865.44 762.67 2086.3
-844.49 748.89 2048.6
-826.94 737.97 2018.8
-826.66 742.42 2030.9
-823.48 744.30 2036.1
-812.86 739.44 2022.8
-817.04 748.07 2046.4
-822.86 758.32 2074.4
-820.56 761.18 2082.3
-812.01 758.24 2074.2
-801.44 753.35 2060.8
-795.69 752.97 2059.8
-793.34 755.82 2067.6
-799.38 766.75 2097.5
-793.88 766.69 2097.3
-772.07 750.77 2053.8
-758.73 742.92 2032.3
-771.13 760.34 2080.0
-778.73 773.25 2115.3
-765.38 765.38 2093.8
-767.30 772.78 2114.0
-774.89 786.04 2150.3
-770.84 787.59 2154.5
-766.13 788.50 2157.0
-763.60 791.68 2165.7
-762.60 796.49 2178.9
-754.70 794.13 2172.4
-739.13 783.59 2143.6
-732.26 782.19 2139.7
-737.26 793.54 2170.8
-738.18 800.64 2190.2
-728.52 796.29 2178.3
-720.10 793.23 2169.9
-715.85 794.76 2174.1
-704.25 788.09 2155.9
-704.67 794.87 2174.4
-708.75 805.92 2204.6
-695.48 797.25 2180.9
-691.14 798.77 2185.1
-707.69 824.66 2255.9
-726.14 853.22 2334.0
-728.91 863.67 2362.6
-714.42 853.67 2335.3
-706.08 850.91 2327.7
-1213.99 833.13 2295.4
-1208.77 833.63 2296.7
-1203.53 834.13 2298.1
-1182.01 823.29 2268.3
-1173.32 821.33 2262.8
-1155.05 812.60 2238.8
-1116.88 789.71 2175.7
-1107.54 787.08 2168.5
-1117.18 797.99 2198.5
-1112.11 798.44 2199.8
-1093.34 789.01 2173.8
-1098.95 797.16 2196.3
-1095.97 799.15 2201.7
-1065.96 781.33 2152.7
-1072.29 790.11 2176.8
-1086.47 804.79 2217.3
-1083.38 806.77 2222.7
-1066.17 798.20 2199.1
-1031.31 776.25 2138.7
-1016.84 769.50 2120.0
-1020.04 776.11 2138.3
-998.72 764.04 2105.0
-969.83 746.02 2055.4
-966.99 747.94 2060.7
-973.35 757.05 2085.8
-968.41 757.42 2086.8
-954.71 750.89 2068.8
-949.00 750.62 2068.0
-958.66 762.57 2101.0
-953.27 762.62 2101.1
-922.89 742.56 2045.8
-905.57 732.83 2019.0
-906.15 737.56 2032.1
-903.58 739.77 2038.2
-897.16 738.84 2035.6
-889.60 736.95 2030.4
-876.76 730.63 2013.0
-863.62 723.99 1994.7
-863.67 728.40 2006.8
-871.88 739.78 2038.2
-882.17 753.07 2074.8
-883.44 758.78 2090.5
-877.65 758.46 2089.6
-879.89 765.12 2108.0
-873.70 764.49 2106.2
-862.45 759.39 2092.2
-855.21 757.78 2087.8
-836.56 745.97 2055.2
-814.84 731.27 2014.7
-819.11 739.84 2038.3
-838.37 762.16 2099.8
-830.10 759.57 2092.7
-813.17 748.98 2063.5
-804.67 746.05 2055.4
-795.16 742.15 2044.7
-797.30 749.15 2064.0
-804.11 760.64 2095.6
-801.65 763.48 2103.5
-787.77 755.39 2081.2
-787.97 760.80 2096.1
-798.36 776.19 2138.5
-786.18 769.69 2120.6
-769.83 758.99 2091.1
-753.93 748.58 2062.4
-752.37 752.37 2072.9
-763.60 769.09 2118.9
-762.81 773.86 2132.1
-764.17 780.90 2151.5
-767.01 789.57 2175.3
-769.42 797.92 2198.4
-763.96 798.17 2199.0
-744.62 783.81 2159.5
-733.73 778.20 2144.0
-745.72 796.96 2195.7
-753.84 811.83 2236.7
-745.27 808.81 2228.4
-738.51 807.75 2225.4
-740.94 816.78 2250.3
-735.61 817.34 2251.9
-721.52 808.11 2226.4
-709.87 801.47 2208.1
-699.17 795.80 2192.5
-696.80 799.60 2203.0
-694.09 803.08 2212.6
-693.02 808.52 2227.6
-699.11 822.48 2266.0
-689.54 818.10 2253.9
-681.67 815.67 2247.3
-693.42 836.88 2305.7
-1231.72 839.26 2328.9
-1224.21 838.26 2326.1
-1210.52 832.98 2311.5
-1180.60 816.44 2265.6
-1165.34 809.91 2247.4
-1140.10 796.35 2209.8
-1097.63 770.56 2138.2
-1084.03 764.87 2122.5
-1108.88 786.40 2182.2
-1117.15 796.33 2209.8
-1093.66 783.60 2174.4
-1094.58 788.33 2187.5
-1105.20 800.12 2220.3
-1087.80 791.65 2196.8
-1076.39 787.46 2185.2
-1073.81 789.74 2191.5
-1061.20 784.61 2177.2
-1034.12 768.68 2133.0
-1032.02 771.24 2140.1
-1048.38 787.71 2185.8
-1045.31 789.66 2191.3
-1019.38 774.28 2148.6
-981.05 749.26 2079.2
-970.08 744.98 2067.3
-969.21 748.44 2076.9
-957.08 743.21 2062.4
-958.16 748.23 2076.3
-966.71 759.17 2106.6
-963.67 761.08 2111.9
-945.70 751.15 2084.4
-926.67 740.27 2054.2
-920.59 739.67 2052.5
-926.13 748.44 2076.9
-928.47 754.72 2094.3
-911.20 745.04 2067.4
-893.28 734.71 2038.8
-889.14 735.66 2041.4
-884.98 736.60 2044.0
-876.30 733.77 2036.2
-875.12 737.22 2045.7
-876.49 742.88 2061.4
-868.55 740.67 2055.3
-859.17 737.19 2045.6
-858.96 741.59 2057.8
-868.15 754.20 2092.9
-872.47 762.73 2116.5
-859.79 756.39 2098.9
-834.66 738.96 2050.6
-814.01 725.31 2012.7
-819.70 735.09 2039.8
-825.62 745.20 2067.9
-803.78 730.24 2026.3
-798.47 730.18 2026.2
-802.49 738.71 2049.9
-785.09 727.52 2018.8
-778.42 726.18 2015.1
-798.93 750.34 2082.1
-811.69 767.52 2129.8
-797.40 759.17 2106.6
-798.22 765.19 2123.3
-807.24 779.21 2162.2
-795.33 773.08 2145.2
-782.51 765.98 2125.5
-769.45 758.54 2104.9
-761.01 755.58 2096.7
-765.13 765.13 2123.2
-754.44 759.91 2108.7
-745.09 755.97 2097.8
-757.19 773.90 2147.5
-768.12 790.88 2194.6
-762.67 791.13 2195.3
-743.95 777.51 2157.5
-733.67 772.58 2143.8
-746.89 792.50 2199.1
-757.13 809.54 2246.4
-750.63 808.82 2244.4
-725.66 788.02 2186.7
-708.36 775.29 2151.4
-727.94 803.04 2228.4
-737.82 820.46 2276.7
-722.57 809.98 2247.6
-708.61 800.78 2222.1
-690.48 786.70 2183.0
-685.40 793.92 2203.1
-709.40 828.63 2299.4
-695.05 818.74 2271.9
-682.74 811.12 2250.8
-692.59 829.91 2302.9
-1243.19 836.88 2339.1
-1230.31 832.27 2326.2
-1221.92 830.66 2321.7
-1206.91 824.52 2304.6
-1191.08 817.76 2285.7
-1188.05 819.76 2291.2
-1153.10 799.64 2235.0
-1101.41 767.65 2145.6
-1081.72 757.75 2117.9
-1100.99 775.19 2166.7
-1121.34 793.57 2218.0
-1108.09 788.23 2203.1
-1093.19 781.66 2184.8
-1087.70 781.78 2185.1
-1065.72 770.00 2152.2
-1049.35 762.16 2130.3
-1045.22 763.18 2133.1
-1030.22 756.23 2113.7
-1019.88 752.64 2103.6
-1035.20 768.05 2146.7
-1032.23 769.99 2152.1
-1011.20 758.40 2119.7
-1013.15 764.01 2135.4
-1002.84 760.39 2125.3
-978.43 745.98 2085.0
-962.64 738.02 2062.8
-955.74 736.83 2059.5
-962.02 745.83 2084.6
-966.19 753.30 2105.5
-960.00 752.73 2103.9
-944.00 744.41 2080.7
-927.31 735.46 2055.6
-916.18 730.83 2042.7
-917.49 736.12 2057.5
-934.52 754.17 2107.9
-930.24 755.14 2110.6
-902.30 736.79 2059.4
-889.39 730.57 2042.0
-876.17 724.02 2023.7
-859.27 714.33 1996.6
-863.04 721.81 2017.5
-868.19 730.55 2041.9
-867.32 734.30 2052.4
-867.14 738.67 2064.6
-859.21 736.46 2058.4
-861.13 742.72 2075.9
-866.95 752.44 2103.1
-855.36 747.09 2088.1
-833.47 732.60 2047.6
-816.02 721.87 2017.6
-817.82 728.12 2035.1
-820.94 735.65 2056.2
-800.17 721.72 2017.2
-796.27 722.93 2020.6
-823.13 752.27 2102.6
-828.30 762.03 2129.9
-812.83 752.82 2104.2
-825.33 769.57 2151.0
-825.80 775.24 2166.8
-800.34 756.48 2114.4
-793.80 755.48 2111.6
-796.56 763.37 2133.6
-782.73 755.36 2111.3
-767.36 745.75 2084.4
-771.97 755.55 2111.8
-780.01 768.86 2149.0
-777.90 772.31 2158.6
-761.07 761.07 2127.2
-744.69 750.13 2096.6
-749.56 760.59 2125.9
-753.67 770.42 2153.3
-742.41 764.57 2137.0
-742.96 770.89 2154.7
-753.54 787.79 2201.9
-738.01 777.44 2173.0
-718.37 762.58 2131.4
-721.16 771.47 2156.3
-705.03 760.11 2124.5
-714.08 782.09 2186.0
-722.33 797.45 2228.9
-704.29 783.80 2190.8
-695.05 779.81 2179.6
-681.59 770.97 2154.9
-679.28 774.72 2165.4
-713.19 820.17 2292.4
-712.65 840.56 2349.4
-710.55 845.31 2362.7
-1235.50 825.67 2324.6
-1216.40 816.89 2299.9
-1201.40 810.79 2282.7
-1210.80 821.19 2312.0
-1218.31 830.39 2337.9
-1190.16 815.26 2295.3
-1132.00 779.32 2194.1
-1117.38 773.14 2176.7
-1132.31 787.45 2217.0
-1118.14 781.56 2200.4
-1108.33 778.67 2192.3
-1103.69 779.41 2194.4
-1098.19 779.54 2194.7
-1104.99 788.46 2219.8
-1093.08 784.04 2207.4
-1077.43 776.88 2187.3
-1073.59 778.21 2191.0
-1048.87 764.34 2151.9
-1028.88 753.78 2122.2
-1041.70 767.27 2160.2
-1036.23 767.37 2160.5
-1004.92 748.23 2106.6
-997.92 747.08 2103.3
-998.65 751.73 2116.5
-986.38 746.60 2102.0
-969.74 738.08 2078.0
-960.41 735.06 2069.5
-963.08 741.25 2086.9
-964.08 746.21 2100.9
-972.52 757.02 2131.3
-970.99 760.15 2140.2
-936.56 737.41 2076.1
-909.03 719.87 2026.7
-894.88 712.78 2006.8
-897.01 718.65 2023.3
-922.45 743.39 2093.0
-922.78 748.05 2106.1
-897.23 731.67 2060.0
-872.63 715.87 2015.5
-860.63 710.28 1999.7
-868.13 720.81 2029.4
-872.90 729.19 2053.0
-871.64 732.60 2062.6
-881.73 745.66 2099.4
-885.44 753.45 2121.3
-872.66 747.22 2103.7
-861.77 742.53 2090.5
-845.53 733.15 2064.1
-819.02 714.69 2012.2
-817.32 717.77 2020.8
-835.05 738.08 2078.0
-840.19 747.44 2104.4
-821.40 735.50 2070.8
-811.46 731.39 2059.2
-832.72 755.52 2127.1
-840.10 772.44 2174.7
-823.89 762.66 2147.2
-797.33 743.09 2092.1
-779.75 731.69 2060.0
-780.35 737.30 2075.8
-790.50 752.07 2117.4
-783.30 750.43 2112.8
-755.14 728.55 2051.2
-768.28 751.82 2116.7
-780.40 769.18 2165.6
-765.78 760.23 2140.4
-751.27 751.27 2115.2
-747.60 753.09 2120.3
-743.89 754.91 2125.4
-730.83 747.19 2103.7
-731.15 753.14 2120.4
-746.74 775.02 2182.0
-736.73 770.47 2169.2
-716.79 755.39 2126.7
-718.69 763.26 2148.9
-718.39 768.90 2164.8
-720.39 777.11 2187.9
-721.09 784.04 2207.4
-706.51 774.34 2180.1
-702.50 776.14 2185.2
-708.53 789.17 2221.9
-700.95 787.13 2216.1
-704.46 797.61 2245.6
-724.14 826.72 2327.6
-704.39 824.80 2322.2
-695.28 821.15 2311.9
-703.79 838.43 2360.5
-1251.54 830.29 2354.8
-1222.55 815.03 2311.5
-1192.84 799.15 2266.5
-1189.89 801.12 2272.1
-1199.27 811.44 2301.4
-1172.05 796.99 2260.4
-1135.37 775.93 2200.7
-1141.65 784.16 2224.0
-1151.29 794.80 2254.2
-1129.69 783.86 2223.1
-1107.35 772.30 2190.4
-1094.14 767.03 2175.4
-1084.41 764.14 2167.2
-1087.88 770.58 2185.5
-1094.23 779.14 2209.7
-1094.16 783.19 2221.2
-1088.16 783.01 2220.7
-1059.18 766.22 2173.1
-1043.71 759.06 2152.8
-1061.45 776.11 2201.2
-1059.18 778.64 2208.3
-1029.81 761.16 2158.8
-1015.75 754.88 2140.9
-1011.12 755.56 2142.9
-997.17 749.25 2125.0
-978.86 739.58 2097.6
-963.07 731.72 2075.3
-958.95 732.68 2078.0
-955.61 734.25 2082.4
-958.96 741.01 2101.6
-976.78 759.10 2152.9
-960.31 750.59 2128.8
-930.70 731.65 2075.0
-914.89 723.40 2051.7
-896.86 713.29 2023.0
-903.14 722.51 2049.1
-926.48 745.57 2114.5
-922.55 746.83 2118.1
-903.10 735.46 2085.9
-897.33 735.16 2085.0
-888.94 732.71 2078.1
-877.61 727.77 2064.1
-860.77 718.19 2036.9
-855.47 718.17 2036.8
-871.42 736.10 2087.7
-870.00 739.50 2097.3
-851.15 728.03 2064.8
-827.75 712.50 2020.7
-810.29 701.91 1990.7
-816.83 712.11 2019.6
-829.98 728.24 2065.4
-830.22 733.18 2079.4
-823.04 731.59 2074.9
-824.24 737.48 2091.6
-829.51 747.11 2118.9
-827.43 750.20 2127.7
-818.45 747.04 2118.7
-801.69 736.68 2089.3
-786.41 727.56 2063.5
-779.98 726.56 2060.6
-775.24 727.12 2062.2
-780.11 736.77 2089.6
-784.86 746.44 2117.0
-768.16 735.70 2086.5
-755.24 733.66 2080.8
-777.11 760.34 2156.4
-772.42 761.22 2158.9
-748.01 742.55 2106.0
-734.58 734.58 2083.4
-745.38 750.90 2129.7
-747.87 759.03 2152.7
-738.18 754.83 2140.8
-744.52 767.08 2175.6
-762.59 791.70 2245.4
-748.40 789.01 2237.7
-721.61 766.71 2174.5
-718.85 769.79 2183.2
-714.27 770.96 2186.5
-708.79 771.17 2187.1
-716.37 785.69 2228.3
-734.98 812.66 2304.8
-741.21 826.27 2343.4
-711.23 799.40 2267.2
-693.71 786.21 2229.8
-711.85 813.54 2307.3
-707.99 815.99 2314.3
-687.60 799.26 2266.8
-683.52 801.37 2272.8
-682.67 807.33 2289.7
-695.42 829.62 2352.9
-1237.22 822.78 2350.8
-1215.93 812.63 2321.8
-1208.88 811.93 2319.8
-1193.48 805.60 2301.7
-1167.20 791.82 2262.3
-1149.37 783.66 2239.0
-1135.55 778.17 2223.3
-1117.89 769.98 2199.9
-1099.47 761.17 2174.8
-1100.87 766.07 2188.8
-1106.05 773.67 2210.5
-1102.64 775.29 2215.1
-1101.74 778.72 2224.9
-1102.48 783.34 2238.1
-1096.86 783.47 2238.5
-1079.95 775.50 2215.7
-1073.96 775.32 2215.2
-1072.10 778.14 2223.3
-1051.24 767.12 2191.8
-1022.29 750.05 2143.0
-1009.08 744.40 2126.9
-1017.09 754.44 2155.5
-1015.26 757.24 2163.5
-987.59 740.69 2116.3
-962.12 725.62 2073.2
-959.60 727.79 2079.4
-955.46 728.74 2082.1
-931.53 714.53 2041.5
-921.94 711.21 2032.0
-931.59 722.78 2065.1
-927.05 723.42 2066.9
-934.14 733.19 2094.8
-937.62 740.23 2114.9
-910.67 723.18 2066.2
-902.28 720.76 2059.3
-926.61 744.60 2127.4
-916.77 745.57 2130.2
-896.30 733.34 2095.3
-880.83 725.07 2071.6
-859.89 712.18 2034.8
-845.02 704.18 2011.9
-851.50 713.99 2040.0
-861.50 726.89 2076.8
-853.20 724.41 2069.8
-837.71 715.77 2045.1
-828.08 712.04 2034.4
-830.96 719.10 2054.6
-840.14 731.73 2090.7
-834.34 731.40 2089.7
-820.82 724.25 2069.3
-832.15 739.08 2111.7
-848.13 758.26 2166.5
-836.98 753.28 2152.2
-819.38 742.39 2121.1
-805.67 734.90 2099.7
-793.40 728.63 2081.8
-801.40 741.02 2117.2
-810.91 754.98 2157.1
-803.28 753.07 2151.6
-796.00 751.46 2147.0
-790.37 751.41 2146.9
-778.23 745.11 2128.9
-761.62 734.42 2098.3
-758.68 736.85 2105.3
-767.22 750.54 2144.4
-756.18 745.15 2129.0
-737.01 731.59 2090.3
-743.10 743.10 2123.1
-763.99 769.70 2199.1
-773.39 785.02 2242.9
-754.29 771.43 2204.1
-745.14 767.90 2194.0
-758.17 787.33 2249.5
-738.42 772.76 2207.9
-718.86 758.17 2166.2
-724.13 769.74 2199.3
-720.39 771.85 2205.3
-716.92 774.28 2212.2
-715.45 778.91 2225.5
-725.72 796.52 2275.8
-732.04 810.04 2314.4
-701.54 782.71 2236.3
-680.70 765.79 2188.0
-693.37 786.60 2247.4
-707.97 809.96 2314.2
-707.10 815.89 2331.1
-707.52 823.41 2352.6
-712.98 836.97 2391.4
-1240.25 818.68 2356.6
-1216.27 806.83 2322.4
-1193.32 795.55 2290.0
-1162.58 778.93 2242.1
-1142.99 769.65 2215.4
-1130.93 765.37 2203.1
-1115.87 759.02 2184.8
-1098.72 751.16 2162.2
-1083.81 744.77 2143.8
-1089.15 752.30 2165.5
-1115.76 774.67 2229.9
-1131.88 789.95 2273.9
-1099.50 771.38 2220.4
-1069.88 754.55 2171.9
-1080.79 766.27 2205.7
-1079.00 769.07 2213.8
-1072.17 768.30 2211.5
-1069.50 770.50 2217.9
-1056.89 765.53 2203.6
-1034.89 753.67 2169.4
-1007.31 737.59 2123.1
-1001.49 737.36 2122.5
-1007.43 745.83 2146.9
-986.24 734.20 2113.4
-957.15 716.53 2062.5
-951.86 716.57 2062.6
-961.28 727.75 2094.8
-948.39 722.07 2078.5
-907.40 702.84 2023.1
-943.70 735.21 2116.3
-932.86 731.01 2104.2
-891.31 702.56 2022.3
-882.63 699.84 2014.5
-907.85 724.11 2084.3
-913.44 732.94 2109.7
-892.55 720.49 2073.9
-887.18 720.50 2073.9
-886.28 724.16 2084.5
-878.29 722.03 2078.3
-876.58 725.07 2087.1
-878.87 731.48 2105.5
-883.63 740.04 2130.2
-868.67 732.09 2107.3
-844.44 716.17 2061.5
-831.53 709.71 2042.9
-829.76 712.75 2051.6
-838.25 724.68 2086.0
-830.69 722.81 2080.6
-829.82 726.77 2092.0
-853.67 752.58 2166.3
-838.95 749.46 2157.3
-827.50 744.20 2142.1
-819.53 742.01 2135.8
-806.16 734.87 2115.3
-813.09 746.26 2148.1
-826.55 763.84 2198.7
-813.42 762.23 2194.1
-804.08 758.78 2184.1
-795.76 756.25 2176.9
-782.60 749.06 2156.2
-776.31 748.38 2154.2
-782.50 759.82 2187.1
-777.73 760.70 2189.6
-764.09 752.85 2167.1
-760.28 754.65 2172.2
-772.97 772.97 2225.0
-783.24 789.13 2271.5
-764.69 776.27 2234.5
-742.63 759.64 2186.6
-740.22 762.99 2196.3
-734.14 762.59 2195.1
-730.16 764.38 2200.2
-740.99 781.84 2250.5
-744.22 791.47 2278.2
-733.55 786.37 2263.5
-724.98 783.45 2255.1
-719.05 783.35 2254.9
-708.82 778.54 2241.0
-700.07 775.28 2231.6
-701.23 783.04 2254.0
-694.17 781.67 2250.0
-686.56 779.66 2244.2
-696.61 797.83 2296.5
-708.60 818.55 2356.2
-704.56 820.97 2363.1
-697.27 819.60 2359.2
-1246.66 804.89 2334.3
-1228.82 797.23 2312.1
-1222.68 797.14 2311.8
-1198.72 785.37 2277.7
-1189.55 783.22 2271.4
-1180.83 781.35 2266.0
-1160.25 771.57 2237.6
-1150.31 768.80 2229.6
-1144.32 768.66 2229.2
-1132.68 764.70 2217.7
-1127.15 764.85 2218.1
-1125.92 767.93 2227.1
-1116.91 765.72 2220.7
-1128.89 777.94 2256.1
-1135.17 786.34 2280.5
-1092.17 760.51 2205.6
-1052.43 736.70 2136.5
-1055.02 742.42 2153.1
-1078.04 762.65 2211.8
-1095.80 779.37 2260.2
-1075.60 769.11 2230.5
-1046.03 752.01 2180.9
-1045.03 755.38 2190.7
-1035.81 752.80 2183.2
-1010.31 738.30 2141.2
-997.97 733.32 2126.7
-987.30 729.51 2115.6
-969.85 720.61 2089.9
-960.90 717.98 2082.2
-966.31 726.10 2105.8
-970.03 733.03 2125.9
-946.06 719.00 2085.2
-916.38 700.45 2031.4
-935.34 719.08 2085.4
-959.50 741.94 2151.7
-935.43 727.55 2110.0
-899.23 703.51 2040.3
-893.95 703.52 2040.3
-901.61 713.78 2070.0
-890.58 709.26 2056.9
-885.25 709.27 2057.0
-895.67 721.96 2093.8
-895.10 725.90 2105.2
-887.06 723.79 2099.1
-879.40 721.98 2093.8
-877.28 724.71 2101.7
-872.56 725.31 2103.5
-848.94 710.12 2059.4
-838.52 705.85 2047.0
-838.21 710.08 2059.3
-825.34 703.66 2040.7
-820.01 703.62 2040.6
-826.33 713.65 2069.7
-838.13 728.57 2112.9
-841.00 735.88 2134.1
-824.68 726.38 2106.6
-817.11 724.51 2101.2
-820.54 732.43 2124.1
-822.50 739.14 2143.6
-819.61 741.56 2150.6
-800.52 729.24 2114.9
-788.62 723.36 2097.8
-800.10 738.98 2143.1
-804.08 747.85 2168.9
-789.87 739.80 2145.5
-775.10 731.12 2120.3
-777.00 738.15 2140.7
-785.89 751.97 2180.8
-782.75 754.39 2187.8
-769.37 746.91 2166.1
-759.26 742.51 2153.4
-758.32 747.08 2166.6
-759.80 754.13 2187.1
-759.94 759.94 2203.9
-775.40 781.27 2265.8
-767.78 785.49 2278.0
-744.62 767.71 2226.4
-732.78 761.41 2208.2
-736.48 771.28 2236.8
-744.76 786.14 2279.9
-739.07 786.37 2280.6
-729.30 782.23 2268.5
-723.62 782.45 2269.2
-729.11 794.84 2305.1
-737.26 810.38 2350.2
-724.04 802.48 2327.3
-700.84 783.29 2271.6
-687.35 774.72 2246.8
-691.89 786.51 2281.0
-703.92 807.09 2340.6
-699.12 808.55 2344.9
-686.75 801.21 2323.6
-691.04 813.34 2358.8
-697.79 828.63 2403.1
-1223.91 791.94 2314.1
-1202.61 781.99 2285.0
-1195.64 781.31 2283.0
-1182.92 776.84 2270.0
-1159.68 765.39 2236.5
-1170.79 776.60 2269.3
-1185.25 790.17 2308.9
-1155.60 774.31 2262.6
-1132.64 762.80 2229.0
-1138.73 770.83 2252.4
-1137.41 773.91 2261.4
-1130.91 773.47 2260.1
-1119.30 769.52 2248.6
-1110.28 767.31 2242.1
-1102.55 765.98 2238.3
-1104.92 771.69 2254.9
-1128.58 792.41 2315.5
-1100.39 780.92 2281.9
-1066.14 760.71 2222.8
-1060.95 761.11 2224.0
-1064.75 768.02 2244.2
-1050.93 762.22 2227.3
-1024.20 746.93 2182.6
-1000.48 733.69 2143.9
-983.76 725.46 2119.8
-975.15 723.14 2113.1
-972.93 725.58 2120.2
-971.47 728.60 2129.0
-974.31 734.91 2147.5
-971.95 737.34 2154.6
-957.46 730.54 2134.7
-949.65 728.80 2129.6
-950.37 733.62 2143.7
-937.56 727.99 2127.2
-918.68 717.55 2096.7
-912.13 716.68 2094.2
-905.21 715.50 2090.7
-904.71 719.41 2102.2
-903.78 723.03 2112.7
-891.23 717.34 2096.1
-875.04 708.62 2070.7
-859.33 700.19 2046.0
-859.89 705.00 2060.1
-858.91 708.60 2070.6
-840.08 697.43 2037.9
-834.77 697.40 2037.9
-838.80 705.23 2060.7
-830.21 702.48 2052.7
-818.81 697.31 2037.6
-817.37 700.60 2047.2
-822.20 709.35 2072.8
-817.14 709.62 2073.6
-801.99 701.08 2048.6
-796.28 700.73 2047.6
-803.61 711.93 2080.3
-809.77 722.23 2110.4
-813.41 730.41 2134.3
-801.09 724.27 2116.4
-785.16 714.77 2088.6
-793.34 727.23 2125.0
-799.69 738.17 2157.0
-787.14 731.71 2138.1
-767.48 718.49 2099.5
-763.59 719.95 2103.8
-770.97 732.14 2139.4
-766.31 732.99 2141.9
-755.27 727.71 2126.4
-747.78 725.79 2120.8
-755.40 738.62 2158.3
-765.03 753.61 2202.1
-761.42 755.70 2208.2
-772.57 772.57 2257.5
-768.64 780.46 2280.6
-735.81 752.92 2200.1
-713.24 735.53 2149.3
-724.53 753.05 2200.5
-739.69 774.92 2264.4
-727.00 767.71 2243.3
-709.46 755.23 2206.8
-711.44 763.49 2231.0
-725.91 785.41 2295.0
-735.53 802.39 2344.7
-722.87 795.16 2323.5
-714.24 792.27 2315.1
-717.05 802.12 2343.9
-710.06 801.09 2340.8
-709.64 807.53 2359.7
-715.38 821.13 2399.4
-1220.39 791.44 2330.3
-1185.00 772.31 2274.0
-1143.67 749.10 2205.6
-1138.62 749.54 2206.9
-1152.79 762.70 2245.7
-1124.13 747.52 2201.0
-1119.50 748.23 2203.1
-1143.35 768.10 2261.6
-1152.76 778.41 2291.9
-1156.47 784.96 2311.2
-1127.70 769.42 2265.5
-1102.08 755.88 2225.6
-1097.77 756.88 2228.6
-1102.70 764.30 2250.4
-1107.95 772.03 2273.1
-1095.15 767.19 2258.9
-1094.88 771.12 2270.5
-1091.24 772.72 2275.2
-1070.70 762.29 2244.5
-1059.31 758.30 2232.7
-1047.14 753.71 2219.2
-1021.22 739.12 2176.2
-997.91 726.26 2138.4
-982.81 719.26 2117.8
-964.59 709.89 2090.2
-953.25 705.52 2077.3
-967.36 720.02 2120.0
-984.43 736.92 2169.8
-988.71 744.37 2191.7
-980.77 742.66 2186.7
-947.57 721.69 2124.9
-925.47 708.98 2087.5
-933.57 719.40 2118.2
-935.78 725.37 2135.8
-930.67 725.70 2136.7
-925.55 726.03 2137.7
-910.61 718.62 2115.9
-895.77 711.18 2094.0
-889.60 710.60 2092.3
-880.47 707.62 2083.5
-878.02 710.01 2090.5
-891.35 725.26 2135.4
-881.80 721.98 2125.8
-853.75 703.41 2071.1
-838.96 695.59 2048.1
-833.98 695.87 2048.9
-835.79 701.85 2066.5
-835.38 706.03 2078.8
-820.05 697.58 2053.9
-810.82 694.23 2044.1
-830.64 715.88 2107.8
-839.74 728.52 2145.0
-814.11 710.99 2093.4
-801.08 704.31 2073.8
-810.68 717.56 2112.8
-816.69 727.80 2142.9
-812.11 728.67 2145.5
-803.82 726.21 2138.2
-807.56 734.66 2163.1
-809.86 741.90 2184.4
-804.81 742.47 2186.1
-791.57 735.43 2165.4
-783.63 733.25 2159.0
-786.37 741.11 2182.1
-785.79 745.93 2196.3
-778.44 744.35 2191.7
-754.65 726.90 2140.3
-746.50 724.39 2132.9
-766.51 749.35 2206.4
-772.83 761.21 2241.3
-760.18 754.42 2221.3
-747.92 747.92 2202.2
-745.78 751.51 2212.7
-727.28 738.56 2174.6
-721.18 743.89 2190.3
-735.21 764.38 2250.6
-720.19 754.76 2222.3
-700.94 740.51 2180.4
-702.70 748.41 2203.6
-711.81 764.32 2250.4
-714.42 773.46 2277.4
-710.69 775.83 2284.3
-711.12 782.83 2304.9
-718.41 797.55 2348.3
-715.27 800.86 2358.0
-695.37 785.29 2312.2
-681.13 775.90 2284.5
-681.84 783.51 2307.0
-689.92 799.82 2355.0
-1239.84 793.98 2355.8
-1199.82 772.16 2291.0
-1177.78 761.75 2260.1
-1148.36 746.44 2214.7
-1110.03 732.51 2173.4
-1134.09 752.21 2231.8
-1156.18 770.79 2286.9
-1162.10 778.73 2310.5
-1170.93 788.71 2340.1
-1146.34 776.17 2302.9
-1109.17 754.93 2239.9
-1093.83 748.41 2220.5
-1084.88 746.21 2214.0
-1078.05 745.46 2211.8
-1073.32 746.16 2213.9
-1081.46 755.86 2242.7
-1091.95 767.32 2276.7
-1083.35 765.41 2271.0
-1049.34 745.43 2211.7
-1015.99 725.71 2153.2
-996.70 715.86 2124.0
-979.56 707.46 2099.1
-981.85 713.07 2115.7
-982.85 717.81 2129.8
-965.85 709.38 2104.8
-974.75 719.98 2136.2
-991.40 736.47 2185.1
-995.26 743.59 2206.3
-983.38 738.96 2192.5
-945.86 714.90 2121.1
-912.53 693.74 2058.3
-910.69 696.41 2066.3
-917.24 705.57 2093.4
-915.66 708.54 2102.3
-915.17 712.41 2113.7
-904.43 708.29 2101.5
-890.74 701.79 2082.2
-886.84 702.98 2085.8
-875.86 698.54 2072.6
-871.60 699.43 2075.2
-884.23 713.98 2118.4
-873.99 710.12 2106.9
-847.79 693.16 2056.6
-834.47 686.59 2037.1
-831.67 688.65 2043.2
-835.64 696.37 2066.2
-841.64 705.90 2094.4
-834.42 704.38 2089.9
-816.65 693.89 2058.8
-829.11 709.11 2104.0
-855.28 736.33 2184.7
-846.14 733.32 2175.8
-824.67 719.51 2134.8
-825.59 725.18 2151.6
-827.45 731.76 2171.2
-819.09 729.33 2163.9
-807.07 723.58 2146.9
-805.46 727.15 2157.5
-804.46 731.33 2169.9
-795.82 728.57 2161.7
-796.39 734.26 2178.6
-803.05 745.69 2212.5
-798.56 746.85 2215.9
-790.52 744.69 2209.5
-782.82 742.82 2204.0
-758.35 724.89 2150.8
-746.72 719.06 2133.5
-763.93 741.13 2199.0
-772.45 755.03 2240.2
-762.57 751.01 2228.3
