ply
format ascii 1.0
element vertex 2309
property float x
property float y
property float z
end_header
-39.42 896.83 1900.7
-33.56 872.55 1849.2
-28.98 878.98 1862.8
-24.65 897.36 1901.8
-19.83 902.07 1911.8
-14.82 899.10 1905.5
-9.87 898.26 1903.7
-4.92 895.28 1897.4
0.00 885.90 1877.5
4.86 884.19 1873.9
9.75 887.59 1881.1
14.65 888.86 1883.8
19.52 887.99 1881.9
24.00 873.46 1851.1
28.39 861.06 1824.9
33.40 868.28 1840.2
38.63 878.91 1862.7
43.31 875.89 1856.3
47.70 868.16 1839.9
52.75 872.80 1849.7
57.21 867.63 1838.8
60.66 849.23 1799.8
64.66 840.64 1781.6
69.98 849.10 1799.5
75.05 853.72 1809.3
79.10 846.82 1794.7
84.16 851.00 1803.5
90.08 862.85 1828.6
94.76 862.33 1827.5
97.52 845.19 1791.2
100.81 834.01 1767.5
105.92 838.16 1776.3
111.64 846.58 1794.2
118.67 863.93 1830.9
125.53 878.72 1862.3
129.39 872.20 1848.5
131.74 856.32 1814.8
136.56 857.03 1816.3
141.74 859.87 1822.3
145.21 852.50 1806.7
151.51 861.71 1826.2
157.14 866.66 1836.7
164.10 878.42 1861.6
172.82 898.66 1904.5
177.81 898.92 1905.1
181.50 892.78 1892.1
186.54 893.45 1893.5
193.87 904.74 1917.4
198.80 904.54 1917.0
198.65 881.83 1868.9
201.89 874.84 1854.1
210.56 891.19 1888.7
218.48 903.72 1915.3
226.12 914.53 1938.2
236.56 935.94 1983.6
241.86 936.56 1984.9
245.60 931.23 1973.6
251.79 935.22 1982.0
254.07 924.80 1959.9
263.47 940.22 1992.6
-117.85 1015.77 2164.6
-110.66 1001.45 2134.1
-105.40 1004.11 2139.8
-97.88 984.26 2097.5
-77.26 932.31 1986.8
-70.38 909.88 1939.0
-65.69 914.62 1949.1
-60.56 913.41 1946.5
-54.74 900.73 1919.5
-49.02 887.19 1890.6
-44.16 888.08 1892.5
-39.84 901.29 1920.7
-34.87 901.75 1921.7
-29.65 894.57 1906.3
-24.87 900.11 1918.2
-19.92 901.41 1920.9
-14.84 895.06 1907.4
-9.83 889.97 1896.5
-4.87 881.91 1879.4
0.00 883.61 1883.0
4.94 893.80 1904.7
9.79 885.72 1887.5
14.49 874.24 1863.0
19.61 887.39 1891.1
24.50 886.95 1890.1
28.63 863.56 1840.3
33.23 859.28 1831.1
38.26 865.61 1844.6
42.62 857.08 1826.5
46.27 837.50 1784.7
50.38 828.96 1766.5
56.25 848.44 1808.0
61.48 856.02 1824.2
64.47 833.46 1776.1
68.57 827.45 1763.3
75.28 851.57 1814.7
81.17 864.23 1841.7
85.47 859.48 1831.6
90.52 862.36 1837.7
94.95 859.30 1831.2
97.62 841.38 1793.0
101.02 831.10 1771.1
106.14 835.24 1779.9
112.37 847.43 1805.9
119.96 868.52 1850.8
124.50 866.70 1847.0
125.98 844.53 1799.7
130.49 843.56 1797.6
137.58 858.68 1829.9
146.44 883.55 1882.9
154.06 899.50 1916.8
158.18 894.68 1906.6
161.62 886.48 1889.1
162.99 867.68 1849.0
166.03 858.63 1829.7
174.78 878.78 1872.7
182.37 892.15 1901.2
183.18 872.50 1859.3
186.13 863.85 1840.9
193.67 876.36 1867.5
196.26 866.44 1846.4
202.48 872.58 1859.5
213.88 900.28 1918.5
218.80 900.06 1918.0
223.40 898.58 1914.9
232.93 916.52 1953.1
237.71 915.44 1950.8
239.91 904.65 1927.8
244.38 902.72 1923.7
251.17 909.23 1937.6
265.75 943.15 2009.9
-123.88 1013.57 2171.9
-116.24 996.37 2135.1
-111.10 999.87 2142.6
-93.16 931.63 1996.3
-87.76 929.18 1991.1
-82.68 930.11 1993.1
-76.60 919.21 1969.7
-71.73 922.24 1976.2
-66.58 921.88 1975.5
-61.04 915.61 1962.0
-55.10 901.71 1932.2
-49.30 887.39 1901.6
-43.99 879.83 1885.3
-39.29 884.10 1894.5
-34.97 899.36 1927.2
-30.23 907.00 1943.6
-25.23 908.30 1946.3
-20.13 905.78 1941.0
-14.80 888.04 1902.9
-9.67 870.71 1865.8
-4.84 871.14 1866.7
0.00 881.29 1888.5
4.91 884.25 1894.8
9.66 869.02 1862.2
14.26 855.90 1834.1
19.25 866.03 1855.8
24.70 889.27 1905.6
29.73 891.78 1911.0
34.07 876.10 1877.4
38.65 869.72 1863.7
43.40 867.99 1860.0
47.42 853.57 1829.1
50.45 825.62 1769.2
54.98 824.72 1767.3
62.22 861.44 1845.9
67.62 869.41 1863.0
69.35 832.14 1783.2
73.14 822.78 1763.1
79.89 845.94 1812.7
85.09 850.93 1823.4
90.84 860.56 1844.1
96.12 865.11 1853.8
99.39 851.92 1825.6
103.49 846.76 1814.5
108.88 852.14 1826.0
115.35 865.12 1853.8
121.25 873.02 1870.8
124.07 858.97 1840.7
126.17 841.12 1802.4
131.35 844.37 1809.4
137.44 853.10 1828.1
145.18 871.10 1866.6
154.21 895.41 1918.7
159.91 899.48 1927.4
163.41 891.31 1909.9
164.66 871.75 1868.0
167.02 858.94 1840.6
174.87 874.37 1873.6
184.20 896.10 1920.2
186.65 884.12 1894.5
186.41 860.35 1843.6
190.77 858.48 1839.6
194.54 854.08 1830.2
201.50 863.57 1850.5
211.58 885.67 1897.9
215.01 879.57 1884.8
220.15 880.61 1887.0
230.15 900.58 1929.8
234.65 898.67 1925.7
236.33 886.25 1899.1
245.42 901.56 1931.9
257.37 926.51 1985.4
262.92 927.94 1988.4
267.88 927.26 1987.0
-126.22 982.33 2116.8
-121.89 991.70 2136.9
-117.99 1005.69 2167.1
-110.64 990.25 2133.8
-91.23 907.18 1954.8
-85.85 903.91 1947.8
-82.16 919.13 1980.6
-77.35 923.00 1988.9
-71.83 918.44 1979.1
-66.13 910.52 1962.0
-60.56 903.43 1946.7
-54.59 888.34 1914.2
-49.40 884.18 1905.3
-44.54 885.91 1909.0
-39.22 877.53 1890.9
-34.42 880.09 1896.5
-29.97 894.02 1926.5
-25.16 900.78 1941.0
-20.09 899.12 1937.4
-14.79 882.30 1901.2
-9.77 874.31 1884.0
-4.94 884.42 1905.8
0.00 870.95 1876.8
4.74 849.06 1829.6
9.51 851.16 1834.1
14.35 856.20 1845.0
19.36 866.28 1866.7
24.86 889.83 1917.4
29.61 883.49 1903.8
33.58 858.63 1850.2
37.96 849.33 1830.2
42.45 844.24 1819.2
47.56 851.35 1834.5
52.03 846.67 1824.4
55.32 825.16 1778.1
60.96 839.41 1808.8
67.29 860.38 1854.0
70.22 838.02 1805.8
72.94 816.07 1758.5
78.30 824.41 1776.5
84.63 841.57 1813.4
91.69 863.78 1861.3
97.11 869.15 1872.9
100.62 857.70 1848.2
104.01 846.25 1823.5
108.67 845.72 1822.4
115.46 861.16 1855.7
121.73 871.55 1878.0
126.70 872.27 1879.6
131.36 870.88 1876.6
135.02 863.19 1860.0
139.28 859.69 1852.5
144.34 861.23 1855.8
150.51 869.07 1872.7
156.31 874.37 1884.1
159.70 866.24 1866.6
163.63 861.47 1856.3
168.66 862.56 1858.7
173.78 864.07 1861.9
180.31 872.29 1879.6
188.26 886.78 1910.9
193.72 889.11 1915.9
197.52 883.89 1904.6
200.78 876.57 1888.9
200.52 854.59 1841.5
203.13 845.59 1822.1
209.66 852.93 1837.9
218.05 867.37 1869.0
229.94 894.78 1928.1
236.75 901.66 1942.9
236.23 880.93 1898.3
242.80 886.97 1911.3
257.38 921.43 1985.5
266.27 934.55 2013.8
268.50 924.26 1991.6
278.90 941.96 2029.8
-134.64 998.60 2163.9
-126.02 975.30 2113.4
-122.11 987.97 2140.9
-118.50 1004.41 2176.5
-111.50 992.39 2150.4
-93.60 925.61 2005.7
-84.97 889.70 1927.9
-78.47 873.03 1891.8
-73.68 874.36 1894.7
-68.15 866.47 1877.6
-64.36 881.20 1909.5
-60.37 895.50 1940.5
-54.57 882.99 1913.4
-49.47 880.53 1908.0
-45.14 892.72 1934.5
-40.16 893.60 1936.4
-34.62 880.23 1907.4
-29.62 878.59 1903.8
-24.84 884.48 1916.6
-19.81 881.57 1910.3
-14.94 886.61 1921.2
-10.11 900.04 1950.3
-5.04 897.11 1944.0
0.00 870.71 1886.8
4.78 850.60 1843.2
9.60 854.36 1851.3
14.50 860.22 1864.0
19.58 871.09 1887.6
24.59 875.26 1896.6
28.61 848.84 1839.4
32.84 834.98 1809.4
37.60 836.63 1812.9
41.73 825.28 1788.3
46.46 826.91 1791.9
52.13 843.61 1828.1
56.90 843.98 1828.8
61.54 842.66 1826.0
66.70 848.05 1837.7
70.22 833.32 1805.8
73.77 820.69 1778.4
78.93 826.48 1790.9
84.88 839.37 1818.9
92.40 865.66 1875.8
98.52 876.87 1900.1
100.62 852.91 1848.2
102.40 828.54 1795.4
107.05 828.44 1795.2
113.94 845.06 1831.2
120.20 855.83 1854.5
125.23 857.38 1857.9
130.79 862.27 1868.5
135.35 860.47 1864.6
140.37 861.59 1867.0
146.10 866.88 1878.5
149.06 855.87 1854.6
151.43 842.35 1825.3
157.30 848.46 1838.6
163.79 857.50 1858.1
166.93 848.98 1839.7
170.40 842.55 1825.8
178.49 858.66 1860.7
187.64 878.94 1904.6
193.54 883.34 1914.1
197.99 881.06 1909.2
202.42 878.78 1904.3
203.57 862.74 1869.5
206.25 853.78 1850.1
212.95 861.50 1866.8
216.16 855.04 1852.8
222.52 861.07 1865.9
235.33 891.25 1931.3
241.96 897.27 1944.3
247.39 898.70 1947.4
261.02 929.25 2013.6
-135.17 996.88 2172.4
-128.58 989.51 2156.3
-121.61 978.39 2132.1
-115.45 973.09 2120.5
-109.17 966.12 2105.3
-100.72 938.31 2044.7
-93.40 918.40 2001.4
-86.02 895.57 1951.6
-77.99 862.73 1880.0
-67.49 853.28 1859.5
-64.73 881.28 1920.5
-60.97 899.26 1959.7
-55.35 890.57 1940.7
-49.73 880.19 1918.1
-44.95 883.99 1926.4
-40.22 889.87 1939.2
-34.86 881.57 1921.1
-29.62 873.68 1903.9
-24.68 873.71 1904.0
-19.53 864.13 1883.1
-14.63 862.90 1880.4
-9.91 876.68 1910.4
-4.94 873.76 1904.1
0.00 866.68 1888.6
4.90 867.09 1889.5
9.75 862.91 1880.4
14.58 860.40 1875.0
19.42 859.13 1872.2
24.01 849.93 1852.2
28.39 837.40 1824.8
33.10 836.95 1823.9
38.77 857.76 1869.2
44.02 865.65 1886.4
48.08 851.01 1854.5
52.88 850.96 1854.4
58.11 857.16 1867.9
63.29 861.68 1877.8
67.79 857.03 1867.6
70.65 833.62 1816.6
74.14 820.21 1787.4
79.25 825.14 1798.1
84.46 830.48 1809.8
91.06 848.31 1848.6
96.17 851.13 1854.8
97.26 819.79 1786.5
100.90 811.78 1769.0
107.53 827.51 1803.3
113.60 837.81 1825.7
118.97 842.28 1835.5
122.06 830.92 1810.7
125.40 822.06 1791.4
133.58 844.40 1840.1
142.21 867.99 1891.5
148.50 876.17 1909.3
152.26 869.36 1894.5
154.74 855.90 1865.2
160.48 860.74 1875.7
166.75 868.06 1891.7
169.81 858.76 1871.4
172.01 845.70 1842.9
178.57 854.26 1861.6
187.29 872.36 1901.0
192.81 875.08 1907.0
196.40 869.08 1893.9
199.73 862.24 1879.0
202.98 855.41 1864.1
207.96 856.04 1865.5
216.67 871.60 1899.4
221.85 872.63 1901.6
223.50 859.97 1874.0
231.16 870.53 1897.0
242.20 893.10 1946.2
252.57 912.33 1988.1
257.88 912.91 1989.4
262.25 910.18 1983.4
271.70 924.82 2015.4
278.08 928.70 2023.8
-127.68 977.01 2141.2
-104.75 921.79 2020.2
-97.69 904.89 1983.1
-91.54 895.03 1961.5
-85.90 889.31 1949.0
-79.31 872.38 1911.9
-74.46 873.70 1914.8
-71.29 896.18 1964.0
-65.92 892.51 1956.0
-59.90 878.46 1925.2
-55.09 881.42 1931.7
-50.13 882.31 1933.6
-45.42 888.16 1946.5
-40.73 896.09 1963.8
-34.96 879.11 1926.6
-29.40 862.54 1890.3
-24.53 863.40 1892.2
-19.44 855.53 1874.9
-14.42 846.00 1854.1
-9.68 851.82 1866.8
-4.95 870.51 1907.8
0.00 885.87 1941.4
5.03 885.04 1939.6
10.00 879.64 1927.8
14.80 868.41 1903.2
19.47 856.77 1877.7
24.32 855.92 1875.8
29.02 851.33 1865.7
34.07 856.70 1877.5
40.11 882.39 1933.8
45.29 885.67 1941.0
49.28 867.36 1900.9
53.07 849.06 1860.8
57.04 836.55 1833.4
62.52 846.45 1855.0
67.39 847.22 1856.7
71.42 838.02 1836.6
76.22 838.37 1837.3
81.09 839.53 1839.9
86.07 841.53 1844.3
91.73 849.73 1862.2
95.80 843.01 1847.5
98.65 826.74 1811.9
104.21 833.69 1827.1
109.26 836.07 1832.3
113.66 833.48 1826.6
119.44 840.82 1842.7
122.91 832.00 1823.4
127.49 831.05 1821.3
136.74 859.51 1883.7
142.49 864.76 1895.2
145.68 854.68 1873.1
152.34 864.88 1895.4
157.98 868.87 1904.2
161.80 862.92 1891.1
166.03 859.45 1883.5
170.55 857.63 1879.6
174.37 852.50 1868.3
178.31 848.19 1858.9
184.26 853.39 1870.3
191.35 863.55 1892.5
196.50 864.60 1894.8
201.08 863.16 1891.7
205.84 862.55 1890.3
210.18 860.29 1885.4
218.22 872.88 1913.0
225.03 880.10 1928.8
228.03 872.45 1912.0
230.83 864.39 1894.4
236.36 866.64 1899.3
245.23 880.84 1930.4
248.88 876.06 1919.9
252.59 871.70 1910.4
261.61 885.46 1940.5
273.64 908.69 1991.4
-110.38 919.82 2027.4
-103.72 907.54 2000.3
-97.20 895.26 1973.2
-90.23 877.19 1933.4
-83.90 863.65 1903.6
-78.59 859.60 1894.6
-74.75 872.06 1922.1
-71.79 897.32 1977.8
-66.63 896.98 1977.0
-59.50 867.72 1912.5
-53.77 855.38 1885.3
-49.38 864.11 1904.6
-45.14 877.78 1934.7
-40.17 878.65 1936.6
-34.24 855.97 1886.6
-28.92 843.60 1859.4
-24.27 849.41 1872.2
-19.51 853.57 1881.3
-14.68 856.47 1887.7
-9.86 863.10 1902.3
-5.04 882.11 1944.2
0.00 897.81 1978.9
5.13 897.81 1978.8
10.14 887.47 1956.1
14.92 870.52 1918.7
19.81 866.79 1910.5
24.94 872.96 1924.1
29.48 859.72 1894.9
34.26 856.38 1887.5
39.71 868.74 1914.8
44.12 857.96 1891.0
47.96 839.32 1849.9
51.59 820.69 1808.9
55.71 812.37 1790.5
61.33 825.53 1819.5
67.39 842.40 1856.7
72.73 848.53 1870.2
77.12 843.50 1859.1
81.57 839.71 1850.8
85.98 835.91 1842.4
91.06 838.71 1848.6
96.08 840.69 1852.9
100.08 833.99 1838.2
105.45 838.84 1848.9
110.34 839.56 1850.5
113.43 827.07 1822.9
117.78 824.49 1817.2
124.01 834.68 1839.7
131.56 852.70 1879.4
135.69 848.03 1869.1
135.93 820.28 1808.0
139.89 816.03 1798.6
147.23 831.14 1831.9
153.99 842.11 1856.1
159.16 844.02 1860.3
162.27 835.22 1840.9
165.53 827.65 1824.2
169.89 825.84 1820.2
174.40 824.85 1818.0
183.72 846.07 1864.8
194.11 870.99 1919.7
197.44 863.81 1903.9
200.12 854.16 1882.6
206.73 861.36 1898.5
213.11 867.33 1911.7
217.81 866.30 1909.4
221.33 860.74 1897.1
225.33 857.24 1889.4
228.85 852.09 1878.1
231.29 843.25 1858.6
236.85 845.90 1864.4
249.36 872.75 1923.6
263.00 902.45 1989.1
267.84 901.37 1986.7
274.52 906.44 1997.9
-110.93 919.15 2037.5
-104.62 910.22 2017.7
-98.51 902.10 1999.7
-91.84 887.81 1968.1
-84.62 866.13 1920.0
-78.52 853.88 1892.8
-74.11 859.70 1905.7
-70.60 877.45 1945.1
-65.87 881.62 1954.3
-59.13 857.43 1900.7
-53.53 846.80 1877.1
-49.28 857.54 1900.9
-44.91 868.27 1924.7
-39.85 866.67 1921.2
-34.55 858.89 1904.0
-29.70 861.39 1909.5
-24.75 861.42 1909.5
-19.77 859.79 1905.9
-14.80 858.58 1903.3
-9.89 860.65 1907.8
-4.97 863.94 1915.1
0.00 863.12 1913.3
5.01 871.76 1932.5
10.00 870.10 1928.8
14.85 861.05 1908.7
19.89 865.14 1917.8
25.07 872.52 1934.2
29.67 860.57 1907.7
33.83 840.80 1863.8
38.49 837.07 1855.6
42.83 827.98 1835.4
46.59 810.67 1797.1
51.87 820.49 1818.8
57.89 839.35 1860.6
61.94 829.01 1837.7
66.14 821.96 1822.1
72.45 840.39 1862.9
77.91 847.30 1878.3
81.85 837.77 1857.1
85.68 828.24 1836.0
89.89 823.23 1824.9
94.05 818.21 1813.8
99.48 824.28 1827.2
106.39 841.43 1865.2
111.43 842.96 1868.6
114.78 832.18 1844.7
117.37 816.88 1810.8
121.62 813.89 1804.2
128.25 826.49 1832.1
131.46 816.93 1810.9
135.38 812.28 1800.6
143.00 829.38 1838.5
148.25 832.11 1844.6
152.93 831.55 1843.3
159.00 838.37 1858.5
162.99 834.12 1849.0
167.67 833.55 1847.8
173.61 839.12 1860.1
177.18 833.22 1847.0
185.51 849.42 1883.0
194.66 868.49 1925.2
196.69 855.61 1896.7
202.24 858.28 1902.6
211.77 877.32 1944.8
213.62 864.43 1916.2
213.78 845.41 1874.1
223.34 863.60 1914.4
234.09 885.46 1962.8
235.80 872.97 1935.2
236.59 857.62 1901.1
243.41 864.34 1916.0
257.34 895.55 1985.2
269.12 918.16 2035.3
271.39 908.10 2013.0
272.92 896.01 1986.2
278.24 896.56 1987.5
289.24 915.05 2028.4
-128.16 963.97 2149.2
-118.24 929.76 2073.0
-109.50 902.08 2011.2
-104.39 903.00 2013.3
-99.18 903.10 2013.5
-93.04 894.20 1993.7
-86.19 877.11 1955.6
-79.73 862.06 1922.0
-75.00 865.00 1928.6
-70.24 867.93 1935.1
-64.43 857.36 1911.5
-58.42 842.29 1877.9
-53.46 840.70 1874.4
-49.05 848.53 1891.8
-44.53 855.94 1908.4
-40.51 876.03 1953.2
-35.98 889.16 1982.4
-30.78 887.55 1978.9
-25.49 881.85 1966.1
-20.22 874.51 1949.8
-15.06 868.39 1936.1
-9.90 856.12 1908.8
-4.88 843.85 1881.4
0.00 853.27 1902.4
5.04 872.09 1944.4
9.94 859.39 1916.1
14.55 838.92 1870.4
19.50 843.41 1880.4
24.59 850.75 1896.8
29.48 849.91 1894.9
34.06 841.69 1876.6
38.94 842.07 1877.4
43.55 837.12 1866.4
47.58 823.16 1835.3
53.04 834.16 1859.8
59.45 857.01 1910.8
63.97 851.23 1897.9
66.86 826.21 1842.1
71.60 825.74 1841.0
77.84 841.61 1876.4
82.61 840.72 1874.4
86.49 831.23 1853.3
90.74 826.24 1842.2
94.94 821.25 1831.0
100.37 826.87 1843.6
107.27 843.53 1880.7
112.29 844.65 1883.2
115.80 834.73 1861.1
118.54 820.32 1829.0
120.75 803.46 1791.4
125.19 802.11 1788.4
131.52 812.61 1811.8
138.73 827.58 1845.2
144.62 833.98 1859.4
147.95 825.68 1840.9
153.61 830.43 1851.5
160.63 842.11 1877.5
165.71 843.18 1879.9
171.29 846.69 1887.7
178.11 855.90 1908.3
182.75 854.50 1905.2
186.94 851.06 1897.5
192.18 852.51 1900.7
198.29 857.62 1912.1
207.65 876.16 1953.5
214.94 885.33 1973.9
214.54 863.14 1924.4
216.37 850.72 1896.7
227.90 876.14 1953.4
236.58 889.76 1983.8
236.03 868.78 1937.0
239.63 863.68 1925.6
249.51 880.93 1964.1
256.76 888.41 1980.8
260.27 882.88 1968.4
264.44 879.78 1961.5
268.33 875.87 1952.8
276.73 886.58 1976.7
291.58 917.15 2044.8
-135.60 971.80 2179.3
-127.25 951.60 2134.0
-116.69 912.27 2045.8
-107.87 883.49 1981.3
-102.70 883.19 1980.6
-98.65 893.05 2002.7
-93.47 893.14 2002.9
-87.16 881.84 1977.5
-81.21 872.96 1957.6
-75.00 860.02 1928.6
-69.01 847.87 1901.4
-64.00 846.72 1898.8
-58.68 841.08 1886.1
-53.79 841.13 1886.3
-49.43 850.14 1906.5
-44.55 851.40 1909.3
-40.26 865.70 1941.3
-35.45 871.03 1953.3
-30.02 860.47 1929.6
-25.07 862.53 1934.3
-20.07 862.96 1935.2
-15.12 866.64 1943.5
-10.05 864.21 1938.0
-4.95 851.60 1909.7
0.00 861.37 1931.6
5.12 881.33 1976.4
10.12 870.73 1952.6
14.58 836.10 1875.0
19.18 824.68 1849.4
24.30 836.06 1874.9
29.29 839.70 1883.1
33.79 830.31 1862.0
38.60 829.86 1861.0
44.10 842.85 1890.1
49.19 846.07 1897.3
53.87 842.35 1889.0
59.33 850.44 1907.1
64.58 854.45 1916.1
68.35 839.73 1883.1
72.16 827.45 1855.6
77.34 831.45 1864.6
82.41 833.82 1869.9
86.70 828.45 1857.8
91.24 825.92 1852.1
95.74 823.39 1846.5
99.57 815.56 1828.9
104.72 818.72 1836.0
110.23 824.31 1848.5
114.21 818.51 1835.5
118.89 817.99 1834.4
123.32 815.84 1829.5
128.56 818.97 1836.6
135.68 833.48 1869.1
139.14 825.22 1850.6
141.00 808.43 1812.9
149.12 827.38 1855.4
159.80 858.91 1926.1
162.19 845.36 1895.7
162.18 820.43 1839.8
167.49 823.12 1845.9
173.95 831.07 1863.7
181.71 844.70 1894.3
189.09 855.88 1919.3
193.84 854.88 1917.1
199.52 857.94 1924.0
203.79 854.91 1917.2
205.84 842.96 1890.4
209.47 837.90 1879.0
215.43 842.15 1888.5
223.14 852.88 1912.6
228.04 852.66 1912.1
230.39 843.13 1890.7
236.70 848.17 1902.0
245.25 860.89 1930.6
250.66 862.27 1933.7
255.72 862.44 1934.0
261.64 865.43 1940.7
269.46 874.47 1961.0
282.58 900.07 2018.4
293.92 919.18 2061.3
-130.79 931.88 2102.0
-124.16 923.10 2082.2
-115.60 898.52 2026.7
-108.22 881.23 1987.7
-101.94 871.61 1966.0
-97.08 873.73 1970.8
-92.49 878.68 1982.0
-86.80 873.10 1969.4
-80.87 864.27 1949.5
-74.68 851.38 1920.4
-68.71 839.30 1893.2
-63.75 838.55 1891.5
-58.82 838.21 1890.7
-54.26 843.53 1902.7
-50.23 858.97 1937.5
-45.55 865.50 1952.3
-40.13 857.84 1935.0
-34.44 841.27 1897.6
-29.25 833.60 1880.3
-24.52 838.49 1891.3
-19.52 834.45 1882.2
-14.63 833.66 1880.4
-10.06 860.02 1939.9
-5.12 876.23 1976.5
0.00 862.46 1945.4
5.03 860.02 1939.9
10.03 857.18 1933.5
14.56 830.01 1872.2
19.30 825.13 1861.2
24.62 842.13 1899.5
29.55 842.11 1899.5
33.96 829.51 1871.1
38.46 822.19 1854.6
43.59 828.22 1868.2
48.62 831.42 1875.4
53.19 826.92 1865.2
58.25 830.10 1872.4
63.04 829.24 1870.5
66.36 810.54 1828.3
69.64 793.87 1790.7
76.59 818.50 1846.2
83.66 841.51 1898.1
87.63 832.52 1877.9
91.86 826.76 1864.9
96.21 822.63 1855.5
99.92 813.63 1835.2
105.71 821.62 1853.3
111.86 831.64 1875.9
114.83 818.17 1845.5
118.48 810.37 1827.9
125.41 824.82 1860.5
133.47 845.33 1906.8
138.20 843.98 1903.7
138.93 819.18 1847.8
143.55 818.24 1845.7
154.69 853.27 1924.7
162.07 866.05 1953.5
160.94 833.97 1881.1
161.61 812.81 1833.4
167.74 819.52 1848.5
174.28 827.84 1867.3
181.97 840.99 1897.0
191.06 859.79 1939.4
197.61 866.46 1954.4
203.39 869.50 1961.3
207.85 866.89 1955.4
208.12 847.33 1911.3
209.98 835.03 1883.5
215.12 836.04 1885.8
222.08 843.89 1903.5
228.04 847.71 1912.1
231.50 842.25 1899.8
236.92 844.04 1903.9
244.45 853.08 1924.2
249.49 853.24 1924.6
254.05 851.80 1921.4
264.09 868.45 1958.9
276.57 892.33 2012.8
285.77 904.93 2041.2
292.26 908.67 2049.6
303.28 926.07 2088.9
-144.43 944.36 2142.7
-136.77 930.00 2110.1
-132.68 939.80 2132.3
-125.48 927.44 2104.3
-116.44 899.76 2041.5
-107.78 872.48 1979.6
-100.38 853.24 1935.9
-95.42 853.74 1937.1
-90.79 857.45 1945.5
-85.55 855.52 1941.1
-80.00 849.96 1928.5
-75.15 851.65 1932.3
-70.27 853.33 1936.1
-63.72 833.24 1890.5
-53.01 819.24 1858.8
-49.00 833.00 1890.0
-44.55 841.51 1909.3
-39.30 835.10 1894.8
-34.85 846.42 1920.5
-30.60 867.02 1967.2
-25.29 859.79 1950.8
-19.86 844.08 1915.1
-14.72 834.02 1892.3
-10.02 851.77 1932.6
-5.14 873.56 1982.0
0.00 865.90 1964.6
5.01 852.18 1933.5
9.86 838.06 1901.5
14.58 825.95 1874.0
19.67 836.02 1896.8
24.75 841.64 1909.6
29.29 829.92 1883.0
33.99 825.45 1872.9
38.86 825.82 1873.7
43.87 828.61 1880.0
48.74 828.56 1879.9
53.14 821.26 1863.4
57.94 820.80 1862.3
62.55 817.92 1855.8
65.66 797.30 1809.0
75.63 803.61 1823.3
83.78 837.79 1900.9
89.08 841.34 1908.9
92.72 829.57 1882.2
96.35 819.00 1858.2
100.46 813.27 1845.2
106.69 824.45 1870.6
112.84 834.01 1892.3
115.74 819.80 1860.1
119.36 811.64 1841.5
126.45 826.82 1876.0
133.73 841.99 1910.4
137.53 835.02 1894.6
139.81 819.60 1859.6
146.03 827.51 1877.5
152.49 836.22 1897.3
154.88 822.80 1866.9
158.83 818.22 1856.5
165.06 825.31 1872.5
171.37 832.38 1888.6
178.02 840.66 1907.4
181.97 836.07 1897.0
187.21 837.50 1900.2
195.04 850.17 1929.0
202.45 860.42 1952.2
208.53 864.64 1961.8
210.40 851.60 1932.2
211.90 837.76 1900.8
216.88 837.95 1901.2
222.50 840.55 1907.1
226.74 837.94 1901.2
232.49 840.93 1908.0
240.09 850.32 1929.3
244.68 848.89 1926.1
246.54 838.24 1901.9
253.20 844.01 1915.0
265.56 868.19 1969.8
276.58 887.15 2012.9
284.00 894.08 2028.6
293.44 907.01 2057.9
-132.75 934.76 2133.4
-123.25 905.63 2066.9
-116.76 896.92 2047.1
-110.22 887.01 2024.5
-101.57 858.25 1958.8
-95.64 850.73 1941.6
-91.13 855.63 1952.8
-85.88 853.71 1948.4
-79.69 841.76 1921.2
-74.22 836.22 1908.5
-69.81 842.70 1923.3
-63.66 827.52 1888.7
-57.88 815.15 1860.4
-53.79 826.43 1886.2
-49.31 833.30 1901.9
-44.40 833.75 1902.9
-39.51 834.59 1904.8
-35.35 853.48 1947.9
-31.03 873.98 1994.7
-25.63 866.38 1977.4
-19.88 839.92 1917.0
-14.55 819.47 1870.3
-9.89 835.53 1907.0
-5.07 857.21 1956.4
0.00 846.78 1932.6
4.91 829.92 1894.2
9.76 825.10 1883.1
14.60 822.28 1876.7
19.37 818.25 1867.5
23.96 809.80 1848.2
28.99 816.60 1863.7
34.39 830.21 1894.8
39.64 837.40 1911.2
45.11 846.99 1933.1
49.88 842.93 1923.8
54.13 831.65 1898.1
58.99 830.79 1896.1
63.59 826.72 1886.9
67.15 810.61 1850.1
70.77 797.31 1819.7
76.47 807.67 1843.4
83.50 830.05 1894.5
88.83 833.98 1903.4
92.49 822.67 1877.6
96.26 813.36 1856.3
100.41 808.05 1844.2
106.74 819.98 1871.5
112.94 829.89 1894.1
116.59 820.97 1873.7
120.95 817.65 1866.1
127.38 827.95 1889.6
133.98 838.64 1914.0
138.39 835.30 1906.4
141.32 823.56 1879.6
145.96 822.22 1876.6
150.94 822.88 1878.1
153.13 808.73 1845.8
157.03 804.18 1835.4
164.17 816.03 1862.5
171.54 828.27 1890.4
178.53 838.10 1912.8
182.84 835.13 1906.1
186.39 828.96 1892.0
192.92 835.98 1908.0
197.82 835.79 1907.6
201.27 829.61 1893.5
206.03 829.02 1892.1
210.58 827.63 1888.9
215.94 829.42 1893.0
221.75 832.81 1900.7
226.30 831.40 1897.5
232.05 834.37 1904.3
238.39 839.34 1915.6
241.44 832.73 1900.6
247.36 836.09 1908.2
258.61 856.97 1955.9
266.06 864.69 1973.5
271.22 864.84 1973.8
284.14 889.26 2029.6
-131.11 917.75 2107.1
-123.15 899.53 2065.2
-117.86 900.04 2066.4
-111.47 891.77 2047.4
-103.09 865.95 1988.2
-96.37 852.08 1956.3
-91.18 850.98 1953.8
-85.67 846.67 1943.9
-79.16 831.19 1908.3
-73.79 826.47 1897.5
-69.51 834.12 1915.1
-64.70 836.18 1919.8
-60.07 841.03 1930.9
-55.12 841.88 1932.9
-49.85 837.54 1922.9
-44.76 835.59 1918.4
-39.72 834.03 1914.9
-34.80 835.27 1917.7
-29.93 838.09 1924.2
-24.91 836.92 1921.5
-19.45 816.98 1875.7
-9.78 821.80 1886.8
-5.04 847.36 1945.5
0.00 840.97 1930.8
4.92 827.39 1899.6
9.83 825.39 1895.0
14.72 824.18 1892.2
19.55 820.97 1884.9
24.25 814.96 1871.1
29.39 822.92 1889.4
34.69 832.47 1911.3
39.79 835.63 1918.5
45.15 842.78 1934.9
49.81 836.74 1921.1
53.74 820.73 1884.3
58.19 814.68 1870.5
63.35 818.62 1879.5
67.51 810.18 1860.1
70.87 793.75 1822.4
76.27 800.86 1838.7
84.10 831.11 1908.2
90.32 843.00 1935.5
95.06 840.51 1929.8
99.91 839.23 1926.8
103.25 825.97 1896.4
108.62 829.46 1904.4
113.82 831.34 1908.7
116.41 814.89 1870.9
119.82 805.21 1848.7
125.21 809.08 1857.6
132.38 823.70 1891.2
137.40 824.37 1892.7
142.28 824.24 1892.4
149.15 835.26 1917.7
153.29 830.73 1907.3
154.87 813.07 1866.7
158.98 809.34 1858.2
166.26 821.52 1886.1
172.78 829.32 1904.1
178.87 834.73 1916.5
186.25 845.69 1941.6
192.96 853.07 1958.6
196.61 846.92 1944.5
198.67 834.41 1915.7
201.84 827.07 1898.9
206.22 824.89 1893.9
212.71 831.05 1908.0
220.10 840.38 1929.4
224.09 836.60 1920.8
226.73 828.05 1901.1
231.60 827.84 1900.6
236.46 827.62 1900.1
240.74 825.41 1895.1
247.95 833.11 1912.8
261.50 861.42 1977.8
271.46 877.03 2013.6
271.73 861.32 1977.5
279.06 868.19 1993.3
298.40 911.48 2092.7
-142.14 949.51 2193.0
-133.57 929.41 2146.6
-126.11 915.65 2114.8
-117.87 894.73 2066.5
-109.13 867.86 2004.5
-102.09 852.48 1968.9
-96.41 847.42 1957.2
-90.45 839.17 1938.2
-84.26 827.74 1911.8
-79.20 826.62 1909.2
-75.07 835.83 1930.5
-69.88 833.52 1925.1
-64.27 825.64 1906.9
-60.19 837.61 1934.6
-55.65 844.81 1951.2
-49.73 830.56 1918.3
-44.12 818.69 1890.9
-39.28 819.92 1893.7
-34.57 824.72 1904.8
-29.67 825.95 1907.7
-24.65 823.19 1901.3
-19.76 824.80 1905.0
-14.92 830.78 1918.8
-9.95 830.79 1918.8
-5.00 835.56 1929.9
0.00 840.73 1941.8
5.02 839.14 1938.1
9.89 825.62 1906.9
14.60 812.50 1876.6
19.78 825.99 1907.8
25.04 836.30 1931.6
29.97 834.29 1926.9
34.94 833.46 1925.0
39.89 832.63 1923.1
45.02 835.38 1929.4
49.88 832.95 1923.8
54.02 820.19 1894.4
58.25 810.60 1872.2
63.13 810.94 1873.0
67.91 810.09 1871.0
71.94 800.89 1849.8
75.66 789.70 1823.9
81.59 801.54 1851.3
89.47 830.04 1917.1
95.96 843.45 1948.1
100.53 839.38 1938.7
103.54 823.41 1901.8
107.21 813.79 1879.6
110.59 802.98 1854.6
115.04 800.49 1848.9
120.53 805.14 1859.6
124.35 798.68 1844.7
129.94 803.71 1856.3
136.93 816.67 1886.2
143.72 827.64 1911.6
148.58 827.11 1910.3
150.64 811.51 1874.3
152.43 795.52 1837.4
157.01 794.58 1835.2
165.13 811.06 1873.3
172.19 821.60 1897.6
177.08 821.43 1897.2
183.18 826.81 1909.6
192.24 844.84 1951.3
198.64 850.59 1964.6
200.94 838.93 1937.6
204.36 832.41 1922.6
208.50 829.05 1914.8
215.05 835.18 1929.0
222.39 844.07 1949.5
226.32 839.91 1939.9
229.88 834.56 1927.5
235.70 837.50 1934.3
238.61 830.17 1917.4
240.74 820.47 1895.0
248.77 830.90 1919.1
263.07 861.43 1989.6
272.45 874.99 2020.9
271.98 856.99 1979.4
274.73 849.64 1962.4
288.82 876.96 2025.5
-131.98 912.87 2121.1
-125.41 905.10 2103.1
-118.03 890.61 2069.4
-109.33 864.26 2008.2
-102.43 850.15 1975.4
-97.27 849.85 1974.7
-91.61 844.80 1963.0
-85.51 835.01 1940.2
-80.45 834.69 1939.5
-76.14 842.67 1958.0
-70.81 839.58 1950.8
-64.73 826.60 1920.7
-60.22 832.98 1935.5
-55.75 841.34 1954.9
-49.85 827.55 1922.9
-44.48 820.49 1906.5
-39.85 826.85 1921.2
-34.74 823.72 1914.0
-29.55 817.43 1899.4
-24.68 819.43 1904.0
-19.90 825.78 1918.8
-15.05 832.91 1935.3
-10.05 834.10 1938.1
-4.99 827.79 1923.4
0.00 821.46 1908.7
4.95 822.25 1910.6
9.78 811.97 1886.7
14.39 796.14 1849.9
19.45 807.20 1875.6
24.72 820.62 1906.8
29.69 821.38 1908.5
35.12 832.81 1935.1
40.67 843.84 1960.7
45.86 845.78 1965.2
50.71 841.78 1955.9
54.49 822.37 1910.8
58.19 804.93 1870.3
63.96 816.72 1897.7
69.77 827.33 1922.4
73.43 812.64 1888.2
76.68 795.59 1848.6
81.35 794.33 1845.7
87.62 808.07 1877.6
93.88 820.23 1905.9
98.15 814.61 1892.8
101.79 804.65 1869.7
106.05 800.21 1859.3
111.08 801.68 1862.8
117.37 811.84 1886.4
122.90 816.07 1896.2
126.56 808.06 1877.6
130.58 802.81 1865.4
135.99 806.23 1873.3
142.62 816.36 1896.9
147.22 814.64 1892.9
149.82 802.28 1864.2
152.43 790.71 1837.3
157.55 792.53 1841.5
166.41 812.48 1887.9
173.02 820.60 1906.7
177.41 818.07 1900.8
182.04 816.72 1897.7
189.71 828.75 1925.7
197.53 840.77 1953.6
201.41 835.87 1942.2
203.97 825.84 1918.9
207.21 818.96 1902.9
212.70 821.12 1907.9
218.84 825.64 1918.4
223.12 823.08 1912.5
227.04 819.33 1903.8
232.36 820.69 1906.9
234.86 812.22 1887.3
241.54 818.28 1901.3
254.80 845.93 1965.6
264.40 860.60 1999.7
268.28 856.43 1990.0
273.73 857.36 1992.1
283.53 871.61 2025.3
290.39 876.44 2036.5
301.79 894.58 2078.6
-141.40 933.23 2181.6
-131.31 902.73 2110.3
-122.95 882.03 2061.9
-117.83 883.72 2065.8
-110.94 871.65 2037.6
-102.57 846.21 1978.2
-96.28 836.09 1954.5
-91.99 843.25 1971.2
-87.05 844.91 1975.1
-81.79 843.41 1971.6
-77.29 850.17 1987.4
-72.41 853.39 1994.9
-66.87 848.73 1984.1
-60.47 831.50 1943.8
-54.39 815.82 1907.1
-49.85 822.56 1922.9
-45.64 836.76 1956.1
-40.51 835.62 1953.4
-34.97 824.25 1926.8
-29.70 816.81 1909.4
-24.78 817.62 1911.3
-19.69 812.13 1898.5
-14.69 807.82 1888.4
-9.94 820.03 1916.9
-4.99 823.18 1924.3
0.00 812.17 1898.6
4.90 807.84 1888.5
9.92 818.45 1913.3
15.00 824.73 1928.0
19.81 817.25 1910.4
24.59 811.33 1896.6
29.49 810.91 1895.6
34.83 821.10 1919.5
40.32 831.68 1944.2
45.51 834.40 1950.5
50.40 831.60 1944.0
54.26 813.86 1902.5
58.64 806.33 1884.9
65.10 826.33 1931.7
71.54 843.17 1971.0
75.97 835.63 1953.4
79.35 818.26 1912.8
84.14 816.61 1909.0
88.95 815.35 1906.0
93.52 812.12 1898.5
98.86 815.57 1906.5
103.64 814.30 1903.6
107.67 807.52 1887.7
112.44 806.63 1885.6
117.88 810.45 1894.6
122.42 807.98 1888.8
127.36 808.26 1889.4
132.69 810.89 1895.6
136.25 802.91 1876.9
140.96 802.00 1874.8
147.29 810.10 1893.7
151.66 807.22 1887.0
153.63 792.17 1851.8
158.33 791.63 1850.6
167.70 813.83 1902.5
174.92 824.64 1927.7
178.52 818.21 1912.7
182.47 813.73 1902.2
186.64 810.43 1894.5
190.87 807.51 1887.7
197.99 816.73 1909.2
203.87 820.45 1917.9
207.90 816.74 1909.3
214.12 821.63 1920.7
218.63 819.87 1916.6
221.09 810.67 1895.1
223.44 801.47 1873.6
227.35 798.13 1865.8
234.85 807.30 1887.2
247.10 832.08 1945.1
256.69 847.08 1980.2
262.11 848.01 1982.4
272.22 863.77 2019.2
284.64 886.15 2071.5
300.14 900.43 2104.9
-125.48 894.70 2104.3
-119.67 892.08 2098.1
-112.39 877.73 2064.3
-103.48 848.51 1995.6
-96.82 835.71 1965.5
-92.33 841.27 1978.6
-87.34 842.53 1981.6
-81.98 840.26 1976.2
-77.61 848.55 1995.7
-72.88 853.70 2007.8
-67.92 856.89 2015.3
-62.05 847.96 1994.3
-55.44 826.50 1943.9
-50.54 828.90 1949.5
-45.75 833.64 1960.6
-40.19 823.90 1937.7
-35.05 821.19 1931.4
-30.07 822.01 1933.3
-24.89 816.55 1920.5
-19.61 804.05 1891.1
-14.72 804.85 1892.9
-10.03 822.86 1935.3
-5.02 823.26 1936.2
0.00 809.96 1905.0
4.85 795.87 1871.8
9.72 797.04 1874.6
14.92 815.81 1918.7
20.02 820.88 1930.6
24.99 819.68 1927.8
30.10 822.79 1935.1
35.00 820.02 1928.6
39.94 818.81 1925.8
45.00 819.94 1928.4
49.78 816.38 1920.1
54.18 807.73 1899.7
59.18 808.85 1902.3
64.76 817.00 1921.5
70.17 822.02 1933.3
75.75 828.21 1947.9
80.53 825.40 1941.3
84.21 812.42 1910.7
87.79 799.83 1881.1
92.83 801.31 1884.6
98.81 810.21 1905.6
103.33 806.99 1898.0
107.04 797.91 1876.6
112.16 799.76 1881.0
118.22 807.85 1900.0
122.60 804.23 1891.5
127.30 802.94 1888.4
133.78 812.58 1911.1
138.58 811.67 1909.0
143.09 809.20 1903.2
149.21 815.70 1918.5
152.32 805.80 1895.2
153.01 784.20 1844.4
158.32 786.79 1850.5
168.58 813.16 1912.5
175.00 820.02 1928.6
177.57 808.94 1902.6
182.11 807.21 1898.5
187.00 807.04 1898.1
191.51 805.31 1894.0
199.03 816.03 1919.2
206.30 825.19 1940.8
211.68 826.56 1944.0
218.81 834.53 1962.8
224.16 835.50 1965.0
223.75 815.45 1917.9
223.10 795.40 1870.7
230.34 803.75 1890.3
241.32 824.53 1939.2
247.33 827.80 1946.9
250.29 820.96 1930.8
256.31 824.23 1938.5
266.68 841.07 1978.1
280.39 867.61 2040.6
291.47 885.20 2081.9
298.08 888.81 2090.4
302.87 886.99 2086.1
313.31 901.44 2120.1
-141.42 922.08 2181.9
-127.40 902.89 2136.6
-120.25 890.96 2108.3
-111.79 867.74 2053.4
-104.00 847.62 2005.8
-98.22 842.66 1994.0
-92.25 835.36 1976.8
-85.92 823.78 1949.3
-80.83 823.47 1948.6
-76.68 833.26 1971.8
-72.34 842.28 1993.1
-67.74 849.35 2009.9
-62.53 849.41 2010.0
-56.49 837.01 1980.7
-50.42 821.89 1944.9
-44.76 810.64 1918.3
-39.96 814.19 1926.6
-35.42 824.73 1951.6
-30.62 831.77 1968.2
-25.49 831.01 1966.5
-19.92 811.57 1920.5
-14.84 806.53 1908.5
-10.19 830.67 1965.7
-5.14 838.08 1983.2
0.00 826.79 1956.5
5.01 815.89 1930.7
9.69 789.80 1868.9
14.39 781.62 1849.6
19.68 801.84 1897.4
24.99 814.67 1927.8
30.13 818.53 1936.9
35.07 816.56 1932.3
40.09 816.91 1933.1
45.30 820.37 1941.3
49.94 814.10 1926.4
54.12 801.99 1897.8
59.58 809.33 1915.2
65.69 823.67 1949.1
70.47 820.49 1941.6
75.39 819.26 1938.7
80.07 815.69 1930.2
83.64 802.00 1897.8
86.75 785.58 1859.0
91.47 784.72 1856.9
97.94 798.24 1888.9
102.88 798.54 1889.6
106.45 788.72 1866.4
111.61 790.96 1871.7
118.39 804.06 1902.7
123.54 805.50 1906.1
126.55 793.34 1877.3
131.20 792.06 1874.3
137.64 801.26 1896.1
143.98 809.28 1915.0
151.28 821.96 1945.0
155.63 818.32 1936.4
157.12 800.32 1893.8
163.57 807.94 1911.9
170.36 816.71 1932.6
173.08 806.07 1907.5
178.42 807.85 1911.7
185.63 817.77 1935.1
191.06 819.53 1939.3
196.32 820.52 1941.6
202.16 823.82 1949.4
207.46 824.79 1951.7
207.08 803.69 1901.8
208.08 788.78 1866.5
218.51 809.49 1915.5
223.10 808.13 1912.3
224.40 795.15 1881.6
233.68 810.41 1917.7
244.28 829.53 1963.0
249.65 830.47 1965.2
249.93 814.78 1928.0
253.04 808.75 1913.8
260.15 815.47 1929.7
269.97 830.29 1964.7
283.68 856.29 2026.3
294.44 872.63 2064.9
303.95 884.70 2093.5
-135.68 915.85 2180.6
-128.12 902.44 2148.7
-120.68 888.63 2115.8
-111.85 862.83 2054.4
-103.62 839.34 1998.4
-97.23 828.98 1973.8
-90.57 815.14 1940.8
-85.30 812.90 1935.5
-81.10 821.11 1955.0
-76.36 824.66 1963.5
-71.51 827.44 1970.1
-66.81 832.54 1982.2
-61.56 831.05 1978.7
-56.04 825.29 1965.0
-50.45 817.21 1945.7
-45.45 818.03 1947.7
-41.14 833.17 1983.7
-35.82 828.95 1973.7
-30.36 819.69 1951.6
-25.51 826.68 1968.3
-20.14 815.47 1941.6
-14.89 803.87 1914.0
-10.13 820.92 1954.6
-5.15 834.48 1986.9
0.00 829.06 1974.0
5.10 826.35 1967.5
9.99 809.31 1926.9
14.63 789.93 1880.8
19.70 798.05 1900.1
24.87 805.77 1918.5
29.80 804.59 1915.7
34.63 801.46 1908.2
39.61 802.20 1910.0
44.48 800.61 1906.2
48.72 789.34 1879.4
53.70 790.84 1883.0
60.01 810.14 1928.9
66.56 829.44 1974.9
71.81 830.92 1978.4
75.93 820.02 1952.4
79.76 807.56 1922.8
84.17 802.07 1909.7
88.12 793.09 1888.3
92.46 788.37 1877.1
98.51 797.95 1899.9
103.88 801.34 1907.9
108.07 795.82 1894.8
111.05 782.19 1862.4
115.46 779.38 1855.7
122.64 794.73 1892.2
127.78 796.16 1895.6
133.32 799.91 1904.5
140.64 813.69 1937.4
146.61 818.97 1949.9
153.42 828.49 1972.6
158.21 826.80 1968.6
160.16 810.82 1930.5
165.14 810.67 1930.2
170.27 811.29 1931.6
173.91 804.95 1916.6
180.30 811.35 1931.8
186.68 817.36 1946.1
191.05 814.48 1939.2
195.39 811.61 1932.4
200.26 811.04 1931.0
206.39 815.48 1941.6
206.78 797.56 1899.0
213.48 786.01 1871.4
222.67 801.59 1908.6
228.43 804.47 1915.4
237.80 819.65 1951.5
248.27 837.90 1995.0
253.02 836.51 1991.7
252.77 818.98 1949.9
256.30 814.13 1938.4
263.72 821.58 1956.1
272.98 834.40 1986.7
286.24 858.73 2044.6
296.67 873.82 2080.5
306.35 886.22 2110.0
-135.58 909.49 2178.9
-127.69 893.85 2141.4
-120.16 879.34 2106.7
-111.15 852.14 2041.5
-103.81 835.69 2002.1
-98.00 830.40 1989.4
-90.87 812.78 1947.2
-85.06 805.55 1929.9
-80.67 811.79 1944.8
-75.78 813.40 1948.7
-71.31 820.01 1964.5
-66.93 828.93 1985.9
-62.02 832.07 1993.4
-56.83 831.74 1992.6
-50.99 821.01 1966.9
-45.81 819.51 1963.3
-41.35 832.26 1993.9
-35.85 824.59 1975.5
-29.97 804.21 1926.7
-24.87 800.77 1918.4
-20.11 809.26 1938.8
-15.22 816.60 1956.4
-9.97 802.36 1922.2
-4.87 783.49 1877.0
0.00 781.95 1873.4
4.86 781.95 1873.3
9.81 789.65 1891.8
14.82 795.41 1905.6
19.69 792.70 1899.1
24.55 790.37 1893.5
29.61 794.58 1903.6
34.66 797.25 1910.0
39.29 790.67 1894.2
43.74 782.54 1874.8
48.55 781.73 1872.8
54.20 793.23 1900.4
59.89 803.58 1925.2
65.69 813.53 1949.0
70.23 807.69 1935.0
73.59 789.92 1892.4
78.38 788.69 1889.5
83.84 794.01 1902.2
89.36 799.31 1915.0
95.36 808.08 1936.0
100.47 808.76 1937.6
104.93 804.43 1927.2
110.22 806.64 1932.5
114.34 800.39 1917.5
117.40 787.59 1886.9
123.06 792.48 1898.6
129.88 804.28 1926.8
137.18 818.00 1959.7
142.10 817.10 1957.6
145.49 807.74 1935.1
151.06 810.68 1942.2
154.37 801.71 1920.7
158.48 797.34 1910.2
165.92 809.48 1939.3
170.99 809.71 1939.8
174.49 802.64 1922.9
179.78 804.01 1926.2
184.82 804.23 1926.7
189.69 803.67 1925.4
194.45 802.73 1923.1
198.25 797.95 1911.7
203.35 798.53 1913.1
208.66 799.88 1916.3
212.66 796.24 1907.6
214.93 786.47 1884.2
218.05 780.14 1869.0
227.00 794.49 1903.4
239.58 820.69 1966.2
247.69 830.80 1990.4
249.99 821.39 1967.8
252.29 812.37 1946.2
259.08 817.87 1959.4
267.66 828.72 1985.4
278.39 845.67 2026.0
288.94 861.46 2063.8
296.15 866.93 2076.9
-133.69 891.29 2148.6
-124.62 866.92 2089.9
-116.01 843.69 2033.9
-109.44 833.85 2010.2
-104.10 832.80 2007.6
-98.31 827.91 1995.9
-91.17 810.39 1953.6
-84.69 797.07 1921.5
-79.75 797.53 1922.6
-75.82 808.71 1949.6
-72.18 824.86 1988.5
-66.46 818.03 1972.0
-60.38 805.06 1940.8
-55.46 806.65 1944.6
-49.92 798.65 1925.3
-44.54 791.80 1908.8
-39.92 798.35 1924.6
-35.55 812.56 1958.9
-30.56 814.89 1964.5
-25.20 806.49 1944.2
-20.27 810.72 1954.4
-15.21 811.12 1955.4
-9.87 789.68 1903.7
4.84 775.13 1868.6
9.96 796.96 1921.2
14.89 793.88 1913.8
19.57 782.75 1887.0
24.35 779.29 1878.6
29.34 782.33 1886.0
34.51 788.81 1901.6
39.32 786.48 1896.0
44.04 782.99 1887.6
49.22 787.55 1898.5
54.25 789.03 1902.1
59.20 789.36 1902.9
65.41 805.01 1940.6
70.37 804.18 1938.6
73.91 788.41 1900.6
79.06 790.64 1906.0
84.04 790.95 1906.7
88.97 790.87 1906.6
95.54 804.56 1939.6
101.37 810.98 1955.0
105.88 806.68 1944.7
111.33 809.64 1951.8
117.47 817.19 1970.0
122.62 817.46 1970.7
125.86 805.49 1941.8
130.06 800.40 1929.5
136.01 806.01 1943.1
139.56 797.48 1922.5
141.61 781.29 1883.5
145.89 778.10 1875.8
152.36 786.37 1895.7
159.69 798.46 1924.9
165.99 804.80 1940.2
170.10 800.45 1929.7
168.97 772.42 1862.1
178.64 772.48 1862.2
187.87 791.02 1906.9
191.56 785.88 1894.5
194.14 776.55 1872.0
200.80 783.62 1889.1
207.85 791.82 1908.9
213.26 793.54 1913.0
217.23 789.91 1904.3
221.14 786.28 1895.5
231.04 803.60 1937.3
238.90 813.29 1960.6
242.21 807.36 1946.3
247.77 809.04 1950.4
253.82 812.24 1958.1
257.86 808.96 1950.2
263.45 810.63 1954.2
278.26 840.04 2025.1
293.69 870.18 2097.8
300.47 874.10 2107.2
-134.50 891.09 2161.7
-124.90 863.43 2094.6
-116.85 844.51 2048.7
-110.80 838.91 2035.1
-105.92 842.05 2042.7
-100.41 840.24 2038.3
-93.11 822.44 1995.1
-86.48 808.81 1962.1
-81.55 810.41 1966.0
-77.57 822.29 1994.8
-72.68 825.40 2002.3
-65.81 804.90 1952.6
-60.35 799.62 1939.8
-55.93 808.44 1961.2
-50.20 798.20 1936.3
-44.71 789.86 1916.1
-40.26 800.19 1941.2
-36.00 817.75 1983.8
-30.69 813.21 1972.7
-25.11 798.37 1936.7
-20.13 800.30 1941.4
-15.06 798.41 1936.8
-10.04 798.04 1935.9
-5.01 796.52 1932.3
0.00 785.47 1905.5
5.00 795.00 1928.6
10.25 814.81 1976.6
15.27 809.46 1963.6
20.05 796.87 1933.1
24.90 791.89 1921.0
29.45 780.44 1893.2
33.99 772.02 1872.8
39.03 775.80 1882.0
44.13 779.57 1891.1
49.84 792.48 1922.5
55.48 801.96 1945.5
59.29 785.53 1905.6
64.25 785.85 1906.4
69.69 791.50 1920.1
73.84 782.68 1898.7
78.87 783.75 1901.3
83.75 783.30 1900.2
88.97 785.88 1906.5
95.90 802.55 1946.9
101.94 810.46 1966.1
106.78 808.46 1961.2
110.95 801.89 1945.3
115.87 801.02 1943.2
122.39 810.81 1966.9
127.11 808.41 1961.1
128.82 787.75 1911.0
132.07 777.75 1886.7
138.21 784.85 1903.9
142.92 783.58 1900.9
147.25 780.41 1893.2
153.83 789.01 1914.0
161.60 802.93 1947.8
168.19 810.38 1965.9
173.91 813.26 1972.9
174.64 793.35 1924.6
174.60 771.17 1870.8
183.48 788.47 1912.7
191.39 800.83 1942.7
193.69 789.65 1915.6
194.41 772.78 1874.7
199.03 771.84 1872.4
208.84 790.62 1917.9
217.25 803.32 1948.8
222.35 803.50 1949.2
227.56 804.05 1950.5
231.35 799.68 1939.9
232.74 787.35 1910.0
237.06 785.24 1904.9
243.56 790.33 1917.2
252.98 804.49 1951.6
260.40 811.82 1969.4
265.30 811.21 1967.9
279.40 838.19 2033.3
295.24 869.30 2108.8
302.44 874.33 2121.0
-133.99 882.13 2153.5
-126.11 866.35 2115.0
-119.43 857.76 2094.0
-112.31 844.99 2062.8
-106.59 842.06 2055.7
-101.86 847.08 2067.9
-95.18 835.43 2039.5
-88.84 825.66 2015.6
-84.16 831.05 2028.8
-78.33 825.06 2014.2
-71.90 811.49 1981.0
-66.40 807.01 1970.1
-62.04 816.91 1994.3
-56.98 818.48 1998.1
-50.65 800.34 1953.8
-45.31 795.46 1941.9
-40.95 808.76 1974.4
-36.66 827.37 2019.8
-31.29 823.99 2011.6
-25.24 797.48 1946.8
-19.97 788.79 1925.6
-14.94 786.91 1921.0
-9.96 786.54 1920.1
-5.04 795.64 1942.4
0.00 795.27 1941.4
5.04 796.02 1943.3
10.22 807.01 1970.1
15.15 797.90 1947.9
19.79 781.59 1908.0
24.98 789.52 1927.4
30.02 790.64 1930.1
34.78 784.92 1916.2
40.07 791.33 1931.8
45.12 792.05 1933.6
50.73 801.48 1956.6
56.90 817.35 1995.3
61.44 808.96 1974.9
64.84 788.06 1923.8
68.58 773.98 1889.5
73.87 778.09 1899.5
80.21 792.03 1933.5
85.29 792.71 1935.2
90.86 797.56 1947.0
96.22 800.12 1953.3
100.55 794.35 1939.2
104.46 785.93 1918.6
107.84 774.48 1890.7
113.83 781.95 1908.9
121.64 800.76 1954.8
125.97 796.11 1943.5
127.25 773.30 1887.8
131.54 769.77 1879.2
138.67 782.51 1910.3
143.32 780.87 1906.3
147.60 777.34 1897.7
153.68 783.25 1912.1
160.98 794.82 1940.3
164.87 789.39 1927.1
167.56 778.66 1900.9
176.55 797.01 1945.7
185.60 814.60 1988.6
190.01 811.41 1980.8
193.29 803.69 1962.0
198.80 805.40 1966.2
203.09 802.20 1958.3
205.67 792.58 1934.9
213.24 802.20 1958.4
218.57 803.14 1960.6
220.77 792.76 1935.3
224.87 789.54 1927.5
227.50 781.43 1907.6
235.86 792.90 1935.6
247.45 814.52 1988.4
247.28 797.36 1946.5
249.28 787.73 1923.0
261.36 809.70 1976.7
271.23 824.13 2011.9
280.91 837.42 2044.3
291.65 853.33 2083.2
300.88 864.35 2110.1
-135.04 883.36 2170.2
-127.33 869.17 2135.4
-119.07 849.71 2087.6
-110.60 826.85 2031.4
-103.33 811.13 1992.8
-97.22 803.31 1973.6
-94.01 819.97 2014.5
-90.83 838.89 2061.0
-83.96 823.90 2024.1
-76.24 797.97 1960.4
-71.60 802.94 1972.6
-67.71 817.70 2008.9
-61.75 807.96 1985.0
-55.37 790.30 1941.6
-50.08 786.20 1931.5
-45.55 794.54 1952.0
-40.91 802.87 1972.5
-36.45 817.60 2008.7
-31.41 821.78 2018.9
-25.55 802.20 1970.8
-19.90 781.11 1919.0
-14.68 768.31 1887.6
-9.83 771.72 1895.9
-5.00 785.29 1929.3
0.00 801.88 1970.1
5.22 819.60 2013.6
10.30 808.66 1986.7
14.87 778.11 1911.7
19.55 767.16 1884.8
24.90 781.85 1920.8
30.57 799.92 1965.2
36.13 810.44 1991.1
41.18 808.14 1985.4
45.85 799.81 1965.0
50.77 797.13 1958.4
56.08 800.47 1966.6
61.09 799.29 1963.7
65.09 786.04 1931.1
69.72 781.84 1920.8
75.99 795.34 1954.0
82.27 807.32 1983.4
87.29 806.11 1980.4
91.29 796.24 1956.2
94.94 784.48 1927.3
99.01 777.24 1909.5
102.64 767.36 1885.2
108.41 773.66 1900.7
117.07 799.16 1963.4
120.71 789.64 1940.0
120.57 757.17 1860.2
125.68 758.94 1864.5
133.93 778.76 1913.2
140.34 786.91 1933.3
144.29 781.14 1919.1
150.10 785.52 1929.9
158.12 800.80 1967.4
160.82 789.00 1938.4
159.73 759.92 1866.9
169.43 760.00 1867.1
181.47 791.39 1944.3
188.95 801.74 1969.7
191.19 789.93 1940.7
195.90 788.63 1937.5
203.46 798.59 1962.0
209.48 802.15 1970.7
215.44 805.34 1978.5
219.08 799.89 1965.2
221.91 791.82 1945.3
227.01 792.00 1945.8
231.55 790.29 1941.6
242.02 808.44 1986.2
256.03 820.35 2015.4
253.20 795.04 1953.2
260.13 800.80 1967.4
270.61 817.03 2007.3
281.54 833.99 2048.9
289.33 841.21 2066.7
295.13 842.45 2069.7
-128.33 870.41 2152.1
-118.59 840.94 2079.2
-110.45 820.45 2028.6
-103.52 807.44 1996.4
-98.08 805.28 1991.1
-95.35 826.34 2043.2
-90.88 833.92 2061.9
-82.85 807.77 1997.2
-66.83 801.98 1982.9
-62.24 809.16 2000.7
-56.32 798.72 1974.9
-51.40 801.76 1982.4
-46.73 810.06 2002.9
-42.06 820.22 2028.0
-36.50 813.50 2011.4
-30.60 795.54 1967.0
-25.03 780.94 1930.9
-19.60 764.47 1890.2
-14.79 768.98 1901.3
-10.12 789.61 1952.3
-5.17 806.87 1995.0
0.00 827.87 2046.9
5.26 821.12 2030.2
10.08 785.86 1943.1
15.00 780.23 1929.1
20.42 796.34 1969.0
25.46 794.44 1964.3
30.60 795.54 1967.0
35.98 801.88 1982.7
40.77 795.10 1965.9
45.44 787.56 1947.3
50.39 786.02 1943.5
54.76 776.60 1920.2
58.64 762.31 1884.8
63.49 761.88 1883.8
69.18 770.82 1905.9
74.25 772.25 1909.4
79.20 772.18 1909.2
85.16 781.47 1932.2
90.20 781.77 1932.9
94.38 774.94 1916.1
99.05 772.61 1910.3
103.44 768.40 1899.9
109.99 779.91 1928.3
117.95 800.03 1978.1
120.82 785.32 1941.7
121.28 756.76 1871.1
126.98 761.89 1883.8
135.02 780.11 1928.8
141.00 785.60 1942.4
145.46 782.48 1934.7
152.03 790.57 1954.7
158.11 795.67 1967.3
158.66 773.47 1912.4
163.82 774.44 1914.8
172.34 790.74 1955.1
174.69 778.62 1925.2
180.25 781.08 1931.2
187.43 790.25 1953.9
189.55 778.14 1924.0
191.78 767.14 1896.8
196.94 768.08 1899.1
207.61 789.92 1953.1
218.45 811.37 2006.1
220.20 798.87 1975.2
221.16 784.13 1938.8
231.19 801.45 1981.6
241.21 818.01 2022.5
241.78 802.52 1984.2
244.11 793.36 1961.6
252.29 803.19 1985.9
257.24 802.60 1984.4
261.82 800.88 1980.2
270.11 810.32 2003.5
282.80 832.39 2058.1
292.94 846.27 2092.4
298.14 845.63 2090.8
-129.88 875.28 2178.1
-120.07 845.98 2105.2
-111.86 825.60 2054.5
-105.97 821.23 2043.6
-101.41 827.28 2058.7
-94.87 816.94 2032.9
-87.16 794.67 1977.5
-81.50 789.53 1964.7
-75.15 776.56 1932.5
-65.70 783.39 1949.5
-61.81 798.36 1986.7
-56.45 795.43 1979.4
-51.66 800.70 1992.5
-47.14 811.92 2020.5
-42.22 817.93 2035.4
-36.45 807.15 2008.6
-30.58 790.03 1966.0
-25.05 776.64 1932.6
-20.00 775.16 1929.0
-15.39 794.94 1978.2
-10.35 802.41 1996.8
-5.21 807.26 2008.9
0.00 815.47 2029.3
5.13 794.59 1977.3
9.98 773.70 1925.3
15.15 782.64 1947.6
20.43 791.57 1969.8
25.25 782.60 1947.5
30.29 782.58 1947.4
35.53 786.65 1957.6
40.52 785.12 1953.8
45.52 783.97 1950.9
50.12 776.84 1933.1
54.02 761.14 1894.1
62.95 750.60 1867.8
68.83 762.09 1896.4
74.21 766.87 1908.3
78.04 756.00 1881.3
82.87 755.55 1880.2
89.29 768.89 1913.4
94.88 774.02 1926.1
99.67 772.44 1922.2
104.14 768.63 1912.7
109.66 772.63 1922.7
116.51 785.19 1953.9
122.66 792.15 1971.3
126.55 784.60 1952.4
130.72 779.27 1939.2
137.02 786.59 1957.4
143.28 793.16 1973.8
147.61 788.94 1963.3
151.52 782.86 1948.1
154.69 773.43 1924.7
158.26 766.59 1907.7
166.66 782.80 1948.0
177.22 807.92 2010.5
181.48 803.68 1999.9
181.96 783.45 1949.6
183.43 768.43 1912.2
188.80 770.12 1916.4
194.66 773.67 1925.3
198.65 769.78 1915.6
208.09 786.67 1957.6
218.94 808.00 2010.7
220.70 795.56 1979.7
220.62 777.20 1934.0
229.89 791.83 1970.4
239.44 806.82 2007.7
239.41 789.56 1964.8
242.61 783.42 1949.5
251.57 795.79 1980.3
255.56 792.23 1971.5
258.89 786.83 1958.0
267.74 798.06 1986.0
280.77 821.13 2043.4
296.42 850.83 2117.3
-132.46 849.93 2128.8
-127.67 854.86 2141.1
-120.55 843.86 2113.6
-111.50 817.68 2048.0
-104.91 807.77 2023.2
-100.86 817.50 2047.5
-94.70 810.17 2029.2
-86.99 788.03 1973.7
-81.46 784.03 1963.7
-76.63 786.69 1970.4
-71.79 789.72 1978.0
-66.54 788.30 1974.4
-60.88 781.32 1956.9
-56.21 786.93 1971.0
-52.04 801.43 2007.3
-47.08 805.55 2017.6
-41.73 803.37 2012.1
-36.05 793.02 1986.2
-30.26 776.74 1945.5
-25.21 776.39 1944.6
-20.48 788.65 1975.3
-15.46 793.86 1988.3
-10.23 787.56 1972.6
-5.05 777.56 1947.5
0.00 770.15 1928.9
5.08 781.64 1957.7
10.29 792.01 1983.7
15.33 786.81 1970.7
20.29 781.23 1956.7
25.12 773.80 1938.1
30.20 775.26 1941.7
36.01 792.28 1984.4
41.77 804.11 2014.0
45.60 780.35 1954.5
48.77 751.02 1881.0
55.04 770.62 1930.1
61.72 792.06 1983.8
66.33 785.71 1967.9
71.73 788.98 1976.1
76.55 785.95 1968.5
79.80 768.09 1923.8
83.15 753.20 1886.5
87.85 751.64 1882.6
94.69 767.49 1922.3
100.72 775.55 1942.5
105.24 771.76 1933.0
110.98 776.84 1945.7
117.67 787.85 1973.3
123.40 791.82 1983.2
128.34 790.59 1980.1
133.46 790.48 1979.9
137.92 786.66 1970.3
142.00 780.98 1956.1
147.60 783.81 1963.2
152.59 783.31 1961.9
155.05 770.23 1929.1
157.79 759.37 1901.9
165.70 773.27 1936.8
175.50 794.93 1991.0
180.38 793.66 1987.8
181.26 775.40 1942.1
185.99 774.13 1938.9
194.53 788.36 1974.6
201.48 795.57 1992.6
206.59 795.39 1992.2
210.73 791.51 1982.5
215.72 790.96 1981.1
221.83 794.45 1989.8
226.30 792.04 1983.8
230.95 790.36 1979.6
235.69 789.05 1976.3
240.30 787.37 1972.1
248.56 797.47 1997.4
252.97 795.04 1991.3
251.84 775.67 1942.8
259.00 782.07 1958.8
271.95 805.39 2017.2
282.29 820.23 2054.4
294.23 839.10 2101.6
-135.23 862.10 2173.4
-122.35 850.91 2145.2
-113.22 824.87 2079.5
-105.82 809.50 2040.8
-101.09 814.01 2052.1
-95.95 815.57 2056.1
-89.03 801.29 2020.1
-83.26 796.21 2007.2
-78.18 797.39 2010.2
-72.36 790.82 1993.7
-66.29 780.19 1966.9
-61.49 783.94 1976.3
-57.56 800.57 2018.3
-52.57 804.31 2027.7
-46.88 796.98 2009.2
-41.87 800.71 2018.6
-36.45 796.69 2008.5
-30.75 784.18 1976.9
-25.72 787.16 1984.4
-20.34 777.96 1961.2
-14.94 762.12 1921.3
-10.08 771.35 1944.6
-5.08 776.89 1958.5
0.00 772.46 1947.4
5.14 786.47 1982.7
10.46 800.11 2017.1
15.65 798.25 2012.4
20.51 784.60 1978.0
25.12 768.72 1938.0
30.17 769.43 1939.8
35.96 785.99 1981.5
41.87 800.71 2018.6
45.86 779.66 1965.5
49.20 752.70 1897.6
55.70 774.77 1953.2
62.21 793.15 1999.5
66.57 783.51 1975.2
72.06 787.50 1985.3
76.95 784.86 1978.6
80.99 774.47 1952.4
85.23 767.03 1933.7
89.23 758.48 1912.1
95.23 766.87 1933.3
101.05 773.04 1948.8
105.43 768.16 1936.5
109.33 760.33 1916.8
113.95 758.03 1911.0
122.18 778.91 1963.6
129.66 793.52 2000.5
133.08 783.10 1974.2
135.58 768.26 1936.8
139.16 760.41 1917.0
144.39 761.76 1920.4
149.77 763.83 1925.6
152.72 753.77 1900.3
155.39 742.97 1873.0
163.23 756.80 1907.9
173.94 782.75 1973.3
179.78 785.90 1981.3
181.08 769.57 1940.1
186.33 770.51 1942.5
