ply
format ascii 1.0
element vertex 2083
property float x
property float y
property float z
end_header
-1636.10 657.18 2640.4
-1628.49 656.87 2639.2
-1646.26 675.39 2713.6
-1597.97 661.23 2656.7
-1657.14 688.68 2767.0
-1638.89 687.05 2760.5
-1619.58 681.93 2739.9
-1611.25 681.41 2737.8
-1636.04 694.95 2792.2
-1651.25 704.53 2830.7
-1633.90 700.24 2813.5
-1611.23 693.62 2786.9
-1593.05 688.88 2767.8
-1604.09 696.80 2799.6
-1606.77 701.14 2817.1
-1595.38 699.34 2809.9
-1595.07 702.42 2822.2
-1593.75 705.07 2832.9
-1591.42 707.30 2841.8
-1556.70 695.09 2792.8
-1549.67 695.18 2793.1
-1579.47 711.88 2860.2
-1566.17 709.21 2849.5
-1546.82 703.76 2827.6
-1531.28 700.01 2812.6
-1535.81 705.44 2834.4
-1667.69 633.72 2573.0
-1662.37 634.24 2575.1
-1669.75 639.62 2597.0
-1679.68 646.03 2623.0
-1660.56 641.27 2603.7
-1635.72 634.26 2575.2
-1631.92 635.38 2579.7
-1614.01 630.99 2561.9
-1619.58 635.78 2581.4
-1653.59 651.83 2646.5
-1662.53 658.08 2671.9
-1638.37 651.23 2644.1
-1611.74 643.34 2612.1
-1655.42 663.57 2694.2
-1672.58 676.15 2745.3
-1635.83 664.12 2696.4
-1600.78 652.68 2650.0
-1639.14 679.99 2760.9
-1614.84 672.85 2731.9
-1601.07 670.05 2720.5
-1621.46 681.59 2767.3
-1630.32 688.36 2794.8
-1612.46 686.92 2789.0
-1576.71 674.72 2739.4
-1569.83 674.81 2739.8
-1581.83 683.06 2773.3
-1580.19 685.47 2783.1
-1596.94 705.62 2864.9
-1551.82 688.89 2797.0
-1539.58 686.67 2788.0
-1546.20 692.87 2813.2
-1546.14 696.13 2826.4
-1569.39 709.96 2882.6
-1537.92 705.81 2865.7
-1673.18 626.61 2571.2
-1651.35 620.91 2547.8
-1646.62 621.61 2550.7
-1654.58 627.14 2573.4
-1661.92 632.47 2595.2
-1668.17 647.97 2658.8
-1662.84 656.75 2694.9
-1640.27 650.57 2669.5
-1621.87 646.00 2650.8
-1634.10 653.64 2682.1
-1640.12 658.85 2703.5
-1641.23 670.76 2752.4
-1631.38 669.65 2747.8
-1619.55 667.71 2739.8
-1608.24 665.97 2732.7
-1629.61 677.80 2781.3
-1639.44 684.92 2810.5
-1633.92 685.66 2813.5
-1621.03 683.30 2803.8
-1584.26 670.81 2752.6
-1572.98 669.05 2745.3
-1581.59 675.77 2772.9
-1566.90 672.55 2759.7
-1599.92 689.87 2830.8
-1587.20 693.94 2847.5
-1559.19 684.88 2810.3
-1560.62 688.73 2826.1
-1580.83 700.94 2876.2
-1578.31 703.13 2885.2
-1663.26 621.22 2576.5
-1655.28 620.73 2574.5
-1667.64 638.23 2647.1
-1652.77 645.83 2678.6
-1637.39 642.52 2664.8
-1637.92 645.45 2677.0
-1643.96 664.73 2757.0
-1629.11 661.60 2744.0
-1653.16 674.31 2796.7
-1639.19 677.53 2810.0
-1631.70 677.45 2809.7
-1617.84 674.70 2798.3
-1592.30 667.04 2766.5
-1591.69 669.81 2778.0
-1623.53 686.31 2846.4
-1585.88 679.66 2818.9
-1594.11 686.35 2846.6
-1587.93 686.87 2848.8
-1571.77 683.06 2833.0
-1585.94 692.45 2871.9
-1561.27 694.73 2881.4
-1538.24 687.77 2852.5
-1655.44 581.30 2437.1
-1655.39 585.75 2455.8
-1655.18 590.22 2474.5
-1640.66 621.16 2604.2
-1631.22 627.92 2632.6
-1624.66 628.02 2633.0
-1646.83 639.27 2680.2
-1650.19 648.79 2720.1
-1644.95 649.51 2723.1
-1614.23 657.12 2755.0
-1603.40 655.61 2748.7
-1616.20 663.80 2783.0
-1629.84 672.40 2819.1
-1633.07 676.77 2837.4
-1604.09 667.77 2799.6
-1608.25 672.54 2819.7
-1610.04 679.47 2848.7
-1590.92 674.49 2827.8
-1595.31 679.48 2848.8
-1650.38 588.96 2496.4
-1642.02 588.28 2493.5
-1641.04 594.96 2521.8
-1637.97 596.22 2527.1
-1642.85 600.40 2544.9
-1629.11 602.64 2554.4
-1649.04 612.50 2596.2
-1664.61 620.82 2631.4
-1614.36 614.67 2605.4
-1630.59 626.09 2653.8
-1665.94 642.37 2722.8
-1655.62 641.11 2717.4
-1622.43 630.95 2674.3
-1616.78 631.45 2676.5
-1633.84 640.86 2716.4
-1654.05 657.29 2786.0
-1661.09 662.98 2810.1
-1623.80 650.95 2759.1
-1600.57 644.48 2731.7
-1621.39 655.76 2779.5
-1619.87 658.07 2789.3
-1621.73 661.78 2805.0
-1602.17 662.72 2809.0
-1607.72 668.05 2831.6
-1596.30 666.35 2824.4
-1583.95 664.24 2815.4
-1587.89 668.97 2835.5
-1533.84 674.30 2858.1
-1650.79 584.92 2506.8
-1661.52 595.76 2553.3
-1673.92 614.91 2635.3
-1664.01 616.30 2641.3
-1657.46 616.41 2641.8
-1621.24 610.51 2616.5
-1622.04 615.97 2639.9
-1657.95 632.27 2709.7
-1661.43 636.29 2727.0
-1640.93 631.13 2704.8
-1620.00 625.75 2681.8
-1622.92 629.58 2698.2
-1645.41 641.07 2747.4
-1642.09 642.56 2753.8
-1630.24 640.71 2745.9
-1630.38 643.57 2758.2
-1636.44 648.81 2780.6
-1657.27 659.98 2828.5
-1654.69 661.88 2836.6
-1627.96 654.09 2803.2
-1641.08 662.32 2838.5
-1613.56 660.09 2829.0
-1602.43 664.60 2848.3
-1589.08 662.12 2837.6
-1576.72 660.02 2828.7
-1543.48 649.13 2782.0
-1527.59 651.58 2792.5
-1534.12 657.48 2817.8
-1558.74 671.23 2876.7
-1529.19 661.67 2835.7
-1522.49 661.95 2836.9
-1662.24 571.19 2475.5
-1647.74 584.26 2532.1
-1666.01 593.10 2570.4
-1664.94 597.50 2589.5
-1674.41 603.33 2614.8
-1661.99 603.74 2616.5
-1675.44 611.12 2648.5
-1667.84 610.85 2647.4
-1641.98 603.87 2617.1
-1634.95 603.78 2616.7
-1648.66 611.38 2649.6
-1635.87 609.17 2640.1
-1623.64 607.16 2631.3
-1654.06 621.15 2692.0
-1668.37 629.17 2726.8
-1650.90 625.23 2709.7
-1638.78 628.67 2724.6
-1652.66 636.74 2759.5
-1606.49 635.45 2754.0
-1600.10 635.75 2755.3
-1616.93 651.16 2822.1
-1589.49 643.02 2786.8
-1600.90 650.59 2819.6
-1606.87 656.02 2843.1
-1582.46 649.03 2812.8
-1570.62 647.15 2804.7
-1558.80 645.27 2796.5
-1549.86 644.57 2793.5
-1549.48 650.49 2819.1
-1537.67 648.59 2810.9
-1677.05 576.49 2526.8
-1672.10 579.31 2539.2
-1656.98 580.93 2546.3
-1682.50 599.43 2627.4
-1658.58 593.31 2600.6
-1654.77 594.37 2605.2
-1677.17 604.88 2651.3
-1663.81 602.53 2641.0
-1630.13 592.78 2598.2
-1646.03 601.04 2634.4
-1663.96 612.67 2685.4
-1645.96 608.59 2667.5
-1669.14 619.76 2716.5
-1671.12 623.13 2731.2
-1652.10 618.66 2711.7
-1646.89 619.34 2714.7
-1624.97 635.54 2785.7
-1599.30 628.30 2753.9
-1622.86 640.41 2807.0
-1628.58 645.56 2829.6
-1606.90 639.85 2804.5
-1593.57 637.43 2793.9
-1583.19 636.17 2788.4
-1564.62 631.59 2768.3
-1550.89 634.78 2782.3
-1585.58 658.17 2884.8
-1576.47 657.48 2881.8
-1537.82 644.42 2824.6
-1527.76 646.36 2833.1
-1669.48 585.66 2596.5
-1665.01 596.11 2642.9
-1629.75 585.90 2597.6
-1645.14 593.89 2633.0
-1660.56 607.01 2691.2
-1641.04 602.41 2670.8
-1646.70 607.04 2691.3
-1632.35 604.32 2679.2
-1637.90 608.96 2699.8
-1606.88 624.10 2767.0
-1607.83 627.27 2781.0
-1636.13 641.19 2842.7
-1636.37 644.18 2856.0
-1617.59 639.68 2836.0
-1601.31 636.14 2820.3
-1597.15 637.40 2825.9
-1589.12 637.11 2824.6
-1560.95 628.72 2787.4
-1562.54 632.28 2803.2
-1556.50 638.75 2831.9
-1537.56 636.99 2824.1
-1508.32 640.12 2837.9
-1630.41 558.63 2505.5
-1627.52 562.12 2521.1
-1628.68 564.78 2533.1
-1630.19 574.58 2577.0
-1653.11 585.05 2624.0
-1655.48 588.31 2638.6
-1630.71 581.91 2609.9
-1656.39 593.54 2662.1
-1653.53 600.02 2691.1
-1633.52 595.27 2669.8
-1629.95 596.49 2675.3
-1648.25 605.77 2716.9
-1659.13 628.57 2819.2
-1631.29 620.76 2784.1
-1631.29 623.51 2796.5
-1634.18 627.41 2814.0
-1613.91 622.40 2791.5
-1618.70 627.06 2812.4
-1637.06 637.05 2857.2
-1616.53 634.80 2847.1
-1609.43 634.91 2847.6
-1588.85 644.53 2890.8
-1530.26 623.71 2797.4
-1571.07 643.39 2885.6
-1514.18 638.33 2862.9
-1665.25 561.69 2548.9
-1643.81 575.00 2609.2
-1660.84 583.35 2647.1
-1650.63 582.17 2641.8
-1652.38 585.22 2655.6
-1603.01 600.25 2723.8
-1608.13 604.83 2744.6
-1578.41 612.63 2780.0
-1567.35 613.94 2785.9
-1604.50 631.40 2865.2
-1586.79 633.23 2873.5
-1567.30 637.42 2892.5
-1543.72 630.85 2862.7
-1528.16 627.50 2847.5
-1541.78 636.17 2886.8
-1675.18 545.41 2504.4
-1661.05 553.68 2542.4
-1636.51 547.68 2514.8
-1635.60 549.56 2523.5
-1667.73 562.61 2583.4
-1636.31 561.02 2576.1
-1662.28 574.62 2638.5
-1656.26 574.90 2639.9
-1650.24 575.19 2641.2
-1655.11 579.29 2660.0
-1641.78 577.03 2649.6
-1619.71 571.66 2625.0
-1636.84 580.15 2663.9
-1656.39 589.56 2707.2
-1608.21 582.28 2673.7
-1608.94 587.61 2698.2
-1606.72 589.37 2706.3
-1616.73 600.91 2759.3
-1585.55 605.39 2779.9
-1575.96 607.25 2788.4
-1563.67 605.29 2779.4
-1574.93 612.47 2812.4
-1574.57 615.18 2824.8
-1538.89 604.05 2773.7
-1548.52 610.68 2804.2
-1578.83 625.58 2872.5
-1574.46 626.80 2878.2
-1556.91 622.76 2859.6
-1542.70 620.03 2847.1
-1526.20 616.35 2830.2
-1507.97 617.90 2837.3
-1496.20 616.08 2828.9
-1676.17 541.33 2515.6
-1653.95 538.34 2501.8
-1658.03 541.80 2517.8
-1670.68 548.09 2547.1
-1667.07 549.07 2551.6
-1687.57 576.41 2678.7
-1668.94 572.40 2660.1
-1651.41 568.74 2643.0
-1647.45 569.74 2647.7
-1623.78 563.91 2620.6
-1621.53 567.88 2639.0
-1621.62 570.32 2650.4
-1625.76 574.21 2668.4
-1667.58 591.49 2748.8
-1668.91 594.50 2762.8
-1606.82 574.85 2671.4
-1606.36 582.22 2705.7
-1648.70 602.83 2801.4
-1647.21 604.95 2811.3
-1636.26 603.60 2805.0
-1613.98 598.04 2779.2
-1599.17 595.21 2766.0
-1625.60 607.77 2824.4
-1625.41 610.45 2836.8
-1606.16 605.96 2816.0
-1564.80 598.52 2781.4
-1574.62 605.06 2811.8
-1570.91 606.45 2818.3
-1549.54 600.99 2792.9
-1573.39 613.10 2849.2
-1595.11 624.50 2902.2
-1583.13 622.75 2894.0
-1559.44 616.35 2864.3
-1536.79 610.30 2836.2
-1534.77 612.43 2846.1
-1515.51 607.67 2823.9
-1656.59 528.56 2486.3
-1664.58 533.19 2508.0
-1639.69 529.35 2490.0
-1680.88 567.21 2668.1
-1656.50 561.29 2640.2
-1631.18 555.01 2610.7
-1620.53 553.68 2604.4
-1639.95 562.66 2646.7
-1664.38 573.44 2697.4
-1669.55 577.65 2717.2
-1655.12 575.08 2705.1
-1646.37 574.48 2702.2
-1626.21 574.78 2703.7
-1598.97 572.56 2693.2
-1617.26 581.65 2736.0
-1638.88 592.02 2784.7
-1631.95 592.12 2785.3
-1625.02 592.23 2785.8
-1606.23 587.99 2765.8
-1591.94 585.38 2753.5
-1619.39 598.15 2813.6
-1606.28 604.20 2842.0
-1571.70 593.91 2793.7
-1591.67 609.89 2868.8
-1580.69 608.53 2862.4
-1568.30 606.61 2853.4
-1578.12 613.30 2884.9
-1576.06 615.41 2894.8
-1562.24 612.94 2883.2
-1568.53 618.36 2908.7
-1557.97 617.17 2903.1
-1529.84 608.96 2864.5
-1511.08 604.43 2843.1
-1494.70 600.81 2826.1
-1662.00 536.34 2554.0
-1659.42 537.65 2560.2
-1667.35 555.78 2646.6
-1655.04 553.96 2637.9
-1641.72 551.78 2627.5
-1640.39 553.63 2636.3
-1645.46 562.37 2678.0
-1644.46 564.41 2687.7
-1648.03 568.04 2705.0
-1646.41 577.31 2749.1
-1605.31 565.35 2692.1
-1610.57 574.70 2736.7
-1598.27 572.83 2727.8
-1588.09 574.26 2734.6
-1592.57 578.47 2754.6
-1603.35 585.01 2785.7
-1615.46 592.09 2819.5
-1620.13 596.50 2840.5
-1610.62 595.71 2836.7
-1579.38 595.02 2833.4
-1548.41 586.08 2790.9
-1537.23 590.12 2810.1
-1573.88 607.07 2890.8
-1539.08 602.25 2867.9
-1527.23 600.51 2859.6
-1526.47 603.14 2872.1
-1533.93 609.06 2900.3
-1665.26 520.39 2509.0
-1635.62 527.62 2543.9
-1654.26 535.79 2583.3
-1657.81 541.33 2610.0
-1640.29 537.80 2593.0
-1641.20 540.31 2605.1
-1646.24 544.21 2623.9
-1648.08 547.08 2637.7
-1661.83 553.94 2670.8
-1643.93 552.58 2664.2
-1619.79 546.76 2636.2
-1615.28 547.55 2640.0
-1632.26 555.66 2679.1
-1633.66 568.23 2739.7
-1601.22 559.38 2697.0
-1620.03 568.43 2740.6
-1633.17 575.57 2775.1
-1612.33 570.74 2751.8
-1615.88 574.54 2770.1
-1629.74 582.05 2806.3
-1631.13 585.16 2821.3
-1638.84 590.57 2847.4
-1630.29 590.15 2845.4
-1612.97 586.53 2827.9
-1561.14 578.20 2787.7
-1557.01 579.35 2793.3
-1568.61 586.40 2827.3
-1544.86 580.23 2797.5
-1551.56 585.50 2822.9
-1551.55 588.26 2836.3
-1566.99 596.95 2878.2
-1572.61 604.85 2916.2
-1541.11 595.60 2871.6
-1531.55 594.78 2867.7
-1524.32 594.86 2868.1
-1526.74 598.72 2886.7
-1500.30 594.18 2864.8
-1639.20 517.99 2529.0
-1660.17 526.72 2571.7
-1641.42 531.44 2594.8
-1633.93 531.19 2593.5
-1644.76 536.93 2621.5
-1649.74 540.79 2640.4
-1660.88 546.71 2669.3
-1665.69 550.58 2688.2
-1650.76 547.94 2675.3
-1635.87 545.29 2662.4
-1644.13 562.28 2745.3
-1638.32 562.73 2747.5
-1644.57 567.34 2770.0
-1645.21 570.05 2783.2
-1639.29 570.50 2785.5
-1644.32 574.78 2806.4
-1642.60 581.91 2841.1
-1551.39 570.05 2783.2
-1594.06 588.46 2873.1
-1600.67 593.68 2898.6
-1584.89 590.60 2883.6
-1563.97 585.56 2859.0
-1556.79 585.65 2859.4
-1564.14 591.23 2886.7
-1554.56 590.43 2882.8
-1531.49 584.48 2853.7
-1517.34 581.89 2841.1
-1504.62 579.83 2831.0
-1495.61 579.18 2827.8
-1498.53 583.17 2847.3
-1506.84 589.31 2877.3
-1673.57 522.15 2582.1
-1680.56 526.44 2603.3
-1675.20 526.88 2605.4
-1640.31 526.52 2603.7
-1643.79 529.82 2620.0
-1674.52 544.22 2691.2
-1677.75 552.17 2730.5
-1681.29 555.68 2747.9
-1636.45 547.83 2709.0
-1609.92 541.26 2676.6
-1632.09 551.10 2725.2
-1630.00 567.59 2806.8
-1604.29 561.14 2774.9
-1623.40 570.38 2820.6
-1568.78 569.14 2814.4
-1547.39 564.00 2789.0
-1560.36 571.40 2825.6
-1549.47 570.09 2819.1
-1527.73 564.75 2792.7
-1523.04 565.70 2797.4
-1528.17 570.32 2820.3
-1517.32 569.00 2813.7
-1501.83 565.91 2798.4
-1496.14 566.50 2801.4
-1488.12 566.21 2800.0
-1482.86 566.98 2803.7
-1658.65 504.81 2528.7
-1685.44 521.20 2610.8
-1657.13 514.51 2577.3
-1644.91 523.38 2621.8
-1664.01 531.65 2663.2
-1676.69 537.94 2694.7
-1642.24 533.56 2672.7
-1646.41 537.18 2690.9
-1670.51 547.36 2741.9
-1646.86 541.91 2714.6
-1622.20 538.40 2697.0
-1632.11 556.07 2785.5
-1612.81 554.40 2777.2
-1637.94 565.57 2833.1
-1631.39 565.84 2834.5
-1648.83 574.48 2877.7
-1583.35 569.71 2853.8
-1599.06 578.06 2895.7
-1575.69 572.30 2866.8
-1540.14 562.04 2815.4
-1528.34 560.39 2807.2
-1528.30 563.06 2820.5
-1518.85 562.27 2816.5
-1503.82 559.39 2802.2
-1502.76 561.71 2813.8
-1499.34 563.17 2821.1
-1510.15 570.01 2855.3
-1497.89 568.17 2846.1
-1662.23 497.36 2524.2
-1673.30 502.65 2551.1
-1667.85 511.12 2594.0
-1678.36 518.52 2631.6
-1672.60 529.66 2688.1
-1662.32 528.61 2682.8
-1622.54 518.12 2629.6
-1636.20 526.91 2674.2
-1663.42 537.96 2730.2
-1638.25 532.08 2700.4
-1629.91 533.94 2709.8
-1616.27 543.53 2758.5
-1613.37 544.96 2765.8
-1651.53 560.34 2843.8
-1620.54 557.29 2828.3
-1588.43 551.24 2797.6
-1591.34 557.34 2828.6
-1603.04 564.03 2862.6
-1605.01 567.35 2879.4
-1608.34 571.19 2898.9
-1604.78 575.30 2919.7
-1570.06 565.52 2870.1
-1559.56 564.41 2864.5
-1553.30 564.84 2866.7
-1536.74 561.50 2849.7
-1517.45 557.13 2827.5
-1511.70 557.71 2830.5
-1527.20 566.18 2873.5
-1480.30 556.94 2826.6
-1650.29 499.08 2566.7
-1668.94 506.76 2606.2
-1669.39 508.96 2617.5
-1671.22 513.69 2641.9
-1662.58 513.14 2639.0
-1677.55 519.90 2673.8
-1664.86 520.27 2675.7
-1645.25 516.29 2655.2
-1626.23 512.47 2635.5
-1628.45 515.33 2650.3
-1633.70 519.18 2670.1
-1634.76 521.73 2683.2
-1652.15 529.53 2723.3
-1649.47 530.95 2730.6
-1649.82 533.35 2742.9
-1660.25 548.54 2821.1
-1655.76 549.48 2825.9
-1644.41 555.54 2857.1
-1606.43 545.17 2803.7
-1604.60 549.52 2826.1
-1624.36 564.01 2900.6
-1596.50 556.92 2864.1
-1573.55 551.48 2836.2
-1568.83 552.40 2840.9
-1587.82 561.73 2888.9
-1592.41 566.02 2911.0
-1580.89 564.60 2903.7
-1574.56 565.03 2905.9
-1562.59 563.43 2897.7
-1546.93 560.48 2882.5
-1561.50 568.51 2923.7
-1526.13 563.84 2899.8
-1498.70 556.45 2861.7
-1488.27 555.32 2856.0
-1689.07 494.04 2575.1
-1692.99 497.15 2591.3
-1683.94 510.70 2662.0
-1649.48 502.31 2618.2
-1638.27 500.96 2611.2
-1638.85 505.31 2633.9
-1670.26 517.15 2695.6
-1665.70 522.30 2722.4
-1652.80 520.46 2712.8
-1655.29 523.47 2728.5
-1633.83 532.61 2776.2
-1638.90 536.63 2797.1
-1654.32 544.09 2836.0
-1655.22 546.81 2850.2
-1651.11 547.90 2855.9
-1645.01 548.34 2858.1
-1627.13 544.83 2839.8
-1621.53 545.42 2842.9
-1629.06 550.46 2869.2
-1592.29 548.04 2856.6
-1556.91 538.37 2806.2
-1546.53 537.29 2800.6
-1559.91 544.50 2838.1
-1546.16 542.25 2826.4
-1540.85 545.57 2843.7
-1557.56 554.13 2888.3
-1559.17 557.38 2905.3
-1674.11 484.96 2562.4
-1661.04 488.93 2583.4
-1649.33 497.53 2628.8
-1633.40 494.76 2614.2
-1631.08 496.12 2621.4
-1667.77 518.07 2737.4
-1650.24 514.82 2720.2
-1660.34 520.19 2748.6
-1662.95 525.52 2776.7
-1616.20 517.47 2734.2
-1612.05 520.71 2751.3
-1636.52 530.96 2805.5
-1654.82 539.29 2849.5
-1631.64 538.96 2847.7
-1625.54 539.38 2850.0
-1635.01 545.00 2879.7
-1602.00 543.93 2874.0
-1575.68 537.50 2840.0
-1576.19 540.20 2854.3
-1565.71 539.14 2848.7
-1564.92 546.60 2888.1
-1587.17 557.04 2943.2
-1545.61 550.39 2908.1
-1522.15 544.69 2878.0
-1529.59 550.05 2906.3
-1654.89 494.41 2648.6
-1643.64 493.09 2641.6
-1639.16 493.81 2645.4
-1643.49 497.19 2663.5
-1665.32 505.92 2710.3
-1665.83 508.22 2722.6
-1651.39 505.96 2710.5
-1641.08 504.95 2705.1
-1638.46 506.30 2712.3
-1636.81 507.98 2721.3
-1628.53 507.59 2719.3
-1643.51 514.49 2756.2
-1604.71 506.75 2714.7
-1619.19 518.14 2775.8
-1655.55 536.94 2876.4
-1632.48 534.27 2862.1
-1640.96 539.49 2890.1
-1603.00 534.33 2862.5
-1585.76 531.04 2844.9
-1585.34 533.39 2857.4
-1602.05 541.54 2901.1
-1609.06 546.47 2927.5
-1579.03 538.81 2886.5
-1581.70 542.30 2905.2
-1533.21 538.49 2884.8
-1496.42 528.15 2829.4
-1503.50 533.26 2856.8
-1509.09 537.90 2881.6
-1470.81 526.86 2822.4
-1705.02 484.22 2630.6
-1629.05 481.93 2618.1
-1656.89 492.21 2674.0
-1647.16 491.38 2669.5
-1655.54 495.96 2694.4
-1652.99 497.30 2701.6
-1631.91 493.04 2678.5
-1636.52 496.55 2697.6
-1640.77 508.71 2763.6
-1612.80 502.23 2728.4
-1607.19 504.91 2743.0
-1625.20 517.44 2811.0
-1613.77 516.12 2803.8
-1598.44 513.52 2789.8
-1606.15 518.35 2816.0
-1621.06 525.55 2855.1
-1594.73 521.78 2834.6
-1578.48 518.85 2818.7
-1590.65 525.29 2853.7
-1577.77 523.47 2843.8
-1582.10 527.37 2865.0
-1583.22 535.28 2908.0
-1576.88 535.69 2910.2
-1563.50 533.69 2899.3
-1545.02 529.93 2878.9
-1519.58 528.87 2873.2
-1514.69 532.39 2892.3
-1505.10 531.65 2888.3
-1660.27 463.02 2551.3
-1657.18 464.01 2556.8
-1671.22 473.63 2609.8
-1666.90 474.32 2613.6
-1669.45 476.99 2628.3
-1651.33 473.74 2610.4
-1648.55 474.89 2616.8
-1653.28 484.22 2668.2
-1654.98 486.76 2682.1
-1641.09 484.71 2670.9
-1615.38 479.14 2640.2
-1611.38 479.98 2644.8
-1632.46 488.34 2690.9
-1640.60 492.88 2715.9
-1651.68 498.35 2746.0
-1662.65 503.83 2776.2
-1655.78 503.93 2776.8
-1640.32 501.41 2762.9
-1623.91 498.57 2747.2
-1616.58 498.50 2746.9
-1644.20 509.27 2806.2
-1609.94 505.36 2784.6
-1600.34 509.20 2805.8
-1601.63 511.94 2820.9
-1589.73 510.46 2812.8
-1593.84 514.14 2833.0
-1610.89 522.05 2876.6
-1616.70 526.37 2900.4
-1596.53 522.23 2877.6
-1575.50 517.77 2853.0
-1584.53 523.19 2882.9
-1597.69 530.04 2920.6
-1585.20 528.40 2911.6
-1575.56 527.70 2907.7
-1557.50 524.16 2888.2
-1533.90 518.71 2858.2
-1575.55 535.38 2950.1
-1537.67 527.63 2907.4
-1477.22 511.91 2820.7
-1511.58 526.42 2900.7
-1504.71 526.65 2901.9
-1444.41 508.08 2799.6
-1659.43 459.84 2570.5
-1697.99 472.42 2640.9
-1690.43 472.22 2639.8
-1681.80 471.72 2637.0
-1679.54 473.01 2644.2
-1655.04 468.02 2616.3
-1645.40 467.21 2611.8
-1666.78 475.24 2656.6
-1674.36 479.38 2679.8
-1633.52 471.60 2636.3
-1650.33 478.46 2674.6
-1653.02 481.26 2690.3
-1645.84 481.20 2689.9
-1638.65 483.19 2701.1
-1621.16 482.15 2695.3
-1642.38 490.58 2742.4
-1645.20 493.56 2759.0
-1638.86 493.80 2760.4
-1610.38 487.35 2724.3
-1622.28 495.30 2768.7
-1639.53 509.58 2848.6
-1601.51 500.02 2795.1
-1607.75 504.25 2818.8
-1595.35 502.65 2809.8
-1596.60 505.35 2824.9
-1615.71 513.75 2871.9
-1616.28 516.31 2886.2
-1602.83 514.40 2875.5
-1597.57 515.10 2879.5
-1590.38 515.19 2880.0
-1556.05 506.45 2831.1
-1544.66 507.53 2837.1
-1562.00 515.68 2882.7
-1569.30 520.59 2910.1
-1574.15 524.72 2933.2
-1569.12 525.58 2938.0
-1552.02 522.39 2920.2
-1522.98 515.13 2879.6
-1495.94 508.47 2842.4
-1468.58 501.64 2804.2
-1464.65 502.79 2810.6
-1489.34 513.82 2872.3
-1459.87 506.19 2829.6
-1688.93 452.15 2564.7
-1676.43 454.17 2576.2
-1677.61 456.31 2588.3
-1682.49 459.47 2606.3
-1693.72 464.41 2634.2
-1682.43 463.18 2627.3
-1668.51 461.21 2616.1
-1690.47 471.12 2672.3
-1667.02 466.49 2646.1
-1676.25 471.01 2671.7
-1628.54 465.30 2639.3
-1632.01 474.26 2690.1
-1613.05 470.76 2670.3
-1648.19 483.09 2740.2
-1666.80 490.66 2783.2
-1668.02 493.15 2797.3
-1655.05 491.46 2787.7
-1619.47 483.00 2739.7
-1604.13 480.53 2725.7
-1644.81 494.90 2807.2
-1612.86 496.26 2814.9
-1592.13 492.11 2791.4
-1600.78 497.04 2819.4
-1622.92 506.23 2871.5
-1616.26 506.48 2872.9
-1592.20 501.25 2843.2
-1584.13 501.03 2842.0
-1582.30 502.79 2851.9
-1585.19 506.07 2870.6
-1560.88 500.66 2839.9
-1538.06 500.42 2838.5
-1552.96 507.70 2879.8
-1569.09 515.45 2923.8
-1561.38 517.92 2937.8
-1529.98 509.99 2892.8
-1501.06 502.82 2852.1
-1472.31 495.63 2811.3
-1462.43 494.75 2806.4
-1481.22 503.62 2856.6
-1692.72 446.50 2570.5
-1690.19 447.60 2576.8
-1701.17 452.29 2603.8
-1694.23 452.24 2603.5
-1660.45 454.08 2614.1
-1673.55 459.54 2645.5
-1663.86 458.76 2641.0
-1661.01 459.87 2647.4
-1678.58 466.66 2686.5
-1656.46 464.36 2673.3
-1626.99 458.02 2636.8
-1672.69 483.06 2781.0
-1646.00 477.41 2748.4
-1661.99 484.14 2787.2
-1662.66 486.46 2800.5
-1645.17 483.45 2783.2
-1647.79 486.35 2799.9
-1650.35 489.26 2816.7
-1644.87 489.80 2819.8
-1631.91 488.12 2810.1
-1630.37 489.84 2820.0
-1633.72 493.06 2838.5
-1610.94 488.38 2811.6
-1585.81 482.95 2780.3
-1590.08 486.46 2800.5
-1610.33 494.92 2849.2
-1602.74 494.86 2848.9
-1582.11 490.75 2825.2
-1576.48 491.28 2828.2
-1550.96 492.48 2835.2
-1535.20 494.51 2846.9
-1572.43 508.95 2930.0
-1568.35 510.09 2936.6
-1534.08 501.38 2886.4
-1520.81 499.48 2875.5
-1509.87 498.33 2868.9
-1488.87 493.83 2843.0
-1489.43 496.48 2858.2
-1499.48 502.33 2891.9
-1444.25 491.19 2827.8
-1664.15 448.30 2619.9
-1660.85 449.25 2625.5
-1658.05 450.33 2631.8
-1663.24 459.30 2684.2
-1638.41 454.35 2655.3
-1644.67 467.88 2734.4
-1639.93 468.55 2738.3
-1678.23 481.58 2814.4
-1664.21 479.64 2803.1
-1630.60 472.01 2758.5
-1630.77 474.14 2771.0
-1632.89 476.86 2786.8
-1641.31 485.77 2838.9
-1608.11 478.09 2794.0
-1628.19 486.25 2841.7
-1646.12 493.84 2886.1
-1624.80 489.66 2861.7
-1620.60 490.64 2867.4
-1613.46 490.73 2867.9
-1592.78 486.68 2844.3
-1588.09 487.51 2849.1
-1554.31 483.89 2827.9
-1593.72 498.51 2913.4
-1585.97 498.45 2913.0
-1549.00 489.16 2858.7
-1557.31 494.15 2887.9
-1574.37 501.97 2933.6
-1547.92 495.94 2898.3
-1533.68 493.77 2885.7
-1537.97 497.58 2907.9
-1533.41 498.55 2913.6
-1518.73 496.22 2900.0
-1503.65 493.74 2885.5
-1498.18 494.40 2889.3
-1495.86 496.11 2899.4
-1463.24 487.75 2850.5
-1673.32 440.35 2613.1
-1646.11 434.95 2581.0
-1648.66 439.19 2606.2
-1670.70 446.90 2651.9
-1655.14 453.94 2693.7
-1680.11 468.70 2781.3
-1668.66 467.51 2774.2
-1679.60 472.62 2804.5
-1642.70 468.31 2779.0
-1619.40 465.76 2763.8
-1621.50 468.43 2779.7
-1617.51 473.60 2810.4
-1610.03 473.54 2810.0
-1617.38 484.47 2874.9
-1612.64 485.29 2879.7
-1623.29 490.76 2912.2
-1605.00 487.50 2892.9
-1585.35 483.79 2870.9
-1602.00 491.18 2914.7
-1582.51 492.17 2920.6
-1560.17 487.55 2893.2
-1545.43 485.28 2879.7
-1522.81 480.50 2851.3
-1512.84 479.68 2846.5
-1517.21 483.43 2868.7
-1511.36 483.93 2871.7
-1485.75 478.09 2837.0
-1680.10 428.39 2581.8
-1690.97 432.89 2608.9
-1668.44 434.07 2616.0
-1655.90 436.12 2628.4
-1666.24 440.66 2655.8
-1675.42 444.92 2681.5
-1649.95 445.56 2685.3
-1656.82 465.07 2802.9
-1638.93 464.12 2797.2
-1631.49 464.07 2796.8
-1610.05 466.26 2810.0
-1623.64 472.33 2846.6
-1628.47 478.08 2881.3
-1615.96 476.60 2872.4
-1635.41 484.57 2920.4
-1621.89 482.79 2909.7
-1579.12 472.26 2846.2
-1573.91 472.91 2850.1
-1605.38 484.64 2920.8
-1573.12 481.72 2903.2
-1553.64 478.04 2881.1
-1555.76 481.01 2898.9
-1549.88 481.52 2902.0
-1500.34 468.40 2822.9
-1491.12 470.11 2833.2
-1494.97 473.65 2854.6
-1465.80 466.72 2812.8
-1460.48 467.35 2816.6
-1681.77 423.81 2594.7
-1675.92 424.03 2596.1
-1670.44 429.54 2629.9
-1644.36 424.57 2599.4
-1647.95 427.25 2615.8
-1669.47 440.07 2694.3
-1637.85 433.55 2654.4
-1633.46 436.05 2669.7
-1664.96 446.35 2732.8
-1670.54 449.76 2753.6
-1649.40 445.98 2730.5
-1648.09 453.40 2775.9
-1654.31 457.11 2798.6
-1646.45 458.97 2810.0
-1625.51 455.14 2786.6
-1651.41 464.46 2843.6
-1645.50 469.08 2871.9
-1633.48 467.77 2863.9
-1638.58 471.37 2886.0
-1613.88 466.40 2855.5
-1598.52 464.09 2841.3
-1615.61 471.22 2885.0
-1602.16 469.47 2874.3
-1581.54 465.59 2850.6
-1599.78 473.17 2897.0
-1597.79 474.81 2907.0
-1585.78 473.48 2898.9
-1577.64 477.84 2925.6
-1557.21 473.93 2901.6
-1570.44 480.28 2940.5
-1539.38 473.08 2896.4
-1492.53 463.20 2835.9
-1528.52 476.72 2918.7
-1529.85 479.51 2935.8
-1452.96 464.65 2844.8
-1687.44 415.16 2582.8
-1688.65 417.12 2595.0
-1651.86 430.32 2677.1
-1635.38 427.82 2661.6
-1654.63 434.69 2704.3
-1668.04 440.08 2737.8
-1656.14 438.81 2729.9
-1644.26 437.53 2722.0
-1670.20 446.35 2776.8
-1658.70 449.08 2793.8
-1659.35 451.23 2807.2
-1672.50 456.81 2841.9
-1629.93 447.15 2781.8
-1608.55 443.24 2757.5
-1633.01 451.99 2811.9
-1643.88 457.04 2843.3
-1618.28 460.25 2863.3
-1588.33 453.81 2823.2
-1589.99 456.39 2839.3
-1617.61 466.47 2902.0
-1602.59 468.68 2915.8
-1577.25 463.46 2883.3
-1590.40 469.55 2921.1
-1577.67 470.27 2925.6
-1571.28 470.63 2927.9
-1571.47 475.27 2956.8
-1521.01 462.27 2875.9
-1497.63 457.40 2845.6
-1501.45 460.84 2867.0
-1514.79 467.25 2906.9
-1461.54 459.98 2861.6
-1675.24 403.91 2554.0
-1664.61 402.94 2547.9
-1653.77 405.14 2561.8
-1661.90 408.77 2584.8
-1676.39 420.82 2660.9
-1661.20 425.77 2692.2
-1650.91 424.92 2686.8
-1649.43 426.34 2695.8
-1642.76 426.42 2696.3
-1643.27 428.37 2708.7
-1644.75 430.60 2722.8
-1644.65 432.43 2734.3
-1652.64 436.41 2759.5
-1668.93 446.51 2823.4
-1648.88 443.09 2801.8
-1623.91 438.31 2771.5
-1619.02 438.93 2775.5
-1644.46 447.82 2831.7
-1656.77 453.20 2865.7
-1642.27 451.25 2853.4
-1629.77 449.85 2844.5
-1616.45 465.11 2941.0
-1593.43 460.66 2912.8
-1582.84 459.78 2907.3
-1576.99 460.27 2910.4
-1572.99 461.31 2917.0
-1594.72 469.94 2971.5
-1564.53 465.54 2943.7
-1527.05 456.62 2887.3
-1516.09 455.57 2880.7
-1502.39 453.69 2868.8
-1498.80 454.86 2876.2
-1489.71 454.36 2873.0
-1474.72 452.05 2858.4
-1471.54 453.35 2866.6
-1453.90 450.19 2846.7
-1695.09 400.42 2574.1
-1671.90 396.50 2548.9
-1685.14 401.22 2579.3
-1669.35 405.51 2606.9
-1670.38 407.41 2619.1
-1657.54 405.93 2609.5
-1647.91 405.22 2605.0
-1664.71 411.04 2642.4
-1657.68 423.24 2720.8
-1638.09 420.02 2700.2
-1654.46 426.04 2738.8
-1669.14 431.67 2775.1
-1680.11 436.39 2805.4
-1654.46 441.19 2836.2
-1662.37 445.28 2862.5
-1652.65 446.66 2871.4
-1606.12 436.05 2803.2
-1596.68 435.46 2799.4
-1625.41 445.32 2862.8
-1631.95 449.16 2887.5
-1617.55 455.65 2929.2
-1563.49 442.50 2844.6
-1566.82 445.54 2864.2
-1582.38 452.11 2906.4
-1568.03 450.15 2893.8
-1556.55 449.00 2886.5
-1561.49 452.61 2909.6
-1555.59 453.08 2912.7
-1560.83 456.83 2936.8
-1534.56 453.56 2915.8
-1492.29 443.25 2849.5
-1488.28 444.26 2856.0
-1479.23 443.77 2852.8
-1436.79 437.60 2813.2
-1438.15 440.25 2830.2
-1663.84 394.24 2577.4
-1650.50 392.66 2567.0
-1662.87 397.20 2596.7
-1660.72 398.30 2603.9
-1643.65 395.82 2587.7
-1648.37 398.58 2605.7
-1679.98 407.90 2666.6
-1684.87 414.20 2707.8
-1671.41 412.61 2697.4
-1673.47 427.42 2794.3
-1623.35 433.38 2833.3
-1596.83 432.17 2825.3
-1627.69 442.55 2893.2
-1593.03 437.16 2857.9
-1616.67 445.72 2913.9
-1606.06 444.87 2908.4
-1554.89 432.73 2829.0
-1557.78 435.59 2847.7
-1571.49 441.51 2886.4
-1554.34 438.79 2868.6
-1531.62 434.45 2840.2
-1525.41 434.78 2842.4
-1544.39 442.33 2891.7
-1577.12 453.90 2967.4
-1544.26 448.82 2934.2
-1499.19 437.88 2862.7
-1491.03 437.67 2861.3
-1480.14 436.64 2854.6
-1441.29 433.86 2836.4
-1706.93 389.77 2592.1
-1661.56 394.96 2626.6
-1671.46 398.95 2653.1
-1663.86 398.78 2652.0
-1674.13 402.90 2679.4
-1672.76 404.25 2688.4
-1659.34 402.68 2678.0
-1674.52 415.05 2760.2
-1631.14 409.55 2723.6
-1643.13 417.99 2779.7
-1650.33 421.67 2804.2
-1616.81 414.93 2759.4
-1607.56 421.89 2805.7
-1596.32 424.71 2824.4
-1617.96 432.45 2875.9
-1603.54 430.58 2863.5
-1580.11 428.25 2848.0
-1618.52 440.72 2930.9
-1619.34 443.03 2946.2
-1607.73 441.93 2939.0
-1603.72 442.93 2945.6
-1569.45 435.54 2896.5
-1550.62 438.71 2917.5
-1569.24 446.16 2967.1
-1527.18 436.34 2901.8
-1480.33 425.04 2826.6
-1482.78 427.87 2845.4
-1484.25 430.43 2862.5
-1478.36 430.88 2865.5
-1482.41 434.24 2887.8
-1427.76 420.36 2795.5
-1683.26 380.74 2576.4
-1683.95 382.41 2587.7
-1670.49 390.24 2640.7
-1659.75 389.32 2634.5
-1663.79 391.88 2651.8
-1662.18 410.15 2775.4
-1626.87 403.18 2728.3
-1627.95 406.99 2754.0
-1625.13 408.07 2761.4
-1633.90 413.92 2801.0
-1603.08 413.47 2797.9
-1586.28 410.99 2781.1
-1601.37 416.80 2820.4
-1595.81 417.25 2823.5
-1593.62 418.60 2832.6
-1584.13 418.03 2828.8
-1570.46 418.30 2830.6
-1615.63 432.35 2925.7
-1585.25 434.42 2939.7
-1560.08 429.59 2907.0
-1551.85 429.40 2905.7
-1505.93 422.85 2861.4
-1440.62 412.64 2792.3
-1697.39 378.70 2608.4
-1665.48 383.82 2643.6
-1643.66 380.35 2619.8
-1660.31 385.80 2657.3
-1664.23 388.32 2674.7
-1671.22 391.58 2697.1
-1658.83 403.89 2781.9
-1644.81 407.56 2807.2
-1656.69 416.03 2865.5
-1596.15 402.63 2773.2
-1599.10 405.20 2790.9
-1624.58 413.53 2848.3
-1627.79 416.24 2866.9
-1609.93 413.56 2848.5
-1597.48 412.25 2839.5
-1576.83 408.81 2815.8
-1573.65 409.88 2823.2
-1626.74 425.69 2932.0
-1630.00 428.55 2951.7
-1608.81 424.97 2927.1
-1607.23 430.64 2966.2
-1589.47 427.93 2947.5
-1598.06 432.32 2977.7
-1547.02 426.77 2939.5
-1512.49 419.30 2888.1
-1468.54 409.14 2818.1
-1671.04 373.61 2620.1
-1658.72 372.37 2611.4
-1671.74 378.38 2653.6
-1639.34 372.58 2612.9
-1646.02 375.65 2634.4
-1671.34 387.86 2720.1
-1634.53 389.17 2729.3
-1659.28 396.78 2782.6
-1622.50 393.12 2756.9
-1615.65 393.19 2757.4
-1644.30 401.94 2818.8
-1645.23 405.77 2845.7
-1645.68 411.42 2885.3
-1643.69 418.53 2935.2
-1639.31 419.36 2941.0
-1635.26 422.25 2961.2
-1613.57 418.61 2935.7
-1618.64 421.92 2958.9
-1586.60 415.54 2914.2
-1556.63 409.64 2872.8
-1540.95 407.46 2857.5
-1549.72 411.76 2887.7
-1568.64 418.81 2937.1
-1564.08 419.63 2942.9
-1473.23 405.14 2841.2
-1447.37 400.03 2805.4
-1442.96 400.82 2811.0
-1676.47 356.41 2545.8
-1682.18 359.04 2564.6
-1646.91 362.99 2592.8
-1667.41 370.54 2646.7
-1683.57 375.67 2683.4
-1646.15 373.50 2667.8
-1642.67 374.28 2673.4
-1657.40 390.83 2791.6
-1655.55 392.10 2800.7
-1621.93 385.83 2756.0
-1615.59 386.03 2757.3
-1638.74 393.30 2809.3
-1646.86 402.40 2874.3
-1658.23 412.65 2947.5
-1619.89 404.97 2892.7
-1612.70 405.05 2893.2
-1628.36 414.77 2962.6
-1623.85 415.58 2968.4
-1582.77 407.00 2907.1
-1564.63 404.26 2887.6
-1563.52 405.91 2899.4
-1530.91 399.37 2852.6
-1507.83 395.26 2823.3
-1544.96 406.96 2906.9
-1476.06 394.59 2818.5
-1491.85 400.80 2862.8
-1448.24 392.99 2807.1
-1423.88 388.33 2773.8
-1425.45 392.73 2805.2
-1687.92 363.66 2646.6
-1660.10 359.12 2613.6
-1655.50 362.57 2638.6
-1671.61 367.61 2675.4
-1643.97 366.09 2664.3
-1660.20 377.64 2748.3
-1643.35 382.01 2780.1
-1650.57 385.37 2804.6
-1636.09 383.69 2792.3
-1642.51 399.33 2906.2
-1624.11 396.67 2886.8
-1597.53 391.99 2852.7
-1599.12 394.20 2868.8
-1633.87 404.65 2944.9
-1620.67 405.17 2948.7
-1591.89 399.86 2910.0
-1567.06 395.50 2878.3
-1564.58 396.76 2887.5
-1570.07 400.07 2911.5
-1544.47 395.45 2877.9
-1527.89 393.10 2860.8
-1493.32 389.88 2837.4
-1450.98 382.60 2784.4
-1674.44 353.95 2625.4
-1663.71 353.11 2619.3
-1648.75 351.37 2606.3
-1656.07 354.39 2628.7
-1665.71 359.41 2665.9
-1655.98 358.80 2661.4
-1669.87 372.68 2764.4
-1637.85 368.69 2734.8
-1653.96 373.94 2773.7
-1662.82 377.58 2800.8
-1622.96 373.42 2769.9
-1623.59 375.23 2783.3
-1652.59 383.64 2845.7
-1660.07 390.61 2897.3
-1630.27 385.34 2858.3
-1612.88 382.97 2840.7
-1595.06 380.47 2822.2
-1618.70 387.89 2877.2
-1633.38 393.22 2916.7
-1614.53 390.49 2896.5
-1629.00 395.83 2936.1
-1569.92 386.90 2869.9
-1536.62 382.32 2835.9
-1570.50 392.62 2912.3
-1545.83 388.32 2880.4
-1530.18 386.26 2865.1
-1552.79 393.88 2921.6
-1539.89 392.52 2911.6
-1461.82 374.46 2777.6
-1437.15 371.80 2757.9
-1676.87 342.08 2587.2
-1695.16 351.44 2657.9
-1681.70 350.07 2647.6
-1664.56 347.92 2631.3
-1670.25 350.55 2651.2
-1666.12 352.58 2666.6
-1674.24 355.78 2690.7
-1641.66 364.02 2753.1
-1666.80 371.21 2807.5
-1663.91 372.19 2814.9
-1613.62 362.53 2741.8
-1631.06 371.36 2808.6
-1640.00 375.07 2836.6
-1661.71 381.74 2887.1
-1650.62 380.91 2880.9
-1607.07 372.55 2817.6
-1592.81 374.35 2831.2
-1624.58 383.58 2901.0
-1623.66 385.15 2912.9
-1617.38 385.45 2915.2
-1614.45 386.56 2923.6
-1581.77 382.32 2891.5
-1545.54 377.14 2852.3
-1570.44 385.06 2912.2
-1537.32 378.76 2864.6
-1502.51 371.98 2813.3
-1501.93 373.65 2825.9
-1530.55 382.64 2893.9
-1492.74 375.02 2836.3
-1436.72 362.74 2743.4
-1464.62 371.62 2810.6
-1452.91 370.49 2802.0
-1435.49 369.75 2796.4
-1412.10 365.57 2764.8
-1670.80 342.38 2641.2
-1666.41 342.88 2645.1
-1675.73 346.23 2670.9
-1657.04 343.78 2652.0
-1646.84 356.46 2749.8
-1659.37 360.73 2782.8
-1658.08 362.03 2792.8
-1626.39 356.67 2751.4
-1601.61 359.11 2770.2
-1636.35 368.55 2843.1
-1628.91 371.90 2868.9
-1607.12 368.61 2843.5
-1617.09 372.60 2874.4
-1631.31 377.62 2913.0
-1642.94 382.08 2947.5
-1603.82 376.48 2904.3
-1568.82 370.01 2854.3
-1592.20 377.30 2910.6
-1596.81 380.19 2932.9
-1579.55 377.88 2915.1
-1559.53 374.89 2892.0
-1533.96 370.52 2858.3
-1507.58 365.92 2822.8
-1476.93 363.78 2806.3
-1472.13 364.39 2811.0
-1464.54 364.31 2810.4
-1398.92 355.06 2739.0
-1655.52 335.21 2638.7
-1659.54 337.42 2656.0
-1647.73 336.41 2648.1
-1652.17 338.73 2666.4
-1678.90 356.13 2803.4
-1634.73 354.43 2790.0
-1601.01 351.79 2769.2
-1630.81 359.95 2833.4
-1652.93 366.49 2884.9
-1643.33 366.01 2881.2
-1598.40 357.63 2815.2
-1592.15 359.52 2830.0
-1611.80 365.64 2878.2
-1629.32 371.33 2923.0
-1600.38 368.16 2898.1
-1547.68 357.72 2815.9
-1551.10 360.21 2835.5
-1563.00 364.70 2870.8
-1553.44 364.20 2866.9
-1540.11 362.82 2856.0
-1526.36 361.31 2844.1
-1513.11 359.92 2833.2
-1498.04 358.07 2818.6
-1462.58 351.31 2765.4
-1442.14 348.10 2740.2
-1456.83 353.39 2781.8
-1471.35 358.69 2823.5
-1420.74 348.08 2740.0
-1667.33 328.00 2635.7
-1662.56 331.13 2660.9
-1678.58 335.72 2697.7
-1676.65 336.73 2705.9
-1670.12 341.13 2741.2
-1639.12 336.23 2701.8
-1668.06 346.61 2785.3
-1667.81 348.06 2796.9
-1612.67 344.04 2764.6
-1605.80 344.10 2765.1
-1627.77 350.37 2815.5
-1649.87 358.34 2879.5
-1625.99 354.76 2850.8
-1602.72 351.28 2822.8
-1605.96 353.61 2841.5
-1583.77 350.33 2815.1
-1568.48 348.55 2800.9
-1589.06 354.77 2850.8
-1603.17 359.59 2889.6
-1595.97 359.65 2890.1
-1580.14 357.77 2874.9
-1554.35 353.60 2841.4
-1533.91 350.61 2817.4
-1555.72 357.29 2871.1
-1576.36 363.77 2923.2
-1488.51 350.24 2814.4
-1459.63 345.13 2773.4
-1465.96 348.35 2799.2
-1461.62 349.04 2804.8
-1681.75 321.31 2636.9
-1682.73 322.81 2649.2
-1678.34 323.29 2653.1
-1678.70 324.69 2664.6
-1674.25 325.16 2668.5
-1665.14 328.83 2698.6
-1636.09 324.46 2662.7
-1647.67 328.14 2692.9
-1646.18 329.24 2701.9
-1642.07 329.82 2706.7
-1643.62 343.33 2817.6
-1625.15 340.99 2798.4
-1635.63 344.73 2829.1
-1603.17 347.23 2849.6
-1581.98 344.23 2825.0
-1595.74 348.84 2862.8
-1596.80 350.70 2878.1
-1575.68 347.69 2853.4
-1575.26 349.23 2866.0
-1566.66 348.97 2863.9
-1571.37 351.69 2886.2
-1497.24 344.95 2830.9
-1485.92 344.03 2823.4
-1455.72 338.71 2779.7
-1413.28 330.47 2712.0
-1412.18 333.53 2737.2
-1421.53 337.43 2769.2
-1379.65 329.15 2701.3
-1660.43 327.81 2748.7
-1635.70 324.32 2719.4
-1666.78 331.91 2783.1
-1676.91 336.85 2824.5
-1659.82 334.88 2808.0
-1640.27 332.39 2787.1
-1630.85 331.94 2783.4
-1641.99 335.70 2814.8
-1648.51 338.53 2838.6
-1658.91 342.20 2869.3
-1653.12 344.09 2885.2
-1635.63 342.00 2867.7
-1568.51 335.59 2813.9
-1568.23 337.10 2826.6
-1545.93 335.44 2812.7
-1552.23 338.40 2837.5
-1555.70 345.71 2898.8
-1501.48 336.92 2825.1
-1465.52 330.46 2770.9
-1498.79 339.63 2847.8
-1446.25 330.98 2775.3
-1393.42 320.49 2687.3
-1426.66 329.78 2765.2
-1448.67 336.56 2822.1
-1651.54 318.97 2734.0
-1648.06 322.45 2763.8
-1642.74 322.81 2766.9
-1664.75 328.57 2816.3
-1638.76 326.30 2796.9
-1614.29 322.86 2767.4
-1657.38 332.95 2853.9
-1597.11 325.20 2787.5
-1597.45 328.24 2813.5
-1607.58 331.84 2844.3
-1610.25 333.92 2862.2
-1584.17 330.04 2828.9
-1576.14 329.89 2827.6
-1592.24 334.82 2869.9
-1595.66 337.11 2889.5
-1572.16 333.71 2860.4
-1559.28 332.55 2850.4
-1545.95 331.28 2839.5
-1535.03 330.51 2832.9
-1536.88 332.50 2850.0
-1530.66 332.75 2852.2
-1508.96 329.63 2825.4
-1462.08 324.11 2778.1
-1479.49 329.59 2825.1
-1417.42 320.52 2747.3
-1445.38 328.50 2815.7
-1647.27 311.07 2726.9
-1628.54 311.55 2731.1
-1641.58 315.41 2765.0
-1661.26 323.43 2835.3
-1660.50 329.11 2885.0
-1620.22 322.58 2827.8
-1642.29 328.46 2879.3
-1625.33 326.55 2862.6
-1606.47 324.24 2842.4
-1611.38 329.77 2890.8
-1587.29 326.36 2860.9
-1609.97 332.58 2915.4
-1606.55 333.43 2923.0
-1573.96 328.22 2877.2
-1540.12 322.69 2828.8
-1519.27 319.85 2803.8
-1508.43 319.09 2797.2
-1477.37 318.65 2793.4
-1474.47 319.59 2801.6
-1446.14 315.00 2761.4
-1408.77 308.39 2703.4
-1410.56 310.32 2720.4
-1406.35 310.95 2725.9
-1376.66 305.93 2681.8
-1658.36 300.88 2699.0
-1651.76 302.24 2711.1
-1673.24 312.82 2806.1
-1618.16 312.02 2798.9
-1654.41 320.45 2874.5
-1617.10 318.97 2861.2
-1624.63 321.93 2887.8
-1604.95 320.99 2879.3
-1588.61 319.21 2863.3
-1616.10 326.26 2926.5
-1591.98 324.43 2910.2
-1591.39 325.86 2923.0
-1532.39 316.79 2841.6
-1488.04 312.13 2799.8
-1510.28 318.34 2855.6
-1461.24 311.06 2790.2
-1403.57 300.27 2693.4
-1422.34 305.80 2743.1
-1434.50 309.97 2780.4
-1430.15 310.59 2786.0
-1670.53 305.05 2801.5
-1684.46 308.94 2837.2
-1642.01 302.48 2777.8
-1635.30 303.90 2791.0
-1654.46 308.83 2836.2
-1648.45 309.08 2838.5
-1646.91 310.18 2848.6
-1649.29 317.75 2918.1
-1633.77 316.21 2904.0
-1632.40 317.41 2915.0
-1624.68 317.38 2914.7
-1576.02 315.20 2894.7
-1535.08 309.97 2846.7
-1502.01 306.24 2812.4
-1478.56 302.92 2782.0
-1439.41 296.35 2721.6
-1480.69 306.35 2813.4
-1478.19 307.35 2822.6
-1423.20 297.39 2731.1
-1445.56 303.57 2787.9
-1448.51 305.72 2807.6
-1433.20 304.01 2791.9
-1405.71 299.70 2752.3
-1683.39 302.72 2847.8
-1665.84 302.21 2843.1
-1631.73 297.34 2797.2
-1643.79 300.87 2830.5
-1662.09 309.75 2914.0
-1654.89 309.82 2914.7
-1619.75 304.63 2865.9
-1592.61 300.91 2830.8
-1606.96 305.02 2869.6
-1616.79 308.32 2900.5
-1629.38 312.17 2936.8
-1571.60 306.84 2886.6
-1550.15 304.10 2860.8
-1532.10 302.00 2841.1
-1521.67 301.39 2835.4
-1503.27 299.19 2814.7
-1509.30 304.83 2867.8
-1478.72 301.63 2837.6
-1418.96 293.83 2764.2
-1667.18 296.39 2858.0
-1651.79 298.97 2882.9
-1641.21 298.40 2877.4
-1659.16 303.04 2922.2
-1649.97 302.75 2919.4
-1610.03 296.78 2861.8
-1609.72 298.10 2874.5
-1556.60 293.70 2832.1
-1590.61 301.54 2907.7
-1580.50 301.05 2903.0
-1566.13 299.74 2890.3
-1557.48 299.51 2888.2
-1521.99 294.10 2836.0
-1475.91 286.58 2763.5
-1477.27 289.66 2793.2
-1479.93 291.61 2812.0
-1432.89 286.58 2763.4
-1446.40 290.73 2803.5
-1422.90 287.45 2771.9
-1685.81 285.86 2827.1
-1661.96 289.36 2861.8
-1632.45 285.50 2823.6
-1625.38 286.83 2836.8
-1629.20 288.81 2856.4
-1662.93 296.14 2928.8
-1652.39 298.35 2950.7
-1596.59 289.61 2864.3
-1538.35 284.34 2812.1
-1546.05 287.12 2839.7
-1550.79 289.38 2862.0
-1547.87 290.23 2870.4
-1522.30 286.81 2836.6
-1533.93 290.40 2872.1
-1524.60 291.47 2882.7
-1441.27 276.90 2738.5
-1652.27 279.05 2832.5
-1659.78 281.57 2858.0
-1653.21 281.71 2859.5
-1653.93 284.39 2886.6
-1645.31 284.19 2884.6
-1648.66 287.38 2917.0
-1628.25 285.13 2894.2
-1609.39 283.13 2873.9
-1622.13 286.70 2910.1
-1633.75 290.10 2944.7
-1600.44 285.52 2898.2
-1576.42 282.57 2868.1
-1576.42 283.91 2881.8
-1567.79 283.70 2879.6
-1563.91 284.35 2886.2
-1552.43 283.62 2878.8
-1519.77 278.99 2831.9
-1526.72 281.63 2858.6
-1499.76 279.37 2835.7
-1450.38 271.50 2755.8
-1449.85 272.74 2768.5
-1419.79 268.42 2724.6
-1401.92 270.42 2744.9
-1683.05 271.93 2834.8
-1664.91 270.18 2816.6
-1659.59 274.13 2857.7
-1648.79 276.04 2877.7
-1652.04 277.84 2896.4
-1655.35 280.95 2928.9
-1623.68 276.85 2886.1
-1598.50 273.82 2854.5
-1602.06 275.70 2874.1
-1597.80 276.26 2879.9
-1535.92 268.06 2794.5
-1548.99 271.62 2831.6
-1546.65 272.51 2840.8
-1549.02 274.23 2858.8
-1552.73 276.21 2879.4
-1536.56 274.65 2863.2
-1509.65 271.15 2826.7
-1489.90 268.91 2803.3
-1456.26 264.13 2753.4
-1418.70 259.86 2709.0
-1402.51 260.77 2718.4
-1383.21 262.45 2736.0
-1653.83 263.44 2822.6
-1643.84 263.01 2818.0
-1632.93 273.42 2929.5
-1604.87 269.98 2892.6
-1547.85 264.09 2829.5
-1545.99 265.03 2839.6
-1523.67 262.45 2812.0
-1495.31 258.80 2772.9
-1507.63 262.20 2809.3
-1516.98 265.10 2840.4
-1521.52 267.19 2862.8
-1510.59 266.57 2856.2
-1467.65 260.27 2788.6
-1450.41 258.49 2769.5
-1477.45 264.62 2835.2
-1378.90 251.98 2699.8
-1379.60 256.01 2742.9
-1652.83 253.72 2796.1
-1653.17 257.16 2834.0
-1630.45 261.77 2884.8
-1616.45 260.72 2873.2
-1643.41 266.29 2934.7
-1586.31 264.39 2913.6
-1533.45 256.80 2830.0
-1497.54 253.21 2790.4
-1521.02 258.43 2848.0
-1508.54 258.82 2852.3
-1436.82 247.73 2730.1
-1422.93 246.55 2717.1
-1448.71 252.26 2780.0
-1427.04 252.26 2780.0
-1389.77 252.03 2777.5
-1632.85 246.74 2799.2
-1661.47 252.19 2861.0
-1659.40 253.00 2870.2
-1654.80 253.44 2875.1
-1651.65 254.10 2882.7
-1639.09 253.31 2873.7
-1612.82 252.70 2866.8
-1597.41 251.44 2852.5
-1592.73 251.87 2857.4
-1577.39 250.61 2843.1
-1595.35 254.66 2889.0
-1556.56 252.01 2859.0
-1515.20 246.49 2796.3
-1516.12 250.23 2838.8
-1507.10 249.96 2835.7
-1465.31 249.10 2826.0
-1385.87 237.98 2699.8
-1387.39 240.67 2730.3
-1389.84 242.33 2749.1
-1672.27 243.11 2841.5
-1636.02 238.89 2792.2
-1657.75 243.14 2841.9
-1649.60 245.21 2866.1
-1613.26 240.89 2815.6
-1625.53 243.83 2850.0
-1620.10 247.52 2893.0
-1590.09 244.06 2852.7
-1581.04 243.81 2849.7
-1607.19 249.00 2910.4
-1571.64 245.80 2873.0
-1543.00 242.47 2834.1
-1531.14 241.76 2825.8
-1496.19 239.68 2801.5
-1493.33 240.39 2809.7
-1417.54 236.26 2761.4
-1390.54 232.93 2722.6
-1403.89 236.37 2762.8
-1669.21 233.25 2811.5
-1638.43 236.17 2846.7
-1622.45 234.93 2831.7
-1654.83 242.91 2928.0
-1615.61 240.46 2898.4
-1593.40 238.27 2872.0
-1607.46 241.50 2910.9
-1600.70 241.61 2912.3
-1569.51 238.03 2869.1
-1546.12 235.60 2839.8
-1511.48 234.79 2830.1
-1515.58 236.58 2851.6
-1471.56 230.83 2782.4
-1436.65 226.47 2729.7
-1431.85 229.10 2761.4
-1406.20 228.42 2753.3
-1395.55 227.85 2746.4
-1387.63 227.71 2744.8
-1652.76 228.73 2846.0
-1621.76 225.45 2805.1
-1625.25 226.95 2823.8
-1637.43 230.73 2870.8
-1599.63 227.47 2830.3
-1619.00 231.29 2877.8
-1618.78 233.41 2904.1
-1591.24 230.51 2868.1
-1564.02 229.79 2859.1
-1532.06 226.16 2814.0
-1505.15 226.50 2818.2
-1469.01 223.23 2777.5
-1427.59 218.01 2712.5
-1436.41 220.44 2742.8
-1441.42 222.31 2766.0
-1434.84 222.40 2767.2
-1403.92 222.05 2762.8
-1674.84 217.51 2796.6
-1668.05 223.40 2872.3
-1657.97 223.04 2867.7
-1624.83 221.57 2848.7
-1588.43 219.60 2823.4
-1633.07 226.81 2916.2
-1615.15 225.37 2897.6
-1590.52 222.97 2866.8
-1591.57 224.17 2882.1
-1579.10 223.46 2873.0
-1584.86 225.33 2897.2
-1564.21 224.53 2886.8
-1430.58 213.52 2745.3
-1662.00 206.86 2751.3
-1636.86 209.11 2781.3
-1654.19 212.26 2823.2
-1632.62 214.24 2849.4
-1610.73 212.32 2824.0
-1622.58 217.85 2897.5
-1621.71 218.74 2909.4
-1590.28 215.50 2866.3
-1584.58 215.74 2869.5
-1555.31 212.75 2829.7
-1542.48 212.00 2819.7
-1568.32 216.58 2880.6
-1552.56 215.43 2865.3
-1515.55 211.30 2810.4
-1427.80 208.07 2767.4
-1671.53 200.87 2767.1
-1649.88 204.41 2815.9
-1624.42 205.81 2835.1
-1614.42 205.47 2830.5
-1628.58 208.22 2868.3
-1620.49 208.14 2867.2
-1598.20 206.22 2840.8
-1617.46 209.67 2888.3
-1590.99 208.17 2867.6
-1588.67 208.84 2876.9
-1558.42 205.83 2835.4
-1549.94 206.66 2846.8
-1506.67 201.85 2780.6
-1663.24 194.40 2777.2
-1644.12 193.01 2757.2
-1629.42 194.66 2780.9
-1652.20 198.26 2832.3
-1626.15 196.01 2800.1
-1632.20 197.62 2823.1
-1660.55 201.96 2885.1
-1657.40 202.49 2892.7
-1655.69 203.20 2902.8
-1609.88 201.24 2874.8
-1577.80 200.00 2857.2
-1572.10 200.22 2860.3
-1573.10 201.30 2875.7
-1431.27 191.31 2733.0
-1663.46 187.23 2777.6
-1661.72 187.85 2786.7
-1649.82 189.80 2815.7
-1671.73 195.79 2904.6
-1652.66 194.43 2884.4
-1634.15 193.13 2865.1
-1643.67 196.94 2921.6
-1580.83 190.29 2822.9
-1599.67 194.35 2883.2
-1591.55 195.19 2895.7
-1565.17 192.86 2861.2
-1488.24 186.03 2759.8
-1498.26 188.19 2791.8
-1467.23 185.18 2747.2
-1455.63 185.52 2752.2
-1434.24 183.70 2725.2
-1454.16 187.17 2776.7
-1644.68 178.00 2746.2
-1662.95 180.76 2788.8
-1650.47 180.18 2780.0
-1647.86 181.48 2800.0
-1645.92 186.19 2872.7
-1641.78 186.57 2878.5
-1589.32 186.54 2878.0
-1568.20 184.93 2853.2
-1545.73 183.14 2825.6
-1528.14 181.92 2806.8
-1523.47 182.23 2811.6
-1520.66 182.77 2819.9
-1514.04 182.85 2821.2
-1485.77 180.31 2782.0
-1475.46 179.93 2776.1
-1501.57 184.02 2839.1
-1639.73 172.60 2774.0
-1652.62 174.73 2808.1
-1662.81 178.96 2876.1
-1651.09 179.30 2881.7
-1567.80 176.65 2839.1
-1535.69 173.85 2794.0
-1542.09 175.40 2819.0
-1554.60 177.67 2855.4
-1544.11 177.31 2849.7
-1533.18 176.90 2843.1
-1539.26 178.46 2868.2
-1525.47 177.72 2856.3
-1489.24 174.35 2802.0
-1484.96 174.70 2807.7
-1495.53 176.81 2841.6
-1687.74 165.18 2770.2
-1638.28 163.83 2747.4
-1648.82 165.60 2777.2
-1623.48 168.96 2833.5
-1629.14 171.10 2869.3
-1651.02 174.19 2921.2
-1571.85 169.73 2846.4
-1552.71 168.45 2825.0
-1560.52 170.91 2866.3
-1523.85 167.70 2812.3
-1556.11 172.07 2885.7
-1474.87 166.28 2788.6
-1447.77 164.85 2764.5
-1671.71 155.18 2720.7
-1671.79 155.84 2732.3
-1656.20 163.39 2864.7
-1640.55 163.31 2863.3
-1670.08 167.01 2928.1
-1623.90 163.13 2860.1
-1631.87 166.21 2914.1
-1580.10 162.44 2848.0
-1520.89 158.58 2780.2
-1514.85 158.70 2782.4
-1531.65 162.00 2840.3
-1540.57 163.73 2870.6
-1483.49 158.43 2777.7
-1514.44 162.52 2849.5
-1507.26 162.55 2849.9
-1445.19 156.62 2746.0
-1477.60 160.93 2821.4
-1679.78 149.47 2745.4
-1656.04 151.20 2777.2
-1637.45 150.16 2758.0
-1666.88 156.97 2883.1
-1682.69 159.17 2923.6
-1608.62 156.39 2872.5
-1574.95 154.55 2838.7
-1508.01 151.52 2783.1
-1514.28 152.88 2808.1
-1486.90 150.84 2770.6
-1520.70 155.78 2861.2
-1493.25 156.01 2865.5
-1445.55 151.78 2787.8
-1691.40 142.73 2752.7
-1652.11 143.66 2770.6
-1686.78 149.94 2891.6
-1684.18 150.37 2900.1
-1678.05 150.50 2902.5
-1674.39 150.85 2909.2
-1655.98 151.93 2930.0
-1557.66 145.58 2807.5
-1556.11 146.80 2831.2
-1528.66 146.99 2834.7
-1518.23 146.69 2829.0
-1504.99 146.12 2818.0
-1495.08 145.86 2813.0
-1481.33 145.94 2814.6
-1475.40 146.81 2831.3
-1671.26 135.70 2754.8
-1651.04 136.99 2780.9
-1673.56 143.23 2907.7
-1650.00 141.86 2879.8
-1657.24 143.12 2905.5
-1627.01 143.12 2905.4
-1561.70 138.66 2814.8
-1520.75 138.92 2820.1
-1494.79 137.87 2798.9
-1501.79 139.19 2825.7
-1411.41 136.13 2763.4
-1401.93 138.01 2801.8
-1380.98 136.66 2774.3
-1668.34 122.07 2615.9
-1659.22 121.90 2612.2
-1693.30 129.15 2767.5
-1679.75 128.66 2757.0
-1663.64 127.97 2742.3
-1657.20 129.13 2767.1
-1674.71 135.79 2909.7
-1666.05 135.70 2907.8
-1544.65 133.03 2850.7
-1527.07 132.15 2831.8
-1499.16 130.36 2793.5
-1507.18 131.69 2822.0
-1415.40 128.67 2757.3
-1693.97 122.02 2768.6
-1660.67 120.65 2737.4
-1661.68 121.24 2750.8
-1673.04 123.66 2805.7
-1662.22 127.86 2901.1
-1548.03 124.72 2829.8
-1556.71 126.02 2859.3
-1544.28 126.22 2863.7
-1503.08 123.44 2800.8
-1492.25 123.15 2794.1
-1528.81 126.78 2876.5
-1441.20 121.89 2765.6
-1412.02 120.62 2736.9
-1462.07 125.53 2848.2
-1457.58 125.78 2853.9
-1448.08 125.60 2849.7
-1664.05 110.02 2652.3
-1686.73 115.33 2780.3
-1683.51 115.61 2786.9
-1562.95 117.96 2843.6
-1526.58 115.76 2790.6
-1536.77 117.09 2822.6
-1541.57 118.58 2858.7
-1524.72 119.00 2868.8
-1456.30 114.22 2753.5
-1451.03 115.50 2784.5
-1495.02 119.60 2883.2
-1448.34 116.45 2807.3
-1418.39 114.62 2763.1
-1427.71 115.96 2795.4
-1432.81 116.96 2819.7
-1415.27 116.12 2799.4
-1373.81 115.08 2774.3
-1369.79 115.35 2780.8
-1375.41 116.44 2807.0
-1663.08 100.19 2576.2
-1656.19 100.17 2575.9
-1655.79 102.21 2628.2
-1643.46 101.87 2619.4
-1644.76 102.80 2643.4
-1691.08 107.94 2775.6
-1578.26 109.60 2818.3
-1576.58 109.99 2828.4
-1555.85 110.08 2830.7
-1546.37 109.93 2826.8
-1545.02 110.36 2837.8
-1445.67 106.30 2733.4
-1473.77 109.98 2828.1
-1481.45 111.67 2871.4
-1461.41 110.71 2846.9
-1453.31 111.22 2860.0
-1407.72 108.29 2784.5
-1372.13 107.20 2756.5
-1385.90 108.84 2798.8
-1382.27 109.13 2806.1
-1388.72 110.22 2834.1
-1367.02 109.07 2804.7
-1702.97 99.34 2736.9
-1684.96 99.96 2753.9
-1689.12 100.63 2772.4
-1645.91 99.75 2748.3
-1540.25 102.20 2815.6
-1536.05 102.40 2821.3
-1516.19 102.05 2811.6
-1501.55 101.55 2797.9
-1486.96 101.55 2797.8
-1466.20 101.62 2799.7
-1451.72 101.11 2785.8
-1435.96 101.53 2797.3
-1460.21 103.77 2859.0
-1443.01 103.07 2839.7
-1460.59 104.86 2889.1
-1423.13 103.23 2844.1
-1420.78 103.60 2854.3
-1421.49 104.19 2870.6
-1368.01 101.87 2806.7
-1677.01 88.26 2618.8
-1651.21 88.34 2621.0
-1685.06 94.83 2813.6
-1584.34 95.35 2829.2
-1471.59 93.32 2768.8
-1484.85 95.56 2835.3
-1465.22 94.77 2811.7
-1453.03 94.45 2802.3
-1463.79 95.62 2837.2
-1440.17 94.56 2805.5
-1429.40 94.33 2798.7
