ply
format ascii 1.0
element vertex 2228
property float x
property float y
property float z
end_header
1045.55 936.45 1753.4
1051.01 929.22 1739.9
994.60 875.59 1639.4
980.86 859.81 1609.9
1009.74 881.38 1650.3
986.36 857.34 1605.3
940.81 814.32 1524.7
975.99 841.23 1575.1
1012.81 869.33 1627.7
1005.91 859.83 1609.9
1022.18 870.12 1629.2
1021.53 865.98 1621.5
1030.58 870.08 1629.1
1092.94 918.96 1720.7
1102.21 922.99 1728.2
1024.95 854.82 1600.6
960.02 797.43 1493.1
973.33 805.25 1507.7
1023.93 843.72 1579.8
1094.22 898.04 1681.5
1044.04 972.85 1830.5
1056.85 980.33 1844.5
1029.89 942.54 1773.4
992.32 904.11 1701.1
964.55 874.92 1646.2
915.34 826.63 1555.3
928.69 835.01 1571.1
1019.18 912.37 1716.6
1068.79 952.62 1792.4
1058.01 930.87 1751.5
1019.99 893.58 1681.3
1022.42 891.90 1678.1
1029.12 893.94 1682.0
983.84 851.00 1601.2
965.04 831.23 1564.0
1024.80 879.01 1653.9
1030.02 879.81 1655.4
999.01 849.78 1598.9
1033.69 875.64 1647.6
1048.13 884.23 1663.7
1042.15 875.58 1647.4
1083.56 906.65 1705.9
1065.33 887.78 1670.4
964.26 800.30 1505.8
1029.59 847.65 1594.9
1104.23 905.47 1703.7
1045.38 969.36 1832.8
1006.11 916.28 1732.5
1016.07 921.24 1741.8
1036.65 935.74 1769.3
1009.80 907.49 1715.8
1038.31 929.01 1756.5
1033.98 921.10 1741.6
990.89 878.87 1661.7
1034.49 913.58 1727.3
1050.66 923.85 1746.8
1008.96 883.38 1670.3
983.50 857.41 1621.2
967.32 839.71 1587.7
959.56 829.45 1568.3
979.41 843.04 1594.0
1020.42 874.65 1653.7
1018.44 869.30 1643.6
966.77 821.76 1553.7
983.88 832.83 1574.7
1051.03 885.99 1675.2
1069.91 898.20 1698.3
1069.85 894.47 1691.2
1095.22 911.94 1724.3
1059.32 878.46 1661.0
987.21 815.35 1541.6
1007.53 828.78 1567.0
1049.26 859.63 1625.4
1085.74 885.96 1675.1
1047.63 966.67 1836.7
1057.30 971.18 1845.3
1066.25 970.62 1844.3
970.85 879.83 1671.7
981.15 885.22 1682.0
1050.88 943.93 1793.5
1082.25 967.83 1838.9
1063.75 947.11 1799.6
1010.20 895.50 1701.5
978.18 863.35 1640.4
1020.84 897.10 1704.6
1059.05 926.67 1760.7
1040.45 906.48 1722.4
1003.71 870.74 1654.5
982.36 848.59 1612.4
977.97 841.22 1598.4
1001.71 858.01 1630.3
1000.66 853.50 1621.7
959.18 814.70 1548.0
953.10 806.16 1531.8
1003.07 844.91 1605.4
1048.00 879.11 1670.4
1053.26 879.88 1671.8
1020.90 849.35 1613.8
1010.36 837.16 1590.7
1049.86 866.35 1646.1
1064.43 874.82 1662.2
1049.89 859.38 1632.9
1053.58 858.94 1632.0
1044.82 848.39 1612.0
1040.97 841.90 1599.7
1109.40 1027.98 1962.9
1021.98 934.12 1783.7
1002.49 912.18 1741.8
1015.64 920.00 1756.7
1001.40 903.05 1724.4
955.35 857.70 1637.7
959.62 857.71 1637.8
1028.61 915.32 1747.8
1051.65 931.72 1779.1
1012.44 893.07 1705.3
998.15 876.63 1673.9
1042.78 911.87 1741.2
1075.28 932.22 1780.1
1044.78 901.90 1722.2
1040.17 894.10 1707.3
1054.07 902.21 1722.8
1031.22 878.93 1678.3
982.78 834.12 1592.7
958.52 810.13 1546.9
966.91 813.82 1554.0
958.37 803.28 1533.9
949.27 792.36 1513.0
978.58 813.47 1553.3
974.80 807.00 1541.0
959.20 790.85 1510.1
987.26 810.67 1548.0
1044.57 854.26 1631.2
1081.42 880.83 1681.9
1088.68 883.18 1686.4
1083.01 875.07 1670.9
1091.25 878.22 1676.9
1130.17 1061.52 2037.0
1102.07 1030.31 1977.1
1129.76 1051.30 2017.4
1041.88 947.59 1818.4
1006.97 911.72 1749.6
1004.18 905.11 1736.9
1010.95 907.14 1740.8
994.75 888.64 1705.3
971.03 863.62 1657.3
1002.63 887.79 1703.7
1018.63 898.01 1723.3
978.81 859.13 1648.6
959.24 838.30 1608.7
988.30 859.95 1650.2
1062.69 920.70 1766.8
1039.01 892.48 1712.7
1012.03 865.61 1661.1
1018.22 867.21 1664.2
991.40 840.81 1613.5
1005.18 848.91 1629.0
1041.17 875.63 1680.3
1015.53 850.50 1632.1
979.51 816.94 1567.7
984.39 810.91 1556.1
1032.61 847.16 1625.7
1022.02 835.07 1602.5
1034.05 841.48 1614.8
1107.55 897.65 1722.6
1127.50 1068.72 2061.1
1124.51 1050.95 2026.8
1087.04 1011.20 1950.2
1103.12 1021.41 1969.9
1118.83 1031.18 1988.7
1048.29 957.34 1846.3
1044.87 949.88 1831.9
1031.87 933.82 1800.9
1018.74 917.79 1770.0
1005.48 901.78 1739.1
998.51 891.52 1719.4
999.72 888.64 1713.8
1000.91 885.76 1708.3
1007.64 887.79 1712.2
989.28 867.79 1673.6
995.47 869.41 1676.7
1016.65 884.04 1704.9
983.48 851.50 1642.2
990.09 853.53 1646.1
1011.37 868.13 1674.2
961.15 821.50 1584.3
992.40 844.60 1628.9
1052.46 891.92 1720.1
1016.63 857.92 1654.6
1020.90 857.90 1654.5
1042.02 871.99 1681.7
1011.04 842.53 1624.9
1006.98 835.67 1611.7
993.63 821.18 1583.7
965.03 794.26 1531.8
1002.33 821.58 1584.5
1047.69 855.25 1649.4
1039.10 844.80 1629.3
1032.91 836.36 1613.0
1084.15 874.31 1686.2
1117.09 1073.92 2081.5
1128.46 1064.29 2062.9
1119.04 1035.76 2007.6
1036.60 950.61 1842.5
1029.64 939.90 1821.8
1032.96 938.62 1819.3
1042.59 943.07 1827.9
1045.45 941.37 1824.6
1033.71 926.62 1796.0
1020.95 911.07 1765.9
1012.18 899.21 1742.9
1011.14 894.30 1733.4
1008.21 887.76 1720.7
1008.01 883.67 1712.8
1030.56 899.48 1743.4
1073.30 932.69 1807.8
1039.97 899.80 1744.0
959.39 826.49 1602.0
973.94 835.40 1619.2
998.95 853.18 1653.7
996.58 847.52 1642.7
1068.92 905.17 1754.5
1077.37 904.63 1753.4
1029.42 860.73 1668.3
999.94 832.59 1613.8
996.37 826.16 1601.3
1015.56 838.58 1625.4
1032.90 849.37 1646.3
1036.64 848.94 1645.5
1035.48 844.51 1636.9
1040.17 844.87 1637.6
1028.10 831.67 1612.0
1018.89 820.89 1591.1
1045.82 839.18 1626.6
1087.81 869.37 1685.1
1098.67 1050.90 2047.2
1115.07 1051.35 2048.1
1098.36 1030.69 2007.8
1104.32 1031.39 2009.2
1114.25 1035.78 2017.8
1114.47 1031.15 2008.7
1084.45 998.70 1945.5
1026.95 941.37 1833.8
1010.62 922.13 1796.4
1027.81 933.52 1818.5
1031.12 932.25 1816.1
1038.94 935.04 1821.5
1029.97 922.78 1797.6
1007.69 898.75 1750.8
1026.37 911.31 1775.3
1058.47 935.61 1822.6
1030.87 907.16 1767.2
998.88 875.13 1704.8
981.02 855.69 1666.9
981.14 852.05 1659.8
1016.27 878.70 1711.7
984.59 847.60 1651.2
966.29 828.25 1613.5
1032.77 881.41 1717.0
1064.63 904.70 1762.4
1074.34 909.06 1770.9
1066.45 898.54 1750.4
1038.88 871.60 1697.9
1018.77 851.12 1658.0
993.68 826.68 1610.4
1003.65 831.47 1619.8
1033.50 852.64 1661.0
1045.05 858.59 1672.6
1052.74 861.34 1677.9
1052.63 857.70 1670.8
1050.04 852.08 1659.9
1029.20 831.76 1620.3
987.47 794.79 1548.3
1014.26 813.05 1583.9
1079.42 861.79 1678.8
1110.35 1041.61 2039.4
1104.11 1030.85 2018.3
1087.23 1010.30 1978.1
1071.50 991.02 1940.3
1068.46 983.58 1925.8
1035.56 948.87 1857.8
1009.97 921.13 1803.5
1023.11 928.82 1818.6
1043.06 942.58 1845.5
1051.39 945.77 1851.8
1048.86 939.21 1838.9
1030.83 918.89 1799.1
1019.48 904.67 1771.3
1048.28 926.06 1813.2
1074.96 945.39 1851.0
1047.40 917.05 1795.5
980.28 854.49 1673.0
937.23 809.80 1585.5
979.71 842.81 1650.2
986.33 844.82 1654.1
1007.56 859.26 1682.4
1036.44 880.08 1723.2
1032.33 872.83 1708.9
1010.09 850.38 1665.0
973.37 815.97 1597.6
974.17 813.19 1592.2
979.75 814.39 1594.5
963.66 797.66 1561.8
982.71 810.02 1586.0
1015.43 833.50 1631.9
1030.33 842.22 1649.0
1049.20 854.10 1672.3
1060.81 860.00 1683.8
1070.02 863.91 1691.5
1063.00 854.74 1673.5
1044.56 836.49 1637.8
1096.31 874.39 1712.0
1101.68 1028.24 2023.5
1096.28 1018.35 2004.0
1081.55 999.92 1967.8
1033.01 946.12 1861.9
1024.42 933.89 1837.8
1021.98 927.35 1825.0
1044.59 943.50 1856.8
1057.23 946.20 1862.1
1030.25 917.86 1806.3
1032.15 915.39 1801.4
1041.78 919.77 1810.0
1032.20 907.23 1785.4
1013.33 886.66 1744.9
1025.19 893.06 1757.5
1007.48 873.74 1719.5
965.44 833.60 1640.5
988.35 849.64 1672.0
1022.15 874.85 1721.6
1022.34 871.22 1714.5
1036.17 879.17 1730.1
1056.66 892.70 1756.8
1030.33 866.71 1705.6
984.75 824.83 1623.2
974.64 812.89 1599.7
997.47 828.41 1630.2
999.76 826.80 1627.1
984.20 810.52 1595.0
973.83 798.62 1571.6
977.44 798.24 1570.9
977.63 795.08 1564.7
982.18 795.49 1565.5
1044.52 842.49 1658.0
1105.75 888.22 1748.0
1076.92 1029.41 2036.2
1077.38 1024.82 2027.1
1082.09 1024.31 2026.1
1079.45 1016.88 2011.4
1086.29 1018.40 2014.4
1091.40 1018.29 2014.2
1082.08 1004.78 1987.5
1081.41 999.41 1976.9
1058.68 973.79 1926.2
1020.71 934.45 1848.4
1024.56 933.59 1846.7
1037.30 940.81 1860.9
1024.18 924.61 1828.9
1033.80 928.99 1837.6
1051.56 940.62 1860.6
1024.67 912.37 1804.7
1021.58 905.49 1791.1
1047.11 923.92 1827.5
1033.05 907.41 1794.9
997.29 872.07 1725.0
982.87 855.62 1692.4
999.72 866.42 1713.8
1013.86 874.79 1730.4
1007.62 865.57 1712.1
984.50 842.00 1665.5
968.21 824.45 1630.8
1000.63 848.36 1678.1
1042.20 879.78 1740.2
1024.11 853.43 1688.1
985.45 817.72 1617.5
1024.15 846.23 1673.9
1043.36 858.46 1698.0
993.67 814.15 1610.4
979.19 795.59 1573.7
1005.19 813.33 1608.8
978.08 788.12 1558.9
1002.71 804.65 1591.6
1080.08 863.18 1707.4
1068.63 1031.41 2050.7
1052.65 1010.96 2010.0
1041.18 995.02 1978.3
1030.42 979.91 1948.3
1038.83 983.09 1954.6
1052.00 990.72 1969.8
1061.35 994.69 1977.7
1080.27 1007.56 2003.2
1091.88 1013.52 2015.1
1090.42 1007.34 2002.8
1079.69 992.70 1973.7
1045.91 957.10 1902.9
1015.37 924.80 1838.7
1024.53 928.78 1846.6
1031.04 930.33 1849.7
1012.06 908.98 1807.2
1011.31 904.12 1797.6
1017.28 905.28 1799.9
998.83 884.80 1759.2
1002.90 884.38 1758.3
1025.20 899.95 1789.3
1008.29 881.12 1751.9
972.87 846.35 1682.7
960.19 831.60 1653.4
991.76 855.11 1700.2
1020.72 876.20 1742.1
1021.47 872.98 1735.7
1007.25 857.04 1704.0
966.65 818.91 1628.2
969.94 818.12 1626.6
1003.41 842.69 1675.5
1039.92 869.59 1728.9
1057.64 880.61 1750.8
1007.78 835.51 1661.2
953.74 787.34 1565.4
972.69 799.59 1589.8
1030.24 843.32 1676.7
1023.43 834.23 1658.6
976.84 792.92 1576.5
1000.86 809.03 1608.5
1029.39 828.63 1647.5
1005.75 806.26 1603.0
1005.47 802.72 1596.0
1054.36 838.31 1666.7
1018.55 1013.30 2025.1
1029.92 1019.35 2037.2
1060.67 1018.45 2035.4
1044.22 997.69 1993.9
1031.42 980.61 1959.8
1032.15 976.49 1951.5
1050.87 989.36 1977.3
1067.12 999.78 1998.1
1079.12 1006.13 2010.8
1072.06 994.74 1988.0
1054.86 974.11 1946.8
1049.75 964.77 1928.1
1034.45 946.21 1891.0
1018.99 927.67 1854.0
1009.13 914.38 1827.4
1015.16 915.54 1829.7
1018.96 914.69 1828.0
1005.73 898.64 1796.0
1010.35 898.61 1795.9
1017.67 900.96 1800.6
1002.37 883.37 1765.4
977.83 857.82 1714.4
967.22 844.67 1688.1
993.10 863.37 1725.5
1006.74 871.30 1741.3
981.72 845.86 1690.5
998.12 856.16 1711.1
1031.77 881.11 1760.9
1037.67 882.25 1763.2
1030.50 872.31 1743.3
1004.95 846.97 1692.7
974.02 817.33 1633.4
968.81 809.44 1617.7
993.39 826.39 1651.6
1000.50 828.74 1656.3
979.50 807.88 1614.6
954.50 783.91 1566.7
976.64 795.32 1589.5
1012.65 821.19 1641.2
1011.55 816.86 1632.5
1013.81 815.27 1629.3
1019.47 816.42 1631.6
1021.71 814.84 1628.5
1048.48 832.74 1664.3
1102.96 872.42 1743.6
1030.62 1030.62 2070.4
1016.27 990.48 1989.8
996.31 966.12 1940.9
1017.23 981.45 1971.7
1034.49 993.11 1995.1
1040.86 994.25 1997.4
1038.31 986.91 1982.6
1025.05 969.50 1947.7
1024.89 964.61 1937.8
1040.59 974.60 1957.9
1052.92 981.36 1971.5
1068.77 991.32 1991.5
1067.74 985.61 1980.0
1032.62 948.62 1905.7
1006.38 920.12 1848.5
1007.61 916.88 1841.9
1010.57 915.24 1838.6
1013.52 913.59 1835.3
1032.91 926.72 1861.7
1022.93 913.50 1835.2
995.81 885.17 1778.2
995.89 881.16 1770.2
1000.00 880.73 1769.3
1008.18 883.88 1775.7
1009.56 881.07 1770.0
968.92 841.78 1691.1
961.85 831.87 1671.2
1003.88 864.33 1736.4
1010.20 865.88 1739.5
997.54 851.23 1710.1
998.23 848.06 1703.7
989.57 836.99 1681.5
969.13 816.11 1639.5
979.48 821.22 1649.8
985.17 822.40 1652.1
963.92 801.18 1609.5
970.00 802.76 1612.7
997.98 822.37 1652.1
1000.81 821.18 1649.7
973.94 795.73 1598.6
963.20 783.62 1574.2
988.99 801.20 1609.6
1019.75 822.65 1652.6
1032.24 829.25 1665.9
1047.22 837.77 1683.0
1061.28 845.50 1698.6
1071.49 850.11 1707.8
1094.50 864.79 1737.3
1009.10 1003.84 2027.2
1019.20 1008.64 2036.9
1023.18 1007.36 2034.3
1021.37 1000.42 2020.3
1036.90 1010.45 2040.5
1025.88 994.63 2008.6
990.89 955.86 1930.3
994.60 954.61 1927.8
1014.72 969.06 1957.0
1023.55 972.62 1964.2
1027.30 971.35 1961.6
1020.37 960.05 1938.8
1007.34 943.15 1904.6
1009.22 940.30 1898.9
1016.68 942.65 1903.6
1027.19 947.79 1914.0
1046.01 960.52 1939.7
1036.10 946.87 1912.1
1030.46 937.23 1892.7
1051.15 951.51 1921.5
1025.99 924.36 1866.7
999.28 896.07 1809.6
1027.97 917.49 1852.8
1029.14 914.26 1846.3
989.91 875.33 1767.7
977.36 860.25 1737.2
997.21 873.70 1764.4
1022.61 891.87 1801.1
1032.23 896.16 1809.8
1001.69 865.71 1748.3
961.72 827.43 1670.9
965.60 827.04 1670.2
992.09 845.93 1708.3
1002.06 850.63 1717.8
1001.83 846.68 1709.8
993.64 836.06 1688.4
951.65 797.22 1609.9
982.19 815.64 1647.1
1006.78 832.45 1681.1
1008.27 830.08 1676.3
1033.05 846.84 1710.1
1063.70 868.23 1753.4
1069.60 869.33 1755.6
1041.85 843.19 1702.8
1048.13 844.70 1705.8
1050.07 842.70 1701.8
1032.57 825.19 1666.4
1056.32 840.66 1697.7
1080.19 856.09 1728.8
1106.14 873.03 1763.0
1011.54 1050.24 2132.1
1009.43 1025.62 2082.1
981.11 991.55 2012.9
999.97 1005.27 2040.8
1004.00 1004.00 2038.2
990.15 984.96 1999.5
994.06 983.71 1997.0
1001.65 986.08 2001.8
1003.91 983.21 1996.0
998.29 972.69 1974.6
1008.75 977.87 1985.1
1022.59 986.25 2002.2
1013.07 972.14 1973.5
1005.52 960.05 1949.0
1012.21 961.60 1952.1
1002.39 947.53 1923.6
988.62 929.89 1887.7
1001.16 937.05 1902.3
1009.05 939.80 1907.9
998.01 924.99 1877.8
990.74 913.79 1855.1
993.35 911.77 1851.0
1004.21 917.30 1862.2
1016.42 924.02 1875.8
1033.95 935.48 1899.1
1048.49 944.14 1916.7
1017.56 911.96 1851.4
978.80 873.11 1772.5
990.50 879.42 1785.3
1020.15 901.53 1830.2
1012.72 890.82 1808.4
979.06 857.24 1740.3
974.96 849.74 1725.0
993.95 862.33 1750.6
996.18 860.34 1746.5
1006.16 865.03 1756.1
1010.22 864.60 1755.2
1012.42 862.60 1751.1
1035.40 878.24 1782.9
1026.05 866.44 1758.9
1006.36 846.06 1717.6
1007.51 843.29 1711.9
976.78 813.98 1652.4
950.50 788.63 1601.0
983.45 812.41 1649.3
1026.52 844.32 1714.0
1050.86 860.62 1747.1
1055.79 860.94 1747.8
1068.37 867.48 1761.0
1078.12 871.67 1769.6
1055.67 849.90 1725.4
1038.82 832.81 1690.7
1017.00 811.89 1648.2
1027.07 816.50 1657.5
1077.13 852.73 1731.1
1092.77 861.52 1749.0
1001.06 1033.88 2110.0
968.79 979.15 1998.3
942.66 947.68 1934.0
964.18 964.18 1967.7
993.13 987.90 2016.1
1004.00 993.48 2027.5
995.73 980.17 2000.3
989.80 969.29 1978.1
1003.53 977.66 1995.2
1009.47 978.41 1996.8
989.27 953.93 1946.8
974.26 934.70 1907.5
977.50 933.07 1904.2
979.89 930.65 1899.3
1001.67 946.57 1931.8
1008.74 948.52 1935.8
991.58 927.76 1893.4
1001.57 932.50 1903.1
1012.89 938.42 1915.1
1006.17 927.64 1893.1
1007.14 924.02 1885.8
1016.75 928.34 1894.6
1019.42 926.30 1890.4
1021.64 923.87 1885.5
1016.80 915.12 1867.6
1007.92 902.83 1842.5
1005.12 896.07 1828.7
992.93 881.05 1798.1
996.22 879.84 1795.6
1016.51 893.58 1823.6
1014.44 887.64 1811.5
987.53 860.10 1755.3
967.16 838.50 1711.2
968.41 835.75 1705.6
970.09 833.40 1700.8
979.07 837.30 1708.8
993.59 845.89 1726.3
1006.33 852.90 1740.6
1019.13 859.89 1754.9
1001.35 841.14 1716.6
981.56 820.86 1675.2
982.62 818.13 1669.7
977.56 810.35 1653.8
976.67 806.07 1645.0
999.81 821.58 1676.7
1032.55 844.81 1724.1
1044.09 850.57 1735.9
1030.40 835.82 1705.8
1007.02 813.37 1659.9
983.94 791.34 1615.0
1008.34 807.53 1648.0
1037.71 827.54 1688.9
1042.03 827.49 1688.8
1076.49 851.29 1737.3
1009.38 1036.95 2127.5
955.31 965.59 1981.1
960.83 965.97 1981.9
980.79 980.79 2012.3
985.17 979.95 2010.5
999.24 988.72 2028.5
993.87 978.26 2007.1
970.03 949.82 1948.7
972.59 947.40 1943.7
994.08 963.34 1976.5
992.54 956.91 1963.3
966.00 926.58 1901.0
953.81 910.23 1867.5
956.96 908.63 1864.2
960.52 907.43 1861.7
982.23 923.30 1894.3
1006.62 941.52 1931.7
1007.31 937.50 1923.4
994.29 920.82 1889.2
983.68 906.53 1859.9
986.75 904.92 1856.6
996.29 909.23 1865.5
1006.73 914.33 1875.9
1009.80 912.70 1872.6
1009.35 907.93 1862.8
1002.25 897.26 1840.9
999.04 890.14 1826.3
1000.63 887.35 1820.6
995.53 878.68 1802.8
1006.86 884.53 1814.8
1007.04 880.57 1806.6
985.15 857.44 1759.2
972.08 842.17 1727.9
965.68 832.79 1708.6
978.74 840.20 1723.8
992.78 848.37 1740.6
989.02 841.34 1726.1
990.25 838.59 1720.5
985.01 830.41 1703.7
978.76 821.46 1685.4
997.05 833.09 1709.2
1016.36 845.47 1734.6
1009.59 836.14 1715.5
995.70 821.02 1684.5
981.21 805.54 1652.7
988.79 808.23 1658.2
1023.41 832.91 1708.9
1035.40 839.03 1721.4
1026.44 828.20 1699.2
1008.30 810.08 1662.0
986.15 788.92 1618.6
1009.14 803.89 1649.3
1042.39 826.88 1696.5
1051.09 830.27 1703.4
1062.74 835.96 1715.1
1091.51 855.02 1754.2
1003.03 1047.86 2161.4
1000.83 1039.75 2144.6
1008.28 1041.70 2148.7
1005.57 1033.20 2131.1
1000.04 1021.90 2107.8
951.80 962.09 1984.5
930.66 935.66 1929.9
953.26 953.26 1966.2
977.62 972.42 2005.7
986.81 976.37 2013.9
986.32 970.74 2002.3
968.67 948.39 1956.2
948.37 923.67 1905.2
954.94 925.26 1908.5
972.25 937.16 1933.0
966.88 927.21 1912.5
959.75 915.68 1888.7
964.63 915.66 1888.7
960.28 906.93 1870.7
955.43 897.82 1851.9
962.76 900.18 1856.7
972.22 904.51 1865.7
972.35 900.14 1856.7
958.73 883.17 1821.7
955.71 876.07 1807.0
963.84 879.21 1813.5
977.62 887.45 1830.5
992.78 896.86 1849.9
995.79 895.25 1846.6
996.15 891.29 1838.4
984.60 876.76 1808.5
976.89 865.78 1785.8
996.58 879.05 1813.2
1011.47 888.01 1831.6
997.41 871.57 1797.7
970.20 843.85 1740.6
978.75 847.34 1747.8
997.26 859.39 1772.6
985.50 845.36 1743.7
992.73 847.67 1748.4
1009.56 858.13 1770.0
1010.44 854.99 1763.5
1015.88 855.72 1765.0
1016.72 852.58 1758.6
996.68 832.05 1716.2
1001.10 832.03 1716.2
1022.31 845.89 1744.8
1017.88 838.52 1729.6
1029.36 844.26 1741.4
1042.77 851.52 1756.4
1008.96 820.33 1692.0
996.23 806.47 1663.5
1042.41 840.22 1733.1
1071.67 860.09 1774.1
1046.46 836.28 1724.9
1019.62 811.36 1673.5
1028.25 814.76 1680.6
1043.21 823.12 1697.8
1040.75 817.73 1686.7
1041.16 814.63 1680.3
1076.72 838.95 1730.4
1138.45 883.36 1822.1
974.88 1036.15 2148.7
976.60 1032.09 2140.3
1001.04 1046.03 2169.2
989.25 1027.93 2131.7
988.91 1021.87 2119.1
988.90 1016.22 2107.4
954.59 964.97 2001.1
940.72 945.81 1961.3
942.21 942.21 1953.9
943.67 938.62 1946.4
947.50 937.42 1944.0
940.01 925.09 1918.4
923.07 903.64 1873.9
932.42 908.01 1883.0
938.95 909.60 1886.3
937.26 903.27 1873.1
945.83 906.83 1880.5
947.80 904.05 1874.8
948.07 899.70 1865.7
937.44 885.09 1835.4
918.28 862.62 1788.9
946.54 884.70 1834.6
985.99 916.97 1901.6
969.64 897.27 1860.7
944.14 869.36 1802.8
954.82 874.86 1814.2
975.86 889.75 1845.1
966.79 877.19 1819.1
962.82 869.35 1802.8
983.59 883.80 1832.8
993.55 888.46 1842.4
986.88 878.28 1821.3
967.35 856.80 1776.8
956.48 843.15 1748.5
973.43 854.05 1771.1
986.91 861.81 1787.2
971.40 844.30 1750.9
963.81 833.81 1729.1
993.05 855.13 1773.3
1023.83 877.57 1819.9
1025.31 874.81 1814.1
1001.27 850.39 1763.5
985.24 832.97 1727.4
997.03 839.13 1740.1
1013.48 849.13 1760.9
1024.46 854.48 1772.0
1015.55 843.27 1748.7
1003.29 829.39 1719.9
1008.65 830.13 1721.5
1016.35 832.78 1727.0
1041.93 850.00 1762.7
1060.10 861.04 1785.6
1033.42 835.72 1733.1
1012.21 815.03 1690.1
1046.09 838.67 1739.2
1077.29 859.98 1783.4
1057.35 840.46 1742.9
1029.56 814.88 1689.8
1034.37 815.22 1690.5
1053.70 826.96 1714.9
1057.10 826.14 1713.2
1065.85 829.49 1720.1
1109.34 859.73 1782.9
965.88 1021.07 2128.9
962.61 1011.83 2109.6
979.52 1023.79 2134.5
1001.14 1040.51 2169.4
1009.01 1042.84 2174.3
986.66 1014.06 2114.3
950.93 966.60 2015.3
938.43 948.69 1978.0
941.18 946.30 1973.0
943.90 943.90 1968.0
938.63 933.58 1946.5
934.05 924.06 1926.6
932.21 917.33 1912.6
919.79 900.32 1877.1
908.43 884.53 1844.2
920.17 891.26 1858.2
924.59 890.88 1857.4
922.42 884.19 1843.5
931.34 888.14 1851.7
933.66 885.78 1846.8
922.21 870.45 1814.8
900.16 845.33 1762.5
928.34 863.03 1799.4
971.14 898.30 1872.9
960.23 883.80 1842.7
933.83 855.24 1783.1
942.32 858.76 1790.5
959.44 870.08 1814.1
947.71 855.25 1783.2
949.30 852.52 1777.5
974.81 871.21 1816.4
981.68 873.13 1820.4
972.77 861.06 1795.3
964.18 849.40 1770.9
963.01 844.34 1760.4
964.90 842.01 1755.5
964.98 838.13 1747.4
974.87 842.76 1757.1
993.33 854.72 1782.0
999.26 855.85 1784.4
1005.66 857.36 1787.5
1010.25 857.32 1787.5
988.86 835.34 1741.6
980.54 824.54 1719.1
998.75 836.06 1743.1
1007.38 839.48 1750.3
1009.56 837.53 1746.2
1005.23 830.21 1730.9
998.97 821.37 1712.5
1018.79 833.97 1738.8
1042.00 849.20 1770.5
1028.64 834.64 1740.2
1007.14 813.63 1696.4
1015.76 817.02 1703.4
1033.91 828.02 1726.4
1034.51 824.93 1719.9
1030.78 818.43 1706.4
1037.06 819.90 1709.4
1036.62 816.06 1701.4
1038.07 813.74 1696.6
1052.10 821.26 1712.3
1074.93 835.56 1742.1
1106.18 856.25 1785.2
1118.51 862.18 1797.6
979.32 1035.61 2170.9
964.96 1008.83 2114.8
964.67 1002.82 2102.2
969.70 1002.39 2101.3
978.97 1006.32 2109.5
953.55 969.35 2032.0
954.48 964.97 2022.8
932.94 938.03 1966.4
927.35 927.35 1944.0
935.97 930.91 1951.4
937.43 927.35 1944.0
938.86 923.79 1936.5
943.06 923.00 1934.9
926.23 901.73 1890.3
910.82 882.06 1849.0
928.28 894.26 1874.6
938.07 898.98 1884.5
929.37 886.03 1857.4
931.71 883.68 1852.4
938.18 885.25 1855.7
930.06 873.12 1830.3
917.23 856.71 1795.9
917.29 852.43 1786.9
916.03 846.98 1775.5
921.08 847.39 1776.4
941.45 861.82 1806.6
945.71 861.44 1805.8
937.94 850.16 1782.2
937.83 845.89 1773.2
945.46 848.61 1778.9
967.44 864.13 1811.4
990.87 880.77 1846.3
994.74 879.96 1844.6
995.52 876.44 1837.3
998.04 874.47 1833.1
990.79 864.01 1811.2
986.57 856.26 1795.0
989.40 854.70 1791.7
1002.52 861.98 1806.9
1013.45 867.33 1818.2
1009.99 860.36 1803.6
984.28 834.60 1749.5
955.62 806.58 1690.8
967.76 813.09 1704.5
991.85 829.55 1739.0
997.71 830.67 1741.3
992.50 822.62 1724.4
1000.18 825.26 1730.0
1001.38 822.56 1724.3
975.53 797.77 1672.3
974.25 793.19 1662.8
1008.10 817.14 1713.0
1008.27 813.69 1705.7
974.39 782.92 1641.2
969.64 775.71 1626.1
1001.91 798.06 1672.9
1018.62 807.87 1693.5
1021.05 806.32 1690.3
1033.06 812.32 1702.9
1042.72 816.43 1711.5
1054.82 822.40 1724.0
1072.79 832.89 1746.0
1099.12 849.74 1781.3
972.62 1022.93 2156.1
967.92 1012.17 2133.4
919.35 945.18 1992.2
901.71 921.86 1943.0
902.10 917.13 1933.1
917.28 927.41 1954.7
945.49 950.69 2003.8
951.46 951.46 2005.4
926.16 921.13 1941.5
914.10 904.21 1905.8
912.66 897.94 1892.6
911.56 892.06 1880.2
927.74 903.06 1903.4
923.36 894.05 1884.4
907.93 874.48 1843.2
924.57 885.85 1867.1
938.85 894.84 1886.1
935.50 887.03 1869.6
934.97 881.95 1858.9
938.13 880.40 1855.6
944.19 881.56 1858.1
945.65 878.44 1851.5
934.03 863.27 1819.5
922.70 848.51 1788.4
919.72 841.54 1773.7
930.72 847.38 1786.0
946.06 857.07 1806.5
948.59 855.13 1802.4
953.69 855.52 1803.2
966.15 862.46 1817.8
960.85 853.57 1799.1
954.15 843.53 1777.9
973.65 856.62 1805.5
991.06 867.77 1829.0
1005.03 875.81 1846.0
1010.65 876.53 1847.5
997.15 860.74 1814.2
990.20 850.74 1793.1
1003.78 858.37 1809.2
1015.17 864.07 1821.2
1006.74 852.93 1797.7
976.01 823.08 1734.8
950.93 798.25 1682.5
964.42 805.89 1698.6
983.02 817.69 1723.5
982.41 813.49 1714.6
996.98 821.84 1732.2
1021.81 838.52 1767.4
1027.26 839.24 1768.9
1004.74 817.19 1722.4
986.71 798.97 1684.0
1002.32 808.04 1703.1
1018.48 817.46 1723.0
1003.51 801.94 1690.3
982.72 781.91 1648.0
996.02 789.06 1663.1
1012.25 798.45 1682.9
1015.61 797.67 1681.3
1036.75 810.79 1708.9
1055.10 821.63 1731.8
1055.64 818.57 1725.3
1063.43 821.13 1730.7
1080.48 830.79 1751.1
1105.44 846.42 1784.0
1142.27 870.98 1835.8
974.29 1024.98 2172.2
970.81 1015.45 2152.0
926.84 953.03 2019.8
907.43 927.82 1966.3
891.25 906.19 1920.5
893.15 903.07 1913.9
893.06 897.99 1903.1
907.04 907.04 1922.3
935.70 930.59 1972.2
932.49 922.35 1954.8
915.66 900.82 1909.1
909.43 889.87 1885.9
896.67 872.69 1849.5
899.88 871.16 1846.3
921.30 887.18 1880.2
931.48 892.26 1891.0
934.74 890.70 1887.7
936.76 887.97 1881.9
933.39 880.19 1865.4
933.26 875.53 1855.5
935.16 872.82 1849.8
940.38 873.21 1850.6
941.40 869.72 1843.2
930.59 855.39 1812.8
928.11 848.83 1798.9
934.91 850.77 1803.0
926.80 839.19 1778.5
922.43 831.10 1761.4
930.46 834.20 1767.9
940.23 838.83 1777.7
962.60 854.60 1811.2
967.28 854.59 1811.1
944.01 830.00 1759.0
945.07 826.93 1752.5
960.17 836.13 1772.0
971.83 842.25 1785.0
979.09 844.53 1789.8
968.57 831.51 1762.2
964.19 823.86 1746.0
980.81 834.15 1767.8
984.47 833.36 1766.2
968.23 815.83 1729.0
991.75 831.79 1762.8
1020.86 852.28 1806.2
1001.73 832.49 1764.3
986.55 816.14 1729.7
991.47 816.50 1730.4
1010.23 828.21 1755.2
1025.39 836.87 1773.6
1020.16 828.88 1756.7
1023.26 827.71 1754.2
1030.56 829.92 1758.9
1054.32 845.31 1791.5
1040.72 827.12 1752.9
999.63 791.01 1676.4
1004.42 791.36 1677.1
1011.60 793.58 1681.8
1010.16 789.05 1672.2
1025.04 797.25 1689.6
1053.50 815.90 1729.1
1064.68 821.06 1740.1
1060.35 814.28 1725.7
1066.20 815.33 1727.9
1077.93 820.85 1739.6
1102.44 836.02 1771.8
1131.51 854.50 1810.9
1162.20 874.05 1852.4
967.29 1017.90 2169.2
969.86 1014.71 2162.4
957.28 995.79 2122.0
935.01 967.07 2060.8
924.69 950.96 2026.5
919.58 940.36 2003.9
917.06 932.52 1987.2
915.64 925.87 1973.0
913.36 918.44 1957.2
909.45 909.45 1938.1
893.28 888.37 1893.1
893.48 883.71 1883.2
914.64 899.73 1917.3
922.41 902.46 1923.2
919.40 894.68 1906.6
909.48 880.30 1875.9
905.88 872.15 1858.6
920.45 881.49 1878.5
919.22 875.68 1866.1
911.39 863.67 1840.5
933.84 880.34 1876.0
950.67 891.56 1899.9
929.48 867.19 1848.0
911.80 846.34 1803.6
923.60 852.92 1817.6
932.52 856.78 1825.8
932.20 852.16 1816.0
940.30 855.25 1822.5
937.37 848.32 1807.8
919.88 828.35 1765.2
923.61 827.60 1763.6
939.39 837.58 1784.9
940.99 834.90 1779.2
954.71 842.94 1796.3
979.38 860.53 1833.8
977.99 855.15 1822.3
966.45 841.00 1792.2
968.43 838.69 1787.3
976.14 841.34 1792.9
980.32 840.94 1792.1
968.46 826.84 1762.0
963.17 818.47 1744.2
969.92 820.36 1748.2
963.18 810.86 1728.0
959.06 803.65 1712.6
995.26 830.15 1769.1
1040.80 864.15 1841.5
1037.26 857.28 1826.9
1004.76 826.64 1761.6
992.71 813.03 1732.6
1002.25 817.15 1741.4
1008.11 818.24 1743.7
1018.64 823.09 1754.0
1038.54 835.45 1780.4
1036.99 830.51 1769.8
1051.38 838.32 1786.5
1071.49 850.62 1812.7
1033.48 816.86 1740.7
997.07 784.65 1672.1
1005.19 787.62 1678.4
1014.29 791.32 1686.3
1015.26 788.68 1680.7
1032.09 798.32 1701.2
1061.07 817.25 1741.6
1068.40 819.41 1746.2
1058.73 808.57 1723.1
1070.43 814.07 1734.8
1088.53 824.37 1756.7
1119.96 844.64 1799.9
1155.01 867.46 1848.6
953.55 1015.61 2176.3
948.40 1004.19 2151.8
963.64 1014.36 2173.6
969.99 1015.11 2175.2
961.28 1000.17 2143.2
923.64 950.03 2035.8
922.03 942.99 2020.7
921.89 937.52 2009.0
924.40 934.79 2003.1
926.10 931.28 1995.6
926.99 926.99 1986.4
923.13 918.03 1967.2
906.61 896.65 1921.4
896.20 881.51 1888.9
906.68 886.97 1900.6
916.40 891.64 1910.7
915.36 885.83 1898.2
913.05 878.87 1883.3
916.73 877.73 1880.8
920.81 876.96 1879.2
909.38 861.52 1846.1
903.95 851.89 1825.5
928.04 870.03 1864.4
942.37 878.90 1883.3
919.04 852.72 1827.3
912.55 842.35 1805.0
937.32 860.81 1844.6
948.41 866.56 1856.9
949.83 863.49 1850.3
951.66 860.79 1844.6
941.12 847.00 1815.0
921.48 825.21 1768.3
923.51 822.93 1763.4
952.20 844.32 1809.3
967.69 853.84 1829.7
956.79 840.10 1800.2
952.73 832.48 1783.9
966.97 840.84 1801.8
972.93 841.96 1804.2
972.30 837.39 1794.4
976.48 836.99 1793.5
998.43 851.74 1825.2
1004.00 852.46 1826.7
987.65 834.64 1788.5
982.37 826.30 1770.6
981.07 821.36 1760.1
982.89 819.08 1755.2
986.96 818.68 1754.3
1001.05 826.56 1771.2
1022.98 840.81 1801.7
1017.49 832.49 1783.9
1001.32 815.55 1747.6
1006.27 815.89 1748.3
1010.76 815.86 1748.3
1020.83 820.31 1757.8
1044.95 835.96 1791.3
1048.58 835.15 1789.6
1036.19 821.65 1760.7
1030.77 813.77 1743.8
1030.01 809.62 1734.9
1030.17 806.22 1727.6
1027.43 800.60 1715.6
1024.64 794.98 1703.5
1023.24 790.48 1693.9
1037.21 797.85 1709.7
1065.26 815.94 1748.4
1071.64 817.35 1751.5
1061.00 805.82 1726.8
1070.27 809.45 1734.5
1103.06 830.76 1780.2
1149.30 861.97 1847.1
952.55 1002.98 2161.3
953.65 998.26 2151.1
952.82 991.59 2136.7
929.75 956.46 2061.0
929.75 951.00 2049.2
929.70 945.55 2037.5
930.74 941.26 2028.3
917.07 922.22 1987.2
903.60 903.60 1947.1
913.34 908.27 1957.2
917.64 907.50 1955.5
913.67 898.60 1936.3
914.74 894.75 1928.0
905.05 880.46 1897.2
894.83 865.81 1865.7
906.50 872.39 1879.8
916.63 877.41 1890.7
909.81 866.26 1866.6
902.48 854.73 1841.8
898.31 846.30 1823.6
900.60 844.02 1818.7
906.58 845.20 1821.3
902.64 837.17 1804.0
903.20 833.36 1795.8
919.97 844.48 1819.7
944.79 862.84 1859.3
958.01 870.47 1875.7
948.50 857.48 1847.7
938.87 844.51 1819.8
948.26 848.70 1828.8
948.72 844.88 1820.6
930.69 824.72 1777.1
939.62 828.53 1785.3
955.06 838.02 1805.8
944.09 824.36 1776.3
943.90 820.19 1767.4
960.30 830.41 1789.4
973.27 837.58 1804.8
979.25 838.69 1807.2
988.77 842.81 1816.1
1014.78 860.88 1855.0
1019.97 861.20 1855.7
1003.22 843.08 1816.7
987.65 826.12 1780.1
975.98 812.56 1750.9
976.42 809.17 1743.6
979.56 808.02 1741.1
984.05 808.00 1741.1
996.77 814.71 1755.6
1005.42 818.05 1762.7
1004.87 813.90 1753.8
1002.43 808.26 1741.7
999.93 802.64 1729.5
1002.05 800.74 1725.5
1018.17 810.01 1745.4
1033.43 818.52 1763.8
1033.70 815.12 1756.4
1039.13 815.80 1757.9
1049.77 820.56 1768.2
1046.18 814.20 1754.5
1039.67 805.63 1736.0
1041.23 803.36 1731.1
1043.72 801.83 1727.8
1034.63 791.44 1705.4
1038.50 791.03 1704.5
1070.99 812.32 1750.4
1089.06 822.54 1772.4
1071.56 805.92 1736.6
1073.52 804.01 1732.5
1139.84 850.13 1831.9
958.57 1003.68 2174.9
948.11 986.92 2138.6
924.44 951.16 2061.1
919.54 940.68 2038.4
921.39 937.19 2030.8
922.06 932.54 2020.8
913.07 918.23 1989.7
890.79 890.79 1930.3
876.02 871.12 1887.7
881.73 871.93 1889.4
899.59 884.68 1917.1
909.31 889.32 1927.1
888.20 863.94 1872.1
857.32 829.36 1797.2
866.03 833.26 1805.6
896.03 857.49 1858.1
904.09 860.58 1864.8
894.78 847.19 1835.8
892.66 840.71 1821.8
892.92 836.53 1812.7
883.71 823.56 1784.6
878.49 814.44 1764.8
892.22 822.87 1783.1
911.41 836.24 1812.1
906.12 827.12 1792.3
907.85 824.48 1786.6
933.55 843.51 1827.8
939.55 844.65 1830.3
930.72 832.50 1804.0
940.51 837.06 1813.8
951.63 842.73 1826.2
945.61 833.26 1805.6
941.67 825.70 1789.2
942.84 822.67 1782.7
937.90 814.37 1764.7
944.66 816.26 1768.8
952.75 819.27 1775.3
955.58 817.76 1772.0
981.80 836.17 1811.9
1013.49 859.05 1861.5
1016.92 857.87 1859.0
999.79 839.45 1819.0
988.77 826.30 1790.5
978.08 813.54 1762.9
975.40 807.54 1749.9
984.90 811.63 1758.7
980.32 804.14 1742.5
976.60 797.41 1727.9
984.72 800.37 1734.3
989.65 800.71 1735.1
995.50 801.80 1737.5
999.50 801.40 1736.6
996.99 795.80 1724.5
998.62 793.55 1719.6
1012.87 801.29 1736.4
1026.24 808.28 1751.5
1048.63 822.27 1781.8
1076.81 840.67 1821.7
1073.83 834.68 1808.7
1057.94 818.75 1774.2
1044.77 805.06 1744.5
1039.62 797.64 1728.4
1060.86 810.45 1756.2
1070.63 814.41 1764.8
1065.42 807.00 1748.7
1087.83 820.48 1777.9
1117.17 839.06 1818.2
1113.92 833.10 1805.3
1078.74 803.41 1740.9
1101.83 817.19 1770.8
948.22 987.27 2151.4
925.74 958.22 2088.1
916.50 943.14 2055.3
906.72 927.69 2021.6
889.21 904.54 1971.2
877.57 887.60 1934.2
886.83 891.87 1943.5
887.66 887.66 1934.4
879.16 874.22 1905.1
875.58 865.80 1886.7
879.34 864.68 1884.3
895.64 875.84 1908.6
900.21 875.48 1907.8
875.48 846.77 1845.3
867.54 830.03 1808.8
893.56 850.32 1853.0
898.79 850.73 1853.9
884.99 833.21 1815.7
877.53 821.81 1790.9
904.28 842.41 1835.8
921.78 854.22 1861.5
900.65 830.28 1809.3
899.98 825.37 1798.6
915.48 835.26 1820.2
905.60 822.01 1791.3
889.30 803.10 1750.1
897.25 806.16 1756.8
915.37 818.28 1783.2
919.16 817.54 1781.6
934.02 826.61 1801.3
951.54 837.92 1826.0
955.40 837.16 1824.3
961.84 838.65 1827.6
954.42 828.10 1804.6
940.82 812.32 1770.2
948.03 814.57 1775.1
956.13 817.56 1781.6
951.06 809.31 1763.6
968.44 820.16 1787.3
987.68 832.48 1814.1
979.43 821.61 1790.4
983.15 820.84 1788.8
995.38 827.15 1802.5
995.96 823.76 1795.1
1003.73 826.33 1800.7
1009.71 827.40 1803.0
1000.67 816.21 1778.7
985.13 799.85 1743.0
980.90 792.78 1727.6
989.04 795.72 1734.0
998.58 799.77 1742.8
1005.84 801.95 1747.6
1006.13 798.59 1740.3
1004.53 793.76 1729.7
1015.52 798.88 1740.9
1036.90 812.09 1769.7
1068.30 832.99 1815.2
1071.01 831.44 1811.9
1043.31 806.40 1757.3
1036.35 797.54 1738.0
1032.17 790.89 1723.5
1039.45 793.03 1728.2
1072.74 814.91 1775.8
1091.72 825.79 1799.5
1096.75 826.06 1800.1
1100.31 825.23 1798.3
1110.21 829.14 1806.8
1137.74 846.13 1843.9
1137.94 842.74 1836.5
1113.98 821.56 1790.3
1137.74 835.60 1820.9
953.01 998.40 2188.0
959.02 998.75 2188.8
937.12 970.19 2126.2
921.66 948.61 2078.9
918.40 939.76 2059.5
907.11 922.84 2022.5
886.16 896.35 1964.4
872.96 877.95 1924.1
881.05 881.05 1930.9
885.70 880.70 1930.1
880.28 870.39 1907.5
877.48 862.77 1890.8
882.81 863.19 1891.7
893.63 868.95 1904.3
893.07 863.63 1892.7
898.79 864.41 1894.4
905.32 865.95 1897.8
903.85 859.88 1884.5
914.38 865.22 1896.2
903.56 850.41 1863.7
873.96 818.17 1793.1
870.10 810.25 1775.7
900.52 834.17 1828.1
922.95 850.46 1863.8
908.39 832.69 1824.9
897.40 818.35 1793.5
902.91 819.13 1795.2
918.03 828.59 1815.9
925.69 831.23 1821.7
911.46 814.30 1784.6
908.07 807.17 1769.0
912.25 806.81 1768.2
928.37 816.97 1790.4
960.01 840.61 1842.2
979.82 853.70 1870.9
974.70 845.06 1852.0
955.62 824.46 1806.8
937.22 804.64 1763.4
939.17 802.40 1758.5
953.82 810.98 1777.3
955.33 808.36 1771.6
957.70 806.49 1767.5
961.39 805.73 1765.8
960.16 800.89 1755.2
970.51 805.70 1765.7
989.88 817.93 1792.5
997.64 820.49 1798.1
1000.44 818.97 1794.8
1002.32 816.71 1789.9
1016.94 824.80 1807.6
1023.85 826.59 1811.5
1008.74 810.68 1776.6
1007.30 805.84 1766.0
1005.36 800.65 1754.7
1001.04 793.62 1739.3
1016.22 802.04 1757.7
1029.59 808.96 1772.9
1012.08 791.67 1735.0
1005.24 782.84 1715.6
1053.54 816.84 1790.2
1073.72 828.83 1816.4
1026.04 788.57 1728.2
999.46 764.81 1676.1
1022.91 779.36 1708.0
1057.52 802.26 1758.2
1079.33 815.28 1786.7
1088.68 818.83 1794.5
1084.48 812.21 1780.0
1079.25 804.86 1763.9
1084.69 805.51 1765.3
1107.26 818.81 1794.5
1136.33 836.79 1833.9
1144.36 839.20 1839.2
1169.22 853.87 1871.3
948.66 988.19 2178.0
952.79 986.62 2174.6
928.22 955.52 2106.0
910.46 931.75 2053.7
915.41 931.37 2052.8
910.89 921.42 2030.9
900.96 906.14 1997.2
896.98 896.98 1977.0
887.93 882.88 1945.9
876.03 866.13 1909.0
889.54 874.54 1927.6
905.07 884.84 1950.3
890.97 866.22 1909.2
882.58 853.33 1880.8
894.99 860.57 1896.8
913.41 873.48 1925.2
910.84 866.29 1909.4
902.59 853.80 1881.9
907.89 854.20 1882.7
893.80 836.45 1843.6
880.35 819.48 1806.2
892.41 826.30 1821.2
905.35 833.87 1837.9
912.18 835.77 1842.1
897.98 818.47 1804.0
888.17 805.34 1775.0
904.47 815.89 1798.3
930.49 835.05 1840.5
947.44 845.92 1864.5
943.82 838.42 1847.9
924.89 817.45 1801.7
914.26 803.99 1772.1
915.88 801.39 1766.3
932.91 812.23 1790.2
953.91 826.41 1821.5
951.70 820.43 1808.3
955.08 819.31 1805.8
959.31 818.92 1805.0
944.29 802.18 1768.1
940.96 795.50 1753.3
961.82 809.22 1783.6
984.57 824.40 1817.0
976.35 813.63 1793.3
963.58 799.18 1761.5
969.47 800.27 1763.9
981.66 806.53 1777.7
995.26 813.88 1793.9
1003.94 817.16 1801.1
994.47 805.70 1775.8
997.21 804.20 1772.5
1022.81 821.06 1809.7
1028.35 821.74 1811.2
1027.44 817.28 1801.4
1026.95 813.19 1792.3
1007.38 794.11 1750.3
1006.74 790.05 1741.3
1021.96 798.41 1759.8
1005.35 781.94 1723.5
1004.59 777.89 1714.5
1059.06 816.46 1799.5
1078.80 828.02 1825.0
1031.57 788.32 1737.5
1027.89 782.09 1723.8
1074.91 814.33 1794.8
1076.57 812.07 1789.9
1065.68 800.40 1764.1
1081.27 808.64 1782.3
1084.32 807.47 1779.7
1078.11 799.45 1762.0
1081.59 798.64 1760.3
1093.39 803.96 1772.0
1110.14 812.87 1791.6
1127.96 822.47 1812.8
1160.69 842.82 1857.7
948.43 994.14 2203.8
929.15 968.10 2146.0
923.26 956.23 2119.7
950.25 978.37 2168.8
947.27 969.56 2149.3
903.35 919.20 2037.6
882.66 892.92 1979.4
896.89 902.08 1999.7
905.13 905.13 2006.5
890.47 885.38 1962.7
872.15 862.24 1911.4
867.49 852.79 1890.4
887.17 867.23 1922.4
910.49 885.06 1962.0
903.84 873.71 1936.8
894.32 859.73 1905.8
906.00 866.18 1920.1
899.08 854.86 1895.0
872.91 825.47 1829.9
866.08 814.58 1805.7
873.62 817.26 1811.7
885.64 824.07 1826.8
899.75 832.74 1846.0
900.88 829.38 1838.5
902.80 826.78 1832.8
907.16 826.42 1832.0
891.68 808.09 1791.3
880.18 793.53 1759.0
893.95 801.79 1777.4
914.49 816.01 1808.9
928.02 823.86 1826.3
935.29 826.09 1831.2
927.32 814.92 1806.5
917.11 801.90 1777.6
919.60 800.05 1773.5
927.22 802.66 1779.3
937.44 807.49 1790.0
936.02 802.30 1778.5
940.20 801.93 1777.7
960.50 815.25 1807.2
960.79 811.54 1799.0
961.92 808.57 1792.4
989.48 827.74 1834.9
1002.16 834.34 1849.5
982.45 814.03 1804.5
975.05 804.07 1782.4
986.36 809.56 1794.6
999.96 816.87 1810.8
1015.44 825.63 1830.2
1021.47 826.68 1832.5
1009.33 813.07 1802.4
997.52 799.85 1773.1
1008.48 804.93 1784.3
1023.16 812.92 1802.0
1033.76 817.61 1812.4
1037.92 817.18 1811.5
1023.48 802.19 1778.3
999.59 779.95 1728.9
990.92 769.74 1706.3
1007.05 778.79 1726.4
1039.74 800.51 1774.5
1056.55 809.87 1795.3
1039.77 793.51 1759.0
1032.35 784.40 1738.8
1068.30 808.20 1791.6
1093.45 823.64 1825.8
1074.49 805.87 1786.4
1067.92 797.50 1767.9
1086.92 808.22 1791.6
1078.33 798.42 1769.9
1059.91 781.46 1732.3
1081.41 793.95 1760.0
1111.36 812.50 1801.1
1120.31 815.62 1808.0
1129.28 818.73 1814.9
1135.81 820.04 1817.8
1142.83 821.71 1821.5
1160.33 830.85 1841.8
937.17 976.69 2177.6
915.23 948.12 2113.9
903.72 930.61 2074.9
924.32 946.20 2109.6
921.57 937.83 2091.0
877.48 887.74 1979.3
870.58 875.64 1952.3
896.88 896.88 1999.7
900.56 895.38 1996.3
883.17 873.08 1946.6
869.03 854.22 1904.5
867.82 848.21 1891.1
881.69 856.93 1910.6
898.37 868.26 1935.8
893.61 858.86 1914.9
886.00 846.84 1888.1
894.09 849.87 1894.8
885.12 836.75 1865.6
874.82 822.52 1833.9
883.62 826.30 1842.3
877.15 815.85 1819.0
875.43 809.89 1805.7
892.35 821.15 1830.8
896.31 820.43 1829.2
895.74 815.60 1818.4
898.01 813.38 1813.5
896.54 807.82 1801.1
898.74 805.61 1796.2
896.75 799.68 1782.9
902.66 800.82 1785.5
927.92 819.03 1826.1
947.44 832.02 1855.0
945.87 826.44 1842.6
941.27 818.29 1824.4
951.98 823.46 1836.0
967.03 832.32 1855.7
954.99 817.89 1823.5
931.13 793.52 1769.2
936.59 794.27 1770.9
958.20 808.63 1802.9
960.66 806.77 1798.7
964.87 806.39 1797.9
970.39 807.10 1799.5
960.84 795.34 1773.3
969.43 798.62 1780.6
988.75 810.68 1807.5
983.53 802.60 1789.4
980.04 795.99 1774.7
1010.80 817.14 1821.9
1033.59 831.68 1854.3
1041.50 834.17 1859.8
1017.04 807.10 1799.5
988.99 781.25 1741.9
1005.47 790.66 1762.8
1017.40 796.42 1775.7
1025.66 799.27 1782.0
1024.14 794.51 1771.4
1008.06 778.55 1735.8
1015.33 780.68 1740.6
1022.14 782.44 1744.5
1012.88 771.93 1721.1
1037.70 787.38 1755.5
1076.47 813.23 1813.1
1079.14 811.70 1809.7
1072.69 803.35 1791.1
1072.41 799.68 1782.9
1085.61 806.05 1797.1
1108.55 819.57 1827.3
1101.48 810.88 1807.9
1082.63 793.63 1769.4
1103.73 805.68 1796.3
1126.40 818.77 1825.5
1128.02 816.52 1820.5
1145.42 825.65 1840.8
1159.42 832.28 1855.6
1168.01 834.98 1861.7
1188.09 845.84 1885.9
943.44 977.54 2192.2
936.22 964.25 2162.4
937.37 959.69 2152.1
928.06 944.54 2118.1
897.69 908.25 2036.8
872.95 878.06 1969.1
883.37 883.37 1981.0
896.87 891.68 1999.6
887.97 877.76 1968.4
879.69 864.61 1938.9
873.98 854.11 1915.4
870.08 845.51 1896.1
881.25 851.55 1909.6
888.96 854.20 1915.6
875.92 836.99 1877.0
871.36 828.03 1856.9
882.94 834.43 1871.2
886.63 833.34 1868.8
888.71 830.75 1863.0
903.19 839.73 1883.1
902.85 834.90 1872.3
891.93 820.39 1839.7
899.98 823.39 1846.5
894.58 814.11 1825.7
884.15 800.39 1794.9
897.91 808.59 1813.3
907.19 812.69 1822.5
908.19 809.37 1815.0
905.40 802.72 1800.1
913.86 806.07 1807.6
942.55 827.14 1854.9
960.88 838.94 1881.3
958.51 832.64 1867.2
950.54 821.57 1842.4
957.44 823.40 1846.5
975.09 834.41 1871.2
966.10 822.62 1844.7
947.46 802.77 1800.2
957.77 807.53 1810.9
962.88 807.88 1811.7
948.70 792.12 1776.3
955.06 793.57 1779.6
963.19 796.48 1786.1
965.58 794.64 1782.0
985.32 807.02 1809.8
993.99 810.27 1817.0
976.67 792.39 1777.0
972.69 785.46 1761.4
1001.63 805.05 1805.3
1029.40 823.52 1846.8
1043.67 831.07 1863.7
1047.95 830.63 1862.7
1010.48 797.26 1787.9
992.96 779.86 1748.9
1018.24 796.08 1785.2
1040.42 809.74 1815.9
1059.00 820.49 1840.0
1058.07 816.09 1830.1
1040.69 799.10 1792.0
1035.84 791.84 1775.7
1030.46 784.24 1758.7
1030.68 780.96 1751.3
1064.13 802.77 1800.2
1094.91 822.38 1844.2
1092.38 816.91 1831.9
1073.96 799.66 1793.3
1062.61 787.80 1766.7
1076.27 794.50 1781.7
1097.74 806.88 1809.5
1107.64 810.70 1818.0
1104.89 805.26 1805.8
1121.67 814.04 1825.5
1140.48 824.21 1848.3
1133.77 815.94 1829.8
1141.31 817.94 1834.3
1150.35 821.00 1841.1
1154.45 820.52 1840.0
1192.94 844.39 1893.6
960.34 989.26 2231.4
947.68 970.37 2188.8
927.35 938.32 2116.5
918.24 923.64 2083.4
912.74 912.74 2058.8
899.20 893.97 2016.5
889.26 878.98 1982.7
882.60 867.38 1956.5
875.43 855.43 1929.5
867.76 843.11 1901.8
861.90 832.68 1878.2
859.43 825.63 1862.3
854.15 815.97 1840.5
864.46 821.24 1852.4
884.29 835.44 1884.4
890.79 836.95 1887.9
888.54 830.28 1872.8
887.03 824.36 1859.5
898.30 830.32 1872.9
905.19 832.19 1877.1
901.16 824.05 1858.8
919.43 836.29 1886.4
923.91 835.92 1885.5
902.52 812.27 1832.2
904.81 810.07 1827.2
900.87 802.34 1809.8
886.86 785.77 1772.4
907.79 800.16 1804.9
939.75 824.09 1858.9
950.88 829.60 1871.3
951.90 826.27 1863.8
943.97 815.25 1838.9
931.66 800.57 1805.8
944.48 807.53 1821.5
968.55 823.99 1858.6
967.72 819.21 1847.8
958.17 807.13 1820.6
957.21 802.37 1809.9
950.08 792.51 1787.6
945.93 785.21 1771.2
962.40 795.03 1793.3
963.94 792.47 1787.5
957.89 783.73 1767.8
975.83 794.60 1792.3
982.23 796.03 1795.5
984.15 793.82 1790.6
999.57 802.47 1810.1
992.90 793.39 1789.6
985.69 783.97 1768.3
998.44 790.43 1782.9
1001.64 789.31 1780.4
1012.63 794.31 1791.7
1041.17 812.97 1833.8
1054.61 819.72 1849.0
1064.87 823.95 1858.5
1065.86 821.00 1851.9
1048.12 803.71 1812.9
1033.50 788.96 1779.6
1031.91 784.25 1769.0
1039.73 786.70 1774.5
1053.25 793.42 1789.7
1048.76 786.57 1774.2
1039.43 776.17 1750.8
1070.22 795.68 1794.8
1086.77 804.49 1814.6
1066.77 786.28 1773.6
1071.26 786.21 1773.4
1075.75 786.13 1773.2
1068.56 777.54 1753.9
1080.32 782.77 1765.7
1112.21 802.48 1810.1
1132.47 813.67 1835.3
1128.19 807.20 1820.8
1125.33 801.80 1808.6
1122.92 796.76 1797.2
1139.36 805.09 1816.0
1191.31 838.33 1891.0
949.92 978.70 2220.6
918.63 935.13 2121.7
915.23 926.13 2101.3
916.95 922.37 2092.8
921.62 921.62 2091.1
913.49 908.15 2060.5
896.16 885.74 2009.7
880.50 865.23 1963.1
868.06 848.10 1924.3
866.57 841.81 1910.0
863.85 834.40 1893.2
858.73 824.77 1871.3
856.24 817.75 1855.4
852.11 809.26 1836.1
863.99 815.99 1851.4
883.82 830.11 1883.4
890.32 831.62 1886.9
892.85 829.42 1881.9
894.94 826.85 1876.0
897.02 824.28 1870.2
894.62 817.66 1855.2
895.80 814.36 1847.7
918.94 830.96 1885.4
938.17 839.41 1904.6
916.68 815.89 1851.2
889.56 787.64 1787.1
907.25 795.01 1803.8
937.14 816.99 1853.7
945.31 819.91 1860.3
941.65 812.59 1843.7
930.26 798.71 1812.2
921.29 787.03 1785.7
938.79 797.97 1810.5
954.67 807.43 1832.0
946.00 796.14 1806.4
948.94 794.68 1803.0
961.00 800.84 1817.0
959.57 795.74 1805.5
961.59 793.55 1800.5
975.05 800.77 1816.9
972.20 794.59 1802.8
954.19 776.13 1761.0
958.29 775.76 1760.1
982.09 791.26 1795.3
1002.88 804.20 1824.6
1013.41 808.83 1835.2
1002.71 796.55 1807.3
988.26 781.41 1773.0
993.27 781.74 1773.7
990.95 776.32 1761.4
996.86 777.36 1763.8
1036.42 804.53 1825.4
1061.43 820.19 1860.9
1052.67 809.75 1837.2
1033.10 791.12 1795.0
1022.71 779.65 1768.9
1017.38 772.12 1751.9
1019.03 769.93 1746.9
1031.05 775.57 1759.7
1035.54 775.51 1759.6
1021.47 761.62 1728.0
1026.84 762.28 1729.5
1071.49 791.97 1796.9
1084.68 798.25 1811.2
1062.73 778.73 1766.9
1061.89 774.77 1757.9
1061.01 770.82 1748.9
1063.98 769.69 1746.4
1087.46 783.34 1777.3
1111.06 796.96 1808.2
1122.48 801.77 1819.1
1106.32 786.92 1785.5
1090.03 772.10 1751.8
1114.79 786.37 1784.2
1160.60 815.30 1849.8
1196.16 836.82 1898.7
939.76 962.54 2196.8
922.32 938.99 2143.1
914.22 925.17 2111.6
892.64 897.95 2049.4
876.73 876.73 2001.0
892.43 887.18 2024.8
894.30 883.84 2017.2
882.15 866.76 1978.2
871.34 851.19 1942.7
865.33 840.47 1918.2
869.96 840.13 1917.5
875.35 840.53 1918.4
878.03 838.34 1913.4
870.95 826.91 1887.3
862.18 814.02 1857.9
862.72 810.00 1848.7
870.72 812.99 1855.5
881.91 818.92 1869.0
889.18 821.15 1874.1
890.46 817.87 1866.6
891.30 814.21 1858.3
887.66 806.53 1840.8
887.58 802.15 1830.8
908.26 816.47 1863.4
928.66 830.39 1895.2
924.93 822.70 1877.7
903.36 799.31 1824.3
895.25 788.00 1798.5
906.60 793.86 1811.9
905.04 788.41 1799.4
908.04 786.97 1796.1
933.39 804.81 1836.8
947.05 812.44 1854.3
942.05 804.07 1835.2
939.96 798.26 1821.9
943.81 797.52 1820.2
946.80 796.06 1816.9
944.57 790.26 1803.6
952.71 793.14 1810.2
958.26 793.85 1811.8
949.80 783.01 1787.1
954.42 783.00 1787.1
970.07 791.99 1807.6
973.83 791.24 1805.9
962.48 778.27 1776.3
964.83 776.46 1772.1
986.87 790.43 1804.0
1000.05 797.21 1819.5
1003.80 796.45 1817.8
1012.08 799.26 1824.2
1015.83 798.49 1822.4
1017.75 796.30 1817.4
1013.23 789.11 1801.0
1003.12 777.65 1774.9
1025.20 791.14 1805.6
1044.63 802.46 1831.5
1030.23 787.82 1798.1
1034.34 787.41 1797.1
1044.54 791.60 1806.7
1028.46 775.94 1771.0
1021.20 767.03 1750.6
1041.28 778.65 1777.1
1053.86 784.59 1790.7
1048.41 777.11 1773.6
1061.99 783.74 1788.8
1092.41 802.68 1832.0
1090.29 797.66 1820.5
1069.30 778.93 1777.8
1069.93 776.04 1771.2
1079.27 779.47 1779.0
1093.51 786.39 1794.8
1099.01 787.00 1796.2
1103.53 786.90 1796.0
1112.47 789.95 1802.9
1093.30 773.09 1764.4
1085.37 764.28 1744.3
1118.58 784.40 1790.3
1164.42 813.17 1855.9
1202.02 835.97 1908.0
944.19 961.36 2207.2
912.07 923.06 2119.3
915.71 921.20 2115.0
905.61 905.61 2079.2
872.61 867.44 1991.6
871.05 860.80 1976.3
870.18 854.91 1962.8
856.38 836.46 1920.4
865.96 840.93 1930.7
878.26 847.98 1946.9
882.57 847.27 1945.3
888.02 847.66 1946.1
888.82 843.63 1936.9
879.44 830.04 1905.7
866.79 813.53 1867.8
863.41 805.85 1850.2
876.55 813.60 1868.0
893.34 824.62 1893.3
891.09 818.05 1878.2
882.75 805.99 1850.5
883.15 802.00 1841.3
879.06 793.99 1822.9
880.17 790.74 1815.5
902.04 806.08 1850.7
910.54 809.37 1858.3
895.20 791.55 1817.3
895.80 787.93 1809.0
908.82 795.22 1825.8
921.49 802.13 1841.6
921.24 797.78 1831.6
911.70 785.46 1803.4
925.25 793.07 1820.8
950.75 810.79 1861.5
957.26 812.22 1864.8
947.96 800.29 1837.4
944.98 793.78 1822.5
958.31 800.97 1839.0
966.95 804.19 1846.4
957.79 792.66 1819.9
945.47 778.62 1787.7
945.71 775.02 1779.4
958.67 781.83 1795.0
983.61 798.29 1832.8
997.18 805.42 1849.2
980.56 788.20 1809.7
977.18 781.74 1794.8
986.28 785.28 1802.9
985.05 780.61 1792.2
975.20 769.18 1766.0
970.23 761.68 1748.7
995.67 778.01 1786.2
1021.26 794.31 1823.7
1030.50 797.80 1831.7
1034.24 797.03 1829.9
1021.82 783.86 1799.7
1006.02 768.23 1763.8
1010.53 768.19 1763.7
1031.85 780.86 1792.8
1045.31 787.50 1808.0
1032.99 774.74 1778.7
1018.65 760.60 1746.3
1031.63 766.88 1760.7
1051.32 778.07 1786.4
1052.99 775.89 1781.4
1054.64 773.71 1776.4
1072.10 783.10 1797.9
1093.01 794.92 1825.1
1096.16 793.77 1822.4
1089.12 785.29 1803.0
1091.23 783.45 1798.7
1100.64 786.84 1806.5
1101.27 783.95 1799.9
1089.11 772.03 1772.5
1078.80 761.51 1748.4
1112.86 782.26 1796.0
1160.97 812.68 1865.8
1147.21 799.72 1836.1
1143.31 793.71 1822.3
1186.87 820.55 1883.9
952.72 970.15 2240.7
901.80 907.23 2095.4
907.60 907.60 2096.3
924.17 918.66 2121.8
916.59 905.74 2092.0
885.26 869.64 2008.6
855.06 835.06 1928.7
848.36 823.70 1902.5
864.00 834.03 1926.3
877.83 842.51 1945.9
882.90 842.54 1946.0
878.31 833.39 1924.9
868.97 819.87 1893.6
874.30 820.27 1894.6
875.32 816.64 1886.2
870.80 807.91 1866.0
884.37 815.97 1884.6
903.19 828.75 1914.1
902.58 823.66 1902.4
892.68 810.20 1871.3
891.11 804.40 1857.9
885.42 794.98 1836.1
884.52 789.92 1824.5
896.22 796.11 1838.8
894.45 790.33 1825.4
895.91 787.46 1818.8
914.30 799.41 1846.4
922.00 801.95 1852.2
928.05 803.03 1854.7
930.34 800.86 1849.7
923.35 790.77 1826.4
924.28 787.53 1818.9
937.06 794.36 1834.7
945.22 797.23 1841.3
938.42 787.52 1818.9
937.54 782.85 1808.1
954.73 793.24 1832.1
965.96 798.59 1844.5
958.96 788.90 1822.1
945.32 773.87 1787.4
945.12 769.93 1778.3
957.20 775.99 1792.3
980.39 790.94 1826.8
993.95 798.03 1843.2
977.30 780.91 1803.6
975.68 775.90 1792.1
985.68 780.13 1801.8
970.94 764.84 1766.5
975.92 758.04 1750.8
997.34 771.09 1781.0
1003.74 772.47 1784.1
1017.98 779.83 1801.1
1016.57 775.19 1790.4
1023.93 777.25 1795.2
1050.38 793.72 1833.2
1043.35 784.86 1812.8
1028.74 770.40 1779.4
1017.29 758.43 1751.7
1002.89 744.36 1719.2
1027.66 759.37 1753.9
1058.26 778.55 1798.2
1058.05 774.98 1789.9
1057.81 771.41 1781.7
1071.92 778.31 1797.6
1088.99 787.28 1818.4
