ply
format ascii 1.0
element vertex 1995
property float x
property float y
property float z
end_header
-1034.81 -948.97 1839.4
-1059.06 -975.70 1891.2
-1072.43 -992.62 1924.0
-1071.96 -996.82 1932.1
-1057.79 -988.27 1915.5
-1036.23 -972.69 1885.3
-1026.59 -968.21 1876.6
-1040.07 -985.59 1910.3
-1057.31 -1006.72 1951.3
-1051.04 -1005.56 1949.0
-1042.19 -1001.91 1942.0
-1033.80 -998.67 1935.7
-1022.86 -992.92 1924.5
-1009.84 -985.09 1909.4
-990.96 -971.43 1882.9
-1003.82 -988.91 1916.8
-1030.83 -1020.57 1978.1
-1022.00 -1016.89 1971.0
-999.02 -999.02 1936.4
-995.70 -1000.73 1939.7
-1003.93 -1014.12 1965.6
-1016.98 -1032.55 2001.4
-1017.18 -1038.04 2012.0
-994.47 -1020.10 1977.2
-997.91 -1028.93 1994.3
-1008.19 -1050.41 2036.0
-1013.78 -1061.80 2058.1
-998.72 -1062.81 2060.0
-1018.63 -1089.82 2112.4
-977.11 -1062.54 2059.5
-992.68 -1085.40 2103.8
-982.65 -1080.37 2094.0
-986.83 -1090.99 2114.6
-912.19 -1074.12 2081.9
-911.11 -1079.23 2091.8
-929.37 -1107.45 2146.5
-904.99 -1111.68 2154.7
-896.26 -1107.79 2147.2
-886.51 -1102.60 2137.1
-861.65 -1106.25 2144.2
-857.72 -1108.35 2148.3
-843.24 -1126.21 2182.9
-831.07 -1117.46 2165.9
-736.25 -1118.43 2167.8
-705.17 -1122.63 2175.9
-681.55 -1093.78 2120.0
-668.83 -1082.09 2097.4
-672.72 -1097.31 2126.9
-398.86 -1133.89 2197.8
-1323.95 -966.39 1863.8
-1179.58 -867.34 1672.7
-1169.58 -863.16 1664.7
-1168.58 -865.62 1669.4
-1150.19 -855.16 1649.2
-1151.82 -859.57 1657.7
-1153.41 -863.98 1666.2
-1143.49 -859.76 1658.1
-1138.27 -859.07 1656.8
-1109.69 -840.68 1621.3
-1092.63 -830.90 1602.5
-1093.72 -834.90 1610.2
-1078.81 -826.68 1594.3
-1071.15 -823.96 1589.1
-1077.33 -831.91 1604.4
-1062.51 -823.65 1588.5
-1044.70 -812.99 1567.9
-1042.70 -814.61 1571.0
-1048.78 -822.57 1586.4
-1060.35 -834.92 1610.2
-1057.23 -835.76 1611.8
-1052.10 -835.00 1610.4
-1052.98 -839.02 1618.1
-1042.84 -834.27 1609.0
-1050.15 -843.49 1626.7
-1064.32 -858.32 1655.3
-1038.34 -840.76 1621.5
-1018.41 -827.97 1596.8
-1039.83 -848.84 1637.0
-1044.44 -856.10 1651.0
-1028.49 -846.49 1632.5
-1034.50 -854.96 1648.9
-1057.91 -877.94 1693.2
-1049.72 -874.76 1687.0
-1029.49 -861.50 1661.5
-1054.53 -886.16 1709.0
-1068.35 -901.56 1738.7
-1028.60 -871.69 1681.1
-1015.24 -864.03 1666.3
-1046.50 -894.45 1725.0
-1045.87 -897.74 1731.4
-1036.72 -893.73 1723.6
-1068.45 -925.06 1784.1
-1100.86 -957.27 1846.2
-1087.79 -950.04 1832.2
-1056.66 -926.89 1787.6
-1041.90 -917.98 1770.4
-1046.60 -926.19 1786.2
-1047.09 -930.74 1795.0
-1029.67 -919.34 1773.0
-1030.14 -923.89 1781.8
-1036.03 -933.36 1800.1
-1031.87 -933.82 1800.9
-1034.03 -940.03 1812.9
-1031.64 -942.13 1817.0
-1028.77 -943.83 1820.2
-1043.76 -961.99 1855.3
-1067.51 -988.43 1906.3
-1074.63 -999.65 1927.9
-1069.72 -999.74 1928.1
-1071.86 -1006.44 1941.0
-1064.29 -1004.04 1936.4
-1047.12 -992.53 1914.2
-1052.67 -1002.55 1933.5
-1063.34 -1017.55 1962.4
-1052.73 -1012.24 1952.2
-1052.91 -1017.30 1961.9
-1054.75 -1024.03 1974.9
-1037.77 -1012.45 1952.6
-1019.17 -999.19 1927.0
-1000.25 -985.47 1900.6
-1010.12 -1000.12 1928.8
-1029.09 -1023.97 1974.8
-1017.34 -1017.34 1962.0
-1007.31 -1012.37 1952.4
-1014.73 -1024.98 1976.8
-1004.70 -1020.00 1967.1
-997.59 -1017.95 1963.2
-1000.31 -1025.96 1978.6
-982.18 -1012.55 1952.8
-963.74 -998.70 1926.1
-953.50 -993.23 1915.5
-959.00 -1004.19 1936.6
-978.83 -1030.34 1987.1
-1005.61 -1064.14 2052.3
-1011.06 -1075.59 2074.4
-1003.36 -1073.11 2069.6
-1012.72 -1106.80 2134.5
-1014.58 -1114.93 2150.2
-931.33 -1095.69 2113.1
-926.50 -1102.97 2127.2
-873.20 -1119.49 2159.0
-859.16 -1108.60 2138.0
-849.56 -1103.33 2127.9
-745.22 -1120.64 2161.2
-667.71 -1076.95 2077.0
-673.35 -1094.88 2111.5
-627.40 -1091.12 2104.3
-428.18 -1126.78 2173.1
-422.71 -1127.22 2173.9
-405.28 -1141.63 2201.7
-393.36 -1123.87 2167.5
-375.83 -1121.88 2163.6
-1317.31 -962.84 1847.7
-1302.69 -955.63 1833.8
-1164.90 -860.83 1651.9
-1141.72 -846.81 1625.0
-1155.03 -859.86 1650.0
-1149.83 -859.17 1648.7
-1140.44 -855.33 1641.4
-1132.65 -852.67 1636.2
-1099.82 -831.07 1594.8
-1072.87 -813.76 1561.6
-1078.22 -820.92 1575.3
-1091.79 -834.41 1601.2
-1098.03 -842.38 1616.5
-1087.75 -837.69 1607.5
-1058.51 -818.31 1570.3
-1044.25 -810.40 1555.1
-1035.66 -806.85 1548.3
-1024.54 -801.30 1537.7
-1035.79 -813.25 1560.6
-1055.54 -832.01 1596.6
-1061.53 -840.03 1612.0
-1052.88 -836.48 1605.2
-1043.25 -832.11 1596.8
-1039.14 -832.14 1596.9
-1036.03 -832.97 1598.4
-1050.80 -848.23 1627.7
-1067.43 -865.13 1660.2
-1044.92 -850.32 1631.7
-1011.68 -826.62 1586.3
-1020.34 -837.10 1606.4
-1049.96 -864.92 1659.8
-1056.92 -874.24 1677.7
-1034.64 -859.35 1649.1
-1029.91 -858.97 1648.4
-1047.90 -877.61 1684.1
-1054.66 -886.97 1702.1
-1053.66 -889.86 1707.6
-1039.25 -881.39 1691.4
-1026.32 -874.11 1677.4
-1040.07 -889.59 1707.1
-1060.33 -910.80 1747.8
-1051.14 -906.78 1740.1
-1039.16 -900.31 1727.7
-1066.63 -928.10 1781.0
-1088.73 -951.46 1825.8
-1067.32 -936.82 1797.7
-1051.60 -927.07 1779.0
-1050.29 -929.99 1784.6
-1056.33 -939.48 1802.8
-1058.62 -945.70 1814.8
-1036.59 -930.15 1784.9
-1032.01 -930.20 1785.0
-1037.43 -939.30 1802.5
-1033.72 -940.17 1804.2
-1031.80 -942.69 1809.0
-1025.37 -941.09 1805.9
-1023.42 -943.61 1810.8
-1037.52 -961.02 1844.2
-1043.91 -971.42 1864.1
-1033.83 -966.51 1854.7
-1047.18 -983.56 1887.4
-1068.74 -1008.53 1935.3
-1064.69 -1009.44 1937.1
-1049.71 -999.96 1918.9
-1041.33 -996.70 1912.7
-1036.87 -997.18 1913.6
-1031.97 -997.24 1913.7
-1036.53 -1006.48 1931.4
-1035.86 -1010.72 1939.5
-1018.11 -998.24 1915.6
-1015.74 -1000.80 1920.5
-1013.76 -1003.78 1926.2
-1000.39 -995.44 1910.2
-996.31 -996.31 1911.9
-995.56 -1000.54 1920.0
-996.44 -1006.46 1931.4
-1011.35 -1026.68 1970.2
-1010.83 -1031.36 1979.1
-992.60 -1017.92 1953.4
-982.66 -1012.89 1943.7
-969.49 -1004.48 1927.6
-956.80 -996.46 1912.2
-954.27 -999.00 1917.1
-966.19 -1016.78 1951.2
-978.36 -1035.00 1986.1
-994.35 -1057.49 2029.3
-1008.97 -1078.73 2070.1
-1014.71 -1090.67 2093.0
-1010.51 -1092.01 2095.5
-1003.57 -1090.36 2092.4
-995.46 -1087.43 2086.8
-973.03 -1068.74 2050.9
-1001.70 -1106.28 2122.9
-999.19 -1115.77 2141.1
-959.44 -1077.36 2067.4
-985.15 -1112.44 2134.8
-660.71 -1079.70 2071.9
-441.93 -1110.35 2130.7
-437.66 -1113.53 2136.8
-418.87 -1122.58 2154.2
-401.59 -1121.12 2151.4
-1311.51 -963.36 1839.5
-1299.57 -958.08 1829.4
-1185.20 -880.19 1680.7
-1149.30 -856.67 1635.8
-1150.46 -860.71 1643.5
-1135.81 -852.91 1628.6
-1119.12 -843.52 1610.7
-1125.50 -851.50 1625.9
-1107.31 -840.89 1605.7
-1071.00 -816.39 1558.9
-1066.49 -816.03 1558.2
-1077.49 -827.58 1580.2
-1081.19 -833.59 1591.7
-1083.30 -838.41 1600.9
-1066.91 -828.91 1582.8
-1051.10 -819.78 1565.3
-1040.96 -815.01 1556.3
-1033.39 -812.24 1551.0
-1049.16 -827.85 1580.8
-1055.21 -835.89 1596.1
-1048.09 -833.52 1591.6
-1045.01 -834.35 1593.2
-1040.91 -834.38 1593.2
-1048.80 -844.05 1611.7
-1057.11 -854.15 1631.0
-1057.90 -858.22 1638.7
-1062.61 -865.51 1652.7
-1049.50 -858.30 1638.9
-1026.61 -842.99 1609.7
-1028.34 -847.86 1619.0
-1050.57 -869.74 1660.7
-1077.02 -895.30 1709.6
-1073.63 -896.17 1711.2
-1041.18 -872.69 1666.4
-1032.56 -869.07 1659.5
-1039.84 -878.86 1678.2
-1038.89 -881.75 1683.7
-1033.14 -880.56 1681.4
-1027.39 -879.37 1679.1
-1022.12 -878.59 1677.6
-1021.58 -881.88 1683.9
-1033.29 -895.81 1710.5
-1043.94 -908.95 1735.6
-1064.34 -930.72 1777.2
-1079.89 -948.42 1811.0
-1058.99 -934.13 1783.7
-1044.23 -925.15 1766.5
-1040.63 -926.02 1768.2
-1044.85 -933.89 1783.2
-1068.29 -959.09 1831.4
-1068.65 -963.70 1840.2
-1050.74 -951.79 1817.4
-1044.28 -950.20 1814.4
-1042.35 -952.74 1819.2
-1042.66 -957.35 1828.0
-1030.79 -950.77 1815.5
-1023.44 -948.33 1810.8
-1021.91 -951.28 1816.4
-1009.69 -944.25 1803.0
-1018.33 -956.76 1826.9
-1049.37 -990.52 1891.4
-1052.00 -997.68 1905.0
-1030.94 -982.31 1875.7
-1034.42 -990.30 1890.9
-1042.17 -1002.47 1914.2
-1036.84 -1002.11 1913.5
-1029.79 -1000.08 1909.6
-1023.17 -998.46 1906.5
-1010.58 -990.96 1892.2
-992.09 -977.57 1866.6
-987.27 -977.59 1866.7
-990.48 -985.60 1882.0
-983.94 -983.94 1878.8
-977.83 -982.70 1876.4
-973.40 -983.14 1877.3
-976.44 -991.16 1892.6
-993.49 -1013.56 1935.4
-1004.58 -1030.08 1966.9
-1001.16 -1031.81 1970.2
-992.41 -1028.04 1963.0
-981.66 -1022.14 1951.7
-975.00 -1020.47 1948.6
-979.24 -1030.25 1967.2
-983.00 -1039.62 1985.1
-985.48 -1047.72 2000.6
-991.47 -1059.67 2023.4
-994.58 -1068.65 2040.6
-982.62 -1061.44 2026.8
-960.11 -1042.70 1991.0
-972.55 -1061.92 2027.7
-986.39 -1082.88 2067.7
-960.91 -1060.68 2025.3
-971.10 -1077.81 2058.1
-971.87 -1096.75 2094.2
-971.76 -1102.79 2105.7
-940.56 -1104.61 2109.2
-836.44 -1126.41 2150.9
-835.66 -1132.91 2163.3
-705.63 -1122.34 2143.1
-708.29 -1135.51 2168.2
-471.06 -1106.45 2112.7
-460.31 -1106.95 2113.7
-455.04 -1134.80 2166.9
-432.62 -1092.37 2085.9
-438.55 -1135.72 2168.6
-417.88 -1140.69 2178.1
-406.60 -1125.11 2148.4
-1318.72 -969.93 1842.9
-1294.50 -955.58 1815.7
-1269.84 -940.79 1787.6
-1213.96 -902.69 1715.2
-1172.12 -874.78 1662.1
-1156.34 -866.19 1645.8
-1160.10 -872.22 1657.3
-1148.06 -866.38 1646.2
-1123.49 -851.00 1617.0
-1122.01 -853.07 1620.9
-1111.66 -848.37 1612.0
-1082.63 -829.34 1575.8
-1056.33 -812.26 1543.3
-1047.20 -808.30 1535.8
-1047.89 -811.91 1542.7
-1047.00 -814.33 1547.3
-1060.95 -828.35 1573.9
-1074.79 -842.40 1600.6
-1071.21 -842.85 1601.5
-1069.15 -844.50 1604.6
-1064.53 -844.14 1603.9
-1050.33 -836.14 1588.7
-1053.80 -842.21 1600.3
-1061.24 -851.51 1617.9
-1053.59 -848.73 1612.6
-1056.94 -854.82 1624.2
-1064.22 -864.15 1641.9
-1065.48 -868.65 1650.5
-1056.32 -864.65 1642.9
-1029.43 -846.05 1607.6
-1008.08 -831.87 1580.6
-1011.34 -837.97 1592.2
-1046.79 -870.89 1654.8
-1086.37 -907.54 1724.4
-1079.55 -905.58 1720.7
-1044.20 -879.56 1671.2
-1049.08 -887.35 1686.0
-1071.20 -909.85 1728.8
-1059.13 -903.37 1716.5
-1043.27 -893.61 1697.9
-1036.54 -891.60 1694.1
-1028.87 -888.76 1688.7
-1015.54 -881.00 1674.0
-1014.52 -883.89 1679.5
-1024.75 -896.66 1703.7
-1045.19 -918.50 1745.2
-1065.45 -940.38 1786.8
-1050.20 -930.96 1768.9
-1035.47 -921.93 1751.7
-1032.36 -923.21 1754.2
-1033.38 -928.22 1763.7
-1054.09 -951.02 1807.0
-1067.75 -967.65 1838.6
-1065.80 -970.21 1843.5
-1048.39 -958.66 1821.5
-1035.14 -950.83 1806.6
-1036.36 -956.28 1817.0
-1026.77 -951.75 1808.4
-1028.39 -957.62 1819.6
-1035.30 -968.51 1840.2
-1032.81 -970.65 1844.3
-1050.64 -992.00 1884.9
-1057.28 -1002.93 1905.6
-1036.61 -987.94 1877.2
-1023.93 -980.46 1862.9
-1034.83 -995.60 1891.7
-1037.36 -1002.78 1905.4
-1028.16 -998.64 1897.5
-1022.00 -997.43 1895.2
-1015.42 -995.80 1892.1
-1027.22 -1012.26 1923.4
-1031.23 -1021.17 1940.3
-995.31 -990.43 1881.9
-968.93 -968.93 1841.0
-978.45 -983.30 1868.3
-986.19 -996.00 1892.5
-976.30 -990.94 1882.9
-972.67 -992.23 1885.3
-975.24 -999.87 1899.8
-973.63 -1003.28 1906.3
-962.95 -997.35 1895.0
-947.43 -986.30 1874.0
-950.29 -994.37 1889.4
-958.34 -1007.99 1915.3
-979.18 -1035.27 1967.1
-1000.99 -1063.88 2021.4
-970.61 -1037.02 1970.4
-940.46 -1010.12 1919.3
-946.56 -1022.08 1942.0
-939.55 -1019.94 1938.0
-949.43 -1036.21 1968.9
-992.77 -1089.37 2069.9
-995.22 -1097.99 2086.3
-962.75 -1067.97 2029.2
-956.35 -1066.69 2026.8
-979.10 -1098.10 2086.5
-976.68 -1107.64 2104.6
-956.13 -1090.42 2071.9
-941.89 -1111.65 2112.2
-891.87 -1124.53 2136.7
-654.75 -1116.93 2122.3
-625.02 -1103.29 2096.3
-461.29 -1101.66 2093.2
-458.52 -1108.08 2105.4
-459.05 -1122.73 2133.3
-433.62 -1100.31 2090.7
-437.56 -1138.79 2163.8
-1310.77 -968.83 1831.8
-1209.84 -900.75 1703.1
-1183.86 -884.64 1672.6
-1164.34 -873.25 1651.1
-1158.08 -871.77 1648.3
-1169.20 -883.40 1670.3
-1167.11 -885.10 1673.5
-1148.27 -874.05 1652.6
-1115.92 -852.61 1612.1
-1077.48 -826.34 1562.4
-1084.90 -835.17 1579.1
-1091.74 -843.62 1595.1
-1078.90 -836.87 1582.3
-1075.38 -837.32 1583.2
-1065.68 -832.95 1574.9
-1071.88 -841.02 1590.2
-1082.11 -852.32 1611.5
-1073.41 -848.75 1604.8
-1071.85 -850.81 1608.7
-1067.74 -850.85 1608.8
-1046.46 -837.17 1582.9
-1041.89 -836.79 1582.2
-1057.88 -853.00 1612.8
-1058.25 -856.68 1619.8
-1057.59 -859.56 1625.2
-1060.39 -865.27 1636.0
-1058.67 -867.35 1639.9
-1046.07 -860.48 1627.0
-1020.22 -842.61 1593.2
-999.41 -828.78 1567.0
-1019.33 -848.75 1604.8
-1070.83 -895.28 1692.8
-1079.64 -906.37 1713.7
-1041.81 -878.22 1660.5
-1048.18 -887.26 1677.6
-1095.45 -931.13 1760.5
-1092.42 -932.44 1763.0
-1056.82 -905.84 1712.7
-1048.14 -902.20 1705.8
-1049.00 -906.76 1714.5
-1054.09 -915.04 1730.1
-1053.45 -918.39 1736.4
-1020.27 -893.28 1689.0
-998.08 -877.62 1659.4
-1021.86 -902.42 1706.3
-1043.58 -925.61 1750.1
-1041.42 -927.72 1754.1
-1038.77 -929.43 1757.3
-1042.57 -936.94 1771.5
-1051.37 -949.02 1794.4
-1048.15 -950.33 1796.8
-1038.99 -946.22 1789.1
-1049.42 -960.01 1815.1
-1045.68 -960.90 1816.8
-1038.77 -958.87 1813.0
-1046.28 -970.19 1834.4
-1027.68 -957.29 1810.0
-1020.80 -955.25 1806.1
-1045.99 -983.33 1859.2
-1062.53 -1003.50 1897.4
-1053.27 -999.38 1889.6
-1034.35 -986.02 1864.3
-1020.80 -977.67 1848.5
-1015.61 -977.29 1847.8
-1019.57 -985.74 1863.8
-1016.08 -987.05 1866.3
-1016.90 -992.57 1876.7
-1020.25 -1000.63 1891.9
-1001.68 -987.16 1866.5
-1001.14 -991.42 1874.5
-1030.75 -1025.72 1939.4
-1021.54 -1021.54 1931.5
-978.62 -983.44 1859.4
-969.61 -979.21 1851.4
-987.41 -1002.15 1894.8
-987.93 -1007.69 1905.3
-973.06 -997.51 1886.0
-964.05 -993.26 1878.0
-955.89 -989.85 1871.6
-939.97 -978.34 1849.8
-935.16 -978.32 1849.8
-946.59 -995.39 1882.0
-954.65 -1009.06 1907.9
-974.67 -1035.59 1958.1
-988.06 -1055.31 1995.3
-953.37 -1023.62 1935.4
-923.71 -997.02 1885.1
-924.34 -1003.00 1896.4
-918.61 -1002.12 1894.8
-928.96 -1018.86 1926.4
-968.06 -1067.48 2018.4
-971.78 -1077.41 2037.1
-932.09 -1039.06 1964.6
-913.90 -1024.37 1936.8
-936.44 -1055.43 1995.6
-953.37 -1080.49 2042.9
-949.60 -1082.23 2046.2
-944.68 -1082.66 2047.1
-929.22 -1070.97 2024.9
-921.34 -1067.92 2019.2
-942.52 -1098.71 2077.4
-944.17 -1106.96 2093.0
-924.00 -1089.57 2060.1
-932.58 -1106.09 2091.3
-880.65 -1115.85 2109.8
-850.06 -1133.42 2143.0
-846.75 -1136.43 2148.7
-688.80 -1097.78 2075.6
-657.86 -1137.31 2150.4
-629.87 -1098.23 2076.5
-626.18 -1110.78 2100.2
-570.68 -1130.27 2137.1
-458.80 -1114.23 2106.7
-455.77 -1120.21 2118.0
-425.32 -1112.38 2103.2
-431.16 -1142.28 2159.8
-1320.65 -977.37 1839.0
-1301.75 -966.88 1819.2
-1283.99 -957.16 1800.9
-1215.28 -909.24 1710.8
-1170.22 -878.74 1653.4
-1165.02 -878.05 1652.1
-1168.78 -884.14 1663.5
-1158.83 -879.85 1655.5
-1136.32 -865.97 1629.3
-1134.82 -868.05 1633.3
-1119.22 -859.33 1616.9
-1084.96 -836.15 1573.2
-1096.50 -848.24 1596.0
-1114.68 -865.57 1628.6
-1112.61 -867.25 1631.8
-1099.73 -860.48 1619.0
-1081.25 -849.26 1597.9
-1064.39 -839.23 1579.0
-1051.16 -832.00 1565.4
-1054.25 -837.68 1576.1
-1064.91 -849.44 1598.3
-1063.34 -851.51 1602.1
-1043.61 -838.98 1578.6
-1031.51 -832.51 1566.4
-1038.99 -841.87 1584.0
-1038.41 -844.74 1589.4
-1036.31 -846.39 1592.5
-1057.05 -866.78 1630.9
-1071.68 -882.31 1660.1
-1063.49 -879.10 1654.1
-1042.03 -864.85 1627.2
-1022.15 -851.79 1602.7
-1041.49 -871.45 1639.7
-1064.10 -894.02 1682.1
-1043.76 -880.54 1656.8
-1040.47 -881.39 1658.4
-1080.65 -919.23 1729.6
-1098.40 -938.22 1765.3
-1066.56 -914.83 1721.3
-1040.63 -896.34 1686.5
-1041.07 -900.50 1694.3
-1051.93 -913.76 1719.3
-1067.90 -931.57 1752.8
-1070.04 -937.43 1763.8
-1040.60 -915.55 1722.6
-1018.35 -899.84 1693.1
-1041.10 -923.92 1738.4
-1065.06 -949.30 1786.1
-1065.61 -953.93 1794.9
-1047.61 -941.93 1772.3
-1036.16 -935.74 1760.6
-1061.05 -962.46 1810.9
-1072.91 -977.54 1839.3
-1048.60 -959.66 1805.6
-1045.34 -960.97 1808.1
-1053.40 -972.74 1830.2
-1058.65 -982.01 1847.7
-1059.78 -987.52 1858.1
-1035.32 -969.13 1823.5
-1028.41 -967.08 1819.6
-1053.55 -995.29 1872.7
-1048.76 -995.35 1872.8
-1018.80 -971.41 1827.7
-1014.10 -971.45 1827.8
-1015.09 -976.97 1838.2
-1017.79 -984.18 1851.8
-1028.25 -999.01 1879.7
-1016.93 -992.72 1867.8
-1009.97 -990.64 1863.9
-1008.61 -994.06 1870.4
-987.09 -977.56 1839.3
-982.77 -978.00 1840.1
-1007.33 -1007.33 1895.3
-1009.22 -1014.17 1908.2
-977.34 -986.96 1857.0
-957.00 -971.21 1827.4
-961.87 -981.01 1845.8
-982.90 -1007.47 1895.6
-989.61 -1019.44 1918.1
-977.64 -1012.20 1904.5
-966.55 -1005.80 1892.4
-966.97 -1011.37 1902.9
-979.16 -1029.38 1936.8
-973.75 -1028.97 1936.0
-963.90 -1023.83 1926.4
-954.89 -1019.54 1918.3
-938.29 -1007.07 1894.8
-942.14 -1016.52 1912.6
-952.26 -1032.88 1943.4
-944.85 -1030.29 1938.5
-929.58 -1019.06 1917.4
-926.16 -1020.77 1920.6
-946.90 -1049.27 1974.2
-963.13 -1073.05 2019.0
-941.29 -1054.45 1984.0
-908.45 -1023.25 1925.3
-911.85 -1032.75 1943.2
-921.64 -1049.64 1974.9
-912.71 -1045.28 1966.7
-932.49 -1073.93 2020.6
-946.39 -1096.10 2062.4
-916.38 -1067.37 2008.3
-905.57 -1060.81 1996.0
-934.78 -1101.33 2072.2
-953.71 -1130.12 2126.4
-933.55 -1112.66 2093.5
-932.13 -1117.46 2102.5
-879.47 -1119.82 2107.0
-845.54 -1111.12 2090.6
-828.76 -1110.42 2089.3
-832.80 -1123.18 2113.3
-839.02 -1139.06 2143.2
-840.87 -1149.19 2162.2
-835.63 -1157.46 2177.8
-815.89 -1137.80 2140.8
-687.56 -1101.17 2071.9
-643.21 -1126.99 2120.5
-649.37 -1147.59 2159.2
-411.05 -1108.76 2086.2
-392.90 -1150.63 2164.9
-1322.49 -979.98 1834.9
-1192.04 -896.21 1678.1
-1161.90 -876.75 1641.6
-1167.29 -884.05 1655.3
-1168.40 -888.16 1663.0
-1155.83 -881.85 1651.2
-1131.76 -866.70 1622.8
-1129.23 -867.99 1625.2
-1125.12 -868.07 1625.4
-1103.86 -854.87 1600.7
-1086.31 -844.45 1581.2
-1078.66 -841.68 1576.0
-1076.17 -842.93 1578.3
-1062.88 -835.70 1564.8
-1060.92 -837.35 1567.9
-1060.98 -840.63 1574.0
-1053.89 -838.23 1569.5
-1064.59 -850.02 1591.6
-1060.51 -850.06 1591.7
-1043.29 -839.53 1571.9
-1036.22 -837.11 1567.4
-1037.71 -841.61 1575.8
-1044.16 -850.19 1591.9
-1041.57 -851.44 1594.2
-1034.97 -849.42 1590.5
-1049.74 -864.98 1619.6
-1067.35 -883.03 1653.4
-1061.15 -881.44 1650.4
-1052.99 -878.20 1644.3
-1045.34 -875.36 1639.0
-1030.86 -866.77 1622.9
-1018.89 -860.21 1610.7
-1009.38 -855.69 1602.2
-1017.34 -866.00 1621.5
-1033.91 -883.76 1654.7
-1027.24 -881.72 1650.9
-1039.30 -895.80 1677.3
-1057.46 -915.28 1713.8
-1053.07 -915.33 1713.9
-1059.61 -924.91 1731.8
-1064.17 -932.85 1746.7
-1055.93 -929.58 1740.6
-1051.01 -929.22 1739.9
-1052.65 -934.68 1750.1
-1056.11 -941.81 1763.4
-1060.44 -949.79 1778.4
-1049.40 -944.01 1767.6
-1023.15 -924.42 1730.9
-1023.30 -928.63 1738.8
-1059.69 -965.91 1808.6
-1077.95 -986.92 1847.9
-1060.47 -975.26 1826.1
-1046.27 -966.51 1809.7
-1042.09 -966.98 1810.6
-1049.63 -978.39 1831.9
-1053.48 -986.44 1847.0
-1034.88 -973.45 1822.7
-1034.22 -977.29 1829.9
-1042.41 -989.57 1852.9
-1021.72 -974.42 1824.5
-1008.65 -966.43 1809.5
-1019.37 -981.27 1837.3
-1027.35 -993.59 1860.4
-1037.84 -1008.47 1888.3
-1038.65 -1014.04 1898.7
-1019.50 -1000.08 1872.6
-1005.20 -990.77 1855.1
-997.85 -988.25 1850.4
-984.52 -979.76 1834.5
-986.59 -986.59 1847.3
-994.13 -998.98 1870.5
-981.27 -990.89 1855.3
-967.21 -981.50 1837.8
-963.28 -982.36 1839.4
-956.84 -980.64 1836.2
-966.22 -995.20 1863.4
-980.03 -1014.50 1899.6
-976.35 -1015.80 1902.0
-973.90 -1018.39 1906.8
-982.87 -1033.02 1934.2
-988.87 -1044.66 1956.0
-978.15 -1038.66 1944.8
-961.42 -1026.17 1921.4
-945.18 -1014.10 1898.8
-929.04 -1002.00 1876.1
-931.72 -1010.19 1891.5
-946.24 -1031.35 1931.1
-944.78 -1035.24 1938.4
-937.00 -1032.20 1932.7
-939.80 -1040.85 1948.9
-942.53 -1049.52 1965.1
-938.59 -1050.81 1967.5
-938.89 -1056.89 1978.9
-931.44 -1054.27 1974.0
-922.48 -1049.90 1965.8
-918.13 -1050.75 1967.4
-911.49 -1048.97 1964.1
-928.99 -1075.12 2013.1
-948.14 -1103.49 2066.2
-933.08 -1092.13 2044.9
-914.02 -1075.93 2014.6
-922.82 -1092.54 2045.7
-945.46 -1125.81 2108.0
-941.83 -1128.01 2112.1
-927.25 -1117.04 2091.5
-917.44 -1138.51 2131.7
-906.60 -1131.88 2119.3
-879.62 -1118.53 2094.3
-866.54 -1108.75 2076.0
-837.70 -1099.15 2058.0
-863.88 -1140.77 2136.0
-850.72 -1152.94 2158.8
-812.01 -1145.72 2145.2
-798.86 -1142.81 2139.8
-675.31 -1112.91 2083.8
-677.13 -1124.91 2106.3
-650.03 -1134.79 2124.8
-633.52 -1115.42 2088.5
-617.08 -1134.98 2125.1
-605.75 -1124.19 2104.9
-603.06 -1129.37 2114.6
-541.91 -1139.12 2132.9
-542.27 -1151.63 2156.3
-444.78 -1131.18 2118.0
-438.03 -1127.93 2111.9
-420.73 -1140.39 2135.3
-418.31 -1164.48 2180.4
-403.75 -1139.36 2133.3
-403.24 -1153.73 2160.2
-397.95 -1154.61 2161.9
-379.69 -1133.57 2122.5
-1322.17 -980.97 1827.9
-1333.27 -992.76 1849.9
-1322.36 -988.19 1841.3
-1197.43 -901.34 1679.5
-1178.92 -890.64 1659.6
-1185.34 -898.78 1674.7
-1177.46 -896.08 1669.7
-1166.44 -890.97 1660.2
-1157.55 -887.45 1653.6
-1136.64 -874.66 1629.8
-1126.78 -870.31 1621.7
-1115.38 -864.74 1611.3
-1088.97 -847.43 1579.1
-1067.33 -833.72 1553.5
-1066.44 -836.19 1558.1
-1070.17 -842.30 1569.5
-1047.66 -827.73 1542.4
-1036.52 -822.07 1531.8
-1066.78 -849.32 1582.6
-1091.24 -872.15 1625.1
-1075.42 -862.84 1607.8
-1044.98 -841.68 1568.3
-1049.02 -848.23 1580.6
-1063.58 -863.38 1608.8
-1060.46 -864.23 1610.4
-1060.83 -867.96 1617.3
-1076.64 -884.39 1647.9
-1087.86 -897.16 1671.7
-1063.76 -880.79 1641.2
-1040.77 -865.22 1612.2
-1043.03 -870.59 1622.2
-1043.77 -874.74 1630.0
-1043.99 -878.48 1636.9
-1036.85 -876.04 1632.4
-1034.11 -877.30 1634.7
-1033.79 -880.63 1640.9
-1027.14 -878.59 1637.1
-1028.71 -883.58 1646.4
-1031.20 -889.41 1657.3
-1053.77 -912.68 1700.6
-1063.26 -924.77 1723.2
-1051.72 -918.59 1711.7
-1050.18 -921.13 1716.4
-1045.78 -921.18 1716.5
-1042.79 -922.47 1718.9
-1042.61 -926.27 1726.0
-1044.74 -932.16 1736.9
-1048.68 -939.73 1751.1
-1050.71 -945.64 1762.1
-1037.85 -938.15 1748.1
-1029.21 -934.41 1741.1
-1046.83 -954.60 1778.8
-1061.54 -972.30 1811.7
-1059.66 -974.88 1816.6
-1044.99 -965.68 1799.4
-1034.03 -959.84 1788.5
-1039.39 -969.16 1805.9
-1055.49 -988.62 1842.2
-1063.80 -1000.94 1865.1
-1049.20 -991.71 1847.9
-1025.30 -973.56 1814.1
-1010.87 -964.28 1796.8
-1012.43 -970.25 1807.9
-1021.44 -983.43 1832.5
-1019.37 -986.02 1837.3
-1015.52 -986.91 1839.0
-1024.73 -1000.56 1864.4
-1024.72 -1005.29 1873.2
-1005.63 -991.27 1847.1
-992.69 -983.19 1832.0
-996.97 -992.18 1848.8
-994.76 -994.76 1853.6
-989.13 -993.93 1852.0
-990.28 -999.94 1863.2
-979.56 -993.96 1852.1
-968.03 -987.11 1839.3
-970.81 -994.84 1853.7
-971.01 -1000.00 1863.3
-960.37 -993.98 1852.1
-955.56 -993.98 1852.1
-959.00 -1002.59 1868.2
-962.77 -1011.64 1885.0
-966.87 -1021.13 1902.7
-967.23 -1026.75 1913.2
-959.44 -1023.73 1907.6
-945.62 -1014.22 1889.8
-943.92 -1017.67 1896.3
-941.40 -1020.26 1901.1
-936.05 -1019.81 1900.3
-941.42 -1031.08 1921.3
-948.26 -1044.10 1945.5
-949.50 -1051.05 1958.5
-950.28 -1057.57 1970.6
-951.79 -1064.98 1984.4
-957.49 -1077.18 2007.2
-967.72 -1094.64 2039.7
-947.09 -1077.19 2007.2
-923.93 -1056.65 1968.9
-926.41 -1065.37 1985.2
-926.54 -1071.48 1996.5
-926.62 -1077.59 2007.9
-925.52 -1082.39 2016.9
-914.31 -1075.35 2003.8
-900.18 -1064.78 1984.1
-916.79 -1090.67 2032.3
-944.95 -1130.66 2106.8
-886.44 -1105.37 2059.7
-874.48 -1110.53 2069.3
-880.52 -1125.11 2096.5
-838.75 -1165.24 2171.3
-832.42 -1164.26 2169.4
-823.54 -1159.68 2160.9
-823.25 -1167.21 2174.9
-816.28 -1165.31 2171.4
-799.96 -1149.94 2142.7
-773.22 -1135.15 2115.2
-664.91 -1146.96 2137.2
-642.43 -1117.51 2082.3
-628.60 -1161.78 2164.8
-620.87 -1157.83 2157.5
-582.72 -1137.95 2120.4
-544.85 -1139.23 2122.8
-531.55 -1134.33 2113.7
-453.23 -1158.27 2158.3
-433.29 -1149.89 2142.6
-423.40 -1138.23 2120.9
-413.79 -1127.02 2100.0
-400.41 -1167.40 2175.3
-1313.64 -979.34 1816.1
-1301.17 -973.54 1805.3
-1287.68 -966.92 1793.1
-1185.87 -896.95 1663.3
-1183.83 -898.67 1666.5
-1167.50 -889.52 1649.5
-1142.79 -873.90 1620.6
-1127.66 -865.51 1605.0
-1114.68 -858.71 1592.4
-1118.48 -864.85 1603.8
-1129.54 -876.66 1625.7
-1108.26 -863.36 1601.0
-1073.58 -839.49 1556.7
-1065.45 -836.28 1550.8
-1075.92 -847.69 1572.0
-1092.48 -864.01 1602.2
-1082.75 -859.59 1594.0
-1057.18 -842.51 1562.3
-1073.58 -858.86 1592.7
-1086.29 -872.39 1617.8
-1058.32 -853.22 1582.2
-1034.02 -836.87 1551.9
-1046.16 -850.00 1576.2
-1071.27 -873.82 1620.4
-1078.66 -883.31 1638.0
-1076.97 -885.42 1641.9
-1090.73 -900.28 1669.5
-1091.44 -904.46 1677.2
-1055.46 -878.14 1628.4
-1036.96 -866.21 1606.3
-1044.15 -875.74 1624.0
-1034.08 -870.80 1614.8
-1025.02 -866.69 1607.2
-1039.42 -882.44 1636.4
-1058.56 -902.38 1673.4
-1071.24 -916.95 1700.4
-1078.50 -926.98 1719.0
-1078.46 -930.78 1726.0
-1078.38 -934.59 1733.1
-1062.47 -924.66 1714.7
-1032.79 -902.60 1673.8
-1025.15 -899.71 1668.4
-1028.44 -906.42 1680.9
-1030.72 -912.30 1691.8
-1033.44 -918.61 1703.5
-1033.75 -922.83 1711.3
-1036.84 -929.58 1723.8
-1047.80 -943.47 1749.6
-1056.79 -955.71 1772.3
-1059.20 -962.07 1784.1
-1063.87 -970.55 1799.8
-1062.96 -973.99 1806.2
-1059.26 -974.89 1807.8
-1056.01 -976.22 1810.3
-1040.91 -966.56 1792.4
-1039.94 -969.99 1798.7
-1054.31 -987.82 1831.8
-1060.88 -998.48 1851.6
-1059.29 -1001.51 1857.2
-1050.08 -997.33 1849.5
-1031.54 -984.22 1825.1
-1017.98 -975.76 1809.4
-1021.28 -983.45 1823.7
-1028.92 -995.42 1845.9
-1025.94 -997.17 1849.1
-1014.19 -990.38 1836.6
-1015.99 -996.83 1848.5
-1022.08 -1007.55 1868.4
-1009.07 -999.46 1853.4
-988.37 -983.64 1824.1
-984.94 -984.94 1826.5
-989.61 -994.39 1844.0
-989.53 -999.14 1852.8
-986.44 -1000.87 1856.0
-972.78 -991.85 1839.3
-967.17 -990.99 1837.7
-975.38 -1004.35 1862.5
-975.15 -1009.11 1871.3
-964.91 -1003.50 1860.9
-960.08 -1003.50 1860.9
-963.08 -1011.72 1876.1
-962.72 -1016.48 1885.0
-961.51 -1020.38 1892.2
-962.70 -1026.88 1904.2
-955.34 -1024.28 1899.4
-933.08 -1005.60 1864.8
-921.40 -998.18 1851.0
-934.95 -1018.16 1888.1
-946.34 -1035.99 1921.1
-944.12 -1039.04 1926.8
-942.67 -1042.95 1934.0
-950.20 -1056.91 1959.9
-958.40 -1071.76 1987.5
-959.08 -1078.32 1999.6
-962.81 -1088.39 2018.3
-966.06 -1098.04 2036.2
-941.62 -1076.13 1995.6
-916.20 -1052.87 1952.4
-914.15 -1056.35 1958.9
-918.50 -1067.31 1979.2
-922.00 -1077.39 1997.9
-923.16 -1084.85 2011.7
-914.20 -1080.42 2003.5
-901.94 -1072.02 1987.9
-917.05 -1096.24 2032.9
-926.44 -1113.87 2065.6
-909.38 -1099.72 2039.3
-925.88 -1126.21 2088.4
-918.53 -1137.23 2108.9
-890.97 -1109.71 2057.8
-884.80 -1129.07 2093.7
-873.15 -1142.23 2118.1
-767.87 -1132.74 2100.6
-758.13 -1142.68 2119.0
-658.43 -1122.56 2081.7
-640.48 -1119.49 2076.0
-644.56 -1136.17 2106.9
-617.31 -1146.44 2125.9
-580.27 -1160.55 2152.1
-529.42 -1147.07 2127.1
-495.49 -1132.55 2100.2
-453.38 -1150.04 2132.6
-445.49 -1143.97 2121.4
-434.24 -1157.97 2147.3
-431.43 -1165.43 2161.2
-1347.35 -1002.12 1849.4
-1334.80 -996.33 1838.8
-1329.26 -995.75 1837.7
-1295.35 -973.84 1797.2
-1208.80 -915.36 1689.3
-1172.20 -890.87 1644.1
-1174.43 -895.83 1653.3
-1161.31 -889.06 1640.8
-1146.11 -880.65 1625.3
-1139.39 -878.72 1621.7
-1116.95 -864.60 1595.6
-1111.85 -863.85 1594.3
-1114.06 -868.80 1603.4
-1086.07 -850.14 1569.0
-1063.39 -835.52 1542.0
-1066.15 -840.85 1551.8
-1074.55 -850.68 1570.0
-1089.55 -865.84 1597.9
-1089.06 -868.75 1603.3
-1073.72 -859.80 1586.8
-1068.13 -858.61 1584.6
-1057.46 -853.32 1574.8
-1061.02 -859.51 1586.2
-1069.58 -869.82 1605.3
-1046.82 -854.63 1577.2
-1036.73 -849.71 1568.2
-1058.74 -871.17 1607.8
-1072.60 -886.06 1635.2
-1075.89 -892.31 1646.8
-1066.22 -887.81 1638.5
-1040.73 -870.05 1605.7
-1033.64 -867.59 1601.2
-1040.34 -876.73 1618.0
-1031.26 -872.61 1610.4
-1018.80 -865.56 1597.4
-1029.29 -878.05 1620.5
-1046.99 -896.81 1655.1
-1059.70 -911.43 1682.1
-1071.81 -925.65 1708.3
-1076.60 -933.64 1723.1
-1069.32 -931.20 1718.5
-1044.36 -913.27 1685.5
-1031.45 -905.76 1671.6
-1039.97 -917.11 1692.5
-1043.21 -923.86 1705.0
-1044.97 -929.35 1715.1
-1053.27 -940.74 1736.2
-1059.14 -950.05 1753.3
-1046.24 -942.52 1739.4
-1039.92 -940.88 1736.4
-1046.61 -951.05 1755.2
-1046.73 -955.32 1763.1
-1057.43 -969.31 1788.9
-1062.05 -977.83 1804.6
-1051.02 -971.96 1793.8
-1040.50 -966.51 1783.7
-1028.65 -959.76 1771.3
-1029.08 -964.47 1780.0
-1038.50 -977.69 1804.3
-1040.17 -983.69 1815.4
-1049.86 -997.36 1840.7
-1052.29 -1004.24 1853.4
-1041.77 -998.76 1843.2
-1035.71 -997.53 1841.0
-1027.90 -994.58 1835.5
-1024.94 -996.34 1838.8
-1023.72 -999.80 1845.2
-1014.61 -995.56 1837.3
-1009.45 -995.16 1836.6
-1009.48 -999.91 1845.4
-1005.59 -1000.80 1847.0
-993.95 -993.95 1834.4
-985.35 -990.09 1827.2
-985.32 -994.84 1836.0
-992.47 -1006.93 1858.3
-994.87 -1014.28 1871.9
-981.61 -1005.67 1856.0
-976.81 -1005.68 1856.0
-981.62 -1015.64 1874.4
-978.44 -1017.38 1877.6
-970.68 -1014.36 1872.0
-968.31 -1016.97 1876.8
-956.86 -1010.02 1864.0
-941.78 -999.15 1844.0
-939.43 -1001.74 1848.7
-938.68 -1006.07 1856.7
-955.68 -1029.58 1900.1
-957.60 -1036.98 1913.8
-936.20 -1019.09 1880.8
-938.49 -1026.93 1895.2
-944.68 -1039.15 1917.8
-937.72 -1036.95 1913.7
-937.08 -1041.75 1922.6
-945.41 -1056.63 1950.0
-948.93 -1066.27 1967.8
-943.05 -1065.39 1966.2
-932.53 -1059.23 1954.8
-921.67 -1052.61 1942.6
-931.55 -1069.75 1974.2
-942.05 -1087.78 2007.5
-937.98 -1089.10 2010.0
-938.05 -1095.26 2021.3
-933.92 -1096.57 2023.8
-926.42 -1093.91 2018.8
-915.96 -1087.70 2007.4
-901.46 -1076.61 1986.9
-897.75 -1078.33 1990.1
-888.52 -1073.41 1981.0
-873.85 -1061.83 1959.6
-890.87 -1088.84 2009.5
-918.14 -1128.77 2083.2
-914.15 -1130.52 2086.4
-899.43 -1118.93 2065.0
-887.28 -1110.43 2049.3
-870.60 -1096.12 2022.9
-864.60 -1095.16 2021.1
-873.31 -1112.94 2054.0
-760.38 -1151.59 2125.3
-669.93 -1129.16 2083.9
-662.59 -1135.08 2094.8
-655.60 -1161.18 2143.0
-628.83 -1163.06 2146.5
-595.11 -1141.08 2105.9
-541.52 -1143.22 2109.8
-542.86 -1157.72 2136.6
-538.01 -1159.21 2139.4
-531.43 -1156.98 2135.2
-472.70 -1135.56 2095.7
-449.97 -1146.86 2116.6
-444.66 -1147.33 2117.4
-438.63 -1145.92 2114.8
-428.54 -1133.72 2092.3
-1333.91 -996.87 1831.0
-1350.43 -1012.82 1860.3
-1343.78 -1011.45 1857.8
-1310.39 -989.86 1818.1
-1204.67 -916.60 1683.5
-1150.59 -878.63 1613.8
-1136.99 -871.42 1600.6
-1155.64 -888.96 1632.8
-1165.75 -900.03 1653.1
-1159.50 -898.50 1650.3
-1135.97 -883.53 1622.8
-1106.79 -864.04 1587.0
-1087.65 -852.26 1565.4
-1084.69 -853.12 1567.0
-1085.86 -857.26 1574.6
-1085.97 -860.58 1580.7
-1091.72 -868.41 1595.0
-1098.95 -877.49 1611.7
-1090.24 -873.85 1605.0
-1068.77 -859.93 1579.5
-1057.08 -853.80 1568.2
-1071.84 -869.06 1596.2
-1101.19 -896.32 1646.3
-1099.02 -898.03 1649.4
-1066.62 -874.96 1607.1
-1028.86 -847.30 1556.3
-1023.83 -846.48 1554.8
-1058.25 -878.39 1613.4
-1082.48 -902.06 1656.9
-1079.74 -903.36 1659.2
-1062.64 -892.61 1639.5
-1048.08 -883.92 1623.5
-1048.82 -888.11 1631.2
-1034.83 -879.81 1616.0
-1016.98 -868.15 1594.6
-1027.47 -880.69 1617.6
-1044.66 -899.09 1651.4
-1055.91 -912.51 1676.0
-1066.57 -925.54 1700.0
-1052.12 -916.79 1683.9
-1025.27 -897.11 1647.7
-1028.66 -903.85 1660.1
-1043.44 -920.69 1691.1
-1062.84 -941.76 1729.8
-1075.93 -957.40 1758.5
-1065.31 -951.98 1748.5
-1061.32 -952.46 1749.4
-1067.15 -961.81 1766.6
-1054.23 -954.26 1752.7
-1044.62 -949.66 1744.3
-1048.50 -957.32 1758.3
-1039.37 -953.13 1750.6
-1040.40 -958.26 1760.1
-1050.12 -971.47 1784.3
-1043.72 -969.82 1781.3
-1035.50 -966.47 1775.1
-1025.49 -961.39 1765.8
-1022.30 -962.71 1768.2
-1028.13 -972.55 1786.3
-1019.94 -969.17 1780.1
-1019.39 -973.05 1787.2
-1035.31 -992.76 1823.4
-1038.19 -1000.09 1836.9
-1029.49 -996.28 1829.9
-1018.61 -990.32 1818.9
-998.10 -974.89 1790.6
-979.46 -961.15 1765.4
-998.45 -984.38 1808.0
-1019.86 -1010.24 1855.5
-1014.22 -1009.41 1854.0
-1004.70 -1004.70 1845.4
-994.36 -999.11 1835.1
-987.90 -997.40 1832.0
-997.66 -1012.12 1859.0
-1014.52 -1034.22 1899.6
-992.72 -1016.93 1867.8
-956.72 -984.86 1808.9
-955.79 -988.75 1816.1
-964.03 -1002.21 1840.8
-971.73 -1015.24 1864.7
-974.78 -1023.52 1879.9
-962.89 -1016.12 1866.3
-941.61 -998.68 1834.3
-936.43 -998.22 1833.5
-943.06 -1010.42 1855.9
-933.77 -1005.60 1847.0
-941.08 -1018.69 1871.1
-958.34 -1042.75 1915.3
-952.17 -1041.43 1912.8
-936.03 -1029.15 1890.3
-921.98 -1019.03 1871.7
-934.49 -1038.32 1907.1
-954.32 -1065.99 1957.9
-940.62 -1056.31 1940.2
-919.98 -1038.68 1907.8
-917.33 -1041.30 1912.6
-910.02 -1038.61 1907.7
-895.81 -1027.98 1888.1
-902.74 -1041.62 1913.2
-927.46 -1076.06 1976.4
-936.73 -1092.85 2007.3
-930.00 -1091.06 2004.0
-919.53 -1084.84 1992.6
-908.73 -1078.16 1980.3
-895.01 -1067.91 1961.5
-882.11 -1058.53 1944.2
-879.97 -1062.03 1950.7
-881.09 -1069.53 1964.4
-878.86 -1073.03 1970.9
-868.62 -1066.73 1959.3
-866.01 -1069.78 1964.9
-875.94 -1088.44 1999.2
-877.49 -1096.87 2014.7
-868.31 -1091.89 2005.5
-854.57 -1081.08 1985.7
-852.17 -1084.58 1992.1
-862.33 -1104.21 2028.1
-877.89 -1131.03 2077.4
-871.13 -1150.55 2113.3
-858.83 -1141.49 2096.6
-823.59 -1145.39 2103.8
-817.09 -1143.93 2101.1
-654.46 -1145.31 2103.6
-642.77 -1163.64 2137.3
-631.26 -1152.73 2117.3
-625.36 -1151.98 2115.9
-616.98 -1146.60 2106.0
-609.88 -1143.52 2100.3
-595.46 -1147.23 2107.1
-589.65 -1157.26 2125.6
-543.82 -1153.56 2118.8
-435.84 -1144.08 2101.4
-424.19 -1127.59 2071.1
-1348.50 -1012.57 1851.0
-1336.49 -1007.14 1841.1
-1306.84 -988.32 1806.7
-1278.91 -970.68 1774.4
-1210.11 -925.12 1691.1
-1179.91 -905.31 1654.9
-1127.11 -867.95 1586.6
-1110.42 -858.24 1568.9
-1140.63 -884.83 1617.5
-1153.33 -897.98 1641.5
-1149.72 -898.49 1642.5
-1137.75 -892.44 1631.4
-1107.08 -871.62 1593.4
-1092.13 -863.07 1577.7
-1090.17 -864.76 1580.8
-1086.65 -865.22 1581.6
-1100.11 -879.26 1607.3
-1114.50 -894.14 1634.5
-1091.41 -878.96 1606.8
-1054.64 -852.60 1558.6
-1042.99 -846.43 1547.3
-1058.80 -862.57 1576.8
-1087.14 -889.09 1625.3
-1084.50 -890.39 1627.7
-1073.30 -884.63 1617.1
-1058.63 -875.96 1601.3
-1028.50 -854.38 1561.8
-1039.93 -867.29 1585.4
-1067.17 -893.54 1633.4
-1068.93 -898.58 1642.6
-1065.22 -899.05 1643.5
-1065.45 -902.85 1650.4
-1059.75 -901.64 1648.2
-1040.34 -888.71 1624.6
-1040.06 -892.08 1630.8
-1067.99 -919.78 1681.4
-1067.57 -923.18 1687.6
-1060.83 -921.14 1683.9
-1061.34 -925.39 1691.6
-1035.38 -906.49 1657.1
-1025.36 -901.47 1647.9
-1044.99 -922.57 1686.5
-1054.94 -935.26 1709.7
-1069.54 -952.21 1740.7
-1082.12 -967.49 1768.6
-1069.13 -959.94 1754.8
-1042.09 -939.66 1717.7
-1026.91 -929.95 1700.0
-1044.46 -949.92 1736.5
-1065.59 -973.33 1779.3
-1059.19 -971.69 1776.3
-1041.25 -959.40 1753.8
-1021.09 -944.96 1727.4
-1007.92 -936.88 1712.6
-1015.84 -948.42 1733.7
-1021.85 -958.27 1751.7
-1028.23 -968.56 1770.6
-1041.32 -985.28 1801.1
-1041.66 -990.04 1809.8
-1027.13 -980.66 1792.7
-1017.15 -975.54 1783.3
-1024.15 -986.74 1803.8
-1035.06 -1001.82 1831.4
-1033.90 -1005.31 1837.7
-1000.96 -977.79 1787.4
-997.56 -988.20 1806.5
-1028.51 -1023.66 1871.3
-1030.63 -1030.63 1884.0
-1021.48 -1026.35 1876.2
-1011.93 -1021.62 1867.5
-996.86 -1011.24 1848.6
-998.90 -1018.21 1861.3
-1005.55 -1029.96 1882.8
-974.50 -1003.02 1833.6
-953.33 -986.05 1802.5
-965.41 -1003.46 1834.4
-972.34 -1015.67 1856.7
-978.76 -1027.45 1878.2
-978.04 -1031.83 1886.2
-960.79 -1018.72 1862.3
-947.74 -1009.96 1846.2
-949.89 -1017.39 1859.8
-966.23 -1040.17 1901.5
-967.38 -1046.75 1913.5
-948.70 -1031.83 1886.2
-938.97 -1026.54 1876.6
-939.29 -1032.24 1887.0
-929.20 -1026.50 1876.5
-916.77 -1018.10 1861.1
-930.08 -1038.34 1898.1
-947.93 -1063.91 1944.9
-933.10 -1052.85 1924.7
-916.01 -1039.13 1899.6
-914.93 -1043.52 1907.6
-916.13 -1050.56 1920.5
-911.50 -1050.97 1921.2
-908.78 -1053.59 1926.0
-922.41 -1075.29 1965.7
-926.76 -1086.37 1985.9
-916.31 -1080.12 1974.5
-905.91 -1073.86 1963.0
-896.30 -1068.47 1953.2
-894.54 -1072.43 1960.4
-894.59 -1078.62 1971.8
-874.35 -1060.28 1938.2
-856.45 -1044.58 1909.5
-873.29 -1071.31 1958.4
-883.02 -1089.58 1991.8
-858.34 -1065.35 1947.5
-842.82 -1052.27 1923.6
-860.24 -1080.42 1975.0
-868.55 -1097.39 2006.1
-858.70 -1091.48 1995.3
-858.38 -1097.69 2006.6
-849.63 -1093.12 1998.2
-844.03 -1092.58 1997.3
-854.34 -1112.75 2034.1
-847.97 -1111.32 2031.5
-859.36 -1147.62 2097.9
-838.54 -1141.50 2086.7
-839.02 -1149.56 2101.4
-834.49 -1150.83 2103.7
-827.98 -1149.37 2101.1
-819.20 -1152.34 2106.5
-830.03 -1175.41 2148.7
-783.43 -1164.11 2128.0
-757.03 -1140.96 2085.7
-648.82 -1160.18 2120.9
-631.15 -1148.04 2098.7
-634.51 -1174.40 2146.8
-621.60 -1171.04 2140.7
-605.61 -1151.20 2104.4
-537.16 -1156.54 2114.2
-521.25 -1157.73 2116.4
-443.34 -1140.78 2085.4
-431.52 -1152.55 2106.9
-415.02 -1167.58 2134.4
-383.03 -1154.55 2110.5
-1332.92 -1005.62 1829.6
-1309.15 -991.21 1803.4
-1287.08 -978.00 1779.4
-1266.16 -965.56 1756.7
-1199.65 -924.82 1682.6
-1145.77 -886.51 1612.9
-1088.46 -845.25 1537.9
-1081.37 -842.84 1533.5
-1133.02 -886.35 1612.6
-1164.50 -914.35 1663.6
-1138.41 -897.19 1632.3
-1094.76 -866.00 1575.6
-1079.85 -857.41 1560.0
-1075.85 -857.45 1560.0
-1066.69 -853.36 1552.6
-1071.97 -860.82 1566.2
-1087.95 -876.98 1595.6
-1067.00 -863.37 1570.8
-1037.46 -842.69 1533.2
-1032.99 -842.29 1532.5
-1043.74 -854.33 1554.4
-1067.54 -877.20 1596.0
-1069.50 -882.23 1605.1
-1062.87 -880.19 1601.4
-1071.80 -891.06 1621.2
-1066.15 -889.85 1619.0
-1053.03 -882.38 1605.4
-1056.35 -888.68 1616.9
-1061.12 -896.24 1630.6
-1061.38 -900.05 1637.6
-1065.55 -907.22 1650.6
-1063.78 -909.36 1654.5
-1039.96 -892.60 1624.0
-1036.75 -893.46 1625.6
-1052.51 -910.74 1657.0
-1040.98 -904.46 1645.6
-1034.33 -902.38 1641.8
-1036.36 -907.89 1651.8
-1026.34 -902.84 1642.6
-1033.12 -912.59 1660.4
-1050.31 -931.66 1695.1
-1058.33 -942.71 1715.2
-1071.95 -958.88 1744.6
-1082.62 -972.52 1769.4
-1059.74 -956.02 1739.4
-1022.90 -926.73 1686.1
-1007.79 -916.96 1668.3
-1023.99 -935.71 1702.4
-1047.02 -960.90 1748.3
-1043.46 -961.80 1749.9
-1015.89 -940.47 1711.1
-995.78 -934.09 1699.5
-1017.78 -958.97 1744.8
-1039.13 -983.47 1789.3
-1043.58 -992.10 1805.0
-1034.90 -988.28 1798.1
-1017.26 -975.84 1775.4
-1004.19 -967.68 1760.6
-1006.33 -974.16 1772.4
-1013.29 -985.40 1792.8
-1027.24 -1003.57 1825.9
-1008.01 -989.34 1800.0
-975.98 -966.86 1759.1
-988.84 -984.20 1790.7
-994.19 -994.19 1808.8
-1011.99 -1016.79 1849.9
-1018.42 -1028.12 1870.6
-1019.61 -1034.25 1881.7
-1016.05 -1035.59 1884.2
-998.44 -1022.55 1860.4
-986.00 -1014.72 1846.2
-961.80 -994.65 1809.7
-947.43 -984.59 1791.4
-959.94 -1002.50 1823.9
-967.29 -1015.18 1847.0
-969.57 -1022.63 1860.6
-963.50 -1021.31 1858.2
-954.15 -1016.48 1849.4
-948.52 -1015.59 1847.8
-940.85 -1012.49 1842.1
-947.85 -1025.23 1865.3
-951.10 -1034.02 1881.3
-934.52 -1021.23 1858.0
-926.87 -1018.11 1852.4
-928.83 -1025.58 1866.0
-925.56 -1027.32 1869.1
-920.29 -1026.84 1868.2
-911.46 -1022.38 1860.1
-906.60 -1022.34 1860.0
-917.38 -1040.02 1892.2
-926.06 -1055.51 1920.4
-927.64 -1063.03 1934.1
-929.16 -1070.56 1947.8
-920.64 -1066.53 1940.5
-914.43 -1065.16 1938.0
-924.97 -1083.39 1971.1
-926.65 -1091.39 1985.7
-906.03 -1073.07 1952.3
-885.94 -1055.16 1919.8
-888.74 -1064.48 1936.7
-899.27 -1083.21 1970.8
-896.71 -1086.30 1976.4
-876.47 -1067.88 1942.9
-854.91 -1047.64 1906.1
-866.28 -1067.74 1942.7
-876.75 -1086.97 1977.6
-855.00 -1066.23 1939.9
-838.43 -1051.76 1913.6
-851.93 -1075.06 1956.0
-864.88 -1097.93 1997.6
-861.41 -1100.11 2001.6
-861.77 -1107.25 2014.5
-854.05 -1104.01 2008.6
-838.01 -1089.93 1983.0
-835.90 -1093.90 1990.2
-828.26 -1090.63 1984.3
-834.99 -1106.36 2012.9
-853.14 -1137.52 2069.6
-845.64 -1141.89 2077.6
-828.17 -1125.46 2047.7
-807.17 -1104.00 2008.6
-807.82 -1112.06 2023.3
-824.48 -1142.42 2078.5
-820.88 -1167.96 2125.0
-803.82 -1151.42 2094.9
-744.89 -1112.09 2023.3
-746.23 -1122.00 2041.4
-651.98 -1161.51 2113.3
-642.48 -1174.19 2136.3
-621.63 -1145.95 2085.0
-642.89 -1195.55 2175.2
-613.06 -1170.88 2130.3
-506.29 -1154.13 2099.8
-475.44 -1145.38 2083.9
-474.51 -1156.27 2103.7
-436.64 -1128.88 2053.9
-435.38 -1183.33 2153.0
-421.86 -1161.49 2113.2
-416.54 -1161.93 2114.0
-415.08 -1173.29 2134.7
-391.98 -1154.15 2099.9
-381.00 -1170.61 2129.8
-354.58 -1156.47 2104.1
-1358.97 -1026.46 1858.8
-1308.23 -991.65 1795.7
-1291.50 -982.47 1779.1
-1215.07 -934.33 1692.0
-1209.80 -933.65 1690.7
-1187.06 -919.43 1665.0
-1148.04 -892.45 1616.1
-1104.98 -862.13 1561.2
-1073.69 -840.79 1522.6
-1102.26 -866.35 1568.8
-1137.97 -897.73 1625.7
-1117.18 -884.61 1601.9
-1081.93 -859.89 1557.2
-1074.84 -857.45 1552.7
-1068.27 -855.42 1549.0
-1056.56 -849.23 1537.8
-1046.43 -844.28 1528.9
-1045.56 -846.79 1533.4
-1063.58 -864.67 1565.8
-1073.83 -876.34 1586.9
-1063.15 -870.97 1577.2
-1068.22 -878.50 1590.8
-1078.29 -890.22 1612.1
-1065.10 -882.75 1598.5
-1049.44 -873.17 1581.2
-1048.38 -875.70 1585.8
-1061.77 -890.38 1612.4
-1067.59 -898.80 1627.6
-1050.52 -887.94 1607.9
-1034.50 -877.88 1589.7
-1050.63 -895.14 1621.0
-1070.08 -915.37 1657.6
-1076.13 -924.26 1673.7
-1060.12 -914.19 1655.5
-1022.73 -885.53 1603.6
-1005.46 -874.13 1582.9
-1037.20 -905.43 1639.6
-1074.51 -941.85 1705.6
-1061.97 -934.71 1692.6
-1038.92 -918.21 1662.8
-1038.94 -922.06 1669.7
-1048.47 -934.41 1692.1
-1052.21 -941.68 1705.3
-1061.57 -954.07 1727.7
-1070.84 -966.48 1750.2
-1046.13 -948.19 1717.1
-1028.12 -935.85 1694.7
-1030.30 -941.86 1705.6
-1020.78 -937.18 1697.1
-1018.72 -939.34 1701.0
-1029.60 -953.50 1726.7
-1016.86 -945.81 1712.7
-1000.03 -934.24 1691.8
-1007.56 -945.42 1712.0
-1009.06 -951.02 1722.2
-1018.26 -963.95 1745.6
-1036.87 -985.95 1785.4
-1038.15 -991.60 1795.7
-1029.04 -987.32 1787.9
-1011.44 -974.83 1765.3
-998.40 -966.63 1750.4
-1000.99 -973.57 1763.0
-999.10 -976.18 1767.7
-1004.25 -985.74 1785.0
-1026.49 -1012.23 1833.0
-1028.35 -1018.79 1844.9
-1007.01 -1002.30 1815.0
-993.19 -993.19 1798.5
-985.93 -990.58 1793.8
-991.65 -1001.05 1812.8
-1003.31 -1017.65 1842.8
-1010.56 -1029.90 1865.0
-1007.46 -1031.68 1868.2
-990.31 -1019.02 1845.3
-981.73 -1015.09 1838.2
-961.78 -999.32 1809.6
-941.96 -983.51 1781.0
-949.03 -995.78 1803.2
-956.83 -1008.94 1827.1
-959.97 -1017.28 1842.2
-957.67 -1019.91 1846.9
-951.22 -1018.14 1843.7
-946.43 -1018.12 1843.7
-939.99 -1016.34 1840.5
-937.23 -1018.52 1844.4
-931.62 -1017.61 1842.8
-920.36 -1010.50 1829.9
-917.19 -1012.23 1833.0
-926.38 -1027.70 1861.0
-930.67 -1037.87 1879.4
-916.66 -1027.63 1860.9
-898.40 -1012.48 1833.5
-898.30 -1017.76 1843.0
-914.18 -1041.29 1885.6
-918.98 -1052.38 1905.7
-915.94 -1054.57 1909.7
-914.42 -1058.55 1916.9
-902.13 -1050.02 1901.5
-894.49 -1046.84 1895.7
-904.34 -1064.23 1927.2
-902.33 -1067.76 1933.6
-878.46 -1045.32 1892.9
-864.88 -1034.94 1874.1
-873.00 -1050.55 1902.4
-883.95 -1069.78 1937.2
-881.83 -1073.31 1943.6
-872.33 -1067.85 1933.7
-863.97 -1063.73 1926.3
-857.82 -1062.30 1923.7
-849.51 -1058.16 1916.2
-849.14 -1063.93 1926.6
-855.53 -1078.28 1952.6
-855.75 -1084.97 1964.7
-854.84 -1090.30 1974.4
-840.13 -1078.00 1952.1
-827.63 -1068.40 1934.7
-845.90 -1098.64 1989.5
-858.37 -1121.67 2031.2
-853.04 -1121.59 2031.0
-841.53 -1113.33 2016.1
-827.36 -1101.42 1994.5
-820.75 -1099.49 1991.0
-823.94 -1110.75 2011.4
-827.70 -1122.94 2033.5
-828.70 -1131.49 2049.0
-831.60 -1142.78 2069.4
-818.57 -1132.18 2050.2
-813.50 -1132.53 2050.9
-772.35 -1150.43 2083.3
-769.91 -1154.87 2091.3
-672.45 -1164.49 2108.7
-662.04 -1155.86 2093.1
-664.09 -1188.66 2152.5
-566.26 -1159.74 2100.1
-516.39 -1170.11 2118.9
-489.23 -1170.86 2120.3
-472.98 -1171.44 2121.3
-1335.83 -1013.71 1827.1
-1211.39 -932.51 1680.8
-1184.87 -915.38 1649.9
-1178.61 -913.85 1647.1
-1166.02 -907.37 1635.5
-1136.57 -887.69 1600.0
-1114.63 -873.74 1574.8
-1104.33 -868.85 1566.0
-1091.43 -861.87 1553.4
-1089.03 -863.16 1555.8
-1104.83 -878.94 1584.2
-1103.91 -881.48 1588.8
-1090.54 -874.07 1575.4
-1079.29 -868.30 1565.0
-1067.55 -862.10 1553.8
-1057.40 -857.13 1544.9
-1039.59 -845.90 1524.7
-1041.27 -850.50 1532.9
-1066.33 -874.31 1575.9
-1071.43 -881.87 1589.5
-1060.77 -876.47 1579.7
-1053.68 -873.98 1575.3
-1060.20 -882.81 1591.2
-1063.64 -889.14 1602.6
-1059.53 -889.17 1602.6
-1068.88 -900.55 1623.2
-1061.74 -898.07 1618.7
-1031.29 -875.78 1578.5
-1017.82 -867.78 1564.1
-1036.94 -887.62 1599.8
-1053.95 -905.80 1632.6
-1058.08 -913.02 1645.6
-1066.56 -924.07 1665.5
-1052.56 -915.64 1650.3
-1029.87 -899.56 1621.4
-1056.66 -926.74 1670.4
-1099.66 -968.42 1745.5
-1093.78 -967.23 1743.3
-1066.33 -946.86 1706.6
-1062.44 -947.34 1707.5
-1052.82 -942.69 1699.1
-1036.59 -932.06 1679.9
-1034.63 -934.23 1683.9
-1030.77 -934.68 1684.7
-1028.31 -936.42 1687.8
-1031.92 -943.73 1701.0
-1040.62 -955.76 1722.7
-1038.06 -957.52 1725.8
-1020.17 -945.09 1703.4
-1015.77 -945.11 1703.5
-1034.87 -967.08 1743.1
-1049.67 -985.22 1775.8
-1035.05 -975.78 1758.7
-1016.39 -962.43 1734.7
-1014.19 -964.61 1738.6
-1021.93 -976.31 1759.7
-1030.48 -988.89 1782.4
-1028.14 -991.09 1786.3
-1027.13 -994.60 1792.7
-1029.66 -1001.58 1805.2
-1031.24 -1007.70 1816.3
-1027.90 -1009.04 1818.7
-1009.98 -996.02 1795.2
-1008.43 -999.09 1800.8
-1013.86 -1009.14 1818.9
-996.07 -996.07 1795.3
-995.78 -1000.45 1803.2
-1001.95 -1011.40 1822.9
-989.47 -1003.54 1808.8
-985.22 -1003.99 1809.6
-993.38 -1017.15 1833.3
-991.20 -1019.79 1838.1
-983.47 -1016.73 1832.6
-983.81 -1022.01 1842.1
-983.25 -1026.42 1850.0
-982.66 -1030.83 1858.0
-978.27 -1031.28 1858.8
-975.54 -1033.49 1862.8
-970.29 -1033.05 1862.0
-958.45 -1025.54 1848.4
-954.88 -1026.85 1850.8
-953.75 -1030.82 1858.0
-941.58 -1022.83 1843.6
-933.12 -1018.82 1836.3
-934.40 -1025.44 1848.3
-930.39 -1026.30 1849.8
-917.95 -1017.83 1834.5
-917.54 -1022.68 1843.3
-930.21 -1042.22 1878.5
-923.33 -1039.96 1874.4
-916.08 -1037.25 1869.5
-927.66 -1055.95 1903.3
-925.82 -1059.49 1909.6
-913.07 -1050.52 1893.5
-908.12 -1050.48 1893.4
-905.10 -1052.67 1897.3
-896.69 -1048.59 1890.0
-894.03 -1051.22 1894.7
-901.22 -1065.53 1920.5
-895.82 -1065.02 1919.6
-876.50 -1047.89 1888.7
-867.43 -1042.86 1879.7
-877.38 -1060.79 1912.0
-890.16 -1082.35 1950.8
-883.58 -1080.49 1947.5
-869.67 -1069.59 1927.8
-874.10 -1081.26 1948.9
-880.62 -1095.65 1974.8
-852.31 -1066.63 1922.5
-831.43 -1046.62 1886.4
-851.85 -1078.68 1944.2
-867.38 -1104.88 1991.4
-853.31 -1093.46 1970.9
-825.59 -1064.32 1918.3
-812.12 -1053.29 1898.5
-826.27 -1078.18 1943.3
-828.77 -1088.08 1961.2
-815.67 -1077.49 1942.1
-835.92 -1111.09 2002.6
-856.56 -1145.65 2064.9
-848.44 -1141.92 2058.2
-849.78 -1150.96 2074.5
-841.65 -1147.22 2067.8
-830.22 -1138.89 2052.7
-812.38 -1136.27 2048.0
-783.53 -1103.12 1988.3
-774.05 -1158.37 2087.9
-667.76 -1171.32 2111.2
-660.03 -1167.32 2104.0
-644.97 -1150.21 2073.1
-645.18 -1160.23 2091.2
-643.31 -1197.11 2157.7
-585.27 -1159.69 2090.2
-595.00 -1190.00 2144.9
-494.26 -1188.44 2142.0
-471.11 -1145.66 2064.9
-472.86 -1176.65 2120.8
-453.63 -1183.85 2133.8
-424.70 -1165.20 2100.2
-389.50 -1173.99 2116.0
-1344.47 -1025.04 1838.9
-1292.76 -989.12 1774.5
-1207.14 -930.23 1668.9
-1190.72 -920.88 1652.1
-1175.43 -912.34 1636.8
-1175.56 -915.74 1642.9
-1169.32 -914.20 1640.1
-1138.84 -893.61 1603.2
-1116.90 -879.61 1578.0
-1107.12 -875.11 1570.0
-1096.32 -869.77 1560.4
-1075.64 -856.53 1536.6
-1073.77 -858.22 1539.7
-1087.46 -872.40 1565.1
-1087.59 -875.78 1571.2
-1076.87 -870.40 1561.5
-1065.66 -864.59 1551.1
-1069.37 -870.89 1562.4
-1066.38 -871.76 1563.9
-1050.63 -862.16 1546.7
-1059.36 -872.65 1565.6
-1072.58 -886.94 1591.2
-1071.03 -889.08 1595.0
-1062.40 -885.33 1588.3
-1066.87 -892.52 1601.2
-1083.33 -909.83 1632.2
-1092.16 -920.84 1652.0
-1087.44 -920.47 1651.3
-1065.83 -905.74 1624.9
-1047.29 -893.52 1603.0
-1046.12 -896.08 1607.6
-1053.32 -905.85 1625.1
-1058.47 -913.94 1639.6
-1068.95 -926.71 1662.5
-1084.71 -944.18 1693.9
-1075.52 -939.99 1686.4
-1057.62 -928.12 1665.1
-1053.35 -928.16 1665.1
-1066.43 -943.55 1692.7
-1076.51 -956.41 1715.8
-1066.38 -951.33 1706.7
-1056.76 -946.68 1698.4
-1042.41 -937.73 1682.3
-1031.44 -931.76 1671.6
-1033.75 -937.79 1682.4
-1034.13 -942.11 1690.2
-1034.94 -946.86 1698.7
-1046.96 -961.95 1725.8
-1064.46 -982.23 1762.1
-1063.67 -985.73 1768.4
-1047.09 -974.57 1748.4
-1027.82 -960.79 1723.7
-1030.29 -967.30 1735.4
-1050.14 -990.26 1776.5
-1039.64 -984.68 1766.5
-1028.72 -978.65 1755.7
-1035.55 -989.53 1775.2
-1032.34 -990.87 1777.6
-1029.57 -992.64 1780.8
-1035.77 -1003.11 1799.6
-1042.34 -1014.04 1819.2
-1028.30 -1004.93 1802.9
-1013.45 -994.94 1784.9
-1015.92 -1001.94 1797.5
-1003.35 -994.10 1783.4
-996.55 -991.93 1779.5
-995.88 -995.88 1786.6
-982.10 -986.69 1770.1
-986.20 -995.46 1785.9
-995.42 -1009.51 1811.1
-987.29 -1006.01 1804.8
-984.34 -1007.77 1808.0
-993.77 -1022.30 1834.0
-999.68 -1033.32 1853.8
-999.99 -1038.63 1863.3
-996.02 -1039.54 1865.0
-992.47 -1040.88 1867.4
-989.32 -1042.66 1870.6
-982.39 -1040.46 1866.6
-969.66 -1032.06 1851.5
-955.32 -1021.86 1833.2
-953.86 -1025.40 1839.6
-960.99 -1038.25 1862.6
-964.33 -1047.13 1878.6
-956.20 -1043.57 1872.2
