ply
format ascii 1.0
element vertex 2280
property float x
property float y
property float z
end_header
410.96 336.64 1686.3
413.68 335.30 1679.6
415.18 333.01 1668.2
423.33 336.05 1683.4
417.77 328.25 1644.3
410.07 318.94 1597.7
425.29 327.48 1640.4
435.25 331.83 1662.2
432.77 326.70 1636.5
427.62 319.68 1601.3
418.97 310.20 1553.9
418.35 306.79 1536.8
428.05 310.94 1557.6
436.27 313.95 1572.7
432.12 308.09 1543.3
425.69 300.72 1506.4
434.16 303.91 1522.4
448.14 310.87 1557.2
458.72 315.37 1579.8
467.76 318.74 1596.6
461.28 311.56 1560.7
459.11 307.40 1539.9
471.27 312.83 1567.0
472.15 310.73 1556.6
469.54 306.39 1534.8
475.79 307.86 1542.2
480.91 308.58 1545.8
487.80 310.42 1555.0
501.85 316.74 1586.6
515.15 322.49 1615.5
530.39 329.35 1649.8
550.93 339.37 1700.0
569.57 348.07 1743.6
577.05 349.86 1752.6
577.14 347.18 1739.1
586.20 349.90 1752.7
605.04 358.37 1795.2
225.40 417.82 2120.5
226.27 409.44 2078.0
230.51 407.41 2067.7
234.69 405.37 2057.4
235.52 397.77 2018.8
243.01 401.49 2037.7
257.71 416.73 2115.0
266.15 421.40 2138.7
271.49 421.08 2137.1
279.59 424.97 2156.8
280.33 417.74 2120.1
277.34 405.34 2057.2
284.58 408.08 2071.1
303.33 426.90 2166.6
319.92 442.07 2243.6
326.89 443.64 2251.5
330.17 440.23 2234.2
339.05 444.27 2254.8
338.54 436.08 2213.2
322.72 408.78 2074.6
318.93 397.35 2016.6
325.90 399.49 2027.5
330.23 398.38 2021.8
336.63 399.74 2028.8
335.87 392.71 1993.1
326.66 376.16 1909.1
327.94 372.00 1888.0
337.64 377.36 1915.2
339.69 374.15 1898.9
338.51 367.52 1865.2
343.55 367.74 1866.3
349.67 369.10 1873.2
349.80 364.18 1848.3
357.57 367.24 1863.8
374.61 379.60 1926.5
378.09 378.09 1918.9
374.81 369.94 1877.5
381.05 371.28 1884.3
383.78 369.21 1873.8
376.48 357.66 1815.2
375.15 351.99 1786.4
377.75 350.11 1776.9
374.52 342.93 1740.4
381.34 345.02 1751.0
402.37 359.77 1825.9
414.58 366.38 1859.4
413.78 361.46 1834.5
409.35 353.53 1794.2
407.82 348.25 1767.4
405.26 342.22 1736.8
393.52 328.65 1668.0
392.15 323.95 1644.1
402.18 328.66 1668.0
408.82 330.54 1677.5
414.81 331.85 1684.2
419.17 331.85 1684.2
425.45 333.34 1691.8
418.69 324.70 1647.9
407.82 313.07 1588.9
419.57 318.88 1618.4
424.51 319.43 1621.2
416.89 310.63 1576.5
421.23 310.81 1577.4
421.21 307.81 1562.2
418.54 302.95 1537.5
426.95 306.11 1553.6
434.64 308.71 1566.8
429.94 302.55 1535.5
427.76 298.25 1513.7
441.10 304.76 1546.7
453.24 310.33 1575.0
461.95 313.46 1590.9
475.43 319.76 1622.8
473.18 315.46 1601.0
455.95 301.32 1529.3
452.81 296.67 1505.6
461.24 299.61 1520.6
466.30 300.33 1524.2
471.66 301.23 1528.8
475.58 301.20 1528.6
477.43 299.88 1521.9
486.07 302.80 1536.8
505.23 312.17 1584.3
526.41 322.64 1637.5
537.24 326.64 1657.8
544.80 328.61 1667.8
542.88 324.87 1648.8
531.26 315.44 1600.9
558.71 329.16 1670.6
599.35 350.39 1778.3
617.72 358.37 1818.8
205.40 416.35 2141.2
209.94 414.35 2131.0
215.61 414.63 2132.4
220.98 414.34 2130.9
224.06 409.86 2107.9
228.40 407.86 2097.5
236.06 411.73 2117.5
239.14 407.63 2096.4
238.93 398.22 2048.0
247.86 395.53 2034.1
260.58 407.15 2093.9
270.75 414.41 2131.3
286.67 430.00 2211.4
296.04 435.35 2238.9
289.28 417.23 2145.8
293.01 414.63 2132.4
307.15 426.59 2193.9
319.66 435.90 2241.8
326.62 437.44 2249.7
329.32 433.32 2228.5
339.80 439.39 2259.7
341.22 433.76 2230.7
327.40 409.25 2104.7
325.37 400.04 2057.4
331.35 400.83 2061.4
335.14 398.98 2051.9
334.37 391.85 2015.2
327.06 377.37 1940.8
322.51 366.49 1884.8
328.44 367.65 1890.8
334.22 368.63 1895.8
332.76 361.70 1860.2
331.83 355.53 1828.4
336.77 355.75 1829.6
342.26 356.53 1833.6
341.75 351.11 1805.7
349.60 354.32 1822.2
366.35 366.35 1884.1
371.63 366.74 1886.1
369.99 360.38 1853.4
375.20 360.77 1855.4
377.06 357.97 1841.0
375.26 351.81 1809.3
379.36 351.26 1806.5
384.67 351.83 1809.4
383.78 346.79 1783.5
382.14 341.20 1754.7
394.10 347.74 1788.4
405.37 353.52 1818.1
404.03 348.30 1791.3
404.96 345.13 1775.0
408.67 344.39 1771.1
409.91 341.59 1756.8
401.82 331.17 1703.2
395.30 322.25 1657.3
399.83 322.44 1658.3
407.85 325.41 1673.6
415.48 328.01 1686.9
416.28 325.22 1672.6
418.93 323.92 1665.9
418.16 320.02 1645.8
412.89 312.79 1608.7
413.11 309.83 1593.4
407.03 302.25 1554.4
405.02 297.81 1531.6
414.07 301.50 1550.6
422.94 305.01 1568.6
429.06 306.47 1576.1
429.75 304.07 1563.8
429.32 300.92 1547.6
432.52 300.36 1544.7
438.11 301.45 1550.3
446.69 304.56 1566.3
453.99 306.75 1577.6
451.74 302.50 1555.7
454.36 301.57 1550.9
464.76 305.76 1572.5
460.09 300.06 1543.2
458.67 296.56 1525.1
468.87 300.56 1545.7
479.16 304.55 1566.3
489.26 308.36 1585.8
490.10 306.31 1575.3
488.83 302.99 1558.3
496.37 305.15 1569.3
513.82 313.30 1611.3
524.24 317.08 1630.7
522.63 313.58 1612.7
526.72 313.53 1612.4
520.36 307.30 1580.4
510.75 299.27 1539.1
537.74 312.64 1607.9
582.96 336.33 1729.7
606.61 347.30 1786.1
197.89 406.78 2120.3
198.56 397.12 2069.9
206.28 401.71 2093.9
212.65 403.49 2103.1
218.55 404.32 2107.5
221.05 398.97 2079.6
224.79 396.05 2064.4
229.10 394.26 2055.0
239.05 393.10 2049.0
252.32 405.90 2115.7
253.33 398.86 2079.0
257.67 397.24 2070.6
268.40 405.34 2112.8
284.91 421.66 2197.9
296.95 430.87 2245.8
292.44 416.16 2169.2
303.18 423.30 2206.4
330.31 436.48 2275.1
323.59 420.10 2189.7
325.06 414.73 2161.7
341.98 428.92 2235.7
341.15 420.75 2193.1
331.97 402.71 2099.1
332.60 396.97 2069.2
335.93 394.59 2056.7
334.85 387.17 2018.1
331.46 377.35 1966.9
330.62 370.69 1932.2
332.12 366.82 1912.0
333.69 363.14 1892.8
335.69 360.01 1876.5
337.95 357.26 1862.2
336.40 350.61 1827.5
334.67 343.97 1792.9
338.62 343.26 1789.2
351.61 351.61 1832.7
365.77 360.89 1881.1
368.38 358.68 1869.6
367.85 353.52 1842.7
374.40 355.20 1851.4
376.84 352.99 1839.9
375.84 347.65 1812.1
379.13 346.37 1805.4
384.03 346.56 1806.4
393.89 351.18 1830.5
402.40 354.49 1847.8
398.52 346.94 1808.4
394.65 339.58 1770.0
394.27 335.35 1748.0
396.40 333.33 1737.4
405.32 337.01 1756.6
411.21 338.11 1762.3
407.65 331.50 1727.9
404.83 325.62 1697.3
412.22 328.01 1709.7
423.17 333.13 1736.4
423.89 330.19 1721.1
417.42 321.76 1677.1
419.12 319.74 1666.6
417.62 315.35 1643.7
411.85 307.85 1604.6
411.57 304.56 1587.5
410.45 300.72 1567.5
413.25 299.81 1562.7
422.62 303.63 1582.6
431.07 306.72 1598.7
435.97 307.25 1601.5
435.15 303.78 1583.4
426.09 294.68 1536.0
420.52 288.13 1501.8
436.17 296.11 1543.4
454.71 305.90 1594.4
456.37 304.24 1585.8
448.65 296.43 1545.1
442.12 289.53 1509.1
443.22 287.71 1499.6
456.92 294.02 1532.5
474.17 302.49 1576.7
478.50 302.64 1577.5
482.54 302.61 1577.3
496.73 308.89 1610.0
501.71 309.39 1612.7
500.53 306.11 1595.5
508.46 308.41 1607.5
511.36 307.65 1603.6
505.50 301.67 1572.4
509.51 301.63 1572.2
519.01 304.82 1588.8
530.13 308.89 1610.1
541.34 312.96 1631.3
543.60 311.83 1625.4
557.45 317.32 1654.0
584.73 330.30 1721.7
202.92 411.47 2174.1
205.50 405.45 2142.3
214.28 411.65 2175.0
221.55 414.69 2191.1
224.84 410.33 2168.1
224.69 400.05 2113.8
221.17 384.41 2031.1
246.79 400.35 2115.3
262.21 416.12 2198.7
265.69 412.67 2180.4
266.16 404.79 2138.8
272.24 405.59 2143.0
286.68 418.56 2211.6
296.19 423.95 2240.1
289.95 407.04 2150.7
299.04 411.88 2176.3
331.45 432.07 2283.0
324.03 414.98 2192.7
323.02 406.55 2148.1
336.49 416.33 2199.8
344.33 418.93 2213.5
342.56 409.95 2166.1
335.25 394.73 2085.7
332.60 385.39 2036.3
330.83 377.35 1993.8
327.20 367.47 1941.6
327.62 362.37 1914.7
330.09 359.65 1900.3
330.78 355.10 1876.3
331.69 350.92 1854.2
338.10 352.59 1863.0
340.11 349.69 1847.7
342.58 347.34 1835.3
351.02 351.02 1854.7
351.78 347.02 1833.6
353.92 344.49 1820.2
362.85 348.52 1841.5
368.60 349.45 1846.4
371.06 347.28 1834.9
370.11 342.00 1807.1
372.21 339.64 1794.6
378.90 341.48 1804.3
384.00 341.85 1806.3
394.69 347.13 1834.2
401.33 348.77 1842.8
395.52 339.68 1794.8
398.04 337.87 1785.2
404.61 339.50 1793.9
398.11 330.25 1744.9
398.21 326.62 1725.8
412.96 334.96 1769.8
418.00 335.32 1771.7
408.43 324.08 1712.4
409.18 321.19 1697.1
418.00 324.62 1715.2
416.32 319.91 1690.3
410.24 311.96 1648.3
412.59 310.51 1640.7
418.30 311.59 1646.4
420.11 309.78 1636.8
418.66 305.62 1614.8
415.86 300.58 1588.2
417.46 298.77 1578.6
425.35 301.46 1592.9
426.65 299.47 1582.4
424.28 294.97 1558.6
434.56 299.27 1581.3
436.54 297.83 1573.6
424.68 287.05 1516.7
434.22 290.81 1536.6
449.79 298.49 1577.2
447.59 294.36 1555.3
445.83 290.59 1535.4
445.64 287.89 1521.1
444.53 284.66 1504.1
456.28 289.64 1530.4
473.53 298.00 1574.5
478.71 298.68 1578.2
474.12 293.31 1549.8
479.54 294.17 1554.3
490.82 298.58 1577.7
496.33 299.44 1582.2
503.63 301.35 1592.3
506.79 300.78 1589.3
503.31 296.31 1565.6
509.43 297.51 1571.9
526.26 304.90 1611.0
545.75 313.70 1657.5
566.06 322.83 1705.8
579.73 328.07 1733.4
593.21 333.11 1760.1
222.24 410.30 2198.0
224.13 403.44 2161.3
225.41 395.85 2120.6
222.87 382.06 2046.8
243.15 389.03 2084.1
253.02 396.03 2121.6
261.06 399.92 2142.4
266.89 400.34 2144.7
273.11 401.31 2149.9
288.08 414.84 2222.3
303.41 428.35 2294.7
303.61 420.39 2252.1
295.43 401.33 2150.0
302.94 403.92 2163.9
321.77 421.23 2256.6
330.90 425.44 2279.1
327.05 413.12 2213.1
329.45 408.98 2190.9
337.24 411.54 2204.7
340.25 408.31 2187.4
331.19 384.61 2060.4
326.89 373.59 2001.4
323.73 364.20 1951.1
323.10 357.90 1917.3
325.95 355.58 1904.9
331.42 356.15 1908.0
334.68 354.37 1898.4
335.13 349.70 1873.4
340.54 350.27 1876.4
344.18 349.03 1869.8
348.51 348.51 1867.0
354.29 349.44 1872.0
352.68 343.15 1838.3
352.40 338.30 1812.3
358.45 339.58 1819.2
360.87 337.44 1807.7
360.51 332.77 1782.7
369.49 336.75 1804.0
381.97 343.77 1841.6
379.88 337.67 1809.0
376.60 330.67 1771.5
390.10 338.40 1812.9
399.41 342.36 1834.0
398.24 337.33 1807.1
405.71 339.66 1819.6
409.34 338.77 1814.8
400.25 327.48 1754.4
395.07 319.61 1712.2
405.55 324.44 1738.1
416.38 329.44 1764.9
412.95 323.18 1731.3
400.60 310.14 1661.5
396.52 303.72 1627.1
407.80 309.07 1655.7
414.94 311.21 1667.2
414.70 307.82 1649.0
417.75 306.92 1644.2
419.07 304.78 1632.7
417.12 300.33 1608.9
417.29 297.48 1593.6
421.67 297.65 1594.5
430.11 300.66 1610.7
431.96 299.05 1602.1
429.89 294.78 1579.2
441.27 299.73 1605.7
451.20 303.61 1626.5
447.69 298.46 1598.9
441.64 291.72 1562.8
441.35 288.88 1547.6
443.97 287.98 1542.8
447.12 287.44 1539.8
448.87 286.01 1532.2
450.03 284.23 1522.6
453.38 283.86 1520.7
462.68 287.18 1538.5
476.35 293.14 1570.4
480.66 293.28 1571.2
475.10 287.46 1539.9
474.07 284.44 1523.8
488.59 290.73 1557.5
505.93 298.58 1599.5
513.89 300.81 1611.5
515.88 299.55 1604.7
520.57 299.85 1606.3
535.36 305.92 1638.8
549.67 311.63 1669.4
564.44 317.50 1700.9
581.23 324.41 1737.9
597.87 331.13 1773.9
208.89 400.84 2177.6
213.32 398.58 2165.3
216.80 394.70 2144.2
218.76 388.29 2109.4
220.11 381.17 2070.7
224.25 379.09 2059.4
227.35 375.38 2039.3
236.76 373.55 2029.4
251.85 388.73 2111.8
265.10 400.48 2175.6
271.63 401.79 2182.8
278.57 403.64 2192.8
288.34 409.44 2224.3
297.88 414.69 2252.9
306.64 418.69 2274.5
307.21 411.55 2235.8
305.13 401.19 2179.5
314.56 406.07 2206.0
326.95 414.52 2251.9
327.35 407.75 2215.1
328.29 401.87 2183.2
333.82 401.72 2182.4
332.09 392.98 2134.9
326.28 379.77 2063.1
322.91 369.78 2008.9
321.80 362.67 1970.2
325.97 361.63 1964.6
331.42 362.01 1966.7
330.24 355.26 1930.0
331.57 351.36 1908.8
338.25 353.18 1918.7
341.87 351.77 1911.0
341.75 346.63 1883.1
339.71 339.71 1845.5
343.61 338.84 1840.8
349.14 339.58 1844.8
355.43 341.02 1852.6
363.26 343.89 1868.2
367.55 343.37 1865.4
368.93 340.18 1848.1
366.13 333.27 1810.5
372.62 334.88 1819.3
379.14 336.49 1828.0
371.55 325.68 1769.3
371.04 321.27 1745.3
386.97 331.02 1798.3
397.29 335.80 1824.3
397.15 331.73 1802.2
400.54 330.67 1796.4
400.43 326.79 1775.3
392.77 316.89 1721.6
389.49 310.72 1688.0
393.87 310.72 1688.0
399.61 311.78 1693.8
401.26 309.67 1682.3
394.32 301.04 1635.4
389.70 294.35 1599.1
400.68 299.46 1626.8
412.98 305.44 1659.3
417.76 305.78 1661.2
421.09 305.07 1657.3
422.19 302.78 1644.9
421.75 299.44 1626.7
423.71 297.86 1618.1
432.42 301.00 1635.2
444.77 306.59 1665.6
445.99 304.47 1654.1
443.27 299.73 1628.3
445.64 298.49 1621.6
446.66 296.38 1610.1
451.34 296.71 1611.9
454.14 295.82 1607.1
451.80 291.61 1584.2
452.61 289.50 1572.8
456.10 289.14 1570.8
458.76 288.25 1565.9
458.31 285.44 1550.7
460.05 284.03 1543.0
464.01 284.01 1542.9
471.97 286.41 1556.0
475.96 286.38 1555.8
468.91 279.77 1519.9
470.18 278.19 1511.3
487.61 286.12 1554.4
501.09 291.62 1584.2
504.83 291.41 1583.1
511.58 292.92 1591.3
520.79 295.81 1607.0
529.46 298.35 1620.8
536.97 300.19 1630.8
555.68 308.23 1674.5
578.35 318.31 1729.3
587.42 320.82 1742.9
591.49 320.58 1741.6
591.72 318.27 1729.0
606.34 323.68 1758.4
206.35 390.39 2151.1
202.23 372.53 2052.7
215.72 387.18 2133.4
227.38 397.92 2192.6
224.37 383.07 2110.8
224.14 373.56 2058.4
232.25 378.08 2083.3
239.37 380.81 2098.3
242.11 376.62 2075.3
251.50 382.72 2108.8
270.34 402.64 2218.6
283.91 414.04 2281.4
284.15 405.93 2236.8
285.94 400.31 2205.8
298.66 409.92 2258.8
311.12 418.82 2307.8
311.37 411.24 2266.0
308.54 399.96 2203.9
316.51 402.83 2219.6
328.09 410.11 2259.8
333.25 409.25 2255.1
338.24 408.22 2249.4
337.69 400.65 2207.7
326.89 375.11 2067.0
325.55 367.56 2025.3
322.10 357.89 1972.1
324.19 354.58 1953.8
333.53 359.19 1979.2
335.70 356.05 1961.9
323.80 338.30 1864.1
318.41 327.77 1806.1
331.62 336.42 1853.8
340.49 340.49 1876.2
342.71 337.88 1861.8
350.81 341.07 1879.4
356.44 341.79 1883.3
362.82 343.21 1891.2
371.88 347.08 1912.5
377.61 347.80 1916.4
381.24 346.58 1909.7
380.73 341.68 1882.7
372.98 330.49 1821.0
365.31 319.65 1761.3
370.10 319.84 1762.4
382.87 326.84 1801.0
386.31 325.80 1795.2
384.68 320.57 1766.4
383.55 315.86 1740.5
385.92 314.12 1730.9
392.15 315.53 1738.6
390.53 310.65 1711.7
386.56 304.04 1675.3
390.46 303.69 1673.4
388.25 298.65 1645.6
382.47 291.01 1603.5
389.41 293.10 1615.1
398.97 297.10 1637.1
402.50 296.58 1634.2
406.74 296.58 1634.2
407.13 293.81 1618.9
405.99 289.99 1597.9
417.23 295.01 1625.6
427.12 298.99 1647.5
422.15 292.58 1612.2
423.80 290.84 1602.6
438.87 298.26 1643.5
442.33 297.73 1640.5
437.25 291.50 1606.2
437.48 288.90 1591.9
442.63 289.57 1595.6
451.00 292.31 1610.7
454.34 291.78 1607.7
452.80 288.15 1587.7
455.79 287.44 1583.8
462.06 288.79 1591.3
468.65 290.31 1599.7
472.19 289.94 1597.6
468.97 285.46 1572.9
467.90 282.35 1555.8
468.46 280.27 1544.4
465.21 275.97 1520.7
464.17 273.04 1504.5
471.84 275.24 1516.6
483.10 279.48 1540.0
490.60 281.49 1551.1
497.86 283.33 1561.2
508.17 286.87 1580.7
520.70 291.59 1606.7
533.05 296.14 1631.8
535.34 295.07 1625.9
547.53 299.43 1649.9
572.33 310.57 1711.3
584.83 314.91 1735.2
593.63 317.21 1747.9
599.30 317.81 1751.2
609.48 320.78 1767.6
207.48 386.92 2162.9
204.54 371.40 2076.1
219.28 387.95 2168.7
228.60 394.34 2204.4
223.64 376.37 2103.9
225.41 370.32 2070.1
235.51 377.92 2112.6
246.73 386.91 2162.9
254.89 390.82 2184.7
255.81 383.71 2145.0
265.46 389.72 2178.6
280.39 403.06 2253.1
283.66 399.44 2232.9
289.61 399.66 2234.1
317.55 405.76 2268.2
323.04 405.27 2265.5
329.65 406.17 2270.5
330.95 400.62 2239.5
327.11 389.15 2175.4
318.78 372.81 2084.1
323.91 372.50 2082.3
330.57 373.92 2090.2
330.07 367.34 2053.5
327.33 358.50 2004.0
323.04 348.28 1946.9
326.81 346.92 1939.3
335.35 350.59 1959.8
329.33 339.16 1895.9
320.94 325.66 1820.5
331.59 331.59 1853.6
339.76 334.91 1872.2
341.08 331.47 1852.9
350.79 336.17 1879.2
357.88 338.27 1890.9
356.12 332.05 1856.2
356.25 327.75 1832.1
370.35 336.24 1879.6
382.75 342.99 1917.3
381.09 337.12 1884.5
372.15 325.04 1817.0
370.67 319.71 1787.2
382.00 325.41 1819.1
391.44 329.38 1841.3
391.86 325.76 1821.0
391.14 321.29 1796.0
390.92 317.34 1773.9
388.66 311.84 1743.2
389.72 309.09 1727.8
400.78 314.25 1756.7
408.88 316.99 1772.0
402.72 308.75 1725.9
390.23 295.89 1654.0
386.52 289.89 1620.5
395.12 293.15 1638.7
404.27 296.75 1658.9
406.68 295.38 1651.2
409.06 294.01 1643.5
406.82 289.39 1617.7
400.34 281.87 1575.7
406.39 283.24 1583.3
424.34 292.79 1636.7
427.57 292.10 1632.9
426.75 288.68 1613.7
439.05 294.12 1644.2
438.67 291.04 1626.9
430.19 282.69 1580.3
435.83 283.70 1585.9
446.25 287.77 1608.6
452.25 288.94 1615.2
453.19 286.88 1603.7
451.91 283.47 1584.6
454.90 282.77 1580.7
460.06 283.43 1584.4
465.79 284.42 1589.9
469.32 284.06 1587.9
466.63 279.98 1565.1
466.67 277.59 1551.7
468.08 276.05 1543.1
476.65 278.72 1558.1
487.90 282.90 1581.4
491.65 282.70 1580.3
498.94 284.52 1590.5
499.43 282.46 1579.0
499.56 280.24 1566.6
502.95 279.87 1564.5
507.85 280.33 1567.1
526.84 288.51 1612.8
537.41 291.98 1632.2
544.34 293.43 1640.3
561.62 300.40 1679.3
569.01 302.01 1688.3
571.68 301.11 1683.2
599.86 313.57 1752.8
205.12 376.98 2138.4
211.65 369.02 2093.2
218.14 370.83 2103.5
219.89 364.69 2068.6
228.92 370.63 2102.3
236.71 374.33 2123.3
244.94 378.54 2147.2
251.23 379.64 2153.4
249.86 369.35 2095.1
260.34 376.65 2136.5
275.77 390.67 2216.0
287.76 399.34 2265.1
311.40 407.21 2309.8
322.06 405.56 2300.4
328.19 405.76 2301.6
334.89 406.65 2306.6
331.67 395.68 2244.4
324.18 380.07 2155.9
319.22 367.91 2086.9
326.63 370.18 2099.7
333.64 371.92 2109.6
333.81 366.12 2076.7
325.56 351.40 1993.2
316.08 335.84 1905.0
319.74 334.50 1897.4
327.69 337.62 1915.1
330.15 335.08 1900.7
330.15 330.15 1872.7
338.33 333.42 1891.3
343.78 333.96 1894.3
339.26 324.93 1843.1
343.16 324.10 1838.4
350.88 326.85 1854.0
348.84 320.56 1818.3
349.82 317.17 1799.1
364.60 326.22 1850.4
382.15 337.48 1914.3
385.75 336.29 1907.5
380.22 327.28 1856.4
381.84 324.56 1841.0
389.05 326.61 1852.6
393.86 326.61 1852.6
396.59 324.92 1843.0
398.01 322.20 1827.6
395.97 316.77 1796.8
391.62 309.65 1756.4
396.83 310.16 1759.3
411.47 317.96 1803.5
410.38 313.55 1778.5
395.05 298.48 1693.1
395.37 295.44 1675.8
403.61 298.32 1692.1
400.14 292.57 1659.6
396.74 287.00 1628.0
401.43 287.34 1629.9
405.66 287.34 1629.9
409.88 287.34 1629.9
409.49 284.14 1611.7
404.84 278.07 1577.3
412.14 280.26 1589.7
427.75 287.99 1633.5
439.53 293.02 1662.1
445.59 294.18 1668.7
438.34 286.61 1625.7
431.66 279.55 1585.7
438.63 281.38 1596.1
443.80 282.04 1599.8
443.66 279.34 1584.5
445.87 278.16 1577.8
445.61 275.47 1562.5
449.90 275.62 1563.4
455.85 276.77 1569.9
457.67 275.41 1562.2
458.05 273.22 1549.8
460.91 272.54 1545.9
466.30 273.35 1550.5
461.40 268.16 1521.1
462.13 266.31 1510.6
479.67 274.10 1554.8
489.80 277.56 1574.4
491.47 276.20 1566.7
485.95 270.86 1536.4
492.87 272.48 1545.6
504.06 276.42 1567.9
500.15 272.08 1543.3
509.90 275.19 1560.9
532.38 285.05 1616.9
553.26 293.92 1667.2
557.78 294.02 1667.8
550.34 287.87 1632.9
561.76 291.60 1654.0
599.47 308.82 1751.7
209.54 379.44 2184.4
217.21 363.83 2094.6
229.15 374.46 2155.8
231.37 369.09 2124.8
232.12 361.67 2082.1
239.12 364.12 2096.2
243.69 362.83 2088.8
247.51 360.51 2075.4
264.02 376.37 2166.8
280.27 391.21 2252.2
292.60 400.09 2303.3
303.44 398.64 2295.0
301.65 388.67 2237.5
307.22 388.37 2235.8
312.22 387.39 2230.2
320.40 390.30 2247.0
330.78 395.76 2278.3
330.52 388.50 2236.6
335.17 387.17 2228.9
340.52 386.69 2226.1
323.31 355.11 2044.3
328.79 355.31 2045.5
325.54 346.21 1993.1
317.99 332.90 1916.5
323.16 333.10 1917.6
327.66 332.63 1914.9
327.26 327.26 1884.0
326.52 321.72 1852.1
333.78 324.11 1865.9
346.39 331.55 1908.7
348.69 329.04 1894.3
348.01 323.84 1864.3
350.85 322.01 1853.8
357.91 324.05 1865.5
367.65 328.44 1890.8
367.42 323.91 1864.7
368.99 321.07 1848.4
379.66 326.12 1877.4
381.77 323.78 1864.0
382.80 320.60 1845.7
389.42 322.11 1854.4
393.20 321.28 1849.6
395.10 318.93 1836.1
396.29 316.09 1819.7
394.01 310.57 1787.9
391.57 305.06 1756.2
398.08 306.57 1764.9
407.92 310.57 1787.9
402.79 303.23 1745.7
390.96 291.05 1675.5
395.76 291.39 1677.5
403.32 293.72 1690.9
398.69 287.23 1653.5
395.04 281.57 1621.0
399.95 282.07 1623.9
409.64 285.89 1645.9
419.43 289.71 1667.8
416.70 284.89 1640.1
408.93 276.75 1593.2
408.36 273.60 1575.1
416.18 276.08 1589.4
429.37 282.04 1623.7
436.87 284.18 1636.0
442.37 284.99 1640.7
447.90 285.80 1645.3
444.03 280.66 1615.8
437.91 274.21 1578.6
432.94 268.58 1546.2
429.69 264.12 1520.5
436.32 265.76 1530.0
447.36 270.03 1554.5
447.78 267.87 1542.1
444.54 263.58 1517.4
447.61 263.07 1514.5
452.92 263.87 1519.1
456.54 263.69 1518.1
449.27 257.28 1481.1
450.49 255.78 1472.5
468.52 263.79 1518.6
481.21 268.68 1546.7
485.46 268.81 1547.5
485.85 266.82 1536.1
498.17 271.36 1562.2
512.72 277.03 1594.9
513.13 275.04 1583.4
521.44 277.27 1596.3
542.78 286.35 1648.5
548.81 287.27 1653.8
535.78 278.28 1602.0
547.40 282.12 1624.2
580.07 296.68 1707.9
604.18 306.66 1765.4
208.41 382.09 2233.0
213.49 380.82 2225.6
211.48 367.30 2146.6
225.08 362.32 2117.5
230.72 362.56 2118.9
237.90 365.14 2134.0
252.30 378.45 2211.7
253.39 371.64 2171.9
253.69 363.99 2127.2
265.93 373.43 2182.4
277.47 381.52 2229.6
287.13 386.75 2260.2
295.44 389.98 2279.1
299.05 387.01 2261.7
301.65 382.87 2237.5
305.74 380.73 2225.1
308.80 377.43 2205.7
312.18 374.62 2189.3
317.46 374.15 2186.6
322.58 373.52 2182.9
331.94 377.72 2207.5
333.06 372.58 2177.4
320.54 352.60 2060.6
318.98 345.13 2017.0
329.25 350.49 2048.3
331.56 347.35 2030.0
329.59 339.89 1986.4
331.00 336.09 1964.2
331.79 331.79 1939.0
330.60 325.67 1903.2
329.40 319.71 1868.4
334.62 320.07 1870.5
345.66 325.91 1904.6
348.30 323.77 1892.2
348.16 319.14 1865.1
355.22 321.15 1876.9
366.23 326.64 1908.9
371.20 326.65 1909.0
365.67 317.56 1855.8
354.67 304.00 1776.6
352.45 298.23 1742.9
371.04 309.98 1811.6
388.97 320.90 1875.4
388.57 316.61 1850.3
385.57 310.34 1813.7
389.25 309.52 1808.9
391.42 307.54 1797.3
394.39 306.23 1789.7
397.31 304.91 1782.0
397.59 301.62 1762.7
400.84 300.63 1756.9
410.06 304.09 1777.1
413.76 303.42 1773.3
404.31 293.23 1713.7
397.30 285.02 1665.7
398.39 282.73 1652.3
400.80 281.42 1644.6
405.77 281.91 1647.5
415.28 285.51 1668.6
419.60 285.50 1668.5
411.53 277.15 1619.7
411.31 274.20 1602.5
418.43 276.16 1613.9
420.35 274.68 1605.3
428.54 277.29 1620.5
430.43 275.81 1611.9
429.97 272.86 1594.7
443.16 278.56 1627.9
447.61 278.70 1628.8
445.21 274.62 1604.9
443.49 271.02 1583.9
436.57 264.35 1544.9
440.28 264.17 1543.9
445.36 264.81 1547.6
439.98 259.28 1515.3
443.33 258.94 1513.3
453.11 262.32 1533.1
461.56 264.89 1548.1
468.94 266.81 1559.3
457.76 258.22 1509.1
455.00 254.49 1487.3
469.29 260.28 1521.1
478.47 263.16 1537.9
491.86 268.29 1567.9
500.92 270.99 1583.7
503.46 270.15 1578.8
506.88 269.79 1576.7
506.63 267.50 1563.3
513.99 269.23 1573.4
528.79 274.80 1606.0
527.58 272.03 1589.8
525.98 269.10 1572.7
549.51 278.98 1630.4
579.03 291.72 1704.9
599.94 299.97 1753.1
203.20 377.37 2239.4
204.83 369.84 2194.6
207.37 364.29 2161.7
211.08 361.06 2142.6
209.74 349.56 2074.3
225.37 348.79 2069.8
237.01 358.28 2126.0
255.20 377.00 2237.1
260.24 375.90 2230.6
256.13 361.93 2147.7
263.17 363.97 2159.8
276.73 374.74 2223.7
289.24 383.69 2276.9
291.38 378.79 2247.8
288.70 367.96 2183.5
293.74 367.17 2178.8
301.30 369.52 2192.8
311.53 374.99 2225.2
321.51 379.96 2254.7
325.11 377.36 2239.3
328.63 374.76 2223.8
329.43 369.19 2190.8
323.65 356.57 2115.9
323.10 350.03 2077.1
331.75 353.50 2097.7
329.70 345.65 2051.1
321.21 331.40 1966.6
317.94 322.91 1916.1
317.86 317.86 1886.2
322.28 317.40 1883.4
324.49 314.80 1868.1
326.28 311.89 1850.8
334.93 315.51 1872.3
342.10 317.67 1885.1
341.30 312.46 1854.1
346.85 313.13 1858.1
359.77 320.34 1900.9
363.97 319.70 1897.1
362.12 313.84 1862.3
365.82 312.87 1856.6
363.89 307.18 1822.8
358.46 298.72 1772.6
373.57 307.37 1823.9
388.93 316.01 1875.2
385.48 309.34 1835.6
390.45 309.50 1836.6
401.86 314.71 1867.5
399.14 308.86 1832.8
397.10 303.66 1801.9
395.97 299.28 1775.9
392.32 293.12 1739.4
390.25 288.26 1710.5
394.69 288.26 1710.5
407.43 294.25 1746.1
406.96 290.69 1725.0
401.13 283.41 1681.7
403.17 281.79 1672.2
404.70 279.85 1660.6
408.06 279.20 1656.8
410.69 278.07 1650.1
408.22 273.55 1623.3
408.78 271.13 1608.9
417.60 274.18 1627.0
426.52 277.24 1645.1
431.02 277.39 1646.0
433.50 276.25 1639.3
429.58 271.10 1608.7
427.57 267.23 1585.8
439.44 272.04 1614.3
445.96 273.47 1622.8
445.39 270.56 1605.5
449.26 270.39 1604.5
447.48 266.85 1583.5
448.58 265.07 1572.9
451.26 264.25 1568.1
451.17 261.84 1553.8
459.61 264.38 1568.8
463.08 264.04 1566.8
465.69 263.22 1561.9
473.11 265.10 1573.1
461.95 256.64 1522.9
454.31 250.25 1485.0
463.36 253.10 1501.9
468.10 253.55 1504.6
476.68 256.07 1519.5
490.99 261.59 1552.3
499.46 263.94 1566.2
506.47 265.49 1575.4
510.18 265.29 1574.3
517.25 266.84 1583.4
531.77 272.17 1615.1
535.87 272.12 1614.8
540.27 272.23 1615.4
553.82 276.91 1643.2
571.95 283.79 1684.0
588.66 289.87 1720.1
609.72 297.98 1768.2
204.18 373.35 2250.1
201.25 357.78 2156.3
201.52 348.57 2100.8
203.14 342.13 2062.0
207.44 340.42 2051.6
222.37 338.85 2042.2
229.24 341.20 2056.3
241.78 351.67 2119.5
255.77 363.77 2192.4
262.20 364.80 2198.6
263.52 358.84 2162.6
270.27 360.35 2171.8
291.85 381.19 2297.4
303.55 388.54 2341.7
295.94 371.37 2238.2
296.63 365.08 2200.3
305.73 369.18 2225.0
317.95 376.83 2271.1
324.29 377.35 2274.2
324.53 370.90 2235.3
325.16 365.09 2200.3
323.41 356.86 2150.7
318.56 345.56 2082.6
318.99 340.25 2050.6
326.80 342.87 2066.4
323.72 334.17 2014.0
317.20 322.24 1942.1
315.81 315.81 1903.3
316.35 311.48 1877.2
320.91 311.19 1875.5
330.20 315.41 1900.9
339.09 319.15 1923.4
337.68 313.21 1887.6
335.02 306.30 1846.0
338.94 305.52 1841.3
349.53 310.69 1872.5
359.18 314.90 1897.8
359.65 311.05 1874.6
361.89 308.81 1861.2
369.98 311.56 1877.7
374.47 311.25 1875.8
375.63 308.21 1857.5
377.68 305.97 1844.0
379.46 303.57 1829.6
381.99 301.82 1819.0
392.46 306.31 1846.0
405.76 312.87 1885.6
405.39 308.87 1861.5
396.83 298.79 1800.7
389.25 289.68 1745.8
384.45 282.81 1704.4
382.29 278.03 1675.6
385.97 277.55 1672.8
397.94 282.98 1705.5
402.82 283.30 1707.4
402.43 279.95 1687.2
400.79 275.81 1662.3
398.79 271.52 1636.4
403.98 272.15 1640.2
408.23 272.15 1640.2
408.86 269.76 1625.8
412.83 269.60 1624.8
419.24 271.03 1633.4
425.94 272.60 1642.9
433.69 274.81 1656.2
439.73 275.91 1662.9
439.18 272.89 1644.6
440.08 270.82 1632.2
447.92 273.02 1645.4
450.06 271.73 1637.7
440.02 263.19 1586.2
434.52 257.50 1551.9
443.36 260.32 1568.9
454.99 264.72 1595.4
453.35 261.39 1575.4
448.87 256.50 1545.8
447.85 253.65 1528.7
441.42 247.82 1493.5
451.48 251.26 1514.3
466.75 257.52 1552.0
465.00 254.36 1533.0
466.91 253.24 1526.2
469.66 252.59 1522.3
467.98 249.59 1504.2
475.09 251.29 1514.5
487.91 255.95 1542.6
492.15 256.08 1543.3
494.88 255.42 1539.4
505.50 258.82 1559.8
521.13 264.70 1595.3
525.80 264.97 1596.9
519.27 259.64 1564.8
532.02 263.95 1590.8
555.93 273.69 1649.5
570.89 278.91 1680.9
583.76 283.04 1705.8
591.27 284.52 1714.7
608.87 290.80 1752.6
206.56 361.49 2213.2
206.88 352.25 2156.7
208.35 345.43 2114.9
212.79 343.74 2104.5
216.36 340.76 2086.3
220.77 339.23 2076.9
226.31 339.46 2078.3
231.96 339.85 2080.7
240.31 344.08 2106.6
249.82 349.74 2141.3
257.98 353.32 2163.2
261.12 350.02 2143.0
268.79 352.79 2159.9
290.60 373.63 2287.5
307.96 380.42 2329.1
306.91 371.83 2276.5
314.32 373.62 2287.5
321.78 375.41 2298.4
323.02 370.01 2265.4
319.28 359.19 2199.1
316.78 350.12 2143.6
318.69 346.17 2119.4
317.35 338.87 2074.7
315.78 331.57 2030.0
321.69 332.24 2034.1
320.57 325.74 1994.3
315.90 315.90 1934.1
320.62 315.61 1932.3
326.65 316.60 1938.3
330.20 315.19 1929.7
338.44 318.24 1948.4
350.20 324.45 1986.4
351.55 320.98 1965.2
344.67 310.20 1899.2
344.43 305.62 1871.2
353.66 309.45 1894.6
361.71 312.16 1911.2
363.89 309.80 1896.7
367.69 308.86 1891.0
366.88 304.12 1862.0
362.83 296.86 1817.5
371.67 300.19 1837.9
381.60 304.31 1863.1
382.42 301.16 1843.8
383.76 298.48 1827.4
390.15 299.75 1835.2
399.27 303.06 1855.5
394.63 295.97 1812.1
381.69 282.90 1732.0
386.40 283.06 1733.0
394.16 285.43 1747.5
391.22 280.08 1714.8
394.56 279.30 1710.0
397.65 278.36 1704.2
393.68 272.55 1668.7
396.63 271.61 1662.9
398.17 269.73 1651.4
402.45 269.73 1651.4
414.05 274.58 1681.1
417.45 273.95 1677.3
416.73 270.66 1657.1
416.40 267.68 1638.9
418.42 266.27 1630.2
428.34 269.86 1652.2
439.61 274.21 1678.9
440.16 271.86 1664.5
433.49 265.14 1623.3
438.96 265.91 1628.0
451.20 270.72 1657.5
458.35 272.41 1667.8
452.87 266.64 1632.5
440.82 257.14 1574.4
444.61 256.97 1573.3
451.10 258.36 1581.8
443.96 251.98 1542.7
438.57 246.70 1510.4
435.80 242.97 1487.6
440.19 243.26 1489.4
460.40 252.22 1544.2
475.46 258.23 1581.0
473.49 254.96 1561.0
468.24 249.99 1530.6
464.30 245.81 1504.9
468.46 245.94 1505.7
481.48 250.69 1534.8
490.77 253.43 1551.6
491.13 251.55 1540.1
490.83 249.37 1526.8
497.77 250.88 1536.0
506.90 253.45 1551.7
504.98 250.50 1533.7
505.46 248.78 1523.2
526.26 257.01 1573.5
547.61 265.38 1624.8
560.93 269.76 1651.6
582.38 277.95 1701.8
601.15 284.76 1743.4
612.98 288.19 1764.5
209.31 360.48 2242.6
211.49 354.39 2204.7
215.22 351.14 2184.5
218.54 347.42 2161.4
221.33 343.07 2134.3
228.48 345.50 2149.5
236.87 349.67 2175.4
241.46 348.16 2165.9
248.80 350.58 2181.0
252.44 347.80 2163.7
253.53 341.71 2125.8
260.39 343.50 2137.0
272.44 351.90 2189.2
285.49 361.24 2247.3
294.27 364.90 2270.1
302.91 368.24 2290.9
311.12 370.95 2307.8
319.01 373.18 2321.7
326.70 375.10 2333.6
323.57 364.75 2269.2
315.57 349.39 2173.6
315.46 343.13 2134.7
319.56 341.59 2125.1
318.52 334.72 2082.4
317.27 327.85 2039.6
318.11 323.33 2011.5
312.54 312.54 1944.4
311.25 306.31 1905.6
318.81 308.85 1921.4
325.63 310.60 1932.3
330.00 310.00 1928.6
334.35 309.40 1924.8
342.28 312.08 1941.5
347.69 312.41 1943.6
344.46 305.09 1898.0
344.39 300.74 1870.9
354.16 304.97 1897.3
364.24 309.35 1924.6
368.50 308.74 1920.8
369.72 305.64 1901.4
366.26 298.79 1858.8
363.55 292.73 1821.1
374.16 297.41 1850.3
379.37 297.73 1852.3
375.55 291.05 1810.7
382.29 292.62 1820.4
393.59 297.59 1851.4
391.95 292.78 1821.4
376.28 277.73 1727.8
374.82 273.40 1700.9
391.07 281.93 1754.0
401.27 285.96 1779.0
400.61 282.24 1755.9
394.94 275.13 1711.6
389.28 268.17 1668.3
388.84 264.93 1648.2
394.95 266.17 1655.9
404.11 269.41 1676.0
416.18 274.50 1707.7
419.65 273.88 1703.8
414.27 267.55 1664.5
419.06 267.85 1666.4
424.34 268.46 1670.1
419.57 262.76 1634.7
422.06 261.68 1627.9
438.53 269.20 1674.7
444.37 270.10 1680.4
439.52 264.56 1645.9
446.33 266.08 1655.4
446.96 263.92 1641.9
443.07 259.16 1612.3
449.08 260.21 1618.8
448.18 257.29 1600.6
443.43 252.23 1569.2
442.05 249.16 1550.1
437.57 244.41 1520.5
434.33 240.43 1495.8
439.30 241.03 1499.5
451.00 245.28 1526.0
460.01 248.01 1542.9
463.40 247.68 1540.9
471.95 250.09 1555.9
478.25 251.28 1563.3
470.89 245.34 1526.3
471.86 243.79 1516.7
480.48 246.20 1531.6
485.29 246.62 1534.3
494.92 249.47 1552.0
504.02 252.01 1567.8
499.18 247.59 1540.3
495.43 243.78 1516.6
510.42 249.18 1550.2
530.25 256.84 1597.8
539.31 259.20 1612.6
546.87 260.81 1622.6
563.05 266.48 1657.8
588.68 276.50 1720.2
602.99 281.09 1748.7
609.64 282.07 1754.8
203.71 355.04 2245.0
207.56 351.69 2223.8
213.65 352.23 2227.2
219.18 351.83 2224.7
224.49 351.12 2220.2
227.33 346.68 2192.1
234.73 349.23 2208.3
245.31 356.28 2252.8
252.29 357.89 2263.0
255.73 354.53 2241.8
254.94 345.59 2185.2
260.41 345.33 2183.6
272.68 353.91 2237.8
282.43 358.92 2269.5
293.33 365.16 2309.0
292.48 356.83 2256.3
291.24 348.35 2202.7
306.23 359.23 2271.5
320.62 369.01 2333.3
324.23 366.26 2315.9
317.28 351.90 2225.1
314.85 342.96 2168.6
318.76 341.13 2157.1
318.95 335.45 2121.1
314.61 325.28 2056.8
311.78 316.97 2004.3
310.68 310.68 1964.5
309.69 304.69 1926.6
312.33 302.41 1912.2
318.93 303.98 1922.1
324.77 304.78 1927.2
325.96 301.27 1905.0
327.38 298.06 1884.7
331.61 297.47 1881.0
332.86 294.27 1860.7
338.94 295.37 1867.7
348.64 299.54 1894.0
354.48 300.32 1899.0
360.52 301.26 1904.9
365.85 301.58 1906.9
368.54 299.75 1895.4
368.70 295.93 1871.2
369.11 292.41 1849.0
374.11 292.58 1850.0
373.96 288.76 1825.9
377.10 287.54 1818.2
390.76 294.28 1860.8
392.51 291.99 1846.3
380.46 279.61 1768.0
376.85 273.66 1730.4
387.73 278.25 1759.4
392.94 278.71 1762.3
391.85 274.75 1737.3
396.58 274.90 1738.3
395.53 271.10 1714.2
392.34 265.92 1681.5
394.44 264.40 1671.9
394.88 261.82 1655.5
398.24 261.21 1651.7
410.25 266.23 1683.4
413.19 265.31 1677.6
416.10 264.40 1671.8
429.58 270.15 1708.2
426.21 265.29 1677.5
412.85 254.38 1608.5
416.27 253.92 1605.6
433.69 261.93 1656.2
447.31 267.51 1691.5
450.14 266.59 1685.7
448.82 263.25 1664.6
441.42 256.44 1621.5
438.52 252.36 1595.7
445.02 253.70 1604.2
447.02 252.48 1596.5
444.67 248.85 1573.5
454.96 252.30 1595.3
461.80 253.78 1604.7
449.65 244.90 1548.5
445.02 240.23 1519.0
454.25 243.07 1536.9
461.31 244.70 1547.3
465.28 244.68 1547.1
474.42 247.35 1564.0
478.43 247.32 1563.9
469.60 240.72 1522.1
469.68 238.76 1509.7
478.29 241.12 1524.6
486.96 243.48 1539.6
501.11 248.52 1571.4
511.17 251.46 1590.0
506.98 247.41 1564.4
501.14 242.61 1534.1
513.70 246.74 1560.2
527.32 251.30 1589.0
529.47 250.37 1583.1
536.96 251.96 1593.2
552.76 257.39 1627.5
571.92 264.29 1671.2
578.06 265.12 1676.4
580.32 264.18 1670.4
607.72 274.60 1736.3
192.89 340.40 2188.3
198.26 339.87 2184.9
205.34 342.24 2200.1
212.79 345.06 2218.3
219.26 346.20 2225.6
226.57 348.56 2240.8
231.70 347.56 2234.3
236.18 345.63 2221.9
243.80 348.29 2239.0
247.46 345.29 2219.7
247.32 337.25 2168.0
251.95 335.93 2159.6
263.91 344.23 2212.9
277.81 354.65 2279.9
290.35 362.94 2333.2
295.56 361.91 2326.5
289.04 346.85 2229.7
286.56 337.13 2167.3
299.61 345.71 2222.4
312.67 353.97 2275.5
315.45 350.50 2253.2
316.29 345.05 2218.2
321.22 344.16 2212.5
322.64 339.63 2183.3
320.39 331.44 2130.7
319.97 325.39 2091.8
320.41 320.41 2059.7
316.20 311.02 1999.4
312.63 302.55 1944.9
315.16 300.15 1929.5
321.48 301.39 1937.5
326.87 301.72 1939.6
327.75 297.96 1915.5
323.95 290.11 1865.0
322.98 284.98 1832.0
331.59 288.34 1853.6
345.08 295.78 1901.4
353.07 298.37 1918.1
356.97 297.48 1912.4
362.50 297.95 1915.4
367.85 298.26 1917.4
367.55 294.04 1890.3
364.63 287.87 1850.6
365.19 284.56 1829.3
370.34 284.87 1831.3
377.08 286.39 1841.1
387.28 290.46 1867.3
395.18 292.72 1881.8
391.42 286.41 1841.2
385.59 278.74 1791.9
387.72 276.94 1780.3
391.91 276.65 1778.4
389.64 271.84 1747.6
388.30 267.80 1721.5
392.11 267.35 1718.7
389.01 262.26 1685.9
383.06 255.37 1641.7
389.82 257.02 1652.3
395.03 257.63 1656.2
394.22 254.34 1635.0
401.51 256.28 1647.5
413.58 261.21 1679.2
426.05 266.28 1711.8
432.88 267.76 1721.3
422.71 258.80 1663.7
414.48 251.20 1614.8
423.12 253.87 1632.0
437.61 259.97 1671.2
447.99 263.52 1694.1
450.82 262.61 1688.2
450.01 259.62 1669.0
448.08 256.04 1646.0
450.48 254.99 1639.2
453.38 254.23 1634.3
450.91 250.51 1610.4
453.17 249.45 1603.6
467.88 255.21 1640.6
473.18 255.77 1644.3
458.92 245.85 1580.5
453.80 240.96 1549.0
462.27 243.30 1564.1
459.50 239.74 1541.2
453.20 234.42 1507.0
462.82 237.34 1525.8
467.89 237.91 1529.4
471.23 237.60 1527.4
483.96 241.98 1555.6
485.27 240.63 1546.9
486.84 239.43 1539.2
497.98 242.92 1561.6
504.99 244.35 1570.8
507.77 243.73 1566.8
508.69 242.23 1557.2
513.27 242.49 1558.9
517.23 242.45 1558.6
523.38 243.43 1564.9
535.25 247.04 1588.1
549.14 251.51 1616.9
566.35 257.43 1654.9
581.81 262.47 1687.3
596.11 266.92 1715.9
604.34 268.60 1726.7
618.20 272.74 1753.3
196.62 341.18 2230.5
199.67 336.59 2200.5
203.58 333.65 2181.3
208.06 331.77 2168.9
214.98 333.79 2182.2
222.48 336.57 2200.3
223.13 329.11 2151.6
223.31 321.35 2100.9
236.30 331.94 2170.1
245.69 337.11 2203.9
246.29 330.25 2159.0
252.50 331.06 2164.3
266.94 342.37 2238.3
282.58 354.73 2319.1
290.70 357.32 2336.0
291.56 351.06 2295.1
299.45 353.35 2310.0
311.17 359.98 2353.4
311.09 352.97 2307.5
311.31 346.55 2265.6
315.70 344.94 2255.0
318.09 341.22 2230.7
324.89 342.30 2237.8
328.69 340.23 2224.2
318.61 324.10 2118.8
310.97 310.97 2033.0
322.50 317.13 2073.2
328.37 317.60 2076.3
320.91 305.38 1996.4
320.06 299.74 1959.5
324.52 299.17 1955.8
328.47 298.15 1949.2
333.22 297.88 1947.4
333.38 293.58 1919.3
336.67 292.11 1909.7
349.65 298.98 1954.6
355.62 299.74 1959.6
355.89 295.74 1933.4
362.19 296.79 1940.3
370.54 299.48 1957.9
369.48 294.59 1925.9
362.78 285.39 1865.8
364.39 282.88 1849.3
370.16 283.63 1854.3
375.38 283.94 1856.3
382.18 285.43 1866.0
383.01 282.47 1846.7
382.11 278.33 1819.6
381.49 274.49 1794.5
378.66 269.17 1759.7
380.50 267.25 1747.2
384.40 266.82 1744.3
386.78 265.35 1734.7
389.76 264.32 1728.0
394.24 264.32 1728.0
391.83 259.75 1698.1
387.24 253.86 1659.6
394.96 256.07 1674.1
399.76 256.37 1676.0
398.08 252.54 1651.0
397.21 249.31 1629.9
401.43 249.31 1629.9
417.36 256.50 1676.9
427.25 259.87 1698.9
429.45 258.54 1690.2
433.07 258.09 1687.3
431.22 254.42 1663.3
435.01 254.12 1661.3
442.08 255.71 1671.7
442.05 253.21 1655.4
448.89 254.66 1664.8
454.74 255.52 1670.5
451.69 251.41 1643.6
449.04 247.60 1618.7
450.28 245.98 1608.1
456.57 247.13 1615.6
456.38 244.78 1600.3
447.08 237.64 1553.6
445.29 234.57 1533.5
452.85 236.45 1545.8
462.16 239.19 1563.7
459.67 235.83 1541.7
446.81 227.26 1485.7
450.06 226.95 1483.7
464.30 232.15 1517.7
477.23 236.61 1546.9
486.19 239.04 1562.8
483.37 235.69 1540.9
475.97 230.18 1504.8
478.02 229.29 1499.0
486.70 231.57 1513.9
491.17 231.83 1515.6
490.12 229.50 1500.4
491.78 228.47 1493.6
516.17 237.92 1555.4
545.54 249.51 1631.2
551.25 250.18 1635.6
559.51 251.99 1647.4
569.76 254.66 1664.9
575.88 255.47 1670.1
602.49 265.28 1734.3
626.13 273.64 1788.9
203.32 336.94 2240.7
201.18 324.12 2155.5
207.38 325.08 2161.9
216.13 329.89 2193.8
224.05 333.21 2215.9
224.54 325.58 2165.2
245.56 331.23 2202.7
258.94 341.33 2269.9
263.83 340.05 2261.4
276.29 348.37 2316.7
292.79 346.57 2304.8
299.56 347.49 2310.9
311.93 354.75 2359.2
312.66 348.74 2319.2
311.83 341.25 2269.4
315.00 338.33 2250.0
313.60 330.71 2199.3
317.06 328.38 2183.8
326.94 332.67 2212.4
322.70 322.70 2146.0
305.85 300.67 1999.5
307.88 297.61 1979.2
322.93 307.05 2041.9
323.38 302.52 2011.8
320.18 294.77 1960.3
322.70 292.45 1944.8
325.14 290.13 1929.4
328.67 288.83 1920.8
338.42 292.96 1948.2
351.05 299.42 1991.2
355.53 298.85 1987.5
353.11 292.57 1945.7
351.90 287.47 1911.7
356.70 287.34 1910.9
363.69 288.96 1921.7
361.23 283.13 1882.9
362.73 280.51 1865.5
373.32 284.90 1894.7
371.85 280.10 1862.7
369.63 274.86 1827.9
379.94 278.95 1855.1
384.36 278.66 1853.2
385.10 275.75 1833.8
386.36 273.28 1817.4
381.09 266.30 1771.0
380.85 262.97 1748.8
385.82 263.26 1750.8
389.50 262.69 1746.9
387.72 258.48 1719.0
387.56 255.44 1698.7
398.87 259.94 1728.6
407.84 262.83 1747.9
407.83 259.93 1728.6
404.50 255.01 1695.9
405.64 252.98 1682.4
407.19 251.25 1670.8
403.71 246.47 1639.1
412.02 248.93 1655.4
423.30 253.11 1683.2
426.68 252.52 1679.3
430.52 252.23 1677.4
428.64 248.61 1653.3
429.40 246.59 1639.9
433.38 246.43 1638.8
432.51 243.55 1619.6
438.23 244.40 1625.3
453.86 250.70 1667.2
461.03 252.26 1677.6
455.82 247.08 1643.1
454.97 244.34 1624.9
455.11 242.17 1610.5
448.94 236.71 1574.2
446.42 233.27 1551.3
451.52 233.82 1555.0
456.63 234.38 1558.7
463.44 235.79 1568.0
471.14 237.62 1580.2
468.64 234.32 1558.3
459.41 227.74 1514.6
460.70 226.44 1505.9
469.23 228.70 1520.9
474.01 229.10 1523.6
479.99 230.08 1530.1
482.11 229.20 1524.2
482.70 227.61 1513.7
489.90 229.15 1523.9
491.95 228.27 1518.0
488.14 224.70 1494.3
494.12 225.66 1500.7
523.52 237.22 1577.6
549.18 246.92 1642.1
551.12 245.88 1635.2
562.57 249.08 1656.4
576.69 253.39 1685.1
579.31 252.63 1680.1
600.43 259.89 1728.3
618.17 265.58 1766.2
621.26 264.95 1762.0
202.68 330.09 2233.7
202.08 319.96 2165.2
209.73 323.09 2186.3
210.39 315.59 2135.6
221.87 316.16 2139.4
227.67 316.51 2141.8
229.30 311.19 2105.8
244.34 323.89 2191.8
256.12 331.79 2245.2
259.11 328.21 2221.0
268.19 332.32 2248.8
278.25 337.45 2283.5
283.23 336.33 2275.9
282.92 329.12 2227.1
292.80 333.80 2258.8
308.55 344.85 2333.6
315.82 346.18 2342.6
321.51 345.78 2339.8
314.71 332.19 2247.9
304.78 315.86 2137.4
304.52 309.96 2097.5
310.86 310.86 2103.6
319.58 314.07 2125.3
314.79 304.12 2058.0
310.73 295.19 1997.5
319.49 298.54 2020.2
324.45 298.28 2018.4
325.40 294.41 1992.2
329.13 293.14 1983.6
332.50 291.57 1973.0
329.96 284.96 1928.3
333.63 283.83 1920.7
344.31 288.61 1953.0
346.60 286.32 1937.5
347.23 282.74 1913.3
349.52 280.60 1898.8
352.65 279.18 1889.2
358.12 279.63 1892.2
363.60 280.07 1895.2
373.06 283.53 1918.6
379.77 284.83 1927.4
374.12 276.94 1874.1
373.10 272.65 1845.0
384.65 277.53 1878.0
391.93 279.25 1889.7
395.21 278.11 1881.9
394.33 274.10 1854.8
387.06 265.81 1798.7
387.52 262.96 1779.4
393.20 263.67 1784.3
389.86 258.39 1748.5
381.54 249.98 1691.6
383.30 248.27 1680.0
396.34 253.84 1717.7
400.12 253.41 1714.8
395.02 247.43 1674.3
400.97 248.43 1681.1
411.82 252.41 1708.0
418.12 253.54 1715.7
419.48 251.69 1703.1
412.64 245.01 1657.9
408.73 240.18 1625.3
425.12 247.26 1673.2
442.98 255.05 1725.9
434.76 247.81 1676.9
428.80 242.00 1637.6
438.35 244.96 1657.6
442.62 244.94 1657.5
446.89 244.93 1657.4
460.78 250.14 1692.7
464.08 249.55 1688.7
454.66 242.20 1638.9
451.93 238.52 1614.0
450.70 235.69 1594.9
451.54 233.98 1583.3
456.16 234.25 1585.1
457.47 232.82 1575.5
459.30 231.68 1567.8
467.53 233.77 1581.9
476.68 236.27 1598.8
477.92 234.84 1589.2
471.93 229.92 1555.8
466.07 225.14 1523.5
467.64 224.00 1515.8
470.64 223.56 1512.8
475.11 223.81 1514.5
490.63 229.23 1551.2
505.73 234.36 1585.9
507.95 233.49 1580.0
504.64 230.12 1557.2
509.53 230.50 1559.8
525.57 235.89 1596.2
532.43 237.10 1604.4
531.78 234.97 1590.0
548.78 240.62 1628.2
577.73 251.38 1701.1
598.04 258.25 1747.5
608.88 260.95 1765.8
612.66 260.61 1763.5
609.21 257.22 1740.6
612.25 256.61 1736.4
648.08 269.64 1824.6
204.01 326.42 2248.3
208.50 324.34 2234.0
212.45 321.54 2214.7
210.08 309.60 2132.4
217.56 304.58 2097.9
228.80 312.50 2152.4
236.35 315.13 2170.5
251.01 326.90 2251.6
262.05 333.52 2297.2
263.68 328.14 2260.1
271.22 330.18 2274.2
279.19 332.65 2291.2
282.23 329.27 2267.9
290.64 332.16 2287.8
314.55 326.20 2246.8
306.01 311.57 2146.0
306.48 306.48 2111.0
311.12 305.66 2105.3
318.08 307.11 2115.3
316.55 300.46 2069.5
316.01 294.95 2031.5
324.40 297.81 2051.3
329.59 297.70 2050.5
324.88 288.78 1989.1
323.26 282.85 1948.2
330.81 285.00 1963.0
331.91 281.62 1939.8
332.06 277.54 1911.6
339.45 279.54 1925.4
346.73 281.40 1938.2
352.66 282.13 1943.2
353.23 278.61 1919.0
354.23 275.51 1897.7
360.64 276.66 1905.5
366.53 277.37 1910.5
370.74 276.82 1906.7
372.06 274.15 1888.3
368.05 267.67 1843.7
368.33 264.44 1821.4
385.18 273.04 1880.6
398.11 278.67 1919.4
393.31 271.92 1872.9
384.58 262.64 1809.0
386.36 260.68 1795.5
395.87 263.91 1817.8
398.66 262.65 1809.1
392.80 255.77 1761.7
384.29 247.36 1703.8
386.30 245.82 1693.2
390.69 245.83 1693.2
385.86 240.09 1653.7
389.70 239.82 1651.8
404.79 246.39 1697.1
413.59 249.04 1715.4
418.26 249.18 1716.3
420.33 247.78 1706.6
413.98 241.49 1663.3
410.32 236.88 1631.6
427.22 244.13 1681.5
447.09 250.37 1724.5
439.74 243.82 1679.3
447.61 245.75 1692.7
446.10 242.54 1670.5
445.24 239.75 1651.3
456.52 243.48 1677.0
456.89 241.38 1662.5
446.87 233.88 1610.9
443.54 229.98 1584.1
444.12 228.17 1571.6
447.35 227.74 1568.6
455.77 229.94 1583.8
461.22 230.61 1588.4
458.90 227.42 1566.4
462.64 227.26 1565.3
467.51 227.65 1568.0
463.82 223.92 1542.3
463.18 221.69 1527.0
462.17 219.34 1510.7
462.25 217.53 1498.3
464.04 216.55 1491.5
474.98 219.82 1514.1
497.67 228.44 1573.4
508.30 231.42 1594.0
507.21 229.06 1577.7
497.18 222.73 1534.1
495.55 220.24 1517.0
507.78 223.90 1542.2
509.52 222.91 1535.4
516.88 224.38 1545.5
542.95 233.89 1610.9
566.78 242.29 1668.8
581.89 246.86 1700.3
595.20 250.61 1726.1
602.46 251.77 1734.1
611.38 253.61 1746.8
630.90 259.78 1789.3
637.49 258.69 1781.8
645.95 260.24 1792.5
211.89 323.72 2270.3
214.70 319.15 2238.2
215.69 312.19 2189.4
217.13 306.21 2147.4
221.41 304.44 2135.1
226.89 304.36 2134.5
237.93 311.58 2185.1
256.70 328.33 2302.6
264.27 330.34 2316.7
261.60 319.73 2242.3
268.62 321.18 2252.4
276.05 323.04 2265.5
283.55 324.90 2278.6
296.11 332.37 2330.9
304.47 334.92 2348.8
305.01 328.93 2306.8
312.87 330.92 2320.7
321.34 333.47 2338.6
318.91 324.82 2278.0
316.60 316.60 2220.3
313.99 308.38 2162.7
315.72 304.64 2136.4
316.42 300.06 2104.3
309.48 288.50 2023.2
308.52 282.81 1983.3
316.94 285.77 2004.1
322.64 286.21 2007.2
318.93 278.43 1952.6
313.65 269.54 1890.3
317.27 268.46 1882.7
326.69 272.24 1909.2
334.72 274.77 1926.9
340.77 275.62 1932.9
346.85 276.47 1938.9
352.25 276.77 1941.0
351.92 272.62 1911.9
350.36 267.63 1876.9
354.32 266.96 1872.2
365.73 271.82 1906.3
374.65 274.74 1926.8
373.53 270.32 1895.7
367.21 262.29 1839.5
362.77 255.80 1793.9
374.59 260.79 1828.9
388.79 267.29 1874.5
385.11 261.49 1833.8
379.98 254.87 1787.4
385.67 255.56 1792.2
392.00 256.67 1800.0
391.77 253.50 1777.8
392.93 251.29 1762.3
391.62 247.58 1736.2
388.63 242.90 1703.4
387.71 239.60 1680.3
391.40 239.19 1677.4
403.71 244.00 1711.2
413.66 247.30 1734.3
416.29 246.19 1726.5
414.89 242.76 1702.4
411.00 237.95 1668.7
411.02 235.48 1651.4
414.08 234.79 1646.6
420.54 236.02 1655.2
432.45 240.25 1684.9
440.28 242.15 1698.2
443.40 241.46 1693.3
444.98 239.94 1682.7
437.30 233.51 1637.6
431.98 228.45 1602.1
439.76 230.35 1615.4
454.16 235.65 1652.6
457.09 234.95 1647.7
449.84 229.08 1606.6
446.96 225.53 1581.7
447.77 223.89 1570.1
454.83 225.37 1580.5
460.00 225.89 1584.2
457.38 222.62 1561.2
457.74 220.84 1548.7
459.17 219.60 1540.1
456.85 216.61 1519.1
457.87 215.24 1509.5
457.69 213.33 1496.1
458.90 212.10 1487.4
471.84 216.26 1516.6
494.41 224.73 1576.1
494.55 222.95 1563.6
481.98 215.52 1511.4
496.76 220.34 1545.2
504.06 221.79 1555.4
500.64 218.53 1532.6
511.36 221.45 1553.1
511.87 219.94 1542.5
517.99 220.85 1548.8
538.38 227.78 1597.4
555.81 233.35 1636.5
561.86 234.11 1641.8
565.03 233.66 1638.6
586.72 240.82 1688.8
613.54 249.96 1753.0
631.77 255.49 1791.8
641.88 257.69 1807.2
633.69 252.56 1771.2
639.11 252.88 1773.5
209.80 323.69 2312.0
215.92 323.89 2313.5
217.05 316.77 2262.6
216.16 307.17 2194.1
219.10 303.37 2166.9
224.76 303.43 2167.4
236.92 312.04 2228.8
257.34 323.17 2308.3
245.51 301.31 2152.2
248.38 298.05 2128.9
261.33 306.78 2191.3
274.00 314.80 2248.6
286.59 322.41 2302.9
297.59 327.95 2342.5
304.07 328.40 2345.7
301.48 319.22 2280.1
305.70 317.46 2267.6
307.43 313.23 2237.4
299.94 299.94 2142.4
306.92 301.34 2152.4
312.82 301.65 2154.6
310.18 293.85 2099.0
306.67 285.52 2039.4
303.00 277.32 1980.9
305.73 275.16 1965.4
306.06 270.94 1935.3
303.41 264.26 1887.6
312.97 268.26 1916.2
320.73 270.62 1933.0
321.66 267.22 1908.7
328.64 268.89 1920.6
333.48 268.77 1919.8
335.90 266.74 1905.3
342.09 267.72 1912.3
347.24 267.87 1913.4
348.28 264.89 1892.1
348.48 261.36 1866.9
348.73 257.97 1842.6
355.77 259.62 1854.4
370.05 266.44 1903.1
374.62 266.17 1901.2
375.48 263.33 1880.9
378.21 261.84 1870.3
379.49 259.40 1852.8
382.69 258.32 1845.1
381.98 254.65 1819.0
379.70 250.05 1786.0
384.34 250.05 1786.1
389.61 250.46 1789.0
387.43 246.13 1758.1
387.03 243.02 1735.8
386.96 240.18 1715.6
384.80 236.13 1686.6
385.39 233.83 1670.2
390.63 234.38 1674.1
409.99 243.29 1737.8
419.91 243.82 1741.6
407.99 234.38 1674.1
409.25 232.62 1661.6
414.27 233.03 1664.5
414.22 230.60 1647.1
417.51 230.06 1643.3
429.39 234.22 1673.0
436.70 235.82 1684.4
435.52 232.85 1663.2
432.21 228.82 1634.4
434.64 227.87 1627.6
439.09 227.99 1628.5
441.99 227.31 1623.6
451.42 229.97 1642.6
455.39 229.82 1641.6
448.12 224.06 1600.4
450.62 223.24 1594.6
458.25 224.96 1606.9
458.82 223.21 1594.3
458.21 220.92 1578.0
459.20 219.44 1567.4
463.51 219.56 1568.3
463.00 217.41 1552.9
459.00 213.67 1526.2
468.67 216.31 1545.1
477.27 218.41 1560.1
478.05 216.93 1549.5
490.55 220.75 1576.8
504.07 224.96 1606.8
494.41 218.84 1563.1
477.32 209.56 1496.8
487.82 212.44 1517.4
505.75 218.49 1560.6
513.73 220.17 1572.6
520.20 221.19 1579.9
517.03 218.12 1558.0
524.13 219.40 1567.2
546.15 226.86 1620.5
554.07 228.40 1631.4
549.20 224.67 1604.8
556.48 225.94 1613.9
583.00 234.94 1678.1
616.69 246.68 1762.0
643.18 255.38 1824.1
214.07 315.15 2293.6
209.46 300.04 2183.6
208.95 291.43 2120.9
223.41 296.02 2154.3
242.76 313.81 2283.8
251.29 317.11 2307.8
241.18 297.27 2163.4
242.56 292.18 2126.4
259.83 306.02 2227.1
271.39 312.69 2275.6
283.08 319.22 2323.1
292.93 323.44 2353.9
302.49 314.36 2287.8
299.98 305.75 2225.1
295.26 295.26 2148.8
294.68 289.23 2104.9
308.29 297.08 2162.0
308.23 291.72 2123.0
300.87 279.76 2036.0
307.66 281.13 2046.0
313.14 281.30 2047.2
