ply
format ascii 1.0
element vertex 2280
property float x
property float y
property float z
end_header
577.56 482.24 2162.9
566.01 468.05 2099.2
561.60 459.97 2063.0
576.95 468.09 2099.4
582.02 467.79 2098.1
577.33 459.73 2061.9
581.50 458.80 2057.7
586.73 458.71 2057.3
581.12 450.24 2019.4
577.25 443.24 1988.0
574.86 437.51 1962.2
574.57 433.45 1944.0
580.90 434.41 1948.4
583.86 432.86 1941.4
584.23 429.44 1926.0
597.40 435.39 1952.8
608.10 439.47 1971.0
612.49 438.95 1968.7
624.48 443.84 1990.7
627.72 442.49 1984.6
624.98 436.98 1959.9
620.62 430.43 1930.5
618.24 425.35 1907.7
630.63 430.43 1930.5
637.92 431.98 1937.4
642.47 431.66 1936.0
662.21 441.47 1980.0
670.91 443.83 1990.6
660.14 433.38 1943.7
656.76 427.89 1919.1
664.74 429.83 1927.8
680.78 436.92 1959.6
698.59 445.02 1996.0
685.32 433.36 1943.6
671.80 421.71 1891.4
691.67 431.04 1933.2
706.75 437.27 1961.2
705.59 433.43 1944.0
711.74 434.11 1947.0
727.71 440.73 1976.7
728.50 438.12 1965.0
720.68 430.41 1930.4
718.55 426.17 1911.4
717.36 422.56 1895.2
731.44 427.92 1919.2
740.02 430.01 1928.6
740.87 427.62 1917.9
750.54 430.31 1930.0
743.49 423.44 1899.2
742.75 420.24 1884.8
758.20 426.18 1911.4
763.59 426.42 1912.5
762.78 423.22 1898.2
775.85 427.71 1918.3
802.67 439.68 1972.0
796.68 433.64 1944.9
782.73 423.37 1898.8
805.73 433.08 1942.4
817.97 436.93 1959.7
827.26 439.16 1969.7
560.38 512.17 2324.2
563.77 509.79 2313.3
564.06 504.69 2290.2
554.08 490.59 2226.2
561.91 492.40 2234.4
574.59 498.37 2261.5
564.31 484.51 2198.6
553.71 470.66 2135.7
564.36 474.96 2155.3
561.85 468.21 2124.6
551.36 455.01 2064.7
561.21 458.68 2081.4
578.07 467.96 2123.5
590.98 473.90 2150.5
593.56 471.52 2139.7
578.15 455.03 2064.8
573.02 446.85 2027.7
588.36 454.65 2063.1
592.51 453.73 2058.9
583.27 442.66 2008.7
576.81 433.88 1968.9
585.40 436.48 1980.7
599.92 443.42 2012.2
607.83 445.39 2021.1
612.93 445.29 2020.6
611.44 440.45 1998.7
608.12 434.37 1971.1
610.18 432.21 1961.3
620.10 435.61 1976.7
625.37 435.71 1977.2
624.99 431.91 1959.9
631.72 433.03 1965.0
639.97 435.18 1974.8
642.49 433.43 1966.8
639.46 427.99 1942.1
636.62 422.76 1918.4
648.88 427.56 1940.2
667.80 436.64 1981.4
667.71 433.25 1966.0
656.45 422.71 1918.2
656.13 419.33 1902.8
664.73 421.66 1913.4
674.35 424.59 1926.7
676.86 423.04 1919.7
680.00 421.89 1914.5
696.29 428.88 1946.2
707.76 432.80 1964.0
714.96 434.08 1969.8
730.58 440.42 1998.6
721.64 431.97 1960.2
695.50 413.41 1876.0
693.28 409.23 1857.0
697.87 409.10 1856.4
709.04 412.80 1873.2
735.28 425.16 1929.3
743.88 427.23 1938.7
744.40 424.66 1927.0
756.23 428.53 1944.6
752.06 423.34 1921.0
740.95 414.35 1880.2
745.19 414.00 1878.6
764.32 421.86 1914.3
778.12 426.71 1936.3
778.79 424.34 1925.6
793.44 429.57 1949.3
814.51 438.19 1988.4
828.29 442.80 2009.3
574.92 524.93 2410.4
565.25 510.55 2344.4
573.55 512.54 2353.5
573.74 502.02 2305.2
577.95 500.49 2298.2
587.17 503.29 2311.0
578.22 490.61 2252.8
567.99 477.11 2190.8
575.31 478.47 2197.1
568.64 468.29 2150.3
562.25 458.53 2105.5
576.27 465.45 2137.3
588.90 471.12 2163.3
597.25 473.29 2173.3
599.88 470.93 2162.5
584.52 454.62 2087.6
572.51 441.20 2025.9
582.22 444.60 2041.5
597.68 452.30 2076.9
598.85 449.13 2062.4
588.38 437.38 2008.4
594.57 438.11 2011.7
613.65 448.23 2058.2
625.04 452.62 2078.4
625.45 449.04 2061.9
619.19 440.78 2024.0
614.19 433.55 1990.8
615.14 430.60 1977.2
621.00 431.11 1979.6
622.73 428.77 1968.8
627.38 428.46 1967.4
639.22 433.02 1988.4
648.74 435.95 2001.8
652.84 435.23 1998.5
648.35 428.83 1969.1
644.03 422.64 1940.7
641.74 417.88 1918.8
645.61 417.16 1915.5
663.31 425.33 1953.0
670.40 426.62 1959.0
674.65 426.09 1956.5
688.20 431.41 1980.9
693.12 431.27 1980.3
690.54 426.51 1958.5
682.29 418.34 1920.9
685.74 417.41 1916.7
704.78 425.91 1955.7
720.65 432.39 1985.5
731.27 435.65 2000.4
716.23 423.69 1945.5
711.84 418.14 1920.0
733.02 427.60 1963.5
719.58 416.86 1914.2
712.15 409.73 1881.4
734.59 419.76 1927.5
738.27 419.02 1924.1
737.69 415.88 1909.7
748.41 419.11 1924.5
751.70 418.16 1920.1
748.49 413.64 1899.4
757.47 415.87 1909.6
781.39 426.21 1957.1
786.52 426.24 1957.2
778.05 418.95 1923.7
788.64 421.95 1937.5
805.61 428.30 1966.7
810.37 428.12 1965.9
834.28 438.00 2011.2
584.12 521.31 2422.6
565.27 499.12 2319.5
544.97 476.13 2212.7
554.64 479.54 2228.5
573.23 490.49 2279.4
582.89 493.67 2294.2
573.89 481.14 2235.9
562.38 466.78 2169.2
567.91 466.70 2168.8
570.93 464.58 2159.0
573.90 462.46 2149.1
575.54 459.33 2134.6
575.82 455.17 2115.3
576.53 451.43 2097.9
570.87 442.82 2057.9
575.30 442.13 2054.7
583.18 444.07 2063.7
592.18 446.82 2076.5
608.27 454.83 2113.7
616.62 456.96 2123.6
612.07 449.58 2089.3
604.86 440.38 2046.5
611.15 441.09 2049.8
613.51 438.97 2040.0
605.29 429.39 1995.5
609.47 428.69 1992.2
614.49 428.60 1991.8
619.80 428.70 1992.2
630.39 432.42 2009.5
626.58 426.28 1981.0
626.20 422.56 1963.7
634.14 424.46 1972.5
639.39 424.55 1973.0
649.20 427.65 1987.4
649.89 424.73 1973.8
640.33 415.21 1929.6
633.66 407.70 1894.7
643.10 410.60 1908.1
666.78 422.46 1963.3
676.44 425.34 1976.6
682.96 426.21 1980.6
695.92 431.06 2003.2
699.93 430.33 1999.8
699.35 426.81 1983.4
692.13 419.32 1948.6
689.04 414.42 1925.9
701.79 419.05 1947.4
710.62 421.30 1957.8
714.12 420.37 1953.5
714.20 417.46 1940.0
725.80 421.27 1957.7
751.54 433.18 2013.1
742.00 424.73 1973.8
716.31 407.22 1892.4
720.27 406.68 1889.9
738.26 414.03 1924.0
752.17 418.99 1947.1
763.69 422.58 1963.8
767.78 422.02 1961.2
761.78 415.97 1933.1
767.95 416.60 1936.0
793.39 427.61 1987.2
798.59 427.63 1987.3
780.98 415.52 1931.0
782.35 413.60 1922.1
809.32 425.15 1975.7
824.20 430.24 1999.4
829.03 430.06 1998.5
576.76 519.72 2444.7
575.96 513.36 2414.7
573.40 505.58 2378.2
555.35 484.46 2278.8
544.31 469.82 2210.0
562.02 480.06 2258.1
572.32 483.81 2275.8
573.78 480.10 2258.3
574.17 475.58 2237.0
570.53 467.83 2200.6
573.40 465.53 2189.8
574.72 462.03 2173.3
576.71 459.13 2159.7
577.61 455.42 2142.2
569.93 445.09 2093.6
560.72 433.76 2040.4
557.01 426.86 2007.9
563.70 427.99 2013.2
579.74 436.13 2051.5
598.11 445.86 2097.3
604.78 446.77 2101.5
602.99 441.47 2076.6
613.48 445.18 2094.0
620.71 446.48 2100.1
604.73 431.20 2028.3
584.74 413.35 1944.3
586.24 410.87 1932.7
600.30 417.16 1962.3
614.79 423.64 1992.7
630.00 430.50 2025.0
630.70 427.41 2010.5
616.54 414.39 1949.2
617.87 411.91 1937.6
627.84 415.19 1953.0
633.35 415.48 1954.3
642.82 418.34 1967.8
660.32 426.35 2005.5
668.42 428.21 2014.2
650.44 413.46 1944.8
649.36 409.59 1926.7
661.74 414.22 1948.4
658.98 409.37 1925.6
671.14 413.78 1946.4
689.50 421.93 1984.7
693.13 421.01 1980.4
691.86 417.15 1962.2
696.72 417.02 1961.6
706.21 419.63 1973.9
706.44 416.75 1960.3
702.26 411.32 1934.8
702.00 408.25 1920.4
698.61 403.42 1897.6
705.01 404.27 1901.6
725.14 412.93 1942.3
745.80 421.76 1983.9
751.71 422.19 1985.9
746.10 416.19 1957.7
754.42 417.99 1966.2
760.65 418.61 1969.1
764.40 417.87 1965.6
766.70 416.35 1958.5
758.53 409.21 1924.9
762.15 408.47 1921.4
786.12 418.58 1968.9
809.56 428.29 2014.6
810.77 426.17 2004.7
797.87 416.72 1960.2
810.81 420.80 1979.4
570.13 513.12 2443.4
572.78 509.83 2427.8
568.52 500.54 2383.5
562.89 490.26 2334.6
564.91 486.78 2318.0
574.34 489.70 2331.9
576.73 486.62 2317.2
572.84 478.35 2277.9
573.58 474.08 2257.5
572.75 468.61 2231.5
567.37 459.57 2188.4
567.73 455.31 2168.1
578.26 459.20 2186.7
589.38 463.49 2207.1
594.48 463.01 2204.8
590.81 455.77 2170.3
588.52 449.72 2141.5
590.55 447.05 2128.8
587.50 440.62 2098.2
594.68 441.92 2104.4
600.82 442.42 2106.8
594.77 434.02 2066.8
589.07 426.02 2028.7
596.41 427.51 2035.8
609.34 432.95 2061.7
598.30 421.41 2006.7
580.79 405.55 1931.2
585.10 405.07 1928.9
604.04 414.63 1974.5
623.47 424.38 2020.9
634.97 428.60 2041.0
631.29 422.60 2012.4
620.68 412.09 1962.3
625.02 411.60 1960.0
634.14 414.24 1972.6
638.79 413.94 1971.1
642.21 412.85 1966.0
654.50 417.44 1987.8
671.83 425.14 2024.5
664.13 417.01 1985.8
657.50 409.67 1950.8
663.63 410.34 1954.0
667.87 409.83 1951.6
686.80 418.28 1991.8
691.75 418.15 1991.2
681.79 409.08 1948.0
686.63 408.95 1947.4
697.38 412.32 1963.4
707.86 415.49 1978.5
708.44 412.83 1965.9
702.92 406.69 1936.6
701.65 403.07 1919.4
695.89 396.95 1890.2
699.88 396.43 1887.8
719.64 404.80 1927.6
739.24 412.95 1966.4
757.27 420.13 2000.6
764.97 421.51 2007.2
761.45 416.74 1984.5
756.40 411.20 1958.1
756.57 408.55 1945.5
753.81 404.36 1925.5
749.88 399.61 1902.9
758.15 401.38 1911.3
773.01 406.58 1936.1
786.14 410.82 1956.3
800.83 415.82 1980.1
802.68 414.12 1972.0
805.97 413.19 1967.5
820.08 417.78 1989.4
835.42 422.93 2014.0
565.93 508.70 2452.7
567.07 504.07 2430.3
574.18 504.78 2433.7
573.80 498.96 2405.7
569.37 489.78 2361.4
572.84 487.53 2350.6
575.09 484.28 2334.9
570.39 475.32 2291.7
560.21 462.03 2227.6
554.54 452.69 2182.6
556.70 449.86 2169.0
554.60 443.68 2139.2
557.32 441.44 2128.4
568.51 445.89 2149.8
579.04 449.74 2168.4
583.53 448.87 2164.2
581.82 443.29 2137.3
580.49 438.11 2112.3
594.77 444.69 2144.0
604.70 447.93 2159.6
597.37 438.44 2113.9
588.47 427.98 2063.5
595.33 429.06 2068.7
601.93 429.95 2073.0
587.87 416.19 2006.6
580.72 407.52 1964.8
600.83 417.97 2015.2
613.55 423.14 2040.1
609.87 417.00 2010.6
620.97 420.99 2029.8
630.71 424.00 2044.3
632.06 421.37 2031.6
645.39 426.70 2057.3
649.96 426.21 2054.9
643.49 418.53 2017.9
643.45 415.13 2001.5
642.72 411.34 1983.3
641.30 407.17 1963.2
651.13 410.16 1977.5
666.89 416.81 2009.6
657.59 407.81 1966.2
649.34 399.60 1926.6
669.30 408.74 1970.7
687.24 416.51 2008.2
694.48 417.73 2014.1
687.24 410.30 1978.2
675.95 400.56 1931.3
678.47 399.10 1924.2
683.91 399.36 1925.5
689.01 399.43 1925.8
700.44 403.13 1943.7
706.26 403.58 1945.8
712.42 404.21 1948.9
713.84 402.16 1939.0
710.43 397.45 1916.3
722.37 401.32 1934.9
736.12 406.13 1958.1
747.19 409.42 1974.0
765.32 416.50 2008.1
773.05 417.86 2014.7
768.77 412.76 1990.1
769.72 410.52 1979.3
769.90 407.90 1966.6
767.86 404.14 1948.5
767.91 401.52 1935.9
772.63 401.37 1935.2
779.90 402.53 1940.8
786.83 403.50 1945.5
808.96 412.21 1987.4
560.69 497.69 2430.0
562.67 493.90 2411.4
570.18 495.00 2416.8
580.00 498.04 2431.7
585.05 496.98 2426.5
581.71 488.89 2387.0
576.54 479.44 2340.8
571.61 470.39 2296.6
561.44 457.25 2232.5
542.49 437.32 2135.2
531.12 423.82 2069.3
541.33 427.65 2088.0
555.36 434.39 2120.9
560.76 434.31 2120.5
564.14 432.69 2112.6
578.20 439.21 2144.4
586.22 441.06 2153.5
580.25 432.45 2111.4
588.24 434.30 2120.5
598.64 437.89 2138.0
591.25 428.52 2092.2
588.48 422.64 2063.5
600.49 427.38 2086.7
614.80 433.65 2117.3
608.01 425.07 2075.4
592.95 410.91 2006.2
605.60 416.02 2031.2
625.42 425.94 2079.6
627.53 423.72 2068.8
620.97 415.74 2029.8
613.64 407.38 1989.0
627.11 412.85 2015.7
652.16 425.79 2078.9
656.02 421.35 2057.2
647.36 412.43 2013.7
640.00 404.48 1974.8
644.34 403.99 1972.5
660.33 410.76 2005.5
672.76 415.22 2027.3
659.45 403.85 1971.8
653.09 396.88 1937.7
676.56 408.00 1992.0
680.57 407.31 1988.7
673.68 400.15 1953.7
669.52 394.72 1927.2
661.02 386.82 1888.6
679.76 394.86 1927.9
702.29 404.97 1977.3
704.88 403.52 1970.1
713.75 405.65 1980.6
714.96 403.44 1969.8
716.11 401.23 1959.0
727.73 404.87 1976.7
734.65 405.86 1981.6
741.93 407.03 1987.3
751.31 409.34 1998.6
750.31 405.99 1982.2
755.52 406.03 1982.4
768.82 410.38 2003.7
769.12 407.79 1991.0
770.42 405.76 1981.1
772.04 403.91 1972.1
773.25 401.89 1962.2
775.50 400.42 1955.0
779.17 399.70 1951.5
785.75 400.48 1955.3
797.86 404.05 1972.7
557.66 488.73 2416.8
560.27 485.56 2401.1
565.95 485.10 2398.9
575.04 487.53 2410.9
576.82 483.78 2392.3
570.14 473.10 2339.5
564.38 463.38 2291.5
558.61 453.87 2244.4
554.05 445.52 2203.1
540.34 430.06 2126.7
534.54 421.16 2082.6
549.47 428.59 2119.4
563.08 434.85 2150.4
567.80 434.20 2147.1
563.64 426.84 2110.7
569.27 426.95 2111.3
580.83 431.47 2133.7
578.96 426.03 2106.7
589.30 429.58 2124.3
601.57 434.47 2148.5
593.40 424.63 2099.8
587.95 416.91 2061.6
592.09 416.06 2057.4
598.39 416.74 2060.8
617.68 426.36 2108.4
628.85 430.26 2127.7
610.93 414.37 2049.1
600.27 403.63 1996.0
605.60 403.73 1996.5
602.88 398.51 1970.7
597.43 391.59 1936.4
612.82 398.33 1969.8
641.58 413.58 2045.2
651.46 416.51 2059.6
643.79 408.26 2018.9
632.63 397.94 1967.9
639.08 398.79 1972.0
657.44 406.99 2012.6
658.79 404.61 2000.8
657.30 400.54 1980.7
662.56 400.62 1981.1
675.35 405.21 2003.8
681.92 406.03 2007.8
669.11 395.38 1955.2
669.18 392.45 1940.7
671.43 390.83 1932.7
674.19 386.67 1912.1
703.60 400.59 1980.9
713.80 403.45 1995.1
713.40 400.33 1979.6
705.22 392.91 1943.0
715.76 395.95 1958.0
736.55 404.58 2000.7
727.81 396.99 1963.1
718.21 389.03 1923.8
749.57 403.22 1993.9
772.21 412.55 2040.1
767.75 407.38 2014.5
770.22 405.92 2007.3
763.08 399.47 1975.4
756.52 393.39 1945.3
774.53 400.09 1978.5
794.49 407.70 2016.1
792.87 404.21 1998.8
792.63 401.46 1985.2
803.68 404.43 1999.9
820.33 410.16 2028.3
554.57 485.25 2430.8
555.49 480.60 2407.4
554.29 474.22 2375.5
557.43 471.67 2362.7
563.01 471.22 2360.5
562.14 465.43 2331.4
548.33 449.17 2250.0
536.00 434.44 2176.2
551.29 442.18 2215.0
567.00 450.09 2254.6
550.74 432.73 2167.7
541.87 421.46 2111.2
546.77 421.01 2109.0
550.16 419.43 2101.0
563.55 425.42 2131.1
568.97 425.35 2130.7
569.28 421.49 2111.3
575.17 421.79 2112.9
576.11 418.50 2096.4
589.31 424.08 2124.4
601.32 428.72 2147.6
592.34 418.44 2096.1
587.95 411.57 2061.7
592.91 411.29 2060.3
593.19 407.82 2042.9
606.37 413.19 2069.8
624.40 418.08 2094.3
604.22 401.08 2009.1
601.88 396.11 1984.2
600.86 392.08 1964.1
597.12 386.37 1935.5
609.01 390.78 1957.5
633.94 403.42 2020.8
642.87 405.74 2032.5
633.64 396.67 1987.0
622.99 386.86 1937.9
631.19 388.82 1947.7
663.84 405.68 2032.2
657.59 395.58 1981.6
644.78 384.87 1927.9
660.59 391.27 1960.0
669.59 393.57 1971.5
667.18 389.19 1949.6
677.49 392.23 1964.8
684.63 393.41 1970.7
677.84 386.62 1936.7
676.45 382.99 1918.5
688.12 386.75 1937.4
700.54 390.88 1958.0
702.39 389.09 1949.1
699.84 384.91 1928.1
716.42 391.23 1959.8
734.83 398.47 1996.0
724.03 389.86 1952.9
718.87 384.40 1925.6
754.75 400.80 2007.7
778.11 410.38 2055.7
772.99 404.90 2028.3
765.62 398.33 1995.4
747.83 386.46 1935.9
755.07 387.60 1941.6
789.56 402.62 2016.9
796.27 403.38 2020.6
781.61 393.36 1970.5
809.38 404.69 2027.2
549.37 474.46 2408.0
550.23 469.86 2384.6
548.97 463.57 2352.7
554.99 463.51 2352.4
563.28 465.32 2361.6
561.25 458.66 2327.8
546.96 442.22 2244.4
542.12 433.70 2201.1
562.93 445.65 2261.8
571.81 448.02 2273.8
550.27 426.74 2165.8
544.81 418.24 2122.6
552.69 420.05 2131.8
546.43 411.18 2086.8
549.50 409.43 2077.9
565.69 417.40 2118.4
577.47 422.00 2141.7
588.34 425.84 2161.2
594.34 426.13 2162.7
585.91 416.16 2112.1
575.11 404.70 2053.9
585.40 408.17 2071.5
600.62 414.97 2106.1
603.77 413.40 2098.1
602.51 408.84 2075.0
595.32 400.39 2032.1
598.23 398.82 2024.1
608.40 402.07 2040.6
605.35 396.61 2012.9
613.57 398.56 2022.7
624.13 401.98 2040.1
623.76 398.37 2021.8
639.36 404.93 2055.1
645.57 398.89 2024.4
632.30 387.54 1966.8
624.81 379.89 1928.0
642.16 387.34 1965.8
664.92 397.90 2019.4
651.70 386.95 1963.8
640.08 377.10 1913.9
656.80 383.98 1948.8
661.98 384.05 1949.1
656.34 377.89 1917.9
678.43 387.67 1967.5
697.84 395.79 2008.7
693.41 390.36 1981.2
694.73 388.23 1970.3
699.61 388.11 1969.7
703.17 387.25 1965.4
714.03 390.41 1981.4
720.27 391.00 1984.4
730.91 393.97 1999.4
743.31 397.83 2019.1
747.25 397.14 2015.6
758.74 400.45 2032.3
769.26 403.20 2046.3
764.53 397.97 2019.8
755.46 390.58 1982.3
743.05 381.57 1936.5
741.78 378.36 1920.2
768.23 389.23 1975.4
797.07 401.18 2036.0
796.62 398.31 2021.5
787.03 390.94 1984.1
550.34 458.62 2358.6
544.41 448.69 2307.6
545.98 445.10 2289.1
538.02 433.88 2231.4
546.75 436.23 2243.5
562.11 443.77 2282.3
564.38 440.92 2267.6
555.30 429.36 2208.1
547.87 419.29 2156.3
555.57 420.88 2164.6
564.29 423.22 2176.6
559.13 415.20 2135.3
545.73 401.27 2063.7
543.89 396.04 2036.8
554.97 400.22 2058.3
565.37 403.84 2076.9
573.52 405.79 2086.9
568.04 398.16 2047.7
563.97 391.65 2014.2
581.38 400.04 2057.3
598.73 408.23 2099.5
604.32 408.32 2100.0
604.97 405.11 2083.4
600.29 398.42 2049.0
593.21 390.27 2007.1
593.23 386.89 1989.7
595.99 385.34 1981.7
612.41 392.57 2018.9
627.00 398.51 2049.5
629.55 396.77 2040.5
646.07 403.79 2076.7
655.90 403.22 2073.7
637.79 388.90 2000.1
639.50 386.80 1989.2
646.61 387.97 1995.3
650.08 386.95 1990.1
659.06 389.21 2001.7
665.61 390.01 2005.8
672.49 390.98 2010.8
674.68 389.24 2001.8
665.44 380.98 1959.3
654.72 372.00 1913.1
671.35 378.58 1947.0
698.15 390.75 2009.6
701.51 389.73 2004.3
694.05 382.75 1968.4
688.73 377.04 1939.1
699.50 380.16 1955.1
717.35 387.06 1990.6
723.60 387.65 1993.6
733.93 390.39 2007.7
738.53 390.07 2006.1
734.24 385.09 1980.5
753.22 392.30 2017.5
772.71 399.68 2055.5
766.94 393.98 2026.2
757.19 386.32 1986.8
754.30 382.25 1965.8
763.72 384.42 1977.0
788.17 394.08 2026.7
551.26 453.26 2362.6
549.63 446.95 2329.7
554.67 446.15 2325.5
549.09 432.26 2253.1
554.85 432.20 2252.8
548.25 422.61 2202.8
553.88 422.54 2202.4
560.70 423.39 2206.9
558.02 417.11 2174.1
556.41 411.74 2146.1
549.42 402.55 2098.2
534.41 387.71 2020.9
537.29 386.01 2012.0
552.66 393.24 2049.7
558.65 393.72 2052.2
562.05 392.37 2045.2
568.04 392.85 2047.7
576.42 394.96 2058.6
588.06 399.24 2081.0
600.08 403.69 2104.2
602.69 401.79 2094.3
599.76 396.27 2065.5
596.13 390.39 2034.8
589.29 382.52 1993.8
591.81 380.81 1984.9
597.96 381.46 1988.3
600.98 380.11 1981.3
602.82 378.04 1970.5
610.11 379.39 1977.5
630.28 388.68 2025.9
640.09 391.46 2040.4
626.52 380.02 1980.8
615.06 370.04 1928.8
623.83 372.28 1940.5
643.56 380.99 1985.8
659.53 387.34 2019.0
670.12 390.46 2035.2
678.30 392.14 2044.0
681.52 390.95 2037.8
680.00 387.08 2017.6
683.13 385.89 2011.4
683.99 383.45 1998.7
680.30 378.52 1973.0
686.83 379.29 1977.0
698.89 383.09 1996.8
700.24 381.01 1986.0
708.13 382.49 1993.7
731.33 389.34 2029.4
718.54 379.80 1979.7
721.40 378.61 1973.4
718.11 374.23 1950.6
718.47 371.80 1937.9
743.90 382.28 1992.6
769.57 392.75 2047.1
770.75 390.66 2036.2
763.82 384.51 2004.2
763.79 381.89 1990.6
775.75 385.27 2008.2
803.13 396.21 2065.2
856.30 414.16 2158.7
877.21 421.52 2197.1
537.28 440.69 2328.5
537.21 435.74 2302.3
549.20 440.57 2327.9
561.08 445.21 2352.4
556.49 436.81 2308.0
548.18 425.71 2249.4
541.69 416.25 2199.3
537.33 408.60 2158.9
544.53 409.80 2165.3
550.30 409.92 2165.9
547.51 403.72 2133.2
544.81 397.71 2101.4
535.96 387.38 2046.8
534.90 382.82 2022.7
551.99 391.22 2067.1
563.91 395.82 2091.4
565.62 393.24 2077.8
561.78 386.88 2044.2
560.40 382.33 2020.1
570.31 385.49 2036.8
583.51 390.79 2064.8
590.09 391.61 2069.2
586.63 385.80 2038.5
585.75 381.79 2017.3
583.95 377.24 1993.2
581.46 372.34 1967.4
588.97 373.87 1975.4
601.05 378.25 1998.6
610.95 381.19 2014.1
606.25 375.05 1981.7
607.47 372.65 1969.0
615.07 374.16 1977.0
611.79 369.10 1950.2
614.92 367.95 1944.1
619.22 367.50 1941.8
632.23 372.20 1966.6
655.67 382.91 2023.2
660.43 382.63 2021.7
661.48 380.22 2009.0
670.84 382.59 2021.5
675.26 382.12 2019.1
673.69 378.30 1998.9
676.46 376.96 1991.8
686.20 379.49 2005.1
690.22 378.84 2001.7
687.44 374.50 1978.8
690.41 373.33 1972.6
707.09 379.54 2005.4
714.62 375.30 1983.0
711.12 370.80 1959.2
724.41 375.05 1981.7
721.81 371.07 1960.7
723.56 369.37 1951.7
738.01 374.13 1976.8
751.88 378.53 2000.1
763.76 381.88 2017.8
768.70 381.73 2017.0
772.92 381.24 2014.4
789.20 386.66 2043.0
859.01 412.55 2179.8
873.72 416.87 2202.7
543.94 440.04 2357.4
546.84 437.47 2343.6
546.28 432.22 2315.5
545.81 427.16 2288.3
544.28 421.38 2257.4
540.03 413.64 2215.9
534.64 405.20 2170.7
530.68 398.01 2132.2
535.65 397.60 2130.0
538.67 395.76 2120.1
538.46 391.60 2097.9
538.13 387.46 2075.7
534.71 381.18 2042.0
538.91 380.41 2037.9
559.09 390.82 2093.7
573.90 397.31 2128.5
568.19 389.62 2087.2
556.55 378.03 2025.2
558.01 375.49 2011.5
571.62 381.08 2041.5
582.43 384.72 2061.0
586.84 384.11 2057.8
581.98 377.50 2022.3
579.70 372.66 1996.4
581.71 370.65 1985.6
583.39 368.46 1973.9
601.04 376.30 2015.9
623.43 386.95 2073.0
630.36 387.92 2078.1
622.06 379.56 2033.4
609.47 368.76 1975.5
605.09 363.06 1944.9
600.57 357.36 1914.4
601.53 355.00 1901.8
621.28 363.67 1948.3
648.17 376.36 2016.2
663.54 382.20 2047.5
661.02 377.72 2023.5
654.37 370.98 1987.4
655.93 368.96 1976.6
664.93 371.12 1988.2
666.74 369.27 1978.3
674.84 370.91 1987.0
689.36 376.01 2014.4
685.70 371.20 1988.6
675.13 362.76 1943.3
678.33 361.78 1938.1
695.27 368.08 1971.9
707.73 371.95 1992.6
702.38 366.46 1963.2
701.90 363.57 1947.7
718.81 369.67 1980.4
722.01 368.68 1975.1
709.18 359.58 1926.3
710.51 357.74 1916.5
724.88 362.44 1941.6
745.60 370.23 1983.4
767.21 378.35 2026.9
776.38 380.27 2037.2
786.65 382.70 2050.2
796.27 384.78 2061.3
810.93 389.25 2085.3
844.19 399.88 2142.2
859.18 404.32 2166.0
872.09 407.73 2184.3
542.41 432.71 2350.7
549.10 433.18 2353.3
552.40 430.99 2341.4
543.54 419.47 2278.8
534.60 408.13 2217.2
526.75 397.87 2161.4
517.45 386.73 2100.9
516.17 381.75 2073.9
523.40 383.11 2081.3
531.63 385.16 2092.4
536.73 384.93 2091.2
537.63 381.71 2073.7
535.94 376.75 2046.7
540.15 375.99 2042.6
559.84 385.91 2096.5
574.66 392.32 2131.3
569.47 385.07 2091.9
567.48 380.11 2065.0
579.05 384.23 2087.4
577.44 379.62 2062.3
571.97 372.56 2024.0
581.96 375.63 2040.6
583.59 373.29 2027.9
580.49 367.99 1999.2
581.41 365.31 1984.6
579.45 360.89 1960.6
593.14 366.20 1989.4
610.08 373.41 2028.6
611.48 371.07 2015.9
613.97 369.42 2006.9
612.06 365.18 1983.9
595.40 352.28 1913.8
580.77 340.78 1851.3
596.44 347.11 1885.7
630.52 363.96 1977.2
643.32 368.35 2001.1
645.90 366.87 1993.1
646.61 364.36 1979.4
642.33 359.10 1950.8
644.11 357.28 1940.9
651.46 358.56 1947.9
653.49 356.91 1938.9
660.87 358.18 1945.9
681.67 366.66 1991.9
684.38 365.34 1984.8
677.99 359.24 1951.6
684.47 359.98 1955.6
689.33 359.87 1955.0
690.55 357.88 1944.2
703.00 361.69 1964.9
720.89 368.23 2000.4
715.41 362.81 1971.0
702.32 351.16 1907.7
727.93 361.42 1963.4
731.38 360.61 1959.1
740.71 362.69 1970.4
762.64 370.87 2014.8
772.14 372.94 2026.0
778.50 373.47 2028.9
783.45 373.32 2028.1
798.40 377.91 2053.0
815.26 383.33 2082.5
836.58 390.77 2122.9
858.44 398.36 2164.1
863.30 398.01 2162.3
531.36 417.92 2302.8
526.06 409.16 2254.6
538.85 414.50 2284.0
539.21 410.27 2260.6
526.52 396.31 2183.7
515.09 383.58 2113.6
518.85 382.31 2106.6
529.00 385.73 2125.5
535.64 386.54 2129.9
543.75 388.39 2140.1
543.33 384.17 2116.9
539.09 377.37 2079.4
541.90 375.58 2069.5
550.46 377.76 2081.6
561.10 381.33 2101.2
565.93 380.92 2098.9
568.94 379.29 2090.0
575.82 380.26 2095.3
581.93 380.70 2097.7
574.24 372.19 2050.8
566.32 363.69 2004.0
572.75 364.48 2008.4
586.02 369.56 2036.4
595.85 372.41 2052.0
596.05 369.24 2034.6
594.50 365.04 2011.5
595.64 362.56 1997.8
598.70 361.29 1990.8
605.16 362.06 1995.0
612.79 363.52 2003.1
613.48 360.87 1988.5
599.75 349.85 1927.8
585.44 338.68 1866.2
602.33 345.60 1904.3
637.07 362.56 1997.8
649.62 366.72 2020.7
647.69 362.71 1998.6
643.82 357.68 1970.9
648.14 357.24 1968.5
658.03 359.86 1982.9
662.04 359.25 1979.5
660.37 355.59 1959.4
661.78 353.62 1948.5
675.57 358.26 1974.1
687.23 361.70 1993.0
689.27 360.07 1984.0
688.01 356.75 1965.7
684.69 352.42 1941.9
682.58 348.77 1921.8
691.34 350.68 1932.3
717.18 361.17 1990.1
720.41 360.20 1984.8
704.66 349.83 1927.6
719.30 354.58 1953.8
738.85 361.67 1992.9
736.51 358.02 1972.8
742.05 358.23 1973.9
759.11 363.96 2005.5
776.31 369.67 2037.0
790.12 373.70 2059.2
781.99 367.38 2024.3
781.93 364.90 2010.7
854.99 393.74 2169.6
539.56 418.31 2338.4
518.46 397.48 2222.0
515.78 391.09 2186.2
528.70 396.52 2216.6
527.90 391.67 2189.5
526.04 386.14 2158.5
537.92 390.70 2184.1
538.27 386.88 2162.7
534.66 380.33 2126.1
535.49 377.03 2107.6
528.62 368.43 2059.6
532.40 367.35 2053.5
543.88 371.56 2077.1
548.67 371.16 2074.8
554.72 371.61 2077.3
562.07 372.91 2084.6
567.37 372.84 2084.2
574.23 373.79 2089.5
580.33 374.23 2092.0
576.87 368.56 2060.2
572.72 362.55 2026.7
570.56 357.90 2000.7
573.73 356.64 1993.7
589.78 363.35 2031.1
597.69 364.96 2040.2
593.07 358.96 2006.6
590.82 354.49 1981.6
602.07 358.13 2002.0
616.28 363.45 2031.7
609.87 356.62 1993.5
596.88 346.09 1934.7
612.00 351.90 1967.2
623.74 355.69 1988.3
612.69 346.52 1937.1
621.16 348.45 1947.9
632.08 351.72 1966.2
628.20 346.77 1938.5
639.49 350.20 1957.6
657.35 357.14 1996.4
665.13 358.55 2004.3
667.32 356.94 1995.3
671.35 356.33 1991.9
679.17 357.73 1999.7
677.12 353.95 1978.6
672.72 349.01 1951.0
688.90 354.73 1983.0
701.97 358.78 2005.6
691.86 351.02 1962.2
682.20 343.59 1920.7
691.28 345.64 1932.2
717.13 355.99 1990.0
729.11 359.35 2008.8
723.23 353.92 1978.4
726.74 353.13 1974.0
735.03 354.66 1982.6
735.07 352.22 1969.0
744.08 354.08 1979.3
761.50 359.89 2011.8
779.78 366.02 2046.1
802.09 373.95 2090.4
802.56 371.66 2077.6
799.75 367.89 2056.5
827.77 378.25 2114.5
528.53 408.41 2316.6
538.01 411.07 2331.7
538.16 406.61 2306.4
519.62 388.29 2202.5
518.86 383.50 2175.3
528.12 386.16 2190.4
535.36 387.28 2196.8
537.91 385.03 2184.0
529.69 375.20 2128.2
526.71 369.24 2094.4
527.94 366.33 2077.9
525.41 360.89 2047.1
533.86 363.02 2059.2
539.86 363.47 2061.7
540.08 360.06 2042.3
546.56 360.84 2046.8
553.32 361.79 2052.1
560.36 362.90 2058.4
568.73 364.84 2069.5
584.26 371.31 2106.1
591.20 372.24 2111.4
572.15 356.94 2024.6
554.30 342.66 1943.7
559.52 342.77 1944.3
576.82 350.21 1986.5
572.43 344.47 1953.9
554.47 330.73 1876.0
572.47 338.50 1920.1
606.30 355.42 2016.0
613.96 356.83 2024.0
601.18 346.44 1965.1
589.85 337.06 1911.9
607.27 344.12 1952.0
621.34 349.18 1980.7
612.94 341.64 1937.9
605.53 334.76 1898.9
600.95 329.55 1869.3
613.25 333.61 1892.3
639.14 344.93 1956.6
648.67 347.32 1970.1
649.24 344.91 1956.4
657.26 346.46 1965.2
667.53 349.17 1980.6
673.73 349.72 1983.7
670.37 345.34 1958.9
668.81 341.95 1939.6
687.88 349.08 1980.0
708.12 356.68 2023.2
705.91 352.95 2002.1
700.96 347.92 1973.5
715.48 352.56 1999.8
722.43 353.42 2004.7
714.25 346.92 1967.8
718.09 346.31 1964.4
732.82 350.93 1990.6
741.49 352.60 2000.0
740.89 349.86 1984.5
754.44 353.81 2006.9
776.82 361.81 2052.3
785.35 363.29 2060.7
797.81 366.56 2079.2
813.19 371.12 2105.1
828.32 375.50 2130.0
843.92 380.04 2155.7
869.76 389.10 2207.1
529.41 403.08 2320.5
540.90 407.19 2344.2
547.35 407.47 2345.8
529.60 385.68 2220.4
533.43 384.30 2212.4
523.91 373.43 2149.8
511.96 361.07 2078.6
522.53 364.68 2099.4
537.52 371.27 2137.4
539.57 368.89 2123.7
537.64 363.86 2094.7
534.82 358.33 2062.9
529.35 351.15 2021.5
533.50 350.44 2017.4
544.50 354.19 2039.0
557.14 358.93 2066.3
570.17 363.82 2094.5
559.81 353.84 2037.0
554.44 347.18 1998.7
573.09 355.53 2046.8
569.17 349.85 2014.1
555.61 338.42 1948.3
565.20 341.16 1964.0
564.13 337.47 1942.8
539.11 319.65 1840.2
542.95 319.10 1837.0
584.82 340.72 1961.5
606.26 350.17 2015.9
600.18 343.69 1978.6
593.91 337.22 1941.4
590.67 332.56 1914.5
598.73 334.29 1924.5
604.17 334.54 1925.9
603.37 331.36 1907.6
603.97 328.99 1894.0
602.40 325.49 1873.8
615.32 329.81 1898.7
636.02 338.20 1947.0
641.83 338.60 1949.3
637.38 333.63 1920.7
640.62 332.73 1915.5
658.02 339.13 1952.4
671.14 343.26 1976.1
668.71 339.42 1954.0
668.11 336.57 1937.6
677.14 338.57 1949.1
688.51 341.70 1967.2
693.06 341.43 1965.6
694.96 339.87 1956.6
706.46 342.99 1974.6
710.33 342.39 1971.1
707.80 338.73 1950.0
717.02 340.71 1961.4
724.92 342.04 1969.1
725.65 339.99 1957.3
743.93 346.14 1992.7
778.35 359.65 2070.5
823.97 375.55 2162.0
830.29 375.88 2163.9
839.11 377.32 2172.2
853.68 381.31 2195.2
862.86 380.34 2189.6
864.51 378.58 2179.4
528.76 396.57 2317.6
533.80 395.86 2313.4
523.71 371.66 2172.1
504.74 354.39 2071.1
500.38 347.63 2031.6
517.26 355.62 2078.3
526.67 358.35 2094.3
523.28 352.41 2059.5
531.24 354.16 2069.8
538.01 355.09 2075.2
531.06 347.03 2028.1
533.97 345.51 2019.2
547.52 350.84 2050.4
563.27 357.46 2089.1
570.14 358.37 2094.4
553.24 344.47 2013.1
540.16 333.18 1947.2
551.24 336.87 1968.7
564.83 342.01 1998.8
570.99 342.59 2002.2
581.25 345.61 2019.8
581.69 342.78 2003.3
557.36 325.54 1902.5
561.07 324.83 1898.3
577.72 331.56 1937.7
571.54 325.19 1900.5
576.35 325.12 1900.1
580.87 324.89 1898.7
581.89 322.73 1886.1
593.69 326.53 1908.3
599.68 327.10 1911.6
598.55 323.80 1892.4
602.41 323.25 1889.1
603.24 321.08 1876.4
610.39 322.29 1883.5
626.16 327.99 1916.8
635.91 330.47 1931.3
634.52 327.18 1912.1
651.21 333.18 1947.1
680.98 345.73 2020.5
674.58 339.86 1986.2
654.27 327.14 1911.8
665.48 330.24 1930.0
686.48 338.12 1976.0
690.73 337.69 1973.5
688.08 333.92 1951.5
691.92 333.34 1948.1
705.07 337.21 1970.7
714.96 339.48 1984.0
717.84 338.41 1977.7
720.00 337.02 1969.6
719.40 334.37 1954.1
722.16 333.30 1947.9
743.18 340.63 1990.7
768.92 349.99 2045.4
787.56 356.02 2080.6
825.30 368.04 2150.9
839.78 371.98 2173.9
870.66 375.58 2194.9
529.76 395.80 2348.7
513.92 367.08 2178.3
515.15 363.96 2159.8
508.42 355.35 2108.7
503.31 348.03 2065.3
511.44 349.93 2076.5
517.71 350.53 2080.1
516.29 345.97 2053.0
523.97 347.53 2062.3
543.23 356.67 2116.5
550.36 357.74 2122.8
544.27 350.28 2078.6
542.00 345.39 2049.6
549.52 346.79 2057.8
555.02 346.89 2058.5
551.44 341.37 2025.7
549.80 337.14 2000.6
553.04 335.96 1993.6
560.24 337.18 2000.9
569.89 339.84 2016.6
569.86 336.74 1998.2
573.57 335.87 1993.1
575.87 334.21 1983.2
556.47 320.09 1899.4
559.61 319.08 1893.4
575.41 325.23 1930.0
574.33 321.82 1909.7
583.46 324.14 1923.5
591.21 325.67 1932.5
594.92 324.96 1928.3
602.43 326.31 1936.4
605.24 325.13 1929.3
590.44 314.58 1866.7
580.45 306.74 1820.2
606.19 317.76 1885.6
635.90 330.67 1962.2
639.89 330.10 1958.9
640.48 327.80 1945.2
632.59 321.24 1906.3
642.38 323.68 1920.7
667.99 334.00 1982.0
658.32 326.65 1938.4
653.88 321.99 1910.7
681.51 333.07 1976.4
693.22 336.26 1995.4
688.39 331.45 1966.8
698.85 334.01 1982.0
715.99 339.70 2015.8
714.32 336.45 1996.5
707.86 331.02 1964.3
713.73 331.37 1966.4
718.58 331.26 1965.7
726.84 332.71 1974.3
739.60 336.18 1994.9
742.77 335.28 1989.6
747.66 335.16 1988.8
771.07 343.28 2037.1
836.54 364.93 2165.5
847.16 367.10 2178.4
850.28 366.01 2172.0
503.15 357.80 2156.4
505.96 355.84 2144.6
514.67 358.03 2157.8
516.95 355.75 2144.1
518.94 353.32 2129.4
517.07 348.34 2099.4
513.62 342.41 2063.7
522.51 344.75 2077.7
540.71 353.12 2128.2
543.20 351.16 2116.4
533.73 341.59 2058.7
539.74 342.01 2061.2
549.29 344.65 2077.1
549.48 341.43 2057.7
547.27 336.78 2029.7
548.03 334.04 2013.2
551.06 332.72 2005.2
553.26 330.92 1994.4
557.80 330.55 1992.1
557.22 327.18 1971.8
546.79 318.14 1917.3
545.93 314.77 1897.1
543.60 310.63 1872.1
541.97 306.96 1850.0
563.47 316.33 1906.5
566.89 315.49 1901.4
555.21 306.32 1846.1
581.10 317.87 1915.7
606.17 328.77 1981.4
591.37 318.05 1916.8
580.65 309.68 1866.4
585.37 309.61 1866.0
574.29 301.26 1815.7
580.07 301.83 1819.0
619.73 319.86 1927.7
651.37 333.50 2009.9
657.62 334.03 2013.1
658.02 331.60 1998.5
651.19 325.60 1962.3
634.47 314.78 1897.1
634.49 312.36 1882.5
645.87 315.54 1901.7
661.81 320.88 1933.9
671.14 322.95 1946.4
666.57 318.36 1918.7
679.83 322.29 1942.4
707.00 332.70 2005.1
719.89 336.30 2026.8
714.58 331.40 1997.3
703.10 323.73 1951.1
701.86 320.85 1933.7
715.80 324.90 1958.1
733.25 330.48 1991.7
744.34 333.13 2007.7
746.16 331.63 1998.6
750.02 331.04 1995.1
771.35 338.13 2037.8
844.68 362.82 2186.6
506.03 358.20 2193.1
501.55 351.09 2149.5
511.15 353.87 2166.6
516.47 353.67 2165.3
515.54 349.23 2138.2
522.42 350.13 2143.7
524.83 348.05 2130.9
523.12 343.30 2101.8
533.08 346.23 2119.7
540.92 347.74 2129.0
533.34 339.40 2078.0
524.77 330.60 2024.1
530.94 331.18 2027.6
546.22 337.37 2065.5
552.25 337.78 2068.0
547.22 331.49 2029.5
545.65 327.39 2004.4
537.14 319.24 1954.6
526.80 310.17 1899.0
544.16 317.43 1943.4
556.09 321.41 1967.8
550.26 315.15 1929.5
554.61 314.78 1927.2
558.96 314.41 1925.0
564.40 314.66 1926.5
569.28 314.60 1926.1
556.66 304.95 1867.1
550.01 298.71 1828.9
579.60 312.09 1910.8
600.91 320.83 1964.2
584.31 309.34 1893.9
570.31 299.41 1833.1
571.69 297.66 1822.4
577.78 298.36 1826.7
599.50 307.06 1880.0
609.38 309.60 1895.5
613.23 309.07 1892.2
634.55 317.28 1942.5
649.00 321.94 1971.1
653.61 321.70 1969.6
648.19 316.56 1938.1
649.56 314.79 1927.3
661.36 318.06 1947.3
669.10 319.34 1955.2
671.06 317.87 1946.2
673.63 316.71 1939.0
693.47 323.62 1981.3
704.30 326.26 1997.5
701.64 322.65 1975.4
707.52 323.00 1977.6
707.39 320.61 1962.9
701.44 315.65 1932.5
709.27 316.91 1940.3
731.13 324.38 1986.0
747.70 329.41 2016.8
753.35 329.59 2017.9
760.38 330.37 2022.7
764.29 329.79 2019.1
775.56 332.38 2035.0
803.91 342.20 2095.1
835.37 353.21 2162.5
849.93 356.97 2185.5
524.95 374.10 2327.4
509.78 355.13 2209.3
508.48 350.29 2179.2
512.03 348.85 2170.3
512.09 345.10 2147.0
512.03 341.35 2123.6
519.81 342.85 2133.0
523.62 341.73 2126.0
523.09 337.83 2101.7
523.88 334.85 2083.2
522.40 330.50 2056.1
525.69 329.22 2048.1
527.95 327.33 2036.4
531.64 326.36 2030.3
544.41 330.91 2058.7
553.99 333.47 2074.6
552.58 329.42 2049.4
548.97 324.15 2016.6
538.65 315.06 1960.1
530.17 307.20 1911.2
549.17 315.26 1961.3
561.68 319.49 1987.6
556.97 313.93 1953.0
566.30 316.31 1967.8
575.98 318.85 1983.6
567.11 311.16 1935.8
556.89 302.87 1884.2
560.26 302.05 1879.1
570.15 304.73 1895.8
579.82 307.26 1911.5
581.76 305.67 1901.6
587.44 306.06 1904.1
595.48 307.66 1914.0
587.88 301.23 1874.0
585.75 297.67 1851.9
597.02 300.94 1872.2
597.20 298.60 1857.7
603.40 299.29 1861.9
626.19 308.13 1916.9
640.58 312.72 1945.5
645.45 312.64 1945.0
649.06 311.95 1940.7
658.96 314.27 1955.1
672.10 318.09 1978.9
680.23 319.50 1987.7
680.33 317.15 1973.0
681.34 315.25 1961.2
696.34 319.80 1989.5
703.24 320.60 1994.5
694.28 314.20 1954.7
693.46 311.55 1938.2
697.59 311.15 1935.7
695.96 308.21 1917.4
708.51 311.54 1938.2
736.86 321.73 2001.5
756.22 327.87 2039.8
764.34 329.09 2047.3
769.01 328.82 2045.6
768.76 326.46 2031.0
767.74 323.81 2014.5
783.29 328.14 2041.4
516.08 345.95 2187.5
515.04 341.49 2159.3
513.85 337.04 2131.2
523.52 339.73 2148.2
529.25 339.84 2148.8
523.76 332.81 2104.4
519.50 326.70 2065.8
517.00 321.80 2034.8
519.01 319.79 2022.1
528.39 322.32 2038.1
539.36 325.75 2059.8
536.02 320.56 2027.0
529.20 313.41 1981.8
540.18 316.83 2003.4
549.70 319.35 2019.3
546.45 314.47 1988.4
545.70 311.10 1967.1
544.84 307.73 1945.9
537.69 300.91 1902.7
540.37 299.66 1894.8
556.40 305.77 1933.4
568.75 309.77 1958.7
563.43 304.15 1923.2
550.65 294.65 1863.1
550.01 291.75 1844.8
556.97 292.89 1852.0
563.68 293.88 1858.3
574.17 296.82 1876.8
589.12 301.98 1909.5
600.98 305.50 1931.7
597.56 301.25 1904.9
585.66 292.83 1851.6
586.43 290.83 1839.0
605.59 297.91 1883.7
629.53 307.21 1942.6
634.71 307.28 1943.0
631.54 303.34 1918.0
637.90 304.00 1922.2
643.02 304.06 1922.6
651.93 305.91 1934.3
664.07 309.22 1955.3
676.63 312.68 1977.2
680.90 312.29 1974.7
680.61 309.83 1959.1
694.63 313.87 1984.7
706.46 316.87 2003.6
702.48 312.78 1977.8
701.70 310.17 1961.3
705.55 309.63 1957.8
713.76 311.00 1966.5
737.63 319.12 2017.8
747.72 321.20 2031.0
745.14 317.86 2009.9
749.73 317.60 2008.2
749.44 315.28 1993.6
755.37 315.60 1995.6
764.84 317.38 2006.9
771.87 318.14 2011.6
782.13 320.20 2024.7
518.55 341.90 2197.9
519.59 338.86 2178.4
509.41 328.65 2112.7
511.54 326.52 2099.0
526.38 332.45 2137.2
528.98 330.61 2125.3
530.79 328.32 2110.7
533.99 326.93 2101.7
531.25 321.97 2069.8
535.79 321.47 2066.6
538.06 319.64 2054.8
525.60 309.18 1987.6
517.41 301.40 1937.6
527.25 304.18 1955.5
538.99 307.99 1980.0
538.27 304.68 1958.7
530.83 297.66 1913.6
523.98 291.10 1871.3
524.18 288.54 1854.9
532.43 290.42 1867.0
542.65 293.33 1885.7
549.10 294.16 1891.0
546.40 290.12 1865.1
535.72 281.96 1812.6
549.93 286.92 1844.5
572.56 296.15 1903.8
567.90 291.23 1872.2
566.56 288.08 1852.0
567.46 286.11 1839.3
565.94 282.97 1819.1
579.42 287.32 1847.0
583.19 286.82 1843.8
587.84 286.75 1843.4
608.84 294.60 1893.8
622.14 298.62 1919.7
617.12 293.87 1889.1
621.24 293.50 1886.8
634.70 297.51 1912.6
645.76 300.35 1930.8
661.01 305.08 1961.2
670.35 307.03 1973.8
680.39 309.27 1988.2
685.34 309.17 1987.5
685.40 306.90 1972.9
692.91 307.96 1979.8
698.15 308.01 1980.1
701.07 307.04 1973.8
706.95 307.37 1976.0
710.16 306.54 1970.6
717.72 307.60 1977.4
737.55 313.85 2017.6
742.17 313.59 2016.0
735.43 308.57 1983.7
734.42 306.01 1967.2
747.26 309.21 1987.8
769.30 316.15 2032.4
824.96 334.44 2150.0
832.68 335.31 2155.6
509.06 333.72 2181.7
509.88 330.58 2161.2
516.34 331.13 2164.8
510.99 324.17 2119.3
508.45 319.13 2086.4
519.00 322.33 2107.2
522.96 321.40 2101.2
526.16 320.04 2092.2
530.05 319.11 2086.2
528.24 314.81 2058.1
524.81 309.64 2024.3
518.71 303.01 1980.9
524.27 303.26 1982.5
533.93 305.84 1999.5
535.94 304.04 1987.7
538.93 302.83 1979.7
541.87 301.61 1971.8
538.43 296.89 1940.9
535.64 292.62 1913.0
538.89 291.70 1907.0
537.78 288.44 1885.7
538.47 286.21 1871.1
548.47 288.93 1888.9
549.38 286.84 1875.2
536.19 277.50 1814.2
547.30 280.79 1835.7
564.79 287.26 1878.0
556.04 280.40 1833.1
551.43 275.71 1802.5
580.22 282.92 1849.6
589.37 285.02 1863.3
598.87 287.26 1878.0
604.21 287.49 1879.4
602.53 284.39 1859.2
606.89 284.18 1857.8
620.22 288.14 1883.7
644.27 296.97 1941.4
666.39 304.78 1992.5
667.56 302.97 1980.7
664.22 299.15 1955.7
673.58 301.07 1968.3
677.51 300.55 1964.9
675.57 297.45 1944.6
681.71 297.93 1947.7
689.18 298.98 1954.6
694.35 299.03 1954.9
705.20 301.50 1971.0
712.75 302.54 1977.8
708.18 298.45 1951.1
714.69 299.06 1955.1
740.38 307.62 2011.1
757.02 312.34 2041.9
748.18 306.54 2004.0
750.30 305.30 1995.9
512.99 334.31 2223.2
503.40 324.41 2157.4
506.43 322.78 2146.6
514.92 324.62 2158.8
510.94 318.65 2119.1
509.57 314.42 2091.0
517.06 315.68 2099.3
517.89 312.89 2080.8
511.63 305.92 2034.5
505.87 299.39 1991.0
508.75 298.06 1982.2
510.35 296.00 1968.5
511.12 293.52 1952.0
523.96 297.94 1981.3
533.87 300.62 1999.2
535.36 298.57 1985.5
538.08 297.23 1976.6
540.23 295.60 1965.8
546.30 296.12 1969.3
552.37 296.64 1972.8
552.54 294.01 1955.3
548.83 289.38 1924.5
544.14 284.32 1890.8
549.50 284.56 1892.4
560.70 287.79 1913.9
559.66 284.74 1893.6
556.83 280.84 1867.6
559.57 279.78 1860.6
557.10 276.17 1836.6
558.28 274.41 1824.9
567.57 276.63 1839.7
587.81 284.11 1889.4
595.24 285.32 1897.5
590.47 280.71 1866.8
610.21 287.74 1913.6
624.72 292.21 1943.2
620.74 288.02 1915.4
622.17 286.39 1904.6
630.35 287.88 1914.4
649.17 294.16 1956.2
655.32 294.64 1959.4
641.23 286.09 1902.6
650.13 287.84 1914.2
671.57 295.08 1962.4
672.58 293.31 1950.6
668.33 289.28 1923.8
677.04 290.88 1934.4
687.77 293.31 1950.6
694.26 293.92 1954.6
706.10 296.77 1973.6
716.35 298.91 1987.8
714.50 296.01 1968.5
719.02 295.77 1966.9
741.99 303.07 2015.5
762.44 309.24 2056.5
758.13 305.36 2030.7
746.73 298.69 1986.4
767.37 304.85 2027.3
505.16 323.53 2189.3
498.18 315.51 2135.1
504.11 315.76 2136.7
513.50 318.14 2152.9
510.43 312.84 2117.0
502.96 304.99 2063.8
504.70 302.82 2049.1
510.90 303.35 2052.7
509.16 299.20 2024.6
505.08 293.77 1987.9
509.92 293.59 1986.7
517.73 295.11 1997.0
525.60 296.62 2007.2
530.47 296.44 2006.0
533.03 294.98 1996.1
528.85 289.85 1961.4
525.27 285.15 1929.6
524.42 282.00 1908.3
527.17 280.83 1900.3
539.22 284.59 1925.8
544.93 284.96 1928.3
549.02 284.49 1925.1
552.82 283.88 1921.0
550.24 280.03 1895.0
553.10 279.00 1888.0
556.77 278.39 1883.8
559.00 277.07 1874.9
568.89 279.54 1891.6
574.25 279.76 1893.1
576.72 278.59 1885.2
587.32 281.32 1903.7
598.01 284.06 1922.2
596.34 280.92 1901.0
592.17 276.67 1872.2
610.72 283.02 1915.2
630.69 289.91 1961.8
632.56 288.45 1951.9
638.68 288.93 1955.1
650.07 291.77 1974.4
654.70 291.54 1972.9
645.80 285.35 1931.0
635.76 278.76 1886.3
649.07 282.42 1911.1
676.93 292.31 1978.0
684.43 293.33 1984.9
673.43 286.46 1938.5
675.63 285.27 1930.4
680.43 285.18 1929.8
680.57 283.16 1916.1
699.34 288.86 1954.7
715.92 293.58 1986.6
714.74 291.00 1969.2
719.26 290.76 1967.6
737.11 295.88 2002.2
752.36 299.89 2029.3
753.87 298.41 2019.3
749.76 294.73 1994.4
763.07 297.91 2015.9
507.12 319.09 2197.8
512.98 319.19 2198.5
508.84 313.13 2156.8
510.00 310.44 2138.2
511.07 307.74 2119.6
507.36 302.25 2081.9
512.45 302.08 2080.6
522.08 304.55 2097.7
521.89 301.30 2075.3
520.37 297.36 2048.1
524.13 296.48 2042.1
531.09 297.41 2048.5
531.55 294.72 2030.0
529.13 290.51 2000.9
533.47 290.04 1997.8
531.61 286.25 1971.6
527.01 281.07 1936.0
524.60 277.15 1908.9
520.73 272.53 1877.1
526.05 272.77 1878.8
532.19 273.42 1883.2
536.44 273.10 1881.0
544.79 274.85 1893.1
547.39 273.70 1885.1
556.63 275.85 1900.0
566.79 278.42 1917.7
558.91 272.17 1874.6
557.67 269.22 1854.3
568.41 272.06 1873.9
577.21 273.93 1886.8
589.28 277.31 1910.0
600.57 280.27 1930.4
604.84 279.93 1928.1
607.30 278.76 1920.0
608.52 277.05 1908.3
611.80 276.30 1903.1
625.74 280.33 1930.9
643.20 285.87 1969.0
648.74 286.06 1970.3
646.80 282.98 1949.1
650.73 282.49 1945.7
652.74 281.18 1936.7
649.61 277.70 1912.7
661.12 280.47 1931.8
683.69 287.87 1982.8
686.99 287.10 1977.5
674.55 279.81 1927.3
663.85 273.35 1882.8
664.88 271.78 1871.9
684.55 277.79 1913.3
704.07 283.65 1953.7
705.51 282.20 1943.8
706.91 280.76 1933.8
720.58 284.17 1957.3
745.72 292.03 2011.4
758.97 295.16 2033.0
763.26 294.77 2030.3
498.13 311.33 2183.4
501.06 309.64 2171.5
517.89 316.49 2219.5
521.75 315.34 2211.5
516.38 308.71 2165.0
512.64 303.17 2126.2
505.19 295.59 2073.0
507.18 293.63 2059.2
521.79 298.94 2096.5
526.66 298.62 2094.2
521.28 292.56 2051.7
521.85 289.92 2033.2
530.52 291.79 2046.3
531.98 289.69 2031.6
536.66 289.38 2029.4
547.97 292.60 2052.0
546.23 288.87 2025.9
541.24 283.51 1988.2
538.95 279.65 1961.2
534.95 274.97 1928.4
529.71 269.76 1891.8
525.10 264.96 1858.1
530.10 265.05 1858.8
539.22 267.18 1873.7
543.43 266.86 1871.5
554.04 269.66 1891.1
568.66 274.36 1924.1
566.18 270.78 1899.0
561.57 266.26 1867.3
568.03 267.02 1872.6
573.34 267.24 1874.1
581.00 268.53 1883.2
586.05 268.61 1883.7
584.58 265.72 1863.5
593.46 267.54 1876.3
601.80 269.10 1887.2
608.06 269.71 1891.4
624.42 274.75 1926.8
638.80 278.84 1955.5
641.52 277.82 1948.4
641.71 275.74 1933.7
647.49 276.06 1936.0
652.32 275.98 1935.5
652.05 273.76 1919.9
653.63 272.35 1910.0
666.47 275.61 1932.8
682.66 280.20 1965.0
682.63 278.11 1950.4
675.93 273.35 1917.0
681.02 273.40 1917.4
690.78 275.31 1930.7
700.60 277.21 1944.1
705.06 276.99 1942.5
709.52 276.76 1940.9
720.13 278.92 1956.1
741.48 285.18 2000.0
760.95 290.64 2038.3
772.92 293.18 2056.0
781.10 294.25 2063.6
777.32 290.83 2039.6
789.04 293.23 2056.4
512.82 311.15 2222.5
516.94 310.16 2215.4
517.83 307.29 2194.9
509.89 299.28 2137.7
506.54 294.12 2100.9
499.73 287.08 2050.6
497.16 282.60 2018.6
507.60 285.53 2039.5
515.72 287.10 2050.7
513.65 283.03 2021.7
507.98 277.08 1979.1
510.56 275.70 1969.3
528.15 282.37 2017.0
548.24 290.25 2073.2
557.87 292.47 2089.1
554.41 287.87 2056.2
545.59 280.59 2004.2
538.87 274.52 1960.9
537.77 271.40 1938.6
535.49 267.75 1912.5
537.67 266.37 1902.6
549.58 269.79 1927.1
544.61 264.94 1892.5
534.22 257.57 1839.8
540.29 258.19 1844.2
550.31 260.67 1862.0
556.17 261.16 1865.4
560.61 260.98 1864.1
571.95 263.98 1885.6
581.65 266.18 1901.3
580.32 263.34 1881.0
576.23 259.30 1852.2
583.58 260.44 1860.3
600.53 265.81 1898.6
606.51 266.27 1902.0
610.99 266.08 1900.5
618.82 267.33 1909.5
624.84 267.79 1912.8
629.33 267.59 1911.3
630.68 266.07 1900.5
640.78 268.23 1916.0
650.95 270.40 1931.4
650.35 268.08 1914.9
651.92 266.69 1905.0
668.30 271.34 1938.1
688.08 277.29 1980.6
693.00 277.20 1980.0
691.64 274.62 1961.6
700.48 276.10 1972.2
714.04 279.41 1995.8
713.93 277.35 1981.1
708.67 273.34 1952.5
714.85 273.77 1955.5
727.89 276.80 1977.2
744.13 281.00 2007.1
758.07 284.28 2030.5
765.14 284.95 2035.3
768.36 284.19 2029.9
777.21 285.51 2039.3
803.50 293.17 2094.1
519.81 306.11 2227.8
511.18 297.72 2166.7
507.99 292.65 2129.8
509.27 290.23 2112.2
514.21 289.93 2110.0
522.22 291.34 2120.3
510.17 281.65 2049.8
497.52 271.84 1978.4
510.89 276.30 2010.8
520.22 278.50 2026.9
512.97 271.87 1978.6
521.04 273.42 1989.8
533.98 277.46 2019.2
535.80 275.70 2006.5
539.89 275.13 2002.3
539.26 272.20 1980.9
532.48 266.24 1937.6
531.06 263.05 1914.4
537.81 263.92 1920.7
548.90 266.90 1942.4
550.84 265.41 1931.5
536.56 256.19 1864.5
536.00 251.40 1829.6
540.94 251.49 1830.2
541.62 249.62 1816.6
552.51 252.44 1837.2
570.12 258.26 1879.5
579.81 260.42 1895.3
578.46 257.63 1875.0
581.72 256.93 1869.8
595.94 261.03 1899.7
612.38 266.04 1936.1
618.15 266.36 1938.5
625.45 267.33 1945.5
636.44 269.85 1963.9
629.05 264.60 1925.7
619.61 258.58 1881.8
621.82 257.47 1873.8
633.12 260.12 1893.1
652.11 265.86 1934.8
659.81 266.94 1942.7
661.76 265.70 1933.7
678.21 270.26 1966.9
685.05 270.95 1971.9
677.49 265.98 1935.7
686.25 267.44 1946.3
705.02 272.74 1984.9
714.27 274.32 1996.4
709.45 270.51 1968.7
697.39 264.01 1921.4
696.68 261.87 1905.8
713.04 266.13 1936.8
732.29 271.41 1975.2
746.51 274.76 1999.6
754.21 275.68 2006.3
770.36 279.65 2035.2
796.88 287.31 2090.9
510.32 301.55 2236.8
514.49 300.60 2229.8
511.87 295.75 2193.7
496.55 283.74 2104.7
489.07 276.43 2050.4
500.84 280.04 2077.2
514.85 284.81 2112.6
525.71 287.76 2134.5
515.60 279.28 2071.6
499.86 267.97 1987.7
511.06 271.17 2011.5
527.30 276.96 2054.4
527.82 274.46 2035.9
520.45 267.96 1987.6
518.18 264.17 1959.5
533.42 269.30 1997.5
552.45 276.23 2048.9
544.12 269.47 1998.8
529.76 259.88 1927.7
528.84 257.01 1906.4
535.84 258.00 1913.7
543.41 259.24 1922.9
542.05 256.24 1900.7
539.20 252.60 1873.7
543.41 252.30 1871.4
547.05 251.74 1867.3
547.86 249.90 1853.6
557.93 247.97 1839.3
564.03 248.56 1843.7
570.16 249.15 1848.1
580.73 251.65 1866.6
585.73 251.72 1867.2
592.84 252.68 1874.3
610.21 257.98 1913.6
628.68 263.64 1955.6
642.76 267.39 1983.4
639.10 263.76 1956.4
637.48 261.02 1936.1
647.95 263.23 1952.5
645.90 260.36 1931.3
651.68 260.67 1933.6
665.11 264.01 1958.4
673.20 265.20 1967.2
678.09 265.12 1966.5
674.84 261.88 1942.5
667.54 257.13 1907.3
676.57 258.69 1918.8
694.61 263.65 1955.6
702.46 264.69 1963.4
696.21 260.45 1931.9
683.38 253.83 1882.8
704.00 257.80 1912.3
717.69 260.98 1935.8
725.22 261.89 1942.6
741.17 265.80 1971.6
767.43 273.33 2027.5
502.98 291.50 2204.6
499.05 285.97 2162.8
498.07 282.24 2134.6
483.50 270.97 2049.4
483.47 268.01 2027.0
501.46 275.00 2079.8
508.67 275.98 2087.3
513.54 275.69 2085.1
516.72 274.51 2076.1
513.57 270.02 2042.2
510.73 265.79 2010.2
514.64 265.12 2005.1
522.51 266.48 2015.4
522.63 263.90 1995.9
521.13 260.57 1970.7
537.68 266.23 2013.5
558.82 274.04 2072.6
552.89 268.55 2031.0
541.50 260.53 1970.4
543.86 259.22 1960.5
546.44 258.04 1951.6
549.25 256.99 1943.6
549.56 254.80 1927.0
548.97 252.23 1907.6
548.56 249.79 1889.2
547.78 247.23 1869.8
555.90 248.69 1880.9
556.98 247.01 1868.1
556.86 244.83 1851.6
567.89 247.54 1872.2
573.50 247.87 1874.6
578.53 247.94 1875.2
583.85 248.14 1876.7
582.95 245.70 1858.3
594.22 248.40 1878.7
615.22 255.09 1929.3
619.77 254.90 1927.8
619.71 252.84 1912.3
637.14 257.89 1950.4
656.61 263.68 1994.2
662.84 264.10 1997.4
656.80 259.67 1963.9
651.56 255.61 1933.2
654.47 254.79 1927.0
663.45 256.33 1938.6
669.24 256.63 1940.9
669.84 254.94 1928.1
666.76 251.89 1905.0
671.49 251.81 1904.4
685.19 255.07 1929.1
691.64 255.61 1933.1
683.97 250.95 1898.0
691.72 251.98 1905.7
716.53 259.17 1960.1
716.90 257.48 1947.3
708.93 252.84 1912.2
727.87 257.79 1949.7
758.15 266.66 2016.8
766.95 267.91 2026.2
770.14 267.19 2020.8
509.54 289.51 2233.4
500.33 281.08 2168.3
494.62 274.79 2119.8
487.07 267.62 2064.5
492.83 267.84 2066.2
503.71 270.81 2089.1
504.60 268.41 2070.6
508.01 267.37 2062.6
510.42 265.84 2050.8
512.28 264.06 2037.0
514.31 262.40 2024.3
511.35 258.26 1992.3
512.46 256.23 1976.6
525.06 259.93 2005.2
535.76 262.63 2026.0
533.50 258.98 1997.8
534.97 257.20 1984.1
545.24 259.64 2002.9
550.08 259.47 2001.6
547.48 255.83 1973.6
545.01 252.32 1946.5
555.08 254.63 1964.3
563.07 255.94 1974.4
554.08 249.59 1925.4
545.69 243.61 1879.3
547.67 242.33 1869.4
558.60 245.00 1890.0
569.63 247.67 1910.6
579.61 249.83 1927.3
586.50 250.64 1933.5
588.48 249.36 1923.6
588.07 247.09 1906.1
587.86 244.94 1889.6
587.58 242.80 1873.0
599.48 245.69 1895.3
623.55 253.48 1955.4
631.19 254.51 1963.4
627.55 251.02 1936.4
642.26 254.87 1966.1
657.11 258.71 1995.7
657.72 256.92 1982.0
648.19 251.23 1938.1
