ply
format ascii 1.0
element vertex 2140
property float x
property float y
property float z
end_header
208.07 -498.40 1866.4
210.99 -493.91 1849.6
248.76 -492.74 1845.2
253.99 -493.60 1848.4
292.72 -494.26 1850.9
318.22 -496.61 1859.7
331.76 -495.24 1854.6
345.73 -481.22 1802.1
356.34 -489.37 1832.6
362.61 -491.43 1840.3
365.51 -488.92 1830.9
384.89 -483.46 1810.4
386.33 -479.43 1795.4
402.22 -481.72 1804.0
409.45 -484.75 1815.3
416.74 -487.77 1826.6
421.25 -487.51 1825.6
455.91 -484.11 1812.9
464.16 -487.84 1826.9
494.83 -499.68 1871.2
553.27 -499.88 1872.0
559.97 -501.53 1878.1
603.30 -505.20 1891.9
604.81 -502.38 1881.3
613.99 -486.47 1821.7
641.61 -496.89 1860.7
635.13 -488.20 1828.2
669.12 -492.28 1843.5
683.02 -498.95 1868.5
685.72 -490.48 1836.8
727.99 -503.24 1884.5
747.74 -496.89 1860.7
746.83 -493.10 1846.6
777.50 -500.51 1874.3
-780.04 -494.66 1834.6
-767.28 -489.55 1815.6
-751.97 -482.74 1790.4
-701.48 -483.14 1791.9
-698.82 -484.51 1797.0
-692.63 -483.45 1793.0
-683.33 -480.18 1780.9
-677.20 -479.11 1776.9
-678.63 -483.41 1792.9
-670.09 -480.61 1782.5
-631.65 -486.60 1804.7
-616.33 -489.30 1814.7
-618.27 -494.61 1834.4
-609.97 -491.76 1823.8
-518.20 -489.94 1817.1
-511.98 -488.49 1811.7
-503.68 -485.03 1798.9
-471.59 -485.60 1801.0
-472.30 -491.19 1821.7
-465.78 -494.29 1833.2
-460.35 -493.57 1830.5
-423.30 -489.14 1814.1
-366.21 -488.28 1810.9
-360.92 -487.48 1808.0
-356.40 -487.71 1808.8
-323.19 -494.29 1833.2
-320.22 -497.06 1843.5
-312.64 -492.64 1827.1
-306.58 -490.52 1819.3
-302.30 -491.23 1821.9
-114.54 -496.34 1840.8
-111.57 -504.47 1871.0
-106.73 -504.54 1871.2
-101.73 -503.83 1868.6
-95.70 -497.65 1845.7
-61.67 -493.33 1829.7
-58.37 -505.86 1876.1
-47.42 -493.18 1829.1
-42.43 -490.34 1818.6
-38.62 -502.08 1862.1
4.75 -493.59 1830.6
38.16 -496.09 1839.9
96.65 -502.59 1864.0
208.79 -504.99 1872.9
213.48 -504.60 1871.4
217.04 -501.61 1860.4
217.34 -491.38 1822.4
268.62 -498.87 1850.2
293.14 -499.77 1853.6
297.98 -499.84 1853.8
321.28 -506.25 1877.6
323.53 -502.20 1862.5
327.55 -500.96 1858.0
330.19 -497.68 1845.8
347.88 -488.92 1813.3
383.92 -492.93 1828.2
377.41 -478.66 1775.3
387.31 -485.31 1799.9
394.05 -487.87 1809.4
418.38 -488.89 1813.2
439.08 -485.79 1801.7
557.69 -504.35 1870.5
578.60 -497.31 1844.4
599.34 -510.91 1894.9
637.13 -498.21 1847.7
657.76 -502.99 1865.5
690.29 -509.15 1888.3
692.96 -507.52 1882.3
687.18 -499.76 1853.5
692.79 -500.35 1855.7
712.52 -500.69 1856.9
735.96 -513.69 1905.2
735.02 -509.62 1890.1
728.38 -491.89 1824.3
741.17 -497.30 1844.4
751.14 -500.76 1857.2
760.33 -494.22 1832.9
-745.82 -492.53 1809.3
-729.27 -484.64 1780.3
-693.15 -485.20 1782.4
-702.01 -494.71 1817.3
-688.50 -488.46 1794.3
-685.04 -496.07 1822.3
-663.38 -497.54 1827.7
-661.78 -499.91 1836.4
-627.76 -488.26 1793.6
-611.41 -493.83 1814.1
-601.93 -489.94 1799.8
-597.39 -490.05 1800.2
-591.34 -488.90 1796.0
-581.99 -485.00 1781.6
-561.03 -482.85 1773.7
-566.09 -491.23 1804.5
-562.66 -492.33 1808.6
-537.23 -499.20 1833.8
-528.24 -495.23 1819.2
-528.41 -499.85 1836.2
-523.46 -499.66 1835.5
-484.53 -503.72 1850.4
-480.50 -504.53 1853.4
-469.49 -497.94 1829.2
-330.15 -502.40 1845.6
-325.84 -503.13 1848.2
-315.89 -495.05 1818.5
-311.95 -496.28 1823.1
-309.43 -499.85 1836.2
-300.52 -493.04 1811.2
-248.96 -502.71 1846.7
-117.78 -494.68 1817.2
-113.15 -495.02 1818.4
-74.83 -491.05 1803.9
-70.57 -493.99 1814.6
-66.05 -495.34 1819.6
-61.95 -500.37 1838.1
-58.00 -507.50 1864.3
-52.70 -503.07 1848.0
33.13 -496.88 1825.3
86.28 -503.28 1848.8
92.39 -510.57 1875.6
95.59 -501.85 1843.5
126.56 -511.11 1877.6
131.41 -511.03 1877.3
149.76 -507.26 1863.4
185.65 -499.84 1836.1
234.69 -502.91 1847.4
239.04 -501.98 1844.0
247.02 -498.80 1832.3
253.80 -502.80 1847.0
269.48 -496.40 1823.5
293.65 -497.32 1826.9
320.91 -510.54 1875.4
327.85 -506.24 1859.6
375.20 -492.45 1809.0
416.85 -480.98 1766.9
427.36 -482.50 1772.4
437.89 -489.13 1796.8
499.28 -504.08 1851.7
511.40 -511.40 1878.6
522.98 -503.78 1850.6
569.35 -515.36 1893.2
581.73 -504.81 1854.4
598.10 -514.76 1891.0
661.88 -511.01 1877.2
666.89 -511.12 1877.6
679.91 -506.31 1859.9
696.24 -514.82 1891.2
703.62 -516.64 1897.9
699.16 -509.81 1872.8
689.48 -499.28 1834.1
707.95 -498.89 1832.7
720.90 -504.63 1853.7
727.23 -505.69 1857.6
736.06 -508.46 1867.8
733.85 -503.62 1850.0
747.44 -503.09 1848.1
-748.33 -495.77 1804.0
-739.12 -492.75 1793.0
-718.92 -494.84 1800.6
-715.21 -495.50 1803.0
-693.01 -483.28 1758.6
-657.57 -494.34 1798.8
-638.55 -490.48 1784.8
-640.36 -506.55 1843.3
-597.34 -498.57 1814.2
-607.18 -510.80 1858.7
-574.14 -502.97 1830.2
-571.42 -509.00 1852.1
-536.91 -503.65 1832.7
-537.89 -509.08 1852.4
-525.41 -501.75 1825.8
-485.45 -509.49 1853.9
-475.11 -503.62 1832.6
-387.58 -501.01 1823.1
-388.79 -508.79 1851.4
-310.77 -499.12 1816.2
-308.27 -502.72 1829.3
-282.36 -490.65 1785.4
-280.50 -495.55 1803.2
-248.02 -505.59 1839.7
-180.25 -502.81 1829.6
-118.02 -500.39 1820.8
-114.51 -505.75 1840.3
-75.58 -500.70 1821.9
-71.87 -507.89 1848.1
-67.79 -513.24 1867.6
91.47 -510.33 1857.0
145.46 -513.96 1870.2
245.19 -499.81 1818.7
249.95 -499.91 1819.1
276.80 -505.88 1840.8
337.16 -510.56 1857.8
339.56 -506.95 1844.7
342.96 -504.91 1837.3
344.52 -500.25 1820.3
419.25 -493.79 1796.8
428.12 -498.69 1814.6
428.56 -493.77 1796.7
426.64 -486.27 1769.5
463.78 -506.81 1844.2
459.97 -497.51 1810.4
465.35 -498.25 1813.1
507.27 -512.10 1863.4
526.32 -507.18 1845.5
544.32 -506.12 1841.7
554.81 -511.39 1860.8
573.79 -515.44 1875.6
618.07 -511.84 1862.5
616.92 -506.92 1844.6
614.44 -501.01 1823.1
650.22 -506.79 1844.1
665.84 -515.18 1874.6
677.69 -520.54 1894.2
682.40 -520.39 1893.6
683.79 -510.43 1857.4
690.42 -511.78 1862.3
684.19 -503.64 1832.7
684.98 -500.75 1822.1
699.89 -501.28 1824.1
703.00 -500.12 1819.9
736.34 -513.50 1868.5
738.07 -511.34 1860.7
761.92 -511.16 1860.0
767.93 -511.95 1862.9
766.53 -507.82 1847.9
-788.18 -505.00 1820.4
-743.82 -497.43 1793.1
-736.85 -495.87 1787.5
-718.59 -496.06 1788.2
-712.76 -495.23 1785.2
-683.53 -494.18 1781.4
-667.05 -485.54 1750.3
-656.84 -498.46 1796.8
-657.65 -502.63 1811.9
-636.40 -489.89 1766.0
-639.79 -507.10 1828.0
-595.71 -505.88 1823.6
-565.69 -500.24 1803.3
-574.33 -512.11 1846.0
-566.51 -509.38 1836.2
-425.62 -511.70 1844.6
-415.05 -504.66 1819.2
-409.91 -504.14 1817.3
-410.03 -510.15 1839.0
-395.29 -497.60 1793.8
-389.02 -501.50 1807.8
-381.91 -498.35 1796.4
-343.80 -510.92 1841.8
-334.10 -503.51 1815.1
-274.33 -506.08 1824.3
-266.31 -499.91 1802.1
-237.36 -497.99 1795.1
-236.74 -506.63 1826.3
-184.73 -506.83 1827.0
-180.51 -508.28 1832.3
-126.86 -502.74 1812.3
-114.73 -511.52 1843.9
-110.08 -512.13 1846.1
-70.29 -501.39 1807.4
-67.08 -512.66 1848.0
91.79 -516.93 1863.5
97.56 -521.94 1881.5
112.44 -523.07 1885.6
132.72 -507.19 1828.3
144.17 -514.20 1853.6
309.61 -517.63 1865.9
353.98 -518.85 1870.4
399.24 -502.57 1811.7
410.87 -511.20 1842.8
413.73 -508.84 1834.3
409.04 -497.35 1792.9
415.42 -499.44 1800.4
423.13 -492.12 1774.0
432.25 -497.32 1792.7
525.46 -511.13 1842.5
540.97 -507.75 1830.3
575.70 -526.50 1897.9
569.65 -512.20 1846.4
576.98 -510.22 1839.2
610.89 -514.69 1855.3
611.91 -511.51 1843.9
611.33 -507.07 1827.9
651.77 -512.79 1848.5
658.00 -513.91 1852.6
662.29 -513.52 1851.1
717.17 -518.50 1869.1
765.65 -515.25 1857.4
770.54 -515.30 1857.6
826.38 -520.13 1875.0
827.35 -517.70 1866.2
-753.03 -508.30 1815.3
-755.24 -512.99 1832.1
-739.02 -505.15 1804.1
-725.39 -505.43 1805.1
-719.16 -504.35 1801.2
-704.74 -497.46 1776.7
-684.17 -499.26 1783.1
-679.41 -499.16 1782.7
-670.19 -495.76 1770.6
-647.82 -496.20 1772.1
-645.38 -497.86 1778.1
-634.05 -492.64 1759.4
-625.68 -500.54 1787.6
-632.14 -513.32 1833.3
-631.30 -516.52 1844.7
-565.54 -500.64 1788.0
-565.34 -504.61 1802.2
-565.08 -508.57 1816.3
-560.75 -508.92 1817.6
-541.45 -512.96 1832.0
-478.17 -501.38 1790.6
-476.28 -504.29 1801.0
-427.49 -512.99 1832.1
-427.95 -519.31 1854.7
-392.13 -498.24 1779.4
-392.64 -504.82 1802.9
-388.36 -505.34 1804.8
-335.11 -509.74 1820.5
-335.18 -517.13 1846.9
-327.64 -512.83 1831.5
-264.72 -501.58 1791.4
-249.49 -508.40 1815.7
-244.74 -508.30 1815.4
-238.34 -504.72 1802.6
-233.24 -503.80 1799.3
-202.59 -508.83 1817.3
-200.02 -514.33 1836.9
-166.61 -514.11 1836.1
-158.31 -518.09 1850.3
-127.99 -511.94 1828.4
-102.34 -502.37 1794.2
-93.65 -505.73 1806.2
-67.17 -518.18 1850.6
-61.54 -511.22 1825.8
-33.51 -517.07 1846.7
-28.77 -517.90 1849.6
28.76 -517.63 1848.7
91.83 -521.96 1864.1
97.69 -527.55 1884.1
140.02 -521.45 1862.3
142.06 -511.40 1826.4
229.35 -527.02 1882.2
232.02 -522.04 1864.4
233.99 -515.73 1841.9
321.05 -517.51 1848.3
322.19 -511.72 1827.6
345.86 -511.69 1827.5
347.36 -506.95 1810.5
370.36 -506.32 1808.3
406.87 -516.96 1846.3
418.99 -520.12 1857.6
426.87 -518.00 1850.0
434.51 -521.41 1862.2
439.21 -510.05 1821.6
451.92 -519.22 1854.4
518.58 -518.58 1852.1
523.84 -519.04 1853.7
546.39 -531.63 1898.7
590.79 -527.32 1883.3
590.60 -522.83 1867.2
581.23 -510.35 1822.7
612.45 -516.75 1845.5
656.72 -529.30 1890.4
660.17 -528.14 1886.2
652.34 -518.03 1850.1
652.43 -514.32 1836.9
680.68 -525.10 1875.3
724.89 -532.57 1902.0
731.31 -533.66 1905.9
790.72 -517.56 1848.4
832.38 -525.71 1877.5
-771.01 -512.44 1813.4
-750.01 -514.15 1819.4
-720.89 -510.24 1805.6
-669.79 -506.99 1794.1
-673.06 -513.03 1815.4
-647.10 -500.24 1770.2
-650.92 -506.79 1793.4
-646.12 -506.67 1792.9
-636.43 -502.69 1778.8
-629.72 -501.01 1772.9
-614.75 -503.82 1782.8
-630.60 -520.73 1842.7
-623.49 -518.78 1835.8
-586.28 -503.19 1780.6
-573.54 -508.26 1798.5
-580.04 -518.24 1833.9
-578.58 -521.20 1844.3
-566.45 -514.52 1820.7
-546.04 -522.09 1847.5
-534.82 -515.89 1825.6
-481.15 -514.17 1819.5
-436.56 -506.22 1791.3
-422.40 -511.57 1810.3
-393.54 -504.65 1785.8
-388.90 -504.64 1785.8
-336.81 -517.07 1829.7
-329.80 -520.99 1843.6
-316.79 -507.80 1796.9
-247.41 -518.60 1835.1
-236.06 -514.61 1821.0
-196.03 -508.74 1800.3
-109.65 -519.64 1838.8
-95.09 -518.22 1833.8
-91.91 -527.25 1865.8
-86.05 -521.06 1843.9
-67.06 -522.08 1847.5
-61.11 -512.34 1813.0
57.28 -520.27 1841.0
141.89 -515.52 1824.3
178.88 -526.96 1864.7
184.61 -529.55 1873.9
188.75 -527.52 1866.7
229.90 -533.16 1886.7
254.70 -523.83 1853.6
253.02 -510.72 1807.3
325.29 -529.20 1872.7
329.29 -520.19 1840.8
332.21 -517.29 1830.5
336.63 -516.80 1828.8
364.27 -509.05 1801.3
431.38 -522.45 1848.8
426.86 -511.29 1809.3
518.16 -527.85 1867.9
526.32 -531.19 1879.7
519.84 -519.84 1839.5
536.98 -527.30 1865.9
545.40 -526.10 1861.7
594.60 -531.24 1879.9
596.12 -528.27 1869.4
652.84 -531.04 1879.2
659.13 -532.19 1883.2
669.38 -524.91 1857.5
691.81 -538.62 1906.0
702.48 -528.07 1868.7
721.17 -531.13 1879.5
772.67 -523.11 1851.1
804.20 -524.90 1857.4
796.70 -516.91 1829.2
808.11 -521.21 1844.4
-762.76 -514.75 1805.0
-754.25 -512.14 1795.8
-722.97 -516.41 1810.8
-711.39 -511.46 1793.4
-680.30 -516.09 1809.7
-671.14 -519.90 1823.0
-648.70 -506.07 1774.5
-636.77 -515.04 1806.0
-623.96 -508.41 1782.7
-612.51 -502.81 1763.1
-619.90 -516.58 1811.4
-614.73 -516.18 1810.0
-574.15 -517.68 1815.2
-576.77 -524.34 1838.6
-568.96 -521.55 1828.8
-539.09 -524.78 1840.1
-533.32 -523.80 1836.7
-509.54 -514.22 1803.1
-512.73 -522.22 1831.2
-469.80 -516.78 1812.1
-444.72 -520.41 1824.8
-339.06 -518.01 1816.4
-331.36 -513.37 1800.1
-243.19 -524.53 1839.3
-181.85 -512.90 1798.5
-109.12 -521.86 1829.9
-91.04 -527.07 1848.2
-65.16 -511.99 1795.3
-60.80 -514.50 1804.1
56.82 -520.84 1826.3
130.57 -531.94 1865.2
134.27 -527.47 1849.6
138.39 -524.92 1840.6
143.51 -526.19 1845.1
178.02 -529.25 1855.8
182.70 -528.86 1854.4
186.88 -527.09 1848.2
189.84 -522.05 1830.6
207.73 -519.33 1821.0
222.75 -532.67 1867.8
230.44 -539.33 1891.1
246.85 -522.19 1831.1
256.63 -532.63 1867.7
257.78 -525.11 1841.3
289.74 -522.47 1832.0
293.76 -521.19 1827.6
468.72 -531.53 1863.8
468.05 -525.37 1842.2
519.12 -533.68 1871.3
530.93 -540.76 1896.2
519.25 -524.01 1837.4
545.06 -530.59 1860.5
549.25 -529.98 1858.4
548.74 -524.88 1840.5
593.94 -535.52 1877.8
594.58 -531.74 1864.5
616.56 -529.85 1857.9
707.49 -536.72 1882.0
698.93 -519.48 1821.5
729.20 -538.34 1887.7
786.75 -537.53 1884.8
800.31 -543.42 1905.5
788.74 -532.28 1866.4
775.10 -519.89 1823.0
-726.98 -520.61 1809.1
-720.39 -519.24 1804.3
-703.84 -510.63 1774.4
-695.92 -508.21 1766.0
-673.09 -511.73 1778.2
-666.63 -510.32 1773.3
-664.59 -512.29 1780.1
-662.17 -513.99 1786.1
-656.06 -512.83 1782.0
-635.10 -518.35 1801.2
-597.78 -510.41 1773.6
-558.80 -512.62 1781.3
-555.42 -513.77 1785.3
-544.75 -521.27 1811.3
-543.16 -524.27 1821.8
-534.97 -520.89 1810.0
-530.08 -520.70 1809.4
-528.95 -524.23 1821.7
-503.65 -532.42 1850.1
-498.15 -531.68 1847.5
-469.98 -521.67 1812.8
-454.29 -509.36 1770.0
-441.46 -521.30 1811.5
-419.22 -517.04 1796.7
-395.97 -523.24 1818.2
-392.06 -524.32 1821.9
-389.52 -527.28 1832.3
-286.54 -513.01 1782.7
-283.53 -515.93 1792.8
-267.15 -520.23 1807.8
-265.73 -526.71 1830.3
-193.08 -522.73 1816.4
-180.78 -528.07 1835.0
-176.89 -530.67 1844.0
-144.46 -517.27 1797.5
-123.86 -528.77 1837.4
-119.42 -530.23 1842.5
-94.01 -521.76 1813.1
-86.92 -535.98 1862.5
-65.68 -520.71 1809.4
-60.89 -519.93 1806.7
33.15 -525.65 1826.6
161.13 -526.06 1828.0
165.84 -525.95 1827.6
169.38 -522.25 1814.8
174.32 -522.96 1817.2
208.35 -525.62 1826.5
212.81 -524.93 1824.1
221.12 -533.58 1854.1
260.01 -534.46 1857.2
265.14 -535.11 1859.5
298.15 -533.78 1854.8
309.73 -537.20 1866.7
381.20 -522.39 1815.2
498.17 -521.67 1812.8
512.09 -531.24 1846.0
536.48 -546.32 1898.4
524.40 -529.17 1838.8
526.97 -526.97 1831.2
538.09 -533.29 1853.1
650.59 -527.12 1831.7
690.70 -536.14 1863.0
699.03 -538.84 1872.4
699.59 -535.55 1861.0
703.17 -534.60 1857.7
703.29 -531.06 1845.4
697.12 -522.84 1816.8
720.45 -533.13 1852.6
732.41 -538.39 1870.9
721.78 -527.09 1831.6
727.91 -524.66 1823.2
742.47 -531.71 1847.6
756.78 -538.48 1871.2
760.63 -537.77 1868.7
787.40 -542.87 1886.4
795.72 -545.22 1894.6
779.62 -530.91 1844.9
804.80 -534.92 1858.8
812.91 -527.68 1833.6
-796.39 -537.32 1850.5
-723.67 -522.91 1800.8
-713.51 -518.92 1787.1
-697.01 -510.23 1757.2
-657.40 -507.78 1748.7
-606.64 -514.73 1772.7
-585.56 -528.89 1821.4
-534.01 -520.08 1791.1
-530.26 -520.95 1794.1
-522.43 -517.80 1783.3
-519.21 -519.21 1788.1
-510.11 -514.71 1772.6
-499.02 -532.29 1833.1
-481.41 -523.48 1802.8
-480.22 -527.30 1816.0
-462.61 -539.71 1858.7
-450.22 -530.79 1828.0
-442.77 -527.56 1816.8
-412.42 -524.90 1807.7
-397.75 -530.34 1826.4
-393.01 -530.33 1826.4
-389.07 -531.41 1830.1
-379.75 -531.65 1830.9
-370.55 -525.33 1809.2
-365.26 -524.48 1806.3
-329.65 -527.45 1816.5
-309.50 -517.37 1781.8
-287.54 -527.95 1818.2
-267.39 -525.39 1809.4
-261.82 -523.64 1803.3
-146.29 -528.53 1820.2
-141.45 -528.07 1818.6
-116.73 -522.95 1801.0
-94.20 -527.49 1816.6
213.55 -531.51 1830.5
222.11 -540.78 1862.4
228.03 -543.40 1871.4
238.30 -533.79 1838.3
243.87 -535.56 1844.4
264.69 -539.01 1856.3
265.27 -530.54 1827.1
297.18 -536.85 1848.8
299.38 -532.24 1833.0
421.65 -530.61 1827.4
418.73 -521.08 1794.5
510.11 -549.35 1891.9
510.15 -544.16 1874.0
507.64 -531.36 1830.0
522.97 -542.34 1867.8
529.32 -543.89 1873.1
522.74 -532.25 1833.0
522.63 -527.34 1816.1
590.87 -533.69 1838.0
598.78 -536.51 1847.7
619.13 -541.74 1865.7
648.57 -530.22 1826.0
687.65 -542.37 1867.9
687.26 -538.27 1853.7
684.09 -532.07 1832.4
692.71 -535.06 1842.7
704.45 -540.40 1861.1
711.45 -542.06 1866.8
720.71 -538.13 1853.3
735.48 -545.52 1878.7
727.00 -535.69 1844.8
748.72 -537.54 1851.2
787.52 -551.27 1898.5
786.19 -546.91 1883.5
780.66 -539.72 1858.7
778.79 -535.12 1842.9
790.28 -533.20 1836.3
813.92 -545.86 1879.9
812.28 -541.52 1864.9
830.45 -543.92 1873.2
839.68 -546.77 1883.0
-783.32 -533.22 1820.1
-755.15 -526.74 1798.0
-737.49 -520.85 1777.9
-752.27 -534.63 1824.9
-748.17 -535.08 1826.5
-730.24 -525.59 1794.0
-713.44 -523.49 1786.9
-702.99 -519.20 1772.2
-641.73 -541.16 1847.2
-634.28 -538.90 1839.5
-618.12 -529.14 1806.2
-609.86 -526.06 1795.7
-576.42 -521.09 1778.7
-582.24 -530.59 1811.1
-522.90 -527.57 1800.8
-514.04 -523.30 1786.2
-459.82 -535.67 1828.4
-452.50 -543.96 1856.8
-416.00 -534.18 1823.4
-392.37 -527.83 1801.7
-385.67 -525.07 1792.3
-308.76 -536.76 1832.2
-297.68 -525.59 1794.0
-291.75 -523.29 1786.2
-277.40 -531.30 1813.5
-225.21 -541.45 1848.2
-164.57 -531.32 1813.6
-160.83 -534.52 1824.5
-141.87 -534.38 1824.0
103.95 -533.94 1822.6
109.69 -538.92 1839.5
114.32 -538.28 1837.4
123.49 -536.71 1832.0
127.35 -532.98 1819.3
148.03 -539.60 1841.9
212.86 -546.66 1866.0
230.55 -554.30 1892.0
234.32 -551.63 1882.9
239.73 -552.86 1887.1
245.05 -553.81 1890.4
459.36 -546.39 1865.1
473.07 -539.97 1843.1
475.88 -537.75 1835.5
480.36 -537.43 1834.5
484.09 -536.30 1830.6
496.49 -544.69 1859.3
503.51 -547.09 1867.4
528.60 -553.08 1887.9
532.90 -552.46 1885.8
563.68 -539.79 1842.5
581.13 -551.83 1883.6
585.19 -546.50 1865.4
653.68 -547.15 1867.7
700.77 -546.12 1864.1
695.14 -538.02 1836.5
722.66 -548.06 1870.7
747.18 -541.23 1847.4
787.42 -556.12 1898.2
780.19 -544.21 1857.6
809.66 -551.15 1881.3
821.06 -552.26 1885.1
827.94 -537.69 1835.3
-786.03 -543.07 1837.5
-756.63 -539.10 1824.0
-755.49 -541.67 1832.7
-736.38 -531.31 1797.7
-694.38 -517.38 1750.5
-623.03 -538.07 1820.5
-615.35 -535.50 1811.8
-612.95 -537.51 1818.6
-609.90 -538.98 1823.6
-580.21 -529.15 1790.4
-564.93 -532.25 1800.9
-517.73 -526.98 1783.0
-512.91 -526.77 1782.3
-463.44 -533.65 1805.6
-468.01 -544.42 1842.0
-456.94 -537.02 1817.0
-397.22 -539.08 1824.0
-386.22 -530.47 1794.8
-343.43 -543.77 1839.8
-331.09 -539.21 1824.4
-285.66 -525.24 1777.1
-225.63 -547.27 1851.7
-221.23 -548.27 1855.1
-211.70 -536.31 1814.6
-206.51 -535.05 1810.3
-177.53 -546.99 1850.7
-164.89 -537.06 1817.1
-133.41 -543.16 1837.8
-126.86 -535.62 1812.3
9.55 -544.47 1842.2
43.24 -547.74 1853.3
53.31 -552.49 1869.3
85.26 -539.97 1827.0
109.10 -540.76 1829.6
114.96 -546.06 1847.6
129.27 -545.80 1846.7
134.03 -545.71 1846.4
145.32 -534.39 1808.1
220.26 -558.00 1888.0
220.44 -546.30 1848.4
223.31 -541.64 1832.6
241.67 -551.01 1864.3
280.26 -541.52 1832.2
419.87 -550.18 1861.5
421.92 -546.57 1849.3
450.60 -546.48 1849.0
454.91 -545.90 1847.0
475.81 -542.42 1835.3
483.94 -546.23 1848.1
491.15 -548.93 1857.3
495.67 -548.60 1856.2
521.89 -556.03 1881.3
532.15 -561.71 1900.5
537.79 -562.45 1903.0
530.24 -549.52 1859.3
536.36 -541.10 1830.8
547.84 -547.84 1853.6
553.66 -548.84 1857.0
632.79 -538.35 1821.5
648.81 -547.89 1853.7
716.57 -537.43 1818.4
745.22 -555.26 1878.7
755.91 -559.57 1893.3
749.04 -550.90 1864.0
744.20 -543.84 1840.0
753.43 -547.08 1851.0
778.65 -558.28 1888.9
782.73 -547.43 1852.2
819.85 -559.66 1893.6
839.36 -549.93 1860.7
845.46 -547.63 1852.9
851.10 -548.17 1854.7
-787.83 -549.09 1841.7
-747.68 -537.39 1802.4
-681.31 -536.65 1799.9
-641.11 -530.41 1779.0
-632.77 -527.31 1768.6
-608.60 -530.22 1778.4
-601.34 -527.90 1770.6
-607.64 -537.53 1802.9
-613.17 -546.62 1833.4
-596.73 -536.12 1798.2
-568.31 -540.13 1811.6
-565.43 -541.87 1817.4
-512.76 -536.07 1798.0
-508.42 -536.40 1799.1
-502.58 -550.45 1846.2
-500.10 -552.99 1854.8
-487.65 -544.46 1826.2
-476.33 -537.03 1801.2
-476.02 -552.96 1854.6
-471.01 -552.72 1853.8
-450.31 -533.87 1790.6
-403.96 -533.96 1790.9
-397.64 -531.72 1783.4
-398.79 -539.54 1809.6
-399.81 -547.36 1835.9
-359.08 -536.28 1798.7
-338.89 -533.87 1790.6
-343.20 -548.17 1838.6
-331.28 -536.58 1799.7
-286.98 -532.30 1785.4
-235.09 -540.71 1813.6
-228.53 -536.34 1798.9
-218.01 -545.03 1828.1
-216.44 -553.13 1855.2
-205.82 -537.95 1804.3
-133.04 -546.40 1832.7
-127.44 -542.79 1820.5
-90.39 -547.11 1835.0
-56.80 -544.34 1825.7
43.39 -554.44 1859.6
48.48 -557.55 1870.1
52.56 -549.52 1843.1
56.83 -544.62 1826.7
86.63 -553.46 1856.3
89.78 -543.40 1822.6
95.64 -549.90 1844.4
101.19 -554.11 1858.5
113.93 -545.90 1831.0
120.70 -555.23 1862.2
177.59 -551.97 1851.3
257.83 -549.09 1841.7
272.56 -540.43 1812.6
277.89 -541.65 1816.7
417.36 -545.41 1829.3
424.26 -548.20 1838.7
426.40 -544.84 1827.4
458.72 -561.19 1882.3
503.52 -562.18 1885.6
500.35 -553.27 1855.7
500.69 -543.20 1821.9
507.93 -545.91 1831.0
517.54 -551.09 1848.4
537.13 -541.84 1817.3
583.92 -545.94 1831.1
620.80 -553.42 1856.2
625.46 -553.29 1855.8
627.96 -551.26 1849.0
725.66 -549.02 1841.4
748.67 -562.73 1887.4
755.08 -563.86 1891.2
791.82 -565.58 1897.0
785.97 -557.94 1871.4
788.26 -556.14 1865.3
833.67 -560.65 1880.5
844.82 -558.35 1872.7
-780.14 -548.46 1823.7
-783.63 -554.28 1843.0
-761.90 -542.21 1802.9
-715.33 -538.82 1791.6
-685.23 -533.47 1773.8
-692.21 -542.55 1804.0
-651.14 -543.40 1806.9
-609.42 -548.00 1822.2
-566.79 -543.37 1806.8
-504.42 -536.82 1785.0
-501.66 -538.82 1791.6
-498.61 -540.54 1797.4
-500.10 -547.28 1819.8
-501.49 -554.03 1842.2
-497.01 -554.36 1843.3
-487.82 -549.39 1826.8
-460.43 -539.49 1793.9
-455.80 -539.52 1794.0
-448.60 -536.47 1783.8
-441.44 -533.41 1773.6
-433.30 -540.47 1797.1
-426.76 -550.05 1829.0
-417.93 -544.71 1811.2
-407.27 -543.03 1805.6
-398.83 -537.95 1788.8
-383.82 -542.97 1805.4
-375.58 -537.87 1788.5
-360.09 -535.52 1780.7
-354.14 -533.50 1774.0
-338.12 -537.29 1786.6
-333.11 -536.67 1784.5
-294.23 -541.76 1801.4
-284.65 -532.57 1770.9
-248.01 -553.26 1839.7
-230.54 -545.77 1814.7
-213.66 -538.80 1791.6
-210.74 -543.24 1806.3
-179.50 -547.93 1821.9
-109.97 -554.65 1844.3
-89.34 -545.44 1813.7
37.85 -548.82 1824.9
76.65 -555.69 1847.7
87.33 -562.76 1871.3
89.06 -543.71 1807.9
100.80 -556.81 1851.5
113.73 -549.68 1827.7
120.86 -560.81 1864.7
134.82 -558.52 1857.2
480.72 -563.26 1872.9
475.89 -552.04 1835.6
501.94 -565.29 1879.7
506.01 -564.40 1876.7
587.89 -558.98 1858.7
587.05 -553.64 1840.9
596.52 -549.18 1826.1
601.43 -549.34 1826.6
607.89 -546.63 1817.6
610.32 -544.59 1810.8
624.46 -552.96 1838.7
700.13 -560.10 1862.4
704.74 -559.93 1861.8
699.74 -552.18 1836.1
742.87 -566.92 1885.1
741.46 -562.15 1869.2
756.86 -559.21 1859.4
780.57 -562.40 1870.0
781.01 -559.24 1859.5
-783.53 -558.98 1842.8
-765.93 -549.77 1812.4
-748.97 -547.68 1805.5
-750.06 -551.93 1819.5
-714.53 -542.85 1789.6
-704.44 -538.69 1775.9
-693.16 -547.97 1806.5
-684.91 -545.13 1797.1
-583.96 -551.00 1816.5
-493.15 -544.33 1794.5
-490.82 -546.91 1803.0
-487.93 -548.93 1809.6
-451.48 -539.01 1777.0
-454.14 -547.78 1805.9
-451.34 -550.07 1813.4
-445.28 -548.39 1807.9
-435.16 -541.63 1785.6
-427.68 -549.87 1812.8
-425.82 -553.56 1824.9
-415.92 -546.77 1802.5
-381.37 -544.15 1793.9
-332.70 -540.64 1782.3
-268.28 -550.68 1815.4
-246.05 -553.61 1825.1
-4.71 -551.23 1817.2
19.15 -560.20 1846.8
24.13 -564.54 1861.1
72.37 -564.48 1860.9
113.41 -552.86 1822.6
134.86 -563.51 1857.7
236.73 -553.95 1826.2
451.70 -556.30 1834.0
464.77 -566.44 1867.4
470.99 -568.10 1872.9
499.43 -561.85 1852.3
531.23 -570.22 1879.9
601.20 -558.26 1840.4
605.97 -549.60 1811.9
696.80 -558.40 1840.9
744.16 -572.81 1888.4
771.27 -574.77 1894.8
773.34 -572.66 1887.9
766.20 -563.81 1858.7
821.80 -575.75 1898.1
807.92 -562.66 1854.9
835.87 -562.05 1852.9
-776.32 -562.00 1837.0
-744.82 -552.76 1806.8
-733.83 -548.05 1791.4
-699.03 -539.12 1762.3
-670.29 -553.11 1808.0
-663.80 -551.61 1803.1
-561.74 -552.38 1805.6
-548.95 -544.34 1779.3
-511.21 -548.38 1792.5
-353.28 -548.52 1793.0
-350.99 -552.22 1805.1
-332.99 -545.74 1783.9
-247.26 -550.51 1799.5
-194.50 -546.44 1786.2
-122.22 -554.68 1813.1
-119.33 -563.23 1841.1
-113.86 -559.81 1829.9
-80.43 -558.26 1824.8
-74.99 -553.06 1807.8
-28.20 -554.60 1812.9
-23.62 -557.54 1822.5
-18.88 -556.97 1820.6
19.15 -564.87 1846.4
24.05 -567.49 1855.0
182.15 -565.61 1848.9
226.17 -556.00 1817.4
231.18 -556.71 1819.8
276.12 -561.75 1836.2
443.95 -563.29 1841.2
455.28 -571.53 1868.2
451.39 -560.68 1832.7
528.40 -577.33 1887.1
532.78 -571.53 1868.2
607.10 -555.33 1815.2
618.11 -561.05 1834.0
635.41 -568.02 1856.7
638.19 -566.22 1850.8
643.78 -566.91 1853.1
712.43 -564.20 1844.3
769.70 -578.50 1891.0
772.13 -576.65 1884.9
769.39 -570.99 1866.4
822.24 -560.84 1833.2
-776.91 -563.73 1827.2
-788.93 -575.97 1866.9
-768.38 -564.43 1829.5
-744.71 -553.88 1795.3
-756.44 -566.14 1835.0
-736.28 -554.54 1797.4
-508.36 -555.00 1798.9
-460.01 -547.42 1774.3
-386.81 -561.34 1819.5
-381.29 -560.17 1815.7
-314.55 -558.68 1810.8
-251.27 -553.73 1794.8
-202.85 -561.38 1819.6
-199.94 -566.51 1836.2
-196.65 -570.76 1850.0
-137.16 -562.81 1824.2
-121.55 -556.33 1803.2
-118.01 -561.71 1820.7
-115.62 -573.27 1858.1
-105.14 -568.72 1843.4
-81.42 -569.95 1847.4
-74.90 -557.04 1805.5
-33.05 -561.82 1821.0
-28.48 -564.79 1830.6
-23.48 -558.91 1811.6
57.77 -572.85 1856.8
62.48 -571.92 1853.8
138.45 -568.10 1841.4
179.09 -576.00 1867.0
183.98 -576.16 1867.5
206.14 -570.47 1849.1
226.68 -573.94 1860.3
232.86 -577.29 1871.2
235.59 -572.15 1854.5
257.86 -557.93 1808.4
266.04 -565.33 1832.4
267.20 -557.84 1808.1
438.08 -572.88 1856.9
447.33 -578.61 1875.4
526.61 -574.92 1863.5
530.05 -573.42 1858.6
531.09 -569.36 1845.5
628.18 -570.63 1849.6
661.24 -578.59 1875.4
655.00 -568.94 1844.1
722.36 -584.77 1895.4
729.12 -570.83 1850.2
736.51 -572.84 1856.7
746.12 -561.95 1821.5
751.68 -562.58 1823.5
783.55 -579.15 1877.2
772.48 -567.44 1839.2
829.62 -570.66 1849.7
-780.21 -574.38 1846.2
-769.38 -569.91 1831.9
-743.07 -553.84 1780.2
-759.34 -569.50 1830.5
-762.56 -575.51 1849.9
-669.28 -553.89 1780.3
-612.83 -557.12 1790.7
-611.41 -560.07 1800.2
-609.02 -562.17 1807.0
-597.33 -568.88 1828.6
-586.50 -563.04 1809.8
-503.58 -554.40 1782.0
-469.41 -568.98 1828.9
-465.87 -570.46 1833.6
-465.11 -575.40 1849.5
-446.04 -569.41 1830.3
-372.96 -552.54 1776.0
-304.39 -561.95 1806.3
-301.86 -565.98 1819.2
-293.40 -558.86 1796.3
-218.37 -569.66 1831.0
-203.97 -569.23 1829.7
-199.18 -569.08 1829.2
-195.29 -571.59 1837.3
-172.67 -560.00 1800.0
-168.13 -560.42 1801.4
-164.96 -565.58 1817.9
-160.95 -568.06 1825.9
-136.05 -562.98 1809.6
-130.42 -558.93 1796.5
-32.78 -561.97 1806.3
4.69 -562.94 1809.4
14.14 -565.60 1818.0
19.11 -573.31 1842.8
56.92 -569.23 1829.7
62.50 -576.90 1854.3
66.50 -570.03 1832.2
70.24 -561.96 1806.3
120.45 -578.17 1858.4
134.77 -577.60 1856.6
138.27 -572.16 1839.1
158.20 -575.28 1849.1
161.96 -571.61 1837.3
169.99 -566.64 1821.3
176.04 -570.95 1835.2
192.35 -577.05 1854.8
198.63 -581.34 1868.6
203.11 -580.31 1865.3
208.21 -581.05 1867.7
209.53 -571.44 1836.8
223.98 -571.86 1838.1
240.15 -576.37 1852.6
249.01 -585.92 1883.3
256.28 -580.25 1865.1
255.73 -568.28 1826.6
429.87 -566.86 1822.0
442.13 -576.69 1853.7
450.29 -581.01 1867.5
510.32 -572.32 1839.6
528.97 -587.75 1889.2
532.24 -585.95 1883.4
557.48 -581.71 1869.8
558.09 -577.34 1855.7
556.13 -570.39 1833.4
583.74 -569.51 1830.6
656.34 -579.12 1861.5
662.92 -580.66 1866.4
663.70 -577.13 1855.1
689.47 -582.65 1872.8
708.40 -570.52 1833.8
719.89 -575.91 1851.1
751.20 -566.95 1822.3
769.65 -577.24 1855.4
771.58 -575.09 1848.5
802.96 -573.54 1843.5
-756.28 -571.94 1823.2
-737.91 -561.56 1790.1
-725.09 -562.41 1792.8
-715.31 -558.40 1780.0
-699.14 -560.24 1785.9
-637.12 -562.72 1793.8
-601.56 -551.43 1757.8
-603.10 -561.35 1789.4
-606.80 -569.17 1814.3
-595.88 -563.30 1795.6
-595.84 -567.69 1809.7
-593.06 -569.52 1815.5
-576.83 -562.88 1794.3
-586.84 -577.30 1840.3
-460.04 -562.27 1792.4
-463.90 -572.77 1825.8
-437.41 -569.11 1814.2
-395.09 -569.12 1814.2
-386.56 -563.54 1796.4
-371.77 -562.29 1792.4
-363.65 -556.98 1775.5
-340.18 -571.69 1822.4
-325.91 -571.52 1821.8
-272.23 -558.31 1779.7
-207.65 -571.02 1820.3
-179.60 -571.88 1823.0
-174.09 -569.32 1814.8
-169.07 -568.26 1811.4
-165.44 -571.96 1823.2
-161.34 -574.17 1830.3
-156.30 -573.09 1826.8
-151.28 -572.01 1823.4
-135.67 -566.06 1804.4
-131.84 -569.74 1816.2
-128.29 -574.91 1832.7
4.72 -570.80 1819.6
57.21 -576.84 1838.8
62.77 -584.27 1862.5
66.18 -571.96 1823.2
112.25 -565.92 1804.0
117.96 -570.91 1819.9
152.30 -575.89 1835.8
158.25 -580.25 1849.7
161.92 -576.25 1836.9
168.27 -565.57 1802.9
193.10 -584.12 1862.0
202.75 -584.12 1862.0
204.99 -576.83 1838.8
208.73 -574.00 1829.8
246.83 -585.62 1866.8
463.39 -578.04 1842.6
486.97 -583.40 1859.7
488.63 -574.02 1829.8
583.06 -573.58 1828.4
601.39 -577.52 1841.0
613.53 -584.54 1863.4
643.45 -581.02 1852.1
663.91 -582.12 1855.6
669.19 -582.53 1856.9
688.02 -586.27 1868.9
687.33 -581.59 1853.9
714.85 -580.52 1850.5
726.03 -585.66 1866.9
766.65 -587.12 1871.6
774.88 -589.69 1879.8
771.00 -583.07 1858.7
-792.70 -586.12 1853.1
-772.42 -574.61 1816.7
-758.66 -567.83 1795.2
-738.17 -566.39 1790.7
-740.33 -571.64 1807.3
-738.79 -574.09 1815.0
-737.21 -576.54 1822.8
-729.87 -574.48 1816.3
-711.18 -563.40 1781.2
-708.01 -568.27 1796.7
-705.33 -569.87 1801.7
-631.82 -558.57 1766.0
-607.59 -570.20 1802.7
-613.98 -580.67 1835.8
-606.64 -578.21 1828.1
-585.28 -580.52 1835.4
-543.82 -571.95 1808.3
-535.95 -573.57 1813.4
-500.64 -565.54 1788.0
-393.39 -571.35 1806.4
-391.31 -575.18 1818.5
-385.39 -573.39 1812.8
-364.73 -563.25 1780.8
-363.31 -568.25 1796.6
-332.41 -571.19 1805.9
-323.78 -564.30 1784.1
-272.47 -563.41 1781.3
-179.37 -575.88 1820.7
-175.78 -579.61 1832.5
-172.40 -584.25 1847.1
-150.14 -572.40 1809.7
-131.26 -571.92 1808.2
-127.46 -575.93 1820.8
-121.41 -569.70 1801.2
-112.64 -572.58 1810.3
-108.70 -576.58 1822.9
-105.13 -582.98 1843.1
-85.52 -579.65 1832.6
-56.93 -578.76 1829.8
4.79 -584.44 1847.8
9.67 -590.17 1865.9
113.94 -579.20 1831.2
118.61 -578.82 1830.0
125.45 -588.66 1861.1
191.58 -584.31 1847.3
203.43 -590.92 1868.2
206.64 -586.27 1853.5
211.06 -585.21 1850.2
257.60 -582.00 1840.0
259.33 -575.23 1818.6
426.19 -571.37 1806.4
433.75 -575.19 1818.5
434.19 -569.59 1800.8
487.36 -588.69 1861.2
489.45 -585.42 1850.9
491.25 -581.86 1839.6
614.31 -590.13 1865.7
666.14 -584.67 1848.5
674.67 -587.93 1858.8
673.71 -582.92 1843.0
678.62 -583.04 1843.3
679.54 -579.75 1832.9
748.88 -597.15 1887.9
744.62 -589.89 1865.0
762.31 -584.92 1849.3
764.62 -583.02 1843.3
764.68 -579.45 1832.0
808.08 -586.82 1855.3
842.55 -584.04 1846.5
-761.09 -588.76 1846.3
-738.03 -574.54 1801.7
-715.16 -563.88 1768.3
-711.52 -564.63 1770.6
-606.57 -573.91 1799.7
-611.44 -583.00 1828.2
-595.38 -572.12 1794.1
-578.39 -573.73 1799.1
-569.47 -569.47 1785.8
-540.69 -573.32 1797.9
-546.22 -584.21 1832.0
-539.65 -582.25 1825.9
-505.92 -570.90 1790.3
-508.03 -578.59 1814.4
-502.61 -577.77 1811.8
-408.85 -578.03 1812.6
-180.94 -570.66 1789.5
-119.20 -586.46 1839.1
-113.74 -582.91 1827.9
-103.42 -578.22 1813.2
-85.32 -583.05 1828.4
-79.54 -575.53 1804.8
-28.60 -586.30 1838.6
-23.80 -585.41 1835.8
37.89 -582.60 1827.0
84.21 -575.47 1804.6
90.52 -586.02 1837.7
93.75 -576.55 1808.0
112.61 -577.15 1809.9
117.66 -578.88 1815.3
145.21 -576.17 1806.8
475.71 -597.07 1872.3
473.88 -588.76 1846.3
493.07 -600.47 1883.0
496.08 -592.40 1857.7
501.59 -576.59 1808.1
553.09 -586.46 1839.1
568.37 -582.58 1826.9
675.20 -593.21 1860.3
687.40 -599.65 1880.4
692.07 -599.47 1879.9
693.74 -596.72 1871.2
693.75 -584.46 1832.8
719.45 -601.99 1887.8
767.07 -589.68 1849.2
776.75 -593.42 1860.9
785.00 -596.02 1869.0
777.94 -583.45 1829.6
783.14 -583.79 1830.7
798.75 -584.80 1833.9
843.61 -589.57 1848.8
840.03 -583.75 1830.6
844.41 -583.50 1829.8
-751.82 -586.33 1823.8
-692.87 -568.98 1769.9
-709.32 -586.37 1824.0
-703.78 -585.69 1821.9
-588.57 -565.76 1759.9
-576.70 -567.55 1765.4
-575.47 -570.87 1775.7
-569.08 -573.71 1784.6
-569.45 -578.79 1800.4
-530.27 -571.77 1778.6
-526.81 -573.03 1782.5
-511.28 -587.02 1826.0
-506.34 -586.79 1825.3
-493.81 -577.67 1796.9
-490.96 -579.80 1803.5
-492.04 -586.66 1824.9
-489.57 -589.38 1833.3
-483.88 -588.25 1829.8
-476.27 -584.73 1818.9
-418.56 -589.79 1834.6
-416.11 -593.08 1844.8
-406.97 -586.79 1825.3
-368.45 -585.74 1822.0
-364.08 -586.31 1823.8
-301.13 -574.46 1786.9
-164.30 -582.09 1810.7
-157.88 -575.81 1791.1
-57.85 -597.77 1859.4
-47.84 -593.26 1845.4
-41.80 -575.85 1791.2
-24.17 -599.52 1864.9
90.13 -588.20 1829.7
117.32 -581.93 1810.1
145.41 -581.64 1809.3
259.21 -595.22 1851.5
457.43 -590.85 1837.9
464.97 -594.39 1848.9
472.12 -591.35 1839.4
485.25 -601.70 1871.7
495.86 -608.78 1893.7
496.33 -603.38 1876.9
494.74 -595.61 1852.7
492.04 -586.66 1824.9
507.11 -587.68 1828.0
525.70 -603.58 1877.5
540.35 -603.64 1877.7
588.54 -593.33 1845.6
604.66 -599.82 1865.8
681.36 -594.99 1850.8
693.95 -601.74 1871.8
715.74 -599.67 1865.3
734.48 -599.18 1863.8
739.42 -599.27 1864.1
757.38 -586.97 1825.8
783.06 -592.07 1841.7
781.12 -587.03 1826.0
807.10 -588.71 1831.2
827.85 -600.31 1867.3
-764.30 -593.40 1831.1
-743.31 -580.71 1791.9
-736.36 -578.90 1786.3
-737.06 -583.12 1799.3
-724.34 -576.70 1779.5
-695.20 -575.50 1775.8
-701.91 -584.93 1804.9
-686.41 -575.84 1776.9
-668.34 -580.15 1790.2
-655.23 -572.75 1767.4
-618.22 -572.43 1766.3
-581.35 -576.73 1779.6
-577.70 -591.91 1826.5
-571.07 -589.94 1820.4
-542.02 -579.08 1786.9
-534.99 -576.49 1778.9
-533.72 -580.13 1790.1
-525.63 -576.35 1778.5
-498.58 -582.46 1797.3
-485.37 -572.37 1766.2
-481.83 -573.61 1770.0
-483.99 -581.72 1795.0
-482.08 -585.05 1805.3
-483.05 -591.97 1826.6
-453.24 -584.07 1802.3
-413.14 -580.26 1790.5
-414.86 -589.29 1818.4
-410.57 -589.90 1820.2
-403.98 -587.18 1811.9
-390.46 -588.05 1814.5
-309.44 -586.05 1808.4
-298.22 -573.49 1769.6
-208.04 -577.89 1783.2
-204.01 -579.57 1788.4
-131.52 -587.13 1811.7
-127.57 -590.61 1822.4
-90.39 -594.65 1834.9
-70.54 -587.81 1813.8
-66.08 -590.02 1820.6
-62.17 -597.77 1844.6
-57.80 -602.13 1858.0
-32.56 -581.35 1793.9
-28.07 -584.76 1804.4
-24.02 -600.50 1853.0
-9.66 -603.93 1863.6
-4.77 -595.92 1838.8
0.00 -586.06 1808.4
4.71 -588.52 1816.0
9.51 -594.68 1835.0
14.40 -599.91 1851.2
66.63 -594.95 1835.9
94.64 -591.50 1825.2
100.34 -597.28 1843.0
113.63 -591.80 1826.1
120.00 -600.02 1851.5
125.30 -602.39 1858.8
130.56 -604.45 1865.2
165.55 -591.26 1824.5
184.60 -591.65 1825.7
247.30 -583.25 1799.8
256.90 -594.68 1835.0
452.37 -595.22 1836.7
461.25 -600.59 1853.3
466.73 -601.46 1855.9
468.38 -585.47 1806.6
479.80 -593.81 1832.3
497.59 -603.87 1863.4
500.14 -601.13 1854.9
503.39 -599.28 1849.2
505.35 -595.93 1838.9
520.02 -607.50 1874.6
527.27 -604.67 1865.8
519.99 -590.90 1823.4
530.47 -597.37 1843.3
592.22 -596.99 1842.1
613.83 -599.44 1849.7
611.82 -592.85 1829.4
621.95 -593.46 1831.3
676.52 -591.36 1824.8
708.16 -590.13 1821.0
714.40 -591.39 1824.9
735.75 -605.06 1867.0
744.93 -608.60 1878.0
768.12 -603.87 1863.4
765.70 -598.20 1845.9
803.18 -601.19 1855.1
799.64 -594.97 1835.9
817.46 -590.65 1822.6
-662.60 -587.94 1799.8
-604.71 -586.10 1794.2
-605.64 -591.55 1810.9
-593.25 -583.98 1787.7
-546.15 -593.24 1816.0
-540.98 -592.72 1814.5
-430.26 -602.36 1844.0
-416.70 -589.94 1805.9
-397.39 -603.27 1846.7
-335.09 -586.41 1795.1
-306.48 -585.09 1791.1
-184.92 -582.50 1783.2
-150.63 -593.11 1815.6
-138.23 -600.56 1838.5
-130.13 -607.27 1859.0
-89.90 -596.16 1825.0
-75.77 -596.66 1826.5
-72.18 -606.34 1856.1
-67.45 -607.01 1858.2
-61.58 -596.82 1827.0
-23.84 -600.81 1839.2
-4.78 -602.71 1845.0
0.00 -600.23 1837.4
4.77 -601.47 1841.2
9.64 -607.06 1858.3
14.31 -601.15 1840.2
32.94 -593.00 1815.3
38.24 -602.29 1843.7
66.00 -593.98 1818.3
94.37 -594.54 1820.0
100.27 -601.60 1841.6
104.38 -597.80 1830.0
113.36 -595.16 1821.9
119.91 -604.37 1850.1
150.32 -591.87 1811.9
153.44 -585.88 1793.5
184.17 -595.01 1821.4
205.39 -601.83 1842.3
207.09 -593.03 1815.4
211.74 -592.87 1814.9
249.19 -592.41 1813.5
256.71 -598.99 1833.6
434.49 -595.07 1821.6
462.07 -606.47 1856.5
469.88 -610.36 1868.5
464.60 -597.34 1828.6
496.52 -595.82 1823.9
513.64 -599.24 1834.4
522.23 -603.67 1848.0
531.66 -608.99 1864.3
537.48 -610.11 1867.7
533.73 -600.45 1838.1
608.07 -589.36 1804.2
616.91 -593.37 1816.4
682.93 -597.57 1829.3
755.44 -602.44 1844.2
777.83 -616.39 1886.9
779.50 -613.85 1879.1
770.43 -602.95 1845.8
757.51 -589.17 1803.6
793.53 -598.71 1832.8
-765.53 -600.13 1822.7
-652.68 -579.65 1760.5
-663.14 -593.09 1801.3
-580.15 -589.44 1790.2
-580.58 -594.63 1806.0
-537.25 -588.20 1786.4
-493.68 -608.71 1848.7
-422.59 -596.32 1811.1
-417.47 -595.71 1809.2
-334.22 -581.45 1765.9
-309.99 -578.96 1758.4
-306.37 -580.73 1763.7
-304.00 -584.97 1776.6
-165.82 -601.68 1827.4
-161.78 -604.29 1835.3
-156.89 -603.79 1833.8
-153.50 -609.21 1850.2
-148.66 -609.01 1849.7
-133.72 -606.53 1842.1
-128.31 -603.51 1832.9
-99.88 -604.04 1834.5
-75.94 -602.81 1830.8
-71.87 -608.50 1848.1
-51.69 -596.81 1812.6
-47.22 -599.66 1821.2
-42.19 -595.32 1808.0
-19.02 -603.88 1834.0
9.44 -599.21 1819.9
37.80 -600.04 1822.4
108.18 -597.32 1814.1
113.04 -598.17 1816.7
149.10 -591.75 1797.2
153.25 -589.77 1791.2
201.02 -607.86 1846.1
206.18 -608.95 1849.4
209.30 -604.12 1834.8
215.54 -608.31 1847.5
222.30 -613.74 1864.0
252.23 -604.41 1835.7
262.79 -606.81 1843.0
426.18 -594.78 1806.4
437.49 -603.93 1834.2
459.09 -601.07 1825.5
466.14 -604.08 1834.7
467.55 -599.79 1821.6
520.81 -606.82 1843.0
526.31 -607.65 1845.5
552.36 -604.74 1836.7
559.52 -607.35 1844.6
587.54 -611.62 1857.6
588.47 -602.70 1830.5
609.78 -595.71 1809.2
617.71 -598.85 1818.8
646.05 -598.89 1818.9
686.48 -605.44 1838.8
738.01 -600.82 1824.8
743.93 -601.78 1827.7
780.40 -608.04 1846.7
809.95 -608.66 1848.6
-750.98 -600.79 1810.4
-722.87 -600.83 1810.5
-656.08 -591.40 1782.1
-622.00 -585.42 1764.1
-578.86 -592.75 1786.2
-561.28 -598.70 1804.1
-554.73 -596.68 1798.0
-545.97 -592.24 1784.6
-526.40 -591.05 1781.1
-510.07 -604.53 1821.7
-437.00 -601.46 1812.4
-419.51 -603.34 1818.1
-414.16 -602.42 1815.3
-362.09 -594.20 1790.5
-298.06 -596.12 1796.3
-290.76 -590.74 1780.1
-147.40 -608.63 1834.0
-99.49 -606.44 1827.4
-95.75 -612.80 1846.6
-80.87 -608.92 1834.9
-75.81 -606.46 1827.5
-71.52 -610.30 1839.1
-48.46 -620.29 1869.2
-42.51 -604.58 1821.8
-9.62 -615.43 1854.5
-4.69 -600.32 1809.0
23.60 -604.05 1820.2
161.66 -608.59 1833.9
211.51 -615.30 1854.2
214.17 -609.19 1835.7
451.15 -607.87 1831.7
465.31 -620.41 1869.5
470.36 -620.68 1870.3
474.00 -619.11 1865.6
469.81 -607.44 1830.4
512.93 -602.34 1815.1
516.01 -600.44 1809.4
561.89 -614.72 1852.4
566.88 -614.92 1853.0
569.90 -613.00 1847.2
576.01 -614.41 1851.5
619.43 -605.24 1823.8
625.87 -606.90 1828.8
646.24 -603.78 1819.4
692.37 -624.10 1880.7
694.38 -621.55 1873.0
687.68 -611.27 1842.0
730.74 -611.34 1842.2
786.58 -617.68 1861.3
816.32 -618.28 1863.1
813.88 -612.80 1846.6
813.68 -609.07 1835.4
816.55 -607.66 1831.1
820.96 -607.41 1830.4
832.45 -612.38 1845.3
837.28 -612.41 1845.4
-724.15 -606.60 1813.7
-686.86 -590.70 1766.2
-656.95 -596.80 1784.5
-587.56 -606.36 1813.0
-563.75 -601.02 1797.1
-561.45 -603.55 1804.6
-521.97 -590.65 1766.1
-524.95 -599.28 1791.9
-508.93 -607.89 1817.6
-488.69 -600.39 1795.2
-485.32 -601.98 1799.9
-473.94 -611.39 1828.1
-471.60 -614.51 1837.4
-463.11 -609.61 1822.8
-459.11 -610.57 1825.6
-456.69 -613.68 1834.9
-451.96 -613.71 1835.0
-435.16 -616.88 1844.5
-431.90 -619.06 1851.0
-421.12 -610.39 1825.1
-413.86 -606.68 1814.0
-397.25 -610.06 1824.1
-292.70 -589.98 1764.1
-70.58 -606.98 1814.9
-23.47 -605.44 1810.3
-9.56 -616.58 1843.6
80.31 -609.40 1822.1
159.64 -624.05 1865.9
161.53 -612.87 1832.5
224.31 -615.66 1840.9
227.73 -612.03 1830.0
444.06 -609.41 1822.1
456.05 -619.27 1851.6
467.95 -628.81 1880.2
470.94 -626.30 1872.7
476.47 -627.19 1875.3
474.44 -618.20 1848.5
498.10 -606.17 1812.5
503.76 -607.34 1816.0
527.38 -618.47 1849.3
542.22 -613.56 1834.6
575.60 -618.77 1850.1
635.62 -616.50 1843.4
682.62 -615.79 1841.2
737.99 -602.54 1801.6
745.32 -604.69 1808.1
764.02 -615.99 1841.8
821.98 -612.92 1832.7
-696.88 -596.01 1768.4
-691.11 -594.99 1765.4
-691.58 -599.37 1778.3
-681.68 -606.97 1800.9
-648.28 -606.31 1798.9
-614.98 -601.11 1783.5
-605.86 -596.68 1770.4
-586.55 -610.01 1809.9
-574.46 -617.19 1831.2
-568.68 -616.07 1827.9
-527.51 -606.87 1800.6
-488.08 -604.29 1793.0
-483.23 -604.03 1792.2
-455.52 -610.49 1811.4
-454.06 -614.87 1824.3
-454.12 -621.43 1843.8
-447.78 -619.28 1837.4
-436.30 -616.51 1829.2
-435.49 -622.13 1845.9
-424.46 -613.10 1819.1
-168.36 -607.97 1803.9
-165.43 -614.46 1823.1
-158.99 -607.91 1803.7
-24.15 -627.86 1862.9
-19.25 -625.64 1856.3
61.80 -618.01 1833.7
131.22 -609.22 1807.6
135.03 -605.30 1795.9
220.78 -623.94 1851.2
230.37 -623.91 1851.2
427.00 -623.71 1850.6
440.81 -616.18 1828.2
448.01 -619.59 1838.3
453.67 -620.81 1842.0
483.00 -615.58 1826.5
491.62 -620.49 1841.0
498.82 -623.53 1850.0
519.85 -625.74 1856.6
643.54 -624.33 1852.4
749.62 -620.71 1841.7
757.03 -622.87 1848.1
756.46 -618.49 1835.1
767.53 -623.62 1850.3
780.51 -630.22 1869.9
795.86 -615.84 1827.2
-694.43 -594.58 1750.7
-684.88 -598.13 1761.1
-680.53 -610.61 1797.9
-671.36 -606.54 1785.9
-670.25 -609.74 1795.3
-674.05 -617.49 1818.1
-665.57 -614.01 1807.9
-657.46 -610.84 1798.5
-643.60 -615.41 1812.0
-641.28 -617.70 1818.7
-637.66 -618.76 1821.9
-615.16 -605.91 1784.0
-606.66 -602.07 1772.7
-574.94 -612.33 1802.9
-569.50 -611.52 1800.5
-565.50 -612.24 1802.7
-569.68 -621.90 1831.1
-559.42 -615.83 1813.2
-484.85 -610.72 1798.2
-479.73 -610.15 1796.5
-451.06 -621.98 1831.4
-446.55 -622.32 1832.3
-433.99 -617.96 1819.5
-431.46 -621.11 1828.8
-420.47 -612.02 1802.0
-320.77 -600.29 1767.5
-316.65 -601.17 1770.1
-170.52 -620.50 1827.0
-165.82 -620.63 1827.4
-159.45 -614.35 1808.9
-43.34 -630.80 1857.3
14.24 -621.61 1830.3
19.03 -623.21 1835.0
93.81 -614.46 1809.2
122.49 -617.16 1817.2
129.10 -626.37 1844.3
134.54 -629.47 1853.4
140.82 -636.10 1872.9
421.05 -626.79 1845.5
421.99 -621.13 1828.8
419.39 -610.45 1797.4
428.19 -616.41 1814.9
433.77 -617.65 1818.6
451.72 -629.53 1853.6
458.32 -632.01 1860.9
460.37 -628.22 1849.7
489.93 -629.22 1852.7
496.40 -631.35 1858.9
502.66 -633.16 1864.3
509.63 -623.94 1837.1
519.46 -630.09 1855.2
519.04 -623.80 1836.7
520.35 -619.69 1824.6
552.68 -624.15 1837.7
565.92 -633.64 1865.7
567.60 -630.13 1855.4
591.70 -620.11 1825.8
632.50 -632.50 1862.3
643.64 -624.56 1839.0
656.79 -632.65 1862.8
655.25 -613.12 1805.3
688.46 -621.99 1831.4
701.44 -629.38 1853.1
754.70 -625.73 1842.4
751.58 -619.22 1823.2
831.28 -622.27 1832.2
-699.93 -603.86 1764.5
-701.85 -609.50 1781.0
-700.28 -616.25 1800.7
-685.18 -607.01 1773.7
-673.25 -621.46 1816.0
-668.06 -621.02 1814.7
-654.06 -612.31 1789.2
-639.84 -603.28 1762.8
-587.24 -625.12 1826.7
-572.79 -614.70 1796.2
-433.31 -628.54 1836.7
-430.93 -632.03 1846.8
-416.34 -617.49 1804.3
-410.81 -616.22 1800.6
-328.81 -620.04 1811.8
-310.46 -602.66 1761.0
-165.00 -622.30 1818.4
-160.99 -625.01 1826.3
-154.59 -618.35 1806.9
-147.85 -629.57 1839.6
-142.60 -627.42 1833.4
-102.49 -614.95 1796.9
-100.73 -633.14 1850.1
-91.34 -634.58 1854.3
-81.29 -631.16 1844.3
-43.26 -634.47 1854.0
-38.24 -630.94 1843.7
28.96 -637.14 1861.8
93.39 -616.40 1801.2
98.67 -620.20 1812.3
104.97 -629.82 1840.4
109.28 -627.15 1832.6
124.43 -631.72 1845.9
129.79 -634.53 1854.1
133.96 -631.52 1845.3
140.99 -641.74 1875.2
145.38 -639.69 1869.2
168.85 -636.81 1860.8
173.64 -636.68 1860.4
421.88 -618.75 1808.0
434.40 -630.12 1841.3
443.35 -636.11 1858.8
447.79 -628.81 1837.4
497.33 -643.60 1880.7
492.85 -631.61 1845.6
514.84 -635.13 1855.9
521.64 -637.56 1863.0
526.41 -637.48 1862.8
533.26 -639.91 1869.9
535.67 -637.01 1861.4
533.53 -628.81 1837.4
560.76 -638.11 1864.6
556.96 -628.36 1836.1
594.50 -627.79 1834.5
593.53 -621.79 1816.9
624.65 -619.95 1811.5
679.43 -622.81 1819.9
685.63 -624.16 1823.9
713.54 -636.40 1859.6
711.61 -630.42 1842.1
710.64 -625.37 1827.4
715.16 -625.17 1826.8
833.09 -628.39 1836.2
-722.21 -611.81 1774.3
-718.20 -612.31 1775.8
-697.72 -618.65 1794.1
-688.82 -614.85 1783.1
-665.16 -618.65 1794.1
-642.71 -614.97 1783.5
-602.63 -621.32 1801.9
-595.99 -619.27 1795.9
-544.42 -618.87 1794.8
-491.99 -635.29 1842.4
-483.37 -630.28 1827.9
-429.07 -627.10 1818.7
-430.82 -636.65 1846.4
-420.50 -628.38 1822.4
-409.66 -619.14 1795.6
-359.84 -629.72 1826.3
-337.49 -623.42 1808.0
-329.74 -626.51 1816.9
-317.99 -612.94 1777.6
-314.17 -614.47 1782.0
-311.29 -617.93 1792.1
-159.36 -623.39 1807.9
-155.51 -626.77 1817.7
-141.53 -627.45 1819.7
-104.03 -628.88 1823.8
-69.59 -616.99 1789.3
-65.71 -624.21 1810.3
-61.88 -633.06 1835.9
-37.76 -627.72 1820.4
23.39 -622.25 1804.6
28.60 -633.96 1838.6
33.79 -642.09 1862.1
38.54 -640.75 1858.3
42.70 -630.94 1829.8
89.92 -629.44 1825.4
95.18 -632.94 1835.6
100.03 -633.52 1837.3
104.35 -630.83 1829.5
142.70 -632.65 1834.8
171.92 -635.15 1842.0
177.74 -638.91 1852.9
183.43 -642.01 1861.9
185.36 -632.13 1833.2
497.44 -648.62 1881.1
496.64 -641.29 1859.8
519.02 -645.14 1871.0
514.60 -633.72 1837.9
532.08 -631.85 1832.4
565.00 -647.80 1878.7
682.95 -630.78 1829.3
698.54 -640.73 1858.2
710.99 -638.93 1853.0
707.68 -631.69 1832.0
764.96 -631.92 1832.6
825.65 -642.17 1862.4
823.54 -636.80 1846.8
817.45 -628.44 1822.5
-737.86 -629.77 1812.8
-732.33 -629.06 1810.7
-724.68 -626.50 1803.4
-691.71 -617.93 1778.7
-684.56 -615.64 1772.1
-665.28 -610.60 1757.6
-669.27 -618.50 1780.3
-663.17 -617.12 1776.3
-661.05 -619.45 1783.1
-624.67 -620.04 1784.8
-627.04 -627.04 1804.9
-615.38 -620.01 1784.7
-601.59 -624.91 1798.8
-596.45 -624.41 1797.3
-569.40 -625.41 1800.2
-561.13 -621.42 1788.7
-550.62 -630.63 1815.2
-545.45 -630.09 1813.7
-511.79 -617.83 1778.4
-512.17 -623.92 1795.9
-507.83 -624.30 1797.0
-499.13 -619.29 1782.6
-494.24 -624.80 1798.5
-491.13 -638.95 1839.2
-472.43 -639.45 1840.6
-328.91 -620.77 1786.9
-327.12 -626.20 1802.5
-313.08 -608.01 1750.1
-306.53 -604.04 1738.7
-184.74 -634.74 1827.1
-176.98 -624.10 1796.5
-170.02 -615.75 1772.4
-61.35 -632.39 1820.3
-57.43 -641.29 1845.9
-9.54 -638.94 1839.2
18.88 -632.35 1820.2
23.39 -626.75 1804.1
28.17 -629.03 1810.6
76.70 -642.39 1849.1
89.85 -633.66 1824.0
99.28 -633.51 1823.5
114.42 -638.82 1838.8
155.71 -632.29 1820.0
224.35 -639.64 1841.2
247.22 -637.08 1833.8
502.38 -653.58 1881.3
508.56 -642.90 1850.6
519.14 -650.14 1871.4
543.46 -638.80 1838.8
550.58 -641.55 1846.7
572.18 -649.77 1870.3
573.86 -646.19 1860.0
667.49 -634.35 1825.9
695.92 -638.72 1838.5
761.13 -633.48 1823.5
777.08 -634.93 1827.6
794.27 -645.04 1856.7
798.40 -644.49 1855.2
793.44 -636.65 1832.6
799.07 -629.85 1813.0
-740.43 -628.67 1796.2
-741.79 -633.81 1810.9
-737.34 -634.02 1811.5
-727.18 -629.29 1798.0
-689.91 -612.75 1750.7
-699.44 -625.32 1786.6
-703.97 -633.57 1810.2
-688.87 -624.14 1783.3
-679.27 -628.10 1794.6
-677.15 -630.45 1801.3
-587.94 -620.09 1771.7
-495.63 -631.22 1803.5
-489.00 -628.72 1796.3
-482.20 -632.02 1805.8
-441.36 -640.69 1830.5
-373.53 -638.31 1823.7
-361.66 -642.42 1835.5
-359.40 -646.92 1848.4
-344.49 -637.07 1820.2
-323.65 -624.19 1783.4
-316.83 -619.88 1771.1
-175.27 -622.67 1779.0
-173.49 -633.00 1808.6
-168.75 -632.81 1808.0
-80.59 -640.00 1828.6
-76.48 -645.34 1843.8
-71.20 -640.78 1830.8
-56.77 -638.62 1824.6
14.27 -642.18 1834.8
18.99 -640.85 1831.0
23.53 -635.22 1814.9
28.13 -632.88 1808.2
111.21 -652.73 1864.9
114.62 -644.72 1842.1
150.12 -633.33 1809.5
158.32 -647.69 1850.5
163.67 -649.87 1856.8
166.83 -643.48 1838.5
188.68 -653.11 1866.0
192.10 -648.35 1852.4
460.51 -640.91 1831.2
463.60 -638.63 1824.7
492.49 -633.20 1809.1
500.65 -637.62 1821.8
510.14 -643.63 1838.9
518.17 -647.71 1850.6
521.88 -646.36 1846.7
512.83 -629.38 1798.2
558.15 -649.57 1855.9
562.05 -643.02 1837.2
619.68 -638.60 1824.6
630.73 -645.06 1843.0
664.72 -640.98 1831.4
790.69 -650.88 1859.6
806.89 -652.27 1863.6
795.81 -639.49 1827.1
799.29 -634.73 1813.5
-736.65 -630.09 1787.0
-731.18 -629.37 1785.0
-696.74 -623.40 1768.0
-696.17 -627.01 1778.3
-691.07 -626.57 1777.0
-684.95 -625.19 1773.1
-676.83 -639.23 1812.9
-614.29 -632.91 1795.0
-556.04 -630.18 1787.3
-518.67 -641.27 1818.7
-490.62 -635.47 1802.3
-488.70 -639.06 1812.5
-476.46 -629.12 1784.3
-442.13 -646.56 1833.7
-422.30 -638.15 1809.9
-374.72 -637.02 1806.7
-370.77 -638.29 1810.3
-359.50 -626.82 1777.8
-348.97 -641.34 1818.9
-313.92 -618.74 1754.8
-307.36 -614.72 1743.4
-165.90 -626.72 1777.5
-163.88 -636.79 1806.0
-159.15 -636.59 1805.5
-125.49 -632.09 1792.7
-79.45 -635.58 1802.6
-75.56 -642.28 1821.6
-71.58 -648.99 1840.6
149.69 -636.18 1804.3
156.83 -646.33 1833.1
161.05 -644.21 1827.1
188.05 -655.76 1859.8
213.50 -659.92 1871.6
216.77 -655.12 1858.0
432.41 -653.41 1853.2
440.46 -658.27 1866.9
436.95 -645.92 1831.9
435.26 -636.50 1805.2
497.09 -643.84 1826.0
502.02 -644.11 1826.8
535.29 -644.24 1827.2
535.39 -638.71 1811.5
617.70 -641.28 1818.7
623.81 -642.72 1822.8
636.75 -651.11 1846.6
640.76 -650.33 1844.4
637.55 -642.28 1821.6
661.59 -647.31 1835.9
660.03 -641.17 1818.4
690.11 -651.77 1848.5
