ply
format ascii 1.0
element vertex 2392
property float x
property float y
property float z
end_header
-17.42 336.70 746.4
-15.35 333.84 740.0
-12.82 318.64 706.3
-10.97 318.24 705.5
-9.39 326.89 724.6
-7.74 336.76 746.5
-5.95 344.99 764.8
-3.83 333.48 739.3
-1.78 310.05 687.3
0.00 323.62 717.4
1.96 341.30 756.6
3.68 319.92 709.2
5.24 303.87 673.6
7.32 318.26 705.5
10.22 355.67 788.4
13.72 398.01 882.3
16.61 412.80 915.1
19.96 434.16 962.4
-176.11 454.72 1013.8
-153.79 403.13 898.8
-138.75 369.30 823.4
-136.52 369.02 822.8
-133.10 365.51 814.9
-123.05 343.36 765.5
-116.97 331.73 739.6
-117.20 337.92 753.4
-115.56 338.84 755.5
-115.68 345.03 769.3
-114.79 348.38 776.7
-111.89 345.65 770.7
-111.47 350.63 781.7
-105.68 338.56 754.8
-99.89 326.07 727.0
-99.50 331.04 738.1
-97.86 331.94 740.1
-91.97 318.22 709.5
-88.43 312.21 696.1
-86.31 311.07 693.5
-85.53 314.81 701.9
-84.27 316.93 706.6
-80.66 310.09 691.4
-78.99 310.57 692.4
-74.99 301.69 672.6
-70.89 291.99 651.0
-75.78 319.75 712.9
-74.80 323.49 721.2
-70.92 314.60 701.4
-68.67 312.63 697.0
-66.96 313.10 698.1
-67.46 324.17 722.8
-66.50 328.72 732.9
-64.62 328.79 733.0
-62.96 330.07 735.9
-61.22 330.95 737.9
-61.07 340.80 759.8
-61.87 356.78 795.5
-60.57 361.33 805.6
-55.52 343.01 764.8
-49.72 318.56 710.2
-44.32 294.91 657.5
-39.91 276.16 615.7
-43.99 317.06 706.9
-50.69 381.26 850.0
-47.24 371.50 828.3
-40.73 335.57 748.2
-36.72 317.62 708.2
-36.32 330.74 737.4
-39.05 375.34 836.8
-36.93 375.79 837.8
-31.05 335.75 748.6
-27.62 318.60 710.3
-26.05 321.90 717.7
-23.91 318.24 709.5
-20.94 301.90 673.1
-19.12 300.69 670.4
-18.40 318.30 709.7
-17.54 337.14 751.7
-15.84 342.47 763.6
-13.49 333.49 743.5
-11.45 330.22 736.3
-9.69 335.14 747.2
-7.82 338.02 753.6
-5.89 339.66 757.3
-3.97 343.76 766.4
-1.95 337.62 752.7
0.00 329.03 733.6
1.85 320.43 714.4
3.65 315.93 704.4
5.63 324.93 724.4
7.45 322.06 718.0
9.77 338.01 753.6
13.11 378.10 843.0
15.22 376.04 838.4
17.37 375.62 837.5
21.52 413.65 922.3
27.81 481.13 1072.7
-172.48 436.27 978.3
-162.64 417.52 936.3
-153.48 399.97 896.9
-137.21 363.08 814.2
-133.35 358.38 803.7
-132.49 361.72 811.2
-123.32 342.10 767.2
-108.79 306.75 687.9
-99.45 285.08 639.3
-107.37 313.00 701.9
-112.38 333.28 747.4
-111.02 335.00 751.2
-107.66 330.66 741.5
-110.42 345.30 774.3
-107.68 342.98 769.1
-99.24 322.07 722.2
-96.66 319.73 717.0
-97.71 329.53 739.0
-94.64 325.58 730.1
-89.43 313.93 704.0
-85.94 307.95 690.6
-83.18 304.39 682.6
-77.96 291.51 653.7
-74.27 283.89 636.6
-74.09 289.63 649.5
-78.20 312.79 701.4
-80.26 328.67 737.1
-79.33 332.80 746.3
-74.58 320.71 719.2
-71.54 315.51 707.5
-70.08 317.20 711.3
-67.64 314.43 705.1
-67.35 321.80 721.6
-67.39 331.20 742.7
-66.36 335.72 752.9
-63.80 332.54 745.7
-60.29 324.07 726.7
-57.25 317.63 712.3
-54.28 311.18 697.8
-57.00 338.05 758.1
-55.24 339.32 760.9
-50.34 320.68 719.1
-46.21 305.69 685.5
-44.38 305.32 684.7
-48.23 345.62 775.1
-51.66 386.33 866.4
-45.47 355.47 797.2
-38.14 312.40 700.6
-33.35 286.80 643.2
-34.25 310.02 695.2
-36.45 348.31 781.1
-36.00 364.21 816.7
-31.69 340.64 763.9
-28.75 329.68 739.3
-27.30 335.40 752.2
-25.72 340.31 763.2
-23.40 335.45 752.3
-20.70 323.67 725.8
-19.22 330.61 741.4
-17.00 324.93 728.7
-14.15 304.17 682.1
-13.16 323.33 725.1
-12.03 344.92 773.5
-9.70 333.53 747.9
-7.51 322.95 724.2
-5.59 320.51 718.8
-3.74 321.33 720.6
-1.88 323.78 726.1
0.00 322.96 724.3
1.90 327.04 733.4
3.89 334.77 750.7
5.85 335.17 751.6
7.61 327.43 734.3
8.83 303.80 681.3
10.85 311.12 697.7
14.30 351.42 788.1
17.61 378.69 849.2
20.43 390.48 875.7
24.36 418.96 939.5
30.80 481.63 1080.1
-178.02 441.17 995.1
-146.39 368.12 830.3
-140.05 357.45 806.3
-148.52 384.80 868.0
-146.93 386.54 871.9
-138.57 370.25 835.2
-134.39 364.77 822.8
-129.68 357.68 806.8
-117.19 328.52 741.0
-101.79 290.11 654.4
-101.93 295.42 666.4
-110.17 324.82 732.7
-109.78 329.35 742.9
-98.28 300.12 677.0
-96.56 300.21 677.2
-103.59 328.04 739.9
-103.82 334.97 755.6
-97.98 322.20 726.8
-94.32 316.26 713.4
-95.79 327.61 739.0
-94.36 329.31 742.8
-92.12 328.19 740.3
-89.56 325.86 735.0
-84.65 314.67 709.8
-81.77 310.72 700.9
-76.44 297.09 670.1
-75.43 299.98 676.7
-76.17 310.14 699.6
-73.80 307.79 694.3
-72.39 309.47 698.1
-72.71 318.82 719.1
-70.86 318.89 719.3
-68.23 315.32 711.3
-68.86 327.10 737.8
-69.77 340.89 768.9
-68.19 342.98 773.6
-64.72 335.37 756.5
-60.65 324.11 731.1
-55.98 308.81 696.6
-51.42 293.10 661.1
-53.90 317.81 716.9
-55.29 337.67 761.7
-52.81 334.49 754.5
-49.76 327.26 738.2
-46.49 318.00 717.3
-48.67 346.77 782.2
-50.13 372.72 840.7
-45.98 357.39 806.1
-39.77 323.83 730.4
-36.27 310.10 699.5
-36.39 327.55 738.8
-35.80 340.13 767.2
-33.42 336.12 758.2
-29.75 317.92 717.1
-26.72 304.59 687.0
-25.54 311.90 703.5
-24.85 326.91 737.4
-22.26 317.21 715.5
-19.31 300.22 677.2
-19.12 326.98 737.5
-17.53 333.07 751.3
-15.01 320.93 723.9
-13.83 337.97 762.3
-12.09 344.46 777.0
-9.49 324.61 732.2
-7.10 303.55 684.7
-4.99 284.51 641.7
-3.38 289.37 652.7
-1.74 297.48 671.0
0.00 300.73 678.3
1.84 314.50 709.4
3.68 314.50 709.4
5.45 310.85 701.2
7.53 321.79 725.8
9.59 327.86 739.5
12.34 351.76 793.4
15.83 386.59 872.0
18.39 393.06 886.6
20.20 383.72 865.5
23.29 398.29 898.4
27.96 434.73 980.6
-207.29 496.33 1126.1
-174.95 431.04 978.0
-152.57 381.44 865.4
-142.22 360.87 818.8
-144.95 373.35 847.1
-141.74 370.69 841.1
-131.50 349.29 792.5
-134.66 363.38 824.5
-136.65 374.67 850.1
-127.04 354.04 803.3
-116.54 330.21 749.2
-108.54 312.74 709.6
-111.64 327.22 742.4
-115.38 344.11 780.8
-109.44 332.23 753.8
-102.73 317.53 720.5
-105.09 330.83 750.6
-105.54 338.53 768.1
-100.15 327.42 742.9
-95.97 319.91 725.8
-95.18 323.60 734.2
-93.07 322.89 732.6
-90.97 322.18 731.0
-90.20 326.27 740.3
-87.98 325.15 737.7
-86.73 327.64 743.4
-84.82 327.72 743.6
-80.38 317.77 721.0
-76.54 309.82 702.9
-74.25 307.88 698.6
-73.12 310.76 705.1
-73.34 319.67 725.3
-70.57 315.72 716.3
-63.83 293.29 665.4
-59.06 278.88 632.8
-64.13 311.49 706.7
-63.60 317.98 721.5
-62.91 324.07 735.3
-62.00 329.36 747.3
-58.38 320.17 726.4
-56.08 317.81 721.1
-54.22 317.86 721.2
-51.90 315.09 714.9
-48.58 305.89 694.0
-44.45 290.63 659.4
-45.06 306.38 695.1
-50.54 357.96 812.2
-49.85 368.48 836.0
-44.51 343.96 780.4
-38.51 311.77 707.4
-36.49 310.20 703.8
-35.80 320.30 726.7
-34.56 326.38 740.5
-31.43 314.32 713.2
-27.27 289.77 657.5
-24.33 275.69 625.5
-23.83 289.41 656.7
-23.83 311.61 707.0
-22.05 312.44 708.9
-19.30 298.35 676.9
-19.42 330.22 749.2
-18.51 349.59 793.2
-16.58 352.43 799.6
-14.69 356.88 809.7
-12.37 350.44 795.1
-9.79 332.70 754.9
-7.46 316.98 719.2
-5.42 307.31 697.3
-3.63 308.93 700.9
-1.84 312.56 709.2
0.00 311.76 707.3
1.92 326.27 740.3
3.93 333.93 757.7
5.78 327.48 743.0
7.77 330.29 749.4
10.43 354.48 804.3
13.64 386.33 876.5
16.82 408.49 926.8
18.67 396.78 900.3
20.64 389.91 884.7
24.14 410.45 931.3
28.02 433.00 982.4
-211.97 504.56 1151.6
-199.39 481.40 1098.7
-176.73 432.87 987.9
-155.43 386.28 881.6
-145.50 367.00 837.6
-137.81 352.86 805.4
-125.09 325.23 742.3
-122.61 323.76 738.9
-131.24 352.05 803.5
-137.36 374.41 854.5
-131.60 364.60 832.1
-120.74 340.09 776.2
-114.05 326.69 745.6
-107.11 312.09 712.3
-104.22 309.01 705.3
-109.15 329.39 751.8
-111.63 343.02 782.9
-107.98 337.95 771.3
-103.14 328.89 750.6
-99.39 323.01 737.2
-96.90 321.12 732.9
-93.85 317.22 724.0
-89.23 307.74 702.4
-88.11 310.22 708.0
-87.96 316.28 721.9
-84.59 310.78 709.3
-81.71 306.87 700.4
-82.72 317.72 725.1
-80.76 317.40 724.4
-78.50 315.87 720.9
-76.84 316.75 722.9
-73.00 308.43 703.9
-71.01 307.70 702.3
-73.43 326.55 745.3
-71.51 326.62 745.5
-61.07 286.70 654.3
-56.90 274.76 627.1
-59.23 294.41 671.9
-59.76 306.07 698.6
-60.31 318.53 727.0
-58.37 318.19 726.2
-54.57 307.43 701.7
-50.98 297.07 678.0
-51.68 311.94 711.9
-50.48 315.99 721.2
-49.24 320.04 730.4
-51.14 345.73 789.1
-49.79 350.58 800.1
-44.83 329.39 751.8
-41.74 320.62 731.8
-39.99 321.86 734.6
-35.20 297.44 678.9
-31.06 276.23 630.4
-28.95 271.84 620.4
-26.18 260.24 594.0
-25.86 273.10 623.3
-26.48 298.39 681.0
-25.78 311.25 710.4
-24.44 317.69 725.1
-22.33 314.50 717.8
-19.69 302.49 690.4
-18.99 320.96 732.5
-17.71 332.62 759.1
-16.26 343.47 783.9
-14.74 355.92 812.3
-12.17 342.69 782.1
-9.36 316.22 721.7
-7.74 327.06 746.5
-6.08 342.72 782.2
-3.96 334.29 763.0
-1.94 327.07 746.5
0.00 317.04 723.6
1.92 324.26 740.1
4.00 337.91 771.2
5.93 333.89 762.0
7.83 330.67 754.7
10.23 345.91 789.5
13.15 370.38 845.3
15.94 384.81 878.3
17.97 379.58 866.3
20.17 378.76 864.4
25.81 436.11 995.3
46.45 560.73 1279.8
-199.85 459.94 1056.0
-188.87 446.91 1026.1
-179.88 431.72 991.2
-168.32 409.82 940.9
-149.35 368.98 847.1
-131.16 328.89 755.1
-122.59 312.05 716.4
-120.01 310.19 712.2
-124.07 325.69 747.8
-122.18 325.81 748.0
-118.09 319.99 734.7
-124.41 342.63 786.6
-122.41 342.74 786.9
-116.24 330.99 759.9
-110.35 319.63 733.8
-102.04 300.74 690.5
-102.65 307.96 707.0
-106.55 325.47 747.3
-104.39 324.78 745.7
-96.87 307.05 705.0
-89.06 287.72 660.6
-86.16 283.84 651.7
-82.02 275.59 632.7
-85.26 292.32 671.2
-90.46 316.61 726.9
-89.60 320.26 735.3
-83.37 304.47 699.0
-79.87 298.19 684.6
-79.99 305.41 701.2
-80.02 312.64 717.8
-79.67 318.67 731.6
-77.69 318.35 730.9
-73.54 308.88 709.2
-69.23 298.21 684.7
-69.09 305.44 701.3
-71.14 323.00 741.6
-66.25 309.14 709.8
-62.35 299.26 687.1
-62.67 309.66 711.0
-62.01 315.69 724.8
-61.36 322.12 739.6
-61.07 330.94 759.8
-59.11 331.00 759.9
-53.98 312.73 718.0
-50.80 304.81 699.8
-52.26 325.18 746.6
-51.75 334.39 767.7
-50.84 341.62 784.3
-46.87 328.11 753.3
-42.80 312.60 717.7
-41.31 315.43 724.2
-39.48 315.87 725.2
-34.14 286.79 658.4
-30.68 271.26 622.8
-28.77 268.50 616.4
-27.54 272.12 624.8
-29.11 305.66 701.8
-28.50 319.25 733.0
-26.87 322.47 740.4
-24.86 321.30 737.7
-21.13 295.78 679.1
-17.46 266.66 612.2
-16.75 281.44 646.2
-16.87 314.99 723.2
-16.16 339.36 779.1
-14.32 343.77 789.3
-11.49 321.82 738.9
-8.85 297.47 683.0
-7.53 316.25 726.1
-5.91 331.03 760.0
-3.84 322.25 739.9
-1.91 320.65 736.2
0.00 322.25 739.9
1.93 324.25 744.4
3.96 332.23 762.8
6.09 341.01 782.9
8.35 350.59 804.9
10.46 351.38 806.7
12.76 357.36 820.5
15.42 370.12 849.8
17.40 365.31 838.7
18.76 350.13 803.9
22.05 370.47 850.6
28.38 433.52 995.3
34.64 484.98 1113.5
36.26 468.58 1075.8
40.77 489.30 1123.4
48.46 542.73 1246.1
-194.73 445.48 1028.9
-178.46 413.94 956.1
-171.89 404.31 933.8
-170.52 406.82 939.6
-165.72 401.09 926.4
-156.51 384.38 887.8
-144.51 360.19 831.9
-129.99 328.92 759.7
-124.40 319.62 738.2
-128.70 335.84 775.7
-126.00 333.99 771.4
-119.95 323.10 746.3
-124.09 339.73 784.7
-122.52 341.02 787.6
-116.63 330.12 762.5
-115.37 332.19 767.3
-111.27 326.00 752.9
-107.24 319.80 738.6
-106.78 324.23 748.9
-104.75 323.94 748.2
-97.21 306.29 707.4
-87.67 281.54 650.3
-83.35 272.94 630.4
-78.91 263.55 608.7
-84.53 288.09 665.4
-92.36 321.33 742.2
-93.13 330.89 764.3
-88.67 321.89 743.5
-84.95 315.26 728.1
-82.56 313.36 723.8
-80.91 314.23 725.8
-78.15 310.75 717.7
-73.01 297.37 686.8
-71.34 297.84 687.9
-70.22 300.67 694.5
-67.17 295.20 681.8
-66.73 301.20 695.7
-64.43 298.88 690.3
-63.57 303.30 700.5
-62.97 309.30 714.4
-59.96 303.41 700.8
-60.96 318.13 734.8
-60.98 328.49 758.7
-59.38 330.53 763.4
-55.41 319.09 737.0
-50.98 304.07 702.3
-50.96 315.22 728.1
-50.19 322.41 744.7
-48.39 323.25 746.6
-44.07 306.63 708.2
-40.16 291.59 673.5
-40.51 307.50 710.2
-38.82 308.73 713.1
-34.46 287.73 664.6
-33.06 290.54 671.1
-30.89 286.60 662.0
-29.62 291.00 672.1
-31.04 323.98 748.3
-30.46 339.10 783.2
-27.56 328.80 759.4
-23.74 305.00 704.4
-21.49 299.06 690.7
-19.73 299.48 691.7
-17.58 293.54 678.0
-16.16 299.91 692.7
-15.62 326.14 753.3
-13.65 325.76 752.4
-11.29 314.25 725.8
-9.09 303.53 701.1
-7.46 311.49 719.4
-5.87 326.99 755.2
-3.75 313.09 723.1
-1.83 306.33 707.5
0.00 315.47 728.6
1.92 319.84 738.7
3.90 325.80 752.5
5.95 331.36 765.3
8.21 342.87 791.9
10.38 346.84 801.1
12.90 359.14 829.5
15.90 379.39 876.3
18.69 390.10 901.0
20.42 378.96 875.3
23.14 386.48 892.6
28.91 438.89 1013.7
33.56 467.06 1078.8
34.53 443.60 1024.6
40.51 483.27 1116.2
49.86 555.10 1282.1
54.59 569.74 1315.9
57.63 566.12 1307.5
68.84 638.70 1475.2
-181.05 423.30 983.6
-171.01 405.53 942.3
-170.25 409.59 951.7
-164.33 401.16 932.1
-154.10 381.79 887.1
-136.79 344.05 799.4
-124.82 318.78 740.7
-124.60 323.19 751.0
-130.27 343.24 797.6
-131.02 350.79 815.1
-125.07 340.35 790.8
-115.85 320.51 744.7
-114.37 321.79 747.7
-116.57 333.64 775.2
-113.39 330.22 767.3
-108.92 322.88 750.2
-106.62 321.80 747.7
-103.31 317.59 737.9
-100.05 313.37 728.1
-96.47 307.97 715.6
-92.84 302.17 702.1
-88.91 295.19 685.9
-82.87 280.75 652.3
-84.38 291.82 678.1
-87.76 309.97 720.2
-84.28 304.15 706.7
-83.96 309.73 719.7
-84.62 319.25 741.8
-81.49 314.61 731.0
-77.43 306.03 711.1
-72.78 294.69 684.7
-71.40 296.33 688.5
-72.59 308.99 718.0
-71.65 313.00 727.3
-70.31 315.43 732.9
-67.91 313.13 727.6
-61.05 289.55 672.8
-50.84 248.24 576.8
-55.47 279.02 648.3
-60.71 314.94 731.8
-59.93 320.91 745.7
-56.94 315.05 732.1
-55.12 315.50 733.1
-53.49 317.13 736.9
-50.50 310.47 721.4
-46.53 297.10 690.3
-46.36 307.80 715.2
-43.48 300.74 698.8
-40.64 293.28 681.5
-41.54 313.45 728.3
-41.31 326.52 758.7
-38.30 317.87 738.6
-36.21 316.32 735.0
-35.12 323.86 752.5
-32.44 316.78 736.1
-31.45 326.29 758.2
-30.84 341.33 793.1
-27.96 331.48 770.2
-25.28 322.82 750.1
-23.51 325.21 755.7
-20.82 314.17 730.0
-17.74 294.43 684.1
-16.69 307.88 715.4
-15.79 327.66 761.3
-13.20 313.05 727.4
-9.87 273.13 634.7
-8.13 269.98 627.3
-7.14 296.47 688.9
-5.86 324.15 753.2
-3.90 323.76 752.3
-1.94 322.18 748.6
0.00 333.65 775.3
2.01 332.85 773.4
4.01 332.85 773.4
6.07 335.61 779.8
8.26 342.72 796.3
10.74 356.55 828.5
13.87 383.81 891.8
16.48 390.91 908.3
18.61 386.15 897.3
20.87 384.95 894.5
24.26 402.71 935.7
30.61 461.96 1073.4
35.05 484.85 1126.6
38.40 490.35 1139.4
46.62 552.74 1284.3
58.18 603.60 1402.5
57.36 560.10 1301.4
-194.86 446.56 1043.9
-184.05 427.73 999.9
-171.99 405.40 947.7
-170.41 407.49 952.6
-162.08 393.28 919.4
-152.50 375.56 877.9
-143.75 359.38 840.1
-135.35 343.58 803.2
-127.43 328.54 768.0
-126.97 332.55 777.4
-131.43 349.78 817.7
-128.06 346.40 809.8
-113.69 312.64 730.8
-110.16 308.07 720.2
-116.82 332.33 776.9
-118.48 342.96 801.7
-111.94 329.81 771.0
-108.28 324.84 759.4
-104.81 320.26 748.7
-102.40 318.79 745.2
-97.42 309.13 722.6
-92.20 298.29 697.3
-91.13 300.71 703.0
-88.28 297.28 694.9
-86.16 296.19 692.4
-85.95 301.74 705.4
-81.53 292.44 683.6
-81.48 298.77 698.4
-84.91 318.40 744.3
-83.61 320.83 750.0
-80.19 315.03 736.4
-76.94 309.63 723.8
-73.65 303.83 710.2
-72.94 308.59 721.4
-72.08 312.97 731.6
-70.90 316.17 739.1
-69.51 318.58 744.7
-64.35 303.36 709.2
-56.38 273.63 639.7
-59.91 299.56 700.3
-62.97 324.71 759.1
-60.87 323.98 757.4
-57.99 318.94 745.6
-55.93 318.21 743.9
-52.54 309.63 723.8
-46.76 285.73 667.9
-46.08 292.45 683.6
-44.44 293.28 685.6
-43.18 296.85 693.9
-41.66 298.85 698.6
-41.58 311.85 729.0
-40.90 321.32 751.1
-38.52 317.82 743.0
-36.38 315.89 738.4
-35.75 327.71 766.1
-33.89 328.92 768.9
-31.21 321.88 752.4
-29.23 321.52 751.6
-27.25 321.15 750.7
-25.40 322.35 753.6
-22.59 310.58 726.0
-18.48 277.18 648.0
-17.61 290.57 679.3
-17.89 327.94 766.6
-16.47 339.75 794.2
-13.33 314.21 734.5
-10.10 277.64 649.0
-8.59 283.55 662.8
-7.43 306.37 716.2
-5.93 326.04 762.2
-3.89 320.93 750.2
-1.88 309.92 724.5
0.00 333.13 778.7
2.10 345.71 808.2
4.15 342.17 799.9
6.19 340.20 795.3
8.26 340.58 796.2
10.52 347.26 811.8
13.13 361.02 843.9
15.00 353.53 826.4
17.31 357.05 834.7
20.03 367.26 858.5
23.07 380.61 889.7
29.09 436.42 1020.2
35.63 489.85 1145.1
41.94 532.28 1244.3
46.43 547.17 1279.1
50.49 555.38 1298.3
65.07 596.48 1394.4
-223.42 495.14 1164.5
-177.59 398.97 938.4
-163.38 372.14 875.2
-174.03 401.99 945.5
-185.16 433.80 1020.3
-173.81 413.11 971.6
-153.74 370.79 872.1
-143.64 351.61 826.9
-136.89 340.14 800.0
-135.01 340.65 801.2
-130.57 334.58 786.9
-129.17 336.25 790.8
-133.16 352.24 828.4
-128.76 346.16 814.1
-114.08 311.81 733.3
-102.59 285.17 670.7
-108.56 306.97 722.0
-114.00 328.01 771.4
-112.17 328.50 772.6
-105.39 314.25 739.1
-99.93 303.48 713.8
-101.11 312.88 735.9
-99.48 313.75 737.9
-94.82 304.91 717.1
-92.99 305.00 717.3
-90.80 303.92 714.8
-88.86 303.61 714.1
-85.81 299.41 704.2
-80.08 285.49 671.4
-76.11 277.39 652.4
-77.47 288.75 679.1
-78.07 297.77 700.3
-76.77 299.79 705.1
-73.50 294.02 691.5
-71.54 293.30 689.8
-70.69 297.27 699.1
-70.07 302.40 711.2
-70.00 310.26 729.7
-69.75 317.73 747.3
-69.90 327.54 770.3
-69.45 335.01 787.9
-64.91 322.59 758.7
-59.76 306.27 720.3
-59.38 314.13 738.8
-57.12 312.23 734.3
-54.25 306.82 721.6
-48.93 286.56 674.0
-45.64 277.24 652.0
-47.67 300.71 707.2
-48.59 318.72 749.6
-48.82 333.61 784.6
-44.66 318.42 748.9
-41.62 310.25 729.7
-41.08 320.84 754.6
-38.27 313.84 738.1
-35.14 303.33 713.4
-33.25 302.97 712.6
-33.68 324.89 764.1
-32.65 334.70 787.2
-29.26 319.87 752.3
-26.07 305.42 718.3
-24.00 302.71 711.9
-20.58 281.22 661.4
-17.26 257.38 605.3
-17.87 292.99 689.1
-17.41 317.26 746.2
-15.38 315.32 741.6
-13.09 306.72 721.4
-10.92 298.52 702.1
-9.17 300.88 707.6
-7.69 315.36 741.7
-6.08 332.58 782.2
-3.97 325.94 766.6
-1.88 309.11 727.0
0.00 320.85 754.6
2.01 329.46 774.9
3.92 321.63 756.5
5.80 316.93 745.4
7.65 313.80 738.0
9.81 321.61 756.4
12.25 334.91 787.7
14.33 335.68 789.5
16.91 346.62 815.2
19.79 360.68 848.3
23.14 379.44 892.4
28.54 425.57 1000.9
34.40 470.13 1105.7
39.09 493.17 1159.9
41.36 484.53 1139.6
47.35 517.73 1217.7
62.61 604.04 1420.6
69.98 637.60 1499.6
-205.23 458.26 1084.4
-174.20 394.37 933.2
-173.19 397.60 940.9
-178.07 414.65 981.2
-160.64 379.47 898.0
-142.34 341.19 807.4
-131.92 320.95 759.5
-111.48 275.31 651.5
-120.72 307.45 727.5
-137.32 355.29 840.7
-127.57 335.39 793.6
-111.14 296.99 702.8
-104.82 284.76 673.8
-101.43 280.23 663.1
-103.17 289.96 686.1
-108.85 311.26 736.6
-107.50 312.91 740.4
-99.23 294.09 695.9
-94.26 284.53 673.3
-98.57 303.15 717.4
-99.82 312.90 740.4
-97.20 310.67 735.2
-92.95 303.03 717.1
-87.63 291.51 689.8
-84.96 288.50 682.7
-82.43 285.87 676.5
-76.87 272.40 644.6
-73.83 267.44 632.9
-75.35 279.12 660.5
-76.51 290.03 686.3
-77.25 299.78 709.4
-75.91 301.79 714.1
-70.84 288.69 683.1
-68.07 284.49 673.2
-67.60 289.98 686.2
-65.84 290.04 686.3
-68.10 308.33 729.6
-69.97 325.84 771.1
-69.60 333.67 789.6
-65.52 323.64 765.8
-54.48 277.51 656.7
-49.81 270.62 640.4
-52.23 293.58 694.7
-47.50 276.54 654.4
-44.85 270.75 640.7
-45.92 287.89 681.2
-48.63 317.07 750.3
-49.50 336.16 795.5
-46.78 331.54 784.5
-42.50 314.87 745.1
-40.77 316.46 748.9
-39.36 320.78 759.1
-37.44 321.20 760.1
-34.57 313.07 740.8
-33.34 319.71 756.5
-32.38 329.85 780.5
-29.14 316.66 749.3
-26.83 312.40 739.3
-25.32 317.48 751.3
-22.37 303.89 719.1
-19.56 289.90 686.0
-17.76 289.53 685.1
-16.40 296.94 702.7
-15.20 309.80 733.1
-13.25 308.64 730.4
-11.05 300.09 710.1
-9.23 300.88 712.0
-7.39 301.27 712.9
-5.60 304.01 719.4
-3.85 314.13 743.3
-1.94 316.86 749.8
0.00 314.91 745.2
1.91 311.02 736.0
3.82 311.41 736.9
5.77 313.74 742.4
7.98 325.02 769.1
10.48 341.75 808.7
12.85 349.13 826.2
14.89 346.78 820.6
17.31 352.61 834.4
19.85 359.59 850.9
22.94 373.97 885.0
27.70 410.53 971.5
31.28 424.90 1005.5
33.26 417.09 987.0
38.49 448.18 1060.5
48.33 525.17 1242.7
57.69 587.75 1390.8
65.59 628.92 1488.2
73.39 629.57 1489.8
74.90 610.44 1444.5
77.49 601.43 1423.2
79.28 587.36 1389.9
82.16 582.24 1377.8
85.83 582.94 1379.4
93.92 612.39 1449.1
-214.01 474.93 1130.8
-167.74 377.42 898.6
-153.77 350.85 835.4
-146.55 339.15 807.5
-149.55 351.12 836.0
-148.56 353.93 842.7
-138.69 335.33 798.4
-122.02 299.50 713.1
-101.18 252.16 600.4
-120.98 306.22 729.1
-134.02 344.62 820.5
-123.00 321.38 765.2
-112.40 298.50 710.7
-110.02 297.07 707.3
-109.06 299.47 713.0
-112.61 314.52 748.9
-113.81 323.45 770.1
-111.31 322.02 766.7
-102.06 300.62 715.8
-95.24 285.73 680.3
-98.66 301.57 718.0
-98.92 308.19 733.8
-95.84 304.43 724.8
-90.90 294.52 701.2
-87.60 289.61 689.5
-88.80 299.69 713.5
-88.76 305.93 728.4
-85.36 300.62 715.8
-80.85 291.07 693.0
-76.36 281.13 669.4
-79.75 300.46 715.4
-82.91 319.80 761.4
-78.91 311.78 742.3
-71.57 289.88 690.2
-70.82 294.18 700.4
-70.56 300.80 716.2
-64.75 283.51 675.0
-63.70 286.65 682.5
-67.61 312.95 745.1
-68.69 327.29 779.3
-65.66 322.34 767.5
-57.28 289.96 690.4
-47.66 249.08 593.1
-53.22 287.36 684.2
-53.87 300.93 716.5
-46.75 270.46 643.9
-42.25 253.50 603.6
-41.56 258.95 616.5
-43.90 284.50 677.4
-44.27 298.84 711.5
-44.41 312.80 744.8
-43.53 320.57 763.3
-41.01 316.36 753.2
-39.40 319.10 759.8
-37.70 321.46 765.4
-35.29 317.62 756.2
-32.93 313.79 747.1
-30.69 310.72 739.8
-28.31 305.72 727.9
-26.62 308.06 733.5
-26.84 334.41 796.2
-25.35 342.17 814.7
-20.74 305.42 727.2
-16.75 271.37 646.1
-16.56 298.10 709.8
-16.12 326.38 777.1
-14.44 334.13 795.6
-12.10 326.79 778.1
-9.76 316.35 753.2
-7.61 308.22 733.9
-5.56 300.10 714.5
-3.67 297.39 708.1
-1.89 305.53 727.4
0.00 308.62 734.8
1.91 309.01 735.7
3.89 315.20 750.5
5.89 318.30 757.8
7.91 320.23 762.4
10.07 326.41 777.2
12.10 326.79 778.1
14.54 336.46 801.1
17.51 354.64 844.4
20.93 376.69 896.9
25.21 408.41 972.4
28.44 418.84 997.2
30.39 410.30 976.9
33.61 418.78 997.1
40.40 467.52 1113.1
47.76 515.85 1228.2
53.31 539.79 1285.2
58.18 554.45 1320.1
61.51 553.62 1318.1
68.37 582.96 1388.0
74.35 602.23 1433.9
79.01 609.51 1451.2
83.03 611.37 1455.6
82.67 582.29 1386.4
83.28 562.11 1338.4
91.33 591.80 1409.0
-220.05 485.32 1162.7
-164.16 367.08 879.4
-150.05 340.26 815.2
-137.10 315.32 755.4
-134.70 314.30 753.0
-149.82 354.73 849.8
-149.73 359.80 862.0
-147.24 359.18 860.5
-143.37 355.12 850.8
-135.01 339.64 813.7
-131.01 334.81 802.1
-125.02 324.64 777.7
-119.29 314.84 754.3
-116.66 313.04 750.0
-116.29 317.34 760.3
-113.95 316.30 757.8
-110.40 311.82 747.0
-113.27 325.66 780.2
-110.50 323.47 775.0
-98.66 294.16 704.7
-96.74 293.86 704.0
-97.66 302.36 724.4
-95.32 300.92 720.9
-96.33 310.18 743.1
-99.09 325.57 780.0
-93.90 314.95 754.5
-88.61 303.55 727.2
-87.19 305.16 731.1
-83.71 299.49 717.5
-77.16 282.33 676.4
-78.08 292.36 700.4
-82.69 316.96 759.4
-80.64 316.65 758.6
-74.40 299.47 717.5
-72.19 298.00 713.9
-71.80 304.21 728.8
-65.61 285.47 683.9
-60.07 268.64 643.6
-62.50 287.51 688.8
-63.89 302.54 724.8
-61.71 301.06 721.3
-57.25 288.06 690.1
-52.66 273.51 655.3
-55.20 296.23 709.7
-55.30 307.03 735.6
-50.87 292.48 700.7
-49.44 294.83 706.3
-43.77 271.04 649.3
-41.85 269.54 645.8
-41.79 280.35 671.6
-41.54 290.77 696.6
-40.05 293.11 702.2
-36.28 278.15 666.4
-36.37 292.80 701.5
-35.06 297.07 711.7
-33.73 301.72 722.8
-32.55 308.29 738.6
-30.10 302.93 725.7
-27.22 292.18 700.0
-24.00 276.03 661.3
-24.06 298.00 713.9
-24.11 323.43 774.9
-20.81 304.59 729.7
-16.96 273.03 654.1
-16.23 290.37 695.7
-15.42 310.41 743.7
-13.31 306.19 733.6
-11.33 303.89 728.0
-9.22 296.97 711.5
-7.34 295.43 707.8
-5.53 296.59 710.6
-3.61 290.44 695.8
-1.84 296.60 710.6
0.00 300.84 720.7
1.87 300.45 719.8
3.72 299.30 717.0
5.51 295.44 707.8
7.52 302.75 725.3
9.55 307.37 736.4
11.68 313.52 751.1
14.38 330.84 792.6
17.22 346.61 830.4
20.37 364.31 872.8
24.80 399.34 956.7
28.94 423.57 1014.8
33.89 454.73 1089.4
40.76 504.75 1209.3
44.69 513.95 1231.3
47.49 509.67 1221.0
52.02 523.49 1254.1
55.80 528.44 1266.0
61.66 551.48 1321.2
70.71 599.13 1435.4
88.74 595.31 1426.2
91.41 588.69 1410.3
102.01 631.66 1513.3
103.27 615.80 1475.3
107.61 618.78 1482.4
-222.74 475.18 1145.5
-224.05 484.43 1167.8
-211.98 464.62 1120.1
-175.69 390.42 941.2
-163.60 368.67 888.8
-158.38 362.01 872.7
-146.23 339.09 817.5
-144.81 340.74 821.4
-145.59 347.67 838.1
-143.94 348.94 841.2
-147.96 364.21 878.0
-146.04 365.10 880.2
-133.52 339.09 817.4
-119.55 308.51 743.7
-122.14 320.37 772.3
-126.44 337.16 812.8
-122.69 332.72 802.1
-117.08 322.97 778.6
-109.41 307.13 740.4
-109.12 311.78 751.6
-109.69 319.10 769.3
-102.60 303.99 732.8
-99.34 299.91 723.0
-100.09 307.98 742.4
-96.98 304.27 733.5
-97.49 311.96 752.0
-98.71 322.32 777.0
-92.50 308.33 743.3
-88.58 301.56 727.0
-87.71 305.06 735.4
-84.00 298.67 720.0
-78.38 285.02 687.1
-76.21 283.57 683.6
-78.56 299.27 721.5
-80.91 315.74 761.1
-78.86 315.43 760.4
-76.72 314.74 758.7
-75.31 317.09 764.4
-71.49 309.15 745.3
-69.49 308.83 744.5
-63.64 290.95 701.4
-56.89 267.71 645.4
-50.66 245.60 592.1
-46.51 248.03 597.9
-53.83 297.00 716.0
-54.59 311.96 752.0
-52.72 312.39 753.1
-49.65 305.55 736.6
-45.66 292.21 704.4
-42.58 283.83 684.2
-42.24 293.82 708.3
-40.30 293.09 706.6
-33.60 256.01 617.2
-32.48 259.87 626.5
-35.14 295.87 713.3
-34.97 310.84 749.3
-34.05 320.44 772.5
-31.86 318.55 767.9
-27.10 289.10 696.9
-22.32 255.04 614.8
-21.94 270.00 650.9
-21.80 290.70 700.8
-20.09 292.25 704.5
-18.19 291.12 701.8
-16.12 286.54 690.8
-14.50 290.00 699.1
-12.07 275.83 665.0
-9.93 264.73 638.2
-8.26 264.36 637.3
-6.42 256.70 618.8
-5.20 277.40 668.7
-3.74 299.24 721.4
-1.88 300.78 725.1
0.00 291.58 702.9
1.86 296.95 715.9
3.79 303.07 730.6
5.42 288.89 696.4
6.70 267.81 645.6
9.24 295.78 713.0
12.24 326.42 786.9
15.20 347.47 837.7
18.52 370.45 893.0
21.01 373.49 900.4
24.42 390.71 941.9
28.97 421.33 1015.7
34.70 462.66 1115.3
40.08 493.27 1189.1
42.02 480.21 1157.6
46.77 498.93 1202.8
53.60 536.03 1292.2
58.74 552.82 1332.7
65.72 584.16 1408.2
71.45 601.70 1450.5
75.49 603.93 1455.9
81.22 618.78 1491.7
87.28 634.78 1530.3
94.10 627.34 1512.3
93.94 601.25 1449.4
100.92 621.04 1497.2
103.04 610.63 1472.0
108.11 617.80 1489.3
-207.00 433.06 1050.5
-211.44 448.24 1087.4
-217.78 467.94 1135.2
-204.93 446.36 1082.8
-180.61 398.84 967.5
-174.82 391.49 949.7
-175.07 397.66 964.7
-165.29 380.89 924.0
-151.38 353.96 858.7
-140.01 332.26 806.0
-129.69 312.44 757.9
-124.23 303.89 737.2
-129.79 322.46 782.2
-122.44 309.01 749.6
-114.95 294.79 715.1
-120.08 312.99 759.3
-125.13 331.59 804.4
-122.94 331.32 803.7
-122.41 335.58 814.1
-118.85 331.54 804.3
-110.29 313.13 759.6
-103.78 300.01 727.8
-94.86 279.31 677.6
-91.62 274.86 666.8
-95.24 291.20 706.4
-93.67 292.04 708.5
-91.39 290.61 705.0
-89.82 291.45 707.0
-88.12 291.91 708.1
-89.11 301.46 731.3
-87.79 303.43 736.1
-83.43 294.79 715.1
-81.18 293.35 711.6
-81.10 299.87 727.4
-78.63 297.67 722.1
-76.87 298.12 723.2
-77.40 307.67 746.4
-77.62 316.47 767.7
-75.74 316.92 768.8
-72.53 311.67 756.1
-70.58 311.73 756.2
-65.63 298.13 723.2
-59.78 279.57 678.2
-53.07 255.69 620.3
-49.94 256.16 621.4
-48.05 254.69 617.8
-46.74 256.25 621.6
-52.23 296.60 719.5
-52.70 310.34 752.8
-51.75 316.47 767.7
-50.13 318.80 773.4
-48.13 318.84 773.5
-47.67 329.54 799.4
-44.71 323.11 783.8
-39.61 299.94 727.6
-36.77 292.36 709.2
-37.71 315.61 765.6
-34.91 308.41 748.2
-31.51 294.74 715.0
-30.16 299.71 727.1
-26.98 286.03 693.9
-24.42 277.29 672.7
-24.51 299.79 727.3
-23.46 310.86 754.1
-21.16 305.93 742.1
-18.81 299.09 725.5
-16.67 294.53 714.5
-14.86 295.31 716.4
-13.24 300.65 729.4
-10.81 286.57 695.2
-8.58 272.86 661.9
-6.66 264.86 642.5
-5.33 282.40 685.1
-3.72 295.74 717.4
-1.84 292.31 709.1
0.00 294.60 714.7
1.94 307.94 747.0
3.84 305.65 741.5
5.27 279.35 677.7
6.56 260.67 632.3
8.83 280.86 681.3
11.56 306.38 743.2
14.29 324.66 787.6
17.83 354.37 859.7
20.86 368.45 893.8
24.08 382.91 928.9
28.39 410.31 995.4
32.89 435.81 1057.2
36.69 448.73 1088.6
39.31 446.41 1082.9
44.09 467.32 1133.7
51.01 506.89 1229.6
56.55 528.92 1283.1
61.08 539.53 1308.8
64.51 539.86 1309.6
68.04 540.94 1312.2
73.40 555.72 1348.1
77.57 560.60 1359.9
81.91 566.23 1373.6
89.08 590.13 1431.6
96.12 611.35 1483.1
103.19 631.04 1530.8
106.04 624.48 1514.9
104.80 595.10 1443.6
110.26 604.51 1466.5
-224.22 466.14 1138.0
-221.01 465.59 1136.6
-221.30 472.50 1153.5
-219.26 474.56 1158.5
-202.73 444.87 1086.0
-170.10 378.54 924.1
-156.68 353.64 863.3
-148.13 339.19 828.0
-133.96 311.26 759.9
-138.23 325.98 795.8
-141.07 337.70 824.4
-127.12 308.99 754.3
-123.99 306.10 747.3
-125.54 314.83 768.6
-123.44 314.57 767.9
-120.33 311.68 760.9
-116.55 306.91 749.2
-115.62 309.64 755.9
-116.18 316.50 772.6
-115.84 321.11 783.9
-109.85 309.94 756.6
-102.95 295.76 722.0
-93.66 274.04 669.0
-91.58 273.00 666.5
-96.06 291.89 712.6
-93.27 288.96 705.4
-90.64 286.41 699.2
-89.43 288.37 704.0
-88.09 289.96 707.9
-86.84 291.92 712.6
-81.83 281.07 686.2
-82.54 289.81 707.5
-84.19 302.33 738.0
-81.68 300.14 732.7
-76.49 287.77 702.5
-74.20 285.95 698.1
-74.41 293.94 717.6
-73.78 298.91 729.7
-71.18 295.96 722.5
-68.79 293.75 717.1
-67.81 297.59 726.5
-65.68 296.52 723.9
-62.84 292.04 712.9
-60.22 288.32 703.9
-57.64 284.59 694.8
-53.33 271.79 663.5
-46.81 246.51 601.8
-45.04 245.42 599.1
-50.54 285.17 696.2
-51.58 301.86 736.9
-50.43 306.44 748.1
-48.85 308.76 753.7
-46.96 309.18 754.8
-46.83 321.71 785.4
-44.48 319.48 779.9
-39.65 298.32 728.3
-36.71 290.03 708.0
-37.02 307.86 751.5
-33.61 295.01 720.2
-28.85 268.15 654.6
-27.43 270.83 661.2
-27.12 285.63 697.3
-27.06 305.35 745.4
-25.69 312.19 762.1
-23.57 310.32 757.6
-21.10 303.14 740.0
-18.68 295.20 720.7
-16.95 297.49 726.2
-15.35 303.19 740.2
-13.60 307.00 749.4
-11.56 304.35 743.0
-9.28 293.37 716.2
-7.51 296.79 724.5
-5.57 293.38 716.2
-3.63 286.94 700.5
-1.73 274.06 669.0
0.00 266.10 649.6
1.85 292.63 714.4
3.88 306.28 747.7
5.56 292.63 714.4
7.22 285.04 695.8
9.76 308.53 753.2
12.77 336.19 820.7
14.00 316.09 771.7
15.31 302.43 738.3
19.39 340.32 830.8
23.89 377.43 921.4
28.76 413.03 1008.3
34.45 453.55 1107.2
37.10 450.86 1100.7
38.34 432.64 1056.2
42.76 450.41 1099.6
49.25 486.35 1187.3
52.57 488.58 1192.7
54.79 480.96 1174.1
61.02 507.41 1238.7
67.96 536.89 1310.7
71.45 537.58 1312.4
73.90 530.70 1295.6
80.44 552.59 1349.0
89.27 587.71 1434.7
92.20 582.71 1422.5
94.63 575.05 1403.8
105.30 616.20 1504.3
115.21 627.72 1532.4
123.79 630.91 1540.2
-207.38 434.11 1066.5
-222.19 471.41 1158.1
-196.09 427.59 1050.5
-154.79 342.28 840.9
-144.05 323.08 793.7
-134.69 306.47 752.9
-132.47 305.85 751.4
-147.72 346.16 850.4
-145.42 345.92 849.8
-130.00 314.01 771.5
-126.99 311.52 765.3
-129.09 321.69 790.3
-127.23 322.18 791.5
-120.73 310.73 763.4
-113.23 296.28 727.9
-109.13 290.41 713.5
-109.94 297.60 731.1
-109.98 302.92 744.2
-107.55 301.53 740.8
-104.09 297.14 730.0
-98.63 286.76 704.5
-98.10 290.59 713.9
-101.11 305.26 750.0
-97.85 301.24 740.1
-89.64 281.48 691.5
-84.96 272.20 668.7
-82.67 270.41 664.3
-80.07 267.48 657.1
-81.58 278.42 684.0
-85.52 298.36 733.0
-83.64 298.43 733.2
-77.34 282.38 693.7
-74.36 277.95 682.9
-76.33 292.27 718.0
-75.72 297.22 730.2
-73.66 296.53 728.5
-71.15 293.97 722.2
-69.12 293.28 720.5
-66.92 291.84 717.0
-63.31 284.01 697.8
-61.76 285.20 700.7
-60.27 286.75 704.5
-58.30 286.06 702.8
-54.56 276.33 678.9
-51.66 270.36 664.2
-53.77 291.10 715.2
-54.61 306.19 752.2
-53.12 308.87 758.8
-49.23 297.25 730.3
-44.88 281.87 692.5
-43.04 281.53 691.7
-42.85 292.49 718.6
-41.52 296.29 727.9
-36.61 273.73 672.5
-34.01 266.99 655.9
-35.14 290.37 713.4
-33.25 290.02 712.5
-30.75 284.02 697.8
-29.18 286.31 703.4
-28.51 298.39 733.1
-26.91 301.81 741.5
-24.65 297.69 731.4
-21.86 286.03 702.7
-19.17 273.61 672.2
-17.48 274.38 674.1
-16.87 294.37 723.2
-15.00 294.38 723.2
-13.04 292.51 718.6
-10.86 284.23 698.3
-8.68 272.55 669.6
-7.14 280.10 688.1
-5.40 282.74 694.6
-3.70 290.67 714.1
-1.83 287.28 705.8
0.00 275.59 677.1
1.81 284.26 698.4
3.89 304.99 749.3
5.69 297.82 731.7
7.35 288.39 708.5
10.19 320.05 786.3
13.12 343.41 843.7
14.32 321.16 789.0
15.85 310.97 764.0
19.71 343.75 844.5
24.25 380.66 935.2
29.26 417.57 1025.9
33.15 433.75 1065.6
34.38 415.25 1020.2
36.05 404.30 993.3
40.50 423.85 1041.3
46.11 452.45 1111.6
48.86 451.27 1108.7
52.55 458.38 1126.1
59.39 490.72 1205.6
65.19 511.76 1257.3
67.99 508.31 1248.8
71.54 510.50 1254.2
78.97 539.05 1324.3
87.57 572.85 1407.4
90.67 569.38 1398.8
94.28 569.30 1398.6
105.33 612.47 1504.7
109.95 616.52 1514.6
109.69 593.85 1459.0
116.98 612.17 1504.0
122.12 618.46 1519.4
122.35 600.30 1474.8
-213.65 438.55 1084.3
-185.74 386.34 955.2
-194.02 409.01 1011.3
-214.63 458.67 1134.1
-197.63 428.19 1058.7
-170.06 373.66 923.9
-162.43 361.98 895.0
-154.77 349.91 865.2
-155.49 356.71 882.0
-156.44 364.25 900.6
-142.88 337.72 835.0
-126.11 302.65 748.3
-123.45 300.91 744.0
-123.36 305.47 755.3
-117.61 295.93 731.7
-116.63 298.26 737.5
-112.61 292.80 724.0
-100.81 266.54 659.0
-96.37 259.20 640.9
-100.30 274.52 678.7
-103.51 288.35 713.0
-103.79 294.39 727.9
-99.36 287.05 709.7
-94.90 279.32 690.6
-91.40 274.20 678.0
-94.90 290.28 717.7
-94.26 294.09 727.1
-82.57 262.89 650.0
-72.55 235.77 583.0
-77.00 255.58 631.9
-84.07 285.09 704.9
-85.59 296.72 733.7
-78.56 278.53 688.7
-75.97 275.61 681.5
-76.83 285.38 705.6
-76.98 292.91 724.2
-74.26 289.62 716.1
-71.67 286.70 708.9
-69.67 286.01 707.2
-68.29 287.94 711.9
-66.63 288.75 713.9
-63.54 283.20 700.2
-61.00 279.90 692.1
-61.91 292.66 723.6
-61.58 300.19 742.2
-59.37 298.75 738.7
-57.75 300.30 742.5
-55.14 296.61 733.4
-51.43 286.56 708.5
-53.04 306.43 757.7
-51.64 309.85 766.1
-47.02 293.42 725.5
-45.03 292.72 723.7
-41.45 281.15 695.2
-36.70 260.22 643.4
-34.33 255.01 630.5
-34.95 272.64 674.1
-35.49 291.40 720.5
-34.15 295.93 731.7
-31.27 286.96 709.5
-28.13 274.25 678.1
-27.74 288.52 713.4
-26.30 293.04 724.5
-24.58 294.93 729.2
-22.20 288.58 713.5
-19.98 283.36 700.6
-19.13 298.37 737.7
-16.89 292.76 723.9
-13.84 269.91 667.4
-12.35 275.17 680.4
-10.41 270.68 669.3
-8.59 268.06 662.8
-7.27 283.44 700.8
-5.55 288.70 713.8
-3.76 293.57 725.9
-1.94 302.20 747.2
0.00 305.58 755.5
1.89 294.33 727.7
3.65 284.95 704.5
5.62 292.07 722.2
7.71 300.69 743.5
10.02 312.68 773.1
12.30 319.79 790.7
13.73 305.91 756.4
15.55 303.27 749.8
19.12 331.37 819.3
23.14 360.96 892.5
27.04 383.43 948.0
29.90 388.65 961.0
32.73 392.75 971.1
36.05 401.71 993.2
38.95 405.05 1001.5
42.46 414.00 1023.6
48.54 445.43 1101.3
55.80 483.60 1195.7
58.62 481.30 1190.0
60.16 469.26 1160.3
64.72 480.81 1188.8
70.33 498.72 1233.1
76.00 515.51 1274.6
82.35 535.27 1323.5
85.59 534.08 1320.5
89.50 536.99 1327.7
99.27 573.58 1418.2
102.93 573.49 1418.0
100.96 543.10 1342.8
105.93 550.86 1362.0
115.09 579.18 1432.0
120.78 588.79 1455.8
124.13 586.81 1450.9
133.08 610.62 1509.8
-230.20 469.49 1168.3
-201.17 415.75 1034.6
-192.44 403.08 1003.0
-197.52 419.40 1043.7
-184.83 397.90 990.2
-160.78 351.01 873.5
-169.87 376.15 936.0
-178.32 400.58 996.8
-159.50 363.56 904.7
-145.92 337.57 840.0
-148.03 347.64 865.1
-145.06 345.92 860.8
-136.80 331.31 824.5
-131.11 322.58 802.7
-125.68 314.21 781.9
-123.70 314.32 782.2
-122.43 316.27 787.0
-114.81 301.61 750.6
-100.88 269.58 670.9
-99.03 269.30 670.2
-99.33 274.93 684.2
-101.00 284.63 708.3
-99.71 286.20 712.2
-97.76 285.92 711.5
-91.98 274.16 682.2
-89.75 272.76 678.8
-93.98 291.35 725.0
-87.92 278.10 692.0
-81.56 263.36 655.4
-86.51 285.29 709.9
-86.67 292.04 726.7
-83.95 289.15 719.5
-79.16 278.84 693.9
-78.30 282.25 702.4
-74.79 276.01 686.8
-70.77 267.54 665.8
-66.47 257.58 641.0
-64.27 255.41 635.6
-66.64 271.81 676.4
-68.44 286.72 713.5
-68.16 293.47 730.3
-64.69 286.47 712.9
-62.20 283.55 705.6
-61.73 289.93 721.5
-61.17 296.30 737.3
-58.75 293.75 731.0
-53.55 276.70 688.6
-45.93 245.50 610.9
-48.05 266.00 661.9
-52.63 302.14 751.9
-50.13 298.83 743.6
-44.00 272.82 678.9
-44.79 289.24 719.8
-44.36 298.96 744.0
-39.27 276.66 688.5
-36.33 268.13 667.2
-36.43 282.31 702.5
-36.21 295.38 735.0
-33.79 290.94 724.0
-29.67 270.48 673.1
-26.23 254.11 632.3
-25.50 263.45 655.6
-26.15 289.56 720.6
-25.38 302.62 753.1
-22.62 292.21 727.2
-20.05 282.54 703.1
-19.02 294.86 733.7
-16.69 287.42 715.2
-13.85 268.42 668.0
-12.49 276.63 688.4
-10.93 282.23 702.3
-9.25 286.72 713.5
-7.47 289.33 720.0
-5.52 285.24 709.8
-3.64 281.89 701.5
-1.83 283.38 705.2
0.00 293.08 729.3
1.87 289.35 720.0
3.77 292.33 727.5
5.92 306.12 761.8
7.78 301.64 750.6
9.66 299.39 745.0
12.33 318.40 792.3
14.38 318.39 792.3
16.34 316.51 787.6
19.81 341.10 848.8
23.18 359.34 894.2
26.61 374.98 933.1
28.94 373.83 930.3
31.10 370.83 922.8
35.24 390.18 970.9
39.05 403.56 1004.2
42.38 410.60 1021.8
48.05 438.13 1090.3
52.65 453.36 1128.2
53.83 439.16 1092.8
57.91 448.79 1116.8
65.39 482.63 1201.0
70.29 495.23 1232.4
74.75 503.72 1253.5
82.02 529.71 1318.2
86.39 535.59 1332.8
85.02 506.86 1261.3
88.54 508.27 1264.8
95.90 530.88 1321.1
98.48 526.33 1309.8
103.87 536.66 1335.5
112.89 564.45 1404.6
118.89 575.87 1433.1
122.82 576.88 1435.6
-214.32 440.06 1102.2
-208.74 434.41 1088.0
-201.50 425.09 1064.7
-176.28 377.04 944.3
-153.51 332.97 834.0
-163.04 358.69 898.4
-166.68 372.00 931.7
-146.55 331.89 831.3
-136.17 312.99 783.9
-138.42 322.99 809.0
-140.24 332.27 832.2
-136.00 327.26 819.7
-133.03 325.18 814.5
-130.37 323.83 811.1
-128.46 324.31 812.3
-127.40 326.99 819.0
-123.63 322.69 808.2
-115.35 306.27 767.1
-107.01 289.11 724.1
-103.96 285.89 716.1
-104.89 293.70 735.6
-107.66 307.03 769.0
-105.45 306.39 767.4
-99.14 293.60 735.4
-91.78 277.13 694.1
-88.57 272.79 683.2
-90.81 285.39 714.8
-91.27 292.83 733.4
-90.75 297.34 744.7
-89.28 298.89 748.6
-83.91 287.17 719.3
-76.38 267.33 669.6
-75.80 271.46 679.9
-73.95 271.15 679.1
-69.65 261.62 655.3
-65.00 250.24 626.8
-64.88 256.21 641.7
-69.61 282.11 706.6
-68.68 285.87 716.0
-64.08 274.10 686.5
-62.64 275.64 690.4
-63.40 287.15 719.2
-60.04 280.18 701.8
-57.39 276.17 691.7
-56.94 282.87 708.5
-53.03 272.20 681.8
-47.37 251.53 630.0
-50.85 279.69 700.5
-50.41 287.50 720.1
-43.05 254.98 638.6
-39.12 240.95 603.5
-43.90 281.71 705.6
-45.23 302.85 758.5
-42.42 296.96 743.8
-39.24 287.74 720.7
-38.05 292.96 733.8
-35.87 290.77 728.3
-31.31 267.84 670.8
-28.46 257.86 645.8
-26.49 254.92 638.5
-25.27 259.39 649.7
-26.35 289.80 725.8
-25.69 304.28 762.1
-22.85 293.18 734.3
-19.78 276.89 693.5
-18.61 286.54 717.7
-17.22 294.71 738.2
-15.29 294.36 737.3
-13.26 291.78 730.8
-11.27 289.19 724.3
-9.03 278.08 696.5
-6.95 267.70 670.5
-5.37 275.87 690.9
-3.74 287.74 720.7
-1.77 273.28 684.5
0.00 264.75 663.1
1.74 267.34 669.6
3.60 277.35 694.7
5.82 298.86 748.5
7.77 299.22 749.4
9.29 286.23 716.9
11.44 293.64 735.5
15.05 331.08 829.2
19.05 366.65 918.3
21.77 372.56 933.1
24.19 372.54 933.1
27.22 381.05 954.4
29.20 374.72 938.5
31.13 368.76 923.6
34.70 381.70 956.0
39.41 404.65 1013.5
43.69 420.54 1053.3
46.83 424.21 1062.5
48.93 418.61 1048.5
52.28 423.75 1061.3
58.87 453.33 1135.4
63.98 469.20 1175.2
66.12 462.85 1159.3
70.89 474.64 1188.8
78.34 502.70 1259.1
82.62 508.93 1274.7
81.97 485.54 1216.1
84.72 483.24 1210.3
90.74 499.07 1250.0
95.92 509.35 1275.7
103.89 533.30 1335.7
110.91 550.96 1379.9
114.16 549.38 1376.0
120.95 564.43 1413.7
132.75 601.28 1506.0
-225.20 453.36 1142.9
-208.45 425.25 1072.1
-185.57 383.68 967.3
-163.56 342.81 864.2
-165.32 351.30 885.6
-163.26 351.81 886.9
-151.71 331.59 835.9
-137.95 305.89 771.2
-132.12 297.28 749.4
-131.35 299.94 756.1
-129.43 300.05 756.4
-127.06 299.07 754.0
-127.59 305.01 768.9
-128.79 312.78 788.5
-126.64 312.52 787.9
-125.08 313.73 790.9
-119.64 305.08 769.1
-109.66 284.37 716.9
-111.57 294.33 742.0
-109.55 294.06 741.3
-111.81 305.48 770.1
-118.78 330.43 833.0
-116.14 329.07 829.6
-108.71 313.81 791.1
-97.86 287.93 725.9
-84.29 252.88 637.5
-87.57 267.96 675.5
-94.05 293.67 740.3
-93.54 298.15 751.6
-92.40 300.79 758.3
-87.70 291.71 735.4
-76.12 258.80 652.4
-72.12 250.80 632.3
-75.66 269.20 678.6
-77.34 281.74 710.3
-76.30 284.74 717.8
-72.64 277.83 700.4
-72.43 284.14 716.3
-72.87 293.38 739.6
-70.34 290.87 733.3
-66.55 282.85 713.1
-64.30 281.07 708.6
-64.27 289.21 729.1
-61.99 287.43 724.6
-58.44 279.40 704.4
-56.62 279.45 704.5
-54.51 278.03 700.9
-51.03 269.24 678.8
-51.71 282.53 712.3
-50.91 288.46 727.2
-44.09 259.44 654.0
-40.95 250.64 631.9
-43.54 277.55 699.7
-44.05 293.05 738.8
-41.40 287.93 725.9
-38.31 279.13 703.7
-37.26 285.06 718.6
-34.72 279.56 704.8
-31.64 268.91 677.9
-30.13 271.15 683.6
-28.78 275.23 693.9
-28.03 285.94 720.9
-27.18 297.02 748.8
-25.71 302.57 762.8
-23.01 293.38 739.6
-20.17 280.50 707.1
-18.43 281.99 710.9
-16.98 288.64 727.7
-15.21 290.86 733.3
-13.31 290.88 733.3
-11.41 290.89 733.3
-9.30 284.63 717.6
-7.28 278.37 701.8
-5.67 289.07 728.7
-3.94 301.61 760.4
-1.94 297.19 749.2
0.00 282.07 711.1
1.79 273.59 689.7
3.48 266.58 672.1
5.34 272.11 686.0
7.52 287.59 725.0
9.55 292.37 737.1
11.47 292.36 737.0
14.61 319.26 804.9
18.14 346.90 874.5
20.30 345.04 869.8
23.47 359.03 905.1
27.29 379.65 957.1
30.61 390.31 984.0
34.04 400.60 1009.9
36.15 395.04 995.9
39.23 400.17 1008.8
43.15 412.66 1040.3
45.97 413.72 1043.0
49.62 421.79 1063.3
54.52 439.05 1106.9
58.64 448.58 1130.9
61.01 444.47 1120.5
65.70 456.94 1151.9
73.05 485.96 1225.1
75.76 482.95 1217.5
75.41 461.54 1163.5
79.23 466.25 1175.4
86.49 490.10 1235.5
93.04 508.41 1281.7
98.93 521.94 1315.8
102.61 523.32 1319.3
104.75 516.98 1303.3
111.49 533.06 1343.8
121.45 563.10 1419.6
133.97 585.66 1476.4
140.11 595.46 1501.1
-208.28 422.11 1071.1
-176.24 362.01 918.6
-154.51 321.72 816.4
-159.64 337.02 855.2
-155.13 332.10 842.7
-138.85 301.50 765.1
-134.62 296.56 752.5
-137.90 308.25 782.2
-132.26 300.05 761.4
-125.62 289.30 734.1
-124.22 290.49 737.1
-125.41 297.84 755.8
-135.21 326.22 827.8
-141.84 347.73 882.4
-126.50 315.21 799.9
-107.14 271.41 688.7
-102.57 264.25 670.6
-109.32 286.48 727.0
-106.79 284.76 722.6
-108.16 293.57 745.0
-111.26 307.48 780.3
-104.36 293.76 745.4
-103.73 297.48 754.9
-98.57 288.12 731.1
-83.76 249.63 633.5
-86.33 262.44 666.0
-91.20 282.90 717.9
-89.13 282.26 716.2
-88.88 287.43 729.4
-84.36 278.76 707.4
-80.28 271.18 688.2
-83.80 289.48 734.6
-82.12 290.28 736.6
-80.63 291.81 740.5
-78.93 292.61 742.5
-73.95 281.00 713.1
-71.93 280.34 711.4
-70.83 283.32 719.0
-71.29 292.88 743.2
-69.81 294.76 748.0
-65.70 285.33 724.0
-62.28 278.44 706.6
-59.83 275.57 699.3
-56.64 269.04 682.7
-52.35 256.66 651.3
-46.55 235.86 598.5
-45.15 236.63 600.5
-48.72 264.47 671.1
-52.97 298.17 756.6
-51.95 303.71 770.7
-44.96 273.38 693.7
-42.94 271.95 690.1
-43.82 289.56 734.8
-41.17 284.47 721.9
-35.82 259.24 657.9
-33.68 255.98 649.6
-35.53 284.21 721.2
-34.83 294.13 746.4
-32.20 287.93 730.7
-30.08 285.76 725.1
-28.02 283.95 720.6
-26.39 286.54 727.1
-24.45 285.83 725.3
-21.03 266.43 676.1
-19.49 269.38 683.6
-18.62 282.96 718.0
-17.25 291.40 739.5
-15.67 297.65 755.3
-13.42 291.43 739.5
-11.32 286.68 727.5
-9.32 283.39 719.1
-7.33 278.63 707.0
-5.62 284.87 722.9
-3.85 292.94 743.4
-1.96 298.07 756.4
0.00 293.67 745.2
1.94 294.41 747.1
3.92 297.70 755.4
5.72 289.63 735.0
7.52 285.59 724.7
9.44 287.05 728.4
11.62 294.38 747.0
14.10 306.09 776.7
16.63 315.98 801.8
19.69 332.46 843.6
23.87 362.86 920.8
27.90 385.56 978.4
31.45 398.36 1010.9
35.17 411.16 1043.4
37.77 410.03 1040.5
39.85 403.77 1024.6
42.50 403.73 1024.5
46.09 412.12 1045.8
50.66 427.82 1085.6
52.28 418.26 1061.4
52.96 402.46 1021.3
57.92 419.26 1063.9
64.97 448.86 1139.0
72.23 477.36 1211.3
75.30 476.92 1210.2
76.14 462.95 1174.8
80.80 472.40 1198.7
84.81 477.44 1211.6
87.60 475.54 1206.7
94.90 497.41 1262.2
100.54 509.39 1292.6
103.35 506.74 1285.9
110.20 523.46 1328.3
117.99 543.46 1379.1
123.50 552.13 1401.1
128.54 558.23 1416.6
135.47 571.99 1451.5
-197.77 398.17 1017.1
-186.77 381.11 973.5
-189.53 392.04 1001.4
-181.70 381.07 973.4
-162.69 346.01 883.8
-150.47 324.58 829.1
-148.87 325.79 832.2
-149.20 331.31 846.3
-142.43 321.00 820.0
-133.43 305.28 779.8
-131.15 304.67 778.3
-129.79 306.23 782.2
-137.13 328.68 839.6
-150.40 366.29 935.7
-137.83 341.18 871.5
-117.98 296.92 758.5
-110.98 284.03 725.5
-107.89 280.87 717.5
-98.29 260.38 665.1
-94.18 253.96 648.7
-92.80 254.77 650.8
-93.21 260.63 665.8
-101.79 290.00 740.8
-102.89 298.77 763.2
-96.91 286.92 732.9
-85.45 258.05 659.2
-77.65 239.29 611.3
-79.66 250.59 640.1
-83.77 269.13 687.5
-85.43 280.43 716.3
-87.81 294.64 752.6
-86.30 296.16 756.5
-81.06 284.64 727.1
-76.67 275.64 704.1
-69.64 256.48 655.1
-69.21 261.26 667.4
-72.55 280.91 717.6
-70.25 279.16 713.1
-68.95 281.40 718.8
-69.01 289.45 739.4
-66.60 287.33 734.0
-60.70 269.58 688.6
-55.91 255.83 653.5
-53.92 254.42 649.9
-50.15 244.29 624.0
-46.16 232.33 593.5
-46.58 242.56 619.6
-45.46 245.14 626.2
-47.29 264.46 675.5
-50.56 293.61 750.0
-47.96 289.65 739.9
-44.48 279.86 714.9
-43.30 284.27 726.1
-43.12 295.96 756.0
-41.16 295.99 756.1
-36.94 278.91 712.5
-36.43 289.51 739.5
-35.86 300.83 768.4
-33.42 296.85 758.3
-30.96 292.15 746.3
-28.48 286.71 732.4
-26.25 283.09 723.1
-23.84 276.92 707.4
-21.34 268.56 686.0
-20.52 281.69 719.6
-19.55 295.19 754.0
-18.31 307.24 784.8
-16.28 307.25 784.8
-13.74 296.33 756.9
-11.24 282.86 722.5
-9.14 275.94 704.9
-7.26 274.12 700.2
-5.55 279.60 714.2
-3.82 288.71 737.5
-1.95 294.91 753.3
0.00 284.71 727.3
1.80 272.31 695.6
3.70 279.24 713.3
5.46 274.86 702.1
7.28 274.85 702.1
9.57 289.06 738.4
11.82 297.44 759.8
14.18 305.81 781.2
17.57 331.67 847.2
21.68 363.73 929.1
24.50 369.90 944.9
27.02 370.97 947.6
30.99 389.90 996.0
35.13 408.09 1042.4
38.20 412.06 1052.6
40.71 409.84 1046.9
42.92 405.07 1034.7
46.05 409.04 1044.8
50.14 420.65 1074.5
51.41 408.59 1043.7
52.09 393.25 1004.5
56.71 407.76 1041.6
62.48 428.83 1095.4
68.14 447.33 1142.7
72.48 456.01 1164.8
75.07 453.39 1158.2
78.31 454.78 1161.7
80.59 450.71 1151.3
83.76 451.73 1153.9
90.72 472.38 1206.7
97.81 492.30 1257.5
102.39 498.76 1274.0
108.14 510.30 1303.5
114.52 524.01 1338.5
120.91 536.99 1371.7
126.80 547.05 1397.4
132.21 554.57 1416.6
145.56 594.03 1517.4
-215.05 430.10 1106.0
-225.83 457.76 1177.1
-209.28 436.00 1121.1
-184.47 389.74 1002.2
-169.77 363.80 935.5
-149.65 325.34 836.6
-136.52 301.14 774.4
-144.31 323.08 830.8
-146.62 333.23 856.9
-137.78 317.95 817.6
-131.74 308.76 794.0
-132.43 315.32 810.8
-137.49 332.64 855.4
-132.99 327.02 840.9
-118.23 295.57 760.0
-110.65 281.31 723.4
-104.37 269.92 694.1
-100.28 263.91 678.6
-101.91 272.97 701.9
-103.28 281.68 724.3
-104.80 291.11 748.6
-101.88 288.33 741.4
-96.24 277.63 713.9
-96.38 283.46 728.9
-92.48 277.43 713.4
-82.89 253.75 652.5
-82.95 259.22 666.6
-87.68 279.82 719.5
-89.37 291.42 749.4
-87.88 292.94 753.3
-83.20 283.65 729.4
-75.03 261.73 673.0
-65.63 234.39 602.7
-63.39 231.92 596.4
-68.30 256.14 658.7
-70.37 270.64 695.9
-67.94 268.17 689.6
-64.65 262.09 673.9
-63.87 266.12 684.3
-66.66 285.68 734.6
-64.77 285.73 734.7
-58.10 264.11 679.1
-54.12 253.68 652.3
-53.63 259.51 667.3
-53.65 268.23 689.7
-50.68 262.13 674.1
-43.13 231.07 594.2
-40.56 225.33 579.4
-42.20 243.45 626.0
-43.78 262.66 675.4
-43.36 271.02 696.9
-42.06 274.31 705.4
-42.31 288.46 741.8
-41.71 297.91 766.1
-38.86 291.43 749.4
-36.23 286.03 735.5
-34.15 284.61 731.9
-33.00 291.16 748.7
-31.76 297.71 765.5
-29.66 296.65 762.8
-27.39 293.41 754.5
-25.43 293.44 754.6
-23.71 296.36 762.1
-21.39 291.67 750.0
-19.52 292.77 752.8
-17.68 294.60 757.5
-15.21 285.19 733.4
-13.19 282.67 726.9
-11.21 280.14 720.4
-9.28 278.34 715.7
-7.29 273.27 702.7
-5.52 276.18 710.2
-3.80 284.88 732.5
-2.00 299.38 769.8
0.00 299.38 769.8
1.97 295.76 760.5
4.05 303.73 781.0
5.84 292.12 751.2
7.58 284.14 730.7
9.79 293.56 754.9
12.02 300.44 772.6
14.41 308.76 794.0
17.80 333.75 858.2
21.11 351.85 904.8
23.09 346.40 890.7
25.96 353.98 910.2
30.46 380.77 979.1
34.07 393.06 1010.7
36.55 391.58 1006.9
39.81 398.07 1023.6
42.84 401.65 1032.8
45.76 403.79 1038.3
49.58 413.16 1062.4
53.20 420.00 1080.0
56.28 422.12 1085.5
59.60 425.69 1094.6
64.02 436.49 1122.4
68.20 444.76 1143.7
70.80 442.53 1137.9
74.77 448.62 1153.6
79.44 458.32 1178.5
81.12 450.65 1158.8
83.70 448.41 1153.0
92.13 476.54 1225.4
101.00 505.01 1298.6
104.35 504.92 1298.4
108.39 508.08 1306.5
112.71 512.32 1317.4
117.00 516.20 1327.4
124.30 532.71 1369.8
131.12 546.32 1404.8
138.92 563.17 1448.2
-227.19 439.63 1138.1
-228.50 447.97 1159.7
-217.38 431.85 1117.9
-216.86 436.65 1130.3
-216.28 441.44 1142.8
-190.42 394.05 1020.1
-167.54 351.60 910.2
-165.75 352.80 913.3
-152.09 328.42 850.2
-133.23 291.92 755.7
-135.32 300.93 779.0
-136.34 307.80 796.8
-127.96 293.32 759.3
-129.71 301.98 781.7
-138.12 326.67 845.6
-130.79 314.31 813.7
-113.84 278.06 719.8
-103.11 256.05 662.8
-104.11 262.91 680.6
-109.46 281.20 727.9
-107.20 280.22 725.4
-104.14 277.10 717.3
-102.98 278.97 722.2
-100.88 278.34 720.5
-93.19 261.99 678.2
-87.97 252.06 652.5
-89.73 262.15 678.6
-94.24 280.82 727.0
-94.85 288.42 746.6
