ply
format ascii 1.0
element vertex 2177
property float x
property float y
property float z
end_header
-648.83 253.89 2176.2
-647.58 255.62 2191.1
-652.12 259.69 2226.0
-653.45 262.55 2250.4
-637.89 258.60 2216.6
-624.94 255.66 2191.3
-609.67 251.70 2157.4
-606.36 252.65 2165.6
-582.59 249.68 2140.1
-577.93 250.06 2143.4
-578.38 252.69 2165.9
-563.73 248.70 2131.7
-563.84 251.21 2153.3
-574.56 258.55 2216.2
-560.03 254.56 2181.9
-541.50 248.65 2131.3
-541.15 251.05 2151.8
-549.57 257.61 2208.1
-542.98 257.20 2204.6
-528.88 253.19 2170.2
-528.69 255.82 2192.7
-529.76 259.12 2221.0
-528.87 261.53 2241.7
-523.80 261.90 2244.9
-510.23 257.98 2211.3
-502.79 257.11 2203.8
-499.98 258.61 2216.6
-497.09 260.11 2229.5
-498.64 263.98 2262.7
-492.19 263.67 2260.0
-477.81 259.05 2220.4
-463.41 254.31 2179.8
-459.84 255.47 2189.7
-458.63 257.98 2211.3
-441.96 251.75 2157.9
-434.62 250.74 2149.2
-438.98 256.55 2199.0
-440.22 260.65 2234.2
-444.68 266.81 2286.9
-428.80 264.33 2265.7
-416.74 260.46 2232.6
-405.57 257.05 2203.3
-413.34 265.72 2277.6
-403.10 266.75 2286.5
-385.78 259.11 2220.9
-359.83 257.02 2203.1
-357.89 259.76 2226.5
-356.91 263.30 2256.8
-350.29 267.17 2290.0
-336.80 261.31 2239.8
-327.78 258.77 2218.0
-320.57 257.60 2208.0
-317.35 259.65 2225.5
-316.23 263.53 2258.8
-318.19 270.16 2315.7
-314.02 271.75 2329.3
-307.17 271.04 2323.2
-298.57 268.71 2303.2
-285.68 262.36 2248.8
-280.44 268.51 2301.5
-254.67 266.52 2284.4
-245.06 262.56 2250.5
-244.01 267.82 2295.6
-980.29 243.69 2136.2
-962.07 240.52 2108.4
-987.53 248.29 2176.6
-979.97 247.81 2172.3
-915.03 232.72 2040.1
-881.44 225.49 1976.7
-914.24 235.24 2062.2
-938.64 242.94 2129.7
-937.59 244.11 2139.9
-929.34 243.40 2133.7
-899.78 237.07 2078.2
-876.36 232.29 2036.3
-842.16 224.58 1968.7
-831.61 223.11 1955.9
-863.30 233.04 2042.9
-864.95 234.93 2059.4
-835.88 228.44 2002.6
-833.73 229.28 2009.9
-851.63 235.67 2066.0
-843.27 234.84 2058.6
-821.07 230.11 2017.2
-794.57 224.11 1964.6
-794.62 225.57 1977.4
-839.61 239.89 2102.9
-824.99 237.25 2079.8
-791.34 230.59 2021.4
-829.64 246.65 2162.2
-790.41 239.85 2102.6
-756.41 231.12 2026.1
-756.97 232.91 2041.8
-758.14 234.92 2059.3
-746.26 232.88 2041.4
-752.05 238.06 2086.9
-789.45 251.71 2206.5
-791.83 256.18 2245.8
-761.02 248.04 2174.4
-747.51 245.45 2151.7
-729.55 241.36 2115.8
-720.45 240.15 2105.2
-734.74 246.78 2163.3
-753.51 255.03 2235.7
-741.04 252.76 2215.7
-710.18 244.13 2140.1
-700.51 242.70 2127.5
-721.45 251.94 2208.5
-724.46 257.07 2253.5
-704.65 252.07 2209.7
-687.15 247.82 2172.5
-663.57 241.30 2115.3
-658.56 241.47 2116.8
-650.62 240.56 2108.8
-642.04 241.45 2116.6
-655.04 248.46 2178.1
-666.90 255.16 2236.8
-648.39 252.47 2213.2
-627.84 246.65 2162.2
-622.66 246.82 2163.7
-619.65 247.86 2172.8
-619.03 249.88 2190.5
-630.65 256.93 2252.3
-602.14 249.94 2191.1
-590.58 247.48 2169.5
-603.19 255.19 2237.1
-600.85 256.67 2250.1
-581.67 250.92 2199.6
-574.57 250.31 2194.3
-577.97 254.31 2229.3
-561.42 249.52 2187.4
-540.18 242.53 2126.1
-546.15 247.74 2171.7
-561.01 257.13 2254.0
-557.63 258.27 2264.1
-546.91 256.00 2244.2
-546.31 258.47 2265.8
-539.05 260.64 2284.8
-527.11 257.70 2259.0
-514.17 254.20 2228.4
-504.05 254.92 2234.7
-500.69 256.17 2245.6
-492.79 255.09 2236.2
-478.16 250.46 2195.6
-472.09 250.26 2193.9
-466.64 250.39 2195.0
-454.04 246.64 2162.1
-443.82 244.10 2139.9
-438.10 244.00 2139.0
-441.63 249.13 2183.9
-439.50 251.14 2201.6
-434.19 251.37 2203.6
-437.03 256.39 2247.6
-431.60 256.63 2249.6
-425.23 256.30 2246.8
-418.14 255.53 2240.0
-410.54 254.42 2230.3
-387.59 254.54 2231.3
-380.29 253.53 2222.5
-364.52 250.61 2196.9
-358.82 250.60 2196.8
-353.58 250.93 2199.7
-352.20 254.05 2227.1
-354.66 260.09 2280.0
-350.39 261.31 2290.7
-342.07 259.50 2274.8
-332.08 256.34 2247.2
-324.24 254.76 2233.3
-320.94 256.76 2250.8
-320.46 261.11 2289.0
-316.53 262.78 2303.6
-306.41 259.27 2272.8
-298.14 257.22 2254.9
-288.31 253.71 2224.1
-276.87 248.62 2179.5
-271.80 249.15 2184.1
-257.33 257.33 2255.8
-248.14 253.91 2225.9
-244.59 256.24 2246.2
-243.87 261.72 2294.3
-973.86 237.93 2134.3
-971.73 238.77 2141.8
-995.46 247.43 2219.4
-927.04 231.76 2078.9
-939.86 236.34 2120.0
-978.99 247.63 2221.2
-966.91 247.48 2220.0
-921.35 237.23 2128.0
-902.92 233.89 2098.0
-871.71 227.17 2037.8
-831.03 217.89 1954.5
-836.02 220.54 1978.3
-857.85 227.70 2042.5
-849.12 226.78 2034.3
-825.55 221.87 1990.2
-823.41 222.68 1997.5
-817.46 222.47 1995.6
-796.89 218.26 1957.8
-802.60 221.23 1984.4
-834.88 231.61 2077.6
-871.90 243.45 2183.8
-845.73 237.69 2132.1
-791.54 225.41 2021.9
-835.65 239.55 2148.8
-807.14 232.93 2089.4
-790.66 229.72 2060.6
-824.60 241.21 2163.7
-832.96 247.02 2215.8
-771.21 230.29 2065.7
-761.77 230.68 2069.2
-770.79 238.45 2138.9
-786.31 245.01 2197.7
-789.56 247.82 2223.0
-788.07 249.17 2235.1
-776.66 247.38 2219.0
-772.50 247.89 2223.6
-762.81 246.62 2212.2
-756.70 246.50 2211.1
-721.05 240.35 2156.0
-703.48 236.32 2119.9
-704.42 238.51 2139.4
-696.94 237.84 2133.5
-690.40 237.50 2130.4
-693.91 240.63 2158.5
-694.87 242.92 2179.0
-692.43 244.05 2189.2
-683.68 242.96 2179.4
-681.19 244.09 2189.5
-673.95 243.53 2184.5
-657.42 239.57 2149.0
-655.78 241.01 2161.9
-659.51 244.47 2193.0
-661.39 247.30 2218.3
-663.14 250.13 2243.7
-646.04 245.84 2205.2
-624.73 244.21 2190.6
-621.09 245.02 2197.8
-624.92 248.81 2231.8
-615.55 247.37 2219.0
-602.03 244.22 2190.7
-603.80 247.27 2218.0
-603.09 249.36 2236.7
-585.62 244.48 2193.0
-578.27 243.78 2186.7
-583.04 248.22 2226.6
-583.86 251.06 2252.0
-564.54 245.20 2199.5
-550.61 241.60 2167.1
-563.51 249.80 2240.8
-563.08 252.21 2262.4
-545.18 246.77 2213.5
-540.00 247.02 2215.8
-544.59 251.80 2258.7
-527.26 251.91 2259.7
-510.96 246.87 2214.4
-496.54 245.41 2201.4
-489.80 244.90 2196.8
-478.59 242.11 2171.8
-471.52 241.37 2165.1
-473.06 245.08 2198.4
-466.36 244.55 2193.7
-453.56 240.78 2159.8
-456.87 245.57 2202.8
-465.15 253.18 2271.1
-452.20 249.29 2236.2
-433.97 242.35 2173.9
-423.55 239.64 2149.6
-420.65 241.17 2163.3
-419.36 243.68 2185.8
-417.03 245.65 2203.5
-416.98 249.03 2233.8
-416.23 252.09 2261.2
-404.52 248.49 2229.0
-389.64 242.82 2178.1
-393.49 248.82 2232.0
-393.14 252.32 2263.3
-377.88 246.20 2208.4
-365.54 241.82 2169.2
-364.46 244.87 2196.5
-367.73 250.99 2251.4
-362.83 251.64 2257.2
-347.78 253.47 2273.6
-336.84 249.73 2240.1
-324.48 244.78 2195.7
-315.90 242.57 2175.8
-311.77 243.75 2186.5
-312.28 248.67 2230.6
-309.31 250.95 2251.0
-297.07 245.65 2203.5
-286.50 241.56 2166.8
-281.11 241.75 2168.5
-273.57 240.07 2153.5
-252.45 246.71 2213.0
-244.34 250.16 2243.9
-242.05 253.86 2277.1
-236.31 254.04 2278.7
-232.37 256.20 2298.1
-985.12 236.43 2171.3
-1000.48 241.50 2217.8
-977.19 240.01 2204.2
-956.74 236.37 2170.8
-966.79 240.27 2206.5
-944.10 236.02 2167.6
-917.61 230.78 2119.4
-916.12 231.79 2128.7
-904.79 230.31 2115.1
-877.56 224.74 2064.0
-863.72 222.55 2043.9
-871.15 225.85 2074.2
-870.78 227.16 2086.2
-852.82 223.87 2055.9
-835.75 220.76 2027.4
-814.64 216.55 1988.7
-789.36 212.52 1951.7
-820.98 222.46 2043.0
-858.10 234.03 2149.2
-863.55 237.05 2177.0
-815.62 225.37 2069.7
-779.41 216.79 1990.9
-771.31 215.97 1983.4
-780.16 222.90 2047.1
-805.45 231.70 2127.9
-807.61 233.93 2148.3
-772.10 225.20 2068.1
-752.51 221.02 2029.7
-770.21 227.81 2092.1
-803.67 239.39 2198.5
-802.35 242.44 2226.5
-772.76 235.19 2159.9
-772.11 236.71 2173.8
-766.11 236.59 2172.8
-753.52 234.43 2152.9
-748.87 234.72 2155.6
-751.00 237.16 2178.0
-756.57 240.73 2210.8
-767.74 246.15 2260.5
-750.72 242.54 2227.4
-725.01 236.05 2167.8
-721.51 236.75 2174.2
-716.43 236.93 2175.9
-702.98 234.33 2152.0
-698.85 234.81 2156.5
-693.20 238.64 2191.6
-681.78 236.65 2173.3
-675.45 236.41 2171.1
-675.59 238.44 2189.8
-665.74 236.96 2176.1
-659.41 236.71 2173.9
-658.25 238.33 2188.8
-648.77 236.94 2176.0
-637.66 234.93 2157.5
-637.54 236.96 2176.2
-638.44 239.41 2198.7
-643.44 245.68 2256.2
-616.65 237.61 2182.1
-599.61 233.18 2141.4
-600.83 235.84 2165.9
-596.66 236.41 2171.1
-592.46 236.98 2176.4
-585.64 236.51 2172.0
-582.18 237.39 2180.2
-588.59 242.36 2225.8
-575.63 239.37 2198.3
-559.81 235.12 2159.3
-566.91 240.51 2208.8
-568.27 246.05 2259.7
-543.54 237.80 2183.8
-534.63 236.36 2170.7
-500.06 233.36 2143.1
-505.73 238.66 2191.8
-518.91 247.66 2274.4
-512.20 247.27 2270.9
-493.06 243.63 2237.4
-485.40 242.70 2228.9
-477.58 241.66 2219.4
-461.94 236.60 2172.9
-452.86 234.82 2156.5
-459.21 241.09 2214.1
-457.84 246.53 2264.1
-443.05 241.66 2219.3
-435.78 240.82 2211.6
-422.47 236.58 2172.7
-410.85 233.19 2141.5
-408.64 235.11 2159.1
-408.52 238.30 2188.5
-372.66 233.61 2145.4
-371.62 236.48 2171.8
-368.78 238.29 2188.4
-377.10 247.47 2272.7
-362.61 245.64 2255.9
-353.49 243.39 2235.2
-341.72 239.20 2196.7
-340.36 242.29 2225.1
-338.71 245.27 2252.5
-322.82 237.87 2184.5
-310.85 233.13 2141.0
-306.42 242.82 2230.0
-305.79 246.98 2268.2
-295.05 242.99 2231.5
-289.11 242.85 2230.3
-281.04 240.89 2212.2
-270.36 236.56 2172.5
-263.36 235.34 2161.3
-263.61 240.68 2210.4
-260.03 242.69 2228.8
-253.65 242.12 2223.5
-249.60 243.80 2239.0
-243.76 243.76 2238.6
-231.83 249.66 2292.8
-204.27 252.34 2317.4
-194.72 255.57 2347.1
-942.32 225.94 2125.5
-906.79 218.70 2057.4
-906.70 219.97 2069.4
-936.76 228.62 2150.7
-962.51 236.31 2223.1
-941.90 232.64 2188.6
-904.22 224.69 2113.8
-888.67 222.17 2090.1
-889.49 223.74 2104.8
-891.78 225.70 2123.3
-885.17 225.42 2120.6
-903.74 231.58 2178.7
-880.48 228.48 2149.4
-830.29 216.83 2039.8
-823.50 216.43 2036.1
-852.35 225.46 2121.1
-866.42 230.67 2170.1
-845.04 226.45 2130.4
-824.57 222.42 2092.4
-810.06 219.95 2069.2
-804.68 219.95 2069.2
-796.42 219.15 2061.7
-776.43 215.09 2023.5
-784.25 218.74 2057.8
-791.90 222.38 2092.1
-776.64 219.60 2065.9
-774.37 220.48 2074.2
-787.28 225.72 2123.5
-792.05 228.69 2151.5
-813.09 236.43 2224.3
-807.60 238.21 2241.0
-766.92 227.85 2143.6
-754.65 225.85 2124.7
-750.74 226.33 2129.2
-742.21 225.41 2120.6
-735.99 225.19 2118.5
-735.94 226.87 2134.3
-725.83 225.45 2120.9
-722.18 226.02 2126.4
-728.34 229.71 2161.0
-723.62 229.99 2163.6
-712.61 228.26 2147.4
-699.80 225.92 2125.4
-699.76 227.70 2142.1
-707.00 231.90 2181.6
-719.23 237.81 2237.2
-710.18 238.67 2245.3
-692.37 234.60 2207.1
-684.49 233.87 2200.1
-683.38 235.45 2215.1
-667.65 231.98 2182.4
-655.54 229.72 2161.1
-650.97 230.08 2164.6
-637.57 227.31 2138.4
-629.65 226.45 2130.4
-633.79 229.96 2163.4
-632.22 231.44 2177.3
-634.98 234.54 2206.5
-618.97 232.83 2190.3
-600.83 228.09 2145.8
-601.25 230.38 2167.4
-596.28 230.64 2169.8
-591.04 230.79 2171.2
-596.93 235.33 2213.9
-591.66 240.18 2259.5
-568.44 233.06 2192.6
-570.28 236.18 2221.9
-570.50 238.68 2245.4
-547.07 231.23 2175.4
-529.50 226.14 2127.5
-526.92 227.41 2139.4
-522.86 228.05 2145.5
-512.00 225.72 2123.5
-514.18 229.14 2155.7
-514.82 231.95 2182.1
-499.51 227.55 2140.8
-507.21 233.66 2198.2
-509.54 242.92 2285.3
-495.11 238.82 2246.7
-492.51 240.39 2261.5
-489.42 241.76 2274.4
-471.16 235.58 2216.3
-459.93 232.81 2190.2
-462.57 237.07 2230.2
-456.19 239.79 2255.9
-441.41 235.04 2211.2
-424.16 228.83 2152.7
-408.93 229.67 2160.7
-409.72 233.31 2194.9
-414.12 239.14 2249.7
-372.05 231.12 2174.3
-372.35 234.87 2209.6
-373.13 239.03 2248.8
-361.68 235.38 2214.3
-351.19 232.24 2184.8
-342.71 230.35 2167.0
-336.00 229.60 2160.0
-338.35 235.12 2212.0
-337.62 238.66 2245.2
-323.63 232.79 2190.0
-311.93 228.38 2148.5
-302.15 238.23 2241.2
-298.52 244.79 2302.9
-288.63 241.51 2272.0
-285.41 243.79 2293.5
-276.04 246.04 2314.6
-260.79 237.61 2235.3
-251.24 234.11 2202.4
-243.94 232.60 2188.2
-243.40 237.60 2235.3
-224.39 235.90 2219.2
-205.81 248.19 2334.8
-194.12 248.71 2339.8
-979.25 229.06 2208.8
-980.07 230.60 2223.7
-942.86 223.16 2151.9
-948.90 225.93 2178.6
-956.80 229.17 2209.9
-911.03 219.53 2116.9
-884.07 214.32 2066.7
-878.36 214.23 2065.8
-843.97 207.11 1997.1
-818.36 202.06 1948.5
-837.45 208.06 2006.3
-878.39 219.60 2117.5
-895.32 225.24 2171.9
-852.76 215.89 2081.8
-833.86 212.45 2048.6
-855.42 219.34 2115.0
-826.94 213.40 2057.8
-786.90 204.39 1970.9
-801.20 209.46 2019.8
-813.08 213.97 2063.3
-787.76 208.68 2012.2
-801.99 215.30 2076.1
-820.82 221.84 2139.2
-804.99 219.04 2112.2
-790.68 216.62 2088.9
-774.72 213.72 2060.8
-772.47 214.57 2069.1
-790.58 221.14 2132.4
-799.12 225.10 2170.6
-789.37 223.93 2159.4
-784.08 224.02 2160.2
-790.59 227.51 2193.8
-782.86 226.92 2188.1
-768.16 224.28 2162.7
-762.17 224.17 2161.6
-762.44 225.91 2178.4
-766.21 228.72 2205.5
-746.50 224.51 2164.9
-719.24 217.95 2101.7
-706.03 215.58 2078.8
-704.85 218.56 2107.5
-682.94 216.81 2090.6
-693.67 221.98 2140.5
-708.13 228.43 2202.7
-710.20 230.96 2227.1
-695.65 228.08 2199.4
-681.52 225.30 2172.5
-675.79 225.26 2172.2
-679.15 228.29 2201.3
-668.11 226.48 2183.9
-656.57 224.47 2164.5
-652.56 225.02 2169.9
-646.83 224.98 2169.5
-647.01 227.02 2189.1
-617.25 222.43 2144.9
-626.30 227.74 2196.1
-615.88 226.01 2179.4
-607.42 224.97 2169.4
-610.18 228.10 2199.6
-607.77 229.35 2211.6
-588.32 224.12 2161.2
-579.98 223.07 2151.0
-594.29 230.79 2225.5
-589.56 235.82 2274.0
-572.65 231.37 2231.1
-555.45 226.71 2186.2
-545.26 224.85 2168.2
-539.49 224.79 2167.6
-537.52 226.32 2182.4
-533.83 227.16 2190.5
-524.03 225.39 2173.4
-535.74 235.49 2270.8
-526.31 233.92 2255.6
-504.21 226.61 2185.2
-491.30 223.32 2153.4
-491.24 225.86 2177.9
-483.26 224.77 2167.4
-481.32 226.50 2184.2
-490.31 233.48 2251.4
-482.01 232.29 2240.0
-458.87 223.84 2158.4
-460.46 227.39 2192.7
-438.41 227.75 2196.1
-410.89 225.14 2171.0
-404.35 224.64 2166.2
-406.12 228.80 2206.3
-407.51 232.86 2245.5
-396.96 230.12 2219.1
-382.40 224.94 2169.1
-377.79 225.55 2174.9
-374.83 227.17 2190.6
-373.11 229.61 2214.1
-371.43 232.15 2238.6
-359.21 228.07 2199.2
-347.49 224.19 2161.8
-340.62 223.36 2153.8
-335.63 223.75 2157.6
-334.53 226.80 2187.0
-329.72 227.39 2192.7
-326.63 229.21 2210.3
-325.88 232.77 2244.6
-317.08 230.61 2223.7
-303.43 224.76 2167.4
-294.80 222.49 2145.4
-300.10 230.85 2226.0
-281.97 225.58 2175.2
-282.19 230.36 2221.3
-289.17 240.98 2323.7
-284.56 242.18 2335.3
-269.28 234.16 2258.0
-257.05 228.49 2203.3
-249.95 227.23 2191.1
-247.98 230.67 2224.4
-230.04 230.04 2218.3
-216.77 240.85 2322.5
-204.32 233.51 2251.7
-205.78 242.09 2334.5
-982.29 224.03 2215.7
-993.13 227.84 2253.3
-961.85 221.97 2195.3
-961.04 223.10 2206.5
-962.15 224.69 2222.3
-906.12 212.88 2105.4
-872.52 206.23 2039.6
-859.46 204.38 2021.4
-837.82 201.70 1994.8
-901.68 218.42 2160.2
-883.55 215.36 2130.0
-844.29 207.09 2048.1
-834.83 206.07 2038.0
-843.81 209.61 2073.1
-860.09 215.02 2126.6
-826.75 208.02 2057.4
-803.32 203.44 2012.0
-836.25 213.16 2108.2
-805.60 206.70 2044.3
-809.70 211.94 2096.1
-823.87 217.10 2147.1
-802.69 212.96 2106.2
-816.24 218.04 2156.4
-824.65 221.80 2193.6
-797.72 216.05 2136.7
-792.50 216.14 2137.6
-787.61 216.32 2139.4
-766.31 211.96 2096.3
-777.13 216.49 2141.1
-801.91 225.00 2225.2
-785.73 222.05 2196.1
-764.67 217.68 2152.9
-771.62 221.27 2188.4
-784.98 226.77 2242.8
-784.03 228.19 2256.8
-759.33 222.66 2202.1
-731.01 215.98 2136.1
-716.76 213.39 2110.4
-721.38 216.41 2140.4
-732.80 221.55 2191.1
-719.22 219.14 2167.3
-696.09 213.76 2114.1
-694.84 215.07 2127.1
-707.65 220.79 2183.6
-706.17 222.10 2196.6
-692.53 219.58 2171.7
-694.31 221.95 2195.1
-694.79 223.94 2214.8
-667.97 217.09 2147.0
-650.85 213.30 2109.6
-658.08 217.50 2151.1
-664.24 221.41 2189.8
-663.33 223.01 2205.6
-660.63 224.04 2215.8
-657.60 224.97 2225.0
-638.02 220.20 2177.8
-613.93 213.78 2114.3
-617.95 217.12 2147.3
-625.36 221.72 2192.8
-613.33 219.45 2170.4
-599.25 216.40 2140.2
-596.76 217.51 2151.2
-600.54 220.95 2185.2
-586.89 217.99 2155.9
-572.87 214.83 2124.7
-580.82 219.92 2175.1
-584.71 223.57 2211.1
-577.58 223.03 2205.8
-570.22 222.39 2199.4
-555.72 218.92 2165.1
-553.38 220.22 2178.0
-557.54 224.16 2217.0
-549.96 223.42 2209.7
-545.03 223.75 2212.9
-545.51 226.33 2238.4
-539.32 226.17 2236.8
-537.30 227.77 2252.6
-538.39 230.74 2282.0
-521.02 225.77 2232.9
-491.13 215.21 2128.5
-485.22 215.04 2126.8
-491.80 220.46 2180.4
-477.53 216.55 2141.8
-459.73 216.02 2136.4
-459.16 223.84 2213.8
-460.64 227.41 2249.1
-457.80 228.90 2263.9
-445.92 225.86 2233.8
-426.88 219.06 2166.5
-418.39 223.52 2210.7
-402.81 218.19 2157.9
-395.96 217.50 2151.1
-399.34 225.72 2232.4
-382.85 219.57 2171.6
-376.19 218.98 2165.7
-371.74 219.66 2172.5
-368.25 220.95 2185.2
-372.34 226.90 2244.0
-365.55 226.29 2238.1
-354.05 222.71 2202.6
-347.39 222.10 2196.6
-338.32 219.91 2174.9
-333.41 220.39 2179.7
-333.06 223.95 2214.9
-334.13 228.62 2261.0
-330.53 230.19 2276.6
-318.85 226.09 2236.1
-310.41 224.18 2217.2
-306.52 225.56 2230.8
-301.91 226.43 2239.4
-288.38 220.52 2181.0
-288.51 234.41 2318.4
-270.77 229.56 2270.4
-258.73 224.24 2217.7
-255.31 226.30 2238.1
-257.30 233.37 2308.0
-235.79 224.29 2218.3
-226.20 220.55 2181.2
-961.51 213.67 2168.8
-966.03 215.94 2191.8
-934.88 210.21 2133.7
-931.02 210.59 2137.6
-981.75 223.39 2267.5
-971.27 222.34 2256.8
-891.51 205.32 2084.0
-849.77 198.11 2010.8
-915.52 214.75 2179.8
-902.06 214.24 2174.6
-888.88 212.44 2156.3
-875.53 211.91 2151.0
-852.81 207.74 2108.6
-851.44 208.74 2118.8
-861.47 212.57 2157.7
-840.10 210.03 2131.8
-812.81 205.91 2090.1
-836.08 213.23 2164.3
-812.28 208.56 2116.9
-815.99 210.94 2141.1
-807.30 213.04 2162.4
-782.29 207.88 2110.1
-759.92 203.36 2064.2
-767.17 206.75 2098.6
-806.86 219.00 2223.0
-816.95 223.34 2267.0
-786.58 216.59 2198.5
-769.18 213.35 2165.6
-778.75 217.59 2208.6
-780.23 219.62 2229.2
-768.20 217.85 2211.2
-769.24 219.78 2230.9
-764.06 219.96 2232.7
-738.70 214.28 2175.0
-733.63 214.45 2176.7
-740.24 218.05 2213.3
-721.89 214.31 2175.3
-698.61 212.38 2155.7
-703.59 215.62 2188.6
-692.39 213.91 2171.3
-697.18 217.15 2204.2
-690.31 218.60 2218.8
-671.84 214.54 2177.6
-678.62 218.54 2218.2
-673.06 218.60 2218.9
-660.90 216.50 2197.6
-654.25 216.19 2194.4
-647.32 215.77 2190.2
-645.72 217.15 2204.1
-639.34 216.92 2201.8
-632.42 216.50 2197.6
-628.51 217.12 2203.9
-619.16 215.85 2191.0
-608.52 214.11 2173.3
-590.78 209.81 2129.6
-579.45 209.71 2128.6
-578.19 211.26 2144.4
-577.37 213.01 2162.1
-571.11 212.77 2159.7
-563.60 212.05 2152.4
-550.40 211.27 2144.4
-557.93 216.34 2195.9
-555.24 217.52 2207.9
-540.96 214.13 2173.5
-537.31 214.92 2181.5
-538.10 217.53 2208.0
-528.48 215.94 2191.9
-522.64 215.87 2191.2
-531.21 221.82 2251.6
-521.14 220.04 2233.5
-504.01 215.19 2184.3
-510.14 220.29 2236.0
-510.31 222.90 2262.5
-488.70 215.94 2191.8
-466.13 213.41 2166.2
-453.92 210.35 2135.2
-447.38 215.19 2184.3
-451.01 219.72 2230.3
-446.62 220.41 2237.2
-425.37 215.52 2187.6
-425.53 218.51 2218.0
-427.01 222.28 2256.2
-417.70 220.45 2237.7
-406.51 217.57 2208.4
-381.56 216.41 2196.6
-369.48 212.73 2159.3
-367.02 214.56 2177.9
-371.78 220.75 2240.7
-364.52 219.87 2231.8
-352.56 216.09 2193.4
-347.64 216.56 2198.2
-339.93 215.29 2185.3
-334.09 215.18 2184.1
-332.55 217.88 2211.5
-328.10 218.74 2220.3
-319.18 216.58 2198.4
-310.50 214.53 2177.5
-304.00 213.92 2171.4
-302.94 217.20 2204.7
-301.45 220.29 2236.0
-292.36 217.84 2211.1
-285.19 216.74 2200.0
-278.20 215.74 2189.9
-276.66 219.02 2223.2
-281.70 227.75 2311.8
-273.90 226.27 2296.7
-264.11 223.02 2263.8
-262.94 227.08 2305.0
-242.80 225.03 2284.1
-238.58 226.65 2300.6
-232.17 226.22 2296.2
-208.51 233.04 2365.4
-170.77 231.76 2352.5
-981.85 214.96 2240.9
-931.22 205.09 2138.0
-938.42 207.91 2167.4
-982.11 218.90 2282.0
-940.28 210.85 2198.0
-911.28 205.59 2143.3
-947.66 215.11 2242.5
-924.97 211.26 2202.3
-879.43 202.11 2106.9
-861.79 199.29 2077.5
-880.34 204.86 2135.6
-876.15 207.81 2166.3
-849.40 202.76 2113.7
-857.23 205.96 2147.0
-877.75 212.27 2212.8
-861.83 209.79 2187.0
-831.85 203.83 2124.9
-835.01 205.97 2147.2
-833.39 206.95 2157.4
-821.38 205.34 2140.6
-837.10 210.70 2196.5
-846.22 214.45 2235.6
-811.35 207.03 2158.3
-796.68 204.70 2134.0
-795.62 205.86 2146.0
-783.15 204.06 2127.3
-800.16 209.97 2188.9
-815.53 215.53 2246.9
-800.92 213.19 2222.5
-802.52 215.17 2243.1
-792.17 215.52 2246.7
-762.30 208.93 2178.0
-761.18 210.18 2191.0
-772.66 214.95 2240.8
-759.07 212.77 2218.1
-727.01 205.34 2140.6
-720.12 204.96 2136.6
-723.66 207.56 2163.8
-724.25 209.35 2182.5
-709.18 206.61 2153.9
-680.04 201.29 2098.4
-696.13 207.72 2165.4
-696.78 209.60 2185.0
-684.72 207.66 2164.8
-679.91 207.91 2167.4
-678.33 209.15 2180.4
-674.64 209.76 2186.7
-675.28 211.74 2207.3
-663.68 209.88 2187.9
-659.91 210.49 2194.3
-643.52 208.86 2177.3
-630.48 206.44 2152.1
-627.55 207.32 2161.2
-624.30 208.10 2169.4
-626.74 210.81 2197.7
-623.90 211.78 2207.8
-612.42 209.81 2187.2
-593.84 205.35 2140.7
-582.08 203.18 2118.1
-582.72 205.34 2140.6
-584.55 207.96 2168.0
-585.21 210.22 2191.5
-573.79 208.14 2169.8
-560.95 205.50 2142.3
-565.74 209.33 2182.2
-573.80 214.45 2235.6
-567.87 214.40 2235.0
-551.00 210.18 2191.0
-541.08 208.54 2174.0
-541.48 210.89 2198.5
-533.27 209.90 2188.2
-515.07 204.92 2136.2
-509.83 205.04 2137.5
-518.30 210.74 2196.9
-526.70 216.53 2257.3
-528.53 219.72 2290.6
-514.38 218.76 2280.5
-497.26 213.94 2230.2
-475.03 211.76 2207.6
-462.93 208.88 2177.6
-449.54 205.35 2140.7
-445.03 205.83 2145.7
-451.28 211.36 2203.4
-451.51 214.18 2232.8
-443.61 213.16 2222.2
-433.06 210.83 2197.8
-425.48 209.90 2188.2
-418.13 209.06 2179.4
-412.12 208.88 2177.5
-415.79 213.67 2227.5
-417.42 217.53 2267.7
-411.19 217.34 2265.8
-401.12 215.09 2242.3
-389.78 212.08 2210.9
-377.05 208.22 2170.7
-368.40 206.53 2153.0
-369.59 210.38 2193.1
-373.18 215.74 2249.1
-364.61 214.14 2232.3
-349.49 208.57 2174.2
-341.35 207.05 2158.4
-336.80 207.69 2165.1
-334.02 209.47 2183.7
-333.08 212.48 2215.0
-329.49 213.88 2229.7
-319.26 210.94 2199.0
-309.59 208.27 2171.2
-304.07 208.35 2171.9
-303.70 212.01 2210.2
-310.17 220.70 2300.7
-298.31 220.75 2301.3
-287.55 217.13 2263.5
-269.60 207.82 2166.4
-264.18 212.50 2215.2
-244.97 210.78 2197.4
-244.40 215.30 2244.5
-243.49 219.73 2290.6
-241.92 223.78 2332.8
-205.06 223.16 2326.3
-200.43 224.73 2342.7
-175.31 223.67 2331.7
-979.27 206.16 2208.9
-980.85 208.94 2238.6
-948.51 204.47 2190.7
-923.23 200.22 2145.2
-954.97 208.36 2232.4
-963.36 214.08 2293.7
-926.05 207.07 2218.6
-920.38 207.09 2218.8
-872.17 197.47 2115.8
-859.92 195.93 2099.3
-901.44 206.70 2214.6
-886.79 204.64 2192.6
-870.75 202.24 2166.8
-888.44 207.69 2225.2
-881.73 208.83 2237.5
-830.58 198.02 2121.6
-815.32 195.68 2096.5
-823.87 199.06 2132.8
-820.12 199.49 2137.4
-811.73 198.79 2129.9
-798.08 196.79 2108.4
-790.84 196.35 2103.7
-802.77 200.69 2150.3
-811.37 204.26 2188.5
-806.72 204.52 2191.3
-797.26 203.55 2180.9
-788.52 202.76 2172.4
-764.95 198.12 2122.7
-757.39 197.58 2116.9
-765.84 202.72 2172.0
-749.96 199.99 2142.8
-761.35 204.54 2191.5
-766.98 207.60 2224.3
-749.24 204.34 2189.3
-727.81 200.01 2143.0
-730.14 202.19 2166.3
-735.51 205.26 2199.2
-738.21 207.62 2224.5
-728.02 206.37 2211.1
-703.36 200.96 2153.1
-699.96 204.87 2195.0
-692.68 204.40 2190.0
-677.97 201.71 2161.2
-667.24 200.17 2144.7
-661.87 200.23 2145.3
-660.86 201.62 2160.2
-656.89 202.12 2165.6
-660.34 204.93 2195.7
-659.95 206.59 2213.5
-640.55 202.28 2167.3
-624.74 199.03 2132.5
-619.91 199.26 2134.9
-615.35 199.57 2138.3
-615.69 201.50 2158.9
-621.61 205.30 2199.7
-618.46 206.15 2208.8
-604.09 203.25 2177.6
-596.73 202.66 2171.4
-588.87 201.90 2163.2
-582.09 201.49 2158.8
-585.86 204.77 2193.9
-577.23 203.73 2182.8
-571.17 203.59 2181.3
-582.87 209.83 2248.2
-576.90 209.78 2247.7
-556.71 204.51 2191.2
-545.30 202.38 2168.3
-540.24 202.59 2170.6
-538.99 204.25 2188.4
-529.39 202.74 2172.3
-512.62 198.44 2126.1
-509.26 199.27 2135.1
-506.76 200.47 2147.9
-509.49 208.43 2233.2
-502.67 208.00 2228.6
-481.43 208.81 2237.3
-463.66 203.56 2181.0
-448.63 199.39 2136.3
-442.51 199.13 2133.5
-450.78 205.42 2200.9
-453.20 209.17 2241.1
-445.47 208.27 2231.5
-435.08 206.09 2208.1
-423.86 203.45 2179.9
-413.53 201.18 2155.5
-393.36 199.45 2137.0
-386.93 198.99 2132.1
-388.24 202.56 2170.3
-387.97 205.39 2200.6
-380.89 204.66 2192.8
-377.72 206.03 2207.5
-366.20 202.82 2173.0
-357.46 201.07 2154.3
-360.68 206.10 2208.3
-357.16 207.38 2221.9
-346.87 204.71 2193.3
-340.25 204.15 2187.3
-332.45 202.85 2173.4
-326.34 202.56 2170.3
-328.41 207.42 2222.3
-323.91 208.23 2231.0
-314.59 205.91 2206.2
-309.39 206.26 2209.9
-302.82 205.69 2203.8
-303.19 209.90 2249.0
-299.41 215.57 2309.7
-288.62 212.05 2271.9
-270.28 202.71 2171.9
-264.36 206.89 2216.7
-263.66 210.93 2259.9
-247.15 202.22 2166.6
-231.34 203.12 2176.3
-226.47 203.83 2183.8
-225.48 208.13 2230.0
-222.19 210.50 2255.3
-223.05 217.02 2325.3
-209.13 221.44 2372.5
-202.35 220.74 2365.1
-183.68 220.42 2361.6
-990.25 205.08 2260.1
-954.64 200.07 2204.9
-911.99 192.29 2119.1
-930.86 197.46 2176.0
-960.00 204.88 2257.8
-963.57 206.90 2280.1
-914.12 201.22 2217.6
-855.94 189.61 2089.5
-856.92 191.03 2105.3
-865.68 194.22 2140.4
-872.04 196.91 2170.1
-867.19 197.09 2172.0
-860.85 196.93 2170.2
-861.46 198.36 2186.0
-831.47 192.73 2123.9
-816.58 190.53 2099.8
-824.04 193.57 2133.2
-837.07 197.96 2181.5
-843.84 200.91 2214.1
-823.65 197.45 2176.0
-812.39 196.09 2161.0
-801.89 194.90 2147.9
-789.72 193.29 2130.1
-796.56 196.33 2163.7
-798.45 198.20 2184.2
-783.92 195.98 2159.8
-755.99 190.36 2097.8
-752.75 193.72 2134.9
-772.18 200.19 2206.2
-768.70 200.78 2212.7
-760.65 200.17 2206.0
-745.21 197.59 2177.6
-726.04 193.98 2137.8
-739.20 199.02 2193.2
-732.72 200.35 2208.0
-700.45 193.04 2127.3
-703.20 195.33 2152.6
-716.88 200.73 2212.1
-682.56 194.22 2140.4
-679.61 194.97 2148.7
-669.17 193.56 2133.1
-668.27 194.91 2148.0
-672.88 197.91 2181.0
-665.67 197.44 2175.9
-655.29 196.03 2160.3
-644.70 194.52 2143.7
-631.91 192.32 2119.5
-633.92 194.62 2144.8
-639.72 198.14 2183.6
-633.38 197.93 2181.3
-627.61 197.89 2180.9
-619.92 197.25 2173.7
-617.68 198.34 2185.8
-611.08 198.04 2182.4
-593.84 194.25 2140.7
-588.15 194.20 2140.2
-582.72 194.24 2140.6
-576.25 193.93 2137.2
-581.10 197.46 2176.1
-578.37 198.46 2187.1
-577.86 200.25 2206.8
-587.00 205.45 2264.1
-578.77 204.61 2254.9
-563.95 201.41 2219.6
-557.57 201.18 2217.1
-542.77 197.89 2180.8
-532.44 196.16 2161.8
-531.15 197.77 2179.5
-523.01 196.83 2169.2
-515.15 195.98 2159.8
-508.70 195.65 2156.2
-487.89 194.05 2138.5
-489.63 196.98 2170.8
-486.22 197.88 2180.7
-494.76 203.72 2245.1
-483.22 203.77 2245.6
-472.26 201.57 2221.4
-463.88 200.44 2208.9
-446.25 195.23 2151.6
-444.09 196.75 2168.3
-452.71 203.14 2238.7
-450.64 204.83 2257.4
-435.76 200.68 2211.6
-420.16 196.07 2160.8
-416.63 197.06 2171.6
-407.31 195.28 2152.1
-398.08 193.51 2132.6
-388.62 194.31 2141.4
-388.15 196.89 2169.8
-393.59 202.58 2232.5
-392.23 204.90 2258.0
-387.72 205.61 2265.9
-374.89 201.86 2224.6
-360.80 197.31 2174.5
-359.16 199.53 2198.9
-354.71 200.24 2206.7
-343.99 197.37 2175.1
-343.39 200.31 2207.5
-341.26 202.44 2231.0
-333.68 201.36 2219.0
-334.31 205.28 2262.2
-317.33 205.68 2266.7
-306.41 202.35 2230.0
-291.95 196.51 2165.6
-285.27 199.69 2200.6
-286.55 204.68 2255.7
-278.21 202.86 2235.6
-275.63 205.26 2262.0
-273.63 208.19 2294.4
-265.22 206.28 2273.3
-253.31 201.49 2220.5
-245.63 199.93 2203.4
-242.36 201.97 2225.8
-235.81 201.30 2218.4
-228.07 199.56 2199.2
-224.03 201.05 2215.6
-219.51 202.18 2228.1
-218.92 207.09 2282.2
-219.81 213.71 2355.1
-212.77 212.77 2344.8
-200.18 206.06 2270.9
-187.66 211.87 2334.9
-176.47 205.88 2268.9
-982.72 198.88 2256.3
-973.04 198.10 2247.4
-987.03 202.16 2293.5
-958.32 199.90 2267.7
-946.76 198.70 2254.2
-871.43 192.39 2182.6
-844.85 187.74 2129.9
-827.28 185.05 2099.3
-821.47 184.97 2098.4
-829.02 187.91 2131.8
-842.88 192.34 2182.0
-861.51 197.92 2245.3
-850.62 198.09 2247.2
-839.56 196.86 2233.3
-829.59 195.88 2222.1
-800.97 190.44 2160.4
-795.69 190.52 2161.3
-783.90 189.02 2144.4
-758.24 184.14 2089.0
-773.72 189.25 2147.0
-784.56 193.30 2192.9
-764.50 189.73 2152.4
-770.47 192.62 2185.2
-781.88 196.92 2233.9
-770.50 195.50 2217.8
-752.36 192.33 2181.9
-727.94 187.50 2127.1
-713.38 185.15 2100.5
-730.13 190.96 2166.3
-750.36 197.77 2243.6
-733.82 194.92 2211.3
-706.52 189.15 2145.8
-713.86 192.63 2185.3
-726.86 197.71 2242.9
-706.95 193.84 2199.0
-687.85 190.14 2157.0
-681.86 190.03 2155.8
-669.02 187.99 2132.6
-665.75 188.63 2139.9
-676.84 193.38 2193.8
-676.01 194.78 2209.7
-669.03 194.42 2205.6
-661.20 193.80 2198.6
-645.14 190.74 2163.8
-645.07 192.39 2182.6
-649.94 195.56 2218.5
-641.30 194.68 2208.6
-636.56 194.98 2212.0
-630.16 194.78 2209.7
-617.81 192.71 2186.2
-601.54 189.37 2148.4
-590.24 187.55 2127.7
-591.18 189.62 2151.2
-586.51 189.92 2154.5
-581.04 189.96 2155.0
-598.19 197.46 2240.1
-580.51 195.42 2216.9
-564.87 192.06 2178.8
-569.23 195.49 2217.8
-567.51 196.89 2233.6
-563.28 197.44 2239.8
-549.87 194.74 2209.3
-526.59 188.47 2138.1
-520.32 190.23 2158.0
-528.44 195.29 2215.5
-513.39 191.81 2176.0
-487.78 188.46 2138.0
-493.68 192.93 2188.7
-493.70 195.18 2214.2
-490.58 196.23 2226.2
-482.52 195.31 2215.7
-470.96 192.92 2188.6
-464.49 192.59 2184.9
-474.01 198.97 2257.2
-473.86 201.39 2284.7
-443.79 191.00 2166.8
-433.38 191.36 2170.9
-428.15 191.54 2173.0
-420.25 190.51 2161.3
-424.42 195.00 2212.2
-425.18 198.03 2246.6
-425.22 200.80 2278.0
-408.10 198.22 2248.7
-399.99 197.10 2236.0
-397.65 198.83 2255.6
-385.67 195.71 2220.3
-371.17 191.21 2169.2
-373.65 195.45 2217.3
-374.41 198.91 2256.5
-369.68 199.51 2263.3
-362.06 198.55 2252.5
-345.01 192.30 2181.5
-338.56 191.85 2176.5
-344.35 198.44 2251.2
-316.71 199.41 2262.3
-308.52 197.92 2245.3
-296.01 193.55 2195.7
-285.06 190.04 2155.9
-290.84 197.77 2243.6
-289.51 200.88 2278.9
-277.91 196.85 2233.2
-277.26 200.57 2275.4
-277.58 205.17 2327.5
-267.36 202.00 2291.6
-253.14 195.61 2219.1
-245.36 194.00 2200.9
-242.09 195.98 2223.3
-245.45 203.54 2309.1
-236.40 206.10 2338.1
-223.56 200.03 2269.3
-219.16 201.39 2284.7
-215.97 203.98 2314.0
-207.41 201.49 2285.8
-183.63 201.40 2284.8
-180.99 205.12 2327.0
-976.70 195.34 2283.2
-965.10 195.39 2283.8
-946.17 192.74 2252.8
-944.22 194.75 2276.2
-926.64 192.32 2247.9
-890.60 189.61 2216.2
-880.10 188.59 2204.3
-853.02 185.20 2164.6
-838.71 183.29 2142.4
-857.36 188.62 2204.6
-839.19 187.12 2187.1
-793.41 178.11 2081.8
-790.80 178.74 2089.2
-796.93 181.37 2119.9
-833.59 191.03 2232.8
-799.45 187.11 2187.0
-774.38 182.53 2133.5
-792.46 188.14 2199.0
-791.77 189.34 2213.0
-760.65 183.22 2141.6
-779.90 189.24 2211.9
-769.41 190.91 2231.4
-750.35 187.59 2192.6
-742.69 187.09 2186.8
-719.13 182.55 2133.7
-702.77 179.78 2101.3
-723.92 186.64 2181.5
-734.09 190.75 2229.5
-707.51 185.30 2165.8
-706.46 189.54 2215.4
-698.23 188.87 2207.5
-682.87 186.24 2176.8
-664.11 182.63 2134.6
-659.35 182.84 2137.1
-671.48 187.79 2194.9
-677.84 191.19 2234.6
-666.79 189.69 2217.1
-648.12 185.98 2173.8
-642.66 186.03 2174.4
-641.95 187.47 2191.2
-636.98 187.68 2193.7
-636.14 189.12 2210.5
-627.97 190.12 2222.2
-608.38 185.89 2172.8
-593.56 183.06 2139.7
-595.53 185.40 2167.0
-592.13 186.10 2175.2
-578.05 183.42 2143.9
-584.69 187.33 2189.5
-585.68 191.36 2236.7
-565.74 186.69 2182.1
-566.63 188.88 2207.6
-564.68 190.15 2222.5
-559.99 190.51 2226.8
-553.83 190.38 2225.2
-536.24 186.27 2177.2
-517.46 181.66 2123.3
-519.50 184.34 2154.6
-529.01 189.75 2217.9
-514.87 186.71 2182.3
-496.82 182.17 2129.2
-497.40 184.43 2155.7
-500.29 187.61 2192.8
-497.73 188.80 2206.7
-493.80 189.48 2214.7
-486.39 188.84 2207.2
-470.39 189.30 2212.6
-462.03 188.23 2200.1
-466.07 192.26 2247.1
-441.49 184.42 2155.5
-426.51 185.20 2164.6
-428.52 188.55 2203.8
-429.21 191.40 2237.2
-426.76 192.92 2254.9
-425.31 194.94 2278.5
-417.80 194.19 2269.7
-411.56 194.02 2267.8
-409.55 195.87 2289.4
-397.05 192.69 2252.2
-375.18 184.79 2159.9
-365.62 185.62 2169.6
-359.82 185.53 2168.5
-348.72 182.66 2135.0
-355.18 189.05 2209.7
-352.24 190.56 2227.3
-340.02 187.01 2185.8
-339.75 190.03 2221.1
-335.60 190.95 2231.8
-312.23 190.80 2230.2
-307.91 191.72 2240.8
-303.13 192.37 2248.5
-298.97 193.45 2261.1
-295.90 195.29 2282.6
-285.43 192.23 2246.8
-267.88 184.17 2152.6
-268.32 192.49 2249.9
-255.11 191.33 2236.4
-250.82 192.49 2249.9
-245.92 193.22 2258.4
-238.26 201.60 2356.4
-225.96 196.23 2293.6
-222.44 198.40 2318.9
-217.78 199.63 2333.4
-207.37 195.52 2285.3
-199.39 193.53 2262.0
-191.96 191.96 2243.6
-188.86 201.04 2349.9
-978.71 186.42 2247.0
-896.64 179.33 2161.5
-854.54 173.07 2086.1
-864.93 176.29 2124.9
-853.09 174.99 2109.3
-843.55 174.15 2099.2
-870.65 180.91 2180.7
-889.74 187.31 2257.8
-877.75 186.01 2242.1
-779.89 172.11 2074.6
-838.36 188.93 2277.2
-824.59 187.14 2255.7
-810.58 185.28 2233.2
-791.93 182.32 2197.6
-756.99 175.53 2115.8
-767.46 180.58 2176.6
-768.91 185.00 2229.9
-747.91 181.31 2185.5
-744.43 181.85 2191.9
-724.68 178.38 2150.2
-698.94 174.74 2106.2
-724.26 182.49 2199.7
-714.46 181.45 2187.1
-693.26 181.84 2191.8
-689.28 182.29 2197.2
-680.82 181.55 2188.4
-664.18 178.60 2152.8
-663.45 179.92 2168.7
-667.56 182.58 2200.7
-654.29 180.49 2175.6
-637.43 177.37 2138.0
-634.03 177.97 2145.2
-638.43 180.79 2179.2
-638.78 182.51 2199.9
-638.20 183.98 2217.7
-637.53 185.46 2235.5
-629.45 184.79 2227.4
-608.23 180.22 2172.3
-595.39 181.45 2187.2
-607.23 186.84 2252.1
-583.52 181.29 2185.2
-571.35 179.25 2160.6
-571.41 181.04 2182.2
-568.86 182.03 2194.2
-567.73 183.51 2211.9
-563.82 184.10 2219.1
-563.51 185.90 2240.8
-561.41 187.14 2255.7
-523.11 179.99 2169.6
-519.87 180.82 2179.6
-515.66 185.41 2234.8
-510.59 185.67 2238.0
-500.47 184.08 2218.8
-489.35 182.08 2194.7
-482.20 181.54 2188.2
-488.88 186.24 2244.8
-480.65 187.57 2260.9
-465.61 183.94 2217.2
-462.53 185.01 2230.0
-450.38 182.43 2199.0
-439.17 180.17 2171.7
-436.10 181.24 2184.5
-435.27 183.27 2209.1
-432.61 184.58 2224.8
-428.17 185.15 2231.8
-422.21 185.08 2230.9
-417.35 185.49 2235.8
-417.34 188.10 2267.2
-408.06 189.24 2281.1
-387.61 182.41 2198.7
-376.79 179.96 2169.2
-374.19 181.42 2186.8
-372.48 183.38 2210.3
-361.03 180.52 2175.9
-337.84 177.23 2136.2
-334.27 178.28 2148.9
-336.66 182.60 2200.9
-310.22 183.83 2215.9
-307.57 185.70 2238.3
-304.26 187.24 2256.9
-293.29 184.02 2218.1
-283.92 181.71 2190.2
-278.20 181.68 2189.9
-262.48 182.59 2200.9
-253.09 192.83 2324.3
-237.78 190.22 2292.9
-233.00 191.18 2304.4
-215.61 191.65 2310.1
-210.12 192.11 2315.6
-206.87 194.70 2346.9
-201.34 195.24 2353.3
-195.45 195.45 2355.8
-975.88 183.35 2281.3
-931.93 179.44 2232.7
-890.31 172.50 2146.3
-876.05 170.80 2125.2
-850.63 169.04 2103.2
-891.51 179.46 2232.9
-889.08 180.14 2241.4
-876.42 182.34 2268.8
-860.93 180.33 2243.7
-820.34 173.00 2152.5
-794.98 168.80 2100.2
-822.32 179.52 2233.7
-790.51 173.80 2162.5
-795.08 176.05 2190.5
-793.77 177.03 2202.7
-785.68 176.49 2196.0
-789.64 178.68 2223.2
-755.66 172.25 2143.2
-751.64 173.89 2163.6
-759.95 177.13 2203.9
-729.97 171.43 2133.0
-718.60 170.05 2115.8
-727.05 173.37 2157.2
-719.49 172.90 2151.3
-704.73 170.68 2123.6
-708.18 172.86 2150.8
-724.50 178.25 2217.9
-718.99 178.31 2218.6
-702.79 175.70 2186.1
-701.28 176.75 2199.1
-696.70 177.03 2202.7
-692.09 177.31 2206.2
-693.10 179.05 2227.8
-684.88 178.42 2219.9
-679.04 178.39 2219.6
-677.53 179.52 2233.6
-668.20 178.57 2221.8
-654.36 176.39 2194.7
-641.21 174.36 2169.5
-636.31 174.56 2172.0
-640.29 177.22 2205.1
-643.01 179.58 2234.4
-632.46 178.24 2217.7
-614.39 174.73 2174.1
-608.89 174.77 2174.6
-597.26 173.04 2153.0
-588.96 173.88 2163.5
-595.47 179.22 2229.9
-578.34 175.77 2187.0
-573.54 176.04 2190.3
-563.21 174.60 2172.4
-554.46 173.62 2160.2
-557.79 176.44 2195.4
-565.08 180.59 2247.0
-558.15 180.24 2242.6
-540.51 176.38 2194.5
-535.14 176.48 2195.9
-533.96 177.99 2214.6
-514.65 173.42 2157.7
-502.49 171.18 2129.8
-513.56 176.89 2201.0
-519.57 180.97 2251.8
-521.12 183.58 2284.1
-487.93 175.88 2188.4
-464.58 171.45 2133.3
-465.19 175.87 2188.2
-463.65 177.45 2207.9
-463.83 179.74 2236.3
-454.67 178.41 2219.9
-446.18 177.33 2206.4
-446.33 179.69 2235.8
-441.72 180.17 2241.8
-435.36 179.95 2239.0
-432.01 180.98 2251.8
-426.75 181.22 2254.8
-417.62 179.81 2237.3
-413.10 180.37 2244.2
-413.87 183.29 2280.5
-387.87 176.82 2200.1
-381.31 176.43 2195.2
-376.79 176.98 2202.0
-373.39 178.08 2215.7
-374.16 181.23 2255.0
-362.52 178.38 2219.5
-329.95 173.36 2157.0
-328.33 175.49 2183.5
-320.17 174.13 2166.6
-313.81 173.72 2161.4
-304.80 171.80 2137.6
-304.20 174.63 2172.9
-308.17 180.25 2242.8
-290.87 176.80 2199.8
-281.67 174.63 2172.9
-263.48 177.56 2209.3
-236.75 179.01 2227.3
-233.92 181.29 2255.7
-234.25 186.20 2316.8
-228.59 186.49 2320.3
-221.30 185.41 2307.0
-213.15 183.55 2283.7
-206.74 183.11 2278.3
-902.86 171.43 2204.1
-862.98 164.90 2120.2
-875.14 176.20 2265.5
-856.08 173.53 2231.1
-852.45 173.97 2236.8
-861.15 176.95 2275.0
-835.62 172.89 2222.8
-822.89 171.44 2204.2
-817.86 171.58 2206.0
-776.65 164.08 2109.6
-770.38 165.08 2122.5
-796.28 171.86 2209.6
-811.70 176.46 2268.7
-805.14 176.31 2266.8
-758.78 167.38 2152.0
-745.88 166.99 2147.0
-763.67 172.26 2214.7
-741.09 168.43 2165.5
-727.07 166.50 2140.8
-733.55 169.28 2176.5
-740.50 172.21 2214.1
-738.15 173.00 2224.3
-709.28 170.23 2188.6
-686.56 167.45 2153.0
-688.10 169.21 2175.5
-674.31 167.18 2149.5
-665.97 166.49 2140.6
-670.31 168.99 2172.7
-676.83 172.08 2212.4
-678.52 173.98 2236.9
-671.19 173.58 2231.8
-658.19 171.70 2207.6
-645.57 169.89 2184.3
-634.75 168.52 2166.7
-632.07 169.30 2176.8
-643.13 173.82 2234.8
-608.47 169.02 2173.1
-605.37 169.73 2182.2
-593.50 167.97 2159.6
-585.41 167.26 2150.5
-585.66 168.94 2172.1
-576.80 168.00 2160.0
-564.17 165.93 2133.4
-566.07 168.14 2161.8
-562.82 168.85 2170.9
-562.99 170.60 2193.5
-576.81 176.57 2270.2
-561.78 173.75 2233.9
-533.45 166.70 2143.3
-524.87 165.75 2131.1
-527.69 168.41 2165.3
-537.10 173.26 2227.6
-527.48 172.00 2211.5
-510.14 168.18 2162.3
-516.83 172.28 2215.0
-522.36 176.08 2263.9
-489.32 170.69 2194.6
-469.52 165.71 2130.6
-460.31 168.41 2165.2
-455.34 168.65 2168.3
-452.58 169.72 2182.1
-456.56 173.38 2229.1
-461.88 177.64 2284.0
-451.30 175.83 2260.7
-436.60 172.34 2215.8
-426.50 170.60 2193.4
-419.13 169.92 2184.7
-419.23 172.29 2215.1
-415.33 173.05 2225.0
-407.04 171.99 2211.3
-403.98 173.14 2226.0
-393.14 173.44 2230.0
-382.58 171.30 2202.5
-374.67 170.31 2189.7
-369.15 170.38 2190.6
-368.36 172.67 2220.0
-365.33 173.97 2236.7
-332.72 166.36 2138.9
-333.93 169.80 2183.1
-327.95 169.63 2181.0
-319.80 168.31 2164.0
-313.59 167.99 2159.9
-303.45 165.52 2128.1
-302.05 167.81 2157.5
-302.94 171.48 2204.7
-295.20 170.31 2189.6
-289.75 170.44 2191.4
-276.29 172.68 2220.2
-257.27 167.79 2157.2
-267.24 178.16 2290.6
-259.15 180.80 2324.6
-245.43 175.30 2253.9
-236.49 173.04 2224.8
-237.57 178.18 2290.8
-233.90 179.92 2313.3
-224.34 177.11 2277.1
-221.82 179.86 2312.4
-218.38 181.98 2339.8
-208.85 179.01 2301.6
-181.63 175.77 2259.9
-870.27 168.25 2237.8
-853.72 166.16 2210.0
-839.28 167.86 2232.6
-818.15 164.77 2191.5
-805.87 163.43 2173.7
-779.54 159.20 2117.5
-771.61 158.70 2110.8
-772.90 160.10 2129.4
-785.94 163.97 2180.9
-807.81 169.76 2257.8
-805.28 170.46 2267.2
-796.73 169.89 2259.6
-796.78 171.16 2276.5
-772.86 167.26 2224.6
-747.54 163.00 2168.0
-742.51 163.13 2169.7
-743.24 164.53 2188.4
-726.99 162.18 2157.0
-712.47 160.17 2130.3
-738.91 167.41 2226.6
-736.84 169.59 2255.6
-700.19 162.44 2160.6
-687.78 160.85 2139.4
-706.08 166.47 2214.2
-702.67 167.03 2221.5
-684.29 164.00 2181.3
-669.35 161.76 2151.5
-666.61 162.45 2160.7
-667.03 163.93 2180.4
-662.43 164.19 2183.8
-660.69 165.17 2196.9
-652.32 164.50 2187.9
-639.47 162.67 2163.6
-628.42 161.27 2145.0
-617.17 159.80 2125.4
-619.53 161.86 2152.8
-631.60 166.51 2214.7
-623.57 165.90 2206.6
-611.00 164.06 2182.1
-606.01 164.25 2184.6
-595.46 162.91 2166.8
-588.13 162.44 2160.5
-593.82 165.58 2202.3
-590.55 166.27 2211.5
-565.55 160.79 2138.6
-555.31 159.45 2120.7
-560.17 162.45 2160.7
-568.80 166.62 2216.1
-577.65 170.94 2273.5
-558.00 166.82 2218.8
-527.05 159.21 2117.6
-517.39 159.62 2123.0
-525.98 164.02 2181.5
-531.74 167.61 2229.3
-528.78 168.51 2241.3
-529.84 170.73 2270.8
-514.66 169.60 2255.8
-495.93 165.31 2198.7
-482.04 162.55 2162.0
-476.69 162.64 2163.1
-476.36 168.47 2240.7
-471.83 168.93 2246.8
-450.65 163.36 2172.8
-437.03 160.43 2133.8
-449.91 167.27 2224.8
-446.31 168.09 2235.7
-436.30 166.48 2214.3
-430.01 166.27 2211.5
-416.02 163.03 2168.4
-409.67 162.74 2164.6
-409.00 164.74 2191.1
-404.23 165.11 2196.0
-400.32 165.85 2205.8
-396.71 166.73 2217.6
-389.06 165.92 2206.8
-379.24 164.15 2183.2
-375.42 164.96 2194.0
-374.36 167.02 2221.5
-366.80 166.21 2210.6
-356.72 164.20 2184.0
-343.20 165.88 2206.3
-340.18 167.21 2223.9
-336.47 168.23 2237.6
-330.65 168.22 2237.5
-331.99 171.92 2286.6
-298.05 166.22 2210.8
-295.03 167.76 2231.3
-284.65 168.47 2240.7
-283.61 171.35 2279.0
-274.17 169.17 2250.1
-259.68 163.71 2177.5
-257.58 166.00 2207.8
-251.41 173.59 2308.9
-248.65 175.88 2339.3
-240.49 174.36 2319.1
-226.92 168.73 2244.3
-220.77 168.48 2240.9
-221.77 173.82 2311.9
-220.00 177.22 2357.1
-212.14 175.77 2337.8
-202.18 172.45 2293.7
-193.30 169.87 2259.4
-171.21 171.21 2277.2
-857.90 157.00 2162.8
-865.12 159.36 2195.3
-852.54 158.09 2177.7
-839.32 156.67 2158.2
-834.81 156.88 2161.1
-799.63 153.35 2112.5
-816.95 157.76 2173.2
-816.96 162.23 2234.8
-784.60 156.92 2161.7
-786.07 158.35 2181.3
-797.52 161.82 2229.1
-804.75 164.47 2265.7
-804.50 165.63 2281.7
-799.23 165.77 2283.5
-770.70 161.04 2218.4
-726.86 153.02 2108.0
-708.25 154.93 2134.2
-730.08 160.96 2217.4
-717.15 159.37 2195.3
-704.61 157.83 2174.2
-715.38 161.54 2225.3
-710.01 162.95 2244.8
-695.75 161.00 2217.9
-685.17 159.87 2202.3
-678.49 159.64 2199.2
-674.44 160.04 2204.6
-660.23 158.00 2176.6
-649.31 156.73 2159.0
-644.74 156.98 2162.5
-635.34 156.05 2149.7
-624.88 154.84 2133.0
-615.33 153.83 2119.1
-609.03 156.45 2155.1
-615.95 159.69 2199.8
-621.59 162.66 2240.7
-622.53 164.44 2265.3
-608.15 162.17 2234.0
-607.95 163.68 2254.7
-584.78 160.53 2211.4
-570.82 158.25 2180.0
-571.79 160.10 2205.5
-566.42 160.20 2206.8
-561.29 160.37 2209.2
-554.93 160.19 2206.7
-536.54 156.49 2155.7
-521.73 153.77 2118.3
-521.27 155.27 2138.9
-527.01 158.67 2185.8
-529.52 161.16 2220.0
-527.73 162.38 2236.9
-530.17 164.94 2272.1
-475.61 153.07 2108.6
-470.77 155.08 2136.3
-482.88 164.89 2271.4
-473.96 163.84 2257.0
-448.50 156.97 2162.4
-436.74 156.78 2159.7
-441.71 160.62 2212.6
-439.08 161.77 2228.4
-427.61 159.64 2199.1
-410.85 157.59 2170.9
-419.33 163.07 2246.4
-412.07 162.51 2238.6
-405.74 162.29 2235.7
-395.55 160.51 2211.2
-381.51 157.09 2164.0
-375.38 156.88 2161.0
-375.49 159.30 2194.4
-374.60 161.37 2222.9
-367.03 160.58 2212.0
-357.75 159.00 2190.3
-353.79 159.78 2201.0
-346.33 161.62 2226.4
-342.81 162.69 2241.1
-328.96 161.59 2226.0
-326.32 163.16 2247.6
-316.96 164.35 2264.0
-305.23 161.25 2221.3
-299.17 161.09 2219.1
-292.08 160.36 2209.0
-283.11 158.54 2184.0
-276.79 158.16 2178.8
-274.18 159.94 2203.3
-274.59 163.58 2253.4
-269.89 164.28 2263.1
-262.37 163.25 2248.9
-254.59 169.73 2338.1
-246.07 168.04 2314.9
-232.21 162.54 2239.1
-224.96 161.51 2224.8
-225.89 166.45 2292.9
-222.48 168.36 2319.3
-215.50 167.61 2308.9
-210.10 168.08 2315.4
-202.48 166.75 2297.1
-194.45 164.98 2272.7
-192.72 168.63 2322.9
-846.57 157.64 2252.0
-836.68 159.09 2272.7
-786.87 152.85 2183.5
-788.58 154.29 2204.1
-787.18 155.14 2216.2
-772.44 153.35 2190.8
-756.18 151.24 2160.5
-748.56 150.83 2154.7
-705.12 147.58 2108.3
-720.30 151.94 2170.6
-733.64 155.97 2228.1
-723.77 155.09 2215.6
-714.27 154.28 2204.0
-701.15 152.67 2181.0
-686.62 150.72 2153.2
-684.85 151.57 2165.2
-682.13 152.21 2174.4
-678.77 152.72 2181.8
-678.31 153.90 2198.6
-685.65 156.89 2241.2
-681.49 157.27 2246.7
-660.05 153.63 2194.8
-645.99 151.67 2166.7
-648.17 153.52 2193.1
-649.39 155.16 2216.6
-634.63 152.99 2185.6
-616.70 150.01 2143.0
-600.89 147.49 2107.0
-601.53 149.00 2128.6
-610.14 152.53 2179.1
-617.43 155.80 2225.7
-582.08 154.08 2201.1
-580.27 155.12 2216.0
-573.89 154.95 2213.6
-561.56 153.15 2187.9
-553.28 152.44 2177.6
-543.59 151.31 2161.6
-533.26 149.98 2142.5
-527.30 149.87 2140.9
-531.99 152.80 2182.9
-522.56 155.04 2214.9
-525.73 157.72 2253.1
-510.76 154.95 2213.6
-490.66 150.54 2150.6
-486.67 151.04 2157.6
-480.69 150.91 2155.9
-483.09 153.45 2192.2
-470.55 153.07 2186.7
-461.39 151.92 2170.3
-451.70 150.57 2150.9
-450.60 152.08 2172.6
-455.01 155.51 2221.6
-448.49 155.25 2217.8
-439.64 154.16 2202.3
-434.33 154.30 2204.3
-420.26 151.29 2161.3
-410.53 149.79 2139.8
-422.99 156.45 2235.0
-419.73 159.61 2280.2
-414.36 159.82 2283.2
-404.58 158.32 2261.6
-381.92 151.65 2166.4
-364.55 151.43 2163.3
-359.91 151.84 2169.1
-353.79 151.62 2166.1
-348.16 151.62 2166.0
-344.08 152.30 2175.7
-339.80 152.91 2184.4
-336.83 154.14 2202.1
-305.12 152.56 2179.5
-305.42 155.59 2222.7
-302.69 157.17 2245.2
-299.59 158.60 2265.8
-285.99 154.43 2206.2
-275.83 151.99 2171.3
-275.09 154.74 2210.6
-273.01 160.25 2289.2
-266.23 159.74 2282.0
-259.37 159.16 2273.7
-248.36 155.94 2227.8
-242.86 156.13 2230.4
-236.30 155.61 2223.1
-229.88 155.17 2216.7
-230.21 159.38 2276.8
-226.32 160.81 2297.3
-217.57 158.76 2268.1
-210.44 157.83 2254.7
-204.82 158.01 2257.2
-201.47 159.99 2285.6
-864.03 152.82 2267.1
-791.29 144.88 2149.4
-784.86 145.76 2162.4
-811.36 151.76 2251.5
-799.46 150.62 2234.5
-800.33 151.89 2253.3
-787.50 150.55 2233.5
-768.49 148.01 2195.7
-759.16 147.30 2185.2
-720.26 141.87 2104.6
-717.29 142.36 2112.0
-720.02 144.00 2136.3
-728.97 146.92 2179.6
-750.91 152.53 2262.8
-719.55 148.48 2202.7
-710.69 147.82 2193.0
-697.90 146.33 2170.9
-682.18 144.20 2139.2
-678.94 144.69 2146.5
-683.43 146.85 2178.6
-687.18 148.89 2208.8
-686.36 149.96 2224.7
-679.86 151.08 2241.3
-650.39 145.78 2162.6
-635.54 143.69 2131.6
-636.68 145.21 2154.2
-657.63 151.31 2244.8
-642.47 150.49 2232.5
-624.53 147.62 2189.9
-615.74 146.87 2178.9
-614.54 147.95 2194.8
-606.06 147.27 2184.7
-598.94 146.91 2179.4
-596.30 147.66 2190.5
-587.89 146.97 2180.4
-588.02 148.43 2202.0
-591.87 150.87 2238.2
-578.85 149.01 2210.6
-562.46 146.24 2169.5
-547.76 143.86 2134.1
-536.17 142.25 2110.3
-543.93 145.80 2162.9
-551.18 149.28 2214.6
-540.52 147.93 2194.6
-540.82 149.59 2219.2
-536.42 151.60 2248.9
-522.87 149.39 2216.3
-524.45 151.51 2247.7
-523.18 152.84 2267.4
-515.15 152.20 2258.0
-501.46 149.86 2223.2
-485.98 146.92 2179.7
-481.67 147.33 2185.7
-474.98 147.02 2181.0
-465.17 145.72 2161.7
-458.98 145.53 2159.0
-455.26 146.13 2167.9
-460.00 149.50 2217.9
-464.09 152.74 2265.9
-456.28 152.09 2256.3
-441.67 149.13 2212.4
-430.74 147.36 2186.1
-430.04 149.08 2211.7
-434.29 152.59 2263.7
-433.26 154.31 2289.3
-425.33 153.59 2278.6
-417.45 152.87 2267.8
-413.72 153.67 2279.7
-395.33 151.15 2242.4
-379.95 147.44 2187.4
-378.14 148.97 2209.9
-372.74 149.10 2211.9
-365.20 148.36 2201.0
-366.24 151.15 2242.3
-357.39 152.33 2259.8
-347.22 150.46 2232.1
-335.69 147.93 2194.6
-319.74 143.33 2126.3
-315.95 144.12 2138.0
-315.68 146.57 2174.3
-306.63 144.95 2150.4
-305.04 146.87 2178.9
-306.97 150.59 2234.0
-306.48 153.24 2273.3
-295.40 153.61 2278.8
-278.02 147.52 2188.5
-271.32 146.97 2180.3
-273.12 151.09 2241.4
-268.33 151.67 2250.0
-262.92 151.91 2253.6
-257.50 152.16 2257.3
-243.31 147.12 2182.6
-232.76 147.60 2189.7
-230.85 150.05 2226.0
-205.56 148.46 2202.5
-841.04 142.07 2191.9
-811.76 142.92 2205.0
-820.08 145.40 2243.4
-828.90 148.02 2283.7
-814.53 146.50 2260.3
-810.34 146.80 2264.9
-818.16 149.30 2303.5
-798.24 146.74 2263.9
-772.24 143.01 2206.4
-772.05 144.04 2222.3
-761.36 143.11 2208.0
-728.77 138.02 2129.5
-714.83 136.42 2104.7
-743.79 145.27 2241.3
-723.88 142.50 2198.5
-697.96 138.49 2136.6
-690.18 138.04 2129.7
-697.70 140.67 2170.3
-701.39 142.56 2199.5
-700.42 143.53 2214.4
-708.04 146.29 2257.0
-698.55 145.53 2245.3
-684.70 143.85 2219.3
-676.81 143.39 2212.3
-650.70 139.04 2145.2
-641.87 138.33 2134.3
-646.48 140.54 2168.3
-635.09 139.27 2148.8
-642.58 142.16 2193.4
-634.48 144.20 2224.8
-625.61 143.49 2213.8
-622.44 144.08 2223.0
-610.96 142.75 2202.4
-604.06 142.47 2198.1
-602.69 143.50 2214.0
-595.00 143.03 2206.7
-596.35 144.75 2233.2
-591.45 144.96 2236.6
-570.10 141.11 2177.2
-557.55 139.39 2150.5
-547.60 138.28 2133.5
-545.85 139.25 2148.4
-563.00 145.10 2238.7
