ply
format ascii 1.0
element vertex 2282
property float x
property float y
property float z
end_header
265.86 193.35 847.5
269.34 194.28 851.5
296.59 212.19 930.1
325.70 231.14 1013.1
325.68 229.28 1005.0
301.95 210.88 924.3
287.00 198.87 871.7
282.59 194.28 851.5
287.37 196.04 859.3
295.00 199.69 875.3
299.88 201.44 883.0
299.09 199.39 874.0
309.09 204.51 896.4
344.86 226.48 992.7
358.79 233.88 1025.1
319.56 206.77 906.3
302.03 194.00 850.3
320.13 204.14 894.8
333.14 210.91 924.4
373.96 235.06 1030.3
414.94 258.97 1135.1
391.54 242.64 1063.5
399.42 245.79 1077.3
407.01 248.73 1090.2
424.65 257.72 1129.6
496.12 299.03 1310.7
521.75 312.34 1369.0
507.35 301.67 1322.2
503.65 297.46 1303.8
526.11 308.65 1352.8
-534.14 505.11 2239.4
-484.02 495.41 2196.4
-450.52 472.23 2093.6
-429.68 455.88 2021.1
-419.84 450.93 1999.2
-418.82 455.47 2019.3
-424.37 467.34 2072.0
-420.36 468.87 2078.7
-422.05 476.86 2114.2
-413.71 479.91 2127.7
-386.68 454.61 2015.5
-374.54 446.37 1979.0
-368.69 458.23 2031.6
-374.93 472.74 2095.9
-363.89 465.57 2064.1
-357.85 464.68 2060.1
-356.94 470.51 2086.0
-349.73 468.10 2075.3
-340.97 463.51 2055.0
-343.33 474.12 2102.0
-351.64 493.43 2187.6
-346.10 493.62 2188.5
-337.41 489.24 2169.1
-332.35 490.08 2172.8
-323.50 485.25 2151.4
-318.46 486.08 2155.0
-318.32 494.53 2192.5
-313.02 495.14 2195.2
-305.81 492.69 2184.3
-308.35 506.16 2244.1
-305.50 511.12 2266.1
-299.47 510.85 2264.9
-303.22 527.61 2339.1
-289.83 525.31 2329.0
-268.21 507.26 2249.0
-63.32 423.76 1878.8
-57.91 419.84 1861.4
-53.73 424.93 1883.9
-49.50 430.68 1909.4
-39.06 424.79 1883.3
-24.96 361.90 1604.5
-21.39 372.26 1650.4
-16.92 368.09 1631.9
-11.68 338.83 1502.2
-7.46 324.54 1438.8
-3.96 344.12 1525.7
0.00 361.51 1602.7
4.06 353.36 1566.6
7.78 338.40 1500.3
11.46 332.45 1473.9
15.28 332.45 1473.9
18.63 324.08 1436.8
21.48 311.52 1381.1
24.69 306.89 1360.6
28.32 307.98 1365.4
31.70 306.42 1358.5
34.59 300.90 1334.0
37.35 295.38 1309.6
40.19 291.40 1291.9
43.41 290.50 1287.9
47.13 292.89 1298.5
49.77 288.69 1279.9
53.33 289.98 1285.6
58.20 297.86 1320.6
61.21 295.85 1311.7
63.69 291.64 1293.0
65.97 286.99 1272.4
67.46 279.48 1239.1
69.11 273.29 1211.6
72.07 272.59 1208.5
76.94 278.92 1236.6
81.53 283.71 1257.8
83.13 278.17 1233.3
84.95 273.74 1213.6
88.58 275.23 1220.2
92.75 278.25 1233.6
97.52 282.80 1253.8
99.26 278.58 1235.1
99.38 270.19 1197.9
104.79 276.27 1224.9
112.40 287.62 1275.1
115.33 286.68 1271.0
115.42 278.94 1236.7
117.58 276.47 1225.7
121.01 277.06 1228.3
123.58 275.68 1222.2
125.91 273.86 1214.1
128.92 273.57 1212.9
132.03 273.50 1212.5
134.38 271.89 1205.4
137.14 271.16 1202.2
139.09 268.90 1192.2
141.79 268.17 1188.9
146.25 270.71 1200.2
148.95 269.97 1196.9
151.15 268.36 1189.8
152.68 265.66 1177.8
156.19 266.45 1181.3
161.42 270.07 1197.4
164.07 269.33 1194.1
166.98 269.02 1192.7
169.32 267.84 1187.4
170.52 264.91 1174.5
174.21 265.91 1178.9
177.35 266.03 1179.4
177.54 261.80 1160.7
179.58 260.39 1154.5
184.03 262.47 1163.7
186.20 261.28 1158.4
187.71 259.22 1149.3
194.93 264.99 1174.8
200.01 267.70 1186.9
200.37 264.12 1171.0
206.16 267.70 1186.8
212.37 271.71 1204.6
212.99 268.56 1190.6
213.37 265.19 1175.7
216.86 265.72 1178.1
220.53 266.47 1181.4
218.05 259.86 1152.1
216.70 254.77 1129.5
224.93 260.92 1156.8
230.28 263.61 1168.7
224.60 253.77 1125.1
222.76 248.46 1101.6
226.68 249.64 1106.8
230.04 250.16 1109.1
233.60 250.90 1112.4
240.02 254.65 1129.0
239.33 250.87 1112.2
232.74 241.05 1068.7
235.60 241.14 1069.1
244.20 247.04 1095.2
247.55 247.55 1097.5
248.31 245.49 1088.4
242.21 236.77 1049.7
235.25 227.41 1008.2
237.07 226.64 1004.8
239.99 226.95 1006.2
244.07 228.32 1012.3
246.55 228.19 1011.7
253.94 232.55 1031.0
261.89 237.34 1052.2
253.74 227.58 1009.0
252.36 224.03 993.2
264.01 232.01 1028.6
265.29 230.80 1023.3
263.33 226.83 1005.6
266.77 227.54 1008.8
274.01 231.45 1026.1
286.42 239.60 1062.3
285.91 236.90 1050.3
269.29 221.02 979.9
268.79 218.55 968.9
286.15 230.51 1022.0
294.72 235.24 1042.9
293.21 231.90 1028.1
295.95 231.96 1028.4
272.53 211.70 938.6
245.66 189.13 838.5
263.45 201.06 891.4
287.37 217.40 963.8
275.31 206.49 915.5
256.22 190.52 844.7
246.22 181.53 804.8
266.86 195.10 865.0
293.89 213.07 944.7
293.79 211.24 936.5
283.04 201.84 894.8
296.14 209.47 928.7
308.21 216.24 958.7
294.80 205.18 909.7
295.12 203.77 903.4
300.91 206.14 913.9
297.20 202.01 895.6
300.85 202.90 899.6
299.84 200.66 889.6
294.68 195.71 867.7
313.81 206.83 917.0
351.97 230.24 1020.7
363.65 236.10 1046.8
350.25 225.72 1000.7
350.29 224.09 993.5
362.74 230.36 1021.3
369.72 233.08 1033.4
376.08 235.39 1043.6
380.83 236.66 1049.2
371.82 229.42 1017.1
367.73 225.30 998.9
393.49 239.40 1061.4
453.07 273.73 1213.6
516.71 303.74 1346.6
504.96 294.84 1307.2
512.18 297.06 1317.0
-550.21 498.09 2233.9
-548.67 501.97 2251.4
-518.63 479.59 2151.0
-508.35 475.20 2131.3
-508.26 480.34 2154.3
-511.17 488.45 2190.7
-492.37 475.77 2133.8
-470.58 459.88 2062.6
-463.11 457.79 2053.2
-456.12 456.12 2045.7
-444.53 449.76 2017.2
-436.41 446.80 2003.9
-444.59 460.66 2066.1
-444.94 466.65 2092.9
-442.95 470.29 2109.3
-428.12 466.06 2090.3
-401.80 443.01 1986.9
-403.15 450.27 2019.5
-415.10 469.72 2106.7
-409.08 469.08 2103.9
-397.74 462.24 2073.2
-390.73 460.31 2064.5
-373.36 445.96 2000.2
-365.16 442.30 1983.7
-377.96 464.35 2082.6
-389.58 485.56 2177.8
-383.76 485.34 2176.8
-366.57 470.52 2110.3
-356.14 464.07 2081.4
-353.16 467.26 2095.7
-348.67 468.52 2101.4
-346.19 472.58 2119.5
-348.58 483.51 2168.6
-338.92 502.54 2253.9
-331.63 500.35 2244.1
-329.29 505.70 2268.1
-288.75 528.36 2369.7
-32.46 398.83 1788.8
-16.74 359.92 1614.3
-12.15 348.40 1562.6
-8.13 349.71 1568.5
-4.02 346.01 1551.9
0.00 343.40 1540.2
4.04 347.32 1557.7
7.96 342.31 1535.3
11.77 337.52 1513.8
15.75 338.60 1518.6
19.29 331.84 1488.3
22.33 320.08 1435.6
25.27 310.49 1392.6
28.56 307.00 1376.9
31.63 302.19 1355.4
34.18 293.91 1318.2
37.70 294.76 1322.0
41.43 296.91 1331.7
44.16 292.10 1310.1
47.23 290.12 1301.2
51.02 292.49 1311.8
56.23 302.24 1355.6
59.70 301.99 1354.5
61.06 291.74 1308.5
63.53 287.58 1289.8
65.86 283.20 1270.1
68.19 279.25 1252.4
70.65 276.17 1238.6
73.09 273.30 1225.8
77.59 278.04 1247.0
82.71 284.51 1276.1
85.08 281.43 1262.2
85.55 272.48 1222.1
87.85 269.82 1210.2
92.73 274.98 1233.3
98.18 281.44 1262.3
100.80 279.65 1254.3
101.78 273.52 1226.8
104.35 271.95 1219.7
108.78 275.14 1234.0
113.28 278.33 1248.3
115.12 275.02 1233.5
118.20 274.74 1232.2
122.61 277.49 1244.6
123.94 273.31 1225.8
124.97 268.69 1205.1
129.30 271.22 1216.4
133.48 273.31 1225.8
134.46 268.91 1206.1
136.11 266.03 1193.1
138.48 264.66 1187.0
141.75 265.01 1188.6
149.99 274.44 1230.9
156.75 280.84 1259.6
158.37 277.95 1246.6
159.29 273.97 1228.8
159.99 269.79 1210.0
162.81 269.27 1207.7
163.50 265.30 1189.9
164.09 261.33 1172.1
169.28 264.69 1187.1
173.28 266.10 1193.5
174.74 263.64 1182.4
176.29 261.39 1172.3
178.96 260.86 1170.0
183.43 262.92 1179.2
188.25 265.40 1190.3
190.64 264.44 1186.0
190.65 260.25 1167.2
196.32 263.80 1183.2
202.71 268.20 1202.9
203.77 265.52 1190.9
205.10 263.26 1180.7
206.38 261.01 1170.6
209.15 260.68 1169.2
211.39 259.71 1164.8
211.31 255.96 1148.0
210.79 251.78 1129.2
216.16 254.66 1142.2
222.89 259.03 1161.8
225.80 258.92 1161.2
225.68 255.38 1145.4
224.14 250.34 1122.8
225.78 248.94 1116.5
227.98 248.18 1113.1
228.97 246.14 1103.9
232.12 246.44 1105.3
237.91 249.52 1119.1
242.13 250.88 1125.2
240.56 246.28 1104.6
235.51 238.28 1068.7
235.40 235.40 1055.8
239.30 236.55 1060.9
241.48 235.99 1058.4
244.97 236.72 1061.7
248.48 237.44 1064.9
247.29 233.70 1048.2
247.60 231.45 1038.1
247.40 228.78 1026.1
245.06 224.20 1005.6
243.55 220.48 988.9
242.20 216.97 973.1
242.19 214.73 963.1
248.88 218.40 979.5
256.13 222.50 997.9
253.90 218.35 979.3
253.06 215.48 966.4
257.16 216.82 972.5
257.76 215.22 965.3
262.39 216.98 973.2
280.16 229.46 1029.1
284.98 231.21 1037.0
278.34 223.71 1003.3
289.19 230.28 1032.8
297.27 234.54 1051.9
295.24 230.82 1035.3
289.62 224.39 1006.4
260.67 200.16 897.7
246.88 187.89 842.7
278.28 209.93 941.5
294.50 220.24 987.8
279.12 206.93 928.1
268.55 197.40 885.3
270.66 197.26 884.7
283.43 204.83 918.7
307.12 220.10 987.2
311.21 221.19 992.1
305.30 215.21 965.2
300.45 210.07 942.2
294.89 204.52 917.3
285.29 196.28 880.3
291.32 198.84 891.8
307.18 208.01 932.9
309.68 208.07 933.2
324.59 216.39 970.5
330.92 218.92 981.9
310.56 203.88 914.4
319.03 207.85 932.2
355.01 229.56 1029.6
360.30 231.24 1037.1
371.76 236.82 1062.2
400.58 253.31 1136.1
378.65 237.69 1066.1
351.11 218.81 981.4
362.33 224.18 1005.4
377.01 231.59 1038.7
400.90 244.52 1096.7
432.84 262.14 1175.7
438.94 263.98 1184.0
473.83 282.98 1269.2
506.36 300.32 1347.0
478.59 281.91 1264.4
510.06 298.40 1338.3
525.31 303.20 1359.9
506.75 290.54 1303.1
-548.46 501.28 2274.7
-519.96 480.39 2179.9
-504.04 470.80 2136.4
-514.10 485.54 2203.3
-501.85 479.30 2175.0
-474.52 458.34 2079.9
-462.49 451.86 2050.5
-449.76 444.53 2017.2
-432.98 432.98 1964.8
-421.60 437.02 1983.1
-425.30 446.30 2025.2
-434.75 461.92 2096.1
-421.29 453.29 2056.9
-407.83 444.43 2016.7
-419.25 462.81 2100.1
-420.04 469.79 2131.8
-403.52 457.32 2075.2
-392.24 450.55 2044.5
-384.94 448.22 2033.9
-373.92 441.43 2003.1
-372.43 445.86 2023.2
-375.20 455.59 2067.4
-376.54 463.85 2104.9
-378.70 473.38 2148.1
-369.78 469.12 2128.8
-361.61 465.71 2113.3
-360.98 472.05 2142.1
-360.05 478.19 2170.0
-361.18 487.31 2211.3
-343.18 470.49 2135.0
-335.33 467.27 2120.4
-345.42 497.63 2258.2
-330.97 485.04 2201.0
-327.95 489.05 2219.2
-320.91 487.09 2210.3
-317.63 490.88 2227.5
-318.60 501.50 2275.7
-315.47 505.94 2295.8
-295.76 502.80 2281.6
-295.60 512.78 2326.9
-291.59 516.36 2343.1
-278.98 504.54 2289.5
-268.62 496.36 2252.4
-263.76 498.21 2260.8
-261.07 504.34 2288.6
-247.97 526.93 2391.1
-241.14 525.56 2384.9
-39.37 418.28 1898.1
-32.99 400.65 1818.1
-27.49 389.48 1767.4
-17.28 367.12 1665.9
-12.46 353.14 1602.5
-8.28 352.07 1597.6
-4.07 346.05 1570.3
0.00 339.81 1542.0
4.02 341.53 1549.8
7.94 337.44 1531.2
11.79 333.99 1515.6
15.96 339.15 1539.0
19.75 335.70 1523.3
23.19 328.58 1491.0
26.62 323.19 1466.6
29.26 310.91 1410.9
31.53 297.77 1351.2
35.05 297.97 1352.1
39.84 307.84 1396.9
43.82 310.40 1408.5
46.75 305.64 1387.0
48.81 296.37 1344.9
51.80 293.55 1332.1
56.46 299.97 1361.2
59.34 296.71 1346.4
60.96 287.86 1306.3
63.76 285.25 1294.4
67.06 285.00 1293.3
70.35 284.75 1292.1
72.85 281.48 1277.3
75.34 278.44 1263.5
78.30 277.32 1258.4
81.80 278.14 1262.1
85.92 280.88 1274.6
87.98 276.97 1256.8
90.66 275.20 1248.8
96.00 281.38 1276.8
99.59 282.18 1280.5
100.23 274.83 1247.1
101.10 268.56 1218.7
103.49 266.57 1209.7
106.18 265.44 1204.5
108.75 264.10 1198.4
112.92 266.61 1209.8
118.83 272.98 1238.7
122.87 274.84 1247.2
123.52 269.21 1221.6
126.65 269.14 1221.3
133.30 276.35 1254.0
138.73 280.77 1274.1
140.81 278.34 1263.1
139.06 268.64 1219.0
138.33 261.29 1185.7
139.40 257.58 1168.9
145.34 262.85 1192.8
155.02 274.52 1245.7
159.56 276.79 1256.0
161.13 273.92 1243.0
162.64 271.06 1230.0
164.73 269.27 1221.9
164.78 264.27 1199.2
164.72 259.28 1176.6
168.81 260.90 1183.9
172.95 262.51 1191.2
174.26 259.86 1179.2
175.07 256.57 1164.3
177.58 255.84 1161.0
184.43 261.28 1185.6
192.47 268.20 1217.0
199.43 273.41 1240.7
203.51 274.58 1246.0
201.70 267.88 1215.6
200.71 262.47 1191.0
203.55 262.15 1189.6
205.88 261.19 1185.2
207.00 258.75 1174.1
209.09 257.58 1168.8
210.63 255.77 1160.6
209.83 251.21 1139.9
208.93 246.65 1119.3
213.55 248.66 1128.4
224.11 257.43 1168.2
231.33 262.17 1189.7
232.41 259.94 1179.5
231.92 256.01 1161.7
228.03 248.50 1127.6
223.98 240.99 1093.6
229.88 244.25 1108.4
238.67 250.45 1136.5
237.83 246.53 1118.7
235.06 240.72 1092.4
240.47 243.34 1104.2
243.00 243.00 1102.7
239.14 236.35 1072.5
239.85 234.34 1063.4
242.70 234.42 1063.8
247.08 235.98 1070.8
248.17 234.38 1063.6
244.95 228.80 1038.2
248.63 229.72 1042.4
251.43 229.80 1042.8
253.52 229.25 1040.3
257.01 229.95 1043.5
248.93 220.41 1000.2
241.84 211.92 961.7
244.43 212.01 962.0
246.54 211.67 960.5
247.65 210.50 955.2
249.48 209.96 952.7
261.30 217.75 988.1
270.76 223.44 1013.9
275.00 224.76 1019.9
290.32 235.02 1066.5
286.42 229.68 1042.2
273.25 217.07 985.0
278.00 218.80 992.9
278.26 216.99 984.7
277.68 214.57 973.7
272.45 208.63 946.7
241.16 183.03 830.5
227.75 171.32 777.4
265.11 197.67 897.0
299.68 221.50 1005.1
302.36 221.56 1005.4
310.44 225.53 1023.4
295.99 213.21 967.5
295.12 210.80 956.6
319.48 226.30 1026.9
331.00 232.52 1055.1
310.18 216.11 980.7
291.98 201.78 915.6
306.72 210.25 954.1
319.23 217.08 985.1
310.91 209.74 951.8
310.09 207.54 941.8
315.69 209.64 951.3
336.86 221.96 1007.2
351.10 229.56 1041.7
334.33 216.93 984.4
330.60 212.89 966.0
352.64 225.37 1022.7
361.76 229.48 1041.3
376.47 237.04 1075.6
422.27 263.92 1197.6
413.57 256.59 1164.4
391.19 240.95 1093.4
415.96 254.36 1154.2
450.02 273.23 1239.9
492.55 296.92 1347.4
462.15 276.64 1255.3
405.79 241.20 1094.5
432.96 255.57 1159.7
458.35 268.69 1219.3
438.60 255.35 1158.7
468.80 271.07 1230.1
523.32 296.55 1345.7
-549.07 475.49 2183.4
-549.64 480.93 2208.4
-560.84 495.90 2277.1
-536.95 479.83 2203.3
-536.59 484.66 2225.5
-529.30 483.28 2219.1
-511.94 472.56 2169.9
-511.13 482.42 2215.2
-485.86 463.78 2129.6
-473.49 457.17 2099.2
-458.51 447.85 2056.4
-447.94 442.67 2032.7
-437.07 437.07 2007.0
-423.24 428.34 1966.9
-416.32 426.48 1958.3
-413.06 428.36 1967.0
-415.91 436.71 2005.3
-418.76 445.27 2044.6
-421.03 453.41 2082.0
-417.36 455.30 2090.7
-403.25 445.70 2046.6
-397.01 444.65 2041.8
-395.95 449.46 2063.8
-385.32 443.38 2036.0
-371.78 433.75 1991.7
-366.78 433.94 1992.6
-366.49 439.79 2019.4
-368.64 448.78 2060.7
-371.60 459.04 2107.8
-379.34 475.59 2183.8
-364.84 486.45 2233.7
-334.52 453.22 2081.1
-319.88 455.42 2091.2
-329.54 477.27 2191.6
-328.12 483.55 2220.4
-323.18 484.78 2226.0
-308.83 471.67 2165.8
-298.58 464.45 2132.7
-309.18 509.23 2338.3
-295.25 516.68 2372.5
-287.64 514.09 2360.6
-282.19 515.30 2366.2
-274.32 512.06 2351.3
-268.30 512.21 2352.0
-263.03 513.83 2359.4
-260.79 521.58 2395.0
-233.61 516.40 2371.2
-53.87 411.38 1889.0
-48.95 411.19 1888.1
-43.01 401.43 1843.3
-38.25 401.67 1844.4
-32.91 394.88 1813.2
-28.10 393.40 1806.4
-23.49 394.69 1812.4
-12.69 355.35 1631.7
-8.34 350.46 1609.3
-4.11 345.14 1584.8
0.00 338.76 1555.5
3.99 334.93 1537.9
7.77 326.20 1497.9
11.42 319.81 1468.5
15.35 322.36 1480.2
19.44 326.61 1499.7
23.31 326.38 1498.7
26.83 321.90 1478.1
29.60 310.82 1427.2
32.07 299.32 1374.4
35.81 300.79 1381.2
40.72 310.98 1428.0
44.85 313.93 1441.5
47.69 308.17 1415.0
49.62 297.72 1367.1
51.64 289.19 1327.9
55.36 290.65 1334.6
58.73 290.19 1332.5
60.81 283.78 1303.1
63.46 280.56 1288.3
66.59 279.67 1284.2
70.33 281.34 1291.9
73.39 280.24 1286.8
75.96 277.43 1273.9
78.83 275.91 1266.9
81.47 273.74 1257.0
84.25 272.21 1249.9
87.55 272.37 1250.7
91.48 274.45 1260.2
96.42 279.28 1282.4
99.65 279.01 1281.2
101.31 274.51 1260.5
103.02 270.42 1241.7
106.55 271.21 1245.4
110.44 272.85 1252.9
112.60 270.25 1240.9
116.34 271.46 1246.5
121.04 274.78 1261.8
123.61 273.24 1254.7
123.68 266.39 1223.2
126.62 265.90 1221.0
133.68 273.88 1257.6
139.44 278.88 1280.6
144.13 281.56 1292.9
144.78 276.41 1269.2
143.62 268.08 1231.0
144.80 264.41 1214.1
145.77 260.53 1196.3
150.16 262.78 1206.6
155.58 266.71 1224.7
158.20 265.78 1220.4
160.16 263.80 1211.3
162.86 263.08 1208.0
168.06 266.36 1223.1
173.21 269.44 1237.2
174.56 266.60 1224.2
175.71 263.56 1210.2
177.35 261.36 1200.1
177.49 257.06 1180.4
179.75 255.91 1175.1
186.33 260.86 1197.8
194.25 267.49 1228.3
201.24 272.65 1251.9
208.19 277.58 1274.6
209.33 274.74 1261.6
206.01 266.23 1222.5
206.46 262.77 1206.6
208.16 260.98 1198.4
208.12 257.09 1180.5
212.99 259.29 1190.6
217.03 260.44 1195.9
219.50 259.69 1192.5
222.32 259.37 1191.0
222.76 256.32 1177.0
229.02 259.97 1193.7
235.37 263.61 1210.5
235.37 260.15 1194.5
235.29 256.68 1178.6
230.87 248.63 1141.7
230.38 244.96 1124.8
239.93 251.93 1156.8
244.42 253.47 1163.9
239.38 245.22 1126.0
239.71 242.60 1114.0
248.09 248.09 1139.2
253.86 250.88 1152.0
252.46 246.59 1132.3
250.52 241.88 1110.7
251.31 239.88 1101.5
249.85 235.81 1082.8
244.96 228.63 1049.8
244.40 225.60 1035.9
250.35 228.58 1049.6
257.75 232.80 1069.0
265.47 237.22 1089.3
267.90 236.88 1087.7
258.99 226.61 1040.6
253.18 219.25 1006.8
256.84 220.15 1010.9
253.23 214.86 986.6
247.53 207.92 954.8
255.31 212.33 975.0
273.94 225.60 1035.9
284.03 231.63 1063.6
288.90 233.34 1071.5
293.55 234.84 1078.4
279.30 221.33 1016.3
264.75 207.84 954.4
265.74 206.68 949.1
272.28 209.83 963.5
279.16 213.18 978.9
283.14 214.27 983.9
259.85 194.88 894.9
235.85 175.32 805.0
258.58 190.53 874.9
295.92 216.15 992.5
305.05 220.90 1014.3
316.85 227.48 1044.6
309.31 220.19 1011.1
289.20 204.14 937.4
289.10 202.37 929.2
307.13 213.21 979.0
302.36 208.18 955.9
286.77 195.84 899.3
299.68 203.01 932.2
318.48 214.02 982.7
318.36 212.24 974.6
324.02 214.31 984.1
334.04 219.22 1006.6
346.03 225.32 1034.6
352.21 227.58 1045.0
341.10 218.72 1004.3
344.40 219.16 1006.4
364.30 230.09 1056.5
368.37 230.92 1060.3
352.38 219.26 1006.8
360.91 222.91 1023.6
403.93 247.67 1137.2
436.92 265.95 1221.2
443.06 267.75 1229.5
448.57 269.14 1235.8
492.45 293.37 1347.1
470.49 278.32 1278.0
418.59 245.88 1129.1
452.70 264.07 1212.6
508.57 294.62 1352.8
509.23 292.98 1345.3
510.55 291.74 1339.6
-573.70 490.90 2281.3
-534.31 461.96 2146.8
-509.86 445.45 2070.1
-499.69 445.96 2072.5
-502.55 453.39 2107.0
-492.19 448.92 2086.2
-490.39 452.25 2101.7
-472.88 441.00 2049.4
-465.86 439.39 2041.9
-468.35 446.82 2076.4
-461.30 445.21 2068.9
-456.81 446.06 2072.9
-442.71 437.44 2032.9
-426.34 426.34 1981.3
-423.05 428.21 1990.0
-423.73 434.19 2017.8
-414.14 429.67 1996.7
-405.43 425.96 1979.5
-402.04 427.82 1988.1
-393.63 424.30 1971.8
-388.51 424.30 1971.8
-389.75 431.32 2004.4
-387.49 434.62 2019.7
-376.06 427.58 1987.0
-368.03 424.25 1971.6
-367.86 430.03 1998.4
-360.39 427.32 1985.8
-356.08 428.33 1990.5
-366.19 446.97 2077.1
-382.05 473.29 2199.4
-379.31 477.01 2216.8
-362.66 463.09 2152.1
-354.67 459.96 2137.5
-340.27 448.30 2083.3
-335.47 449.10 2087.0
-333.24 453.43 2107.2
-322.49 446.11 2073.2
-330.25 464.59 2159.0
-335.83 480.58 2233.3
-329.58 479.92 2230.3
-317.55 479.22 2227.0
-312.43 480.21 2231.6
-308.88 483.71 2247.9
-301.23 500.05 2323.8
-296.41 502.08 2333.3
-279.79 504.83 2346.0
-271.63 501.01 2328.3
-269.55 508.47 2362.9
-240.02 510.81 2373.8
-55.07 415.53 1931.0
-39.92 414.13 1924.5
-33.05 391.86 1821.0
-27.81 384.72 1787.9
-23.00 381.79 1774.2
-8.65 358.89 1667.8
-4.31 357.63 1662.0
0.00 349.21 1622.9
4.14 343.95 1598.4
8.27 343.32 1595.5
12.43 343.94 1598.4
16.15 335.10 1557.3
19.86 329.62 1531.8
23.72 328.14 1524.9
27.12 321.60 1494.5
30.41 315.49 1466.1
33.41 308.11 1431.8
36.51 303.05 1408.3
40.72 307.23 1427.8
44.72 309.31 1437.4
47.36 302.35 1405.1
50.67 300.43 1396.1
54.18 299.77 1393.1
55.96 290.28 1349.0
57.34 279.95 1301.0
59.93 276.35 1284.2
63.25 276.32 1284.1
66.88 277.54 1289.8
71.06 280.87 1305.2
74.83 282.30 1311.9
77.93 281.21 1306.8
79.36 274.45 1275.4
80.50 267.26 1242.0
84.37 269.32 1251.6
88.69 272.63 1267.0
93.23 276.36 1284.3
99.18 283.86 1319.2
101.29 280.24 1302.3
101.20 270.96 1259.2
102.83 266.71 1239.5
106.35 267.50 1243.1
110.58 269.96 1254.5
113.10 268.22 1246.5
116.13 267.74 1244.2
119.79 268.73 1248.8
124.73 272.43 1266.0
127.19 270.69 1257.9
129.92 269.57 1252.8
137.26 277.87 1291.3
138.99 274.66 1276.4
139.44 269.15 1250.8
144.31 272.21 1265.0
147.20 271.51 1261.8
148.23 267.46 1242.9
149.40 263.83 1226.1
151.44 261.87 1217.0
154.31 261.37 1214.7
157.28 261.08 1213.3
159.48 259.54 1206.1
165.03 263.42 1224.2
173.34 271.46 1261.5
177.37 272.62 1266.9
177.00 267.11 1241.3
180.30 267.23 1241.8
183.74 267.55 1243.3
185.44 265.37 1233.2
189.31 266.31 1237.6
190.49 263.51 1224.6
192.06 261.33 1214.4
197.46 264.35 1228.5
202.94 267.36 1242.5
208.00 269.74 1253.5
208.23 265.90 1235.7
206.90 260.19 1209.1
206.60 255.93 1189.4
206.70 252.30 1172.5
212.07 255.09 1185.5
216.44 256.64 1192.6
219.62 256.73 1193.1
226.02 260.55 1210.8
230.51 262.09 1218.0
230.61 258.66 1202.0
230.63 255.24 1186.1
230.76 252.02 1171.2
230.82 248.80 1156.2
231.57 246.41 1145.1
235.99 247.94 1152.2
240.06 249.06 1157.4
238.71 244.61 1136.7
237.67 240.57 1118.0
241.48 241.48 1122.2
248.43 245.47 1140.7
251.89 245.96 1143.0
250.46 241.72 1123.3
248.71 237.28 1102.7
253.40 239.00 1110.7
255.70 238.46 1108.2
250.87 231.35 1075.1
250.14 228.15 1060.3
253.20 228.43 1061.6
257.65 229.94 1068.6
264.21 233.29 1084.1
266.63 232.95 1082.6
260.30 225.05 1045.8
257.37 220.22 1023.4
263.72 223.36 1038.0
263.34 220.78 1026.0
263.87 219.01 1017.8
278.25 228.66 1062.6
277.58 225.87 1049.7
266.99 215.15 999.8
262.54 209.52 973.7
257.95 203.90 947.6
263.87 206.62 960.2
270.91 210.14 976.6
263.23 202.30 940.1
260.43 198.31 921.6
271.78 205.07 953.0
280.30 209.60 974.0
280.73 208.04 966.8
275.34 202.24 939.8
275.37 200.49 931.7
282.63 203.98 948.0
289.69 207.28 963.2
297.39 210.97 980.4
302.30 212.63 988.1
293.67 204.83 951.9
290.41 200.86 933.4
303.17 207.96 966.4
308.71 210.02 976.0
302.09 203.85 947.3
301.63 201.90 938.2
305.95 203.15 944.1
304.83 200.80 933.1
311.92 203.86 947.3
337.60 218.91 1017.3
363.60 233.95 1087.2
371.78 237.37 1103.1
361.44 229.00 1064.2
353.76 222.44 1033.7
363.20 226.66 1053.3
383.66 237.64 1104.3
385.90 237.26 1102.6
366.95 223.95 1040.7
381.82 231.32 1075.0
426.89 256.76 1193.2
442.27 264.09 1227.3
429.05 254.37 1182.1
455.33 268.03 1245.6
-522.89 456.14 2145.6
-501.09 441.82 2078.3
-477.81 425.87 2003.2
-467.03 420.84 1979.6
-466.61 425.13 1999.7
-465.42 428.81 2017.1
-472.42 440.21 2070.7
-480.87 453.23 2131.9
-480.07 457.74 2153.1
-462.94 446.60 2100.7
-437.31 426.90 2008.1
-425.12 420.00 1975.6
-425.50 425.50 2001.5
-428.17 433.46 2038.9
-420.51 431.02 2027.5
-422.33 438.37 2062.0
-429.42 451.44 2123.5
-414.72 441.65 2077.5
-404.99 436.96 2055.4
-399.66 436.96 2055.4
-389.35 431.44 2029.4
-386.63 434.30 2042.9
-387.07 440.83 2073.6
-382.22 441.44 2076.5
-369.66 433.03 2036.9
-365.58 434.45 2043.6
-376.74 454.31 2137.0
-380.41 465.57 2190.0
-364.48 452.84 2130.1
-349.51 440.92 2074.0
-343.15 439.67 2068.1
-336.98 438.61 2063.1
-339.84 449.46 2114.2
-348.24 468.13 2202.0
-347.78 475.30 2235.7
-338.26 470.13 2211.4
-325.38 460.02 2163.8
-319.74 459.98 2163.7
-318.88 466.94 2196.4
-313.99 468.13 2202.0
-314.36 477.35 2245.4
-305.27 481.39 2264.4
-277.67 474.36 2231.3
-283.64 505.62 2378.4
-271.43 494.61 2326.6
-264.92 493.72 2322.4
-257.67 491.37 2311.3
-249.84 487.78 2294.5
-231.30 512.62 2411.3
-52.92 394.53 1855.8
-47.66 390.81 1838.3
-44.31 403.72 1899.1
-38.66 396.26 1864.0
-33.37 390.88 1838.6
-29.09 397.55 1870.0
-24.67 404.63 1903.3
-19.63 402.35 1892.6
-13.91 380.32 1789.0
-9.09 372.63 1752.8
-4.52 370.97 1745.0
0.00 361.83 1702.0
4.35 356.63 1677.5
8.69 356.41 1676.5
13.21 360.98 1698.0
17.33 355.36 1671.6
20.55 337.05 1585.4
23.67 323.53 1521.8
27.33 320.19 1506.1
30.85 316.22 1487.4
34.50 314.33 1478.6
38.33 314.31 1478.5
41.24 307.43 1446.1
43.83 299.51 1408.8
47.15 297.41 1399.0
51.23 300.08 1411.5
55.27 302.13 1421.2
57.53 294.83 1386.8
59.52 287.11 1350.5
62.70 285.63 1343.5
66.03 284.97 1340.5
69.75 285.97 1345.2
73.92 288.64 1357.7
77.54 289.01 1359.5
79.54 283.57 1333.9
79.76 272.53 1281.9
80.42 263.77 1240.7
83.88 264.56 1244.4
88.46 268.66 1263.7
93.42 273.59 1286.9
98.57 278.73 1311.1
99.83 272.87 1283.5
101.02 267.22 1256.9
103.05 264.05 1242.1
106.83 265.45 1248.6
111.50 268.92 1264.9
114.40 268.03 1260.8
117.83 268.38 1262.4
120.79 267.70 1259.2
124.70 269.08 1265.7
129.62 272.53 1282.0
135.03 276.81 1302.1
138.37 276.74 1301.7
135.99 265.50 1248.9
137.24 261.71 1231.0
142.94 266.39 1253.0
145.92 265.90 1250.7
147.15 262.31 1233.9
150.19 262.03 1232.5
154.42 263.81 1240.9
155.00 259.39 1220.1
155.48 254.98 1199.4
160.84 258.61 1216.5
169.56 267.39 1257.8
173.70 268.74 1264.1
173.12 262.88 1236.6
175.85 262.18 1233.2
181.80 266.20 1252.2
186.55 268.37 1262.4
188.88 267.04 1256.1
193.70 269.20 1266.3
195.70 267.46 1258.1
192.93 259.34 1219.9
193.99 256.57 1206.9
200.04 260.37 1224.8
205.70 263.55 1239.7
210.62 265.70 1249.8
213.94 265.80 1250.3
215.25 263.43 1239.2
217.52 262.30 1233.8
219.24 260.55 1225.6
220.05 257.77 1212.5
228.41 263.80 1240.9
241.58 275.14 1294.2
238.64 268.06 1260.9
231.29 256.29 1205.5
232.06 253.72 1193.5
232.40 250.74 1179.5
234.00 249.20 1172.2
236.54 248.67 1169.7
233.17 242.02 1138.4
230.24 235.99 1110.1
233.00 235.88 1109.5
235.96 235.96 1109.9
240.57 237.67 1118.0
248.34 242.43 1140.4
246.75 238.04 1119.7
240.14 228.97 1077.0
241.94 228.04 1072.7
250.04 232.99 1095.9
256.93 236.72 1113.5
256.56 233.75 1099.5
254.32 229.16 1077.9
256.06 228.23 1073.5
259.15 228.50 1074.8
264.11 230.39 1083.7
266.77 230.26 1083.1
260.90 222.85 1048.3
257.50 217.68 1023.9
263.61 220.57 1037.5
272.23 225.49 1060.6
282.93 232.00 1091.3
281.12 228.23 1073.6
264.95 213.00 1001.9
253.48 201.80 949.2
248.90 196.24 923.1
248.82 194.31 914.0
259.07 200.42 942.7
271.83 208.31 979.9
272.08 206.58 971.7
261.10 196.42 923.9
261.98 195.29 918.6
270.42 199.77 939.7
271.58 198.83 935.3
273.27 198.30 932.8
280.22 201.56 948.1
287.81 205.22 965.3
294.91 208.47 980.6
296.39 207.73 977.1
294.42 204.60 962.4
301.33 207.64 976.7
312.96 213.86 1006.0
317.69 215.30 1012.7
313.89 210.97 992.4
317.12 211.42 994.5
330.27 218.40 1027.3
337.53 221.42 1041.5
335.72 218.48 1027.7
328.01 211.79 996.2
341.47 218.75 1029.0
350.10 222.54 1046.8
339.08 213.88 1006.1
353.10 221.02 1039.7
373.30 231.90 1090.8
366.57 226.00 1063.1
371.94 227.60 1070.6
402.92 244.74 1151.2
416.03 250.84 1179.9
407.27 243.77 1146.6
432.71 257.12 1209.4
474.07 279.66 1315.5
485.46 284.34 1337.5
488.20 283.92 1335.5
-560.75 478.11 2276.7
-536.37 462.19 2200.9
-513.74 447.45 2130.7
-495.78 436.50 2078.6
-491.56 437.54 2083.5
-500.23 450.21 2143.8
-506.84 461.28 2196.6
-496.40 456.92 2175.8
-488.44 454.75 2165.5
-477.33 449.57 2140.8
-450.52 429.32 2044.4
-442.12 426.33 2030.1
-445.94 435.19 2072.4
-437.74 432.40 2059.0
-431.61 431.61 2055.3
-432.86 438.27 2087.0
-427.40 449.60 2140.9
-410.50 437.50 2083.3
-399.49 431.45 2054.5
-404.13 442.35 2106.4
-395.71 451.45 2149.8
-388.04 449.02 2138.2
-389.39 457.11 2176.7
-376.89 462.55 2202.6
-366.78 457.06 2176.5
-354.55 448.73 2136.8
-342.68 440.58 2098.0
-339.23 443.19 2110.4
-340.93 452.71 2155.8
-340.88 460.19 2191.4
-331.78 455.49 2169.0
-308.40 471.32 2244.4
-310.27 483.30 2301.4
-296.31 470.62 2241.0
-285.18 462.00 2200.0
-287.46 475.20 2262.8
-286.40 483.30 2301.4
-288.21 496.71 2365.3
-272.48 490.47 2335.6
-259.51 477.74 2274.9
-53.90 396.90 1890.0
-48.42 392.21 1867.6
-44.81 403.33 1920.6
-39.72 402.11 1914.8
-34.73 401.93 1913.9
-29.62 399.89 1904.2
-24.57 398.05 1895.5
-19.65 397.86 1894.6
-14.00 377.94 1799.7
-9.12 369.31 1758.6
-4.53 367.26 1748.8
0.00 358.42 1706.8
4.36 353.08 1681.3
8.37 339.10 1614.8
12.31 332.31 1582.4
16.86 341.35 1625.5
20.68 334.97 1595.1
23.99 323.86 1542.2
27.83 321.99 1533.3
31.17 315.61 1502.9
34.68 312.10 1486.2
39.72 321.74 1532.1
43.91 323.36 1539.8
45.89 309.78 1475.1
48.69 303.38 1444.7
52.33 302.74 1441.6
55.83 301.48 1435.6
59.63 301.86 1437.4
63.13 300.80 1432.4
64.37 289.68 1379.4
65.53 279.38 1330.4
70.85 286.94 1366.4
76.83 296.35 1411.2
78.53 289.12 1376.8
78.59 276.77 1318.0
80.17 270.58 1288.5
82.11 266.02 1266.8
84.39 262.90 1251.9
87.82 263.47 1254.6
90.71 262.40 1249.5
93.71 261.74 1246.4
97.60 263.53 1254.9
101.39 264.92 1261.5
106.58 269.78 1284.7
113.31 278.12 1324.4
114.91 273.76 1303.6
114.99 266.13 1267.3
120.16 270.36 1287.4
124.97 273.57 1302.7
126.01 268.60 1279.0
127.91 265.67 1265.1
133.08 269.49 1283.3
136.27 269.21 1282.0
136.59 263.42 1254.4
140.67 264.98 1261.8
144.12 265.32 1263.4
144.64 260.34 1239.7
146.53 258.02 1228.7
150.26 258.97 1233.2
157.16 265.21 1262.9
160.63 265.54 1264.5
159.83 258.93 1233.0
164.01 260.48 1240.4
171.88 267.73 1274.9
174.86 267.23 1272.5
172.80 259.20 1234.3
174.01 256.26 1220.3
178.80 258.61 1231.5
182.21 258.93 1233.0
186.36 260.26 1239.3
192.76 264.63 1260.2
197.46 266.57 1269.4
197.46 262.20 1248.6
196.42 256.62 1222.0
200.93 258.34 1230.2
205.00 259.46 1235.5
208.45 259.76 1236.9
218.84 268.57 1278.9
226.92 274.33 1306.4
224.94 267.94 1275.9
222.63 261.35 1244.5
224.01 259.21 1234.3
233.14 265.97 1266.5
243.14 273.54 1302.6
236.76 262.70 1251.0
232.88 254.91 1213.9
236.85 255.80 1218.1
236.87 252.45 1202.1
238.15 250.52 1192.9
242.68 252.01 1200.0
240.95 247.05 1176.4
234.93 237.87 1132.7
235.13 235.13 1119.7
242.80 239.84 1142.1
252.85 246.76 1175.0
252.85 243.82 1161.0
243.07 231.64 1103.0
237.70 223.88 1066.1
240.77 224.17 1067.5
249.51 229.66 1093.6
257.71 234.55 1116.9
261.14 235.02 1119.2
262.54 233.69 1112.8
259.82 228.76 1089.3
258.13 224.83 1070.6
260.07 224.10 1067.1
259.17 220.97 1052.3
263.64 222.44 1059.3
271.96 227.10 1081.4
268.57 221.98 1057.1
266.76 218.26 1039.3
272.74 220.92 1052.0
268.35 215.21 1024.8
262.82 208.71 993.9
262.45 206.40 982.8
257.69 200.70 955.7
258.20 199.19 948.5
268.03 204.82 975.3
279.82 211.82 1008.7
285.95 214.46 1021.3
280.15 208.18 991.4
286.30 210.82 1003.9
302.54 220.77 1051.3
290.30 209.95 999.7
277.26 198.74 946.4
295.08 209.66 998.4
314.56 221.56 1055.0
311.43 217.46 1035.5
303.37 210.02 1000.1
298.29 204.76 975.0
299.74 204.02 971.5
327.09 220.79 1051.4
348.08 233.01 1109.6
344.49 228.72 1089.1
350.05 230.52 1097.7
359.54 234.86 1118.4
361.87 234.49 1116.6
370.89 238.43 1135.4
371.11 236.69 1127.1
351.51 222.44 1059.2
328.18 206.06 981.3
335.17 208.84 994.5
368.72 227.99 1085.6
398.88 244.77 1165.6
400.95 244.19 1162.8
406.88 245.95 1171.2
440.70 264.42 1259.2
460.26 274.12 1305.4
483.14 283.59 1350.4
495.39 286.62 1364.9
474.61 272.65 1298.3
-581.56 469.95 2265.8
-560.58 457.62 2206.4
-549.45 453.15 2184.8
-543.87 453.22 2185.2
-547.19 460.79 2221.7
-543.60 462.64 2230.6
-513.08 441.36 2128.0
-487.38 423.81 2043.4
-477.85 420.09 2025.4
-481.77 428.24 2064.7
-466.47 433.93 2092.1
-451.59 425.02 2049.2
-454.01 432.40 2084.8
-456.06 439.57 2119.4
-445.49 434.63 2095.5
-433.03 427.69 2062.1
-428.30 428.30 2065.0
-431.41 436.87 2106.3
-426.54 437.48 2109.3
-401.33 416.96 2010.4
-382.29 407.78 1966.1
-404.14 436.91 2106.5
-403.78 442.50 2133.5
-386.03 428.92 2068.0
-375.16 422.71 2038.1
-368.99 421.70 2033.2
-369.22 428.08 2064.0
-371.51 437.07 2107.3
-376.43 449.47 2167.1
-374.44 453.86 2188.3
-365.66 450.04 2169.9
-354.25 442.81 2135.0
-343.64 436.37 2103.9
-341.74 440.95 2126.0
-336.51 441.32 2127.8
-328.86 438.48 2114.1
-328.54 445.47 2147.8
-315.66 435.39 2099.2
-299.33 443.45 2138.1
-315.76 476.61 2297.9
-307.38 482.16 2324.7
-296.29 474.06 2285.6
-295.14 481.86 2323.3
-289.93 483.22 2329.8
-274.14 466.63 2249.8
-243.84 464.46 2239.4
-233.90 492.43 2374.2
-37.79 377.86 1821.8
-34.17 390.47 1882.6
-29.99 399.83 1927.7
-24.36 389.69 1878.9
-19.15 383.00 1846.6
-13.81 368.18 1775.2
-9.08 363.31 1751.7
-4.59 367.58 1772.3
0.00 364.74 1758.6
4.49 359.05 1731.2
8.61 344.23 1659.7
12.31 328.18 1582.3
16.45 328.98 1586.2
20.76 332.22 1601.8
24.72 329.57 1589.0
28.94 330.77 1594.8
32.67 326.70 1575.1
35.15 312.47 1506.5
39.03 312.24 1505.5
44.97 327.04 1576.8
48.84 325.60 1569.8
50.83 312.78 1508.1
53.70 306.87 1479.6
56.54 301.57 1454.0
59.54 297.68 1435.2
64.07 301.50 1453.7
66.32 294.78 1421.2
66.63 280.54 1352.6
71.39 285.58 1376.9
76.92 293.04 1412.9
78.07 283.88 1368.7
77.23 268.63 1295.2
78.14 260.48 1255.9
82.84 265.10 1278.2
88.19 271.34 1308.3
90.47 268.05 1292.4
92.10 263.14 1268.7
94.78 261.48 1260.7
98.57 262.84 1267.3
102.30 264.01 1272.9
107.52 268.81 1296.1
111.36 269.97 1301.6
110.16 259.19 1249.7
112.04 256.10 1234.8
119.04 264.53 1275.4
126.71 273.97 1320.9
130.68 275.12 1326.5
130.44 267.58 1290.1
133.55 267.11 1287.8
140.48 274.11 1321.6
144.29 274.84 1325.1
143.46 266.89 1286.8
141.64 257.54 1241.7
144.03 256.05 1234.5
147.77 256.98 1239.0
150.22 255.70 1232.8
155.79 259.65 1251.9
162.20 264.81 1276.8
164.07 262.51 1265.7
165.63 259.81 1252.7
170.92 262.95 1267.8
178.28 269.10 1297.4
180.22 267.00 1287.3
177.69 258.46 1246.1
178.75 255.35 1231.2
184.31 258.68 1247.2
191.41 264.01 1272.9
191.67 259.89 1253.1
190.63 254.17 1225.5
198.17 259.90 1253.1
205.85 265.62 1280.6
208.14 264.31 1274.3
210.24 262.80 1267.1
210.34 258.89 1248.2
216.80 262.79 1267.0
223.85 267.28 1288.7
220.46 259.36 1250.5
218.08 252.85 1219.1
218.70 249.94 1205.1
220.84 248.83 1199.7
223.31 248.12 1196.3
229.95 252.00 1215.0
238.90 258.27 1245.3
241.65 257.76 1242.8
240.40 253.05 1220.1
240.18 249.54 1203.1
242.99 249.22 1201.6
244.22 247.31 1192.4
240.22 240.22 1158.2
241.49 238.51 1150.0
251.28 245.15 1182.0
254.21 245.02 1181.4
247.13 235.36 1134.8
243.83 229.48 1106.4
244.65 227.58 1097.3
247.36 227.46 1096.7
256.61 233.28 1124.7
260.93 234.54 1130.8
261.26 232.23 1119.7
264.92 232.90 1122.9
264.95 230.39 1110.8
262.63 225.92 1089.2
263.68 224.40 1081.9
259.29 218.35 1052.8
260.21 216.84 1045.5
270.90 223.42 1077.2
270.63 220.92 1065.2
268.84 217.25 1047.4
274.84 219.87 1060.1
276.67 219.15 1056.6
277.24 217.44 1048.4
279.28 216.91 1045.8
276.71 212.85 1026.2
277.39 211.34 1019.0
287.65 217.09 1046.7
288.34 215.58 1039.4
282.12 208.98 1007.6
292.82 214.91 1036.2
320.05 232.77 1122.3
334.96 241.41 1163.9
314.50 224.64 1083.1
298.07 211.02 1017.4
314.68 220.83 1064.7
321.71 223.80 1079.0
303.67 209.43 1009.7
310.34 212.20 1023.1
324.54 220.03 1060.9
316.37 212.68 1025.4
330.16 220.11 1061.2
357.93 236.65 1141.0
363.29 238.23 1148.6
366.90 238.64 1150.6
372.62 240.40 1159.1
366.58 234.61 1131.2
366.19 232.50 1121.0
364.53 229.63 1107.1
346.12 216.32 1043.0
348.25 215.97 1041.3
385.47 237.21 1143.7
413.38 252.45 1217.2
435.60 264.00 1272.9
428.33 257.64 1242.2
429.61 256.48 1236.6
500.31 285.89 1378.4
487.98 276.87 1334.9
-592.78 468.30 2286.4
-562.06 453.09 2212.2
-559.76 460.64 2249.1
-550.97 458.18 2237.0
-543.86 457.07 2231.7
-511.95 434.88 2123.3
-483.75 415.39 2028.1
-471.78 409.56 1999.7
-459.05 402.94 1967.4
-474.04 420.78 2054.4
-463.07 425.38 2076.9
-446.96 415.41 2028.2
-443.80 417.39 2037.9
-441.64 420.35 2052.4
-446.53 430.19 2100.4
-449.16 438.07 2138.9
-427.51 422.17 2061.2
-416.67 416.67 2034.4
-420.54 425.93 2079.6
-403.64 414.12 2021.9
-378.85 404.45 1974.7
-370.39 406.40 1984.2
-382.44 425.54 2077.7
-371.97 419.80 2049.6
-367.85 421.17 2056.3
-363.02 421.74 2059.1
-360.18 424.69 2073.5
-364.04 435.75 2127.5
-360.47 438.11 2139.0
-357.15 440.86 2152.5
-354.40 444.40 2169.8
-348.13 443.59 2165.8
-338.21 438.01 2138.6
-328.42 432.42 2111.3
-325.59 435.96 2128.6
-326.16 444.26 2169.1
-322.66 447.20 2183.4
-320.92 452.72 2210.4
-321.25 461.43 2252.9
-314.02 459.40 2243.0
-314.05 468.11 2285.5
-295.80 467.37 2281.9
-277.26 447.01 2182.5
-276.89 455.71 2225.0
-266.58 448.08 2187.7
-269.35 472.86 2308.7
-265.88 477.38 2330.8
-251.45 461.96 2255.5
-240.47 452.31 2208.4
-237.19 457.02 2231.4
-193.69 463.68 2263.9
-40.69 401.82 1961.9
-25.02 395.25 1929.8
-19.59 386.83 1888.7
-14.09 370.99 1811.3
-9.27 365.98 1786.9
-4.70 371.00 1811.4
0.00 367.79 1795.7
4.57 360.97 1762.4
8.91 351.93 1718.3
12.96 341.29 1666.4
17.29 341.49 1667.3
21.84 345.09 1684.9
25.29 333.04 1626.1
28.82 325.20 1587.8
33.11 326.99 1596.5
36.29 318.55 1555.3
38.70 305.69 1492.5
43.01 308.88 1508.1
48.56 319.69 1560.9
52.34 318.06 1552.9
54.51 307.60 1501.9
56.53 297.75 1453.7
58.71 289.90 1415.4
62.38 289.87 1415.3
67.55 296.45 1447.4
70.95 295.01 1440.4
73.81 291.57 1423.6
77.39 291.13 1421.4
78.61 282.27 1378.2
77.80 267.21 1304.6
79.83 262.76 1282.9
86.06 271.93 1327.7
90.01 273.49 1335.3
90.45 264.64 1292.1
92.79 261.79 1278.2
96.30 262.34 1280.9
100.59 264.89 1293.3
105.02 267.64 1306.7
107.01 264.19 1289.9
107.41 257.13 1255.4
108.66 252.48 1232.7
112.72 254.42 1242.2
119.28 261.76 1278.0
126.31 269.69 1316.7
132.29 275.02 1342.8
134.06 271.55 1325.9
133.12 262.90 1283.6
135.89 261.84 1278.4
144.26 271.34 1324.8
147.65 271.27 1324.5
145.49 261.22 1275.4
147.85 259.56 1267.3
149.47 256.69 1253.3
149.94 252.03 1230.5
155.39 255.74 1248.6
161.91 261.04 1274.5
166.67 263.34 1285.8
171.37 265.45 1296.0
173.88 264.17 1289.8
178.50 266.07 1299.1
182.49 266.97 1303.5
181.51 260.72 1273.0
183.48 258.84 1263.8
190.27 263.71 1287.6
195.87 266.79 1302.6
194.14 259.95 1269.2
192.68 253.70 1238.7
200.26 259.36 1266.3
209.69 267.18 1304.5
213.78 268.07 1308.8
217.40 268.36 1310.2
218.43 265.48 1296.2
216.41 259.04 1264.7
214.90 253.39 1237.2
215.97 250.91 1225.1
218.19 249.81 1219.7
219.16 247.33 1207.6
222.01 247.03 1206.1
225.76 247.71 1209.4
233.71 252.92 1234.9
239.02 255.17 1245.9
238.02 250.72 1224.1
236.91 246.27 1202.4
236.65 242.80 1185.5
241.17 244.26 1192.6
244.14 244.14 1192.0
243.13 240.09 1172.2
248.06 241.93 1181.2
250.99 241.81 1180.6
247.12 235.21 1148.4
243.92 229.40 1120.0
244.37 227.12 1108.9
247.11 227.00 1108.3
251.80 228.64 1116.3
257.17 230.87 1127.2
258.85 229.77 1121.8
258.27 226.71 1106.9
260.77 226.38 1105.3
267.13 229.38 1120.0
271.95 231.01 1127.9
272.63 229.12 1118.7
268.33 223.14 1089.5
269.81 222.03 1084.1
281.08 228.92 1117.7
282.36 227.61 1111.3
282.39 225.34 1100.2
284.08 224.42 1095.7
281.78 220.40 1076.1
281.88 218.32 1066.0
282.70 216.83 1058.7
284.50 216.11 1055.2
289.89 218.11 1064.9
291.95 217.58 1062.3
283.50 209.31 1021.9
277.50 202.98 991.1
288.42 209.04 1020.6
314.02 225.52 1101.1
328.06 233.48 1140.0
318.48 224.64 1096.8
308.97 216.01 1054.6
314.00 217.60 1062.4
308.69 212.05 1035.3
302.11 205.75 1004.6
321.31 216.96 1059.3
341.92 228.91 1117.7
338.21 224.53 1096.2
325.07 214.01 1044.9
323.14 210.98 1030.1
345.70 223.86 1093.0
371.84 238.83 1166.1
371.59 236.74 1155.9
360.70 227.96 1113.0
370.02 232.00 1132.7
380.36 236.60 1155.2
361.12 222.88 1088.2
362.11 221.76 1082.7
387.84 235.69 1150.7
405.37 244.46 1193.6
424.04 253.78 1239.1
411.25 244.27 1192.7
425.62 250.92 1225.1
483.21 280.69 1370.4
-556.01 438.07 2166.3
-542.02 440.39 2177.8
-535.75 439.88 2175.2
-530.88 440.52 2178.4
-509.43 427.27 2112.9
-490.81 416.12 2057.7
-489.35 419.44 2074.2
-486.03 421.22 2083.0
-476.70 417.78 2065.9
-483.16 428.26 2117.8
-474.91 425.78 2105.5
-446.64 405.09 2003.2
-436.62 400.66 1981.3
-438.80 407.46 2014.9
-435.25 409.03 2022.7
-438.18 416.80 2061.1
-439.50 423.23 2092.9
-418.76 408.29 2019.0
-411.56 406.35 2009.4
-418.60 418.60 2070.0
-422.84 428.34 2118.1
-415.66 426.59 2109.5
-404.95 421.15 2082.6
-395.49 416.86 2061.4
-374.27 399.90 1977.5
-376.69 408.08 2018.0
-386.89 425.04 2101.8
-373.21 415.86 2056.4
-377.36 426.58 2109.5
-381.08 437.12 2161.6
-373.45 434.76 2149.9
-372.16 439.83 2175.0
-365.53 438.64 2169.1
-359.74 438.43 2168.1
-363.11 449.56 2223.1
-362.47 456.01 2255.0
-351.86 449.92 2224.9
-342.15 444.80 2199.5
-337.02 445.55 2203.3
-335.37 451.01 2230.3
-331.42 453.53 2242.7
-329.53 458.99 2269.7
-327.77 464.84 2298.7
-318.39 459.90 2274.2
-303.12 446.11 2206.0
-302.09 453.13 2240.8
-282.71 450.03 2225.4
-284.65 462.56 2287.4
-281.54 467.23 2310.5
-280.27 475.24 2350.1
-262.57 465.47 2301.8
-257.65 467.37 2311.2
-255.55 474.59 2346.9
-250.47 476.49 2356.3
-198.84 456.17 2255.8
-193.12 456.46 2257.2
-23.80 371.22 1835.7
-17.54 342.09 1691.7
-14.00 363.90 1799.5
-4.91 383.34 1895.6
0.00 364.90 1804.5
4.78 372.83 1843.7
9.67 377.19 1865.2
13.42 349.04 1726.0
17.20 335.35 1658.3
22.04 343.87 1700.4
25.84 335.93 1661.2
29.54 329.17 1627.8
34.00 331.54 1639.5
37.52 325.18 1608.0
40.32 314.46 1555.0
43.31 307.11 1518.7
47.40 308.07 1523.4
51.57 309.44 1530.2
54.04 301.09 1488.9
57.17 297.30 1470.2
60.57 295.29 1460.2
63.06 289.32 1430.7
66.85 289.68 1432.5
70.84 290.83 1438.2
74.41 290.20 1435.1
77.32 287.19 1420.2
77.59 275.08 1360.3
78.48 266.14 1316.1
82.42 267.88 1324.7
87.37 272.58 1347.9
89.86 269.57 1333.1
92.34 266.76 1319.1
96.81 269.68 1333.6
100.25 269.63 1333.3
104.44 271.55 1342.8
106.88 268.93 1329.9
106.90 260.58 1288.6
109.97 259.93 1285.4
114.05 261.65 1293.9
115.61 257.65 1274.1
119.43 258.77 1279.6
124.97 263.45 1302.8
128.80 264.37 1307.3
132.05 264.11 1306.0
132.58 258.52 1278.4
133.16 253.33 1252.7
139.34 258.78 1279.7
149.25 270.73 1338.8
154.12 273.21 1351.1
154.28 267.43 1322.4
153.72 260.66 1289.0
153.81 255.26 1262.3
159.22 258.73 1279.4
166.81 265.53 1313.1
172.68 269.38 1332.1
176.72 270.28 1336.5
178.16 267.24 1321.5
179.53 264.21 1306.5
180.81 261.17 1291.5
185.20 262.65 1298.8
193.01 268.84 1329.4
194.96 266.78 1319.2
194.95 262.17 1296.5
199.72 264.04 1305.7
204.84 266.29 1316.8
206.33 263.84 1304.7
208.70 262.56 1298.4
208.35 257.96 1275.6
207.56 252.96 1250.9
214.79 257.75 1274.6
219.49 259.40 1282.8
221.22 257.53 1273.5
225.61 258.79 1279.7
229.70 259.66 1284.0
233.45 260.13 1286.4
234.02 257.09 1271.3
234.69 254.25 1257.3
237.29 253.55 1253.8
236.92 249.73 1234.9
239.45 249.03 1231.5
241.96 248.33 1228.0
239.65 242.76 1200.5
241.87 241.87 1196.1
247.21 244.08 1207.0
248.42 242.21 1197.8
251.20 241.90 1196.2
251.52 239.25 1183.1
248.89 233.90 1156.6
247.37 229.70 1135.9
247.44 227.07 1122.9
249.80 226.56 1120.3
253.43 227.21 1123.6
257.73 228.44 1129.7
261.84 229.48 1134.8
263.52 228.39 1129.4
263.60 225.94 1117.3
267.94 227.17 1123.4
272.54 228.58 1130.4
274.15 227.49 1124.9
274.09 225.04 1112.9
279.66 227.22 1123.6
285.28 229.40 1134.4
281.53 224.07 1108.0
282.76 222.78 1101.7
285.69 222.84 1102.0
279.92 216.18 1069.0
276.00 211.06 1043.7
282.83 214.19 1059.2
291.28 218.46 1080.3
290.29 215.64 1066.4
285.06 209.76 1037.3
284.42 207.33 1025.3
286.63 207.01 1023.7
286.96 205.34 1015.4
300.17 212.85 1052.5
319.25 224.34 1109.4
317.26 220.95 1092.6
304.42 210.13 1039.1
303.29 207.52 1026.2
306.87 208.14 1029.2
309.89 208.37 1030.4
326.02 217.35 1074.8
342.08 226.12 1118.2
339.24 222.36 1099.6
327.26 212.72 1051.9
318.88 205.56 1016.5
332.24 212.42 1050.4
340.39 215.86 1067.4
326.98 205.68 1017.1
339.37 211.77 1047.2
373.24 231.05 1142.6
406.02 249.37 1233.1
412.94 251.63 1244.3
377.54 228.28 1128.8
363.24 217.94 1077.7
369.54 220.03 1088.1
376.85 222.69 1101.2
389.34 228.34 1129.1
420.33 244.67 1209.9
477.52 269.90 1334.7
-577.59 431.79 2162.9
-574.20 451.15 2260.0
-527.97 419.11 2099.4
-520.70 417.64 2092.1
-536.24 434.63 2177.2
-510.40 427.18 2139.9
-491.39 415.79 2082.8
-478.23 409.15 2049.5
-460.59 398.49 1996.2
-466.15 407.88 2043.2
-456.78 404.28 2025.1
-435.11 389.57 1951.5
-431.12 390.54 1956.3
-441.73 404.92 2028.3
-445.98 413.74 2072.6
-442.27 415.30 2080.3
-436.29 414.74 2077.6
-414.97 399.41 2000.7
-405.06 394.81 1977.7
-418.80 413.43 2071.0
-423.63 429.21 2150.0
-413.57 424.60 2127.0
-408.99 425.57 2131.8
-391.97 413.45 2071.1
-370.57 396.30 1985.2
-358.54 400.11 2004.2
-370.02 418.99 2098.8
-370.27 425.54 2131.6
-361.26 421.47 2111.2
-347.61 411.79 2062.8
-344.33 414.28 2075.2
-347.79 425.07 2129.3
-360.00 447.09 2239.6
-351.67 451.31 2260.7
-344.31 449.35 2250.9
-333.78 443.12 2219.7
-321.83 434.76 2177.8
-314.61 432.59 2167.0
-307.30 430.22 2155.1
-303.18 432.31 2165.6
-289.15 454.39 2276.1
-286.37 459.38 2301.2
-278.12 455.64 2282.4
-272.51 456.16 2285.0
-264.62 452.79 2268.2
-255.92 447.86 2243.5
-256.26 458.88 2298.7
-231.38 456.83 2288.4
-223.20 452.27 2265.5
-204.75 450.44 2256.4
-199.72 452.30 2265.7
-184.25 457.65 2292.5
-29.64 380.33 1905.2
-22.55 347.26 1739.5
-14.40 369.60 1851.4
-4.91 377.83 1892.6
0.00 373.33 1870.1
14.59 374.49 1875.9
17.97 345.90 1732.7
22.22 342.17 1714.0
26.52 340.40 1705.2
30.78 338.62 1696.3
34.08 328.04 1643.2
36.24 310.01 1552.9
40.11 308.82 1547.0
44.37 310.56 1555.7
47.97 307.80 1541.8
51.60 305.62 1530.9
54.82 301.49 1510.2
58.65 301.07 1508.1
62.59 301.23 1509.0
65.59 297.09 1488.2
66.88 286.11 1433.2
68.13 276.10 1383.1
72.47 279.00 1397.6
76.19 279.35 1399.4
77.51 271.30 1359.0
79.57 266.38 1334.3
83.68 268.48 1344.9
89.06 274.30 1374.1
91.16 269.96 1352.3
93.28 266.01 1332.5
98.28 270.26 1353.8
102.21 271.38 1359.4
104.72 268.79 1346.4
105.68 262.49 1314.9
107.28 258.15 1293.1
112.28 261.99 1312.4
117.13 265.25 1328.7
119.21 262.27 1313.8
120.86 258.51 1294.9
124.00 258.06 1292.7
128.67 260.72 1306.0
132.61 261.83 1311.6
136.28 262.34 1314.2
139.65 262.28 1313.8
141.64 259.68 1300.8
147.37 263.89 1321.9
154.75 270.82 1356.6
157.66 269.77 1351.3
158.56 265.41 1329.5
159.94 262.03 1312.6
162.57 260.78 1306.3
167.63 263.42 1319.6
171.38 263.92 1322.1
173.34 261.70 1310.9
179.43 265.69 1330.9
185.89 270.07 1352.8
184.71 263.38 1319.3
187.37 262.32 1314.0
193.95 266.69 1335.9
194.05 262.13 1313.1
196.50 260.88 1306.8
204.57 266.98 1337.4
208.41 267.46 1339.8
208.73 263.48 1319.9
214.10 265.90 1331.9
216.99 265.21 1328.5
212.96 256.22 1283.5
218.32 258.62 1295.5
220.43 257.17 1288.2
219.81 252.62 1265.4
226.41 256.37 1284.2
232.23 259.15 1298.2
240.22 264.24 1323.7
244.79 265.48 1329.8
238.04 254.57 1275.2
233.58 246.37 1234.2
236.85 246.45 1234.6
243.12 249.61 1250.4
251.37 254.68 1275.8
254.56 254.56 1275.2
252.68 249.44 1249.5
254.03 247.59 1240.3
253.33 243.83 1221.4
254.35 241.79 1211.2
255.11 239.56 1200.0
252.52 234.26 1173.5
254.80 233.57 1170.0
259.39 234.98 1177.1
260.60 233.32 1168.8
262.62 232.43 1164.3
265.71 232.50 1164.7
268.37 232.18 1163.1
269.67 230.72 1155.7
269.36 227.92 1141.7
275.81 230.84 1156.4
283.94 235.09 1177.7
282.18 231.15 1157.9
278.21 225.50 1129.6
272.68 218.71 1095.6
266.50 211.55 1059.7
269.09 211.42 1059.1
276.79 215.28 1078.4
282.87 217.81 1091.1
280.80 214.08 1072.4
280.39 211.67 1060.3
290.82 217.41 1089.1
295.25 218.60 1095.0
289.90 212.60 1065.0
287.80 209.06 1047.2
290.32 208.93 1046.6
295.23 210.49 1054.4
299.11 211.30 1058.4
294.92 206.44 1034.1
294.42 204.23 1023.1
306.46 210.69 1055.4
311.19 212.05 1062.2
303.16 204.76 1025.7
298.59 199.93 1001.5
299.28 198.66 995.2
311.92 205.28 1028.3
337.07 219.95 1101.8
345.76 223.73 1120.7
344.05 220.76 1105.9
347.84 221.35 1108.8
340.39 214.84 1076.2
325.92 204.03 1022.1
311.50 193.43 968.9
318.32 196.09 982.3
341.07 208.43 1044.1
361.65 219.27 1098.4
405.70 244.05 1222.5
417.91 249.45 1249.6
396.35 234.76 1176.0
399.10 234.58 1175.1
437.47 255.19 1278.3
479.53 275.55 1380.3
-575.36 428.70 2175.7
-587.99 442.45 2245.5
-583.51 443.47 2250.7
-586.81 450.48 2286.3
-555.84 431.06 2187.7
-527.26 413.11 2096.6
-535.89 424.24 2153.1
-506.54 418.45 2123.7
-497.48 415.48 2108.6
-492.96 416.27 2112.7
-451.54 385.58 1956.9
-452.02 394.87 2004.0
-453.26 400.56 2032.9
-445.70 398.50 2022.5
-453.22 410.06 2081.1
-451.57 413.48 2098.5
-442.07 409.72 2079.4
-447.59 419.96 2131.4
-437.50 415.63 2109.4
-406.04 390.62 1982.5
-399.15 388.92 1973.8
-409.22 403.90 2049.9
-404.29 404.29 2051.8
-393.72 398.97 2024.8
-388.47 398.97 2024.8
-394.53 410.74 2084.6
-394.71 416.63 2114.5
-386.56 413.78 2100.0
-384.08 417.01 2116.4
-373.58 411.47 2088.3
-366.27 409.37 2077.6
-377.34 428.03 2172.3
-378.98 436.40 2214.8
-355.78 415.98 2111.2
-349.06 421.09 2137.1
-364.22 446.46 2265.9
-362.17 451.22 2290.0
-344.45 436.30 2214.3
-334.08 430.34 2184.1
-321.10 420.75 2135.4
-316.68 422.24 2143.0
-317.02 430.24 2183.6
-307.45 424.84 2156.1
-300.06 422.31 2143.3
-298.08 427.43 2169.3
-302.91 442.71 2246.9
-301.04 448.61 2276.8
-286.15 434.95 2207.4
-280.76 435.47 2210.1
-279.72 442.89 2247.8
-274.22 443.41 2250.4
-270.78 447.38 2270.6
-267.59 451.93 2293.6
-263.28 454.75 2307.9
-255.84 452.19 2294.9
-249.96 452.31 2295.5
-226.67 453.35 2300.8
-216.21 456.45 2316.6
-204.23 443.46 2250.7
-200.59 448.38 2275.6
-185.14 439.70 2231.6
-177.90 450.67 2287.2
-44.31 374.17 1899.0
-38.86 369.16 1873.6
-34.20 371.31 1884.5
-28.77 364.37 1849.2
-23.44 356.26 1808.1
-19.01 361.10 1832.7
-14.39 364.59 1850.4
-9.46 359.57 1824.9
-4.76 362.09 1837.7
0.00 375.81 1907.3
4.90 372.72 1891.6
9.43 358.41 1819.0
14.14 358.21 1818.0
18.60 353.37 1793.4
22.23 337.90 1714.9
25.68 325.32 1651.1
29.52 320.47 1626.5
32.39 307.70 1561.6
36.67 309.62 1571.4
43.18 328.15 1665.4
45.84 316.73 1607.5
47.81 302.79 1536.7
51.72 302.38 1534.6
55.27 300.04 1522.7
58.34 295.56 1500.0
61.36 291.48 1479.3
64.16 286.81 1455.6
65.09 274.81 1394.7
67.39 269.56 1368.1
72.91 277.06 1406.1
79.05 286.09 1452.0
82.92 286.44 1453.7
84.86 280.41 1423.2
89.09 282.11 1431.8
93.67 284.77 1445.2
94.83 277.20 1406.8
