ply
format ascii 1.0
element vertex 2352
property float x
property float y
property float z
end_header
163.08 625.13 1164.8
169.67 638.56 1189.9
171.81 635.09 1183.4
168.12 610.53 1137.6
172.59 615.97 1147.8
178.72 627.03 1168.4
180.61 623.10 1161.0
181.35 615.41 1146.7
178.38 595.55 1109.7
183.19 601.91 1121.6
188.35 609.20 1135.2
183.89 585.62 1091.2
168.77 529.31 986.3
157.04 485.19 904.1
171.15 521.01 970.8
184.35 553.05 1030.5
172.59 510.37 951.0
168.91 492.45 917.6
171.55 493.20 919.0
172.06 487.89 909.1
173.02 483.98 901.8
176.81 487.99 909.3
173.62 472.89 881.2
168.56 453.15 844.4
174.02 461.82 860.5
185.59 486.30 906.1
191.64 495.87 924.0
198.32 506.83 944.4
207.50 523.82 976.1
201.38 502.23 935.8
186.19 458.83 855.0
186.61 454.45 846.8
198.75 478.39 891.4
203.70 484.67 903.1
202.80 477.04 888.9
199.64 464.32 865.2
201.38 463.19 863.1
202.72 461.12 859.2
199.71 449.34 837.3
200.95 447.29 833.5
205.75 453.09 844.3
214.42 467.20 870.6
217.43 468.82 873.6
215.47 459.83 856.8
212.78 449.45 837.5
216.62 452.92 844.0
227.38 470.68 877.0
228.19 467.68 871.5
230.11 466.98 870.2
225.60 453.40 844.8
216.12 430.16 801.5
222.98 439.60 819.1
232.29 453.62 845.2
239.82 463.94 864.5
246.96 473.34 882.0
246.70 468.50 873.0
245.90 462.74 862.3
244.32 455.62 849.0
244.15 451.24 840.8
253.44 464.27 865.1
261.34 474.54 884.2
263.74 474.73 884.6
267.93 478.12 890.9
282.48 499.78 931.3
280.05 491.28 915.4
264.16 459.51 856.2
278.65 480.67 895.7
298.13 510.02 950.3
293.17 497.42 926.9
282.14 474.82 884.8
271.18 452.70 843.5
266.61 441.51 822.7
289.61 475.78 886.5
322.10 524.99 978.2
305.91 494.72 921.8
270.80 434.54 809.7
278.42 443.33 826.1
304.76 481.56 897.3
335.76 526.53 981.1
356.70 555.16 1034.5
337.20 520.89 970.6
355.70 545.41 1016.3
360.48 548.67 1022.4
343.78 519.43 967.9
394.77 592.15 1103.4
447.00 665.68 1240.4
422.51 624.70 1164.0
426.47 626.09 1166.6
504.18 734.97 1369.5
-22.68 934.60 1749.9
-13.30 913.44 1710.3
-3.90 803.69 1504.8
3.86 796.15 1490.7
7.13 734.43 1375.2
10.08 692.50 1296.6
13.70 705.67 1321.3
17.79 732.98 1372.4
21.22 728.72 1364.5
24.23 713.15 1335.3
28.21 726.31 1359.9
32.16 736.17 1378.4
35.71 735.66 1377.5
38.17 714.90 1338.6
40.27 691.31 1294.4
44.10 698.80 1308.4
48.19 709.11 1327.7
51.42 706.23 1322.3
53.71 691.58 1294.9
55.90 677.40 1268.4
58.07 664.63 1244.4
59.99 650.44 1217.9
63.83 657.43 1231.0
67.59 663.01 1241.4
69.79 653.53 1223.7
71.70 642.16 1202.4
74.53 639.73 1197.8
80.60 664.10 1243.5
84.22 667.31 1249.5
84.00 640.88 1200.0
87.67 645.02 1207.7
91.85 652.45 1221.6
92.61 635.90 1190.7
93.13 618.88 1158.8
95.68 615.96 1153.3
101.06 630.89 1181.3
106.36 644.40 1206.6
110.58 650.86 1218.7
112.82 645.57 1208.8
113.82 633.72 1186.6
115.92 628.43 1176.7
117.26 619.39 1159.7
122.61 631.46 1182.3
127.71 641.65 1201.4
126.20 619.00 1159.0
128.69 616.52 1154.4
134.46 629.50 1178.7
137.58 629.83 1179.3
141.97 635.77 1190.4
146.84 643.58 1205.0
149.60 642.02 1202.1
151.78 638.11 1194.8
153.59 632.80 1184.9
154.77 625.15 1170.5
155.16 614.69 1150.9
157.50 612.19 1146.3
161.41 615.76 1152.9
166.35 623.06 1166.6
167.30 615.41 1152.3
167.26 604.49 1131.8
175.80 624.39 1169.1
183.99 642.41 1202.8
188.14 645.95 1209.5
188.59 636.88 1192.5
185.30 615.69 1152.8
182.67 597.31 1118.4
177.98 572.87 1072.7
174.23 552.18 1033.9
160.29 500.29 936.7
154.18 474.04 887.6
173.94 526.95 986.7
191.40 571.44 1070.0
183.83 541.00 1013.0
182.87 530.57 993.4
190.90 546.18 1022.7
185.74 524.14 981.4
181.37 504.90 945.4
186.12 511.21 957.2
183.22 496.63 929.9
174.98 468.13 876.5
178.59 471.66 883.1
183.65 478.89 896.7
184.28 474.53 888.5
186.33 473.87 887.3
189.66 476.45 892.1
196.74 488.29 914.3
193.93 475.59 890.5
193.10 467.99 876.3
203.78 488.13 914.0
210.16 497.62 931.7
210.51 492.78 922.7
209.22 484.25 906.7
212.08 485.42 908.9
210.06 475.51 890.4
204.03 456.86 855.4
210.32 465.86 872.3
220.25 482.68 903.8
218.88 474.63 888.7
211.86 454.62 851.2
217.86 462.68 866.3
222.41 467.51 875.4
212.42 442.01 827.6
209.56 431.69 808.3
215.82 440.19 824.2
223.30 450.98 844.4
231.57 463.13 867.2
236.01 467.48 875.3
224.85 441.13 826.0
216.97 421.67 789.5
227.23 437.46 819.1
239.30 456.44 854.6
240.66 454.82 851.6
242.25 453.67 849.4
244.81 454.33 850.7
249.11 458.19 857.9
254.70 464.32 869.4
258.58 467.26 874.9
259.43 464.72 870.1
261.54 464.45 869.6
276.82 487.40 912.6
275.64 481.21 901.0
256.55 444.11 831.6
267.55 459.30 860.0
294.43 501.25 938.5
296.95 501.41 938.8
285.40 477.99 895.0
270.91 450.05 842.7
265.23 437.10 818.4
284.91 465.81 872.2
291.46 472.76 885.2
272.43 431.70 808.3
303.91 477.91 894.8
341.87 533.53 999.0
364.90 565.19 1058.3
349.25 536.90 1005.3
361.95 552.31 1034.2
356.68 540.26 1011.6
333.06 500.80 937.7
376.80 562.47 1053.2
466.53 691.40 1294.6
478.72 704.40 1318.9
441.92 645.64 1208.9
477.19 692.26 1296.2
-26.78 915.08 1721.7
-21.83 894.92 1683.8
-7.82 801.58 1508.2
-3.93 805.34 1515.3
0.00 786.57 1480.0
3.61 740.58 1393.4
7.06 724.14 1362.5
10.58 722.73 1359.8
13.77 705.82 1328.0
17.24 706.74 1329.8
21.80 744.73 1401.2
26.23 768.17 1445.3
28.91 740.92 1394.1
31.35 714.15 1343.7
35.43 726.31 1366.6
38.62 719.70 1354.1
39.52 675.09 1270.2
41.77 658.63 1239.2
47.70 698.45 1314.2
52.92 723.26 1360.8
54.91 703.50 1323.7
56.86 685.62 1290.0
59.87 681.80 1282.8
62.62 675.64 1271.2
63.94 655.42 1233.2
65.12 635.66 1196.0
68.76 640.74 1205.6
72.14 643.01 1209.8
74.06 632.62 1190.3
79.02 648.00 1219.2
84.49 666.19 1253.5
86.50 656.73 1235.7
88.47 647.73 1218.7
90.95 642.95 1209.7
92.98 635.36 1195.5
94.79 626.84 1179.4
95.27 610.35 1148.4
98.23 610.25 1148.2
104.69 631.20 1187.6
110.22 645.59 1214.7
114.75 653.42 1229.4
118.08 654.23 1231.0
122.20 659.24 1240.4
125.84 661.45 1244.5
125.57 643.55 1210.9
124.76 623.79 1173.7
127.10 620.39 1167.3
133.14 634.73 1194.3
139.61 650.46 1223.9
142.96 651.25 1225.3
144.42 643.63 1211.0
145.92 636.47 1197.5
148.23 633.05 1191.1
149.83 626.83 1179.4
152.16 623.87 1173.8
154.01 619.04 1164.8
154.86 610.49 1148.7
157.79 610.33 1148.3
161.71 613.88 1155.0
166.40 620.23 1167.0
171.41 627.50 1180.7
175.98 632.90 1190.8
177.70 628.06 1181.7
177.36 616.25 1159.5
182.49 623.50 1173.1
184.23 619.12 1164.9
183.25 605.91 1140.0
182.58 594.11 1117.8
177.30 567.91 1068.5
172.94 545.44 1026.3
170.47 529.48 996.2
177.24 542.29 1020.3
186.59 562.50 1058.4
188.95 561.38 1056.3
194.31 569.06 1070.7
207.45 598.96 1127.0
202.32 576.05 1083.9
187.09 525.39 988.5
177.05 490.48 922.9
175.32 479.20 901.6
172.79 466.07 876.9
165.79 441.39 830.5
173.15 455.08 856.2
182.42 473.37 890.7
184.11 471.79 887.7
186.89 472.98 889.9
188.01 470.02 884.4
192.65 475.82 895.3
196.40 479.31 901.8
202.47 488.31 918.8
206.50 492.25 926.2
206.08 485.59 913.7
211.71 493.20 928.0
215.62 496.66 934.5
211.49 481.72 906.4
202.93 457.15 860.1
206.72 460.62 866.7
221.36 487.94 918.1
226.16 493.22 928.0
219.96 474.64 893.1
215.51 460.21 865.9
223.07 471.44 887.0
226.14 473.04 890.0
215.51 446.26 839.7
215.35 441.47 830.6
225.28 457.25 860.3
230.35 462.96 871.1
234.79 467.29 879.2
235.32 463.86 872.8
222.04 433.50 815.6
213.89 413.66 778.3
222.22 425.75 801.1
238.10 451.95 850.4
245.02 460.82 867.0
246.89 460.11 865.7
250.72 463.05 871.2
251.10 459.61 864.8
252.45 457.99 861.7
262.12 471.36 886.9
269.11 479.72 902.6
265.39 469.01 882.5
272.96 478.27 899.9
284.53 494.30 930.0
278.89 480.43 904.0
266.76 455.72 857.4
268.83 455.45 856.9
280.57 471.45 887.1
279.18 465.30 875.5
274.45 453.73 853.7
277.05 454.36 854.9
280.48 456.34 858.6
268.30 433.08 814.9
261.24 418.40 787.2
285.50 453.70 853.6
291.24 459.26 864.1
293.58 459.42 864.4
318.20 494.17 929.8
321.57 495.66 932.6
327.01 500.27 941.3
358.47 544.34 1024.2
395.97 596.87 1123.0
424.06 634.54 1193.9
423.56 629.20 1183.9
454.55 670.38 1261.3
503.30 736.97 1386.6
503.18 731.57 1376.5
501.77 724.38 1362.9
523.01 749.76 1410.7
-31.73 924.65 1748.3
-17.54 894.34 1691.0
-7.96 811.62 1534.6
-3.96 808.82 1529.3
0.00 780.77 1476.2
3.68 751.31 1420.6
7.37 752.24 1422.3
10.92 742.88 1404.6
14.13 720.43 1362.2
17.11 697.97 1319.7
21.02 714.78 1351.5
25.33 738.13 1395.6
27.97 713.33 1348.7
29.82 675.90 1278.0
33.22 677.74 1281.4
37.93 703.40 1330.0
40.55 689.34 1303.4
41.13 645.37 1220.2
44.93 654.67 1237.8
50.99 693.40 1311.1
54.27 691.94 1308.3
55.67 668.06 1263.1
58.08 658.19 1244.5
60.90 653.92 1236.4
62.50 637.50 1205.4
64.56 627.16 1185.8
68.94 639.23 1208.6
73.96 655.96 1240.3
77.66 660.08 1248.1
80.25 654.87 1238.2
83.27 653.38 1235.4
84.80 640.69 1211.4
86.26 628.47 1188.3
90.52 636.77 1204.0
94.25 640.87 1211.7
96.10 632.37 1195.7
96.62 615.95 1164.6
98.49 608.85 1151.2
103.55 621.33 1174.8
107.78 628.21 1187.8
110.59 626.69 1184.9
115.67 637.76 1205.8
121.81 653.93 1236.4
124.99 653.80 1236.2
124.06 632.72 1196.3
126.11 627.46 1186.4
131.07 636.63 1203.7
130.93 621.14 1174.4
131.03 607.51 1148.7
136.24 617.60 1167.7
140.17 621.64 1175.4
143.19 621.49 1175.1
146.63 623.19 1178.3
146.86 611.42 1156.0
148.11 604.30 1142.6
153.24 612.96 1159.0
158.45 621.62 1175.3
161.58 621.91 1175.9
165.19 624.06 1180.0
167.20 620.18 1172.6
168.29 613.04 1159.1
169.95 608.23 1150.0
168.26 591.83 1119.0
170.18 588.40 1112.5
176.82 601.19 1136.7
184.84 618.14 1168.7
191.74 630.90 1192.9
194.77 630.70 1192.5
194.75 620.78 1173.7
188.01 590.05 1115.6
182.76 564.89 1068.1
179.55 546.68 1033.6
177.70 533.09 1007.9
182.43 539.37 1019.8
190.40 554.87 1049.1
190.80 548.21 1036.5
179.25 507.88 960.3
178.04 497.55 940.7
176.90 487.68 922.1
169.23 460.31 870.3
162.16 435.26 823.0
166.48 441.08 834.0
185.12 484.16 915.4
190.09 490.87 928.1
186.65 475.96 899.9
186.17 468.87 886.5
184.32 458.56 867.0
198.08 486.85 920.5
211.72 514.19 972.2
204.40 490.56 927.5
196.66 466.50 882.0
201.99 473.63 895.5
212.72 493.13 932.4
211.65 485.12 917.2
203.42 461.09 871.8
199.06 446.24 843.7
205.07 454.72 859.8
215.33 472.35 893.1
216.49 469.84 888.4
221.88 476.47 900.9
227.98 484.46 916.0
223.52 470.08 888.8
215.41 448.41 847.8
213.08 439.07 830.2
220.48 449.79 850.4
230.02 464.59 878.4
234.00 468.00 884.9
235.03 465.49 880.1
233.24 457.52 865.1
234.66 455.91 862.0
241.26 464.31 877.9
237.69 453.17 856.8
239.54 452.47 855.5
248.17 464.47 878.2
252.03 467.40 883.7
255.41 469.41 887.5
256.58 467.34 883.6
262.49 473.87 896.0
276.79 495.32 936.5
277.03 491.42 929.2
266.69 469.00 886.8
274.53 478.67 905.0
284.81 492.38 931.0
282.85 484.88 916.8
273.13 464.31 877.9
264.55 446.02 843.3
266.04 444.86 841.1
280.27 464.84 878.9
294.13 483.90 914.9
298.53 487.20 921.2
303.51 491.40 929.1
307.97 494.69 935.3
319.21 508.74 961.9
324.34 512.90 969.8
306.95 481.67 910.7
290.42 452.26 855.1
293.90 454.21 858.8
321.60 493.28 932.7
357.86 544.80 1030.1
363.25 548.92 1037.9
365.41 548.12 1036.4
386.73 575.86 1088.8
385.68 570.13 1078.0
406.73 596.93 1128.6
448.49 653.51 1235.6
483.99 700.23 1324.0
521.44 749.11 1416.4
-31.23 905.73 1721.0
-26.36 891.79 1694.5
-22.75 923.49 1754.7
-17.94 910.47 1730.0
-7.64 775.90 1474.3
-3.70 750.29 1425.6
0.00 733.53 1393.8
3.53 716.76 1361.9
7.14 725.14 1377.8
10.70 723.73 1375.1
14.23 722.32 1372.5
17.72 719.51 1367.1
20.62 697.60 1325.5
23.69 686.87 1305.1
26.99 684.98 1301.5
29.73 670.51 1274.0
32.13 652.32 1239.5
35.70 658.80 1251.8
39.90 675.06 1282.7
42.30 660.58 1255.2
43.92 636.79 1210.0
47.46 642.33 1220.5
51.47 652.98 1240.7
53.82 642.69 1221.2
56.28 634.72 1206.0
59.18 632.33 1201.5
63.90 648.55 1232.3
69.39 670.81 1274.6
70.07 646.55 1228.5
71.03 626.94 1191.2
75.71 640.34 1216.7
79.59 646.31 1228.0
83.18 649.47 1234.0
85.20 640.55 1217.1
85.01 616.29 1171.0
87.23 610.62 1160.2
92.35 624.93 1187.4
95.84 627.62 1192.5
97.75 620.08 1178.2
101.09 621.84 1181.5
104.91 626.37 1190.1
107.50 623.47 1184.6
108.65 612.68 1164.1
111.99 614.42 1167.4
117.95 630.08 1197.2
121.20 630.88 1198.7
122.09 619.62 1177.3
125.30 620.41 1178.8
130.64 631.40 1199.7
130.77 617.36 1173.0
129.56 597.76 1135.8
133.20 600.86 1141.7
138.75 612.30 1163.4
143.66 620.49 1179.0
146.02 617.55 1173.4
145.56 603.05 1145.8
146.90 596.42 1133.2
152.24 605.98 1151.4
156.49 610.90 1160.8
158.37 606.57 1152.5
164.26 617.50 1173.3
168.88 623.33 1184.4
166.68 604.21 1148.0
164.29 585.10 1111.7
164.88 577.08 1096.5
169.68 583.83 1109.3
174.28 589.65 1120.4
178.51 594.07 1128.8
188.00 615.56 1169.6
194.98 628.27 1193.7
198.88 630.82 1198.6
197.50 616.80 1172.0
188.19 578.83 1099.8
178.97 542.26 1030.3
171.41 511.71 972.3
169.18 497.73 945.7
169.51 491.57 934.0
164.63 470.71 894.4
165.91 467.78 888.8
173.11 481.38 914.7
174.07 477.53 907.3
167.88 454.40 863.4
168.34 449.63 854.3
180.75 476.52 905.4
194.65 506.59 962.6
195.46 502.26 954.3
189.19 480.07 912.2
186.36 467.05 887.4
180.08 445.80 847.1
190.05 464.83 883.2
200.97 485.67 922.8
193.13 461.24 876.4
196.67 464.23 882.1
212.96 496.92 944.2
211.95 488.93 929.0
200.66 457.69 869.6
199.59 450.18 855.4
201.30 449.06 853.3
197.64 436.10 828.6
198.65 433.62 823.9
206.39 445.71 846.9
217.43 464.61 882.8
224.56 474.84 902.2
222.66 465.98 885.4
218.48 452.57 859.9
219.50 450.08 855.2
222.94 452.58 859.9
228.22 458.70 871.6
236.29 470.26 893.5
242.62 478.18 908.6
245.08 478.39 909.0
251.53 486.29 924.0
256.63 491.46 933.8
252.00 478.09 908.4
245.80 462.01 877.8
245.03 456.34 867.1
247.14 456.09 866.6
249.50 456.29 867.0
255.34 462.81 879.4
265.26 476.53 905.4
279.10 496.99 944.3
279.34 493.10 936.9
269.01 470.77 894.5
277.14 480.85 913.6
286.40 492.71 936.2
282.87 482.54 916.9
277.38 469.23 891.6
273.11 458.19 870.6
285.98 475.85 904.2
315.58 520.84 989.6
326.71 534.86 1016.3
326.94 530.96 1008.9
319.08 514.08 976.8
310.51 496.32 943.1
326.57 517.91 984.1
336.29 529.20 1005.5
327.54 511.47 971.8
319.78 495.53 941.5
316.51 486.75 924.9
340.01 518.96 986.1
377.90 572.49 1087.8
376.92 566.78 1076.9
372.92 556.63 1057.6
387.11 573.60 1089.9
371.26 546.13 1037.7
371.58 542.67 1031.1
427.21 619.46 1177.0
488.15 702.80 1335.4
521.33 745.28 1416.1
546.46 775.75 1474.0
-45.67 922.52 1761.5
-39.97 897.06 1712.9
-35.16 887.82 1695.3
-22.44 906.47 1730.9
-7.90 797.49 1522.8
-3.73 752.96 1437.8
0.00 720.49 1375.8
3.47 700.07 1336.8
6.96 703.32 1343.0
10.63 715.83 1366.9
14.40 726.95 1388.1
17.60 711.16 1357.9
20.23 680.99 1300.3
23.12 667.05 1273.7
26.20 661.46 1263.0
29.94 672.10 1283.4
33.55 677.63 1293.9
36.07 662.29 1264.6
39.07 657.61 1255.7
42.44 659.42 1259.1
45.09 650.56 1242.2
46.89 631.50 1205.8
49.17 620.79 1185.4
53.18 631.86 1206.5
57.37 643.85 1229.4
60.55 643.79 1229.3
65.62 662.73 1265.5
69.95 672.85 1284.8
69.39 637.10 1216.5
71.00 623.58 1190.7
76.39 642.96 1227.7
79.68 643.81 1229.3
82.50 640.94 1223.9
85.72 641.32 1224.6
86.76 625.95 1195.2
89.05 620.30 1184.4
94.45 635.94 1214.3
97.93 638.15 1218.5
99.90 630.64 1204.2
102.55 627.76 1198.7
105.57 627.18 1197.6
109.61 632.62 1208.0
112.15 629.27 1201.6
111.77 610.19 1165.1
113.90 605.45 1156.1
118.83 615.50 1175.3
121.40 613.06 1170.6
124.78 614.78 1173.9
130.01 625.26 1193.9
134.25 630.67 1204.2
136.94 628.68 1200.4
137.24 616.07 1176.4
139.52 612.69 1169.9
144.45 620.85 1185.5
146.94 618.39 1180.8
148.18 610.86 1166.4
151.62 612.54 1169.6
154.61 612.38 1169.3
155.94 605.77 1156.7
156.60 596.85 1139.7
161.11 602.67 1150.8
168.43 618.61 1181.2
169.79 612.45 1169.5
168.62 597.55 1141.0
170.99 595.53 1137.2
175.50 600.87 1147.3
179.92 605.74 1156.6
178.15 589.93 1126.5
179.60 585.15 1117.3
186.02 596.44 1138.9
190.51 601.29 1148.2
192.68 598.80 1143.4
187.79 574.74 1097.5
182.35 549.79 1049.8
179.61 533.55 1018.8
182.97 535.65 1022.8
191.11 551.49 1053.1
190.55 542.14 1035.2
191.70 537.82 1027.0
190.15 526.18 1004.7
182.30 497.62 950.2
177.39 477.77 912.3
180.03 478.50 913.7
181.81 476.95 910.7
182.68 473.10 903.4
184.77 472.46 902.1
182.52 460.86 880.0
183.08 456.56 871.8
179.71 442.70 845.3
178.08 433.40 827.6
179.01 430.48 822.0
178.19 423.46 808.6
186.80 438.76 837.8
206.52 479.51 915.6
209.79 481.57 919.5
192.25 436.35 833.2
184.61 414.35 791.2
192.10 426.42 814.2
194.95 428.04 817.3
198.02 430.11 821.3
207.65 446.23 852.1
218.29 464.15 886.3
225.22 473.89 904.9
226.80 472.30 901.9
226.17 466.19 890.2
223.27 455.55 869.9
222.95 450.35 859.9
229.58 459.16 876.8
239.04 473.39 903.9
242.18 474.95 906.9
240.92 467.94 893.5
242.64 466.79 891.3
243.16 463.39 884.8
246.04 464.50 886.9
247.49 462.90 883.9
247.22 458.15 874.8
250.08 459.25 876.9
245.06 445.96 851.5
243.14 438.52 837.4
253.21 452.65 864.3
265.44 470.35 898.1
279.62 491.16 937.9
285.76 497.61 950.2
277.67 479.40 915.4
270.47 463.01 884.1
268.12 455.13 869.1
265.96 447.71 854.9
262.93 438.95 838.2
276.28 457.45 873.5
297.68 488.87 933.5
299.92 488.58 932.9
306.29 494.97 945.1
305.22 489.32 934.3
297.09 472.54 902.3
314.76 496.73 948.5
341.73 535.12 1021.8
353.04 548.56 1047.5
341.12 526.01 1004.4
335.67 513.68 980.9
344.43 523.12 998.9
365.33 550.71 1051.6
400.39 599.10 1144.0
442.15 656.72 1254.0
457.41 674.44 1287.8
439.60 643.48 1228.7
411.47 597.97 1141.8
433.44 625.40 1194.2
499.71 715.90 1367.0
543.22 772.75 1475.6
539.19 761.65 1454.4
-36.34 913.01 1752.0
-15.56 781.89 1500.4
-11.75 786.99 1510.2
-7.94 797.62 1530.6
-3.86 776.84 1490.7
0.00 748.19 1435.8
3.63 730.62 1402.0
7.24 727.84 1396.7
10.95 733.84 1408.2
14.29 718.12 1378.0
16.99 682.98 1310.6
20.03 670.95 1287.5
23.37 670.92 1287.5
26.68 670.43 1286.5
30.68 685.19 1314.9
33.97 682.85 1310.4
36.18 661.09 1268.6
39.44 660.59 1267.7
43.08 666.09 1278.2
45.36 651.26 1249.8
46.91 628.58 1206.2
49.11 616.99 1184.0
53.15 628.48 1206.0
57.14 638.11 1224.5
60.14 636.21 1220.9
64.26 645.83 1239.3
67.61 647.15 1241.9
69.21 632.31 1213.4
72.93 637.31 1223.0
76.80 643.23 1234.3
78.56 631.61 1212.0
81.87 632.91 1214.5
85.50 636.51 1221.5
87.18 625.81 1200.9
90.14 624.80 1199.0
93.51 626.54 1202.3
94.98 615.84 1181.8
97.88 614.82 1179.8
101.30 617.02 1184.0
105.52 623.82 1197.1
110.93 637.06 1222.5
113.50 633.72 1216.1
113.16 614.72 1179.6
113.32 599.41 1150.2
116.28 599.29 1150.0
122.08 613.43 1177.2
128.95 632.16 1213.1
131.58 629.72 1208.4
133.11 622.23 1194.0
137.18 626.68 1202.6
139.03 621.02 1191.7
138.62 605.71 1162.3
140.42 600.51 1152.4
146.00 611.38 1173.2
150.91 619.03 1187.9
152.92 614.74 1179.7
154.19 607.69 1166.2
154.80 598.35 1148.2
155.43 589.47 1131.2
159.80 594.81 1141.4
166.98 610.23 1171.0
170.48 611.89 1174.2
171.52 604.84 1160.7
175.27 607.41 1165.6
182.00 620.04 1189.8
188.04 629.92 1208.8
187.22 616.91 1183.8
190.94 619.00 1187.9
200.26 638.93 1226.1
194.20 609.91 1170.4
185.64 574.06 1101.6
185.28 564.27 1082.8
183.91 551.74 1058.8
187.98 555.66 1066.3
199.30 580.57 1114.1
212.13 609.10 1168.9
218.94 619.83 1189.4
197.12 550.30 1056.0
172.64 475.35 912.2
181.14 492.03 944.2
192.36 515.52 989.3
190.20 503.03 965.3
186.53 486.91 934.4
178.81 460.78 884.2
173.88 442.41 849.0
178.91 449.50 862.6
185.46 460.22 883.2
184.34 451.86 867.1
183.51 444.40 852.8
185.45 443.76 851.6
185.47 438.58 841.6
192.61 450.18 863.9
209.48 483.97 928.7
215.56 492.36 944.8
200.47 452.75 868.8
187.64 419.05 804.2
190.86 421.58 809.0
200.53 438.11 840.7
210.14 454.17 871.5
212.72 454.86 872.9
216.38 457.80 878.5
225.01 471.12 904.1
227.90 472.25 906.2
229.48 470.66 903.2
228.60 464.12 890.6
225.19 452.63 868.6
228.68 455.10 873.3
234.25 461.62 885.8
233.90 456.44 875.9
236.51 457.10 877.2
242.18 463.60 889.6
241.99 458.86 880.6
244.14 458.62 880.1
246.53 458.82 880.5
247.71 456.78 876.6
250.58 457.88 878.7
246.78 446.88 857.6
242.39 435.00 834.8
249.19 443.25 850.6
251.00 442.56 849.3
253.06 442.31 848.8
266.71 462.15 886.9
268.34 460.99 884.6
271.52 462.51 887.5
279.47 472.04 905.8
278.73 466.87 895.9
277.94 461.69 886.0
278.44 458.75 880.3
284.64 465.14 892.6
289.52 469.31 900.6
296.65 477.02 915.4
301.07 480.28 921.6
301.03 476.43 914.3
310.27 487.22 935.0
327.28 509.95 978.6
342.50 529.56 1016.2
340.01 521.70 1001.1
340.07 517.83 993.7
354.12 535.18 1027.0
363.62 545.43 1046.7
388.62 578.62 1110.4
418.70 618.82 1187.5
425.11 623.70 1196.9
433.98 632.10 1213.0
434.09 627.72 1204.6
457.15 656.33 1259.5
527.33 751.73 1442.5
526.28 739.73 1419.5
537.14 749.75 1438.8
-45.19 903.82 1743.1
-26.48 882.80 1702.6
-15.01 750.75 1447.9
-11.19 746.16 1439.0
-7.48 748.47 1443.5
-3.77 754.46 1455.0
0.00 747.09 1440.8
3.59 718.09 1384.9
7.06 705.66 1360.9
10.50 700.13 1350.2
13.52 676.18 1304.1
16.49 659.59 1272.1
19.88 662.79 1278.2
23.73 677.96 1307.5
27.61 690.36 1331.4
30.80 684.34 1319.8
33.18 663.60 1279.8
35.51 645.62 1245.1
38.79 646.50 1246.8
43.13 663.48 1279.6
46.25 660.67 1274.2
47.79 637.16 1228.8
50.01 625.15 1205.6
53.13 625.09 1205.5
56.21 624.57 1204.5
59.46 625.89 1207.1
63.96 639.62 1233.6
67.78 645.53 1245.0
69.89 635.34 1225.3
72.90 633.89 1222.5
75.84 631.97 1218.8
78.53 628.21 1211.6
82.85 637.32 1229.1
85.90 636.31 1227.2
86.95 621.06 1197.8
88.64 611.32 1179.0
90.58 603.88 1164.6
92.59 597.35 1152.0
96.00 600.01 1157.2
99.51 603.12 1163.2
103.99 611.73 1179.8
108.56 620.34 1196.4
110.57 614.26 1184.6
111.58 603.13 1163.2
113.00 594.76 1147.0
117.03 600.14 1157.4
124.04 620.19 1196.1
127.49 621.89 1199.4
126.62 602.97 1162.9
128.13 595.96 1149.4
131.69 598.57 1154.4
134.96 599.81 1156.8
136.13 591.88 1141.5
137.55 585.33 1128.9
142.20 592.51 1142.7
150.73 615.23 1186.5
156.97 627.87 1210.9
157.15 616.28 1188.5
156.86 603.31 1163.5
159.83 603.15 1163.2
167.61 620.79 1197.2
173.56 631.12 1217.2
174.62 623.63 1202.7
177.81 623.91 1203.3
184.58 636.50 1227.5
187.17 634.48 1223.6
187.28 624.25 1203.9
190.20 623.60 1202.7
198.20 639.35 1233.0
203.19 645.06 1244.1
192.36 601.13 1159.3
183.32 564.06 1087.8
180.37 546.57 1054.1
181.51 541.83 1045.0
186.48 548.47 1057.8
180.06 521.90 1006.5
176.24 503.54 971.1
194.33 547.42 1055.7
189.97 527.69 1017.7
166.69 456.68 880.7
171.76 464.22 895.3
190.52 508.04 979.8
197.81 520.54 1003.9
197.89 513.99 991.3
193.66 496.57 957.7
188.55 477.35 920.6
192.67 481.68 929.0
201.60 497.77 960.0
203.63 496.66 957.8
200.59 483.34 932.2
199.50 475.00 916.1
195.84 460.79 888.7
199.22 463.30 893.5
210.87 484.76 934.9
212.60 483.19 931.9
206.69 464.48 895.8
202.03 448.95 865.8
203.77 447.84 863.7
212.54 462.04 891.1
216.21 464.98 896.7
212.73 452.61 872.9
216.17 455.09 877.7
224.38 467.46 901.5
226.61 467.23 901.1
227.51 464.30 895.4
227.72 460.03 887.2
225.42 450.83 869.5
226.42 448.36 864.7
229.69 450.37 868.6
234.36 455.07 877.6
241.87 465.13 897.0
247.59 471.60 909.5
247.21 466.43 899.5
243.43 455.01 877.5
240.02 444.49 857.2
239.20 438.89 846.4
240.28 436.87 842.5
246.04 443.32 855.0
252.11 450.20 868.2
254.73 450.84 869.5
252.27 442.57 853.5
251.78 437.87 844.5
262.33 452.30 872.3
259.76 444.04 856.4
258.69 438.45 845.6
277.90 467.05 900.7
290.45 484.08 933.6
290.82 480.69 927.0
291.69 478.19 922.2
292.27 475.24 916.5
292.28 471.41 909.2
291.97 467.15 900.9
288.55 458.02 883.3
298.52 470.11 906.6
317.92 496.75 958.0
337.00 522.47 1007.6
350.00 538.46 1038.5
343.52 524.46 1011.5
340.98 516.64 996.4
360.32 541.83 1045.0
375.47 560.40 1080.8
391.08 579.37 1117.4
405.96 597.01 1151.4
393.04 573.79 1106.6
381.12 552.35 1065.2
422.32 607.66 1171.9
492.86 704.08 1357.9
542.96 770.16 1485.3
543.02 764.82 1475.0
512.09 716.21 1381.3
517.20 718.34 1385.4
566.65 781.59 1507.4
-49.51 895.62 1736.0
-44.96 894.76 1734.3
-19.72 784.90 1521.3
-14.03 697.81 1352.5
-10.06 667.56 1293.9
-6.91 687.74 1333.0
-3.58 711.59 1379.2
0.00 702.42 1361.5
3.38 672.62 1303.7
6.77 673.53 1305.5
10.23 678.56 1315.2
13.51 672.13 1302.8
16.88 671.66 1301.9
19.82 657.43 1274.3
23.08 656.03 1271.6
26.45 657.84 1275.1
29.02 641.76 1243.9
32.29 642.65 1245.6
35.52 642.61 1245.5
38.17 632.95 1226.8
41.76 639.32 1239.2
45.88 652.11 1264.0
48.60 644.73 1249.6
50.95 633.68 1228.2
54.21 634.54 1229.9
56.40 623.48 1208.5
58.74 615.18 1192.4
62.05 617.40 1196.7
64.71 613.21 1188.6
68.70 621.39 1204.4
73.61 636.88 1234.4
77.46 642.29 1244.9
80.97 644.50 1249.2
84.08 643.50 1247.3
85.99 633.80 1228.5
88.01 625.47 1212.3
90.54 621.26 1204.2
91.64 607.90 1178.3
93.11 597.74 1158.6
96.98 603.12 1169.0
101.06 609.42 1181.2
103.24 604.29 1171.3
105.70 600.98 1164.9
108.70 600.86 1164.6
110.51 594.35 1152.0
112.43 588.75 1141.2
117.06 597.31 1157.7
121.23 603.12 1169.0
121.70 590.67 1144.9
124.06 587.80 1139.3
128.66 595.43 1154.1
133.54 603.96 1170.6
138.40 612.03 1186.3
137.33 594.10 1151.5
136.40 577.54 1119.4
141.91 588.34 1140.4
150.89 612.79 1187.7
157.36 626.30 1213.9
157.90 616.11 1194.2
158.57 606.84 1176.2
162.91 611.68 1185.6
164.70 606.96 1176.4
163.93 593.14 1149.7
172.24 612.07 1186.3
184.90 645.53 1251.2
187.69 643.97 1248.2
185.35 625.15 1211.7
183.22 607.69 1177.9
183.85 599.78 1162.5
186.10 597.32 1157.8
185.02 584.42 1132.8
183.23 569.72 1104.3
184.40 564.54 1094.2
177.85 536.24 1039.4
175.60 521.56 1010.9
179.40 525.00 1017.6
173.33 499.91 969.0
167.50 476.19 923.0
183.07 513.12 994.6
184.44 509.76 988.1
167.02 455.31 882.5
168.41 452.88 877.8
184.75 490.21 950.2
185.76 486.40 942.8
182.72 472.22 915.3
177.23 452.17 876.4
170.84 430.34 834.1
185.26 460.82 893.2
204.92 503.45 975.8
209.78 509.10 986.8
209.43 502.13 973.3
206.54 489.31 948.4
200.65 469.75 910.5
197.67 457.40 886.6
202.63 463.49 898.4
209.44 473.62 918.0
208.91 467.12 905.4
206.09 455.68 883.2
208.49 455.92 883.7
216.90 469.17 909.4
220.41 471.64 914.2
218.44 462.45 896.4
223.23 467.60 906.3
227.63 471.85 914.6
226.40 464.47 900.3
220.03 446.79 866.0
213.71 429.59 832.6
220.03 437.86 848.7
229.14 451.48 875.1
234.95 458.39 888.5
241.29 466.19 903.6
246.54 471.74 914.4
249.95 473.72 918.2
247.69 465.01 901.3
242.48 450.96 874.1
240.51 443.15 858.9
241.38 440.69 854.2
240.02 434.23 841.6
243.81 437.10 847.2
246.12 437.30 847.6
244.65 430.84 835.1
255.31 445.68 863.8
270.21 467.58 906.3
279.89 480.16 930.7
275.12 467.93 907.0
258.94 436.69 846.4
260.45 435.55 844.2
269.42 446.78 866.0
267.47 439.89 852.6
276.29 450.66 873.5
287.38 464.95 901.2
288.17 462.46 896.4
288.65 459.54 890.7
292.46 461.90 895.3
309.20 484.49 939.1
318.51 495.19 959.8
324.50 500.59 970.3
345.18 528.38 1024.1
348.48 529.36 1026.0
350.62 528.59 1024.5
375.32 561.56 1088.5
371.70 552.00 1069.9
369.18 544.20 1054.8
392.00 573.59 1111.8
388.91 564.91 1094.9
422.09 608.66 1179.8
523.07 748.86 1451.5
536.92 763.20 1479.3
519.69 733.46 1421.6
541.37 758.68 1470.5
538.24 749.01 1451.8
526.20 727.18 1409.5
557.37 764.94 1482.7
-45.84 907.63 1768.1
-40.91 899.92 1753.1
-23.98 791.35 1541.6
-19.33 765.34 1490.9
-14.49 717.41 1397.6
-10.30 679.98 1324.6
-7.01 693.69 1351.3
-3.53 698.72 1361.1
0.00 674.97 1314.9
3.34 662.18 1290.0
6.82 675.42 1315.8
10.26 677.24 1319.3
13.52 669.00 1303.3
16.91 669.45 1304.1
19.91 657.10 1280.1
22.70 642.01 1250.7
25.48 630.56 1228.4
28.37 624.14 1215.9
31.94 632.33 1231.8
35.56 640.06 1246.9
38.65 637.73 1242.3
41.54 632.67 1232.5
44.92 635.36 1237.7
48.27 637.14 1241.2
51.37 635.72 1238.4
54.73 637.49 1241.9
56.99 626.94 1221.3
58.23 606.80 1182.1
60.36 597.61 1164.2
63.09 594.81 1158.7
66.89 602.04 1172.8
72.26 622.03 1211.8
76.66 632.44 1232.0
79.44 629.17 1225.7
81.77 622.70 1213.1
84.65 620.79 1209.3
87.84 621.16 1210.0
90.96 621.06 1209.9
92.77 612.31 1192.8
93.78 599.00 1166.9
97.45 603.00 1174.7
101.47 608.82 1186.0
103.35 601.88 1172.5
106.05 599.95 1168.7
109.39 601.66 1172.1
112.07 599.72 1168.3
114.73 597.78 1164.5
117.18 594.93 1159.0
119.34 590.72 1150.7
122.29 590.59 1150.5
127.27 600.01 1168.8
131.26 604.42 1177.4
135.39 609.28 1186.9
141.85 624.12 1215.8
142.11 611.71 1191.6
140.32 591.13 1151.6
144.92 597.79 1164.5
149.81 605.35 1179.3
150.99 597.94 1164.8
153.97 597.78 1164.5
157.43 599.43 1167.7
158.71 592.92 1155.0
157.46 577.35 1124.7
158.94 572.20 1114.7
169.09 597.85 1164.6
176.36 612.61 1193.4
173.83 593.42 1156.0
180.41 605.45 1179.5
189.03 623.81 1215.2
184.04 597.39 1163.7
179.64 573.69 1117.6
183.20 575.76 1121.6
187.07 578.73 1127.4
195.11 594.35 1157.8
196.69 590.08 1149.5
184.79 546.10 1063.8
176.95 515.23 1003.7
183.89 527.67 1027.9
193.82 548.22 1068.0
191.50 534.05 1040.4
167.43 460.42 896.9
161.39 437.73 852.7
175.82 470.43 916.4
178.98 472.49 920.4
170.59 444.42 865.8
173.64 446.49 869.8
174.05 441.82 860.7
165.99 416.03 810.5
176.55 436.97 851.2
194.48 475.40 926.1
198.66 479.68 934.5
200.99 479.48 934.1
199.72 470.76 917.1
197.97 461.14 898.3
198.46 456.91 890.1
204.61 465.66 907.1
212.84 478.88 932.9
210.33 467.93 911.5
205.28 451.62 879.8
203.97 443.81 864.6
208.61 448.96 874.6
215.18 458.13 892.5
217.18 457.47 891.2
217.67 453.68 883.8
218.13 449.89 876.4
220.95 451.01 878.6
219.15 442.77 862.5
219.05 438.10 853.4
230.36 456.12 888.5
234.59 459.89 895.9
234.27 454.77 885.9
241.53 464.31 904.5
248.42 472.95 921.3
251.61 474.47 924.3
249.36 465.79 907.4
247.27 457.56 891.4
248.24 455.10 886.6
244.55 444.22 865.4
238.54 429.37 836.4
242.31 432.23 842.0
245.36 433.76 845.0
245.90 430.87 839.4
258.62 449.17 875.0
264.84 455.98 888.3
264.40 451.31 879.2
275.65 466.48 908.7
276.53 464.00 903.9
273.15 454.48 885.4
276.08 455.54 887.4
278.22 455.26 886.9
292.27 474.33 924.0
292.03 470.09 915.8
279.92 446.98 870.7
294.20 466.01 907.8
312.28 490.72 955.9
319.34 497.87 969.9
318.82 493.18 960.7
323.68 496.81 967.8
343.79 523.61 1020.0
356.04 538.14 1048.3
368.73 553.09 1077.4
370.99 552.30 1075.9
349.03 515.72 1004.7
354.67 520.18 1013.3
383.70 558.62 1088.2
402.84 582.20 1134.2
461.01 661.45 1288.5
534.87 761.90 1484.2
527.60 746.18 1453.6
495.75 696.17 1356.2
495.82 691.35 1346.8
530.29 734.25 1430.4
561.37 771.88 1503.7
-45.54 897.18 1756.6
-23.29 764.53 1496.9
-18.63 734.08 1437.3
-14.48 713.17 1396.4
-10.63 697.72 1366.1
-7.11 700.46 1371.5
-3.54 696.83 1364.3
0.00 690.01 1351.0
3.50 689.55 1350.1
6.85 674.99 1321.6
9.95 653.60 1279.7
13.14 647.22 1267.2
16.48 649.48 1271.6
19.49 639.91 1252.9
22.28 627.16 1227.9
25.78 634.86 1243.0
29.50 645.75 1264.3
32.69 643.90 1260.7
35.93 643.40 1259.7
39.00 640.18 1253.4
41.85 634.23 1241.8
44.16 621.45 1216.8
46.45 610.04 1194.4
50.43 620.90 1215.7
54.79 634.94 1243.2
57.72 631.70 1236.8
59.60 618.00 1210.0
62.04 611.12 1196.5
65.04 610.15 1194.6
68.03 609.17 1192.7
72.28 619.09 1212.1
76.02 624.01 1221.8
78.14 615.75 1205.6
80.00 606.13 1186.8
82.38 601.05 1176.8
86.64 609.59 1193.5
90.93 617.67 1209.4
94.12 618.02 1210.1
96.52 613.39 1201.0
99.18 610.56 1195.4
102.03 609.10 1192.6
104.87 607.63 1189.7
108.50 610.69 1195.7
110.91 606.95 1188.4
112.70 600.04 1174.8
115.55 599.01 1172.8
118.11 596.62 1168.2
121.58 598.76 1172.3
126.29 606.79 1188.1
128.76 603.94 1182.5
130.21 596.56 1168.0
132.91 595.06 1165.1
137.65 602.62 1179.9
140.04 599.76 1174.3
140.25 587.85 1151.0
144.74 594.04 1163.1
149.29 600.21 1175.2
150.23 591.92 1158.9
152.61 589.51 1154.2
157.35 596.12 1167.2
159.85 594.15 1163.3
161.21 588.12 1151.5
164.90 590.65 1156.5
168.24 591.84 1158.8
166.89 576.78 1129.3
168.17 571.20 1118.4
178.71 596.71 1168.3
190.88 626.71 1227.1
190.23 614.35 1202.9
188.47 598.85 1172.5
194.33 607.65 1189.7
188.43 580.00 1135.6
183.89 557.32 1091.2
195.39 583.21 1141.9
195.22 574.02 1123.9
194.35 563.03 1102.4
212.24 605.95 1186.4
205.98 579.69 1135.0
186.36 517.08 1012.4
174.16 476.51 933.0
175.84 474.54 929.1
187.28 498.57 976.2
188.03 493.89 967.0
185.80 481.60 943.0
193.94 496.19 971.5
196.74 496.89 972.9
189.85 473.42 926.9
181.64 447.28 875.8
180.71 439.50 860.5
187.88 451.38 883.8
191.79 455.21 891.3
190.02 445.64 872.5
188.54 436.96 855.5
193.20 442.57 866.5
203.44 460.66 901.9
210.66 471.59 923.4
207.52 459.35 899.4
203.86 446.23 873.7
203.77 441.12 863.7
201.96 432.46 846.7
201.75 427.37 836.8
209.98 440.06 861.6
217.25 450.51 882.1
217.48 446.29 873.8
220.51 447.85 876.9
225.11 452.51 886.0
230.85 459.38 899.4
234.87 462.69 905.9
231.65 451.82 884.6
231.07 446.28 873.8
238.53 456.23 893.3
243.76 461.74 904.1
244.80 459.28 899.3
243.43 452.41 885.8
242.00 445.55 872.4
246.06 448.84 878.8
245.77 444.18 869.7
237.30 424.98 832.1
238.08 422.54 827.3
247.61 435.52 852.7
255.23 444.96 871.2
263.20 454.82 890.5
263.81 451.93 884.8
253.02 429.70 841.3
252.71 425.50 833.1
271.80 453.77 888.5
291.17 482.02 943.8
291.84 479.10 938.1
290.87 473.56 927.2
299.33 483.34 946.4
292.31 468.18 916.7
282.67 449.09 879.3
295.59 465.86 912.1
305.88 478.23 936.4
306.99 476.19 932.4
304.39 468.48 917.3
307.15 469.05 918.4
330.89 501.43 981.8
347.41 522.44 1022.9
356.25 531.68 1041.0
355.49 526.56 1031.0
352.61 518.39 1015.0
377.03 550.19 1077.2
408.33 591.48 1158.1
423.43 608.87 1192.1
441.72 630.57 1234.6
464.79 658.73 1289.8
501.04 705.03 1380.4
523.16 730.94 1431.1
495.04 686.79 1344.7
497.56 685.45 1342.1
540.45 739.36 1447.6
568.60 767.21 1502.2
571.45 765.82 1499.4
-53.70 877.15 1726.2
-45.31 888.13 1747.8
-39.37 857.37 1687.2
-36.22 887.31 1746.2
-23.24 759.18 1494.0
-18.45 723.42 1423.6
-14.24 697.61 1372.9
-10.66 696.72 1371.1
-7.26 711.23 1399.6
-3.48 681.79 1341.7
0.00 652.34 1283.8
3.35 655.96 1290.9
6.59 645.99 1271.3
9.92 647.80 1274.8
13.52 662.28 1303.3
16.88 661.81 1302.4
19.90 650.01 1279.2
22.73 636.40 1252.4
26.18 641.36 1262.2
29.93 651.75 1282.6
33.18 650.36 1279.9
36.19 644.89 1269.1
39.09 638.51 1256.5
41.75 629.41 1238.6
43.82 613.51 1207.4
46.22 603.96 1188.6
50.26 615.68 1211.6
54.46 627.85 1235.6
57.07 621.45 1223.0
59.05 609.17 1198.8
61.65 604.13 1188.9
66.42 619.90 1219.9
71.45 636.57 1252.7
73.04 622.47 1225.0
74.00 604.30 1189.2
77.24 605.58 1191.7
80.32 605.50 1191.6
82.21 596.82 1174.5
85.83 600.80 1182.3
90.22 609.75 1199.9
93.52 611.01 1202.4
97.20 614.53 1209.3
101.13 619.39 1218.9
103.66 615.67 1211.6
106.08 611.50 1203.4
109.34 612.29 1204.9
111.44 606.76 1194.1
113.33 600.32 1181.4
116.10 598.85 1178.5
117.07 588.35 1157.8
118.76 581.91 1145.2
123.30 589.45 1160.0
125.90 587.52 1156.2
127.38 580.62 1142.6
130.11 579.59 1140.6
135.73 591.17 1163.4
139.34 593.73 1168.4
140.39 585.48 1152.2
145.66 594.78 1170.5
150.91 603.63 1187.9
152.57 598.08 1177.0
155.58 597.92 1176.7
160.74 605.85 1192.3
163.42 604.34 1189.3
164.22 596.07 1173.0
166.59 593.66 1168.3
167.64 586.74 1154.7
167.19 574.89 1131.3
169.67 573.37 1128.4
174.57 579.93 1141.3
178.85 584.23 1149.7
183.59 589.88 1160.8
188.52 595.97 1172.8
194.09 603.84 1188.3
187.74 574.96 1131.5
179.47 541.17 1065.0
184.88 549.05 1080.5
192.21 562.29 1106.5
202.46 583.57 1148.4
199.54 566.81 1115.4
178.24 499.08 982.1
178.29 492.19 968.6
184.68 502.73 989.3
180.85 485.56 955.6
186.12 492.97 970.1
191.98 501.71 987.3
194.81 502.40 988.7
194.84 495.96 976.0
189.31 475.70 936.1
188.78 468.38 921.7
185.82 455.26 895.9
180.34 436.37 858.8
182.49 436.19 858.4
185.39 437.78 861.5
183.35 427.81 841.9
188.53 434.74 855.5
200.42 456.76 898.9
202.07 455.23 895.9
201.51 448.81 883.2
204.71 450.82 887.2
207.12 451.06 887.7
208.91 449.97 885.5
208.20 443.55 872.9
205.74 433.60 853.3
212.73 443.57 872.9
221.11 456.19 897.8
222.90 455.08 895.6
227.08 458.84 903.0
232.62 465.24 915.6
232.87 461.03 907.3
231.27 453.30 892.1
230.74 447.77 881.2
233.59 448.86 883.3
236.46 449.95 885.5
236.52 445.75 877.2
235.13 438.92 863.8
230.82 426.80 839.9
231.91 424.81 836.0
238.80 433.38 852.9
243.81 438.41 862.8
241.48 430.27 846.7
242.29 427.83 841.9
252.61 442.07 870.0
257.75 447.08 879.8
262.44 451.21 887.9
268.44 457.52 900.4
263.37 445.00 875.7
257.39 431.19 848.5
269.70 447.98 881.6
289.06 476.11 936.9
291.05 475.39 935.5
276.07 447.18 880.0
268.68 431.65 849.5
289.31 461.02 907.3
310.50 490.79 965.8
307.26 481.78 948.1
299.74 466.26 917.6
306.44 472.93 930.7
309.22 473.50 931.8
309.44 470.16 925.2
329.20 496.33 976.7
347.75 520.29 1023.9
361.56 536.86 1056.5
375.23 552.96 1088.2
385.20 563.42 1108.8
399.73 580.35 1142.1
419.82 605.03 1190.7
429.87 615.00 1210.3
440.93 626.24 1232.4
452.69 638.33 1256.2
472.57 661.60 1302.0
510.02 708.96 1395.2
503.93 695.57 1368.8
489.87 671.43 1321.3
510.96 695.47 1368.6
547.83 740.52 1457.3
542.59 728.41 1433.5
532.41 709.89 1397.0
-48.32 856.51 1694.2
-44.37 865.12 1711.2
-39.85 863.36 1707.8
-34.83 848.97 1679.3
-27.58 768.25 1519.6
-22.49 730.83 1445.6
-18.38 716.87 1418.0
-14.66 714.63 1413.6
-11.24 730.44 1444.8
-7.51 731.80 1447.5
-3.55 692.10 1369.0
0.00 664.13 1313.7
3.42 667.74 1320.8
6.67 650.59 1286.9
9.95 646.97 1279.7
13.47 656.43 1298.4
16.73 652.36 1290.4
20.06 651.89 1289.4
23.24 647.35 1280.5
25.98 633.34 1252.8
28.90 626.10 1238.4
32.20 627.87 1241.9
35.31 626.03 1238.3
38.74 629.60 1245.4
42.03 630.46 1247.1
44.77 623.65 1233.6
47.76 620.89 1228.1
50.98 621.29 1228.9
54.12 620.79 1227.9
57.46 622.53 1231.4
60.21 617.96 1222.3
62.59 610.24 1207.1
67.22 624.14 1234.6
71.32 632.18 1250.5
72.06 610.93 1208.4
73.96 600.94 1188.7
78.30 610.77 1208.1
81.67 612.49 1211.5
83.98 606.55 1199.8
86.69 603.76 1194.3
89.98 605.02 1196.7
91.33 593.67 1174.3
93.15 585.93 1159.0
98.28 598.88 1184.6
102.40 605.07 1196.8
104.93 601.81 1190.4
108.24 603.05 1192.9
111.23 602.49 1191.7
113.78 599.67 1186.2
116.14 595.96 1178.8
116.47 582.36 1151.9
117.50 572.80 1133.0
121.35 577.17 1141.7
125.35 581.98 1151.2
128.11 580.95 1149.1
129.94 575.88 1139.1
134.62 583.37 1153.9
142.03 602.08 1190.9
147.24 610.90 1208.4
148.02 601.33 1189.4
148.36 590.42 1167.9
152.27 593.85 1174.6
157.85 603.55 1193.8
161.86 606.97 1200.6
162.86 599.18 1185.2
164.27 593.20 1173.4
167.26 593.03 1173.0
169.74 591.06 1169.1
171.02 585.07 1157.3
171.31 575.95 1139.2
173.53 573.54 1134.5
173.94 565.32 1118.2
173.29 553.97 1095.8
174.37 548.43 1084.8
175.54 543.34 1074.7
186.32 567.71 1122.9
200.18 600.53 1187.9
195.79 578.47 1144.2
191.03 555.98 1099.7
194.74 558.45 1104.6
187.45 529.74 1047.8
170.43 474.77 939.1
168.10 461.68 913.2
194.56 526.93 1042.3
213.84 571.22 1129.9
198.97 524.31 1037.1
185.34 481.87 953.2
187.39 480.80 951.0
187.67 475.27 940.1
188.61 471.53 932.7
192.93 476.22 942.0
194.75 474.69 939.0
193.78 466.51 922.8
193.11 459.23 908.4
192.18 451.50 893.1
189.83 440.67 871.7
196.25 450.22 890.5
198.28 449.58 889.3
191.81 429.92 850.4
199.31 441.66 873.6
210.16 460.46 910.8
209.16 453.18 896.4
208.09 445.91 882.0
212.57 450.56 891.2
214.78 450.34 890.8
215.28 446.60 883.4
217.90 447.27 884.7
219.65 446.17 882.5
222.93 448.15 886.4
226.44 450.57 891.2
225.06 443.30 876.9
227.22 443.08 876.4
230.51 445.05 880.3
233.59 446.58 883.3
236.92 448.54 887.2
236.52 443.48 877.2
233.95 434.48 859.4
231.29 425.48 841.6
234.55 427.44 845.5
239.76 432.90 856.3
243.07 434.85 860.1
241.47 428.05 846.7
242.78 426.51 843.6
252.11 438.93 868.2
257.00 443.49 877.2
258.36 441.93 874.1
259.96 440.80 871.9
262.59 441.42 873.1
263.91 439.86 870.0
277.87 459.18 908.3
298.64 489.36 968.0
294.81 479.07 947.6
274.18 441.86 874.0
273.02 436.38 863.2
303.28 480.81 951.1
311.35 489.62 968.5
293.67 458.12 906.2
303.39 469.53 928.7
329.29 505.60 1000.1
334.23 509.17 1007.2
334.34 505.39 999.7
345.64 518.47 1025.5
355.33 528.93 1046.2
370.08 546.71 1081.4
385.88 565.76 1119.1
392.08 570.56 1128.6
404.29 583.97 1155.1
422.32 605.53 1197.8
430.88 613.30 1213.1
444.08 627.51 1241.2
457.41 641.69 1269.3
446.52 621.94 1230.2
443.20 612.94 1212.4
476.00 653.67 1293.0
509.18 694.34 1373.4
542.10 734.09 1452.1
585.40 776.55 1536.0
-59.05 881.19 1752.0
-53.62 866.87 1723.5
-44.13 856.19 1702.3
-32.42 786.19 1563.1
-27.19 753.43 1498.0
-23.12 747.61 1486.4
-18.32 710.79 1413.2
-14.21 689.24 1370.4
-10.83 700.04 1391.8
-7.18 696.45 1384.7
-3.65 707.69 1407.0
0.00 723.42 1438.3
3.64 706.79 1405.3
6.92 671.29 1334.7
10.12 654.66 1301.6
13.46 652.85 1298.0
16.41 636.66 1265.8
19.34 625.41 1243.4
22.70 628.98 1250.5
25.68 622.66 1238.0
28.39 611.85 1216.5
31.42 609.58 1212.0
34.71 612.24 1217.3
38.31 619.39 1231.5
42.25 630.57 1253.7
45.70 633.22 1259.0
48.57 628.23 1249.1
51.62 625.94 1244.5
55.08 628.57 1249.7
58.77 633.45 1259.4
61.77 630.70 1254.0
64.32 623.90 1240.4
66.95 618.45 1229.6
69.01 608.50 1209.8
71.39 602.15 1197.2
74.76 604.31 1201.5
79.19 614.55 1221.9
82.71 617.16 1227.0
84.88 609.90 1212.6
87.37 605.32 1203.5
89.87 601.20 1195.3
90.32 584.07 1161.3
92.89 581.28 1155.7
98.82 599.11 1191.2
103.11 606.18 1205.2
105.90 604.28 1201.4
109.65 607.75 1208.3
112.92 608.53 1209.9
113.82 596.77 1186.5
114.41 584.12 1161.4
117.85 586.24 1165.6
121.86 591.03 1175.1
125.54 594.04 1181.1
129.35 597.48 1187.9
130.92 590.64 1174.3
131.70 580.67 1154.5
134.66 580.53 1154.2
139.95 590.22 1173.5
145.45 600.35 1193.6
146.74 593.06 1179.1
146.82 581.30 1155.7
150.35 583.38 1159.9
155.08 589.91 1172.9
158.44 591.09 1175.2
161.56 591.37 1175.8
165.31 593.88 1180.8
166.68 587.92 1168.9
167.34 579.72 1152.6
169.23 575.99 1145.2
170.69 570.91 1135.1
174.66 574.30 1141.8
177.15 572.78 1138.8
175.15 557.03 1107.5
174.55 546.17 1085.9
179.04 551.33 1096.2
193.55 586.70 1166.5
207.38 618.94 1230.6
202.64 595.63 1184.2
203.34 588.76 1170.6
213.61 609.42 1211.7
209.57 589.23 1171.5
193.81 537.12 1067.9
178.82 488.60 971.4
190.15 512.35 1018.7
214.22 569.31 1131.9
204.74 536.76 1067.2
184.33 476.79 948.0
179.26 457.57 909.8
189.79 478.18 950.7
200.54 498.77 991.7
202.48 497.24 988.6
201.87 489.53 973.3
208.18 498.60 991.3
214.58 507.65 1009.3
211.25 493.76 981.7
207.21 478.55 951.5
203.01 463.35 921.2
195.94 442.00 878.8
186.27 415.37 825.8
189.73 418.26 831.6
204.92 446.68 888.1
209.37 451.31 897.3
207.27 441.87 878.5
210.70 444.30 883.4
216.68 451.99 898.7
220.39 454.85 904.3
221.98 453.31 901.3
222.04 448.71 892.1
222.93 445.85 886.5
224.01 443.44 881.7
222.83 436.65 868.2
225.19 436.87 868.6
230.06 441.89 878.6
234.52 446.04 886.8
239.94 451.93 898.5
242.38 452.12 898.9
241.03 445.34 885.4
239.62 438.55 871.9
243.20 440.93 876.7
248.49 446.36 887.5
246.49 438.71 872.3
238.99 421.49 838.0
236.79 413.85 822.8
242.06 419.28 833.6
252.69 433.82 862.5
260.65 443.56 881.9
258.41 435.93 866.7
255.06 426.56 848.1
263.91 437.59 870.0
286.57 471.14 936.7
298.13 486.03 966.3
284.92 460.63 915.8
276.60 443.48 881.7
290.14 461.37 917.3
304.67 480.54 955.4
294.26 460.38 915.3
287.55 446.28 887.3
309.56 476.63 947.6
334.12 510.38 1014.8
335.68 508.77 1011.5
322.06 484.34 963.0
318.01 474.57 943.5
338.83 501.78 997.6
365.17 536.69 1067.1
382.12 557.38 1108.2
390.67 565.60 1124.5
392.73 564.37 1122.1
397.48 567.00 1127.3
416.17 589.32 1171.7
442.37 621.88 1236.4
442.21 617.19 1227.1
418.87 580.44 1154.0
428.41 589.44 1171.9
472.08 644.95 1282.3
524.12 711.05 1413.7
568.86 750.75 1492.6
-60.25 894.55 1787.8
-53.23 856.14 1711.0
-49.08 861.12 1721.0
-44.64 861.61 1721.9
-39.85 854.50 1707.7
-32.12 774.90 1548.7
-25.88 713.63 1426.2
-22.01 707.84 1414.6
-17.49 675.20 1349.4
-13.55 653.74 1306.5
-10.33 664.49 1328.0
-7.06 681.50 1362.0
-3.67 708.36 1415.7
0.00 709.70 1418.4
3.53 681.51 1362.0
6.80 656.00 1311.0
10.04 645.70 1290.4
13.32 642.55 1284.2
16.21 625.53 1250.1
19.22 618.36 1235.8
22.69 625.49 1250.1
25.81 622.78 1244.6
28.66 614.70 1228.5
32.22 621.83 1242.7
36.00 631.63 1262.3
38.91 625.78 1250.6
42.03 623.95 1247.0
45.48 627.03 1253.1
48.38 622.51 1244.1
51.01 615.31 1229.7
54.04 613.46 1226.0
57.75 619.22 1237.5
60.78 617.37 1233.8
62.58 603.89 1206.9
64.44 592.21 1183.5
68.01 596.61 1192.3
71.94 603.69 1206.5
74.28 597.35 1193.8
77.48 598.17 1195.5
81.90 607.91 1214.9
85.03 607.83 1214.8
87.59 603.72 1206.5
90.23 600.50 1200.1
92.08 592.37 1183.9
95.92 597.19 1193.5
101.14 610.03 1219.2
104.44 610.81 1220.7
105.15 596.87 1192.9
106.77 588.74 1176.6
111.21 596.21 1191.5
113.59 592.52 1184.2
115.32 585.72 1170.6
119.77 592.73 1184.6
123.10 593.94 1187.0
126.05 593.37 1185.9
129.29 594.13 1187.4
130.65 586.42 1172.0
129.50 568.03 1135.2
130.44 559.44 1118.1
137.12 575.33 1149.8
143.75 590.31 1179.7
147.66 593.72 1186.6
150.70 593.57 1186.3
151.08 583.19 1165.5
152.54 577.25 1153.7
157.28 583.76 1166.7
162.46 591.59 1182.3
164.61 588.32 1175.8
164.44 577.05 1153.2
164.55 567.12 1133.4
165.87 561.62 1122.4
172.06 572.54 1144.2
182.29 596.31 1191.7
183.53 590.36 1179.8
179.81 568.90 1137.0
183.41 570.93 1141.0
192.52 589.78 1178.7
191.25 576.75 1152.6
184.19 546.91 1093.0
192.41 562.64 1124.5
211.22 608.43 1216.0
213.89 598.28 1195.7
205.06 565.37 1129.9
198.33 539.12 1077.4
196.93 527.88 1055.0
205.76 544.00 1087.2
204.27 532.77 1064.8
191.54 492.88 985.0
181.00 459.64 918.6
186.65 467.83 935.0
196.47 486.13 971.5
198.00 483.73 966.7
201.70 486.61 972.5
212.08 505.32 1009.9
210.50 495.43 990.1
200.50 466.22 931.8
203.40 467.34 934.0
205.73 467.13 933.6
201.41 452.01 903.3
193.38 428.99 857.4
190.12 416.96 833.3
197.85 429.04 857.4
205.29 440.23 879.8
206.65 438.28 875.9
211.95 444.64 888.6
219.84 456.23 911.8
220.82 453.39 906.1
219.84 446.62 892.6
221.39 445.09 889.5
223.15 444.00 887.3
228.88 450.76 900.8
232.22 452.71 904.7
231.51 446.81 893.0
232.34 443.97 887.3
234.06 442.87 885.1
236.92 443.94 887.2
244.49 453.72 906.8
248.37 456.52 912.4
245.11 446.28 891.9
246.80 445.17 889.7
251.89 450.14 899.6
249.43 441.65 882.6
238.97 419.29 838.0
234.53 407.79 815.0
239.53 412.76 824.9
249.64 426.38 852.1
260.90 441.71 882.8
263.04 441.45 882.3
262.58 436.88 873.1
274.37 452.60 904.5
283.42 463.56 926.4
280.60 455.09 909.5
275.55 443.17 885.7
275.52 439.46 878.3
275.18 435.32 870.0
273.70 429.46 858.3
279.35 434.79 868.9
288.38 445.26 889.9
316.59 484.93 969.1
349.41 530.99 1061.2
350.23 528.08 1055.4
333.83 499.45 998.2
331.87 492.71 984.7
356.59 525.36 1049.9
366.40 535.72 1070.6
365.40 530.24 1059.7
373.24 537.58 1074.4
374.59 535.52 1070.2
408.39 579.55 1158.2
458.64 646.12 1291.3
464.12 649.09 1297.2
442.93 615.01 1229.1
420.81 580.12 1159.4
430.67 589.50 1178.1
464.70 631.60 1262.3
500.07 674.91 1348.8
536.78 719.44 1437.8
540.77 719.78 1438.5
541.23 715.46 1429.9
555.52 729.36 1457.6
567.99 740.69 1480.3
-56.35 901.59 1811.2
-49.13 857.54 1722.7
-39.68 846.50 1700.6
-25.26 692.85 1391.9
-20.61 659.46 1324.8
-17.56 674.18 1354.4
-14.36 689.35 1384.8
-10.53 674.21 1354.4
-6.99 670.65 1347.3
-3.48 667.54 1341.0
0.00 644.81 1295.4
3.33 638.57 1282.8
6.57 630.55 1266.7
9.62 615.39 1236.3
12.67 608.25 1221.9
16.01 614.92 1235.3
19.63 628.27 1262.1
22.97 630.03 1265.7
25.92 621.98 1249.5
28.90 616.61 1238.7
32.53 624.59 1254.8
36.60 638.81 1283.3
39.78 636.55 1278.8
41.89 618.69 1242.9
44.20 606.17 1217.8
47.98 614.14 1233.8
51.66 619.88 1245.3
53.62 605.57 1216.6
56.31 600.62 1206.6
60.00 606.35 1218.1
62.64 601.39 1208.1
65.19 595.98 1197.3
69.40 605.70 1216.8
73.62 614.53 1234.5
76.14 609.11 1223.7
76.75 589.46 1184.2
78.61 580.48 1166.1
84.43 600.41 1206.2
89.95 616.78 1239.1
92.27 610.90 1227.3
93.98 601.47 1208.3
96.67 598.70 1202.8
100.80 604.82 1215.1
104.17 606.05 1217.5
105.10 593.51 1192.3
105.58 579.18 1163.5
108.58 579.07 1163.3
113.45 588.73 1182.7
118.16 597.04 1199.4
121.61 598.70 1202.7
123.59 593.24 1191.8
128.45 601.55 1208.5
134.18 613.39 1232.3
133.97 598.17 1201.7
131.46 573.65 1152.4
131.51 561.10 1127.2
137.05 572.05 1149.2
143.47 586.08 1177.4
146.82 587.26 1179.8
150.74 590.65 1186.6
152.05 583.86 1172.9
151.99 572.19 1149.5
155.05 572.48 1150.1
161.04 583.38 1172.0
164.77 585.86 1177.0
162.21 566.25 1137.5
159.69 547.52 1099.9
165.78 558.40 1121.8
178.64 591.35 1188.0
186.00 605.30 1216.0
184.27 589.66 1184.6
176.49 555.50 1116.0
174.48 540.32 1085.5
183.31 558.66 1122.3
183.66 550.98 1106.9
183.04 540.66 1086.1
198.20 576.59 1158.3
200.52 574.63 1154.4
190.66 538.33 1081.5
194.82 542.10 1089.0
198.21 543.66 1092.2
199.83 540.38 1085.6
208.67 556.44 1117.8
204.30 537.34 1079.5
190.60 494.53 993.5
185.55 475.02 954.3
182.40 460.79 925.7
184.55 460.17 924.4
191.50 471.38 947.0
192.43 467.68 939.5
195.15 468.36 940.9
205.82 487.88 980.1
204.72 479.35 963.0
193.70 448.08 900.2
193.84 443.07 890.1
198.78 449.00 902.0
196.52 438.75 881.4
198.92 438.99 881.9
204.51 446.21 896.4
207.96 448.63 901.3
211.63 451.47 907.0
207.68 438.18 880.3
208.19 434.49 872.9
219.85 453.88 911.8
224.88 459.33 922.8
220.05 444.74 893.5
217.48 434.96 873.8
220.95 437.35 878.6
228.22 447.12 898.2
232.67 451.24 906.5
233.09 447.54 899.1
233.02 442.97 889.9
233.59 439.71 883.3
234.83 437.74 879.4
240.51 444.01 892.0
247.90 453.30 910.6
249.17 451.33 906.7
250.66 449.78 903.6
255.54 454.29 912.6
255.80 450.59 905.2
248.36 433.50 870.9
243.74 421.61 847.0
249.82 428.27 860.4
250.14 425.01 853.8
250.67 422.18 848.1
258.91 432.27 868.4
265.95 440.20 884.3
274.38 450.26 904.5
278.94 453.86 911.8
280.07 451.88 907.8
279.30 446.88 897.8
277.13 439.75 883.4
