ply
format ascii 1.0
element vertex 2104
property float x
property float y
property float z
end_header
-444.63 -71.14 1372.0
-459.14 -74.05 1428.2
-463.66 -75.39 1454.0
-459.33 -75.30 1452.2
-461.89 -76.34 1472.4
-454.55 -75.76 1461.1
-461.10 -77.50 1494.6
-469.54 -79.58 1534.8
-465.32 -79.54 1534.0
-471.74 -81.33 1568.6
-483.98 -84.17 1623.3
-499.64 -89.22 1720.7
-466.52 -84.06 1621.1
-1088.24 -102.94 1890.8
-1055.75 -100.32 1842.6
-1014.04 -96.79 1777.9
-980.96 -94.06 1727.7
-1030.15 -99.23 1822.7
-1072.11 -103.75 1905.7
-1054.19 -102.49 1882.5
-1020.80 -99.71 1831.3
-965.81 -94.78 1740.8
-928.55 -91.55 1681.5
-941.56 -93.27 1713.1
-947.72 -94.32 1732.5
-937.10 -93.71 1721.2
-925.56 -93.00 1708.1
-900.32 -90.90 1669.5
-903.57 -91.67 1683.7
-929.35 -94.74 1740.1
-926.30 -94.89 1742.9
-880.27 -90.62 1664.4
-848.05 -87.73 1611.3
-890.18 -92.54 1699.8
-908.41 -94.91 1743.2
-871.74 -91.53 1681.2
-841.28 -88.78 1630.6
-801.44 -85.00 1561.3
-807.77 -86.11 1581.6
-842.98 -90.32 1658.9
-798.54 -86.00 1579.5
-746.35 -80.79 1483.9
-759.37 -82.63 1517.6
-771.35 -84.37 1549.6
-766.35 -84.26 1547.6
-781.21 -86.34 1585.9
-792.40 -88.04 1617.1
-776.32 -86.72 1592.8
-752.06 -84.46 1551.2
-729.28 -82.34 1512.3
-717.88 -81.49 1496.7
-725.47 -82.80 1520.8
-720.54 -82.69 1518.7
-699.42 -80.70 1482.3
-703.91 -81.67 1500.0
-713.39 -83.23 1528.7
-699.19 -82.03 1506.6
-689.70 -81.37 1494.5
-682.33 -80.95 1486.9
-676.65 -80.74 1482.9
-669.75 -80.37 1476.2
-657.94 -79.41 1458.5
-644.17 -78.19 1436.2
-625.61 -76.38 1402.9
-621.76 -76.36 1402.5
-617.91 -76.33 1402.0
-620.47 -77.10 1416.1
-628.55 -78.57 1443.1
-604.37 -76.00 1395.9
-585.52 -74.07 1360.5
-593.93 -75.59 1388.4
-595.96 -76.31 1401.7
-584.71 -75.33 1383.6
-577.80 -74.90 1375.7
-580.53 -75.72 1390.8
-574.01 -75.34 1383.8
-553.44 -73.10 1342.6
-551.97 -73.36 1347.5
-555.00 -74.24 1363.5
-542.22 -72.99 1340.7
-535.13 -72.50 1331.7
-533.27 -72.72 1335.6
-532.12 -73.04 1341.5
-528.01 -72.95 1339.9
-526.82 -73.27 1345.7
-524.87 -73.48 1349.7
-521.47 -73.50 1349.9
-520.92 -73.91 1357.6
-508.96 -72.71 1335.5
-497.44 -71.55 1314.2
-510.98 -74.00 1359.2
-519.76 -75.80 1392.2
-498.88 -73.26 1345.6
-483.04 -71.44 1312.1
-495.81 -73.84 1356.3
-509.40 -76.41 1403.5
-506.52 -76.52 1405.6
-484.45 -73.72 1354.1
-462.28 -70.86 1301.5
-464.26 -71.69 1316.7
-466.50 -72.57 1332.9
-457.52 -71.70 1316.9
-458.37 -72.37 1329.3
-471.78 -75.06 1378.6
-487.84 -78.20 1436.4
-495.03 -79.97 1468.8
-486.53 -79.20 1454.8
-466.47 -76.53 1405.6
-450.69 -74.52 1368.8
-446.24 -74.37 1366.0
-450.12 -75.62 1388.9
-456.33 -77.28 1419.5
-452.38 -77.24 1418.6
-455.06 -78.33 1438.7
-465.42 -80.77 1483.6
-451.82 -79.07 1452.3
-449.86 -79.39 1458.1
-468.90 -83.45 1532.7
-478.30 -85.85 1576.8
-467.36 -84.61 1554.0
-460.24 -84.04 1543.7
-474.11 -87.34 1604.1
-473.93 -88.08 1617.7
-467.55 -87.67 1610.2
-486.07 -91.96 1689.0
-462.23 -93.34 1714.3
-1095.80 -108.11 1895.4
-1047.77 -103.83 1820.4
-1089.89 -108.50 1902.2
-1106.46 -110.65 1939.9
-1029.67 -103.44 1813.5
-1046.75 -105.64 1852.0
-1090.60 -110.57 1938.5
-1069.69 -108.95 1910.2
-1090.23 -111.56 1955.9
-1004.25 -103.72 1818.6
-986.67 -102.39 1795.2
-1021.44 -106.50 1867.2
-1039.19 -108.87 1908.7
-997.30 -104.98 1840.5
-937.67 -99.18 1738.8
-911.02 -96.82 1697.6
-908.54 -97.03 1701.1
-903.69 -96.98 1700.3
-855.42 -92.25 1617.4
-804.23 -87.16 1528.1
-828.46 -90.23 1581.9
-884.77 -96.84 1697.9
-884.06 -97.25 1705.0
-860.88 -95.17 1668.6
-826.44 -91.83 1609.9
-806.77 -90.10 1579.6
-819.80 -92.02 1613.3
-825.03 -93.08 1631.9
-820.76 -93.08 1631.8
-805.76 -91.85 1610.3
-790.39 -90.57 1587.8
-777.78 -89.59 1570.7
-784.65 -90.85 1592.9
-790.99 -92.07 1614.3
-769.67 -90.07 1579.1
-752.85 -88.57 1552.9
-735.70 -87.02 1525.6
-709.59 -84.38 1479.5
-703.46 -84.11 1474.6
-724.74 -87.13 1527.6
-727.89 -87.99 1542.6
-705.52 -85.75 1503.5
-689.65 -84.29 1477.8
-670.10 -82.36 1444.0
-655.30 -80.99 1420.0
-659.76 -82.00 1437.7
-664.55 -83.07 1456.4
-671.32 -84.39 1479.6
-673.06 -85.10 1492.0
-650.22 -82.69 1449.7
-623.90 -79.80 1399.1
-623.70 -80.24 1406.9
-621.86 -80.48 1410.9
-612.38 -79.72 1397.6
-609.33 -79.79 1399.0
-602.31 -79.35 1391.1
-599.27 -79.42 1392.4
-590.72 -78.76 1380.9
-576.35 -77.32 1355.5
-581.92 -78.54 1377.0
-590.10 -80.14 1405.0
-574.31 -78.48 1375.9
-549.83 -75.60 1325.5
-546.90 -75.67 1326.7
-562.88 -78.38 1374.1
-571.49 -80.08 1404.0
-564.62 -79.63 1396.0
-552.57 -78.43 1375.1
-545.79 -77.97 1367.0
-539.78 -77.62 1360.8
-531.60 -76.94 1349.0
-526.75 -76.75 1345.5
-521.55 -76.49 1341.1
-519.60 -76.72 1345.1
-520.14 -77.32 1355.6
-520.98 -77.97 1367.0
-522.83 -78.78 1381.3
-517.59 -78.53 1376.8
-506.77 -77.42 1357.4
-493.96 -75.99 1332.4
-486.78 -75.42 1322.2
-490.27 -76.50 1341.2
-494.35 -77.68 1362.0
-494.95 -78.34 1373.4
-476.99 -76.04 1333.2
-456.21 -73.26 1284.4
-458.23 -74.12 1299.6
-479.96 -78.22 1371.3
-492.19 -80.81 1416.8
-475.57 -78.67 1379.2
-471.07 -78.51 1376.5
-469.80 -78.90 1383.3
-459.24 -77.72 1362.6
-460.82 -78.59 1377.9
-453.20 -77.89 1365.7
-450.94 -78.12 1369.6
-460.44 -80.39 1409.5
-458.06 -80.62 1413.4
-456.57 -81.00 1420.2
-459.00 -82.10 1439.4
-467.65 -84.33 1478.5
-478.80 -87.06 1526.3
-468.67 -85.92 1506.4
-458.04 -84.68 1484.6
-467.67 -87.19 1528.7
-468.67 -88.13 1545.1
-448.90 -85.14 1492.6
-455.33 -87.11 1527.2
-480.84 -92.79 1626.9
-474.99 -92.48 1621.3
-463.32 -91.01 1595.6
-472.75 -93.70 1642.8
-477.06 -99.96 1752.5
-467.11 -98.81 1732.4
-1087.00 -112.62 1888.6
-1102.68 -114.76 1924.5
-1081.77 -115.19 1931.7
-1074.06 -114.90 1926.9
-1042.75 -112.60 1888.3
-974.05 -105.68 1772.2
-966.20 -105.32 1766.2
-1002.78 -109.83 1841.8
-976.73 -107.49 1802.6
-920.49 -101.79 1707.0
-889.19 -98.80 1656.9
-884.44 -98.75 1656.0
-879.22 -98.64 1654.3
-848.79 -95.70 1604.8
-814.37 -92.27 1547.4
-812.14 -92.47 1550.8
-840.36 -96.16 1612.6
-809.49 -93.09 1561.2
-783.93 -91.06 1527.1
-817.58 -95.45 1600.8
-835.54 -98.05 1644.3
-846.56 -99.85 1674.5
-831.88 -98.62 1654.0
-804.77 -95.90 1608.3
-786.74 -94.24 1580.5
-772.37 -93.01 1559.8
-770.00 -93.21 1563.2
-766.29 -93.25 1563.9
-759.51 -92.92 1558.3
-756.68 -93.07 1560.8
-768.57 -95.04 1593.8
-771.26 -95.89 1608.0
-728.31 -91.04 1526.7
-714.38 -89.78 1505.7
-730.78 -92.35 1548.8
-721.98 -91.74 1538.5
-708.57 -90.54 1518.4
-691.88 -88.90 1490.9
-656.89 -84.88 1423.4
-640.52 -83.23 1395.8
-656.17 -85.75 1438.0
-672.47 -88.38 1482.2
-674.21 -89.12 1494.5
-651.77 -86.65 1453.2
-617.32 -82.55 1384.4
-609.06 -81.92 1373.8
-627.82 -84.94 1424.5
-636.34 -86.60 1452.3
-626.40 -85.76 1438.2
-614.53 -84.64 1419.4
-617.35 -85.54 1434.5
-614.60 -85.67 1436.7
-595.42 -83.50 1400.4
-595.45 -84.02 1409.0
-601.24 -85.36 1431.5
-582.69 -83.24 1396.0
-566.21 -81.39 1365.0
-570.80 -82.57 1384.7
-576.05 -83.86 1406.3
-574.43 -84.15 1411.2
-563.80 -83.12 1394.0
-548.77 -81.43 1365.6
-552.38 -82.50 1383.5
-556.65 -83.68 1403.3
-541.42 -81.93 1373.9
-528.50 -80.50 1350.0
-525.46 -80.57 1351.2
-525.29 -81.09 1359.8
-523.29 -81.32 1363.8
-521.63 -81.61 1368.7
-520.64 -82.02 1375.5
-512.25 -81.25 1362.6
-510.54 -81.55 1367.5
-506.73 -81.50 1366.8
-492.23 -79.73 1337.0
-488.14 -79.63 1335.3
-493.94 -81.15 1360.9
-496.23 -82.11 1377.0
-486.34 -81.06 1359.3
-473.52 -79.50 1333.2
-467.13 -79.00 1324.8
-478.91 -81.59 1368.3
-503.92 -86.49 1450.5
-501.86 -86.79 1455.5
-479.74 -83.59 1401.8
-460.10 -80.78 1354.7
-455.67 -80.62 1352.0
-462.97 -82.55 1384.3
-457.54 -82.21 1378.7
-457.75 -82.90 1390.2
-463.48 -84.60 1418.8
-456.15 -83.93 1407.6
-447.04 -82.92 1390.6
-440.43 -82.36 1381.1
-458.25 -86.39 1448.8
-479.04 -91.06 1527.0
-471.57 -90.38 1515.8
-464.16 -89.71 1504.5
-463.51 -90.35 1515.1
-453.25 -89.10 1494.2
-453.44 -89.91 1507.7
-478.37 -95.67 1604.5
-503.13 -101.51 1702.3
-500.47 -101.86 1708.3
-479.68 -98.51 1651.9
-476.83 -98.80 1656.9
-491.75 -102.82 1724.3
-1098.08 -119.25 1916.5
-1026.55 -111.99 1799.8
-1110.78 -121.73 1956.4
-1025.80 -114.51 1840.3
-982.91 -110.23 1771.6
-960.57 -108.23 1739.5
-911.89 -103.23 1659.1
-898.99 -102.26 1643.4
-933.90 -106.73 1715.3
-936.65 -107.56 1728.6
-902.84 -104.17 1674.2
-886.72 -102.81 1652.3
-896.56 -104.45 1678.7
-908.16 -106.32 1708.7
-896.30 -105.45 1694.7
-867.28 -102.54 1647.9
-870.87 -103.47 1662.9
-869.33 -103.80 1668.2
-811.22 -97.35 1564.5
-777.35 -93.75 1506.7
-813.01 -98.55 1583.8
-843.82 -102.80 1652.1
-858.05 -105.07 1688.6
-852.76 -104.96 1686.8
-821.45 -101.62 1633.2
-788.13 -98.01 1575.1
-765.73 -95.72 1538.3
-764.30 -96.04 1543.5
-774.31 -97.81 1571.9
-771.90 -98.02 1575.3
-765.98 -97.78 1571.5
-761.37 -97.72 1570.4
-773.25 -99.77 1603.5
-781.95 -101.44 1630.3
-743.69 -97.00 1559.0
-718.99 -94.29 1515.4
-725.15 -95.62 1536.8
-729.52 -96.73 1554.6
-726.63 -96.88 1557.1
-723.31 -96.98 1558.6
-700.73 -94.48 1518.4
-651.68 -88.36 1420.1
-636.19 -86.75 1394.3
-648.46 -88.93 1429.3
-646.61 -89.19 1433.4
-650.46 -90.24 1450.2
-641.23 -89.47 1438.0
-614.24 -86.21 1385.5
-616.87 -87.09 1399.6
-625.44 -88.82 1427.5
-615.95 -87.99 1414.2
-603.74 -86.76 1394.4
-606.61 -87.70 1409.5
-604.30 -87.90 1412.7
-584.80 -85.58 1375.4
-580.60 -85.49 1373.9
-582.60 -86.31 1387.1
-569.16 -84.84 1363.5
-557.72 -83.66 1344.5
-566.16 -85.46 1373.4
-573.70 -87.14 1400.5
-565.70 -86.48 1389.8
-548.00 -84.31 1354.9
-534.18 -82.71 1329.3
-539.72 -84.11 1351.8
-549.95 -86.27 1386.4
-540.25 -85.30 1370.9
-524.06 -83.29 1338.7
-517.07 -82.73 1329.6
-521.98 -84.08 1351.2
-525.72 -85.25 1370.1
-513.73 -83.87 1348.0
-502.55 -82.61 1327.7
-496.02 -82.10 1319.5
-495.81 -82.63 1328.1
-505.97 -84.92 1364.8
-505.61 -85.46 1373.4
-493.22 -83.95 1349.2
-490.13 -84.02 1350.3
-493.46 -85.20 1369.3
-485.60 -84.45 1357.3
-477.80 -83.70 1345.2
-476.69 -84.12 1352.0
-474.23 -84.31 1354.9
-483.21 -86.55 1390.9
-484.55 -87.44 1405.2
-466.09 -84.74 1362.0
-460.68 -84.40 1356.4
-469.64 -86.70 1393.4
-485.07 -90.25 1450.4
-488.91 -91.67 1473.3
-465.80 -88.03 1414.7
-447.30 -85.20 1369.3
-446.55 -85.74 1377.9
-443.61 -85.86 1379.9
-443.70 -86.58 1391.4
-466.92 -91.85 1476.2
-472.99 -93.82 1507.8
-451.93 -90.39 1452.6
-454.97 -91.76 1474.7
-464.91 -94.56 1519.7
-463.33 -95.04 1527.4
-471.77 -97.61 1568.7
-474.02 -98.93 1589.9
-477.02 -100.43 1614.0
-486.36 -103.30 1660.1
-479.89 -102.83 1652.7
-484.21 -104.69 1682.6
-1038.79 -118.04 1821.3
-1050.99 -119.98 1851.1
-1103.36 -126.53 1952.2
-1085.31 -125.04 1929.1
-1089.31 -126.08 1945.2
-1047.55 -121.81 1879.3
-988.60 -115.49 1781.9
-953.69 -111.94 1727.0
-942.07 -111.09 1714.0
-962.13 -114.00 1758.8
-962.91 -114.63 1768.6
-936.53 -112.03 1728.4
-926.90 -111.41 1718.8
-934.29 -112.84 1740.9
-921.37 -111.82 1725.2
-915.07 -111.59 1721.7
-933.52 -114.40 1765.1
-934.59 -115.10 1775.8
-870.30 -107.71 1661.8
-802.32 -99.79 1539.6
-823.99 -103.00 1589.1
-870.62 -109.37 1687.5
-874.00 -110.35 1702.6
-870.04 -110.41 1703.5
-861.10 -109.83 1694.6
-832.83 -106.77 1647.4
-813.27 -104.80 1617.0
-792.50 -102.66 1583.8
-771.85 -100.50 1550.6
-773.06 -101.19 1561.1
-777.74 -102.33 1578.9
-770.48 -101.92 1572.4
-754.94 -100.39 1548.9
-740.80 -99.04 1528.0
-752.76 -101.18 1561.0
-761.56 -102.91 1587.8
-750.90 -102.02 1574.1
-751.85 -102.71 1584.7
-731.44 -100.47 1550.2
-709.91 -98.05 1512.8
-711.34 -98.80 1524.3
-710.61 -99.25 1531.2
-709.42 -99.64 1537.3
-680.73 -96.15 1483.4
-648.13 -92.06 1420.4
-643.83 -91.98 1419.1
-645.29 -92.71 1430.4
-653.23 -94.40 1456.4
-663.91 -96.50 1488.8
-657.04 -96.06 1482.0
-634.09 -93.25 1438.7
-619.75 -91.68 1414.5
-611.08 -90.93 1403.0
-600.09 -89.83 1386.0
-591.53 -89.09 1374.5
-577.52 -87.50 1350.1
-556.98 -84.91 1310.0
-550.99 -84.51 1303.8
-565.90 -87.33 1347.4
-565.61 -87.83 1355.1
-553.44 -86.47 1334.2
-561.13 -88.23 1361.2
-565.30 -89.45 1380.0
-552.07 -87.91 1356.3
-544.93 -87.33 1347.4
-540.81 -87.23 1345.8
-535.57 -86.94 1341.4
-534.78 -87.38 1348.2
-539.80 -88.78 1369.8
-537.82 -89.04 1373.8
-525.68 -87.61 1351.7
-525.14 -88.11 1359.4
-524.93 -88.67 1368.1
-510.10 -86.75 1338.5
-501.77 -85.92 1325.6
-498.05 -85.87 1324.9
-499.23 -86.67 1337.2
-510.41 -89.23 1376.7
-506.92 -89.25 1376.9
-491.77 -87.19 1345.3
-485.29 -86.66 1337.0
-485.26 -87.28 1346.6
-487.89 -88.39 1363.7
-491.43 -89.68 1383.6
-485.58 -89.26 1377.2
-478.77 -88.66 1367.9
-474.30 -88.49 1365.3
-461.37 -86.72 1338.0
-454.71 -86.12 1328.7
-459.97 -87.78 1354.3
-467.02 -89.81 1385.7
-479.93 -93.01 1435.0
-487.58 -95.23 1469.3
-470.10 -92.54 1427.8
-455.60 -90.40 1394.7
-458.79 -91.76 1415.7
-467.99 -94.35 1455.7
-481.54 -97.87 1510.1
-473.47 -97.02 1496.9
-446.03 -92.16 1421.8
-434.67 -90.56 1397.1
-446.96 -93.90 1448.7
-459.87 -97.43 1503.2
-461.23 -98.55 1520.5
-466.24 -100.48 1550.3
-465.97 -101.30 1562.9
-451.21 -98.95 1526.6
-439.71 -97.28 1500.9
-442.80 -98.84 1524.9
-458.47 -103.26 1593.1
-471.34 -107.12 1652.8
-476.33 -109.25 1685.6
-1067.62 -126.75 1880.3
-1051.15 -125.37 1859.8
-1016.16 -121.75 1806.2
-1001.37 -120.54 1788.2
-1031.86 -124.78 1851.2
-1031.09 -125.27 1858.4
-1024.02 -125.00 1854.4
-1040.52 -127.61 1893.1
-1021.41 -125.86 1867.2
-986.65 -122.16 1812.2
-925.47 -115.13 1708.0
-888.40 -111.05 1647.4
-931.81 -117.04 1736.3
-953.23 -120.31 1784.8
-934.63 -118.54 1758.5
-942.73 -120.15 1782.5
-936.32 -119.92 1779.1
-865.09 -111.35 1651.9
-809.59 -104.72 1553.6
-842.71 -109.55 1625.2
-886.07 -115.77 1717.4
-885.73 -116.31 1725.5
-853.58 -112.66 1671.3
-815.77 -108.21 1605.4
-804.80 -107.31 1591.9
-803.29 -107.66 1597.1
-793.28 -106.87 1585.4
-780.65 -105.71 1568.3
-769.85 -104.80 1554.7
-763.52 -104.48 1550.0
-766.86 -105.49 1565.0
-760.96 -105.24 1561.2
-744.18 -103.47 1535.0
-753.53 -105.33 1562.6
-774.84 -108.90 1615.5
-777.87 -109.92 1630.6
-759.44 -107.90 1600.7
-720.27 -102.90 1526.5
-703.45 -101.05 1499.1
-708.70 -102.37 1518.7
-697.48 -101.31 1502.9
-685.07 -100.07 1484.5
-677.31 -99.49 1476.0
-664.61 -98.18 1456.5
-656.11 -97.48 1446.1
-654.23 -97.76 1450.3
-651.92 -97.98 1453.5
-652.84 -98.68 1464.0
-658.97 -100.19 1486.4
-648.09 -99.12 1470.5
-620.86 -95.52 1417.0
-599.04 -92.71 1375.3
-597.22 -92.98 1379.4
-596.97 -93.50 1387.1
-591.18 -93.16 1382.0
-576.82 -91.45 1356.6
-559.85 -89.30 1324.8
-564.66 -90.62 1344.4
-571.68 -92.32 1369.6
-566.74 -92.10 1366.3
-568.66 -92.99 1379.5
-566.73 -93.26 1383.5
-559.51 -92.66 1374.6
-557.57 -92.93 1378.6
-551.15 -92.45 1371.5
-543.27 -91.72 1360.7
-539.85 -91.74 1361.0
-541.92 -92.70 1375.2
-545.01 -93.84 1392.2
-537.17 -93.11 1381.3
-525.79 -91.75 1361.1
-514.13 -90.32 1339.9
-504.70 -89.27 1324.3
-502.40 -89.47 1327.3
-502.90 -90.17 1337.8
-507.18 -91.57 1358.5
-509.98 -92.72 1375.6
-498.57 -91.29 1354.3
-501.98 -92.56 1373.2
-513.82 -95.42 1415.6
-504.14 -94.30 1398.9
-497.23 -93.68 1389.8
-496.70 -94.26 1398.4
-486.50 -93.01 1379.8
-472.44 -90.99 1349.8
-461.13 -89.47 1327.3
-460.33 -89.99 1335.0
-466.28 -91.84 1362.5
-462.79 -91.85 1362.6
-459.30 -91.86 1362.8
-464.98 -93.72 1390.3
-465.51 -94.56 1402.8
-465.35 -95.27 1413.3
-469.47 -96.88 1437.2
-470.72 -97.91 1452.5
-477.99 -100.22 1486.8
-476.92 -100.81 1495.6
-454.43 -96.85 1436.7
-446.56 -95.96 1423.5
-454.76 -98.53 1461.7
-455.12 -99.44 1475.2
-454.55 -100.15 1485.8
-458.55 -101.90 1511.7
-465.59 -104.36 1548.1
-469.03 -106.04 1573.1
-458.49 -104.57 1551.3
-441.60 -101.61 1507.4
-438.28 -101.74 1509.4
-453.70 -106.27 1576.6
-467.71 -110.55 1640.0
-480.87 -114.70 1701.6
-1071.47 -133.93 1913.3
-1052.13 -132.13 1887.5
-1058.55 -133.56 1907.9
-1059.10 -134.25 1917.9
-1027.40 -130.85 1869.3
-962.35 -123.14 1759.2
-970.76 -124.81 1783.0
-953.40 -123.17 1759.5
-897.75 -116.53 1664.8
-921.30 -120.17 1716.7
-962.97 -126.21 1803.1
-964.48 -127.03 1814.7
-923.94 -122.29 1746.9
-872.04 -115.99 1656.9
-852.93 -114.01 1628.6
-845.45 -113.57 1622.4
-847.65 -114.43 1634.8
-860.78 -116.79 1668.4
-858.26 -117.04 1671.9
-825.31 -113.11 1615.9
-812.94 -111.99 1599.8
-827.20 -114.53 1636.2
-817.53 -113.78 1625.4
-799.42 -111.84 1597.7
-788.98 -110.95 1585.0
-779.93 -110.25 1575.0
-773.99 -109.99 1571.3
-776.85 -110.98 1585.4
-786.65 -112.98 1613.9
-784.13 -113.22 1617.4
-748.65 -108.67 1552.5
-728.54 -106.33 1519.0
-738.22 -108.33 1547.5
-727.25 -107.30 1532.8
-721.44 -107.03 1529.0
-736.42 -109.85 1569.3
-730.12 -109.52 1564.6
-707.46 -106.71 1524.5
-691.24 -104.85 1497.9
-680.54 -103.81 1483.0
-677.77 -103.98 1485.4
-678.70 -104.71 1495.9
-661.11 -102.59 1465.5
-644.88 -100.65 1437.8
-639.73 -100.42 1434.6
-639.46 -100.97 1442.4
-641.96 -101.96 1456.5
-626.77 -100.14 1430.5
-596.96 -95.94 1370.6
-588.02 -95.07 1358.1
-597.27 -97.15 1387.8
-600.90 -98.33 1404.7
-600.94 -98.94 1413.4
-597.06 -98.90 1412.8
-585.05 -97.51 1393.0
-576.59 -96.70 1381.4
-557.10 -94.01 1343.0
-545.75 -92.68 1323.9
-555.67 -94.96 1356.5
-559.80 -96.27 1375.3
-559.36 -96.81 1383.0
-554.78 -96.64 1380.6
-543.18 -95.23 1360.5
-536.46 -94.67 1352.4
-539.64 -95.86 1369.4
-543.47 -97.18 1388.2
-536.73 -96.61 1380.2
-525.34 -95.20 1360.0
-516.91 -94.30 1347.2
-510.66 -93.79 1339.9
-509.03 -94.14 1344.8
-510.19 -95.00 1357.2
-497.33 -93.25 1332.1
-482.85 -91.17 1302.4
-489.18 -93.01 1328.8
-510.81 -97.81 1397.4
-518.84 -100.06 1429.5
-504.74 -98.04 1400.6
-491.43 -96.15 1373.6
-484.26 -95.44 1363.4
-483.77 -96.04 1372.0
-478.95 -95.79 1368.4
-470.55 -94.81 1354.5
-472.62 -95.94 1370.6
-481.06 -98.40 1405.7
-480.36 -99.01 1414.4
-468.47 -97.30 1390.0
-464.59 -97.24 1389.1
-460.72 -97.18 1388.3
-455.91 -96.93 1384.7
-461.03 -98.79 1411.3
-464.49 -100.33 1433.3
-472.72 -102.93 1470.5
-473.51 -103.94 1484.9
-444.43 -98.36 1405.1
-427.97 -95.50 1364.3
-449.94 -101.24 1446.2
-466.52 -105.85 1512.1
-467.31 -106.93 1527.5
-471.80 -108.88 1555.4
-458.90 -106.81 1525.9
-441.30 -103.61 1480.1
-444.28 -105.22 1503.2
-443.49 -105.97 1513.8
-453.78 -109.39 1562.8
-485.09 -117.99 1685.6
-489.80 -120.22 1717.5
-491.65 -121.78 1739.8
-1052.11 -137.66 1896.3
-1027.59 -135.08 1860.8
-980.62 -129.52 1784.2
-949.76 -126.03 1736.2
-988.28 -131.77 1815.2
-1013.64 -135.80 1870.7
-994.72 -133.91 1844.6
-951.84 -128.75 1773.6
-929.45 -126.33 1740.3
-940.92 -128.52 1770.4
-911.67 -125.13 1723.7
-863.55 -119.11 1640.8
-844.93 -117.12 1613.4
-848.10 -118.14 1627.5
-861.77 -120.65 1662.0
-873.00 -122.83 1692.1
-868.16 -122.77 1691.2
-787.52 -111.93 1541.9
-796.91 -114.43 1576.3
-843.87 -121.80 1677.8
-800.20 -116.09 1599.2
-763.08 -111.28 1533.0
-778.92 -114.19 1573.0
-795.48 -117.23 1614.9
-781.13 -115.72 1594.1
-773.85 -115.25 1587.7
-767.91 -114.98 1583.9
-729.90 -109.88 1513.6
-704.70 -106.66 1469.3
-711.05 -108.20 1490.5
-712.60 -109.03 1502.0
-717.50 -110.38 1520.6
-732.49 -113.31 1561.0
-728.33 -113.30 1560.7
-714.07 -111.70 1538.7
-706.18 -111.09 1530.3
-690.42 -109.22 1504.6
-682.64 -108.60 1496.0
-684.36 -109.50 1508.4
-667.98 -107.49 1480.8
-653.76 -105.81 1457.6
-650.61 -105.91 1459.0
-640.17 -104.82 1444.0
-633.01 -104.26 1436.2
-637.09 -105.55 1454.0
-626.35 -104.39 1438.0
-609.33 -102.16 1407.4
-612.17 -103.26 1422.4
-600.02 -101.82 1402.7
-585.62 -99.98 1377.3
-593.47 -101.95 1404.3
-592.69 -102.44 1411.2
-584.19 -101.60 1399.6
-565.42 -98.95 1363.1
-547.19 -96.36 1327.4
-549.16 -97.32 1340.6
-558.21 -99.55 1371.4
-563.39 -101.12 1393.0
-553.95 -100.07 1378.5
-537.55 -97.74 1346.4
-537.47 -98.36 1355.0
-546.87 -100.74 1387.7
-547.02 -101.43 1397.3
-535.92 -100.04 1378.1
-534.61 -100.46 1383.9
-535.05 -101.23 1394.4
-516.62 -98.40 1355.6
-503.65 -96.59 1330.6
-511.87 -98.84 1361.6
-506.32 -98.45 1356.2
-489.36 -95.82 1319.9
-493.93 -97.39 1341.7
-506.27 -100.54 1384.9
-504.80 -100.96 1390.8
-493.83 -99.48 1370.3
-482.61 -97.92 1348.9
-473.83 -96.84 1334.0
-471.75 -97.13 1337.9
-480.85 -99.73 1373.9
-486.84 -101.73 1401.4
-477.42 -100.51 1384.6
-473.88 -100.52 1384.7
-485.42 -103.75 1429.3
-485.91 -104.66 1441.7
-473.69 -102.82 1416.4
-460.33 -100.70 1387.1
-446.16 -98.37 1355.1
-440.82 -97.96 1349.4
-444.73 -99.62 1372.3
-454.02 -102.52 1412.3
-460.09 -104.74 1442.8
-437.44 -100.40 1383.0
-432.68 -100.12 1379.3
-466.46 -108.84 1499.3
-467.62 -110.03 1515.7
-451.48 -107.13 1475.8
-466.51 -111.64 1537.9
-466.01 -112.48 1549.5
-451.49 -109.93 1514.3
-456.64 -112.16 1545.0
-463.89 -114.95 1583.4
-482.92 -120.73 1663.1
-489.69 -123.53 1701.6
-468.38 -119.22 1642.4
-457.92 -117.63 1620.4
-474.74 -123.08 1695.5
-1051.17 -141.13 1877.1
-994.01 -134.08 1783.3
-986.12 -133.63 1777.4
-1001.40 -136.34 1813.4
-999.22 -136.69 1818.0
-1013.31 -139.27 1852.4
-1002.93 -138.50 1842.1
-980.69 -136.08 1809.9
-968.53 -135.04 1796.0
-930.47 -130.36 1733.8
-900.64 -126.79 1686.4
-904.72 -127.99 1702.3
-918.53 -130.58 1736.7
-912.68 -130.38 1734.2
-883.23 -126.80 1686.5
-877.48 -126.60 1683.9
-896.08 -129.93 1728.2
-911.30 -132.80 1766.3
-906.31 -132.74 1765.5
-825.52 -121.52 1616.3
-783.73 -116.56 1550.2
-845.53 -126.39 1681.1
-813.92 -122.30 1626.6
-753.18 -113.76 1513.1
-749.58 -113.81 1513.7
-785.22 -119.85 1594.1
-790.67 -121.32 1613.6
-767.61 -118.41 1574.9
-746.46 -115.76 1539.7
-737.59 -115.00 1529.6
-739.97 -116.00 1542.8
-743.58 -117.20 1558.8
-741.57 -117.52 1563.0
-714.83 -113.90 1515.0
-699.75 -112.11 1491.2
-693.19 -111.68 1485.4
-677.84 -109.82 1460.6
-672.21 -109.52 1456.6
-658.69 -107.92 1435.4
-658.09 -108.44 1442.2
-666.94 -110.52 1470.0
-654.34 -109.06 1450.5
-644.68 -108.07 1437.3
-650.91 -109.75 1459.7
-649.36 -110.13 1464.7
-633.31 -108.03 1436.9
-629.78 -108.07 1437.4
-625.45 -107.96 1436.0
-614.78 -106.76 1419.9
-615.62 -107.55 1430.4
-600.71 -105.58 1404.3
-584.36 -103.33 1374.4
-589.88 -104.95 1395.8
-589.50 -105.53 1403.6
-581.79 -104.79 1393.8
-576.03 -104.41 1388.6
-568.39 -103.67 1378.8
-560.41 -102.86 1368.1
-559.62 -103.37 1374.9
-565.16 -105.06 1397.4
-555.35 -103.90 1382.0
-544.12 -102.46 1362.8
-548.42 -103.95 1382.6
-539.47 -102.92 1368.9
-522.57 -100.36 1334.8
-522.45 -101.01 1343.5
-530.57 -103.26 1373.5
-536.04 -105.03 1397.0
-522.22 -103.02 1370.2
-509.22 -101.15 1345.3
-517.75 -103.55 1377.3
-516.36 -103.99 1383.1
-502.80 -101.97 1356.2
-497.98 -101.70 1352.7
-500.37 -102.91 1368.8
-503.36 -104.27 1386.8
-496.11 -103.51 1376.7
-490.60 -103.10 1371.2
-487.11 -103.11 1371.4
-475.98 -101.50 1349.9
-475.83 -102.22 1359.5
-489.05 -105.84 1407.7
-487.74 -106.35 1414.5
-473.15 -103.95 1382.6
-472.50 -104.60 1391.2
-475.95 -106.17 1412.2
-466.33 -104.83 1394.4
-463.70 -105.06 1397.3
-459.81 -105.00 1396.5
-450.66 -103.72 1379.6
-449.88 -104.37 1388.2
-447.84 -104.74 1393.0
-442.74 -104.39 1388.4
-438.56 -104.25 1386.6
-452.31 -108.40 1441.8
-468.75 -113.28 1506.7
-451.95 -110.14 1464.9
-442.64 -108.79 1446.9
-463.24 -114.82 1527.2
-466.21 -116.55 1550.2
-457.39 -115.34 1534.1
-469.28 -119.38 1587.8
-484.28 -124.28 1653.0
-481.72 -124.73 1659.0
-464.51 -121.36 1614.1
-466.38 -122.95 1635.4
-482.80 -128.45 1708.5
-482.72 -129.62 1724.0
-490.94 -135.59 1803.5
-1086.39 -149.50 1922.2
-1013.62 -140.13 1801.7
-977.40 -135.75 1745.4
-964.23 -134.54 1729.9
-994.20 -139.37 1791.9
-983.40 -138.51 1780.8
-958.23 -135.60 1743.4
-939.90 -133.64 1718.2
-904.02 -129.15 1660.4
-903.07 -129.63 1666.6
-905.87 -130.65 1679.8
-900.13 -130.45 1677.3
-900.50 -131.14 1686.1
-898.03 -131.42 1689.7
-906.26 -133.27 1713.5
-911.61 -134.72 1732.1
-892.81 -132.60 1704.8
-879.65 -131.29 1688.0
-892.73 -133.91 1721.7
-895.15 -134.95 1735.0
-878.37 -133.09 1711.1
-855.34 -130.26 1674.7
-828.39 -126.79 1630.2
-853.38 -131.29 1688.0
-845.48 -131.42 1689.7
-769.95 -120.31 1546.8
-745.48 -117.09 1505.5
-760.41 -120.06 1543.7
-783.08 -124.30 1598.1
-777.11 -124.01 1594.4
-750.26 -120.36 1547.5
-736.60 -118.81 1527.5
-727.77 -118.02 1517.4
-719.84 -117.37 1509.0
-730.33 -119.73 1539.3
-716.85 -118.16 1519.2
-683.11 -113.22 1455.7
-659.33 -109.89 1412.9
-646.24 -108.31 1392.5
-644.52 -108.63 1396.6
-644.44 -109.23 1404.3
-657.57 -112.09 1441.1
-676.73 -116.01 1491.6
-673.92 -116.19 1493.9
-641.30 -111.21 1429.8
-626.02 -109.19 1403.9
-637.13 -111.78 1437.1
-632.80 -111.67 1435.8
-630.08 -111.85 1438.0
-626.54 -111.88 1438.5
-607.94 -109.21 1404.1
-601.32 -108.67 1397.2
-602.97 -109.63 1409.5
-600.26 -109.80 1411.8
-593.27 -109.19 1403.9
-580.91 -107.58 1383.1
-577.08 -107.53 1382.5
-575.17 -107.84 1386.6
-566.01 -106.79 1373.1
-557.67 -105.89 1361.4
-547.50 -104.62 1345.1
-544.12 -104.64 1345.4
-548.56 -106.17 1365.1
-550.68 -107.28 1379.3
-542.81 -106.43 1368.4
-522.55 -103.14 1326.0
-513.39 -102.00 1311.4
-520.92 -104.18 1339.5
-522.93 -105.29 1353.7
-521.30 -105.67 1358.6
-520.71 -106.27 1366.3
-520.78 -107.01 1375.8
-518.01 -107.17 1378.0
-504.76 -105.16 1352.0
-497.86 -104.45 1342.9
-499.62 -105.55 1357.1
-494.46 -105.20 1352.6
-489.66 -104.93 1349.1
-490.62 -105.89 1361.4
-494.54 -107.51 1382.3
-494.03 -108.18 1390.9
-485.18 -107.03 1376.0
-474.43 -105.43 1355.5
-475.87 -106.54 1369.8
-488.63 -110.22 1417.1
-487.92 -110.89 1425.7
-479.48 -109.80 1411.8
-474.91 -109.60 1409.1
-465.93 -108.36 1393.2
-463.62 -108.66 1397.1
-463.78 -109.56 1408.6
-458.94 -109.27 1404.9
-468.55 -112.45 1445.8
-477.67 -115.56 1485.8
-464.48 -113.29 1456.5
-452.02 -111.15 1429.1
-445.66 -110.49 1420.6
-439.93 -109.98 1414.1
-446.29 -112.51 1446.5
-462.11 -117.49 1510.5
-461.13 -118.24 1520.2
-442.29 -114.39 1470.7
-445.06 -116.10 1492.7
-469.20 -123.47 1587.5
-474.66 -126.02 1620.2
-462.17 -123.79 1591.6
-451.18 -121.94 1567.8
-458.36 -125.01 1607.2
-488.40 -134.42 1728.3
-490.75 -137.59 1769.0
-443.67 -125.57 1614.4
-458.11 -130.89 1682.9
-1093.58 -155.51 1934.9
-1046.73 -149.53 1860.5
-1042.08 -149.56 1860.8
-1061.22 -153.01 1903.8
-1052.12 -152.41 1896.3
-1002.53 -145.91 1815.5
-949.91 -138.90 1728.3
-908.64 -133.50 1661.0
-904.83 -133.57 1661.9
-932.86 -138.37 1721.6
-911.89 -135.91 1691.0
-884.42 -132.45 1648.0
-880.63 -132.52 1648.9
-875.88 -132.45 1648.0
-916.85 -139.32 1733.5
-954.21 -145.72 1813.1
-913.49 -140.19 1744.3
-878.59 -135.50 1686.0
-871.47 -135.08 1680.7
-854.30 -133.08 1655.9
-860.47 -134.72 1676.2
-859.29 -135.22 1682.4
-852.20 -134.79 1677.1
-894.19 -142.15 1768.7
-893.66 -142.80 1776.8
-808.74 -129.90 1616.3
-770.27 -124.37 1547.4
-774.57 -125.72 1564.2
-771.30 -125.84 1565.8
-775.05 -127.12 1581.7
-759.94 -125.31 1559.1
-725.33 -120.24 1496.1
-711.35 -118.56 1475.2
-702.63 -117.74 1465.0
-703.83 -118.58 1475.4
-722.94 -122.47 1523.8
-725.24 -123.53 1537.0
-706.29 -120.97 1505.1
-695.92 -119.85 1491.3
-695.25 -120.41 1498.2
-678.26 -118.12 1469.7
-665.54 -116.56 1450.3
-647.11 -113.98 1418.2
-638.70 -113.14 1407.8
-662.73 -118.07 1469.1
-654.26 -117.24 1458.7
-608.86 -109.74 1365.4
-590.13 -106.98 1331.1
-614.59 -112.07 1394.5
-639.17 -117.24 1458.8
-628.03 -115.89 1441.9
-602.69 -111.88 1392.0
-600.82 -112.20 1396.1
-606.79 -114.00 1418.5
-609.13 -115.14 1432.6
-606.76 -115.40 1435.8
-592.78 -113.43 1411.4
-587.35 -113.09 1407.1
-581.95 -112.75 1402.9
-570.48 -111.22 1383.9
-567.02 -111.25 1384.2
-562.44 -111.05 1381.8
-548.14 -108.93 1355.3
-542.51 -108.50 1350.0
-549.85 -110.68 1377.2
-546.39 -110.71 1377.5
-534.16 -108.94 1355.5
-533.66 -109.56 1363.2
-534.20 -110.40 1373.7
-528.58 -109.97 1368.3
-522.99 -109.55 1363.0
-518.48 -109.34 1360.4
-511.87 -108.68 1352.3
-502.13 -107.35 1335.7
-498.74 -107.37 1335.9
-501.24 -108.66 1352.0
-502.63 -109.73 1365.3
-497.45 -109.37 1360.8
-491.95 -108.93 1355.4
-493.23 -110.00 1368.7
-490.42 -110.17 1370.7
-483.60 -109.43 1361.5
-481.12 -109.67 1364.5
-475.99 -109.30 1360.0
-466.95 -108.03 1344.1
-468.39 -109.17 1358.4
-481.05 -112.97 1405.7
-485.80 -114.96 1430.4
-481.20 -114.75 1427.7
-472.49 -113.54 1412.8
-464.48 -112.49 1399.7
-458.40 -111.89 1392.2
-454.52 -111.83 1391.4
-464.78 -115.26 1434.2
-481.55 -120.39 1497.9
-477.72 -120.40 1498.1
-459.45 -116.75 1452.6
-447.37 -114.62 1426.1
-442.81 -114.39 1423.3
-450.61 -117.39 1460.6
-462.61 -121.53 1512.2
-457.57 -121.24 1508.5
-443.65 -118.56 1475.2
-450.67 -121.49 1511.6
-465.15 -126.49 1573.8
-459.99 -126.19 1570.1
-454.29 -125.74 1564.5
-450.55 -125.83 1565.6
-453.36 -127.76 1589.7
-476.65 -135.56 1686.7
-497.87 -142.91 1778.1
-486.39 -140.92 1753.3
-472.91 -138.31 1720.8
-1067.74 -158.18 1906.7
-1063.60 -159.79 1926.0
-1019.89 -153.95 1855.6
-989.38 -150.05 1808.6
-998.64 -152.17 1834.2
-987.35 -151.17 1822.2
-927.83 -142.74 1720.6
-888.52 -137.36 1655.6
-873.90 -135.75 1636.3
-888.85 -138.75 1672.4
-948.87 -148.84 1794.1
-914.85 -145.65 1755.6
-874.08 -139.85 1685.7
-862.39 -138.68 1671.5
-873.08 -141.10 1700.8
-871.84 -141.62 1707.0
-864.26 -141.10 1700.8
-873.34 -143.32 1727.5
-840.64 -138.66 1671.4
-794.77 -131.78 1588.4
-791.92 -131.99 1590.9
-804.97 -134.86 1625.6
-810.39 -136.49 1645.2
-787.64 -133.36 1607.4
-747.14 -127.17 1532.9
-716.94 -122.69 1478.8
-707.33 -121.69 1466.8
-726.23 -125.62 1514.2
-754.80 -131.27 1582.3
-756.58 -132.30 1594.7
-742.14 -130.49 1572.8
-726.51 -128.44 1548.2
-719.83 -127.97 1542.5
-714.86 -127.80 1540.4
-692.77 -124.54 1501.2
-667.09 -120.60 1453.7
-637.89 -115.98 1398.0
-626.64 -114.59 1381.2
-648.68 -119.30 1438.0
-669.24 -123.79 1492.1
-650.98 -121.11 1459.8
-612.66 -114.65 1381.9
-618.10 -116.35 1402.4
-631.86 -119.64 1442.1
-610.80 -116.34 1402.3
-590.70 -113.19 1364.3
-595.20 -114.74 1383.0
-603.54 -117.05 1410.9
-608.63 -118.76 1431.5
-616.35 -121.00 1458.5
-611.20 -120.73 1455.2
-590.71 -117.41 1415.2
-571.15 -114.23 1376.9
-569.99 -114.72 1382.7
-576.75 -116.81 1408.0
-572.11 -116.61 1405.6
-557.02 -114.26 1377.2
-542.41 -111.98 1349.8
-540.87 -112.39 1354.7
-552.17 -115.49 1392.0
-553.80 -116.59 1405.3
-543.37 -115.15 1388.0
-533.74 -113.86 1372.5
-524.53 -112.65 1357.9
-516.82 -111.75 1346.9
-510.58 -111.15 1339.7
-503.30 -110.31 1329.7
-498.17 -109.94 1325.2
-498.99 -110.89 1336.6
-497.68 -111.37 1342.4
-494.96 -111.54 1344.5
-491.54 -111.55 1344.6
-487.78 -111.49 1343.9
-490.78 -112.98 1361.9
-489.66 -113.54 1368.6
-485.84 -113.48 1367.9
-486.00 -114.35 1378.4
-485.45 -115.07 1387.0
-480.60 -114.77 1383.4
-467.32 -112.44 1355.3
-464.82 -112.68 1358.2
-466.15 -113.87 1372.5
-457.86 -112.70 1358.5
-467.03 -115.85 1396.4
-477.58 -119.39 1439.1
-472.65 -119.09 1435.5
-471.15 -119.66 1442.3
-454.85 -116.44 1403.5
-443.32 -114.40 1379.0
-456.12 -118.67 1430.4
-456.06 -119.62 1441.9
-452.36 -119.63 1442.0
-456.35 -121.69 1466.8
-454.93 -122.34 1474.6
-456.10 -123.69 1490.9
-459.80 -125.76 1515.8
-455.91 -125.77 1515.9
-450.59 -125.38 1511.3
-450.66 -126.50 1524.8
-457.38 -129.52 1561.2
-465.88 -133.11 1604.4
-469.76 -135.43 1632.4
-480.06 -139.65 1683.3
-498.79 -146.43 1765.0
-1061.99 -165.31 1932.2
-1019.84 -159.50 1864.3
-988.46 -155.33 1815.5
-941.11 -148.60 1736.8
-923.42 -146.50 1712.4
-921.38 -146.89 1716.9
-877.98 -140.65 1643.9
-868.57 -139.82 1634.2
-904.42 -146.30 1710.0
-929.74 -151.14 1766.6
-933.54 -152.51 1782.6
-894.88 -146.92 1717.3
-870.71 -143.67 1679.2
-872.30 -144.65 1690.7
-853.80 -142.30 1663.2
-823.62 -137.97 1612.6
-828.42 -139.48 1630.3
-850.70 -143.96 1682.7
-834.67 -141.98 1659.5
-805.34 -137.70 1609.5
-813.11 -139.75 1633.5
-836.25 -144.48 1688.8
-815.98 -141.72 1656.5
-769.96 -134.44 1571.3
-755.74 -132.66 1550.5
-750.31 -132.41 1547.6
-735.79 -130.54 1525.8
-751.11 -133.98 1566.0
-747.37 -134.04 1566.7
-718.84 -129.63 1515.1
-730.94 -132.53 1549.1
-740.78 -135.06 1578.6
-745.85 -136.74 1598.2
-752.51 -138.73 1621.5
-717.71 -133.06 1555.2
-682.77 -127.30 1487.9
-667.57 -125.17 1463.0
-670.19 -126.38 1477.2
-676.44 -128.29 1499.5
-680.95 -129.89 1518.2
-682.94 -131.03 1531.5
-662.25 -127.80 1493.8
-637.69 -123.79 1446.9
-622.54 -121.56 1420.8
-608.69 -119.56 1397.5
-595.34 -117.64 1375.0
-599.03 -119.08 1391.9
-606.57 -121.31 1417.9
-589.02 -118.52 1385.3
-575.10 -116.43 1360.9
-592.18 -120.63 1409.9
-592.52 -121.45 1419.5
-561.49 -115.81 1353.6
-550.51 -114.26 1335.5
-561.90 -117.36 1371.7
-561.86 -118.10 1380.4
-559.90 -118.44 1384.4
-556.81 -118.55 1385.6
-536.34 -114.93 1343.3
-528.92 -114.08 1333.4
-551.87 -119.81 1400.4
-560.71 -122.54 1432.3
-539.78 -118.75 1388.0
-519.77 -115.12 1345.5
-518.87 -115.69 1352.3
-520.42 -116.83 1365.5
-510.26 -115.33 1348.1
-502.29 -114.31 1336.1
-500.29 -114.65 1340.1
-496.54 -114.59 1339.3
-495.55 -115.16 1346.1
-493.50 -115.50 1350.0
-487.34 -114.87 1342.7
-488.32 -115.93 1355.0
-493.26 -117.95 1378.7
-495.42 -119.34 1394.8
-485.24 -117.74 1376.2
-473.83 -115.83 1353.8
-486.07 -119.70 1399.1
-489.65 -121.49 1420.0
-469.57 -117.39 1372.1
-453.88 -114.34 1336.4
-456.18 -115.80 1353.5
-475.47 -121.63 1421.7
-482.82 -124.48 1454.9
-475.99 -123.68 1445.6
-469.51 -122.97 1437.3
-447.70 -118.19 1381.5
-441.40 -117.47 1373.0
-459.06 -123.16 1439.6
-460.18 -124.47 1454.9
-456.74 -124.57 1456.0
-460.40 -126.61 1479.9
-458.08 -127.03 1484.8
-456.30 -127.61 1491.6
-456.23 -128.68 1504.1
-459.26 -130.65 1527.1
-461.32 -132.38 1547.3
-464.69 -134.52 1572.3
-476.63 -139.19 1626.9
-481.91 -141.99 1659.6
-480.41 -142.83 1669.4
-485.98 -145.79 1704.1
-498.42 -150.90 1763.7
-511.10 -156.17 1825.4
-494.49 -155.41 1816.5
-1056.81 -167.12 1895.9
-980.00 -155.70 1766.4
-1029.99 -164.41 1865.2
-1029.15 -165.05 1872.4
-1012.01 -163.07 1850.0
-1001.63 -162.17 1839.7
-963.27 -156.70 1777.7
-956.38 -156.33 1773.5
-966.01 -158.67 1800.0
-930.90 -153.64 1743.0
-869.82 -144.26 1636.6
-860.45 -143.41 1626.9
-871.07 -145.89 1655.1
-860.76 -144.88 1643.6
-850.95 -143.94 1633.0
-850.83 -144.64 1640.9
-845.64 -144.48 1639.1
-821.78 -141.11 1600.9
-801.25 -138.29 1568.8
-814.73 -141.33 1603.3
-831.65 -145.01 1645.0
-810.78 -142.09 1612.0
-783.34 -138.00 1565.5
-791.64 -140.19 1590.3
-806.90 -143.64 1629.5
-780.15 -139.61 1583.8
-765.43 -137.70 1562.1
-783.56 -141.71 1607.6
-778.01 -141.46 1604.7
-761.64 -139.22 1579.4
-762.62 -140.16 1590.0
-745.09 -137.68 1561.9
-711.45 -132.18 1499.5
-720.60 -134.62 1527.2
-729.63 -137.06 1554.9
-734.33 -138.71 1573.6
-761.18 -144.58 1640.2
-744.31 -142.17 1612.9
-720.48 -138.40 1570.0
-720.00 -139.09 1577.9
-697.66 -135.55 1537.7
-679.18 -132.71 1505.6
-676.74 -133.00 1508.8
-671.85 -132.81 1506.7
-654.85 -130.20 1477.1
-631.14 -126.23 1432.0
-623.22 -125.38 1422.4
-616.54 -124.78 1415.5
-599.98 -122.15 1385.8
-600.10 -122.91 1394.4
-602.14 -124.08 1407.6
-578.77 -119.99 1361.2
-562.58 -117.35 1331.3
-578.17 -121.34 1376.6
-605.07 -127.78 1449.6
-599.57 -127.41 1445.4
-569.02 -121.68 1380.4
-563.31 -121.22 1375.2
-563.63 -122.06 1384.7
-561.66 -122.41 1388.7
-559.30 -122.69 1391.8
-539.56 -119.12 1351.4
-523.30 -116.29 1319.2
-537.15 -120.15 1363.1
-546.07 -122.96 1394.9
-524.50 -118.89 1348.7
-516.07 -117.76 1336.0
-527.33 -121.14 1374.3
-528.48 -122.23 1386.7
-518.28 -120.69 1369.2
-508.50 -119.24 1352.7
-505.07 -119.25 1352.9
-503.72 -119.77 1358.7
-505.44 -121.02 1372.9
-498.53 -120.21 1363.8
-486.91 -118.25 1341.5
-483.15 -118.18 1340.7
-484.10 -119.27 1353.1
-489.99 -121.60 1379.5
-483.16 -120.79 1370.3
-469.79 -118.32 1342.2
-479.11 -121.56 1379.1
-493.78 -126.23 1432.0
-484.97 -124.92 1417.1
-473.98 -123.02 1395.6
-481.23 -125.86 1427.8
-479.17 -126.29 1432.7
-464.52 -123.39 1399.8
-471.22 -126.15 1431.1
-478.39 -129.09 1464.4
-465.42 -126.60 1436.2
-467.54 -128.20 1454.3
-481.07 -132.98 1508.6
-478.11 -133.24 1511.6
-468.28 -131.58 1492.7
-465.05 -131.76 1494.8
-462.98 -132.28 1500.6
-461.17 -132.88 1507.4
-460.48 -133.81 1518.1
-462.32 -135.51 1537.3
-455.81 -134.76 1528.8
-449.63 -134.10 1521.3
-466.44 -140.35 1592.2
-475.97 -144.49 1639.2
-465.16 -142.48 1616.4
-459.91 -142.16 1612.7
-478.53 -149.27 1693.4
-498.37 -156.89 1779.9
-497.28 -158.01 1792.6
-489.53 -157.02 1781.3
-498.31 -161.36 1830.5
-1012.98 -161.89 1784.1
-1009.47 -162.07 1786.1
-1061.18 -171.16 1886.2
-959.03 -156.85 1728.6
-982.10 -161.38 1778.4
-979.51 -161.71 1782.1
-962.56 -159.67 1759.6
-995.74 -165.96 1828.9
-993.97 -166.45 1834.4
-969.93 -163.21 1798.6
-964.89 -163.15 1797.9
-965.49 -164.04 1807.8
-935.16 -159.66 1759.5
-893.85 -153.36 1690.0
-877.41 -151.28 1667.1
-864.30 -149.76 1650.4
-849.88 -147.99 1630.9
-855.72 -149.75 1650.3
-855.08 -150.39 1657.4
-834.83 -147.57 1626.3
-818.34 -145.39 1602.3
-808.71 -144.41 1591.5
-803.17 -144.16 1588.7
-816.45 -147.30 1623.3
-822.00 -149.07 1642.8
-807.92 -147.28 1623.1
-799.68 -146.54 1614.9
-791.02 -145.71 1605.8
-794.67 -147.16 1621.8
-809.18 -150.64 1660.2
-799.60 -149.66 1649.3
-796.13 -149.81 1651.0
-810.75 -153.38 1690.4
-814.90 -155.01 1708.2
-798.89 -152.79 1683.8
-754.06 -145.01 1598.1
-717.22 -138.69 1528.4
-702.58 -136.61 1505.5
-707.75 -138.39 1525.1
-718.69 -141.32 1557.4
-722.42 -142.85 1574.3
-714.49 -142.09 1565.8
-686.00 -137.20 1512.0
-666.35 -134.04 1477.1
-663.97 -134.33 1480.4
-646.16 -131.49 1449.0
-617.16 -126.32 1392.1
-611.33 -125.86 1387.0
-620.70 -128.55 1416.7
-622.39 -129.66 1429.0
-613.72 -128.62 1417.5
-607.47 -128.08 1411.5
-603.59 -128.03 1411.0
-594.64 -126.90 1398.5
-591.56 -127.02 1399.8
-596.96 -128.97 1421.3
-614.93 -133.68 1473.2
-614.73 -134.47 1481.9
-589.41 -129.75 1429.8
-574.53 -127.27 1402.6
-567.27 -126.46 1393.7
-562.30 -126.16 1390.3
-556.22 -125.60 1384.1
-545.36 -123.95 1365.9
-538.63 -123.22 1357.9
-533.75 -122.90 1354.4
-523.44 -121.33 1337.1
-519.70 -121.26 1336.4
-529.26 -124.32 1370.1
-537.58 -127.13 1401.0
-536.89 -127.83 1408.8
-527.34 -126.42 1393.2
-518.57 -125.17 1379.4
-511.59 -124.35 1370.3
-507.08 -124.11 1367.8
-506.71 -124.89 1376.4
-497.41 -123.47 1360.7
-487.49 -121.87 1343.1
-485.42 -122.23 1347.0
-488.03 -123.77 1364.0
-496.22 -126.77 1397.1
-491.01 -126.36 1392.6
-479.24 -124.25 1369.2
-479.01 -125.11 1378.8
-483.28 -127.18 1401.6
-486.80 -129.08 1422.5
-488.62 -130.55 1438.7
-483.04 -130.05 1433.2
-468.64 -127.15 1401.2
-455.01 -124.42 1371.1
-462.40 -127.43 1404.4
-475.81 -132.17 1456.6
-469.32 -131.41 1448.2
-467.75 -132.03 1455.0
-476.73 -135.66 1495.0
-471.10 -135.15 1489.4
-458.94 -132.75 1463.0
-462.88 -135.01 1487.8
-469.05 -137.95 1520.3
-464.28 -137.71 1517.6
-459.80 -137.55 1515.8
-456.77 -137.82 1518.8
-445.19 -135.49 1493.2
-433.72 -133.16 1467.5
-443.10 -137.24 1512.5
-462.54 -144.54 1592.9
-464.23 -146.38 1613.2
-464.19 -147.70 1627.7
-488.45 -156.84 1728.5
-497.19 -161.13 1775.7
-484.66 -158.53 1747.1
-503.68 -166.31 1832.8
-1059.92 -178.30 1910.4
-1053.71 -178.09 1908.1
-1024.46 -173.97 1863.9
-966.21 -164.85 1766.3
-963.62 -165.19 1769.9
-976.69 -168.23 1802.5
-965.02 -167.02 1789.5
-937.85 -163.10 1747.6
-918.83 -160.57 1720.4
-921.89 -161.89 1734.6
-907.19 -160.09 1715.3
-916.24 -162.49 1740.9
-927.49 -165.29 1771.0
-880.12 -157.63 1688.9
-857.39 -154.33 1653.5
-859.49 -155.49 1665.9
-841.50 -153.00 1639.3
-853.54 -155.98 1671.2
-871.31 -160.04 1714.7
-834.49 -154.06 1650.6
-817.19 -151.64 1624.8
-852.17 -158.95 1703.1
-865.06 -162.20 1737.8
-838.88 -158.11 1694.1
-813.32 -154.10 1651.1
-805.92 -153.51 1644.7
-807.71 -154.67 1657.2
-817.71 -157.42 1686.6
-835.36 -161.68 1732.3
-834.29 -162.35 1739.5
-822.89 -161.00 1725.0
-788.06 -155.03 1661.0
-723.30 -143.07 1532.9
-715.81 -142.37 1525.4
-726.04 -145.21 1555.8
-702.16 -141.22 1513.0
-685.57 -138.65 1485.6
-691.52 -140.65 1507.0
-687.87 -140.70 1507.5
-673.10 -138.47 1483.6
-665.40 -137.67 1475.0
-657.32 -136.78 1465.5
-634.26 -132.75 1422.3
-616.64 -129.82 1390.9
-622.86 -131.90 1413.2
-634.98 -135.26 1449.2
-638.18 -136.75 1465.2
-627.46 -135.26 1449.2
-620.35 -134.53 1441.4
-612.87 -133.72 1432.7
-601.15 -131.96 1413.8
-604.63 -133.54 1430.8
-616.13 -136.92 1467.0
-616.73 -137.90 1477.5
-600.48 -135.11 1447.6
-587.02 -132.91 1424.0
-583.48 -132.94 1424.4
-570.54 -130.82 1401.7
-559.94 -129.22 1384.5
-557.22 -129.42 1386.6
-548.58 -128.24 1374.0
-546.60 -128.61 1378.0
-546.06 -129.33 1385.7
-534.95 -127.54 1366.5
-530.43 -127.30 1364.0
-532.38 -128.63 1378.2
-533.54 -129.78 1390.5
-538.55 -131.89 1413.1
-534.29 -131.74 1411.5
-533.53 -132.46 1419.3
-534.14 -133.53 1430.7
-517.71 -130.33 1396.4
-506.26 -128.35 1375.2
-514.74 -131.42 1408.1
-522.05 -134.24 1438.3
-506.93 -131.29 1406.7
-497.66 -129.82 1391.0
-499.12 -131.16 1405.2
-488.26 -129.24 1384.8
-482.10 -128.56 1377.4
-487.73 -131.03 1403.9
-481.56 -130.35 1396.6
-474.77 -129.48 1387.3
-482.75 -132.66 1421.4
-483.58 -133.91 1434.8
-468.54 -130.76 1401.0
-453.97 -127.68 1368.0
-451.71 -128.04 1371.9
-454.68 -129.91 1391.9
-456.63 -131.51 1409.0
-463.99 -134.71 1443.3
-469.37 -137.38 1471.9
-459.29 -135.53 1452.1
-435.58 -129.60 1388.5
-428.16 -128.45 1376.2
-444.57 -134.49 1441.0
-451.06 -137.61 1474.4
-452.19 -139.13 1490.7
-455.24 -141.28 1513.7
-453.34 -141.92 1520.5
-452.82 -143.00 1532.1
-446.64 -142.29 1524.6
-449.66 -144.53 1548.6
-467.71 -151.69 1625.3
-486.76 -159.30 1706.8
-498.91 -164.78 1765.5
-494.66 -164.89 1766.7
-486.68 -163.74 1754.4
-1056.34 -182.64 1903.9
-1067.00 -185.35 1932.2
-1023.48 -180.33 1879.9
-966.06 -171.03 1782.9
-946.87 -168.43 1755.9
-911.76 -162.97 1698.9
-919.59 -165.17 1721.8
-946.50 -170.83 1780.9
-945.69 -171.52 1788.1
-972.21 -177.20 1847.3
-977.23 -179.00 1866.0
-922.31 -169.78 1769.9
-893.46 -165.29 1723.1
-889.02 -165.29 1723.1
-872.28 -163.00 1699.2
-886.00 -166.41 1734.7
-890.10 -168.03 1751.6
-839.72 -159.33 1661.0
-798.68 -152.33 1587.9
-808.31 -154.96 1615.4
-804.95 -155.12 1617.1
-760.02 -147.23 1534.8
-781.91 -152.27 1587.3
-821.98 -160.92 1677.5
-817.16 -160.82 1676.5
-821.46 -162.53 1694.4
-810.10 -161.15 1679.9
-783.72 -156.74 1634.0
-786.27 -158.11 1648.2
-765.69 -154.81 1613.9
-718.48 -146.06 1522.7
-723.28 -147.85 1541.3
-742.75 -152.68 1591.6
-722.57 -149.36 1557.0
-702.96 -146.12 1523.3
-706.34 -147.65 1539.2
-706.34 -148.49 1548.0
-695.19 -146.98 1532.3
-673.86 -143.29 1493.8
-651.48 -139.33 1452.5
-643.87 -138.51 1443.9
-639.53 -138.38 1442.5
-629.96 -137.11 1429.3
-626.85 -137.24 1430.7
-639.64 -140.87 1468.6
-637.62 -141.27 1472.7
-614.70 -137.01 1428.3
-593.55 -133.10 1387.5
-590.50 -133.22 1388.8
-603.34 -136.95 1427.7
-602.89 -137.70 1435.5
-592.81 -136.24 1420.2
-598.06 -138.30 1441.8
-604.36 -140.64 1466.1
-595.06 -139.35 1452.7
-576.80 -135.93 1417.1
-557.96 -132.34 1379.6
-547.08 -130.59 1361.4
-553.26 -132.93 1385.7
-565.21 -136.69 1424.9
-559.46 -136.18 1419.7
-543.56 -133.19 1388.5
-522.74 -128.94 1344.2
-508.58 -126.29 1316.5
-518.44 -129.61 1351.2
-531.70 -133.83 1395.1
-532.41 -134.93 1406.6
-536.57 -136.92 1427.3
-538.90 -138.47 1443.5
-524.53 -135.72 1414.8
-499.96 -130.27 1358.0
-495.48 -130.02 1355.4
-509.03 -134.53 1402.4
-500.07 -133.11 1387.7
-495.53 -132.86 1385.0
-501.68 -135.49 1412.4
-493.78 -134.34 1400.4
-491.53 -134.72 1404.4
-497.43 -137.35 1431.8
-491.19 -136.65 1424.5
-463.70 -129.98 1355.0
-451.90 -127.64 1330.6
-468.84 -133.44 1391.1
-469.70 -134.72 1404.4
-461.40 -133.37 1390.4
-465.62 -135.65 1414.1
-466.64 -137.03 1428.5
-466.97 -138.22 1440.9
-461.45 -137.69 1435.4
-454.13 -136.61 1424.1
-454.08 -137.71 1435.6
-441.45 -134.99 1407.2
-431.02 -132.90 1385.4
-443.89 -138.02 1438.8
-450.38 -141.22 1472.2
-452.09 -142.97 1490.4
-451.98 -144.17 1502.9
-447.55 -143.99 1501.1
-462.60 -150.14 1565.2
-473.42 -155.01 1616.0
-453.72 -149.89 1562.6
-446.13 -148.71 1550.2
-476.54 -160.29 1671.0
-506.11 -171.80 1790.9
-503.41 -172.47 1797.9
-497.22 -171.94 1792.4
-486.57 -169.84 1770.5
-479.68 -169.03 1762.1
-1075.85 -189.27 1921.2
-981.06 -178.38 1810.6
-943.85 -172.43 1750.3
-927.60 -170.28 1728.4
-950.86 -175.40 1780.4
-980.45 -181.74 1844.7
-982.76 -183.06 1858.2
-945.11 -176.92 1795.8
-895.70 -168.50 1710.3
-897.27 -169.63 1721.8
-918.05 -174.43 1770.5
-877.88 -167.64 1701.6
-826.61 -158.64 1610.3
-833.72 -160.82 1632.4
-831.25 -161.16 1635.9
-838.21 -163.34 1658.0
-851.78 -166.84 1693.5
-829.99 -163.42 1658.8
-796.35 -157.61 1599.8
-758.54 -150.91 1531.8
-787.47 -157.49 1598.6
-835.84 -168.05 1705.8
-840.99 -169.99 1725.4
-832.15 -169.10 1716.4
-808.64 -165.21 1676.9
-779.68 -160.15 1625.6
-779.68 -161.02 1634.4
-793.72 -164.82 1672.9
-783.36 -163.56 1660.2
-765.02 -160.61 1630.3
-759.02 -160.24 1626.5
-742.55 -157.64 1600.1
-724.94 -154.76 1570.9
-713.26 -153.13 1554.3
-698.34 -150.78 1530.5
-695.05 -150.92 1531.9
-679.87 -148.48 1507.1
-658.68 -144.68 1468.6
-652.66 -144.19 1463.6
-652.31 -144.96 1471.4
-645.50 -144.29 1464.6
-626.72 -140.92 1430.4
-624.39 -141.23 1433.6
-640.25 -145.69 1478.8
-634.65 -145.28 1474.7
-606.74 -139.73 1418.4
-597.00 -138.33 1404.1
-602.05 -140.36 1424.7
-593.51 -139.22 1413.1
-580.03 -136.90 1389.6
-582.67 -138.39 1404.7
-586.39 -140.14 1422.5
-575.30 -138.36 1404.4
-571.05 -138.22 1402.9
-565.68 -137.79 1398.7
-552.90 -135.55 1375.9
-557.58 -137.58 1396.5
-571.33 -141.90 1440.3
-566.27 -141.57 1437.0
-553.60 -139.32 1414.1
-535.62 -135.69 1377.3
-521.38 -132.97 1349.7
-530.82 -136.29 1383.4
-536.55 -138.70 1407.9
-529.48 -137.81 1398.8
-521.74 -136.73 1387.9
-513.36 -135.47 1375.1
-511.95 -136.04 1380.9
-500.19 -133.85 1358.7
-478.62 -128.99 1309.3
-474.60 -128.82 1307.6
-489.49 -133.82 1358.3
-508.84 -140.12 1422.2
-508.90 -141.15 1432.8
-495.33 -138.40 1404.8
-490.77 -138.14 1402.2
-493.40 -139.92 1420.2
-495.30 -141.51 1436.4
-475.52 -136.89 1389.5
-447.00 -129.66 1316.1
-446.47 -130.51 1324.7
-460.75 -135.73 1377.7
-466.31 -138.44 1405.2
-469.56 -140.50 1426.1
-470.24 -141.82 1439.5
-473.92 -144.07 1462.4
-472.31 -144.74 1469.2
-458.87 -141.76 1439.0
-453.68 -141.31 1434.3
-445.82 -140.01 1421.1
-440.39 -139.46 1415.5
-445.55 -142.28 1444.2
-443.87 -142.94 1450.9
-448.51 -145.67 1478.6
-451.88 -148.03 1502.6
-443.46 -146.54 1487.4
-453.46 -151.15 1534.3
-477.23 -160.48 1629.0
-469.44 -159.28 1616.7
-446.85 -152.98 1552.8
-459.78 -158.83 1612.2
-496.52 -173.10 1757.0
-504.91 -177.65 1803.2
-494.44 -175.60 1782.4
-478.54 -171.55 1741.3
-457.34 -165.51 1680.0
-471.68 -172.34 1749.3
-1080.01 -198.68 1965.0
-1060.23 -196.90 1947.4
-997.95 -186.22 1841.7
-974.39 -182.70 1806.9
-969.80 -182.72 1807.1
-927.21 -175.54 1736.1
-896.58 -170.57 1686.9
-917.84 -175.47 1735.4
-903.64 -173.61 1717.0
-880.27 -169.95 1680.9
-904.91 -175.58 1736.5
-946.75 -184.62 1825.9
-925.19 -181.32 1793.3
-859.65 -169.33 1674.6
-853.94 -169.05 1672.0
-855.00 -170.13 1682.6
-867.25 -173.45 1715.4
-884.72 -177.86 1759.0
-864.14 -174.62 1727.0
-866.76 -176.06 1741.2
-867.54 -177.14 1752.0
-838.80 -172.17 1702.8
-831.73 -171.63 1697.4
-843.00 -174.88 1729.6
-841.10 -175.42 1734.9
-830.96 -174.23 1723.2
-813.54 -171.50 1696.2
-791.95 -167.86 1660.1
-785.87 -167.48 1656.4
-800.62 -171.56 1696.8
-807.59 -174.01 1721.0
-783.29 -169.71 1678.5
-750.36 -163.49 1616.9
-725.20 -158.89 1571.5
-705.63 -155.48 1537.7
-694.06 -153.80 1521.1
-693.25 -154.50 1528.0
-694.87 -155.75 1540.4
-688.69 -155.25 1535.5
-678.88 -153.93 1522.4
-675.58 -154.08 1523.9
-659.41 -151.28 1496.1
-631.78 -145.80 1441.9
-629.83 -146.21 1446.0
-645.65 -150.78 1491.2
-653.80 -153.60 1519.2
-639.51 -151.16 1494.9
-614.79 -146.20 1445.9
-605.41 -144.85 1432.6
-601.09 -144.71 1431.2
-590.64 -143.07 1415.0
-573.39 -139.76 1382.3
-558.94 -137.10 1355.9
-559.32 -138.06 1365.4
-565.67 -140.52 1389.7
-567.42 -141.86 1403.0
-561.32 -141.23 1396.8
-553.76 -140.24 1387.0
-555.42 -141.58 1400.2
-555.56 -142.55 1409.8
-546.95 -141.26 1397.1
-537.30 -139.70 1381.6
-530.95 -138.97 1374.5
-530.70 -139.85 1383.1
-527.21 -139.87 1383.3
-525.48 -140.37 1388.3
-522.67 -140.58 1390.4
-505.93 -137.02 1355.2
-496.61 -135.44 1339.5
-506.62 -139.14 1376.1
-506.54 -140.11 1385.7
-496.23 -138.24 1367.2
-505.92 -141.95 1403.9
-513.42 -145.10 1435.0
-501.45 -142.75 1411.8
-485.28 -139.16 1376.3
-477.50 -137.94 1364.3
-480.22 -139.77 1382.3
-481.56 -141.21 1396.6
-476.70 -140.84 1393.0
-461.62 -137.43 1359.2
-458.45 -137.54 1360.2
-469.49 -141.94 1403.8
-468.40 -142.72 1411.5
-465.72 -143.02 1414.4
-462.41 -143.13 1415.5
-463.07 -144.48 1428.9
-468.85 -147.46 1458.4
-464.21 -147.19 1455.7
-459.27 -146.82 1452.0
-452.27 -145.77 1441.7
-440.88 -143.28 1417.1
-439.87 -144.16 1425.7
-445.51 -147.25 1456.3
-458.23 -152.74 1510.7
-459.80 -154.59 1528.9
-448.76 -152.19 1505.2
-431.07 -147.47 1458.5
-424.51 -146.51 1449.0
-451.57 -157.24 1555.1
-466.29 -163.83 1620.3
-458.03 -162.39 1606.1
-469.06 -167.83 1659.9
-482.78 -174.34 1724.2
-478.89 -174.55 1726.3
-491.88 -180.97 1789.8
-480.89 -180.33 1783.5
-487.10 -184.44 1824.1
-1061.08 -199.26 1921.5
-1069.71 -201.83 1946.2
-1066.30 -202.14 1949.2
-1014.30 -193.20 1863.0
-988.73 -189.23 1824.7
-996.41 -191.62 1847.7
-1009.16 -195.01 1880.4
-976.75 -189.66 1828.9
-922.10 -179.92 1735.0
-927.42 -181.85 1753.5
-925.71 -182.41 1758.9
-914.74 -181.14 1746.7
-925.43 -184.17 1775.9
-954.34 -190.87 1840.5
