ply
format ascii 1.0
element vertex 2280
property float x
property float y
property float z
end_header
868.22 702.84 1594.7
464.46 769.55 1756.4
444.05 728.58 1662.9
453.15 736.37 1680.6
465.96 749.98 1711.7
442.31 705.19 1609.5
420.12 663.56 1514.5
420.33 657.74 1501.2
420.72 652.31 1488.8
431.67 663.20 1513.6
441.96 672.90 1535.8
433.86 654.66 1494.2
425.04 635.67 1450.8
425.67 631.03 1440.2
433.62 637.23 1454.4
438.45 638.78 1457.9
443.84 641.10 1463.2
447.90 641.48 1464.1
435.91 619.07 1412.9
422.04 594.37 1356.5
432.74 604.41 1379.5
454.41 629.47 1436.7
437.09 600.56 1370.7
444.20 600.56 1370.7
455.20 610.55 1393.5
444.65 591.71 1350.5
447.57 590.93 1348.7
459.55 602.05 1374.1
466.64 606.64 1384.5
473.18 610.44 1393.2
485.15 621.14 1417.6
494.82 628.75 1435.0
492.43 621.05 1417.5
483.86 605.72 1382.5
486.80 604.92 1380.6
491.59 606.41 1384.0
489.22 599.12 1367.4
482.70 586.88 1339.5
479.21 578.47 1320.3
486.10 582.63 1329.7
497.50 592.09 1351.4
505.14 596.99 1362.5
505.72 593.52 1354.6
504.95 588.53 1343.2
505.77 585.45 1336.2
512.81 589.56 1345.6
521.89 595.94 1360.1
524.02 594.36 1356.5
530.50 597.70 1364.1
538.02 602.16 1374.3
531.67 591.13 1349.2
520.08 574.47 1311.1
522.73 573.65 1309.3
530.56 578.48 1320.3
537.05 581.80 1327.9
542.16 583.60 1332.0
550.81 589.16 1344.7
562.34 597.71 1364.2
559.04 590.49 1347.7
552.09 579.53 1322.7
556.52 580.56 1325.0
566.36 587.21 1340.2
574.83 592.35 1351.9
572.39 586.27 1338.1
572.83 583.18 1331.0
581.71 588.68 1343.6
582.12 585.59 1336.5
578.41 578.41 1320.1
582.47 579.05 1321.6
582.03 575.22 1312.8
582.68 572.52 1306.7
599.64 585.77 1336.9
611.77 594.19 1356.1
611.31 590.35 1347.4
616.60 592.08 1351.3
633.14 604.52 1379.7
642.02 609.55 1391.2
646.64 610.51 1393.4
646.55 607.04 1385.5
627.86 586.24 1338.0
619.28 575.05 1312.5
648.85 599.21 1367.6
689.06 632.89 1444.5
681.34 622.42 1420.6
658.97 598.74 1366.5
670.86 606.29 1383.8
704.43 633.24 1445.3
725.98 649.15 1481.6
681.05 605.78 1382.6
668.33 591.35 1349.7
700.27 616.38 1406.8
689.12 603.42 1377.2
689.13 600.33 1370.1
731.14 633.65 1446.2
757.85 653.45 1491.4
768.65 659.40 1505.0
801.63 684.22 1561.6
806.23 684.69 1562.7
781.65 660.49 1507.5
785.70 660.61 1507.7
829.96 694.37 1584.8
880.19 732.77 1672.4
898.53 744.37 1698.9
889.84 733.57 1674.3
886.75 727.48 1660.4
926.00 745.21 1700.8
944.31 756.35 1726.2
455.15 742.38 1704.4
454.27 733.83 1684.8
465.89 745.43 1711.4
441.97 700.48 1608.3
414.34 650.55 1493.6
410.76 638.96 1467.0
419.34 646.33 1483.9
437.87 668.75 1535.4
454.86 688.43 1580.6
453.54 680.31 1561.9
442.27 657.54 1509.7
439.38 647.51 1486.6
438.22 640.19 1469.8
434.06 628.64 1443.3
436.19 626.33 1438.0
436.95 622.10 1428.3
444.73 627.86 1441.5
449.29 629.00 1444.1
433.95 602.51 1383.3
429.74 591.77 1358.7
446.18 609.41 1399.2
461.67 625.49 1436.1
479.05 643.84 1478.2
482.28 643.04 1476.4
466.14 616.62 1415.7
464.26 609.34 1399.0
476.66 620.77 1425.2
484.17 625.70 1436.6
481.03 616.89 1416.3
483.77 615.71 1413.6
482.28 609.20 1398.7
468.28 587.09 1347.9
476.95 593.53 1362.7
497.06 614.02 1409.7
500.99 614.35 1410.5
497.75 605.95 1391.2
490.33 592.63 1360.6
485.93 583.12 1338.8
490.64 584.60 1342.2
501.12 592.88 1361.2
513.94 603.79 1386.3
519.10 605.62 1390.5
522.00 604.80 1388.6
526.85 606.24 1391.9
524.79 599.76 1377.0
524.99 595.93 1368.2
524.47 591.34 1357.7
528.60 592.03 1359.3
538.14 598.72 1374.6
533.82 590.01 1354.6
526.33 577.93 1326.9
533.14 581.61 1335.3
528.93 573.29 1316.2
522.54 562.74 1292.0
530.38 567.54 1303.0
542.13 576.44 1323.5
553.97 585.33 1343.9
549.91 577.40 1325.7
548.26 572.10 1313.5
558.06 578.73 1328.7
557.80 574.91 1320.0
556.05 569.61 1307.8
563.01 573.24 1316.1
573.30 580.21 1332.1
591.41 594.95 1366.0
600.77 600.77 1379.3
597.14 593.61 1362.9
602.06 594.97 1366.0
609.99 599.29 1375.9
618.73 604.34 1387.5
618.76 600.88 1379.6
613.79 592.63 1360.6
606.81 582.54 1337.5
604.36 576.89 1324.5
631.71 599.59 1376.6
651.89 615.26 1412.6
650.29 610.33 1401.3
643.53 600.63 1379.0
646.15 599.74 1377.0
660.67 609.85 1400.2
658.14 604.20 1387.2
665.17 607.33 1394.4
673.03 611.19 1403.2
667.18 602.62 1383.6
687.64 617.78 1418.4
731.51 653.69 1500.8
754.42 670.59 1539.6
708.75 626.69 1438.8
668.03 587.59 1349.0
671.34 587.42 1348.7
678.40 590.52 1355.8
698.47 604.86 1388.7
744.75 641.63 1473.1
774.07 663.49 1523.3
759.50 647.70 1487.1
761.81 646.38 1484.0
783.34 661.31 1518.3
779.68 654.93 1503.7
770.35 643.88 1478.3
795.11 661.28 1518.2
846.11 700.23 1607.7
868.25 715.03 1641.6
887.89 727.64 1670.6
920.85 750.99 1724.2
885.60 718.75 1650.2
845.17 682.64 1567.3
884.47 710.96 1632.3
924.92 739.94 1698.8
920.82 733.17 1683.3
469.09 753.25 1739.8
470.91 748.98 1729.9
461.68 727.37 1680.0
444.06 693.07 1600.8
428.80 663.05 1531.4
428.25 656.13 1515.4
438.26 665.35 1536.7
448.11 674.19 1557.1
446.73 666.11 1538.5
436.17 644.61 1488.8
427.47 626.20 1446.3
420.40 610.49 1410.0
417.68 601.31 1388.8
421.02 600.95 1388.0
435.98 617.02 1425.1
456.57 640.73 1479.9
461.76 642.62 1484.2
447.06 617.01 1425.1
433.74 593.73 1371.3
440.95 598.69 1382.8
459.81 619.26 1430.3
480.61 642.09 1483.0
487.29 645.86 1491.7
474.06 623.37 1439.8
473.98 618.40 1428.3
488.52 632.42 1460.7
489.02 628.21 1450.9
479.06 610.71 1410.5
474.30 600.06 1385.9
465.50 584.50 1350.0
465.64 580.32 1340.3
488.67 604.50 1396.2
504.88 619.96 1431.9
505.14 615.75 1422.2
508.47 615.32 1421.2
508.02 610.36 1409.7
494.56 589.94 1362.6
491.38 581.99 1344.2
504.11 592.86 1369.3
518.57 605.60 1398.7
523.76 607.41 1402.9
526.36 606.22 1400.2
530.91 607.27 1402.6
528.21 600.07 1386.0
521.77 588.76 1359.8
514.88 577.08 1332.9
516.94 575.53 1329.3
525.40 581.08 1342.1
533.92 586.61 1354.9
539.42 588.78 1359.9
543.22 589.08 1360.6
534.56 575.95 1330.2
529.24 566.56 1308.6
538.52 572.82 1323.0
541.88 572.74 1322.8
545.23 572.67 1322.7
554.28 578.53 1336.2
566.24 587.34 1356.6
572.54 590.21 1363.2
568.02 581.96 1344.1
563.42 573.72 1325.1
566.39 573.26 1324.0
570.47 573.90 1325.5
581.93 581.93 1344.1
600.52 596.95 1378.7
606.96 599.77 1385.3
603.30 592.65 1368.8
602.95 588.85 1360.0
620.74 602.70 1392.0
630.30 608.44 1405.3
610.85 586.27 1354.1
587.32 560.47 1294.5
583.22 553.40 1278.2
610.49 576.00 1330.4
630.96 591.97 1367.3
628.48 586.35 1354.3
637.75 591.69 1366.6
656.56 605.77 1399.1
659.21 604.88 1397.1
642.30 586.14 1353.8
647.25 587.45 1356.8
654.23 590.57 1364.0
647.88 581.70 1343.5
667.05 595.71 1375.9
688.80 611.86 1413.2
689.39 609.15 1406.9
690.78 607.16 1402.3
692.96 605.89 1399.4
686.83 597.39 1379.8
686.03 593.61 1371.0
701.95 604.25 1395.6
744.91 637.95 1473.4
761.99 649.25 1499.6
737.60 625.27 1444.2
730.01 615.71 1422.1
738.58 619.82 1431.6
765.67 639.34 1476.7
790.36 656.67 1516.7
786.19 649.97 1501.2
803.70 661.17 1527.1
844.02 690.94 1595.8
880.24 717.08 1656.2
912.32 739.60 1708.2
882.30 711.81 1644.0
816.54 655.59 1514.2
821.02 656.03 1515.2
888.97 706.95 1632.8
923.76 731.13 1688.7
929.06 731.85 1690.3
944.05 733.28 1693.6
438.77 728.36 1692.4
474.00 749.37 1741.2
455.24 712.92 1656.5
448.16 695.28 1615.5
441.38 678.42 1576.4
435.66 663.49 1541.7
441.43 666.16 1547.9
439.31 656.98 1526.5
427.54 633.68 1472.4
422.79 621.08 1443.1
419.20 610.41 1418.3
415.22 599.36 1392.7
416.18 595.57 1383.9
429.17 608.91 1414.9
453.14 637.46 1481.2
453.96 633.26 1471.4
440.73 609.68 1416.6
444.40 609.67 1416.6
448.63 610.43 1418.4
444.42 599.79 1393.7
451.71 604.71 1405.1
467.61 620.99 1442.9
468.75 617.56 1434.9
460.29 601.64 1398.0
465.06 603.13 1401.4
485.71 625.02 1452.3
492.70 629.14 1461.8
477.39 604.94 1405.6
467.51 587.93 1366.1
467.11 583.01 1354.7
475.16 588.63 1367.7
490.93 603.66 1402.6
499.76 610.01 1417.4
501.22 607.32 1411.2
506.09 608.77 1414.5
511.91 611.35 1420.5
504.16 597.78 1389.0
501.34 590.24 1371.5
515.11 602.17 1399.2
518.36 601.73 1398.2
511.55 589.70 1370.2
503.95 576.94 1340.6
498.19 566.43 1316.2
505.85 571.24 1327.3
509.25 571.18 1327.2
504.95 562.56 1307.2
509.97 564.37 1311.4
516.71 568.04 1319.9
522.80 570.95 1326.6
526.18 570.89 1326.5
527.49 568.59 1321.2
534.31 572.23 1329.6
544.66 579.57 1346.7
554.02 585.78 1361.1
557.47 585.70 1360.9
557.72 582.28 1353.0
564.35 585.51 1360.5
569.57 587.26 1364.5
568.33 582.37 1353.2
575.36 585.95 1361.5
580.98 588.06 1366.4
581.85 585.38 1360.2
583.43 583.43 1355.6
586.47 582.96 1354.5
596.55 589.45 1369.6
602.97 592.27 1376.2
599.66 585.55 1360.6
611.36 593.48 1379.0
643.23 620.79 1442.5
649.09 622.83 1447.2
623.97 595.28 1383.2
598.95 568.14 1320.1
593.35 559.64 1300.4
610.59 572.64 1330.6
621.71 579.80 1347.2
624.67 579.30 1346.1
639.83 590.07 1371.1
654.31 600.08 1394.3
651.79 594.49 1381.3
651.60 591.07 1373.4
671.85 606.12 1408.4
687.40 616.81 1433.2
691.73 617.35 1434.5
707.04 627.64 1458.4
724.90 640.07 1487.3
717.84 630.49 1465.0
712.75 622.72 1446.9
718.35 624.32 1450.7
711.06 614.77 1428.5
693.24 596.26 1385.5
691.59 591.77 1375.0
706.74 601.63 1397.9
694.91 588.55 1367.5
697.82 588.01 1366.3
718.20 602.13 1399.1
723.31 603.36 1402.0
745.62 618.87 1438.0
785.79 648.96 1507.9
801.10 658.33 1529.7
803.45 657.01 1526.6
825.00 671.33 1559.9
835.29 676.38 1571.6
835.49 673.26 1564.4
853.35 684.33 1590.1
841.13 671.28 1559.8
863.08 685.51 1592.8
943.32 745.67 1732.6
937.87 734.37 1706.4
422.93 697.83 1631.3
456.42 745.64 1743.0
466.38 747.11 1746.5
454.52 721.12 1685.7
449.90 706.98 1652.7
436.53 679.51 1588.5
432.49 666.93 1559.1
426.06 650.93 1521.7
420.46 636.47 1487.9
435.73 653.60 1527.9
442.76 658.16 1538.6
431.27 635.35 1485.2
426.28 622.44 1455.1
430.84 623.58 1457.7
435.15 624.34 1459.5
435.73 619.79 1448.9
448.08 631.91 1477.2
458.95 641.75 1500.2
447.26 620.16 1449.7
441.11 606.53 1417.9
452.27 616.73 1441.7
455.72 616.34 1440.8
450.44 604.24 1412.5
450.69 599.70 1401.9
459.74 606.85 1418.6
466.56 610.98 1428.3
464.16 603.04 1409.7
462.84 596.63 1394.7
477.31 610.51 1427.2
491.93 624.38 1459.6
483.46 608.94 1423.5
470.91 588.64 1376.0
467.81 580.37 1356.7
467.35 575.47 1345.3
474.50 579.94 1355.7
498.34 604.60 1413.4
515.00 620.25 1449.9
509.33 608.98 1423.6
503.85 598.10 1398.1
503.95 593.94 1388.4
509.73 596.50 1394.4
526.12 611.34 1429.1
532.99 614.99 1437.6
520.42 596.31 1394.0
507.32 577.29 1349.5
501.23 566.46 1324.2
508.92 571.24 1335.4
520.65 580.46 1356.9
525.45 581.88 1360.2
522.86 575.14 1344.5
521.20 569.52 1331.4
519.14 563.54 1317.4
514.28 554.62 1296.5
518.62 555.67 1299.0
527.82 561.88 1313.5
542.32 573.61 1340.9
556.23 584.58 1366.5
554.05 578.60 1352.6
547.55 568.21 1328.3
546.28 563.35 1316.9
543.88 557.40 1303.0
554.39 564.66 1320.0
572.94 579.97 1355.8
575.26 578.77 1353.0
572.81 572.81 1339.0
586.48 582.95 1362.7
603.59 596.36 1394.1
614.14 603.17 1410.0
621.02 606.32 1417.4
620.42 602.17 1407.7
635.63 613.33 1433.8
633.13 607.36 1419.8
603.87 575.94 1346.4
609.91 578.37 1352.0
617.13 581.87 1360.2
610.08 571.95 1337.0
626.24 583.78 1364.7
631.58 585.45 1368.6
629.09 579.89 1355.6
639.94 586.61 1371.3
650.07 592.61 1385.3
664.64 602.56 1408.6
683.70 616.45 1441.1
680.01 609.79 1425.5
671.40 598.82 1399.8
689.84 611.95 1430.5
721.43 636.56 1488.1
741.41 650.71 1521.1
735.25 641.88 1500.5
717.02 622.68 1455.6
708.13 611.74 1430.0
707.04 607.61 1420.4
692.94 592.41 1384.9
688.35 585.45 1368.6
699.28 591.69 1383.2
689.95 580.82 1357.8
694.11 581.36 1359.0
733.27 611.06 1428.4
759.01 629.33 1471.2
762.12 628.75 1469.8
780.77 640.93 1498.3
790.00 645.30 1508.5
786.64 639.38 1494.7
796.77 644.45 1506.5
796.41 641.01 1498.5
792.93 635.12 1484.7
803.99 640.86 1498.1
832.43 660.34 1543.7
896.73 707.94 1654.9
940.00 738.57 1726.5
914.37 715.03 1671.5
911.96 709.78 1659.2
414.42 700.66 1647.9
444.12 735.72 1730.3
455.79 747.50 1758.1
447.45 726.56 1708.8
442.41 711.33 1673.0
436.72 695.36 1635.4
439.75 693.46 1631.0
443.73 693.07 1630.0
438.39 678.26 1595.2
434.11 665.37 1564.9
426.69 647.93 1523.9
418.56 629.76 1481.1
431.29 643.02 1512.3
445.45 658.15 1547.9
440.68 645.28 1517.6
434.20 630.16 1482.1
438.04 630.16 1482.1
437.91 624.50 1468.8
434.25 613.93 1443.9
439.87 616.57 1450.1
443.63 616.56 1450.1
446.83 615.80 1448.3
455.26 622.19 1463.3
459.87 623.30 1465.9
457.79 615.39 1447.3
455.89 607.86 1429.6
459.59 607.84 1429.6
461.56 605.57 1424.2
461.78 601.05 1413.6
466.59 602.52 1417.1
472.29 605.12 1423.2
477.13 606.58 1426.6
481.39 607.30 1428.3
477.01 597.18 1404.5
468.01 581.47 1367.6
473.35 583.68 1372.8
481.76 589.61 1386.7
481.03 584.36 1374.4
497.83 600.33 1411.9
518.85 621.11 1460.8
516.95 614.35 1444.9
515.61 608.34 1430.8
519.58 608.65 1431.5
513.35 597.09 1404.3
517.90 598.14 1406.8
520.20 596.59 1403.1
503.31 573.21 1348.1
504.47 570.57 1341.9
512.51 575.69 1354.0
510.67 569.73 1340.0
512.43 567.83 1335.5
528.90 582.15 1369.2
538.45 588.71 1384.6
533.50 579.43 1362.8
528.10 569.79 1340.1
516.42 553.55 1301.9
514.22 547.61 1287.9
524.10 554.53 1304.2
537.53 565.10 1329.1
548.62 573.08 1347.8
542.86 563.48 1325.3
535.94 552.79 1300.1
534.96 548.33 1289.6
539.67 549.72 1292.9
557.73 564.61 1327.9
564.70 568.17 1336.3
554.59 554.59 1304.4
571.07 567.61 1335.0
606.10 598.80 1408.3
608.52 597.58 1405.5
603.84 589.47 1386.4
611.80 593.70 1396.3
611.90 590.30 1388.3
606.68 581.84 1368.4
585.04 557.83 1312.0
576.12 546.15 1284.5
603.50 568.81 1337.8
628.03 588.55 1384.2
639.21 595.63 1400.9
643.07 595.84 1401.4
634.82 584.89 1375.6
624.48 572.15 1345.6
628.22 572.37 1346.2
631.56 572.24 1345.9
640.07 576.77 1356.5
659.03 590.61 1389.1
655.22 584.00 1373.5
642.45 569.52 1339.5
657.12 579.39 1362.7
681.25 597.46 1405.2
692.47 604.07 1420.7
696.35 604.24 1421.1
687.44 593.37 1395.6
686.29 589.27 1385.9
693.84 592.66 1393.9
703.94 598.16 1406.8
725.42 613.24 1442.3
738.20 620.85 1460.2
730.29 611.06 1437.2
713.78 594.21 1397.5
730.41 604.99 1422.9
763.88 629.53 1480.6
776.05 636.36 1496.7
777.91 634.71 1492.8
769.33 624.60 1469.0
782.00 631.77 1485.9
812.69 653.34 1536.6
809.32 647.45 1522.8
803.67 639.82 1504.8
825.85 654.30 1538.9
869.06 685.22 1611.6
861.26 675.82 1589.5
823.34 642.99 1512.3
879.08 683.27 1607.0
939.17 723.11 1700.7
891.74 683.39 1607.3
408.58 679.58 1608.1
432.32 711.80 1684.4
458.19 732.20 1732.6
444.51 703.45 1664.6
451.47 707.59 1674.4
457.74 710.59 1681.5
446.38 686.42 1624.3
438.20 667.54 1579.6
423.31 638.89 1511.8
409.10 611.77 1447.7
421.25 624.22 1477.1
434.31 637.77 1509.2
432.80 629.87 1490.5
429.10 618.97 1464.7
434.74 621.60 1470.9
436.43 618.60 1463.8
431.42 606.22 1434.5
436.75 608.47 1439.8
445.91 615.96 1457.6
454.05 621.94 1471.7
460.61 625.66 1480.5
463.32 624.14 1476.9
460.98 615.90 1457.4
458.26 607.28 1437.0
459.41 603.90 1429.0
459.38 599.03 1417.5
454.68 588.20 1391.9
454.80 583.72 1381.3
463.92 590.77 1398.0
471.94 596.33 1411.1
489.51 613.77 1452.4
499.51 621.53 1470.8
485.54 599.57 1418.8
486.46 596.19 1410.8
492.22 598.75 1416.8
488.80 590.18 1396.6
496.09 594.58 1407.0
508.41 604.89 1431.4
504.87 596.33 1411.1
502.18 588.89 1393.5
508.92 592.53 1402.1
505.16 583.98 1381.9
499.39 573.24 1356.5
491.23 559.93 1325.0
483.89 547.74 1296.1
494.75 556.16 1316.1
508.98 568.25 1344.7
512.75 568.56 1345.4
511.19 563.00 1332.2
524.31 573.58 1357.3
546.32 593.66 1404.8
553.95 597.97 1415.0
560.26 600.81 1421.7
560.77 597.42 1413.7
544.67 576.50 1364.2
539.45 567.30 1342.4
544.60 569.04 1346.6
546.61 567.50 1342.9
540.13 557.22 1318.6
532.47 545.87 1291.7
544.67 554.89 1313.1
563.43 570.43 1349.8
574.05 577.60 1366.8
573.87 573.87 1358.0
573.64 570.14 1349.2
600.86 593.58 1404.6
624.56 609.60 1442.5
599.11 581.28 1375.5
586.84 566.00 1339.4
587.56 563.37 1333.1
583.34 556.05 1315.8
582.46 551.99 1306.2
595.29 560.88 1327.2
618.18 579.10 1370.3
637.01 593.33 1404.0
624.61 578.47 1368.9
604.65 556.82 1317.6
617.71 565.66 1338.5
629.30 573.05 1356.0
632.66 572.91 1355.7
635.23 572.05 1353.7
634.99 568.70 1345.7
645.93 575.34 1361.4
654.52 579.82 1372.1
653.86 576.11 1363.3
653.97 573.11 1356.2
663.84 578.64 1369.3
666.38 577.77 1367.2
658.22 567.67 1343.3
674.33 578.51 1369.0
700.10 597.47 1413.8
691.46 587.02 1389.1
684.80 578.36 1368.6
723.46 607.85 1438.4
755.23 631.29 1493.9
744.42 619.08 1465.0
724.97 599.85 1419.4
733.96 604.22 1429.8
758.02 620.89 1469.2
771.90 629.10 1488.7
775.03 628.51 1487.3
793.37 640.19 1514.9
838.43 673.22 1593.1
850.09 679.24 1607.3
822.68 654.13 1547.9
803.84 636.05 1505.1
808.30 636.49 1506.2
863.49 676.67 1601.2
873.51 681.25 1612.1
810.06 628.76 1487.9
829.33 640.67 1516.0
911.51 700.83 1658.4
875.03 669.62 1584.6
846.43 644.71 1525.6
954.16 723.39 1711.8
449.08 742.36 1767.5
459.18 751.39 1789.0
452.67 718.94 1711.8
447.05 703.13 1674.1
462.24 720.02 1714.3
466.18 719.24 1712.5
452.42 691.43 1646.3
447.01 676.78 1611.4
434.18 651.27 1550.6
413.74 614.92 1464.1
420.60 619.43 1474.8
442.38 645.64 1537.2
447.91 647.87 1542.6
437.30 626.92 1492.7
437.48 621.69 1480.2
445.56 627.66 1494.4
447.02 624.29 1486.4
449.25 622.04 1481.0
456.61 626.87 1492.5
452.25 615.67 1465.9
446.39 602.63 1434.8
456.77 611.54 1456.1
460.81 611.90 1456.9
459.21 604.82 1440.0
460.94 602.20 1433.8
454.33 588.82 1401.9
443.82 570.63 1358.6
447.92 571.37 1360.4
460.80 583.20 1388.6
466.45 585.77 1394.7
482.21 600.91 1430.7
501.43 620.09 1476.4
496.49 609.32 1450.8
485.66 591.56 1408.5
479.82 580.09 1381.2
470.48 564.57 1344.2
472.08 562.34 1338.9
475.53 562.31 1338.8
470.12 547.91 1304.6
487.45 564.04 1343.0
494.41 568.04 1352.5
499.48 569.83 1356.7
499.72 566.12 1347.9
501.22 563.87 1342.5
506.95 566.38 1348.5
515.01 571.45 1360.6
525.77 579.42 1379.6
530.62 580.81 1382.9
526.42 572.35 1362.7
530.23 572.65 1363.4
544.22 583.87 1390.2
557.31 593.97 1414.2
570.16 603.70 1437.4
566.19 595.60 1418.1
556.22 581.34 1384.1
556.58 577.99 1376.2
568.49 586.60 1396.7
572.72 587.22 1398.1
554.93 565.40 1346.2
557.26 564.23 1343.4
567.84 571.36 1360.4
570.18 570.18 1357.6
582.32 578.74 1378.0
594.17 586.93 1397.4
602.08 591.13 1407.5
610.03 595.33 1417.5
616.17 597.72 1423.1
601.83 580.34 1381.8
584.68 560.47 1334.4
580.13 552.83 1316.3
579.65 549.14 1307.5
583.31 549.39 1308.1
602.64 564.32 1343.6
630.57 587.08 1397.8
635.97 588.73 1401.7
608.04 559.67 1332.5
594.60 544.21 1295.7
615.46 560.14 1333.7
623.10 563.93 1342.7
620.51 558.46 1329.7
635.33 568.63 1353.9
646.66 575.59 1370.5
654.05 578.99 1378.6
660.67 581.67 1384.9
650.73 569.83 1356.7
641.48 558.71 1330.3
647.21 560.69 1335.0
646.81 557.36 1327.1
649.67 556.86 1325.9
678.16 578.22 1376.7
700.22 593.90 1414.1
687.40 579.99 1380.9
674.44 566.11 1347.9
704.24 588.07 1400.2
724.54 601.93 1433.2
705.53 583.14 1388.4
692.29 569.29 1355.5
706.28 577.87 1375.9
743.99 605.66 1442.0
772.48 625.71 1489.8
769.99 620.59 1477.6
782.66 627.68 1494.5
796.71 635.80 1513.8
776.66 616.76 1468.5
781.05 617.22 1469.6
792.51 623.24 1483.9
779.64 610.15 1452.7
808.03 629.33 1498.4
861.20 667.53 1589.4
850.58 656.16 1562.3
829.50 636.86 1516.3
857.04 654.90 1559.3
880.21 669.46 1593.9
928.12 702.59 1672.8
943.89 711.21 1693.4
913.87 685.40 1631.9
471.65 759.36 1819.2
451.45 719.64 1724.1
438.84 692.67 1659.5
446.00 697.15 1670.2
448.88 694.89 1664.8
442.70 678.81 1626.3
436.34 662.75 1587.8
435.74 655.65 1570.8
440.81 657.14 1574.3
435.30 642.96 1540.4
438.27 641.47 1536.8
457.39 663.43 1589.4
458.13 658.57 1577.8
441.85 629.54 1508.2
444.96 628.41 1505.5
456.29 638.80 1530.4
459.44 637.67 1527.7
464.46 639.13 1531.2
450.48 614.63 1472.5
426.63 577.20 1382.8
426.35 572.02 1370.4
441.59 587.57 1407.7
458.12 604.57 1448.4
468.35 613.05 1468.7
458.49 595.29 1426.2
440.11 566.86 1358.0
444.49 567.96 1360.7
462.84 586.75 1405.7
473.49 595.56 1426.8
477.16 595.53 1426.7
480.84 595.50 1426.7
486.90 598.40 1433.6
487.87 595.05 1425.6
482.13 583.63 1398.2
484.81 582.49 1395.5
484.09 577.32 1383.1
476.19 563.73 1350.5
469.70 551.98 1322.4
472.79 551.59 1321.5
495.44 573.86 1374.8
505.64 581.48 1393.1
505.36 577.05 1382.5
511.15 579.55 1388.4
511.46 575.84 1379.6
507.82 567.77 1360.2
508.02 564.08 1351.4
513.12 565.84 1355.6
519.90 569.41 1364.2
529.39 575.89 1379.7
529.54 572.19 1370.8
512.42 550.00 1317.7
505.93 539.44 1292.3
524.61 555.67 1331.3
542.09 570.44 1366.6
545.91 570.72 1367.3
544.16 565.22 1354.1
538.50 555.76 1331.4
544.34 558.20 1337.3
570.71 581.54 1393.2
574.93 582.16 1394.7
564.86 568.39 1361.7
563.26 563.26 1349.4
561.25 557.78 1336.3
570.07 563.07 1349.0
570.18 559.75 1341.0
566.21 552.48 1323.6
576.93 559.55 1340.5
584.38 563.38 1349.7
593.73 568.99 1363.2
600.89 572.45 1371.4
583.98 553.06 1325.0
570.64 537.27 1287.2
578.44 541.45 1297.2
602.35 560.57 1343.0
614.54 568.63 1362.3
600.94 552.86 1324.5
599.98 548.84 1314.9
616.13 560.43 1342.6
620.25 561.01 1344.0
608.63 547.43 1311.5
612.69 548.01 1312.9
634.63 564.50 1352.4
644.36 570.01 1365.6
649.74 571.63 1369.5
658.76 576.42 1380.9
651.64 567.10 1358.6
659.05 570.47 1366.7
682.42 587.54 1407.6
671.10 574.72 1376.9
665.00 566.49 1357.2
677.03 573.69 1374.4
682.47 575.27 1378.2
696.69 584.20 1399.6
710.58 592.77 1420.1
699.30 580.35 1390.4
679.43 560.97 1343.9
671.67 551.73 1321.8
671.07 548.44 1313.9
696.97 566.73 1357.7
746.70 604.11 1447.3
762.27 613.63 1470.1
746.73 598.13 1433.0
764.10 609.01 1459.0
783.77 621.61 1489.2
767.15 605.45 1450.5
773.26 607.29 1454.9
801.50 626.41 1500.7
808.62 628.93 1506.7
801.06 620.05 1485.5
808.61 622.90 1492.3
835.95 640.89 1535.4
857.60 654.38 1567.7
879.38 667.83 1599.9
896.75 677.82 1623.9
902.36 678.88 1626.4
873.68 654.24 1567.4
865.41 645.05 1545.4
906.81 672.80 1611.8
441.30 713.21 1719.3
407.79 652.46 1572.9
431.15 683.02 1646.6
457.73 718.00 1730.9
460.28 715.00 1723.7
459.17 706.42 1703.0
444.79 677.78 1633.9
431.31 651.03 1569.4
420.98 629.50 1517.5
418.41 619.86 1494.3
433.40 636.18 1533.7
454.44 661.00 1593.5
456.50 658.02 1586.3
442.46 632.09 1523.8
437.53 619.51 1493.5
449.82 631.33 1522.0
455.08 633.16 1526.4
453.14 625.02 1506.7
457.57 625.74 1508.5
443.52 601.38 1449.8
425.34 571.89 1378.7
430.86 574.48 1384.9
447.53 591.77 1426.6
464.68 609.42 1469.1
472.71 614.90 1482.4
459.44 592.83 1429.1
447.07 572.25 1379.5
457.86 581.41 1401.6
465.26 586.16 1413.1
464.22 580.27 1398.9
474.91 589.03 1420.0
486.59 598.88 1443.7
490.90 599.57 1445.4
489.48 593.31 1430.3
485.57 584.14 1408.2
489.79 584.83 1409.9
496.80 588.79 1419.4
496.41 584.01 1407.9
501.89 586.14 1413.0
517.74 600.28 1447.1
524.91 604.21 1456.6
518.13 592.15 1427.5
515.38 584.83 1409.9
518.98 584.76 1409.7
519.01 580.71 1399.9
514.76 571.95 1378.8
507.12 559.59 1349.0
504.63 553.02 1333.2
510.36 555.50 1339.1
518.79 560.86 1352.1
529.97 569.10 1371.9
524.67 559.65 1349.2
508.38 538.68 1298.6
518.88 546.19 1316.7
536.00 560.52 1351.3
538.04 559.01 1347.6
537.29 554.62 1337.0
532.63 546.29 1316.9
520.84 530.80 1279.6
528.35 535.04 1289.8
557.25 560.75 1351.8
573.90 573.90 1383.5
565.15 561.64 1354.0
555.91 549.04 1323.6
561.80 551.46 1329.4
558.93 545.30 1314.6
556.74 539.87 1301.5
571.47 550.82 1327.9
571.84 547.87 1320.8
574.05 546.71 1318.0
594.24 562.59 1356.3
588.96 554.32 1336.3
574.50 537.54 1295.9
582.70 542.05 1306.7
601.67 556.46 1341.5
607.33 558.46 1346.3
601.02 549.51 1324.7
609.38 553.98 1335.5
607.24 548.92 1323.3
592.11 532.23 1283.1
600.04 536.35 1293.0
625.43 555.94 1340.2
638.30 564.24 1360.2
638.87 561.64 1354.0
648.64 567.12 1367.2
661.69 575.38 1387.1
665.10 575.22 1386.7
684.38 588.71 1419.2
700.93 599.73 1445.8
681.47 579.97 1398.2
673.76 570.38 1375.0
684.58 576.49 1389.8
680.49 570.05 1374.2
685.11 570.92 1376.3
683.01 566.23 1365.0
656.85 541.73 1306.0
658.36 540.20 1302.3
674.73 550.80 1327.8
684.37 555.84 1340.0
722.34 583.71 1407.2
752.85 605.31 1459.2
747.72 598.18 1442.0
744.69 592.78 1429.0
774.69 613.61 1479.2
802.28 632.34 1524.4
796.25 624.51 1505.5
779.57 608.44 1466.8
780.86 606.49 1462.1
803.89 621.36 1497.9
814.58 626.60 1510.6
816.37 624.97 1506.6
832.97 634.64 1529.9
855.97 649.08 1564.7
882.29 665.88 1605.2
906.95 681.27 1642.4
919.44 687.43 1657.2
919.18 684.04 1649.0
940.93 696.98 1680.2
441.22 708.63 1719.0
414.20 658.58 1597.6
446.59 703.04 1705.5
457.65 713.39 1730.6
444.62 686.35 1665.0
449.17 686.71 1665.9
439.81 665.99 1615.6
445.22 667.83 1620.1
452.39 672.25 1630.8
432.55 636.81 1544.8
432.25 630.54 1529.6
453.55 655.59 1590.4
455.09 651.89 1581.4
437.92 621.68 1508.1
430.32 605.49 1468.9
435.71 607.70 1474.2
435.28 601.82 1459.9
437.18 599.24 1453.7
445.54 605.48 1468.8
442.81 596.66 1447.4
435.58 581.99 1411.8
439.79 582.72 1413.6
455.99 599.19 1453.6
463.39 603.92 1465.0
461.23 596.22 1446.4
457.84 587.06 1424.1
454.62 578.28 1402.8
457.09 576.81 1399.3
456.34 571.32 1385.9
455.22 565.47 1371.8
466.74 575.28 1395.6
478.07 584.72 1418.5
482.02 585.05 1419.2
482.05 580.65 1408.6
479.89 573.71 1391.7
482.25 572.22 1388.1
487.05 573.63 1391.6
493.72 577.22 1400.3
506.36 587.67 1425.6
507.49 584.72 1418.5
499.11 570.92 1385.0
495.02 562.20 1363.8
494.99 558.18 1354.1
516.50 578.34 1403.0
535.00 594.86 1443.1
534.43 590.10 1431.5
530.52 581.74 1411.2
532.79 580.23 1407.6
544.01 588.42 1427.4
526.57 565.71 1372.3
511.57 545.90 1324.3
522.05 553.37 1342.4
522.41 550.08 1334.4
530.94 555.39 1347.3
547.45 568.92 1380.1
556.14 574.20 1392.9
563.49 578.03 1402.2
553.37 564.02 1368.2
534.29 541.10 1312.6
529.13 532.47 1291.7
545.58 545.58 1323.5
566.48 562.94 1365.6
561.64 554.67 1345.5
555.63 545.34 1322.9
566.24 552.35 1339.9
567.79 550.48 1335.4
570.79 550.03 1334.3
590.41 565.51 1371.9
594.59 566.11 1373.3
574.87 544.07 1319.9
574.43 540.44 1311.0
596.97 558.34 1354.5
611.74 568.81 1379.9
612.13 565.86 1372.7
622.44 572.07 1387.8
615.89 562.79 1365.3
596.46 541.93 1314.7
611.02 552.00 1339.1
614.74 552.23 1339.6
595.31 531.77 1290.0
600.50 533.41 1294.0
603.73 533.30 1293.7
595.01 522.69 1268.0
631.76 551.92 1338.9
678.06 589.13 1429.2
686.81 593.49 1439.7
686.69 590.18 1431.7
666.98 570.16 1383.1
644.61 548.09 1329.6
663.09 560.80 1360.4
695.32 584.95 1419.0
695.88 582.34 1412.7
682.67 568.30 1378.6
675.59 559.47 1357.2
660.02 543.74 1319.1
649.76 532.53 1291.9
669.45 545.86 1324.2
707.55 573.98 1392.4
739.97 597.23 1448.8
746.89 599.78 1455.0
746.09 596.12 1446.1
750.44 596.60 1447.3
757.83 599.47 1454.3
768.29 604.74 1467.0
774.87 606.92 1472.3
769.60 599.84 1455.1
755.44 585.93 1421.4
766.38 591.52 1435.0
798.25 613.15 1487.4
824.99 630.64 1529.9
843.84 641.97 1557.3
850.21 643.73 1561.6
864.27 651.27 1579.9
878.40 658.80 1598.2
887.14 662.23 1606.5
914.17 679.22 1647.7
463.24 746.85 1823.2
468.41 747.56 1825.0
474.05 749.00 1828.5
471.70 737.90 1801.4
453.05 701.78 1713.2
412.14 632.21 1543.4
406.23 611.28 1492.3
435.25 648.77 1583.8
456.01 673.36 1643.8
447.72 654.99 1599.0
432.88 627.47 1531.8
440.42 632.60 1544.3
451.36 642.48 1568.4
441.40 622.69 1520.1
429.38 600.37 1465.6
431.07 597.44 1458.5
436.44 599.63 1463.8
444.52 605.47 1478.1
457.27 617.50 1507.5
457.62 612.74 1495.8
443.63 589.03 1437.9
442.37 582.46 1421.9
456.65 596.28 1455.7
462.37 598.81 1461.8
462.75 594.42 1451.1
461.07 587.49 1434.2
454.14 574.04 1401.4
452.55 567.49 1385.4
460.80 573.27 1399.5
468.22 577.96 1410.9
470.68 576.49 1407.3
472.81 574.65 1402.8
483.92 583.66 1424.8
490.90 587.59 1434.4
486.68 578.16 1411.4
487.54 574.87 1403.4
495.46 579.87 1415.6
505.91 587.75 1434.8
494.91 570.77 1393.4
471.76 540.14 1318.6
477.37 542.62 1324.7
488.42 551.22 1345.6
488.35 547.23 1335.9
510.48 568.00 1386.6
540.95 597.70 1459.1
552.82 606.57 1480.8
543.76 592.52 1446.5
540.49 584.92 1427.9
552.10 593.42 1448.7
533.69 569.75 1390.9
514.00 545.05 1330.6
521.12 548.91 1340.0
521.81 546.00 1332.9
531.37 552.34 1348.4
538.24 555.83 1356.9
537.87 551.84 1347.2
566.04 576.99 1408.6
576.60 583.99 1425.7
544.94 548.41 1338.8
528.13 528.13 1289.3
545.31 541.88 1322.8
568.01 560.91 1369.3
587.31 576.37 1407.0
607.14 592.15 1445.6
592.55 574.37 1402.2
568.97 548.16 1338.2
560.19 536.43 1309.5
569.42 541.97 1323.1
603.24 570.73 1393.3
612.71 576.23 1406.7
587.28 549.06 1340.4
586.49 545.09 1330.7
615.25 568.48 1387.8
627.48 576.41 1407.1
623.31 569.27 1389.7
600.57 545.35 1331.3
583.38 526.71 1285.8
605.66 543.71 1327.3
629.29 561.74 1371.3
627.19 556.72 1359.1
596.63 526.63 1285.6
563.36 494.50 1207.2
585.91 511.46 1248.6
651.45 565.55 1380.6
689.83 595.59 1454.0
692.18 594.37 1451.0
692.49 591.42 1443.8
672.38 571.16 1394.3
652.47 551.28 1345.8
676.75 568.76 1388.5
688.41 575.50 1404.9
669.03 556.35 1358.2
667.36 552.05 1347.7
671.91 552.93 1349.8
679.42 556.21 1357.8
690.75 562.57 1373.4
700.88 567.89 1386.4
726.38 585.55 1429.5
741.37 594.60 1451.6
732.86 584.81 1427.6
741.05 588.37 1436.3
754.02 595.68 1454.2
741.45 582.83 1422.8
732.22 572.73 1398.2
775.44 603.54 1473.4
808.85 626.47 1529.3
786.89 606.48 1480.6
789.09 605.23 1477.5
802.40 612.46 1495.1
806.84 612.89 1496.2
817.11 617.72 1508.0
815.28 613.40 1497.5
819.73 613.83 1498.5
827.35 616.61 1505.3
848.65 629.52 1536.8
879.21 649.14 1584.7
893.00 656.25 1602.1
929.84 664.77 1622.9
892.69 635.34 1551.0
455.33 744.65 1829.5
398.81 645.49 1585.8
415.53 665.70 1635.5
451.23 715.59 1758.0
461.61 724.73 1780.5
465.03 722.87 1775.9
459.38 707.09 1737.2
427.13 651.07 1599.5
403.18 608.64 1495.3
417.82 624.75 1534.9
438.83 649.96 1596.8
453.17 664.92 1633.6
445.84 648.12 1592.3
431.47 621.48 1526.8
434.41 620.02 1523.2
440.93 623.65 1532.2
441.78 619.28 1521.4
438.64 609.44 1497.3
441.20 607.62 1492.8
447.72 611.24 1501.7
447.58 605.78 1488.3
452.24 606.85 1490.9
461.27 613.73 1507.8
454.45 599.56 1473.0
447.18 585.05 1437.3
455.63 591.20 1452.4
472.04 607.46 1492.4
482.11 615.38 1511.8
476.30 603.05 1481.6
464.01 582.79 1431.8
461.91 575.55 1414.0
469.35 580.22 1425.5
483.60 593.16 1457.3
492.07 598.88 1471.3
485.12 585.88 1439.4
487.92 584.76 1436.6
499.76 594.42 1460.3
499.25 589.34 1447.9
502.95 589.28 1447.7
514.99 598.91 1471.4
519.37 599.56 1473.0
501.25 574.43 1411.2
485.68 552.54 1357.5
500.56 565.38 1389.0
485.31 544.24 1337.1
482.49 533.46 1310.6
513.46 563.73 1385.0
531.38 579.35 1423.3
529.08 572.86 1407.4
521.41 560.70 1377.5
527.92 563.83 1385.2
530.77 563.05 1383.3
531.59 560.14 1376.1
545.26 570.70 1402.1
552.90 574.87 1412.3
541.74 559.56 1374.7
527.63 541.43 1330.2
522.69 532.87 1309.2
548.35 555.42 1364.6
568.64 572.29 1406.0
544.67 544.67 1338.1
536.35 532.96 1309.4
566.07 558.95 1373.2
585.31 574.34 1411.0
600.39 585.48 1438.4
604.72 586.06 1439.8
571.88 550.83 1353.3
557.33 533.54 1310.8
559.90 532.75 1308.9
556.16 526.01 1292.3
577.29 542.72 1333.3
598.59 559.40 1374.3
580.60 539.37 1325.1
586.57 541.71 1330.9
623.33 572.29 1406.0
629.11 574.25 1410.8
616.12 559.14 1373.7
612.99 553.10 1358.8
618.31 554.71 1362.8
618.19 551.45 1354.8
619.21 549.24 1349.4
632.39 557.78 1370.3
614.85 539.29 1324.9
591.56 515.98 1267.6
626.62 543.53 1335.3
659.16 568.62 1397.0
663.81 569.49 1399.1
669.67 571.40 1403.8
674.74 572.62 1406.8
675.74 570.39 1401.3
678.36 569.53 1399.2
673.15 562.15 1381.1
656.28 545.16 1339.3
647.53 535.07 1314.5
654.52 538.01 1321.8
666.97 545.39 1339.9
682.45 555.15 1363.9
719.14 581.98 1429.8
752.29 605.69 1488.0
734.16 588.07 1444.8
707.29 563.67 1384.8
720.09 570.98 1402.8
750.65 592.22 1455.0
756.74 594.04 1459.4
737.65 576.17 1415.5
731.02 568.17 1395.9
773.38 598.13 1469.5
808.13 621.94 1528.0
789.23 604.44 1485.0
784.35 597.78 1468.6
790.52 599.57 1473.0
784.19 591.91 1454.2
780.48 586.29 1440.4
784.81 586.74 1441.5
794.56 591.21 1452.5
820.69 607.78 1493.2
864.74 637.39 1565.9
873.44 640.80 1574.3
858.32 626.77 1539.8
877.12 637.53 1566.3
928.83 672.01 1651.0
944.96 674.36 1656.7
908.00 645.05 1584.7
923.43 653.06 1604.4
449.65 730.68 1806.6
405.51 652.15 1612.5
437.21 695.97 1720.8
450.23 709.45 1754.1
439.81 686.10 1696.4
442.31 683.17 1689.2
433.35 662.77 1638.7
427.98 648.20 1602.7
427.28 640.92 1584.7
435.06 646.38 1598.2
450.56 663.08 1639.5
469.99 685.22 1694.2
467.57 675.38 1669.9
437.41 626.02 1547.9
425.57 603.54 1492.3
441.30 620.21 1533.5
451.25 628.52 1554.0
449.50 620.54 1534.3
452.93 619.80 1532.5
448.90 608.94 1505.6
439.36 590.87 1460.9
447.75 597.00 1476.1
460.57 608.88 1505.5
458.68 601.29 1486.7
455.03 591.54 1462.6
457.97 590.44 1459.9
469.05 599.77 1483.0
477.13 605.13 1496.2
468.41 589.29 1457.0
459.21 573.10 1417.0
459.39 568.77 1406.3
464.77 570.90 1411.6
477.82 582.34 1439.9
501.96 607.02 1500.9
509.08 610.90 1510.5
496.43 591.17 1461.7
493.52 583.25 1442.1
501.48 588.20 1454.4
514.10 598.50 1479.8
516.64 597.01 1476.1
511.09 586.25 1449.5
508.23 578.71 1430.9
506.85 572.96 1416.7
519.03 582.50 1440.3
500.70 557.92 1379.5
483.85 531.55 1314.3
508.03 554.21 1370.3
517.41 560.53 1385.9
532.47 572.86 1416.4
542.36 579.51 1432.9
548.00 581.55 1437.9
549.30 578.99 1431.6
540.79 566.19 1399.9
545.70 567.52 1403.2
557.44 575.90 1423.9
549.37 563.83 1394.1
546.00 556.71 1376.5
554.00 561.20 1387.6
542.85 546.35 1350.9
521.70 521.70 1289.9
529.57 526.19 1301.0
554.53 547.51 1353.7
562.95 552.32 1365.6
558.13 544.18 1345.5
561.17 543.74 1344.4
553.31 532.82 1317.4
558.10 534.13 1320.7
583.80 555.32 1373.0
573.97 542.67 1341.8
556.97 523.41 1294.2
572.89 535.16 1323.2
586.33 544.45 1346.2
584.06 539.13 1333.0
607.44 557.42 1378.2
623.81 569.09 1407.1
606.29 549.89 1359.6
591.26 533.16 1318.2
586.84 526.13 1300.9
597.84 532.94 1317.7
601.91 533.51 1319.1
601.29 529.95 1310.3
615.96 539.83 1334.7
637.06 555.20 1372.8
651.97 565.04 1397.1
653.02 562.83 1391.6
654.85 561.30 1387.8
647.80 552.22 1365.4
643.08 545.22 1348.1
658.59 555.35 1373.1
668.50 560.68 1386.3
676.00 563.94 1394.3
676.53 561.38 1388.0
653.05 539.02 1332.8
638.05 523.87 1295.3
660.43 539.41 1333.7
687.16 558.32 1380.5
688.43 556.45 1375.8
709.53 570.55 1410.7
725.35 574.39 1420.2
707.73 557.61 1378.7
746.45 585.16 1446.8
760.77 593.40 1467.2
752.54 584.06 1444.1
756.45 584.19 1444.4
738.42 567.46 1403.1
708.34 541.67 1339.3
735.44 559.66 1383.8
784.03 593.73 1468.0
787.97 593.83 1468.3
778.95 584.21 1444.5
789.12 589.01 1456.3
809.70 601.49 1487.2
821.37 607.27 1501.5
850.79 626.05 1547.9
817.97 599.08 1481.2
744.63 542.81 1342.1
780.89 566.60 1400.9
863.46 623.61 1541.9
906.37 651.59 1611.1
929.69 662.24 1637.4
924.59 655.62 1621.0
932.56 658.28 1627.6
449.22 703.33 1750.2
445.79 690.98 1719.5
454.02 696.76 1733.9
449.20 682.61 1698.7
447.58 673.55 1676.1
435.41 648.93 1614.9
433.47 639.89 1592.3
439.57 642.77 1599.5
450.94 653.23 1625.6
470.48 675.23 1680.3
460.10 654.27 1628.1
430.28 606.30 1508.8
430.06 600.54 1494.4
448.76 621.06 1545.5
455.38 624.64 1554.4
454.11 617.42 1536.4
445.81 600.87 1495.3
440.00 587.93 1463.0
453.27 600.48 1494.3
475.15 624.14 1553.2
481.62 627.33 1561.1
465.39 601.13 1495.9
456.39 584.64 1454.9
468.31 594.99 1480.6
476.39 600.32 1493.9
473.08 591.35 1471.6
469.67 582.39 1449.3
473.11 582.01 1448.3
482.39 588.75 1465.1
477.03 577.66 1437.5
482.21 579.40 1441.8
500.54 596.80 1485.1
498.04 589.28 1466.4
498.46 585.32 1456.6
510.73 595.21 1481.2
511.45 591.60 1472.2
501.00 575.22 1431.4
496.58 565.96 1408.4
494.87 559.89 1393.3
489.30 549.58 1367.6
498.20 555.55 1382.5
522.80 578.82 1440.4
531.29 584.05 1453.4
526.91 575.15 1431.2
528.60 572.96 1425.8
525.36 565.49 1407.2
527.62 564.01 1403.5
527.22 559.72 1392.9
522.43 550.86 1370.8
539.67 565.20 1406.5
547.29 569.33 1416.8
536.29 554.16 1379.0
532.28 546.38 1359.6
541.22 551.91 1373.4
555.41 562.68 1400.2
579.10 582.86 1450.4
583.46 583.46 1451.9
522.46 519.11 1291.8
491.47 485.21 1207.4
531.51 521.42 1297.5
554.10 540.16 1344.2
552.11 534.85 1331.0
557.64 536.85 1336.0
562.46 538.16 1339.2
582.26 553.69 1377.8
610.68 577.16 1436.3
598.77 562.48 1399.7
572.23 534.31 1329.6
581.54 539.75 1343.2
602.52 555.90 1383.3
608.61 558.19 1389.1
579.14 528.04 1314.0
542.87 492.08 1224.5
565.09 509.23 1267.2
592.09 530.49 1320.1
583.81 520.06 1294.2
591.32 523.74 1303.3
611.34 538.39 1339.8
625.64 547.88 1363.4
638.86 556.31 1384.4
660.48 571.93 1423.2
640.94 551.92 1373.4
609.60 522.04 1299.1
636.09 541.73 1348.1
650.71 551.14 1371.5
638.30 537.70 1338.1
647.30 542.33 1349.6
668.18 556.82 1385.6
687.17 569.58 1417.4
687.75 567.03 1411.0
660.98 542.08 1348.9
644.76 525.99 1308.9
669.69 543.46 1352.4
706.12 570.05 1418.6
713.36 572.91 1425.7
693.98 554.47 1379.8
721.13 573.20 1426.4
765.09 605.05 1505.7
726.31 571.47 1422.1
693.63 542.99 1351.2
719.36 560.31 1394.3
734.87 569.53 1417.3
729.15 562.28 1399.2
736.45 565.10 1406.2
723.60 552.50 1374.9
707.97 537.92 1338.6
747.92 565.50 1407.2
787.70 592.69 1474.9
783.64 586.78 1460.2
762.50 568.21 1414.0
759.14 563.00 1401.0
786.84 580.76 1445.2
806.11 592.17 1473.6
849.12 620.82 1544.9
834.06 606.94 1510.4
784.98 568.56 1414.8
849.89 612.71 1524.7
908.80 652.14 1622.8
915.34 653.82 1627.0
454.21 736.30 1844.2
459.43 736.99 1845.9
474.01 744.87 1865.6
455.17 708.04 1773.4
459.98 708.37 1774.2
463.38 706.54 1769.6
454.35 685.98 1718.1
469.86 702.52 1759.5
471.97 698.88 1750.4
449.77 659.66 1652.2
437.96 636.29 1593.7
427.12 614.73 1539.7
427.34 609.35 1526.2
450.59 636.61 1594.5
452.40 633.36 1586.3
434.29 602.53 1509.1
437.16 601.10 1505.5
447.88 610.39 1528.8
450.51 608.59 1524.3
447.51 599.28 1501.0
446.82 593.19 1485.7
445.78 586.75 1469.6
453.95 592.45 1483.9
471.28 609.89 1527.6
466.05 598.10 1498.0
459.29 584.55 1464.1
473.77 598.04 1497.9
480.75 601.92 1507.6
475.76 590.86 1479.9
471.50 580.89 1454.9
474.66 580.14 1453.0
484.83 587.91 1472.5
479.78 577.24 1445.8
475.19 567.28 1420.8
483.63 572.91 1434.9
493.33 579.94 1452.5
505.84 590.14 1478.1
511.45 592.20 1483.3
505.11 580.50 1453.9
501.72 572.33 1433.5
504.76 571.57 1431.6
503.73 566.23 1418.2
498.84 556.68 1394.3
500.19 554.16 1388.0
517.79 569.57 1426.6
528.18 576.88 1444.9
524.75 569.09 1425.4
537.49 578.84 1449.8
546.09 584.01 1462.7
534.31 567.47 1421.3
520.01 548.51 1373.8
492.15 515.58 1291.4
484.38 504.02 1262.4
521.39 538.88 1349.7
541.13 555.56 1391.5
547.05 557.92 1397.4
567.77 575.24 1440.8
573.14 576.88 1444.9
540.80 533.87 1337.1
495.39 485.93 1217.1
528.37 515.00 1289.9
563.11 545.40 1366.0
571.59 550.15 1377.9
558.79 534.50 1338.7
545.45 518.52 1298.7
556.78 526.03 1317.5
575.52 540.43 1353.6
602.92 562.73 1409.4
618.32 573.63 1436.7
594.30 548.04 1372.6
583.86 535.20 1340.5
601.16 547.81 1372.1
581.48 526.75 1319.3
553.57 498.54 1248.7
591.15 529.29 1325.7
643.30 572.65 1434.3
653.42 578.32 1448.5
651.56 573.38 1436.1
659.40 576.98 1445.1
649.64 565.22 1415.7
642.10 555.53 1391.4
654.65 563.22 1410.7
624.72 534.48 1338.7
606.47 516.00 1292.4
649.82 549.84 1377.2
654.42 550.71 1379.3
629.87 527.17 1320.4
626.21 521.28 1305.6
635.57 526.23 1318.0
669.62 551.45 1381.2
683.31 559.74 1401.9
671.00 546.74 1369.4
669.78 542.87 1359.7
670.60 540.69 1354.2
685.24 549.62 1376.6
710.09 566.60 1419.1
707.19 561.38 1406.0
700.83 553.48 1386.3
708.89 556.99 1395.0
716.99 560.49 1403.8
727.27 565.65 1416.8
722.91 559.44 1401.2
709.38 546.22 1368.1
707.46 542.03 1357.6
718.18 547.52 1371.3
727.64 552.00 1382.6
733.17 553.47 1386.3
742.26 557.60 1396.6
746.06 557.73 1396.9
758.33 564.17 1413.0
755.44 559.31 1400.9
742.60 547.18 1370.5
755.81 554.26 1388.2
779.06 568.60 1424.1
826.09 600.08 1503.0
863.40 624.24 1563.5
871.64 627.26 1571.1
880.37 630.59 1579.4
866.99 618.13 1548.2
905.34 642.50 1609.2
447.45 720.63 1816.7
451.47 719.54 1814.0
468.68 739.26 1863.7
466.70 714.04 1800.1
453.13 686.42 1730.5
428.24 642.36 1619.4
427.14 634.48 1599.5
457.05 672.39 1695.1
460.20 670.58 1690.5
451.45 651.62 1642.7
443.46 634.10 1598.6
445.83 631.59 1592.2
472.81 663.67 1673.1
474.05 659.35 1662.2
455.84 628.33 1584.0
452.64 618.34 1558.8
457.72 619.74 1562.4
457.51 614.03 1548.0
451.89 601.21 1515.7
456.88 602.61 1519.2
459.99 601.52 1516.4
451.04 584.83 1474.4
451.82 580.91 1464.5
460.05 586.56 1478.7
466.38 589.72 1486.7
476.70 597.83 1507.1
479.16 596.02 1502.6
474.43 585.39 1475.8
469.86 575.11 1449.9
464.30 563.79 1421.3
465.33 560.59 1413.3
476.63 569.73 1436.3
488.34 579.20 1460.2
490.89 577.75 1456.5
494.03 577.00 1454.6
493.21 571.68 1441.2
484.70 557.58 1405.7
489.84 559.30 1410.0
497.48 563.81 1421.4
503.92 566.91 1429.2
506.95 566.16 1427.3
503.66 558.40 1407.7
506.94 558.00 1406.7
511.81 559.34 1410.1
508.98 552.30 1392.3
516.75 556.78 1403.6
543.46 581.46 1465.9
547.18 581.38 1465.7
529.45 558.67 1408.4
525.40 550.59 1388.1
508.23 528.98 1333.6
492.15 508.78 1282.6
522.14 536.15 1351.6
545.29 556.20 1402.2
554.32 561.66 1415.9
557.56 561.22 1414.9
543.14 543.14 1369.3
555.66 552.05 1391.7
562.33 555.07 1399.3
531.02 520.81 1313.0
513.83 500.74 1262.4
542.31 525.15 1323.9
572.85 551.24 1389.7
580.31 554.92 1399.0
562.84 534.88 1348.4
553.51 522.76 1317.9
572.56 537.43 1354.9
577.81 539.05 1359.0
592.67 549.57 1385.5
615.46 567.26 1430.1
596.25 546.26 1377.1
602.32 548.54 1382.9
640.10 579.50 1460.9
627.42 564.68 1423.6
608.48 544.43 1372.5
600.41 534.09 1346.4
599.92 530.57 1337.6
626.07 550.51 1387.8
642.34 561.59 1415.8
633.35 550.58 1388.0
601.87 520.26 1311.6
597.25 513.37 1294.2
615.53 526.12 1326.4
625.99 532.09 1341.4
645.70 545.81 1376.0
665.97 559.85 1411.4
645.63 539.79 1360.8
628.71 522.79 1318.0
632.38 523.00 1318.5
642.59 528.58 1332.6
678.74 555.34 1400.0
708.17 576.33 1452.9
711.29 575.81 1451.6
697.33 561.54 1415.6
686.15 549.64 1385.6
687.43 547.79 1381.0
700.07 554.98 1399.1
695.85 548.79 1383.5
689.86 541.27 1364.6
708.98 553.44 1395.2
727.37 564.91 1424.2
739.86 571.71 1441.3
736.41 566.18 1427.4
707.28 541.07 1364.0
689.23 524.63 1322.6
706.00 534.75 1348.1
720.69 543.18 1369.4
738.55 553.91 1396.4
759.62 566.94 1429.3
755.48 561.11 1414.6
758.87 560.90 1414.0
771.66 567.61 1431.0
775.97 568.05 1432.1
773.51 563.55 1420.7
779.61 565.31 1425.1
815.30 588.40 1483.4
839.35 602.91 1519.9
835.13 597.08 1505.2
828.55 589.62 1486.4
826.50 585.44 1475.9
877.70 618.84 1560.1
940.16 650.88 1640.9
442.02 707.24 1794.7
447.89 701.85 1781.0
429.95 666.86 1692.2
444.78 682.90 1732.9
441.76 671.48 1703.9
448.06 674.31 1711.1
439.83 655.43 1663.2
425.56 628.02 1593.6
444.29 649.35 1647.8
464.02 671.73 1704.6
469.91 673.83 1709.9
464.32 659.59 1673.8
469.39 660.62 1676.4
474.73 662.01 1679.9
456.49 630.78 1600.7
451.57 618.36 1569.2
460.84 625.42 1587.1
444.68 598.16 1517.9
424.21 565.62 1435.3
444.51 587.53 1490.9
475.31 622.82 1580.5
482.64 627.02 1591.1
475.50 612.51 1554.3
466.54 595.91 1512.2
466.54 590.95 1499.6
467.04 586.70 1488.8
472.29 588.43 1493.2
482.11 595.78 1511.8
483.70 592.92 1504.6
484.39 589.02 1494.7
483.29 583.01 1479.5
485.33 580.87 1474.0
499.44 593.09 1505.0
503.30 593.03 1504.9
496.08 580.03 1471.9
490.81 569.49 1445.1
480.87 553.72 1405.1
484.17 553.34 1404.1
501.31 568.65 1443.0
502.21 565.46 1434.9
500.90 559.83 1420.6
505.16 560.47 1422.2
502.80 553.81 1405.3
505.76 553.06 1403.4
510.30 554.04 1405.9
501.66 540.79 1372.3
502.90 538.31 1366.0
514.54 546.93 1387.9
501.02 528.86 1342.0
496.53 520.50 1320.8
508.55 529.44 1343.5
504.29 521.44 1323.2
502.29 515.86 1309.1
528.63 539.28 1368.5
546.40 553.69 1405.0
541.40 544.99 1383.0
528.73 528.73 1341.7
486.09 482.92 1225.4
474.96 468.79 1189.6
533.70 523.37 1328.1
553.27 539.08 1368.0
525.56 508.82 1291.2
546.29 525.54 1333.6
579.38 553.88 1405.5
586.16 556.85 1413.1
585.72 552.98 1403.2
592.52 555.94 1410.8
609.59 568.45 1442.5
611.72 566.96 1438.7
618.64 569.90 1446.2
631.91 578.62 1468.3
625.85 569.63 1445.5
608.17 543.77 1379.9
575.76 511.79 1298.7
555.65 491.04 1246.1
552.62 485.54 1232.1
579.33 506.08 1284.2
603.94 524.56 1331.1
600.22 518.37 1315.4
583.87 501.40 1272.3
594.94 508.04 1289.2
620.75 527.11 1337.6
639.60 540.10 1370.6
629.38 528.54 1341.2
619.83 517.66 1313.6
637.22 529.28 1343.1
655.55 541.54 1374.2
668.71 549.42 1394.2
688.91 562.98 1428.6
694.87 564.81 1433.3
695.47 562.30 1426.9
703.10 565.46 1434.9
692.43 553.94 1405.7
692.92 551.44 1399.3
705.58 558.58 1417.5
696.36 548.43 1391.7
670.93 525.67 1333.9
673.33 524.85 1331.9
701.37 543.92 1380.3
715.45 552.03 1400.8
722.29 554.49 1407.1
732.18 559.25 1419.2
714.31 542.88 1377.6
704.12 532.47 1351.2
729.29 548.77 1392.6
732.64 548.58 1392.1
738.64 550.36 1396.6
759.72 563.31 1429.4
752.91 555.54 1409.7
754.05 553.70 1405.1
764.58 558.73 1417.8
762.56 554.59 1407.3
755.07 546.53 1386.9
765.64 551.55 1399.6
804.94 577.13 1464.5
849.53 606.24 1538.4
869.66 617.70 1567.5
866.41 612.53 1554.4
867.74 610.63 1549.5
793.91 556.10 1411.2
908.00 630.21 1599.2
436.52 672.60 1718.1
416.56 635.36 1623.0
425.70 642.81 1642.0
439.67 657.33 1679.1
466.97 691.30 1765.9
485.28 711.43 1817.3
468.28 679.91 1736.8
456.79 656.91 1678.0
468.81 667.83 1705.9
468.20 660.73 1687.8
444.55 621.54 1587.7
423.97 587.33 1500.3
437.10 600.02 1532.7
461.77 628.18 1604.6
465.91 628.15 1604.5
444.52 594.01 1517.3
434.91 576.07 1471.5
467.35 613.64 1567.5
485.41 631.87 1614.0
479.77 619.19 1581.7
470.69 602.32 1538.6
459.19 582.67 1488.4
456.90 574.94 1468.6
455.65 568.62 1452.5
463.35 573.49 1464.9
475.67 583.95 1491.6
488.97 595.44 1521.0
500.09 604.11 1543.2
486.88 583.48 1490.4
477.51 567.75 1450.3
493.35 582.00 1486.7
498.94 584.03 1491.9
496.78 577.03 1474.0
496.33 572.11 1461.4
495.22 566.50 1447.1
509.01 577.90 1476.2
518.33 584.09 1492.0
507.88 568.08 1451.1
513.15 569.75 1455.4
524.72 578.34 1477.3
519.95 568.93 1453.3
520.15 565.06 1443.4
525.12 566.37 1446.7
516.55 553.19 1413.1
501.03 532.78 1360.9
495.69 523.43 1337.0
498.79 523.04 1336.0
512.45 533.65 1363.2
516.59 534.28 1364.8
502.01 515.67 1317.2
495.28 505.32 1290.8
520.25 527.23 1346.8
568.96 572.75 1463.0
547.75 544.14 1390.0
471.92 465.75 1189.7
457.90 448.98 1146.9
515.18 501.89 1282.0
576.25 557.78 1424.8
587.63 565.18 1443.7
564.17 539.18 1377.3
554.03 526.15 1344.0
567.51 535.59 1368.1
574.58 538.89 1376.5
540.52 503.82 1287.0
517.05 478.98 1223.5
527.52 485.71 1240.7
547.32 500.88 1279.5
580.31 527.87 1348.4
588.56 532.17 1359.4
608.50 546.92 1397.1
608.96 544.10 1389.8
569.52 505.87 1292.2
542.62 479.15 1224.0
567.19 497.94 1271.9
614.31 536.19 1369.7
620.82 538.76 1376.2
621.90 536.61 1370.7
638.21 547.56 1398.7
642.46 548.08 1400.0
645.13 547.27 1397.9
668.81 564.19 1441.2
660.80 554.33 1416.0
618.63 516.10 1318.3
595.35 493.95 1261.7
602.13 496.84 1269.1
649.54 533.04 1361.6
689.59 562.85 1437.8
676.31 549.05 1402.5
648.06 523.30 1336.7
654.24 525.48 1342.3
666.25 532.30 1359.7
644.99 512.59 1309.4
642.34 507.82 1297.2
649.32 510.66 1304.4
632.25 494.66 1263.6
641.30 499.15 1275.0
678.93 525.74 1342.9
704.02 542.38 1385.5
713.82 547.14 1397.6
706.85 539.06 1377.0
702.83 533.30 1362.3
724.82 547.24 1397.9
755.26 567.39 1449.3
761.80 569.47 1454.6
748.56 556.81 1422.3
734.74 543.86 1389.2
734.53 541.05 1382.1
735.18 538.90 1376.6
742.06 541.31 1382.7
746.72 542.09 1384.7
740.57 535.06 1366.7
757.41 544.62 1391.2
793.41 567.80 1450.4
819.63 583.79 1491.2
850.13 602.67 1539.5
851.90 601.11 1535.5
826.94 580.78 1483.5
852.62 596.04 1522.5
808.85 562.84 1437.7
833.84 574.93 1468.6
436.92 662.00 1702.3
418.07 627.11 1612.6
441.22 655.28 1685.0
475.73 699.61 1799.0
482.54 702.73 1807.0
455.02 656.28 1687.6
445.12 635.88 1635.1
458.77 649.21 1669.4
463.83 650.23 1672.0
442.64 614.78 1580.9
427.88 588.83 1514.1
449.02 612.30 1574.5
461.38 623.48 1603.2
452.97 606.66 1560.0
464.90 617.13 1586.9
489.44 644.00 1656.0
496.64 647.79 1665.8
487.96 630.99 1622.5
484.79 621.52 1598.2
478.20 607.88 1563.1
474.76 598.43 1538.8
479.00 598.75 1539.6
481.55 596.97 1535.1
493.70 607.01 1560.9
489.73 597.23 1535.7
486.20 588.15 1512.4
497.90 597.47 1536.4
483.48 575.58 1480.1
472.62 558.21 1435.4
487.83 571.68 1470.0
505.29 587.55 1510.8
514.86 594.06 1527.6
507.89 581.56 1495.4
499.56 567.69 1459.8
506.36 571.08 1468.5
507.34 567.92 1460.4
501.77 557.53 1433.6
513.25 566.08 1455.6
540.22 591.48 1520.9
550.41 598.27 1538.4
545.08 588.22 1512.6
545.72 584.70 1503.5
535.99 570.20 1466.2
519.92 549.21 1412.3
524.50 550.17 1414.7
540.59 563.11 1448.0
528.06 546.27 1404.7
500.03 513.73 1321.0
509.09 519.48 1335.8
530.01 537.17 1381.3
535.55 539.15 1386.4
566.67 566.67 1457.2
537.14 530.07 1363.0
493.09 483.42 1243.1
521.73 508.18 1306.7
551.71 533.91 1372.9
575.99 553.83 1424.1
593.05 566.61 1457.0
571.38 542.45 1394.9
556.96 525.43 1351.1
569.75 534.14 1373.5
575.38 536.07 1378.5
536.92 497.15 1278.4
521.10 479.54 1233.1
541.92 495.66 1274.6
532.92 484.47 1245.8
532.36 481.04 1237.0
494.33 444.01 1141.7
