ply
format ascii 1.0
element vertex 2252
property float x
property float y
property float z
end_header
3.88 856.57 1495.0
8.56 946.05 1651.2
12.63 930.13 1623.4
15.86 876.43 1529.6
18.51 818.24 1428.1
22.31 821.70 1434.1
26.01 821.18 1433.2
27.58 762.00 1329.9
32.69 802.72 1401.0
40.86 903.08 1576.2
47.22 948.75 1655.9
50.92 937.77 1636.7
47.24 803.04 1401.6
43.79 691.18 1206.3
44.55 656.35 1145.5
48.05 663.75 1158.5
51.63 671.15 1171.4
53.61 658.17 1148.7
59.23 688.91 1202.4
78.61 868.62 1516.0
90.47 869.33 1517.3
103.49 847.06 1478.4
-375.49 1147.33 2011.6
-331.05 1071.05 1877.8
-325.25 1067.98 1872.4
-339.03 1130.08 1981.3
-342.98 1160.84 2035.2
-328.39 1128.85 1979.2
-312.27 1090.46 1911.8
-309.07 1096.68 1922.8
-308.80 1113.71 1952.6
-302.49 1109.13 1944.6
-297.41 1108.97 1944.3
-284.55 1079.33 1892.3
-263.68 1017.72 1784.3
-251.12 986.55 1729.7
-251.87 1007.47 1766.3
-251.10 1022.99 1793.6
-242.01 1004.57 1761.3
-236.92 1002.37 1757.4
-232.09 1001.16 1755.3
-220.32 969.41 1699.6
-211.47 949.46 1664.6
-205.27 940.82 1649.5
-195.78 916.41 1606.7
-189.29 905.29 1587.2
-190.76 932.61 1635.1
-191.10 955.49 1675.2
-186.70 955.21 1674.7
-182.68 956.89 1677.7
-175.70 942.79 1652.9
-167.77 922.75 1617.8
-165.97 936.26 1641.5
-160.30 928.05 1627.1
-145.90 867.49 1520.9
-138.26 844.94 1481.4
-137.90 866.82 1519.7
-138.34 895.13 1569.4
-140.22 934.81 1638.9
-134.70 926.06 1623.6
-123.06 873.33 1531.2
-119.11 873.46 1531.4
-116.91 886.94 1555.0
-113.15 889.05 1558.7
-108.82 886.70 1554.6
-101.94 862.58 1512.3
-98.37 865.66 1517.7
-95.15 872.20 1529.2
-90.16 862.41 1512.0
-85.71 857.06 1502.6
-80.26 840.82 1474.2
-77.75 855.26 1499.5
-77.08 892.47 1564.7
-73.35 896.52 1571.8
-67.06 867.88 1521.6
-60.42 830.82 1456.6
-56.92 834.85 1463.7
-55.49 872.05 1528.9
-51.88 878.05 1539.4
-47.41 869.19 1523.9
-44.53 890.54 1561.3
-40.86 899.01 1576.2
-35.46 866.85 1519.8
-30.98 852.03 1493.8
-27.08 851.07 1492.1
-22.98 842.68 1477.4
-19.17 843.69 1479.2
-15.55 855.10 1499.2
-11.64 853.63 1496.6
-7.72 849.68 1489.7
-4.00 880.41 1543.6
0.00 935.90 1640.9
4.07 895.76 1570.5
7.60 835.81 1465.4
11.73 860.07 1507.9
15.57 856.59 1501.8
19.06 838.74 1470.5
24.63 903.12 1583.4
36.48 891.62 1563.2
39.94 878.70 1540.6
41.13 822.68 1442.4
38.09 698.32 1224.3
39.42 667.08 1169.6
43.27 679.91 1192.0
42.91 629.35 1103.4
45.98 632.27 1108.5
47.44 613.90 1076.3
47.67 582.66 1021.5
57.10 628.08 1101.2
80.17 839.83 1472.4
72.94 729.39 1278.8
68.28 653.11 1145.1
85.54 784.14 1374.8
107.14 942.83 1653.0
98.43 832.90 1460.3
100.69 820.43 1438.4
132.74 942.03 1651.6
137.14 942.87 1653.1
-358.31 1137.24 2003.0
-340.35 1096.14 1930.6
-353.68 1156.07 2036.1
-333.80 1107.62 1950.8
-307.39 1035.68 1824.1
-299.76 1025.75 1806.6
-291.23 1012.38 1783.1
-291.27 1028.83 1812.0
-294.29 1056.54 1860.8
-283.52 1034.84 1822.6
-274.92 1020.47 1797.3
-268.78 1014.89 1787.5
-254.03 976.01 1719.0
-246.76 965.01 1699.6
-252.51 1005.46 1770.9
-254.03 1030.24 1814.5
-245.84 1015.81 1789.1
-234.51 987.64 1739.5
-224.80 965.33 1700.2
-214.51 939.57 1654.8
-206.98 925.08 1629.3
-203.67 929.23 1636.6
-197.26 919.14 1618.8
-191.77 912.97 1608.0
-194.30 945.60 1665.4
-192.59 958.59 1688.3
-186.13 947.99 1669.6
-182.32 950.65 1674.3
-175.90 939.54 1654.8
-172.99 947.11 1668.1
-175.88 987.63 1739.5
-167.56 965.68 1700.8
-151.30 895.50 1577.2
-144.64 879.92 1549.8
-144.74 905.67 1595.1
-139.03 895.49 1577.2
-135.26 897.61 1580.9
-133.77 915.49 1612.4
-126.19 891.50 1570.2
-117.96 861.10 1516.6
-111.96 845.46 1489.1
-106.85 835.73 1471.9
-101.41 822.54 1448.7
-97.14 818.21 1441.1
-95.33 835.08 1470.8
-94.23 859.83 1514.4
-91.30 869.30 1531.1
-87.93 875.32 1541.7
-83.57 871.47 1534.9
-78.29 857.26 1509.8
-74.72 861.29 1516.9
-70.43 856.93 1509.3
-64.15 826.41 1455.5
-58.87 805.76 1419.1
-56.11 819.15 1442.7
-55.49 868.06 1528.9
-52.73 888.36 1564.6
-46.95 856.83 1509.1
-42.82 852.43 1501.4
-40.21 880.62 1551.0
-35.83 871.77 1535.4
-31.52 862.92 1519.8
-27.77 868.88 1530.3
-23.63 862.49 1519.1
-19.74 864.49 1522.6
-15.75 862.54 1519.1
-11.60 846.75 1491.3
-7.21 789.98 1391.4
-3.50 766.78 1350.5
0.00 887.75 1563.6
4.25 929.72 1637.5
7.36 806.28 1420.1
10.65 777.13 1368.7
14.64 801.81 1412.2
18.94 829.44 1460.8
23.51 858.05 1511.2
27.90 872.83 1537.3
32.41 887.11 1562.4
35.50 863.87 1521.5
40.75 892.46 1571.9
42.62 848.48 1494.4
40.32 735.90 1296.1
46.55 784.22 1381.2
52.62 823.15 1449.8
51.95 758.45 1335.8
57.14 782.08 1377.4
57.03 734.65 1293.9
56.28 684.75 1206.0
56.75 654.10 1152.0
63.11 628.26 1106.5
79.80 759.84 1338.3
67.38 614.80 1082.8
66.24 557.96 982.7
104.14 844.71 1487.8
111.30 840.53 1480.4
105.00 766.51 1350.0
99.56 703.35 1238.8
122.69 839.65 1478.8
123.74 774.25 1363.7
123.41 693.01 1220.6
-360.96 1124.14 1989.0
-353.77 1117.72 1977.6
-322.67 1065.80 1885.8
-309.61 1038.40 1837.3
-314.24 1070.39 1893.9
-300.98 1041.50 1842.8
-296.71 1043.28 1845.9
-300.47 1073.83 1900.0
-290.94 1057.08 1870.3
-273.24 1009.60 1786.3
-258.82 972.82 1721.2
-257.24 983.84 1740.7
-262.33 1021.21 1806.9
-255.99 1014.66 1795.3
-246.08 993.45 1757.7
-242.54 997.62 1765.1
-236.05 989.58 1750.9
-222.76 952.20 1684.8
-209.59 913.81 1616.8
-203.91 907.20 1605.1
-202.60 920.14 1628.0
-199.37 924.76 1636.2
-196.62 931.83 1648.7
-196.23 950.64 1682.0
-191.72 949.88 1680.6
-186.24 944.21 1670.6
-183.27 951.27 1683.1
-178.58 949.51 1680.0
-177.40 966.85 1710.7
-173.97 972.44 1720.6
-160.82 922.62 1632.4
-152.04 895.83 1585.0
-151.69 918.56 1625.2
-146.56 912.84 1615.1
-136.50 875.22 1548.6
-126.05 832.68 1473.3
-118.36 806.31 1426.6
-116.98 822.64 1455.5
-114.71 833.57 1474.9
-111.30 836.64 1480.3
-108.36 843.63 1492.7
-103.35 834.42 1476.4
-99.30 832.57 1473.1
-94.93 827.76 1464.6
-91.30 829.34 1467.4
-89.74 850.57 1504.9
-87.68 868.85 1537.3
-84.94 881.72 1560.1
-80.95 882.31 1561.1
-75.66 868.14 1536.0
-69.70 844.13 1493.5
-65.18 835.85 1478.9
-61.35 835.92 1479.0
-57.79 839.92 1486.1
-56.12 873.91 1546.2
-52.09 873.48 1545.5
-45.24 821.89 1454.2
-41.90 830.30 1469.1
-39.92 870.19 1539.7
-35.32 855.47 1513.6
-30.84 840.26 1486.7
-27.53 857.51 1517.2
-23.86 866.89 1533.8
-19.59 854.12 1511.2
-15.28 832.49 1473.0
-11.23 816.27 1444.3
-6.99 761.66 1347.6
4.01 873.36 1545.3
8.24 898.45 1589.7
10.91 793.14 1403.3
13.80 752.29 1331.1
17.78 775.40 1371.9
22.17 805.39 1425.0
26.62 828.98 1466.7
30.69 836.32 1479.7
33.29 806.28 1426.6
37.89 825.92 1461.3
45.37 899.16 1590.9
50.55 918.29 1624.8
50.36 844.46 1494.1
46.58 725.39 1283.5
48.25 701.24 1240.7
55.25 752.82 1332.0
64.07 821.59 1453.7
68.89 834.30 1476.1
71.25 817.50 1446.4
59.44 647.84 1146.3
66.80 661.96 1171.2
81.55 772.93 1367.6
73.93 619.88 1096.8
93.37 753.88 1333.9
87.23 679.13 1201.6
98.95 743.84 1316.1
104.78 761.40 1347.2
81.94 576.24 1019.6
83.92 571.73 1011.6
104.95 693.33 1226.7
105.05 673.58 1191.8
104.66 651.88 1153.4
-365.40 1149.16 2042.6
-348.91 1130.07 2008.7
-323.76 1064.49 1892.1
-323.61 1080.36 1920.3
-331.76 1124.87 1999.4
-321.18 1106.29 1966.4
-311.19 1089.16 1936.0
-309.27 1100.18 1955.6
-299.05 1081.56 1922.5
-280.67 1032.31 1834.9
-258.07 965.52 1716.2
-248.45 945.86 1681.3
-255.71 990.89 1761.3
-252.45 996.03 1770.4
-242.60 974.89 1732.8
-239.00 978.56 1739.4
-234.44 978.33 1739.0
-222.78 947.89 1684.9
-213.08 924.75 1643.7
-210.63 932.78 1658.0
-204.33 923.74 1641.9
-196.21 905.92 1610.3
-192.81 909.55 1616.7
-191.49 923.42 1641.4
-190.84 941.19 1673.0
-189.06 954.09 1695.9
-175.92 908.90 1615.6
-162.26 858.80 1526.5
-160.50 870.70 1547.6
-157.57 876.73 1558.4
-152.79 872.51 1550.9
-150.38 881.96 1567.7
-143.83 866.97 1541.0
-133.87 829.98 1475.3
-132.06 842.83 1498.1
-128.86 847.38 1506.2
-119.79 812.31 1443.9
-117.11 819.77 1457.1
-116.46 842.40 1497.4
-114.62 857.70 1524.5
-111.38 863.20 1534.3
-106.02 852.07 1514.5
-102.52 855.61 1520.8
-98.64 856.21 1521.9
-92.11 832.82 1480.3
-87.81 828.51 1472.7
-84.75 835.95 1485.9
-81.00 837.02 1487.8
-78.42 850.82 1512.3
-74.25 847.97 1507.2
-67.74 816.69 1451.7
-62.80 801.58 1424.8
-59.76 810.46 1440.6
-56.87 822.78 1462.5
-54.19 839.99 1493.1
-49.18 820.94 1459.2
-44.72 808.73 1437.5
-43.86 865.15 1537.8
-40.68 882.85 1569.2
-34.79 838.77 1490.9
-31.30 849.10 1509.3
-29.00 899.14 1598.2
-24.74 894.76 1590.4
-19.88 862.91 1533.8
-15.26 828.12 1472.0
-11.01 796.27 1415.4
-7.39 802.16 1425.8
-3.55 769.31 1367.4
3.17 687.92 1222.8
7.48 811.97 1443.3
11.52 833.53 1481.6
13.51 733.00 1302.9
16.06 697.19 1239.3
24.20 875.15 1555.6
54.70 913.08 1623.0
41.58 644.45 1145.5
50.73 687.96 1222.8
63.22 806.97 1434.4
62.34 751.53 1335.8
56.87 649.57 1154.6
63.25 623.90 1109.0
72.97 688.46 1223.7
72.89 659.01 1171.4
83.58 725.50 1289.6
99.88 833.58 1481.7
99.01 795.78 1414.5
84.74 656.70 1167.3
93.24 697.70 1240.2
104.96 759.24 1349.5
84.48 591.35 1051.1
85.68 580.99 1032.7
101.87 669.88 1190.7
108.00 689.32 1225.3
113.92 706.31 1255.5
124.78 752.12 1336.9
108.31 635.20 1129.1
137.12 762.93 1356.1
-352.51 1087.76 1942.4
-340.04 1064.48 1900.9
-338.73 1075.95 1921.3
-346.15 1115.93 1992.7
-345.82 1131.77 2021.0
-335.31 1114.25 1989.7
-336.13 1134.44 2025.8
-326.33 1118.84 1997.9
-317.08 1104.67 1972.6
-307.14 1087.59 1942.1
-289.83 1043.37 1863.2
-279.39 1022.86 1826.5
-263.68 981.98 1753.5
-251.54 953.19 1702.1
-255.61 985.94 1760.6
-254.82 1000.76 1787.1
-247.71 990.85 1769.4
-248.43 1012.46 1808.0
-247.89 1029.72 1838.8
-239.64 1014.94 1812.4
-232.41 1004.03 1792.9
-220.66 972.72 1737.0
-206.17 927.78 1656.7
-196.01 900.79 1608.6
-190.74 895.66 1599.4
-191.80 920.66 1644.0
-193.53 950.04 1696.5
-184.23 925.44 1652.6
-165.42 850.74 1519.2
-159.76 841.67 1503.0
-164.37 887.59 1585.0
-159.76 884.84 1580.1
-153.30 871.39 1556.0
-147.71 862.30 1539.8
-138.47 830.81 1483.6
-132.67 818.78 1462.1
-134.81 856.44 1529.3
-135.41 886.30 1582.7
-129.16 871.83 1556.8
-122.07 850.52 1518.8
-117.54 846.27 1511.2
-116.19 865.41 1545.4
-113.40 874.80 1562.1
-104.24 833.96 1489.2
-97.46 809.68 1445.9
-98.47 850.76 1519.2
-96.82 871.36 1556.0
-88.64 832.43 1486.5
-82.16 806.66 1440.5
-79.38 816.51 1458.1
-77.60 838.07 1496.6
-74.11 842.55 1504.6
-68.27 819.20 1462.9
-62.71 796.81 1422.9
-59.21 799.32 1427.4
-55.04 792.55 1415.3
-51.15 789.19 1409.3
-48.53 806.34 1439.9
-46.26 832.76 1487.1
-44.00 864.07 1543.0
-39.46 852.39 1522.1
-34.58 829.97 1482.1
-31.99 863.71 1542.3
-29.65 915.04 1634.0
-25.13 904.81 1615.7
-20.19 872.10 1557.3
-15.50 836.94 1494.5
-11.56 832.56 1486.7
-8.10 875.08 1562.6
-3.90 841.86 1503.3
0.00 747.56 1334.9
3.15 680.62 1215.4
6.55 707.49 1263.4
11.31 814.48 1454.4
14.97 808.61 1443.9
17.36 749.96 1339.2
24.51 882.34 1575.6
50.20 774.54 1383.1
45.68 657.77 1174.6
57.69 778.81 1390.7
62.71 796.81 1422.9
54.07 648.82 1158.6
55.69 633.13 1130.6
62.28 672.61 1201.1
69.26 650.43 1161.5
72.59 653.28 1166.6
89.10 769.79 1374.6
106.32 850.54 1518.8
91.09 702.67 1254.8
93.34 695.25 1241.5
96.41 694.17 1239.6
101.22 705.28 1259.4
119.34 805.55 1438.5
135.50 860.82 1537.2
113.89 702.86 1255.1
94.88 569.29 1016.6
124.86 728.89 1301.6
-366.48 1079.37 1936.4
-360.31 1075.91 1930.2
-339.87 1029.19 1846.4
-332.54 1021.38 1832.4
-344.58 1073.68 1926.2
-337.11 1065.87 1912.2
-336.62 1080.19 1937.9
-343.83 1120.04 2009.4
-341.35 1129.08 2025.6
-329.75 1107.76 1987.3
-311.99 1064.73 1910.2
-298.52 1035.17 1857.1
-283.53 999.32 1792.8
-268.19 961.03 1724.1
-259.30 944.91 1695.2
-263.58 977.05 1752.8
-269.60 1016.93 1824.4
-262.81 1009.01 1810.2
-252.26 986.10 1769.1
-239.73 954.47 1712.3
-235.71 956.18 1715.4
-232.73 962.24 1726.3
-222.35 937.34 1681.6
-222.43 956.45 1715.9
-217.82 955.72 1714.6
-210.07 940.95 1688.1
-205.85 941.66 1689.4
-193.54 904.59 1622.9
-188.46 900.44 1615.4
-186.80 912.76 1637.5
-175.13 875.65 1570.9
-168.06 860.33 1543.4
-172.23 903.17 1620.3
-172.58 927.60 1664.1
-163.72 902.57 1619.2
-155.44 879.46 1577.8
-148.12 860.71 1544.1
-140.08 836.60 1500.9
-135.66 833.36 1495.1
-133.58 844.67 1515.4
-130.34 849.18 1523.5
-127.71 858.06 1539.4
-123.81 858.69 1540.5
-116.31 833.56 1495.4
-111.99 830.29 1489.6
-111.75 858.10 1539.5
-105.21 837.81 1503.1
-95.39 788.84 1415.2
-93.15 801.09 1437.2
-95.13 852.24 1528.9
-90.76 848.45 1522.1
-82.45 805.76 1445.5
-78.24 800.98 1437.0
-77.96 838.03 1503.4
-75.96 859.52 1542.0
-70.70 844.52 1515.1
-65.74 831.46 1491.7
-61.66 828.61 1486.5
-57.03 817.48 1466.6
-52.82 811.22 1455.3
-50.00 826.85 1483.4
-45.91 822.52 1475.6
-41.74 815.76 1463.5
-38.31 823.59 1477.5
-34.46 823.14 1476.7
-30.30 814.41 1461.1
-26.45 812.50 1457.6
-23.00 824.21 1478.6
-19.09 820.82 1472.6
-15.60 838.37 1504.1
-12.72 911.42 1635.1
-8.43 906.56 1626.4
-3.74 803.83 1442.1
0.00 735.19 1318.9
3.20 687.96 1234.2
6.30 677.73 1215.9
10.35 741.50 1330.3
15.51 833.50 1495.3
19.78 850.52 1525.9
23.41 838.81 1504.8
27.63 848.52 1522.3
32.84 882.57 1583.3
36.29 866.95 1555.3
40.53 871.29 1563.1
46.88 775.26 1390.8
53.08 815.11 1462.3
65.86 885.05 1587.8
57.74 730.26 1310.1
54.05 645.55 1158.1
60.65 686.35 1231.3
71.26 766.05 1374.3
63.70 652.17 1170.0
60.16 587.91 1054.7
63.20 590.76 1059.8
63.98 573.18 1028.3
76.02 653.80 1172.9
89.81 742.66 1332.4
88.19 702.23 1259.8
77.46 594.74 1067.0
74.97 555.79 997.1
101.60 728.15 1306.3
106.64 694.79 1246.5
127.51 806.32 1446.6
125.94 773.66 1388.0
103.44 617.75 1108.3
122.32 710.79 1275.2
151.93 837.58 1502.6
136.08 713.62 1280.2
145.18 693.62 1244.4
-347.12 1017.58 1834.1
-340.39 1011.73 1823.5
-340.87 1027.42 1851.8
-352.02 1076.18 1939.7
-351.75 1090.93 1966.3
-332.91 1047.67 1888.3
-325.72 1040.35 1875.1
-325.11 1054.14 1900.0
-315.18 1037.68 1870.3
-300.24 1003.93 1809.5
-294.23 999.45 1801.4
-289.09 997.84 1798.5
-278.63 977.49 1761.8
-268.75 958.56 1727.7
-258.52 937.69 1690.1
-260.86 962.50 1734.8
-258.88 971.92 1751.8
-245.59 938.51 1691.6
-238.92 929.62 1675.6
-229.42 909.17 1638.7
-221.17 893.04 1609.6
-214.95 884.61 1594.4
-201.11 843.87 1521.0
-198.34 848.91 1530.1
-207.56 906.50 1633.9
-212.25 946.27 1705.6
-208.72 950.36 1712.9
-196.76 915.36 1649.9
-186.95 889.03 1602.4
-181.05 880.54 1587.1
-174.64 869.15 1566.6
-172.13 877.06 1580.8
-166.59 869.52 1567.2
-157.95 845.06 1523.1
-154.65 848.61 1529.5
-151.40 852.64 1536.8
-149.70 865.86 1560.6
-146.66 871.82 1571.4
-138.98 849.73 1531.6
-134.18 844.56 1522.2
-128.24 831.65 1499.0
-123.29 824.53 1486.1
-121.07 835.79 1506.4
-115.08 820.91 1479.6
-108.90 803.61 1448.4
-106.62 814.86 1468.7
-104.60 829.02 1494.2
-98.74 812.67 1464.8
-91.44 782.74 1410.8
-88.18 786.23 1417.1
-87.27 812.00 1463.6
-82.59 803.38 1448.0
-77.66 791.35 1426.3
-76.59 819.54 1477.1
-73.72 830.29 1496.5
-67.85 806.61 1453.8
-64.28 809.11 1458.3
-61.44 821.79 1481.2
-57.84 825.24 1487.4
-54.66 835.49 1505.9
-50.49 831.18 1498.1
-45.20 806.02 1452.8
-41.26 802.67 1446.7
-38.10 815.32 1469.5
-33.58 798.39 1439.0
-28.81 770.77 1389.2
-25.05 765.95 1380.6
-21.68 773.25 1393.7
-19.25 823.73 1484.7
-12.49 890.71 1605.4
-6.93 741.30 1336.1
-3.45 739.36 1332.6
0.00 784.00 1413.1
3.50 748.10 1348.4
7.10 759.25 1368.5
12.50 891.68 1607.2
23.87 851.36 1534.5
25.96 793.60 1430.4
29.38 785.81 1416.3
33.90 806.15 1453.0
39.41 843.46 1520.2
50.01 891.86 1607.5
46.81 770.57 1388.9
52.66 804.94 1450.8
47.61 679.30 1224.4
44.63 561.87 1012.7
54.88 652.47 1176.0
51.73 582.61 1050.1
58.23 566.43 1020.9
67.28 625.96 1128.2
76.49 682.08 1229.4
75.15 643.24 1159.4
78.38 645.10 1162.7
85.47 677.45 1221.0
81.97 626.52 1129.2
78.91 562.93 1014.6
114.83 767.91 1384.1
103.18 669.09 1206.0
133.57 840.69 1515.3
126.65 752.87 1357.0
132.15 764.33 1377.6
133.38 751.14 1353.9
121.80 668.35 1204.6
120.29 643.58 1160.0
115.13 600.93 1083.1
148.06 754.39 1359.7
150.87 733.78 1322.6
144.83 688.73 1241.4
-354.77 1021.17 1849.2
-360.24 1051.11 1903.4
-344.15 1018.10 1843.6
-336.46 1009.39 1827.9
-351.30 1068.95 1935.7
-354.76 1095.12 1983.1
-343.94 1077.34 1950.9
-344.56 1095.39 1983.6
-323.53 1044.12 1890.8
-294.65 965.56 1748.5
-292.95 974.96 1765.5
-298.65 1009.73 1828.5
-296.93 1020.10 1847.3
-289.49 1010.84 1830.5
-284.16 1008.76 1826.7
-278.84 1006.66 1822.9
-277.46 1018.94 1845.2
-271.34 1013.97 1836.2
-254.93 969.66 1755.9
-245.99 952.66 1725.1
-238.30 939.97 1702.2
-230.73 927.27 1679.2
-233.82 957.76 1734.4
-228.35 953.69 1727.0
-210.40 896.29 1623.1
-206.24 896.52 1623.5
-205.87 913.56 1654.3
-197.60 895.52 1621.7
-194.59 901.02 1631.6
-192.23 909.88 1647.7
-186.11 900.95 1631.5
-179.69 890.08 1611.8
-173.46 879.69 1593.0
-164.83 856.29 1550.6
-157.31 837.69 1516.9
-154.91 846.05 1532.1
-153.12 858.25 1554.2
-152.46 877.69 1589.4
-151.30 895.20 1621.1
-145.15 883.31 1599.6
-139.72 875.27 1585.0
-133.31 860.48 1558.2
-124.01 825.43 1494.7
-117.91 810.13 1467.0
-112.83 801.09 1450.7
-107.31 788.19 1427.3
-105.40 801.81 1452.0
-103.61 817.37 1480.1
-98.31 805.41 1458.5
-91.49 779.46 1411.5
-86.80 770.38 1395.1
-84.50 782.54 1417.1
-83.13 804.84 1457.5
-81.41 825.70 1495.2
-77.45 824.82 1493.6
-71.86 805.58 1458.8
-67.88 803.24 1454.6
-66.04 827.47 1498.4
-61.69 821.26 1487.2
-56.61 803.93 1455.8
-51.89 789.50 1429.7
-46.24 757.66 1372.0
-42.12 747.56 1353.7
-39.53 765.49 1386.2
-37.57 800.32 1449.3
-34.04 805.68 1459.0
-31.42 836.65 1515.1
-24.02 852.66 1544.1
-19.36 824.65 1493.3
-16.32 869.14 1573.9
-10.49 744.92 1348.9
-6.53 695.62 1259.7
-3.64 774.42 1402.4
0.00 901.08 1631.7
24.44 867.64 1571.2
26.80 815.41 1476.6
25.07 667.48 1208.7
26.63 630.24 1141.3
29.20 621.99 1126.3
31.45 608.91 1102.7
43.45 771.24 1396.6
53.89 819.94 1484.8
39.67 563.33 1020.1
57.80 683.94 1238.5
60.62 679.53 1230.5
63.30 674.15 1220.8
70.89 718.98 1302.0
75.60 731.94 1325.4
82.36 762.75 1381.2
80.01 710.05 1285.8
66.33 565.17 1023.4
74.63 611.42 1107.2
86.18 679.85 1231.1
100.27 762.74 1381.2
104.55 767.93 1390.6
93.95 625.34 1132.4
118.54 721.39 1306.3
121.90 721.26 1306.1
145.73 816.83 1479.2
127.67 697.25 1262.6
160.12 852.62 1544.0
-362.17 1023.72 1862.6
-370.24 1060.68 1929.8
-362.31 1081.81 1968.3
-366.60 1110.26 2020.0
-362.26 1113.03 2025.1
-344.77 1074.86 1955.6
-350.95 1110.46 2020.4
-335.15 1076.54 1958.7
-306.95 1001.13 1821.5
-305.64 1012.42 1842.0
-304.22 1023.71 1862.5
-295.58 1010.68 1838.8
-295.43 1026.74 1868.1
-296.62 1048.05 1906.8
-284.59 1022.59 1860.5
-277.10 1012.86 1842.8
-280.37 1042.78 1897.2
-271.36 1027.31 1869.1
-251.59 969.77 1764.4
-235.03 922.70 1678.8
-225.96 903.83 1644.4
-227.50 927.51 1687.5
-234.47 974.64 1773.3
-228.01 966.75 1758.9
-214.21 926.79 1686.2
-204.69 904.03 1644.8
-196.22 885.09 1610.3
-192.51 887.22 1614.2
-189.39 892.22 1623.3
-182.73 880.44 1601.9
-173.47 855.23 1556.0
-164.91 832.40 1514.5
-167.23 864.71 1573.3
-170.06 901.34 1639.9
-160.02 869.86 1582.6
-151.05 842.68 1533.2
-150.28 861.08 1566.7
-148.78 876.12 1594.0
-143.72 870.52 1583.8
-139.17 867.79 1578.9
-131.22 842.96 1533.7
-120.52 798.43 1452.7
-115.93 792.79 1442.4
-112.34 793.88 1444.4
-107.96 789.19 1435.9
-106.91 809.50 1472.8
-104.03 816.82 1486.1
-97.71 796.74 1449.6
-93.80 795.40 1447.2
-91.80 810.89 1475.3
-87.41 805.70 1465.9
-84.27 812.04 1477.4
-81.40 821.76 1495.1
-76.44 810.30 1474.3
-71.29 795.46 1447.3
-67.71 797.46 1450.9
-66.00 823.04 1497.4
-61.83 819.26 1490.6
-56.57 799.59 1454.8
-51.82 784.72 1427.7
-46.71 761.67 1385.8
-43.06 760.76 1384.1
-40.97 789.69 1436.8
-39.52 837.89 1524.5
-35.88 845.15 1537.7
-33.48 887.09 1614.0
-24.64 870.78 1584.3
-18.86 799.52 1454.7
-14.82 785.57 1429.3
-9.92 701.29 1275.9
-3.52 746.10 1357.5
0.00 889.16 1617.7
14.19 751.86 1367.9
16.86 714.75 1300.4
19.18 677.65 1232.9
28.80 610.60 1110.9
34.48 609.09 1108.2
50.04 816.07 1484.8
55.54 841.05 1530.2
54.46 769.74 1400.5
55.69 737.91 1342.6
72.07 804.12 1463.0
57.97 614.46 1117.9
65.48 661.06 1202.7
73.79 711.02 1293.6
79.11 729.22 1326.7
75.25 664.68 1209.3
62.78 532.35 968.6
65.16 531.32 966.7
81.68 641.34 1166.9
102.85 778.73 1416.8
93.71 662.20 1204.8
112.18 743.18 1352.1
132.70 803.78 1462.4
126.44 744.58 1354.7
140.60 764.30 1390.6
144.77 730.74 1329.5
119.99 591.56 1076.3
141.55 682.02 1240.9
-406.78 1144.40 2092.0
-365.10 1100.52 2011.8
-335.98 1027.41 1878.1
-323.43 1003.58 1834.6
-332.64 1047.57 1915.0
-333.87 1067.38 1951.2
-322.34 1046.37 1912.8
-310.00 1022.02 1868.3
-298.58 1000.02 1828.1
-299.24 1018.40 1861.7
-309.35 1070.05 1956.1
-296.67 1043.28 1907.1
-273.46 977.95 1787.7
-260.14 946.36 1730.0
-256.76 950.45 1737.4
-256.37 965.96 1765.8
-245.41 941.47 1721.0
-229.67 897.43 1640.5
-220.58 878.14 1605.3
-214.71 871.22 1592.6
-215.13 890.05 1627.0
-219.89 927.95 1696.3
-217.32 935.81 1710.7
-206.21 906.47 1657.0
-195.59 878.05 1605.1
-187.72 861.08 1574.1
-180.94 848.39 1550.9
-176.16 844.76 1544.2
-168.49 826.80 1511.4
-162.14 814.56 1489.0
-166.11 854.87 1562.7
-162.19 855.53 1563.9
-147.03 795.47 1454.1
-142.60 791.80 1447.4
-145.41 829.25 1515.9
-143.71 842.32 1539.8
-138.48 834.82 1526.1
-132.93 824.92 1508.0
-124.17 793.96 1451.4
-116.80 770.16 1407.9
-115.14 783.69 1432.6
-113.62 799.13 1460.8
-111.30 809.79 1480.3
-108.68 819.01 1497.2
-104.51 816.73 1493.0
-100.24 813.49 1487.1
-98.27 829.40 1516.2
-93.81 824.72 1507.6
-87.14 799.42 1461.4
-83.06 796.63 1456.3
-79.15 795.28 1453.8
-74.16 782.42 1430.3
-68.91 765.24 1398.9
-64.39 754.76 1379.7
-61.67 765.38 1399.1
-58.92 776.96 1420.3
-55.14 775.58 1417.8
-53.18 801.54 1465.2
-50.87 825.58 1509.2
-45.07 792.54 1448.8
-40.59 778.67 1423.4
-39.13 825.73 1509.5
-35.63 835.37 1527.1
-30.56 806.14 1473.6
-26.17 788.89 1442.1
-22.20 780.76 1427.3
-18.84 795.18 1453.6
-15.39 811.99 1484.3
-10.83 761.62 1392.3
-6.76 713.16 1303.7
-3.77 795.71 1454.6
0.00 813.95 1487.9
3.67 773.63 1414.2
8.13 857.61 1567.7
11.93 839.36 1534.4
13.64 719.37 1315.0
15.51 654.57 1196.6
16.10 566.25 1035.1
36.20 763.84 1396.3
42.90 822.81 1504.1
37.24 654.85 1197.1
39.37 638.98 1168.1
52.71 794.35 1452.1
55.24 728.52 1331.8
59.66 740.45 1353.6
65.12 687.02 1255.9
76.67 770.36 1408.2
91.14 801.24 1464.7
75.62 638.22 1166.7
78.75 639.10 1168.3
104.74 789.31 1442.9
88.13 641.22 1172.2
96.67 679.91 1242.9
119.43 812.89 1486.0
114.58 671.56 1227.6
123.11 702.04 1283.4
123.40 685.17 1252.5
103.73 561.22 1025.9
120.05 633.28 1157.7
129.25 665.17 1215.9
125.72 631.58 1154.5
140.07 687.33 1256.5
-417.75 1139.31 2092.6
-398.45 1115.67 2049.2
-385.31 1093.46 2008.4
-374.18 1076.41 1977.1
-356.09 1038.58 1907.6
-350.95 1038.01 1906.6
-339.05 1017.14 1868.2
-324.23 986.79 1812.5
-323.16 998.00 1833.1
-325.76 1021.03 1875.4
-320.56 1019.96 1873.4
-322.69 1042.53 1914.8
-323.59 1061.79 1950.2
-307.57 1025.22 1883.1
-304.46 1031.23 1894.1
-298.13 1026.34 1885.1
-273.03 955.59 1755.2
-265.89 946.40 1738.3
-266.31 964.22 1771.0
-251.75 927.52 1703.6
-240.71 902.65 1657.9
-241.07 920.46 1690.6
-235.78 916.92 1684.1
-224.77 890.58 1635.8
-216.82 875.63 1608.3
-208.44 858.28 1576.4
-204.97 860.88 1581.2
-206.69 885.81 1627.0
-200.35 876.52 1609.9
-195.16 871.98 1601.6
-191.78 875.52 1608.1
-182.97 853.84 1568.3
-176.35 841.67 1545.9
-174.62 852.80 1566.4
-173.55 867.74 1593.8
-164.80 844.12 1550.4
-150.12 788.11 1447.5
-139.85 753.02 1383.1
-139.05 768.41 1411.4
-139.11 789.53 1450.2
-135.13 788.25 1447.8
-131.80 790.77 1452.4
-127.74 789.01 1449.2
-121.31 771.98 1417.9
-115.91 760.66 1397.1
-113.86 771.28 1416.6
-112.24 785.71 1443.1
-111.55 807.78 1483.7
-110.33 827.46 1519.8
-105.05 817.08 1500.8
-99.88 806.69 1481.7
-96.79 813.00 1493.3
-91.40 799.74 1468.9
-86.92 793.63 1457.7
-84.65 808.05 1484.2
-79.48 794.76 1459.8
-73.15 768.10 1410.8
-68.94 761.97 1399.5
-65.40 762.99 1401.4
-61.89 764.50 1404.2
-58.36 766.00 1406.9
-54.55 763.67 1402.7
-52.51 787.62 1446.7
-49.65 802.02 1473.1
-43.26 757.14 1390.7
-38.61 737.10 1353.9
-36.81 773.00 1419.8
-35.14 819.89 1505.9
-31.82 835.22 1534.1
-26.46 793.66 1457.7
-21.69 759.26 1394.6
-19.38 813.79 1494.7
0.00 814.80 1496.6
3.59 754.07 1385.0
7.94 833.92 1531.7
12.15 850.64 1562.4
13.70 719.14 1320.9
16.11 676.56 1242.7
17.76 621.56 1141.6
20.67 620.11 1139.0
25.59 671.71 1233.8
27.58 643.48 1181.9
34.40 722.33 1326.7
43.57 831.75 1527.7
41.16 720.33 1323.1
44.68 721.72 1325.6
55.23 724.90 1331.4
53.15 656.51 1205.8
66.59 776.85 1426.9
70.02 588.15 1080.3
89.53 696.33 1279.0
81.70 591.64 1086.7
72.38 506.63 930.6
77.73 526.59 967.2
91.64 601.38 1104.6
119.44 760.06 1396.0
123.14 738.82 1357.0
88.97 518.98 953.2
102.31 537.15 986.6
132.74 679.87 1248.7
125.27 584.61 1073.8
144.90 661.51 1215.0
-374.74 1072.89 1980.0
-360.67 1046.96 1932.2
-358.03 1053.92 1945.0
-363.83 1086.29 2004.8
-365.13 1105.97 2041.1
-344.49 1058.80 1954.0
-330.48 1030.91 1902.6
-323.58 1024.66 1891.0
-324.06 1041.97 1923.0
-328.70 1073.42 1981.0
-316.00 1048.30 1934.7
-299.46 1009.48 1863.0
-281.64 964.97 1780.9
-265.59 925.15 1707.4
-265.38 940.07 1734.9
-273.80 986.63 1820.9
-265.81 974.64 1798.7
-240.96 899.31 1659.7
-229.14 870.73 1607.0
-231.88 897.45 1656.3
-228.85 902.43 1665.4
-225.41 905.98 1672.0
-220.67 904.33 1669.0
-208.36 870.95 1607.4
-202.69 864.55 1595.5
-200.02 870.92 1607.3
-198.03 880.61 1625.2
-194.28 882.71 1629.1
-185.10 859.70 1586.6
-175.84 835.24 1541.5
-171.88 835.43 1541.8
-171.16 851.74 1571.9
-163.03 831.05 1533.7
-155.36 811.77 1498.1
-151.42 811.46 1497.6
-144.29 793.58 1464.6
-138.42 781.87 1443.0
-135.44 786.29 1451.1
-133.05 794.51 1466.3
-129.97 798.92 1474.4
-124.22 786.71 1451.9
-116.25 759.28 1401.3
-111.79 753.71 1391.0
-109.77 764.76 1411.4
-108.70 783.41 1445.8
-107.96 805.87 1487.3
-103.26 799.33 1475.2
-96.38 774.71 1429.7
-91.71 766.73 1415.0
-88.22 768.25 1417.8
-85.50 776.91 1433.8
-83.74 795.56 1468.2
-79.08 787.08 1452.6
-74.10 774.31 1429.0
-71.13 782.48 1444.1
-67.68 785.89 1450.4
-64.32 790.72 1459.3
-60.17 786.03 1450.6
-55.77 777.05 1434.1
-52.41 782.34 1443.8
-48.10 773.35 1427.2
-44.84 781.02 1441.4
-43.31 822.98 1518.8
-39.61 827.78 1527.7
-35.81 831.64 1534.8
-32.58 851.20 1570.9
-27.19 811.70 1498.0
-21.89 762.66 1407.5
-19.27 805.56 1486.7
-4.17 872.30 1609.9
0.00 689.36 1272.2
2.91 607.90 1121.9
7.08 739.38 1364.5
10.65 742.23 1369.8
14.57 761.27 1404.9
22.35 778.38 1436.5
23.60 704.52 1300.2
32.20 841.20 1552.5
36.57 849.26 1567.3
33.86 707.76 1306.2
33.24 631.52 1165.5
35.25 613.86 1132.9
42.56 684.30 1262.9
58.90 769.37 1419.9
57.62 708.36 1307.3
67.56 784.46 1447.7
76.24 796.68 1470.3
76.69 763.29 1408.7
70.82 672.80 1241.7
74.97 681.28 1257.3
86.65 724.40 1336.9
69.69 560.23 1033.9
84.16 651.45 1202.3
97.84 730.28 1347.7
80.67 581.38 1072.9
71.91 500.97 924.5
72.53 489.01 902.5
81.26 530.74 979.5
100.21 634.69 1171.3
123.86 761.40 1405.2
118.34 706.65 1304.1
93.81 544.61 1005.1
95.56 539.76 996.1
132.03 726.19 1340.2
107.77 577.51 1065.8
123.49 645.24 1190.8
146.19 745.19 1375.3
158.20 787.24 1452.9
128.47 596.67 1101.2
-402.76 1102.28 2044.1
-402.16 1115.33 2068.3
-356.20 1089.56 2020.5
-335.97 1043.01 1934.2
-323.18 1018.49 1888.7
-311.49 996.76 1848.4
-303.76 987.23 1830.7
-296.55 979.09 1815.6
-285.21 956.85 1774.4
-279.74 953.86 1768.8
-275.64 955.56 1772.0
-262.86 926.69 1718.4
-259.14 929.32 1723.3
-263.26 960.66 1781.4
-249.84 927.98 1720.8
-220.29 833.11 1544.9
-206.81 796.60 1477.2
-217.56 853.83 1583.3
-227.54 910.15 1687.8
-225.30 918.88 1704.0
-215.27 895.54 1660.7
-207.13 879.26 1630.5
-201.98 875.23 1623.0
-190.57 843.35 1563.9
-178.93 809.09 1500.4
-179.38 829.12 1537.5
-179.13 846.78 1570.3
-167.67 811.07 1504.0
-160.09 792.82 1470.2
-160.69 815.20 1511.7
-161.07 837.59 1553.2
-154.86 825.94 1531.6
-145.74 797.73 1479.3
-142.10 798.83 1481.3
-141.15 815.54 1512.3
-132.72 788.72 1462.6
-124.31 760.47 1410.2
-123.00 775.27 1437.7
-119.15 774.46 1436.1
-115.37 774.11 1435.5
-113.79 788.91 1463.0
-109.35 784.30 1454.4
-105.53 783.94 1453.7
-103.50 797.31 1478.5
-99.03 792.21 1469.1
-92.38 768.62 1425.3
-87.06 754.50 1399.1
-84.65 765.50 1419.5
-83.18 786.44 1458.4
-80.94 801.70 1486.7
-78.46 816.01 1513.2
-73.94 809.46 1501.1
-68.74 794.36 1473.1
-63.38 775.46 1438.0
-57.32 745.17 1381.8
-54.29 752.82 1396.0
-52.21 775.65 1438.4
-47.95 767.16 1422.6
-44.62 773.38 1434.2
-43.66 825.62 1531.0
-40.45 841.32 1560.1
-34.56 798.66 1481.0
-29.37 763.58 1416.0
-26.26 780.22 1446.8
-23.15 802.55 1488.2
-18.85 784.06 1454.0
-15.32 796.42 1476.9
-11.97 830.13 1539.4
-7.73 803.56 1490.1
-3.64 758.00 1405.6
0.00 665.45 1234.0
5.69 591.40 1096.7
10.40 720.97 1337.0
25.89 769.30 1426.6
24.13 627.37 1163.4
36.03 681.37 1263.5
33.23 576.00 1068.1
37.95 607.28 1126.1
48.66 722.99 1340.7
58.57 812.11 1506.0
58.71 763.19 1415.3
54.04 661.16 1226.0
61.19 707.10 1311.2
72.60 794.76 1473.8
77.41 805.11 1493.0
78.60 778.47 1443.6
73.96 699.22 1296.6
74.32 672.12 1246.4
85.64 742.18 1376.3
90.89 700.20 1298.4
78.69 584.52 1083.9
82.61 592.48 1098.7
95.82 664.37 1232.0
108.53 728.18 1350.3
110.99 721.44 1337.8
100.62 634.23 1176.1
94.29 576.86 1069.7
117.67 699.30 1296.8
92.46 519.78 963.9
103.35 537.44 996.6
131.25 665.87 1234.8
129.73 599.64 1112.0
133.94 605.64 1123.1
-401.02 1050.77 1958.0
-389.32 1060.40 1975.9
-370.16 1021.65 1903.7
-375.20 1049.55 1955.7
-391.16 1109.18 2066.8
-357.49 1057.15 1969.9
-346.90 1040.71 1939.2
-334.93 1019.58 1899.8
-321.20 992.35 1849.1
-312.04 978.66 1823.6
-302.57 963.55 1795.4
-293.09 947.96 1766.4
-283.90 932.83 1738.2
-272.33 909.25 1694.2
-267.20 906.72 1689.5
-276.21 952.91 1775.6
-276.09 968.67 1805.0
-256.79 916.46 1707.7
-245.59 891.88 1661.9
-246.05 909.49 1694.7
-228.76 860.95 1604.3
-209.60 803.47 1497.1
-215.15 840.31 1565.8
-220.47 877.63 1635.3
-214.09 868.94 1619.1
-204.27 845.67 1575.8
-195.56 826.15 1539.4
-194.24 837.64 1560.8
-186.93 823.27 1534.0
-176.41 793.84 1479.2
-176.91 813.78 1516.4
-182.62 859.14 1600.9
-176.85 851.33 1586.3
-161.02 793.62 1478.8
-154.61 780.61 1454.5
-156.15 808.08 1505.7
-151.48 804.01 1498.2
-144.94 789.57 1471.2
-143.26 801.50 1493.5
-141.71 814.85 1518.3
-133.02 786.71 1465.9
-122.89 748.20 1394.2
-119.90 752.10 1401.4
-118.98 769.68 1434.2
-117.83 786.78 1466.1
-115.69 798.23 1487.4
-110.66 789.86 1471.8
-106.73 789.03 1470.2
-104.47 800.94 1492.4
-101.21 805.77 1501.4
-95.68 792.19 1476.1
-90.05 776.71 1447.3
-87.36 786.25 1465.1
-82.22 773.59 1441.5
-76.48 753.84 1404.7
-76.63 793.13 1477.9
-74.80 814.94 1518.5
-68.24 784.78 1462.3
-61.58 749.88 1397.3
-56.76 734.35 1368.4
-54.83 756.63 1409.9
-52.30 773.23 1440.8
-47.82 761.46 1418.9
-42.61 735.04 1369.6
-39.59 745.01 1388.2
-38.00 786.66 1465.8
-33.98 781.49 1456.2
-27.24 704.94 1313.5
-20.68 713.50 1329.5
-17.77 735.74 1370.9
-15.12 782.57 1458.2
-7.51 777.40 1448.6
-3.13 646.89 1205.4
0.00 697.96 1300.5
3.59 742.88 1384.3
6.42 664.85 1238.9
9.99 689.43 1284.7
14.87 769.33 1433.5
20.66 855.37 1593.9
24.14 713.95 1330.3
23.59 610.38 1137.3
38.23 719.49 1340.7
34.20 589.92 1099.2
39.45 628.17 1170.5
46.06 681.06 1269.1
51.16 706.06 1315.6
55.56 718.76 1339.3
56.66 689.88 1285.5
53.37 613.74 1143.6
53.47 582.50 1085.4
65.36 676.45 1260.5
77.15 760.45 1417.0
72.58 682.91 1272.5
70.83 637.50 1187.9
74.07 638.84 1190.4
78.17 647.25 1206.1
81.23 646.70 1205.0
76.03 582.89 1086.1
75.90 561.10 1045.5
95.19 679.45 1266.1
112.98 708.72 1320.6
107.40 653.91 1218.5
132.15 739.30 1377.6
104.92 542.96 1011.7
127.29 642.66 1197.5
171.76 826.86 1540.7
-428.11 1116.33 2090.2
-380.66 1031.78 1931.9
-355.68 976.92 1829.2
-353.07 982.87 1840.3
-352.38 994.39 1861.9
-349.31 999.40 1871.3
-361.41 1048.59 1963.4
-367.35 1081.06 2024.2
-352.26 1051.67 1969.1
-336.06 1018.05 1906.2
-321.38 988.14 1850.2
-311.62 972.63 1821.2
-300.09 951.06 1780.8
-288.91 929.93 1741.2
-288.20 942.36 1764.5
-284.56 945.46 1770.3
-272.45 920.09 1722.8
-275.14 944.65 1768.8
-278.53 972.48 1820.9
-262.19 931.21 1743.6
-242.49 876.36 1640.9
-234.49 862.60 1615.1
-232.12 869.39 1627.8
-226.37 863.56 1616.9
-228.50 888.11 1662.9
-229.91 910.81 1705.4
-220.34 889.99 1666.4
-209.26 862.14 1614.3
-195.77 823.04 1541.1
-189.64 813.88 1523.9
-189.48 830.47 1555.0
-184.86 827.86 1550.1
-173.62 794.78 1488.2
-167.60 784.65 1469.2
-173.81 832.65 1559.1
-168.94 828.61 1551.5
-154.31 775.32 1451.7
-148.67 765.63 1433.6
-149.07 787.38 1474.3
-147.26 798.33 1494.8
-142.91 795.67 1489.8
-138.91 794.88 1488.3
-136.35 802.54 1502.7
-131.86 798.92 1495.9
-126.50 789.67 1478.6
-123.13 792.62 1484.1
-118.52 787.58 1474.7
-113.14 776.90 1454.7
-109.32 776.55 1454.0
-106.40 782.77 1465.7
-103.41 789.00 1477.3
-99.77 790.52 1480.2
-95.66 788.27 1476.0
-91.30 783.67 1467.3
-88.14 789.41 1478.1
-82.66 773.98 1449.2
-73.15 717.60 1343.6
-69.36 714.38 1337.6
-68.72 745.04 1395.0
-63.75 729.58 1366.1
-61.53 745.65 1396.2
-61.10 786.68 1473.0
-56.94 782.03 1464.3
-52.42 771.26 1444.1
-48.53 768.96 1439.8
-43.95 754.41 1412.6
-39.10 732.32 1371.2
-35.76 736.60 1379.2
-33.17 759.25 1421.6
-27.77 715.01 1338.8
-22.76 669.81 1254.2
-20.55 705.64 1321.2
-17.75 731.09 1368.9
-15.19 782.46 1465.1
-12.03 825.81 1546.3
-6.28 646.34 1210.2
-2.92 602.53 1128.2
0.00 752.81 1409.6
3.74 770.24 1442.2
6.59 678.37 1270.2
8.97 615.71 1152.9
12.27 631.71 1182.8
17.95 739.57 1384.8
22.58 775.35 1451.8
22.98 676.41 1266.5
24.49 630.69 1180.9
33.66 770.55 1442.8
38.52 793.59 1485.9
33.60 629.19 1178.1
31.19 535.44 1002.5
35.48 562.24 1052.7
43.20 635.66 1190.2
50.74 696.81 1304.7
56.46 726.89 1361.0
53.84 652.45 1221.6
47.42 542.72 1016.2
50.79 550.66 1031.1
66.43 684.26 1281.2
75.17 737.36 1380.6
67.18 629.06 1177.9
66.34 594.17 1112.5
69.93 600.22 1123.8
83.39 687.15 1286.6
89.98 686.49 1285.4
90.17 663.36 1242.1
96.15 683.00 1278.9
99.86 685.72 1283.9
110.67 735.42 1377.0
111.45 717.45 1343.3
107.76 672.70 1259.6
112.02 678.69 1270.8
129.97 686.49 1285.4
124.62 641.78 1201.7
120.14 603.65 1130.3
105.07 515.36 965.0
128.30 614.64 1150.9
-431.75 1092.71 2056.0
-401.54 1069.04 2011.4
-376.77 1016.29 1912.2
-378.72 1035.18 1947.7
-357.78 991.15 1864.9
-341.21 958.19 1802.9
-343.00 976.61 1837.5
-359.22 1037.18 1951.5
-370.11 1083.90 2039.4
-359.49 1068.06 2009.6
-344.72 1039.22 1955.3
-331.12 1013.13 1906.2
-317.18 985.17 1853.6
-303.65 957.65 1801.9
-303.71 972.83 1830.4
-312.63 1017.27 1914.0
-296.24 979.50 1843.0
-272.33 915.20 1722.0
-263.59 900.61 1694.5
-256.87 892.51 1679.3
-259.83 918.37 1727.9
-257.24 925.15 1740.7
-239.96 878.41 1652.8
-229.37 854.91 1608.5
-221.70 841.64 1583.6
-221.63 857.25 1612.9
-225.66 889.64 1673.9
-218.95 880.09 1655.9
-215.51 883.58 1662.5
-209.47 876.35 1648.9
-199.24 850.91 1601.0
-195.24 851.58 1602.3
-189.25 843.39 1586.9
-176.77 805.31 1515.2
-168.78 786.35 1479.5
-173.01 824.82 1551.9
-172.47 841.82 1583.9
-162.05 810.23 1524.5
-149.74 767.40 1443.9
-143.98 756.81 1424.0
-143.95 776.60 1461.2
-141.38 783.30 1473.8
-137.50 782.98 1473.2
-135.22 792.01 1490.2
-131.46 792.62 1491.3
-126.86 788.08 1482.8
-125.74 805.53 1515.6
-122.96 813.15 1530.0
-116.07 793.15 1492.3
-111.09 785.31 1477.6
-107.53 787.30 1481.3
-103.89 788.82 1484.2
-100.00 788.46 1483.5
-95.77 785.29 1477.5
-92.00 785.86 1478.6
-89.23 795.33 1496.4
-86.07 801.98 1509.0
-78.71 768.32 1445.6
-70.94 727.15 1368.1
-66.44 716.90 1348.9
-64.27 731.98 1377.2
-64.83 781.76 1470.9
-61.75 791.20 1488.7
-55.01 751.87 1414.7
-52.50 768.81 1446.5
-50.60 797.95 1501.4
-44.90 767.04 1443.2
-39.05 727.68 1369.1
-35.43 726.31 1366.6
-32.55 741.36 1394.9
-29.10 745.62 1402.9
-25.99 761.13 1432.1
-22.72 776.17 1460.4
-18.60 762.59 1434.8
-14.96 766.83 1442.8
-10.81 738.68 1389.9
-6.99 716.64 1348.4
-4.12 844.29 1588.6
8.04 824.11 1550.6
10.02 684.71 1288.3
11.98 613.84 1155.0
16.01 656.53 1235.3
21.76 743.32 1398.6
22.61 662.12 1245.8
21.99 563.55 1060.3
28.49 648.92 1221.0
34.86 714.58 1344.5
33.43 623.05 1172.3
32.38 553.11 1040.7
36.32 572.78 1077.7
50.84 744.42 1400.7
56.86 685.62 1290.0
51.84 590.37 1110.8
55.71 601.09 1131.0
65.41 670.42 1261.4
66.60 650.19 1223.4
67.30 627.15 1180.0
74.61 665.04 1251.3
72.31 617.63 1162.1
77.94 639.10 1202.5
101.14 740.47 1393.2
97.71 690.72 1299.6
102.57 700.91 1318.8
112.06 741.06 1394.3
110.98 710.98 1337.7
101.70 631.77 1188.7
96.62 582.53 1096.1
105.43 617.52 1161.9
120.09 683.82 1286.6
121.63 673.87 1267.9
112.58 607.35 1142.7
119.10 610.37 1148.4
148.31 741.54 1395.2
135.43 661.03 1243.8
-429.46 1081.61 2045.1
-407.37 1065.43 2014.5
-383.37 1015.67 1920.4
-393.46 1056.14 1996.9
-403.17 1096.63 2073.5
-387.08 1067.09 2017.6
-361.70 1010.77 1911.1
-357.20 1012.07 1913.6
-349.64 1004.59 1899.4
-335.97 979.10 1851.2
-329.26 973.45 1840.6
-318.13 954.39 1804.5
-326.31 993.54 1878.5
-333.51 1030.86 1949.1
-309.27 970.63 1835.2
-299.24 953.83 1803.5
-311.38 1008.29 1906.4
-299.22 984.54 1861.5
-271.92 909.38 1719.4
-260.33 885.11 1673.5
-251.91 871.02 1646.9
-252.73 888.90 1680.7
-256.86 919.29 1738.2
-245.68 894.99 1692.2
-234.11 868.34 1641.8
-225.99 853.74 1614.2
-217.77 838.19 1584.8
-213.83 838.88 1586.1
-210.01 840.04 1588.3
-208.68 851.40 1609.8
-211.03 878.57 1661.2
-209.07 888.55 1680.0
-197.80 858.56 1623.3
-185.67 823.43 1556.9
-177.48 804.55 1521.2
-173.67 805.21 1522.4
-171.43 813.30 1537.7
-165.76 805.10 1522.2
-160.82 800.15 1512.9
-153.55 783.10 1480.6
-146.18 764.63 1445.7
-144.63 776.43 1468.0
-141.36 779.38 1473.6
-136.99 776.26 1467.7
-132.65 773.14 1461.8
-127.02 762.10 1440.9
-123.53 763.63 1443.8
-123.17 785.21 1484.6
-119.98 789.53 1492.8
-112.77 766.80 1449.8
-108.16 760.86 1438.6
-104.96 764.70 1445.9
-102.40 773.68 1462.8
-99.33 779.39 1473.6
-94.95 774.82 1465.0
-91.11 774.46 1464.3
-88.38 783.89 1482.1
-85.25 790.52 1494.7
-80.28 779.87 1474.5
-74.68 761.74 1440.3
-69.43 745.47 1409.5
-66.69 755.82 1429.1
-65.40 784.85 1484.0
-60.46 770.90 1457.6
-54.66 743.40 1405.6
-53.01 772.42 1460.5
-50.98 800.05 1512.7
-45.06 765.99 1448.3
-39.16 726.31 1373.3
-35.61 726.35 1373.3
-32.31 732.46 1384.9
-28.41 724.54 1369.9
-25.15 732.99 1385.9
-21.60 734.41 1388.6
-17.97 733.03 1386.0
-14.93 761.57 1439.9
-10.91 741.95 1402.8
-7.02 715.78 1353.4
8.07 822.84 1555.8
11.57 786.83 1487.7
15.40 785.41 1485.0
16.97 692.36 1309.1
19.18 652.14 1233.0
24.01 699.80 1323.1
29.29 746.98 1412.4
27.18 616.07 1164.8
30.27 561.32 1061.3
34.36 584.19 1104.6
38.06 597.23 1129.2
46.85 682.71 1290.8
58.16 697.96 1319.7
56.22 637.16 1204.7
55.73 598.33 1131.3
59.52 607.15 1148.0
65.23 633.70 1198.2
71.20 660.24 1248.4
77.69 689.11 1302.9
74.69 634.88 1200.4
72.25 589.52 1114.6
83.33 653.85 1236.3
91.22 689.22 1303.1
87.93 640.60 1211.2
99.67 701.15 1325.7
113.27 700.23 1324.0
105.89 635.31 1201.2
102.66 598.38 1131.4
104.43 591.75 1118.9
127.75 704.37 1331.8
152.61 819.28 1549.1
106.39 556.48 1052.2
102.79 524.24 991.2
148.47 738.71 1396.7
170.93 830.23 1569.8
125.24 594.15 1123.4
109.86 509.36 963.1
161.88 733.86 1387.6
192.34 817.45 1545.6
-437.77 1110.85 2110.7
-399.30 1026.06 1949.6
-391.59 1019.13 1936.4
-398.20 1049.81 1994.7
-399.03 1065.82 2025.1
-398.51 1078.62 2049.5
-392.84 1077.65 2047.6
-375.12 1043.15 1982.1
-355.62 1002.64 1905.1
-334.25 955.66 1815.8
-325.38 943.59 1792.9
-322.72 949.45 1804.0
-307.21 917.11 1742.6
-309.33 937.22 1780.8
-315.15 969.32 1841.8
-289.83 905.16 1719.9
-282.27 895.32 1701.2
-295.69 952.77 1810.3
-297.85 975.21 1853.0
-285.37 949.69 1804.5
-273.69 925.99 1759.5
-265.19 912.43 1733.7
-254.57 891.01 1693.0
-247.54 881.58 1675.1
-242.25 878.14 1668.5
-235.99 871.00 1655.0
-229.79 863.85 1641.4
-223.67 856.69 1627.8
-217.26 848.14 1611.5
-211.16 840.50 1597.0
-204.23 829.16 1575.5
-201.09 833.07 1582.9
-197.36 834.67 1585.9
-185.58 801.54 1523.0
-180.83 798.03 1516.3
-179.00 807.48 1534.3
-170.74 787.74 1496.8
-164.35 775.87 1474.2
-160.37 775.12 1472.8
-156.96 777.14 1476.6
-154.63 784.72 1491.0
-151.68 789.52 1500.2
-147.56 788.29 1497.8
-142.10 779.63 1481.3
-138.61 781.63 1485.2
-135.03 783.17 1488.1
-128.86 769.38 1461.9
-124.49 765.80 1455.1
-121.84 772.90 1468.6
-116.49 762.81 1449.4
-111.31 753.17 1431.1
-108.21 757.47 1439.2
-102.89 745.96 1417.4
-98.24 738.63 1403.5
-94.91 741.06 1408.1
-90.30 733.26 1393.2
-87.53 740.33 1406.7
-86.00 759.02 1442.2
-83.83 773.53 1469.8
-79.88 772.22 1467.3
-74.26 753.69 1432.1
-68.85 735.63 1397.7
-65.81 742.21 1410.3
-64.19 766.48 1456.4
-60.64 769.34 1461.8
-56.27 761.49 1446.9
-51.11 741.06 1408.1
-45.49 710.39 1349.8
-42.68 722.08 1372.0
-39.99 737.95 1402.2
-36.81 747.30 1419.9
-33.96 765.97 1455.4
-29.09 738.06 1402.4
-24.71 716.67 1361.7
-22.83 772.58 1468.0
-16.15 819.66 1557.4
-9.68 654.80 1244.2
-5.95 603.58 1146.9
-3.57 724.21 1376.1
0.00 780.57 1483.1
3.47 704.19 1338.0
6.97 707.44 1344.2
11.52 779.62 1481.3
23.98 811.23 1541.4
23.44 679.88 1291.8
29.71 753.89 1432.5
29.83 672.84 1278.4
27.04 548.95 1043.1
29.87 551.25 1047.4
37.26 630.36 1197.7
43.56 680.13 1292.3
45.30 656.81 1248.0
48.98 662.81 1259.4
54.77 694.87 1320.3
56.08 669.68 1272.4
52.36 590.51 1122.0
50.13 535.55 1017.6
59.27 601.56 1143.0
71.94 695.46 1321.4
68.20 629.34 1195.8
63.29 558.57 1061.3
69.27 585.94 1113.3
77.36 628.17 1193.6
84.08 656.45 1247.3
86.37 649.38 1233.9
75.45 547.04 1039.4
79.33 555.32 1055.2
98.81 668.61 1270.4
106.84 699.63 1329.3
115.69 733.88 1394.4
116.81 697.41 1325.1
108.30 628.11 1193.5
99.76 562.55 1068.9
116.22 637.62 1211.5
156.05 812.25 1543.3
133.51 677.59 1287.5
169.04 836.95 1590.3
147.85 698.01 1326.3
125.49 566.12 1075.7
155.33 685.48 1302.5
155.24 670.49 1274.0
151.71 641.63 1219.1
-427.39 1092.81 2086.7
-412.33 1095.94 2092.7
-404.18 1088.59 2078.6
-391.40 1068.43 2040.1
-382.95 1059.68 2023.4
-371.00 1040.85 1987.5
-359.06 1021.54 1950.6
-357.14 1030.62 1967.9
-346.38 1014.03 1936.3
-322.34 957.55 1828.4
-307.22 926.24 1768.6
-297.64 910.97 1739.5
-284.08 882.82 1685.7
-287.80 908.36 1734.5
-296.71 951.36 1816.6
-293.51 956.26 1826.0
-284.42 941.87 1798.5
-276.16 929.75 1775.3
-271.64 930.04 1775.9
-264.35 920.66 1758.0
-255.71 906.22 1730.4
-249.13 898.66 1716.0
-233.98 859.33 1640.9
-219.57 821.36 1568.4
-218.10 831.26 1587.3
-216.77 842.09 1607.9
-216.04 855.67 1633.9
-213.80 863.73 1649.3
-199.73 823.39 1572.2
-186.72 785.78 1500.4
-181.16 778.60 1486.7
-181.23 795.86 1519.7
-181.24 813.58 1553.5
-174.94 803.15 1533.6
-165.70 778.41 1486.3
-159.29 766.11 1462.9
-156.66 771.82 1473.8
-154.70 781.22 1491.7
-153.89 797.09 1522.0
-151.80 806.96 1540.9
-143.69 784.47 1497.9
-137.86 773.52 1477.0
-134.53 776.44 1482.6
-128.69 764.55 1459.9
-124.85 764.23 1459.3
-122.55 773.61 1477.2
-118.39 771.42 1473.0
-114.24 769.23 1468.8
-109.32 761.48 1454.0
-102.36 738.45 1410.1
-97.42 728.83 1391.7
-93.70 728.01 1390.1
-88.74 716.99 1369.1
-85.53 719.86 1374.6
-84.40 741.26 1415.4
-82.66 758.95 1449.2
-79.39 763.67 1458.2
-74.61 753.56 1438.9
-70.01 744.37 1421.4
-67.78 760.67 1452.5
-65.00 772.32 1474.7
-60.26 760.80 1452.7
-55.43 746.49 1425.4
-49.97 721.04 1376.8
-46.02 715.07 1365.4
-44.93 756.39 1444.3
-41.67 765.25 1461.2
-37.95 766.68 1464.0
-35.15 788.98 1506.5
-30.27 764.43 1459.7
-26.91 776.52 1482.8
-11.00 740.42 1413.8
-7.36 743.68 1420.0
-3.65 737.65 1408.5
0.00 680.13 1298.7
3.73 752.96 1437.8
15.85 533.47 1018.7
18.53 534.85 1021.3
25.83 652.18 1245.3
31.56 708.28 1352.4
35.68 720.76 1376.3
36.24 665.53 1270.8
41.44 697.49 1331.8
46.71 725.73 1385.8
47.53 685.80 1309.5
45.21 608.78 1162.5
42.05 530.85 1013.6
49.78 591.53 1129.5
54.52 611.87 1168.4
53.62 570.10 1088.6
67.64 683.12 1304.4
79.05 760.43 1452.0
70.40 646.36 1234.2
71.85 631.00 1204.9
87.73 738.39 1409.9
98.97 740.41 1413.8
85.35 615.76 1175.8
79.62 554.56 1058.9
87.23 587.34 1121.5
87.99 573.36 1094.8
88.25 557.07 1063.7
115.02 704.09 1344.4
103.98 567.66 1083.9
93.38 496.38 947.8
122.13 632.59 1207.9
164.67 831.58 1587.9
179.27 823.00 1571.5
190.59 836.92 1598.1
-399.51 1056.59 2027.6
-390.32 1046.07 2007.4
-392.14 1065.15 2044.0
-386.57 1079.17 2070.9
-374.90 1061.32 2036.7
-362.60 1041.18 1998.0
-343.13 999.56 1918.1
-326.23 964.30 1850.5
-318.65 955.96 1834.5
-301.25 917.45 1760.6
-281.42 870.23 1669.9
-289.99 910.75 1747.7
-305.19 973.71 1868.5
-296.49 961.21 1844.5
-282.50 930.86 1786.3
-273.86 917.42 1760.5
-268.97 916.33 1758.4
-262.77 910.65 1747.5
-254.94 899.01 1725.2
-246.97 886.44 1701.1
-229.71 839.47 1610.9
-214.63 798.89 1533.1
-212.89 807.37 1549.3
-218.19 843.39 1618.4
-224.30 884.00 1696.4
-218.25 877.35 1683.6
-199.83 819.71 1573.0
-189.44 793.28 1522.3
-186.51 797.61 1530.6
-182.48 797.35 1530.1
-178.86 798.91 1533.1
-171.30 782.55 1501.7
-161.55 755.13 1449.1
-157.82 755.30 1449.4
-157.38 771.57 1480.6
-153.67 772.19 1481.8
-151.38 780.18 1497.1
-151.09 799.21 1533.7
-144.60 785.55 1507.5
-134.95 753.47 1445.9
-128.26 736.56 1413.4
-123.76 731.63 1404.0
-121.27 738.67 1417.5
-121.36 762.30 1462.8
-119.37 773.95 1485.2
-113.95 763.47 1465.1
-107.84 747.45 1434.3
-103.50 742.95 1425.7
-100.93 751.36 1441.8
-97.68 755.16 1449.1
-93.08 748.34 1436.0
-87.38 731.82 1404.3
-83.65 730.99 1402.8
-82.24 751.38 1441.9
-79.48 760.70 1459.8
-72.85 732.16 1405.0
-66.64 705.00 1352.9
-65.00 725.84 1392.9
-62.92 743.92 1427.6
-57.72 725.05 1391.4
-52.53 703.86 1350.7
-49.64 712.69 1367.6
-48.46 749.24 1437.8
-46.88 785.32 1507.0
-42.95 784.90 1506.2
-38.29 769.70 1477.0
-34.49 770.20 1478.0
-30.95 777.63 1492.3
-20.12 808.67 1551.8
-16.25 816.55 1566.9
0.00 676.09 1297.4
3.37 677.02 1299.2
14.86 597.49 1146.6
20.63 592.37 1136.7
27.53 691.69 1327.3
32.96 736.01 1412.4
42.25 771.97 1481.4
42.03 704.02 1351.0
41.29 638.38 1225.0
43.59 625.86 1201.0
41.15 551.45 1058.2
45.77 541.20 1038.6
50.61 565.16 1084.5
51.80 548.02 1051.6
65.41 657.38 1261.5
76.05 727.93 1396.9
79.11 722.77 1387.0
89.75 693.80 1331.4
79.86 594.54 1140.9
82.10 589.38 1131.0
90.94 630.33 1209.6
95.78 641.76 1231.5
94.98 615.84 1181.8
87.90 552.14 1059.5
97.22 592.13 1136.3
106.55 578.80 1110.7
98.78 509.07 976.9
149.00 748.72 1436.8
159.27 762.20 1462.6
137.54 642.92 1233.8
167.08 763.24 1464.6
161.26 689.64 1323.4
-447.64 1119.09 2158.2
-441.86 1118.64 2157.4
-429.38 1100.97 2123.3
-424.57 1102.77 2126.8
-399.23 1064.62 2053.2
-385.33 1041.43 2008.5
-386.07 1057.71 2039.9
-371.11 1030.86 1988.1
-357.38 1006.71 1941.5
-343.09 980.26 1890.5
-333.76 967.43 1865.8
-326.88 961.41 1854.1
-324.62 969.02 1868.8
-312.38 946.60 1825.6
-290.73 894.57 1725.2
-295.83 924.47 1782.9
-310.96 987.18 1903.9
-303.72 979.76 1889.5
-278.90 914.43 1763.5
-259.09 863.64 1665.6
-258.08 874.86 1687.2
-255.24 880.14 1697.4
-251.44 882.23 1701.5
-247.10 882.49 1702.0
-229.69 835.25 1610.8
-214.36 793.92 1531.1
-212.26 801.00 1544.8
-216.87 834.13 1608.7
-216.96 850.81 1640.8
-206.36 825.42 1591.9
-196.57 802.31 1547.3
-192.93 803.89 1550.4
-190.36 810.04 1562.2
-186.77 812.06 1566.1
-183.99 817.75 1577.1
-177.33 806.04 1554.5
-165.06 767.74 1480.6
-159.05 757.37 1460.6
-159.24 776.79 1498.1
-156.31 781.54 1507.2
-150.37 771.15 1487.2
-146.72 772.23 1489.3
-141.45 764.58 1474.5
-132.86 738.12 1423.5
-128.07 731.84 1411.4
-125.37 737.48 1422.3
-121.40 735.77 1419.0
-120.17 751.04 1448.4
-117.07 755.30 1456.7
-110.56 737.05 1421.5
-106.16 732.12 1411.9
-103.28 737.74 1422.8
-101.35 750.71 1447.8
-98.62 758.63 1463.1
-95.07 760.57 1466.8
-90.29 752.39 1451.0
-84.84 737.78 1422.9
-81.72 742.92 1432.8
-78.79 750.36 1447.1
-72.19 721.93 1392.3
-66.32 698.09 1346.3
-64.95 721.62 1391.7
-63.42 746.06 1438.8
-58.84 735.55 1418.6
-54.27 723.65 1395.6
-52.01 743.03 1433.0
-48.36 744.00 1434.9
-44.09 734.85 1417.2
-39.89 725.23 1398.7
-35.00 699.96 1349.9
-32.87 730.37 1408.6
-31.06 776.42 1497.4
-27.92 797.63 1538.3
-23.52 783.85 1511.7
-18.26 730.47 1408.8
-14.55 727.27 1402.6
-11.65 777.00 1498.5
-7.99 798.64 1540.2
3.60 719.01 1386.7
10.91 727.28 1402.6
10.55 527.50 1017.3
14.99 599.75 1156.7
23.52 783.85 1511.7
24.97 713.40 1375.8
24.85 621.32 1198.3
29.26 650.29 1254.1
34.35 687.07 1325.1
38.62 702.22 1354.3
40.17 669.51 1291.2
41.06 631.73 1218.3
44.83 640.43 1235.1
46.82 624.28 1204.0
49.02 612.73 1181.7
53.68 631.53 1218.0
55.76 619.52 1194.8
54.61 574.85 1108.6
63.46 634.57 1223.8
70.15 668.06 1288.4
70.19 638.10 1230.6
85.64 744.67 1436.2
89.96 719.67 1387.9
77.36 595.05 1147.6
68.85 509.97 983.5
72.09 514.95 993.1
87.44 603.05 1163.0
102.91 686.08 1323.2
102.70 662.55 1277.8
93.65 585.32 1128.8
102.85 623.32 1202.1
125.06 735.64 1418.7
119.00 679.99 1311.4
98.76 548.66 1058.1
99.11 535.71 1033.2
109.35 575.50 1109.9
114.70 588.22 1134.4
152.31 725.30 1398.8
134.53 625.74 1206.8
161.31 733.22 1414.1
165.41 703.86 1357.4
-412.41 1013.22 1963.9
-418.73 1041.59 2018.9
-426.74 1074.94 2083.5
-430.70 1098.84 2129.8
