ply
format ascii 1.0
element vertex 2175
property float x
property float y
property float z
end_header
-751.88 630.06 1620.2
-782.71 659.59 1696.1
-807.31 684.16 1759.3
-799.14 681.08 1751.4
-797.24 683.35 1757.2
-801.89 691.29 1777.6
-795.27 689.54 1773.1
-760.27 663.02 1704.9
-746.18 654.55 1683.1
-753.85 665.16 1710.4
-758.75 673.44 1731.7
-797.02 711.63 1829.9
-787.36 711.47 1829.5
-770.68 700.62 1801.6
-781.75 715.02 1838.6
-753.44 693.35 1782.9
-685.64 634.86 1632.5
-688.74 645.70 1660.4
-748.47 706.11 1815.7
-797.51 757.13 1946.9
-811.54 775.36 1993.8
-808.78 777.67 1999.7
-797.54 781.90 2010.6
-762.61 752.58 1935.2
-771.90 766.78 1971.7
-1041.23 566.22 1465.8
-1016.55 554.82 1436.3
-1032.09 565.37 1463.6
-912.86 505.64 1308.9
-875.66 486.84 1260.3
-806.63 450.14 1165.3
-730.92 409.42 1059.9
-782.93 440.21 1139.6
-920.21 519.36 1344.5
-914.51 518.11 1341.2
-790.53 449.58 1163.8
-716.32 408.93 1058.6
-710.09 406.94 1053.4
-850.40 489.22 1266.4
-807.13 467.95 1211.4
-725.90 422.50 1093.7
-785.26 458.84 1187.8
-776.75 455.65 1179.5
-765.65 450.92 1167.3
-774.89 458.17 1186.1
-767.46 455.58 1179.4
-786.95 469.02 1214.2
-869.76 520.46 1347.3
-903.20 542.65 1404.7
-843.08 508.58 1316.5
-869.19 526.46 1362.8
-775.70 475.63 1231.3
-749.58 461.52 1194.7
-801.66 495.63 1283.0
-840.33 521.71 1350.5
-810.19 505.09 1307.5
-721.34 451.59 1169.0
-672.32 422.68 1094.2
-771.79 487.28 1261.4
-855.30 542.29 1403.8
-811.66 516.83 1337.9
-839.96 537.14 1390.5
-858.37 553.67 1433.3
-732.06 474.25 1227.7
-658.89 428.71 1109.8
-630.61 412.11 1066.8
-652.55 428.33 1108.8
-706.93 466.08 1206.5
-714.56 473.20 1225.0
-665.42 442.63 1145.8
-670.29 451.91 1169.9
-724.29 490.54 1269.9
-785.84 534.66 1384.1
-912.19 626.34 1621.4
-891.30 614.83 1591.6
-888.05 615.44 1593.2
-885.25 616.37 1595.6
-885.55 622.39 1611.2
-809.06 571.33 1479.0
-819.15 581.20 1504.6
-829.57 591.42 1531.0
-797.65 571.39 1479.2
-784.29 564.53 1461.4
-805.78 582.82 1508.7
-843.06 612.76 1586.2
-830.46 606.56 1570.2
-787.96 578.36 1497.2
-780.00 575.35 1489.4
-782.56 580.11 1501.7
-793.78 591.37 1530.9
-800.10 599.07 1550.8
-774.80 583.06 1509.4
-767.31 580.35 1502.4
-783.41 595.55 1541.7
-794.64 607.19 1571.8
-817.64 627.98 1625.6
-848.02 654.69 1694.8
-851.99 661.18 1711.6
-832.81 649.68 1681.8
-823.37 645.70 1671.5
-823.53 649.24 1680.7
-812.88 644.25 1667.8
-793.64 632.36 1637.0
-781.08 625.71 1619.8
-789.02 635.48 1645.1
-800.10 647.91 1677.2
-777.04 632.67 1637.8
-755.35 618.39 1600.8
-765.51 630.17 1631.3
-769.14 636.67 1648.2
-766.33 637.90 1651.3
-769.84 644.42 1668.2
-765.40 644.32 1667.9
-769.57 651.51 1686.6
-779.51 663.70 1718.1
-770.30 659.62 1707.6
-748.00 644.23 1667.7
-737.79 639.13 1654.5
-748.27 652.00 1687.8
-751.37 658.56 1704.8
-752.88 663.78 1718.3
-760.35 674.36 1745.7
-754.22 672.92 1742.0
-738.78 663.12 1716.6
-739.76 668.03 1729.3
-735.52 668.25 1729.9
-692.77 633.26 1639.3
-690.54 635.13 1644.1
-723.12 669.23 1732.4
-721.75 672.13 1739.9
-737.56 691.17 1789.2
-763.14 719.67 1863.0
-755.37 716.88 1855.8
-726.45 693.85 1796.2
-722.02 694.07 1796.7
-765.04 740.21 1916.2
-753.74 734.03 1900.2
-750.09 735.28 1903.4
-737.62 732.70 1896.7
-745.81 745.81 1930.7
-1053.00 570.86 1487.8
-1023.37 556.83 1451.2
-1025.12 559.85 1459.1
-902.50 496.54 1294.1
-881.64 486.88 1268.9
-801.16 444.09 1157.4
-713.50 396.99 1034.6
-776.39 433.61 1130.1
-912.70 511.67 1333.5
-923.67 519.78 1354.6
-812.45 458.94 1196.1
-766.97 434.91 1133.5
-804.28 457.82 1193.2
-813.75 465.00 1211.9
-778.12 446.36 1163.3
-765.38 440.76 1148.7
-810.11 468.34 1220.6
-848.26 492.32 1283.1
-823.85 480.04 1251.1
-782.85 457.95 1193.5
-764.97 449.27 1170.9
-816.75 481.59 1255.1
-892.03 528.08 1376.3
-897.16 533.25 1389.7
-847.68 505.87 1318.4
-827.71 495.96 1292.6
-884.59 532.19 1387.0
-848.77 512.73 1336.3
-690.59 418.88 1091.7
-672.77 409.76 1067.9
-713.17 436.15 1136.7
-785.55 482.41 1257.2
-831.84 512.97 1336.9
-778.16 481.88 1255.9
-686.37 426.82 1112.4
-646.38 403.65 1052.0
-746.01 467.84 1219.3
-825.20 519.70 1354.4
-761.44 481.59 1255.1
-738.34 468.99 1222.3
-748.66 477.59 1244.7
-772.56 494.97 1290.0
-772.44 497.05 1295.4
-707.81 457.45 1192.2
-679.84 441.30 1150.1
-718.96 468.75 1221.6
-775.55 507.89 1323.6
-779.13 512.49 1335.6
-740.70 489.39 1275.4
-718.67 476.96 1243.1
-754.51 503.01 1310.9
-780.64 522.78 1362.5
-690.47 464.50 1210.6
-680.99 460.22 1199.4
-752.77 511.05 1331.9
-780.75 532.49 1387.8
-809.43 554.61 1445.4
-826.34 568.83 1482.5
-847.69 586.25 1527.9
-825.77 573.77 1495.4
-741.89 517.93 1349.8
-781.42 548.10 1428.5
-895.84 631.35 1645.4
-886.57 627.81 1636.2
-837.32 595.79 1552.7
-791.10 565.62 1474.1
-783.58 562.96 1467.2
-834.31 602.33 1569.8
-837.69 607.73 1583.9
-783.22 571.02 1488.2
-761.66 558.05 1454.4
-769.55 566.64 1476.8
-785.19 581.04 1514.3
-808.91 601.60 1567.9
-803.88 600.88 1566.0
-768.29 577.19 1504.3
-756.53 571.26 1488.8
-782.83 594.15 1548.5
-818.65 624.54 1627.7
-808.41 619.92 1615.6
-776.31 598.41 1559.6
-788.93 611.32 1593.2
-808.92 630.11 1642.2
-799.99 626.45 1632.6
-779.51 613.65 1599.3
-781.43 618.46 1611.8
-789.86 628.49 1638.0
-773.24 618.60 1612.2
-759.59 610.97 1592.3
-766.26 619.71 1615.1
-774.05 629.44 1640.4
-774.49 633.29 1650.5
-769.30 632.54 1648.5
-761.73 629.81 1641.4
-760.51 632.34 1648.0
-754.54 630.92 1644.3
-756.42 636.08 1657.7
-763.31 645.54 1682.4
-753.01 640.49 1669.2
-757.83 648.31 1689.6
-774.47 666.40 1736.8
-770.24 666.64 1737.4
-759.54 661.25 1723.3
-746.63 653.85 1704.1
-740.58 652.42 1700.3
-734.17 650.64 1695.7
-716.22 638.56 1664.2
-711.39 638.09 1663.0
-702.13 633.63 1651.3
-692.55 628.82 1638.8
-721.36 659.02 1717.5
-761.07 699.62 1823.3
-755.72 703.43 1833.3
-743.00 695.97 1813.8
-732.85 690.84 1800.5
-703.33 667.27 1739.0
-706.76 674.84 1758.8
-750.61 721.36 1880.0
-756.74 732.01 1907.8
-771.73 751.42 1958.3
-755.59 745.52 1943.0
-712.80 708.02 1845.2
-737.57 737.57 1922.2
-1032.12 555.76 1458.3
-1044.34 564.41 1480.9
-878.58 478.34 1255.1
-721.24 394.13 1034.2
-848.96 465.66 1221.8
-914.07 503.25 1320.5
-745.90 412.21 1081.6
-763.90 423.75 1111.9
-892.25 496.82 1303.6
-876.95 490.16 1286.1
-793.65 445.29 1168.4
-779.20 438.86 1151.5
-783.46 442.96 1162.3
-752.60 427.15 1120.8
-798.21 454.79 1193.3
-876.85 501.54 1316.0
-832.75 478.18 1254.7
-785.72 452.95 1188.5
-744.71 430.99 1130.9
-684.05 397.45 1042.9
-707.61 412.77 1083.1
-805.84 471.95 1238.3
-820.07 482.20 1265.3
-763.43 450.70 1182.6
-741.09 439.28 1152.6
-736.84 438.52 1150.6
-763.31 456.12 1196.8
-718.14 430.88 1130.6
-658.47 396.70 1040.9
-701.11 424.13 1112.9
-724.25 439.94 1154.4
-763.87 465.93 1222.6
-789.15 483.35 1268.3
-730.06 449.04 1178.2
-719.28 444.26 1165.7
-757.34 469.74 1232.6
-709.27 441.79 1159.2
-629.33 393.66 1032.9
-636.18 399.65 1048.6
-696.55 439.45 1153.1
-731.02 463.19 1215.4
-765.25 486.98 1277.8
-789.98 504.90 1324.8
-758.73 487.05 1278.0
-688.02 443.59 1163.9
-701.61 454.35 1192.2
-750.14 487.92 1280.3
-760.02 496.55 1302.9
-734.05 481.72 1264.0
-722.48 476.25 1249.6
-689.18 456.35 1197.4
-643.34 427.92 1122.8
-614.27 410.44 1077.0
-668.80 448.92 1177.9
-712.18 480.23 1260.1
-713.34 483.23 1268.0
-701.49 477.40 1252.7
-683.69 467.46 1226.6
-754.37 518.19 1359.7
-776.81 536.11 1406.7
-710.42 492.60 1292.5
-756.92 527.33 1383.7
-881.94 617.36 1619.9
-887.64 624.32 1638.2
-835.20 590.26 1548.8
-789.41 560.59 1470.9
-771.62 550.62 1444.8
-808.21 579.54 1520.7
-823.20 593.19 1556.5
-778.91 564.04 1480.0
-748.13 544.43 1428.5
-748.64 547.51 1436.6
-753.91 554.12 1454.0
-768.66 567.80 1489.9
-783.68 581.82 1526.7
-770.12 574.66 1507.9
-722.75 542.07 1422.3
-714.61 538.71 1413.5
-749.05 567.58 1489.3
-741.22 564.56 1481.3
-741.44 567.66 1489.5
-783.61 603.09 1582.5
-796.95 616.59 1617.9
-782.25 608.41 1596.4
-779.23 609.30 1598.7
-797.26 626.72 1644.5
-799.88 632.16 1658.7
-777.89 618.11 1621.9
-757.69 605.33 1588.3
-755.47 606.85 1592.3
-764.52 617.50 1620.3
-767.83 623.59 1636.3
-766.26 625.78 1642.0
-762.68 626.34 1643.4
-771.76 637.35 1672.4
-775.98 644.46 1691.0
-752.27 628.32 1648.6
-733.04 615.75 1615.7
-741.52 626.46 1643.8
-766.12 650.98 1708.1
-783.50 669.62 1757.0
-780.38 670.85 1760.3
-770.39 666.16 1747.9
-758.17 659.47 1730.4
-735.10 643.21 1687.7
-709.96 624.94 1639.8
-701.08 620.84 1629.0
-705.61 628.63 1649.5
-729.61 653.98 1716.0
-754.04 680.02 1784.3
-741.63 672.96 1765.8
-738.39 674.18 1769.0
-761.51 699.63 1835.8
-760.24 702.86 1844.2
-742.49 690.79 1812.6
-725.58 679.37 1782.6
-730.38 688.24 1805.9
-770.22 730.47 1916.7
-790.33 754.41 1979.5
-767.05 736.97 1933.7
-751.23 726.52 1906.3
-748.94 729.10 1913.1
-747.29 732.35 1921.6
-744.92 734.92 1928.4
-1018.39 544.63 1438.9
-1023.07 551.17 1456.1
-833.65 450.79 1190.9
-698.73 379.24 1001.9
-827.68 450.90 1191.2
-908.65 496.86 1312.7
-753.94 413.82 1093.3
-692.47 381.51 1007.9
-721.89 399.23 1054.7
-750.06 416.38 1100.0
-723.90 403.39 1065.7
-749.73 419.39 1108.0
-796.74 447.40 1182.0
-772.74 435.60 1150.8
-830.00 469.69 1240.9
-894.85 508.36 1343.0
-822.19 468.91 1238.8
-792.00 453.46 1198.0
-768.25 441.59 1166.6
-729.97 421.25 1112.9
-779.49 451.61 1193.1
-792.31 460.86 1217.5
-726.76 424.43 1121.3
-657.44 385.49 1018.4
-704.42 416.38 1100.0
-792.99 470.64 1243.4
-775.80 462.31 1221.4
-754.11 451.23 1192.1
-776.18 466.35 1232.0
-766.21 462.26 1221.2
-788.07 477.42 1261.3
-799.21 486.19 1284.4
-781.18 477.20 1260.7
-809.72 496.72 1312.3
-820.61 505.52 1335.5
-736.05 455.36 1203.0
-705.98 438.61 1158.7
-776.25 484.33 1279.5
-846.53 530.45 1401.4
-823.42 520.43 1374.9
-752.02 477.37 1261.2
-736.42 469.51 1240.4
-702.02 449.54 1187.6
-660.60 424.88 1122.5
-673.75 435.25 1149.9
-643.19 417.36 1102.6
-625.93 409.80 1082.6
-653.14 429.54 1134.8
-678.25 448.08 1183.8
-732.81 486.32 1284.8
-735.85 490.56 1296.0
-725.74 486.05 1284.1
-736.18 495.31 1308.5
-730.73 493.92 1304.9
-616.20 418.44 1105.5
-760.82 521.50 1377.7
-805.08 554.44 1464.8
-750.15 519.06 1371.3
-767.29 533.45 1409.3
-803.26 561.13 1482.4
-787.59 552.83 1460.5
-795.78 561.28 1482.8
-821.31 582.09 1537.8
-779.39 555.08 1466.4
-724.02 518.17 1368.9
-752.07 540.90 1429.0
-789.99 570.99 1508.5
-759.67 551.80 1457.8
-740.47 540.54 1428.0
-719.22 527.67 1394.0
-699.40 515.72 1362.5
-717.65 531.86 1405.1
-701.80 522.77 1381.1
-706.16 531.44 1404.0
-737.08 557.58 1473.1
-776.15 590.20 1559.2
-801.40 612.59 1618.4
-798.36 613.47 1620.7
-784.89 606.31 1601.8
-782.28 607.51 1605.0
-790.80 617.42 1631.1
-784.00 615.40 1625.8
-763.72 602.72 1592.3
-743.57 590.01 1558.7
-728.84 581.48 1536.2
-727.52 583.62 1541.8
-733.42 591.60 1562.9
-734.82 596.02 1574.6
-744.52 607.26 1604.3
-765.98 628.28 1659.8
-776.55 640.54 1692.2
-760.28 630.68 1666.2
-736.70 614.61 1623.7
-740.51 621.35 1641.5
-741.53 625.80 1653.3
-735.96 624.71 1650.4
-761.04 649.77 1716.6
-778.57 668.66 1766.5
-738.25 637.78 1684.9
-687.35 597.34 1578.1
-705.23 616.55 1628.9
-743.42 653.85 1727.4
-738.82 653.74 1727.1
-751.58 669.09 1767.7
-734.02 657.46 1736.9
-681.49 614.19 1622.6
-689.84 625.57 1652.7
-720.84 657.77 1737.7
-738.51 678.13 1791.5
-743.04 686.61 1813.9
-730.04 678.89 1793.6
-735.18 688.05 1817.7
-751.45 707.82 1870.0
-746.15 707.39 1868.8
-729.72 696.33 1839.6
-721.03 692.56 1829.7
-712.38 688.79 1819.7
-704.11 685.33 1810.6
-719.67 705.18 1863.0
-745.11 735.04 1941.9
-688.94 684.26 1807.7
-635.72 635.72 1679.5
-715.10 720.03 1902.2
-1052.68 559.12 1487.3
-939.27 500.71 1331.9
-950.05 508.33 1352.2
-874.70 469.75 1249.6
-800.82 431.67 1148.3
-823.27 445.42 1184.9
-792.83 430.56 1145.3
-772.84 421.28 1120.7
-791.88 433.29 1152.6
-778.43 427.55 1137.3
-777.95 428.91 1140.9
-761.36 421.36 1120.9
-789.25 438.47 1166.4
-865.53 482.70 1284.0
-880.71 493.06 1311.6
-814.06 457.51 1217.0
-745.11 420.39 1118.3
-768.87 435.49 1158.5
-833.53 473.97 1260.8
-819.10 467.59 1243.8
-790.59 453.11 1205.3
-809.71 465.91 1239.4
-781.36 451.38 1200.7
-769.23 446.15 1186.8
-761.29 443.32 1179.3
-736.36 430.53 1145.3
-815.92 478.98 1274.1
-859.62 506.69 1347.8
-792.65 469.12 1247.9
-770.38 457.81 1217.8
-787.34 469.81 1249.7
-752.02 450.59 1198.6
-746.67 449.24 1195.0
-793.18 479.21 1274.8
-811.78 492.50 1310.1
-850.75 518.31 1378.8
-873.99 534.72 1422.4
-797.66 490.09 1303.7
-784.71 484.18 1288.0
-844.40 523.24 1391.9
-797.35 502.68 1337.2
-767.02 485.67 1291.9
-779.46 495.71 1318.6
-794.69 507.62 1350.3
-712.18 456.93 1215.5
-612.54 398.29 1059.5
-643.14 420.07 1117.4
-687.68 451.20 1200.2
-834.09 549.74 1462.4
-837.99 557.38 1482.7
-799.57 534.28 1421.2
-799.00 536.37 1426.8
-684.15 461.41 1227.4
-611.13 414.09 1101.5
-705.31 480.14 1277.2
-774.98 530.05 1410.0
-742.91 510.53 1358.1
-660.20 455.85 1212.6
-702.51 489.73 1302.7
-820.12 574.48 1528.2
-830.37 584.48 1554.8
-772.79 546.61 1454.0
-713.42 507.09 1348.9
-735.80 525.57 1398.1
-783.94 562.73 1496.9
-767.65 553.78 1473.1
-754.52 547.03 1455.1
-739.29 538.68 1432.9
-711.58 521.11 1386.2
-721.60 531.13 1412.8
-714.75 528.77 1406.6
-703.64 523.22 1391.8
-736.47 550.45 1464.3
-777.89 584.43 1554.6
-777.12 586.88 1561.2
-762.01 578.49 1538.8
-778.82 594.36 1581.1
-783.77 601.31 1599.5
-755.02 582.33 1549.1
-737.64 571.97 1521.5
-754.12 587.89 1563.8
-755.66 592.27 1575.5
-742.47 585.10 1556.4
-734.64 582.09 1548.4
-715.52 570.06 1516.4
-704.18 564.13 1500.6
-713.73 574.95 1529.4
-730.32 591.60 1573.7
-728.46 593.41 1578.5
-715.14 585.85 1558.4
-730.58 601.90 1601.1
-740.36 613.44 1631.8
-741.83 618.19 1644.4
-740.14 620.35 1650.2
-710.30 598.80 1592.9
-710.23 602.24 1602.0
-737.57 629.11 1673.5
-708.06 607.51 1616.0
-676.91 584.24 1554.1
-712.51 618.65 1645.7
-743.22 649.20 1726.9
-735.65 646.48 1719.7
-736.24 650.94 1731.6
-707.71 629.56 1674.7
-679.80 608.47 1618.6
-708.92 638.47 1698.4
-722.83 655.06 1742.5
-724.30 660.52 1757.1
-738.23 677.49 1802.2
-733.44 677.38 1801.9
-731.48 679.90 1808.6
-738.99 691.31 1839.0
-726.41 683.95 1819.4
-703.47 666.68 1773.4
-702.54 670.18 1782.8
-700.87 673.02 1790.3
-700.19 676.85 1800.5
-721.57 702.20 1867.9
-730.79 720.85 1917.5
-688.31 683.59 1818.4
-1040.70 542.98 1454.4
-1050.32 549.98 1473.2
-1026.23 541.31 1449.9
-857.14 453.78 1215.5
-1032.06 550.43 1474.4
-809.51 433.34 1160.7
-704.83 378.72 1014.4
-765.56 412.88 1105.9
-816.17 441.84 1183.5
-898.98 488.50 1308.5
-911.93 499.31 1337.4
-833.76 458.25 1227.5
-792.94 437.49 1171.8
-803.59 445.06 1192.1
-834.92 464.20 1243.4
-779.51 435.07 1165.4
-685.20 383.92 1028.4
-680.64 382.86 1025.5
-750.33 423.71 1134.9
-757.65 429.53 1150.5
-733.49 417.48 1118.3
-754.88 431.36 1155.4
-780.80 447.95 1199.9
-821.61 473.25 1267.6
-872.51 504.58 1351.6
-868.90 506.57 1356.9
-806.81 472.28 1265.0
-780.36 458.66 1228.6
-800.95 472.69 1266.1
-819.35 485.54 1300.6
-784.92 467.06 1251.1
-727.45 434.66 1164.3
-720.66 432.40 1158.2
-730.47 440.11 1178.9
-752.70 455.41 1219.9
-789.74 479.84 1285.3
-743.47 453.64 1215.1
-640.96 392.76 1052.0
-716.62 442.89 1186.3
-846.34 525.32 1407.1
-810.79 505.43 1353.8
-733.01 458.93 1229.3
-715.02 449.62 1204.3
-738.31 466.30 1249.0
-777.83 493.43 1321.7
-729.49 464.81 1245.0
-664.66 425.38 1139.4
-676.72 435.03 1165.3
-714.39 461.31 1235.7
-735.64 477.17 1278.1
-677.26 441.29 1182.0
-722.01 472.59 1265.9
-776.79 515.48 1380.7
-718.24 478.82 1282.6
-742.01 496.97 1331.2
-782.19 526.33 1409.8
-734.27 496.41 1329.7
-683.94 464.56 1244.4
-721.52 492.41 1319.0
-691.55 474.20 1270.2
-704.34 487.62 1306.1
-824.72 573.72 1536.7
-835.85 584.29 1565.1
-814.77 572.33 1533.0
-781.39 551.57 1477.4
-726.57 515.40 1380.5
-704.75 502.40 1345.7
-733.96 525.82 1408.5
-760.28 547.40 1466.3
-785.49 568.39 1522.5
-799.62 581.54 1557.7
-783.39 572.63 1533.8
-750.06 551.06 1476.1
-725.10 535.46 1434.3
-744.23 552.42 1479.7
-776.74 579.54 1552.3
-768.36 576.27 1543.6
-733.51 553.01 1481.3
-731.18 554.16 1484.4
-765.97 583.60 1563.2
-766.36 587.00 1572.3
-727.41 560.15 1500.4
-720.89 558.11 1494.9
-731.19 569.14 1524.5
-725.04 567.43 1519.9
-722.97 568.90 1523.8
-709.16 561.09 1502.9
-707.10 562.56 1506.8
-723.45 578.76 1550.3
-733.63 590.18 1580.8
-725.81 587.17 1572.8
-711.31 578.70 1550.1
-722.85 591.43 1584.2
-718.99 591.62 1584.7
-707.33 585.37 1568.0
-727.50 605.55 1622.0
-721.23 603.82 1617.4
-704.23 593.03 1588.5
-714.45 605.18 1621.0
-710.09 605.05 1620.7
-703.85 603.30 1616.0
-710.78 612.89 1641.7
-709.74 615.67 1649.1
-716.47 625.28 1674.9
-731.23 642.05 1719.8
-717.80 634.13 1698.6
-705.57 627.17 1679.9
-711.99 636.81 1705.7
-702.35 632.12 1693.2
-702.14 635.90 1703.3
-714.77 651.44 1744.9
-721.51 661.77 1772.6
-729.54 673.42 1803.8
-731.44 679.53 1820.2
-714.69 668.28 1790.0
-697.03 656.02 1757.2
-701.33 664.42 1779.7
-718.96 685.63 1836.5
-736.66 707.20 1894.3
-742.19 717.29 1921.3
-932.66 490.33 1322.6
-928.75 493.72 1331.7
-792.05 422.62 1139.9
-819.37 438.84 1183.7
-811.23 436.11 1176.3
-828.03 446.82 1205.2
-838.78 454.34 1225.5
-758.96 412.67 1113.1
-695.13 379.40 1023.4
-671.28 367.79 992.0
-738.36 406.10 1095.4
-815.18 450.08 1214.0
-824.61 457.05 1232.8
-771.45 429.25 1157.8
-717.51 400.80 1081.1
-741.30 415.71 1121.3
-770.19 433.61 1169.6
-784.76 443.56 1196.4
-781.46 443.45 1196.1
-768.26 437.70 1180.6
-860.03 491.94 1326.9
-896.81 517.11 1394.8
-769.07 445.25 1201.0
-769.34 447.22 1206.3
-797.22 465.32 1255.1
-798.90 468.21 1262.9
-797.49 469.30 1265.9
-800.63 473.10 1276.1
-781.99 464.00 1251.6
-738.75 440.17 1187.3
-712.34 426.21 1149.6
-728.17 443.10 1195.2
-634.86 387.97 1046.5
-704.76 432.53 1166.7
-778.11 479.61 1293.7
-708.00 438.28 1182.2
-686.14 426.60 1150.7
-721.32 450.43 1214.9
-749.45 470.05 1267.9
-779.30 490.93 1324.2
-744.41 471.02 1270.5
-685.25 435.51 1174.7
-707.29 451.53 1217.9
-761.56 488.36 1317.2
-754.17 485.79 1310.3
-672.97 435.45 1174.6
-598.68 390.92 1054.4
-728.60 477.93 1289.1
-773.58 509.78 1375.0
-741.96 491.20 1324.9
-779.10 518.19 1397.7
-809.47 540.91 1459.0
-762.35 511.81 1380.5
-714.17 481.73 1299.4
-751.21 509.12 1373.2
-821.59 559.47 1509.0
-834.34 570.86 1539.8
-778.82 535.44 1444.2
-772.24 533.48 1438.9
-784.93 544.88 1469.7
-766.71 534.83 1442.6
-772.15 541.26 1460.0
-751.41 529.32 1427.7
-721.54 510.79 1377.8
-741.05 527.21 1422.1
-749.00 535.53 1444.5
-758.59 545.12 1470.4
-789.76 570.38 1538.5
-791.27 574.37 1549.3
-775.96 566.13 1527.0
-765.44 561.32 1514.1
-747.30 550.85 1485.8
-743.30 550.73 1485.5
-755.79 562.90 1518.3
-742.44 555.86 1499.3
-731.27 550.38 1484.5
-758.99 574.26 1549.0
-769.80 585.54 1579.4
-739.51 565.51 1525.3
-725.52 557.79 1504.5
-728.43 563.05 1518.7
-721.07 560.39 1511.5
-716.17 559.63 1509.5
-719.78 565.54 1525.4
-733.38 579.41 1562.8
-737.20 585.66 1579.7
-734.55 586.82 1582.8
-742.22 596.27 1608.3
-741.47 599.04 1615.8
-722.59 587.10 1583.6
-688.97 562.99 1518.5
-686.41 564.12 1521.6
-714.46 590.56 1592.9
-731.39 608.07 1640.2
-738.51 617.59 1665.8
-731.01 614.91 1658.6
-709.47 600.32 1619.2
-683.57 581.85 1569.4
-669.54 573.32 1546.4
-687.43 592.18 1597.3
-713.27 618.17 1667.4
-741.02 646.13 1742.8
-739.69 648.93 1750.4
-709.02 625.86 1688.1
-696.48 618.61 1668.6
-695.26 621.39 1676.1
-702.66 631.95 1704.6
-711.36 643.82 1736.6
-715.27 651.49 1757.3
-706.68 647.79 1747.3
-690.73 637.25 1718.9
-685.07 636.13 1715.8
-681.16 636.64 1717.2
-710.17 668.12 1802.1
-738.32 708.59 1911.3
-732.24 707.51 1908.4
-722.14 702.49 1894.8
-717.11 702.37 1894.5
-707.75 697.99 1882.7
-694.49 689.66 1860.2
-1058.88 548.76 1490.6
-875.16 460.27 1250.2
-855.92 451.82 1227.3
-872.26 462.17 1255.4
-999.62 531.63 1444.1
-913.60 489.55 1329.8
-784.70 422.07 1146.5
-759.42 410.03 1113.8
-744.46 403.49 1096.0
-709.20 385.85 1048.1
-783.71 428.03 1162.6
-898.84 492.80 1338.6
-928.78 511.19 1388.5
-870.00 480.70 1305.7
-806.23 447.21 1214.7
-812.40 452.39 1228.8
-827.97 462.88 1257.3
-791.01 443.96 1205.9
-752.15 423.83 1151.2
-771.34 436.38 1185.3
-892.26 506.80 1376.6
-894.78 512.33 1391.7
-804.57 462.55 1256.4
-834.52 481.72 1308.5
-819.73 475.11 1290.5
-777.45 452.45 1229.0
-781.70 456.80 1240.8
-789.97 463.54 1259.1
-775.91 457.17 1241.8
-747.79 442.44 1201.8
-745.46 442.91 1203.1
-631.89 377.01 1024.1
-690.14 415.25 1127.9
-860.17 519.76 1411.8
-764.39 463.86 1260.0
-730.85 445.41 1209.9
-716.19 438.35 1190.7
-695.22 427.37 1160.9
-728.58 449.82 1221.8
-772.40 478.96 1301.0
-801.35 499.09 1355.7
-761.56 480.63 1305.5
-740.77 469.59 1275.6
-747.75 476.15 1293.4
-696.68 445.63 1210.5
-710.35 456.43 1239.8
-696.53 449.58 1221.2
-601.90 390.27 1060.1
-618.50 402.87 1094.3
-725.53 474.77 1289.6
-770.83 506.75 1376.5
-781.93 516.44 1402.8
-786.46 521.86 1417.5
-777.58 518.39 1408.1
-763.70 511.53 1389.5
-769.07 517.57 1405.9
-813.50 550.08 1494.2
-847.14 575.57 1563.4
-811.85 554.24 1505.5
-775.90 532.26 1445.8
-763.95 526.61 1430.4
-756.96 524.34 1424.3
-771.79 537.22 1459.3
-782.47 547.35 1486.8
-779.81 548.18 1489.0
-770.55 544.37 1478.7
-753.01 534.64 1452.2
-715.97 510.89 1387.7
-707.84 507.65 1378.9
-739.08 532.74 1447.1
-751.09 544.16 1478.1
-750.11 546.23 1483.7
-740.99 542.37 1473.2
-718.73 528.81 1436.4
-711.45 526.17 1429.2
-715.57 531.99 1445.0
-722.13 539.70 1466.0
-747.40 561.54 1525.3
-756.61 571.48 1552.3
-742.51 563.83 1531.5
-743.75 567.81 1542.3
-741.66 569.28 1546.3
-729.74 563.17 1529.7
-718.71 557.69 1514.8
-715.42 558.19 1516.2
-711.73 558.37 1516.7
-698.81 551.28 1497.4
-709.52 562.86 1528.9
-730.03 582.38 1581.9
-725.78 582.26 1581.6
-704.60 568.48 1544.2
-692.99 562.31 1527.4
-712.24 581.25 1578.9
-723.12 593.54 1612.2
-721.88 595.97 1618.8
-721.38 599.04 1627.2
-707.07 590.61 1604.3
-701.62 589.52 1601.3
-692.01 584.91 1588.8
-657.98 559.48 1519.7
-653.85 559.31 1519.3
-674.67 580.63 1577.2
-696.35 602.93 1637.7
-719.96 627.20 1703.7
-717.24 628.69 1707.7
-701.73 618.92 1681.2
-697.22 618.78 1680.8
-693.43 619.29 1682.2
-690.71 620.76 1686.2
-697.96 631.27 1714.7
-693.72 631.46 1715.2
-681.00 623.89 1694.7
-678.56 625.68 1699.5
-665.62 617.76 1678.0
-681.91 637.05 1730.4
-702.44 660.58 1794.3
-679.48 643.24 1747.2
-696.27 663.56 1802.4
-722.97 693.66 1884.2
-697.76 674.02 1830.8
-675.47 656.96 1784.5
-675.02 661.05 1795.6
-669.55 660.25 1793.4
-691.69 686.85 1865.7
-684.92 699.71 1900.6
-649.94 678.61 1843.3
-1051.83 535.41 1464.6
-821.54 424.31 1160.7
-777.48 403.03 1102.5
-736.94 383.42 1048.9
-798.22 416.85 1140.3
-918.34 481.36 1316.8
-867.85 456.59 1249.0
-925.53 488.77 1337.0
-1043.78 553.28 1513.5
-891.91 474.56 1298.2
-815.45 435.52 1191.4
-850.47 455.95 1247.3
-814.29 438.22 1198.8
-753.07 406.83 1112.9
-867.63 470.52 1287.1
-802.62 440.35 1204.6
-799.84 440.54 1205.1
-881.46 487.40 1333.3
-864.76 480.05 1313.2
-798.31 444.91 1217.1
-784.51 438.95 1200.8
-812.49 456.42 1248.6
-901.65 508.53 1391.1
-815.63 469.40 1284.1
-752.90 435.08 1190.2
-738.39 428.45 1172.1
-751.37 437.78 1197.6
-749.57 438.54 1199.7
-694.78 408.18 1116.6
-666.46 393.18 1075.6
-683.43 404.89 1107.6
-701.27 417.21 1141.3
-733.92 438.49 1199.5
-722.64 433.58 1186.1
-688.14 414.65 1134.3
-694.80 420.46 1150.2
-763.86 464.24 1270.0
-830.98 507.22 1387.5
-757.39 464.31 1270.2
-698.87 430.31 1177.1
-751.39 464.67 1271.1
-822.88 511.13 1398.2
-797.92 497.82 1361.8
-708.72 444.13 1214.9
-710.60 447.30 1223.6
-743.94 470.38 1286.8
-717.58 455.76 1246.8
-755.83 482.23 1319.2
-796.62 510.56 1396.7
-730.75 470.48 1287.0
-649.38 420.01 1149.0
-670.41 435.61 1191.6
-715.47 467.04 1277.6
-723.54 474.51 1298.0
-740.77 488.08 1335.2
-744.49 492.83 1348.2
-766.50 509.79 1394.6
-807.51 539.62 1476.2
-788.09 529.15 1447.5
-767.87 518.04 1417.1
-769.92 521.92 1427.7
-761.57 518.75 1419.1
-768.50 526.01 1438.9
-779.36 536.05 1466.4
-779.87 539.03 1474.5
-777.68 540.16 1477.7
-786.96 549.31 1502.7
-788.21 552.93 1512.6
-762.71 537.71 1471.0
-721.25 511.04 1398.0
-703.98 501.32 1371.4
-727.48 520.68 1424.4
-726.19 522.41 1429.1
-712.45 515.15 1409.2
-721.42 524.33 1434.3
-715.83 522.96 1430.6
-714.05 524.38 1434.5
-724.07 534.52 1462.2
-722.63 536.27 1467.0
-739.14 551.42 1508.5
-755.89 566.92 1550.8
-750.90 566.19 1548.8
-745.92 565.46 1546.8
-738.89 563.16 1540.5
-731.48 560.54 1533.4
-724.91 558.54 1527.9
-716.74 555.27 1519.0
-709.00 552.32 1510.9
-702.91 550.61 1506.2
-720.01 567.16 1551.5
-714.63 566.09 1548.6
-687.11 547.36 1497.3
-701.16 561.72 1536.6
-727.58 586.22 1603.7
-715.87 580.10 1586.9
-696.46 567.63 1552.8
-706.94 579.53 1585.3
-719.20 593.02 1622.3
-702.22 582.43 1593.3
-693.37 578.49 1582.5
-701.59 588.83 1610.8
-686.71 579.79 1586.1
-661.44 561.82 1536.9
-660.62 564.53 1544.3
-663.84 570.74 1561.3
-669.20 578.88 1583.6
-684.00 595.33 1628.6
-688.00 602.54 1648.3
-664.33 585.44 1601.5
-641.58 568.95 1556.4
-655.67 585.12 1600.6
-678.11 609.01 1666.0
-680.02 614.64 1681.4
-674.80 613.85 1679.2
-670.98 614.34 1680.6
-656.68 605.18 1655.5
-659.85 612.10 1674.4
-663.62 619.67 1695.2
-634.01 595.97 1630.3
-639.15 604.83 1654.6
-676.38 644.39 1762.8
-664.91 637.77 1744.7
-651.85 629.53 1722.1
-662.87 644.58 1763.3
-667.73 653.82 1788.6
-698.46 688.69 1883.9
-679.39 674.60 1845.4
-607.89 607.89 1662.9
-645.33 649.94 1778.0
-675.91 690.61 1889.2
-640.18 658.87 1802.4
-798.10 404.84 1115.4
-1032.72 525.75 1448.5
-940.00 482.05 1328.1
-882.36 454.15 1251.2
-769.33 397.44 1095.0
-795.93 412.71 1137.0
-1026.88 534.43 1472.4
-1025.30 535.60 1475.6
-869.36 455.84 1255.9
-797.98 419.99 1157.1
-784.47 414.44 1141.8
-813.76 431.54 1188.9
-846.11 450.40 1240.9
-805.08 430.20 1185.2
-810.95 434.99 1198.4
-820.62 447.03 1231.6
-747.39 408.73 1126.1
-917.36 503.65 1387.6
-842.35 466.12 1284.2
-745.73 414.30 1141.4
-748.80 417.66 1150.7
-804.90 450.74 1241.8
-831.60 467.57 1288.2
-797.60 450.26 1240.5
-840.11 476.18 1311.9
-878.23 499.81 1377.0
-815.62 466.07 1284.1
-753.36 432.26 1190.9
-766.87 441.82 1217.3
-807.21 466.98 1286.6
-842.71 489.54 1348.7
-823.95 480.64 1324.2
-713.68 418.06 1151.8
-667.30 392.53 1081.5
-712.71 421.01 1159.9
-772.27 458.13 1262.2
-738.50 439.96 1212.1
-679.16 406.34 1119.5
-747.58 449.19 1237.6
-741.73 451.49 1243.9
-681.28 416.50 1147.5
-724.18 444.67 1225.1
-742.08 457.67 1260.9
-675.89 418.69 1153.5
-664.46 413.44 1139.1
-736.93 460.58 1269.0
-763.52 479.34 1320.6
-731.37 461.23 1270.7
-701.32 444.27 1224.0
-689.88 439.01 1209.5
-726.05 464.14 1278.7
-732.84 470.63 1296.6
-696.09 449.09 1237.3
-687.06 445.32 1226.9
-706.38 459.97 1267.3
-729.69 477.37 1315.2
-730.23 479.97 1322.4
-748.18 494.08 1361.3
-778.78 516.72 1423.6
-755.81 503.87 1388.2
-720.73 482.78 1330.1
-708.04 476.56 1313.0
-736.85 498.36 1373.0
-774.39 526.29 1450.0
-773.17 528.02 1454.8
-765.25 525.17 1446.9
-766.23 528.44 1455.9
-779.09 539.97 1487.7
-778.63 542.33 1494.2
-751.84 526.29 1450.0
-728.29 512.36 1411.6
-725.32 512.85 1413.0
-742.25 527.49 1453.3
-734.45 524.60 1445.3
-707.78 508.15 1400.0
-705.24 508.94 1402.2
-719.29 521.77 1437.5
-737.00 537.40 1480.6
-738.07 540.99 1490.5
-728.17 536.54 1478.2
-726.68 538.28 1483.0
-725.17 540.02 1487.8
-740.64 554.49 1527.7
-755.93 568.98 1567.6
-732.83 554.57 1527.9
-711.12 541.07 1490.7
-722.56 552.78 1523.0
-732.64 563.57 1552.7
-726.85 562.21 1548.9
-723.09 562.40 1549.5
-725.71 567.59 1563.8
-706.78 555.89 1531.5
-683.63 540.72 1489.7
-701.26 557.82 1536.9
-726.92 581.54 1602.2
-715.98 576.08 1587.2
-699.67 566.21 1560.0
-713.24 580.55 1599.5
-718.94 588.61 1621.7
-695.07 572.41 1577.0
-680.15 563.44 1552.3
-681.63 568.03 1565.0
-689.08 577.67 1591.6
-686.66 579.11 1595.5
-670.05 568.52 1566.3
-657.64 561.40 1546.7
-663.04 569.48 1569.0
-677.88 585.82 1614.0
-683.75 594.57 1638.1
-663.36 580.44 1599.2
-633.38 557.69 1536.5
-635.30 562.92 1550.9
-661.45 589.83 1625.0
-669.15 600.52 1654.5
-655.50 592.06 1631.2
-640.55 582.32 1604.3
-636.20 582.15 1603.9
-648.87 597.65 1646.6
-655.13 607.40 1673.5
-628.99 587.05 1617.4
-600.71 564.42 1555.0
-600.20 567.75 1564.2
-638.09 607.70 1674.3
-684.52 656.39 1808.4
-691.01 667.18 1838.2
-693.39 674.13 1857.3
-684.17 669.81 1845.4
-627.90 619.05 1705.6
-595.35 591.12 1628.6
-664.87 664.87 1831.8
-748.86 377.14 1046.5
-858.40 433.88 1204.0
-1033.49 524.29 1454.9
-1035.87 527.42 1463.5
-932.62 476.60 1322.5
-758.74 389.17 1079.9
-894.97 465.92 1292.9
-833.28 435.44 1208.3
-838.13 439.62 1219.9
-832.65 438.40 1216.5
-825.55 436.32 1210.8
-892.79 473.66 1314.4
-830.67 449.27 1246.7
-686.40 372.69 1034.2
-755.24 411.68 1142.4
-910.57 498.30 1382.8
-846.01 464.80 1289.8
-797.50 439.89 1220.7
-845.85 468.42 1299.8
-754.89 419.72 1164.7
-687.84 385.53 1069.8
-799.85 450.12 1249.0
-868.48 490.72 1361.7
-852.54 483.69 1342.2
-747.18 425.65 1181.1
-713.30 408.02 1132.2
-762.46 437.94 1215.3
-798.64 460.62 1278.2
-874.27 508.47 1411.0
-785.19 458.58 1272.5
-811.24 475.79 1320.3
-779.24 458.96 1273.6
-660.39 390.61 1083.9
-673.93 402.05 1115.6
-771.22 462.07 1282.2
-736.31 443.06 1229.5
-652.18 394.14 1093.7
-621.25 377.09 1046.4
-658.54 401.48 1114.1
-674.25 412.87 1145.7
-637.22 391.92 1087.5
-647.08 399.75 1109.3
-723.50 448.96 1245.8
-753.50 469.67 1303.3
-698.51 437.36 1213.6
-651.95 410.05 1137.9
-670.93 423.91 1176.3
-741.59 470.69 1306.1
-753.51 480.45 1333.2
-725.08 464.45 1288.8
-715.94 460.72 1278.5
-733.31 474.09 1315.6
-767.65 498.61 1383.6
-776.35 506.63 1405.9
-735.81 482.44 1338.7
-715.68 471.47 1308.3
-720.29 476.76 1323.0
-707.58 470.59 1305.8
-715.74 478.31 1327.3
-765.28 513.89 1426.0
-784.78 529.54 1469.4
-766.98 520.05 1443.1
-758.63 516.91 1434.4
-757.87 518.93 1440.0
-763.70 525.52 1458.3
-757.58 523.90 1453.8
-746.20 518.61 1439.1
-735.33 513.62 1425.3
-721.89 506.78 1406.3
-729.33 514.60 1428.0
-744.43 527.94 1465.0
-740.47 527.83 1464.7
-719.41 515.45 1430.3
-716.38 515.94 1431.7
-726.48 525.94 1459.4
-720.42 524.28 1454.8
-707.22 517.39 1435.7
-701.64 516.02 1431.9
-703.16 519.89 1442.7
-718.74 534.25 1482.5
-742.41 554.81 1539.6
-729.63 548.21 1521.2
-709.56 536.03 1487.4
-722.65 548.90 1523.2
-732.75 559.62 1552.9
-726.95 558.27 1549.2
-698.26 539.21 1496.3
-675.80 524.78 1456.2
-680.59 531.47 1474.8
-682.92 536.30 1488.2
-680.06 537.09 1490.4
-683.07 542.55 1505.5
-700.47 559.57 1552.8
-712.99 572.87 1589.7
-707.17 571.49 1585.8
-693.66 563.85 1564.6
-684.84 559.95 1553.8
-684.44 562.94 1562.1
-669.22 553.70 1536.5
-660.15 549.47 1524.7
-675.89 565.96 1570.5
-678.74 571.79 1586.7
-658.11 557.79 1547.8
-654.28 557.94 1548.2
-680.94 584.26 1621.3
-698.86 603.37 1674.3
-681.28 591.87 1642.4
-655.53 573.07 1590.2
-646.91 569.11 1579.2
-659.07 583.51 1619.2
-672.83 599.51 1663.6
-665.88 597.14 1657.0
-653.32 589.69 1636.3
-649.25 589.84 1636.8
-642.05 587.13 1629.3
-628.31 578.37 1604.9
-625.67 579.79 1608.9
-622.33 580.56 1611.0
-613.88 576.55 1599.9
-639.91 605.08 1679.1
-675.96 643.55 1785.8
-677.19 649.16 1801.4
-698.88 674.61 1872.0
-681.05 666.66 1849.9
-681.64 671.98 1864.7
-688.63 683.71 1897.2
-657.89 657.89 1825.6
-640.56 645.20 1790.4
-663.32 673.01 1867.5
-938.03 470.72 1315.7
-868.43 438.99 1227.0
-721.30 365.95 1022.9
-863.81 446.47 1247.9
-883.32 458.27 1280.9
-860.34 448.03 1252.3
-832.05 434.93 1215.7
-820.63 430.60 1203.5
-884.15 465.70 1301.6
-936.02 494.91 1383.3
-887.39 471.00 1316.5
-828.30 441.34 1233.5
-762.07 407.62 1139.3
-770.04 413.49 1155.7
-794.39 428.22 1196.9
-737.72 399.24 1115.9
-746.17 405.40 1133.1
-806.58 439.95 1229.7
-882.33 483.18 1350.5
-783.47 432.48 1208.8
-665.88 369.04 1031.5
-727.62 404.88 1131.7
-820.48 458.40 1281.3
-866.43 486.04 1358.5
-848.95 478.18 1336.5
-750.70 424.58 1186.7
-689.25 391.42 1094.0
-712.58 406.34 1135.7
-685.54 392.55 1097.2
-686.46 394.71 1103.2
-768.48 443.73 1240.2
-789.69 457.89 1279.8
-773.68 450.50 1259.2
-706.34 413.03 1154.4
-625.47 367.30 1026.6
-630.85 373.63 1044.3
-690.40 410.67 1147.8
-685.19 409.34 1144.1
-628.11 376.86 1053.3
-612.37 369.02 1031.4
-663.33 401.49 1122.2
-705.21 428.72 1198.3
-690.76 421.79 1178.9
-660.01 404.81 1131.4
-695.17 428.28 1197.0
-704.73 436.11 1218.9
-638.92 397.17 1110.1
-682.75 426.33 1191.6
-807.15 506.30 1415.1
-784.97 494.64 1382.5
-701.84 444.29 1241.8
-702.14 446.52 1248.0
-718.27 458.89 1282.6
-737.50 473.37 1323.1
-770.92 497.14 1389.5
-782.85 507.20 1417.6
-745.48 485.27 1356.3
-726.68 475.27 1328.4
-732.16 481.14 1344.8
-753.94 497.82 1391.4
-794.08 526.84 1472.5
-790.59 527.06 1473.2
-764.63 512.23 1431.7
-751.37 505.80 1413.7
-745.32 504.19 1409.2
-737.06 501.05 1400.5
-735.46 502.45 1404.4
-745.31 511.70 1430.2
-748.02 516.13 1442.6
-747.61 518.45 1449.1
-743.70 518.34 1448.8
-751.48 526.42 1471.4
-767.37 540.29 1510.1
-759.88 537.76 1503.1
-736.16 523.66 1463.6
-719.84 514.71 1438.6
-717.63 515.80 1441.7
-725.13 523.92 1464.4
-723.69 525.63 1469.1
-716.36 523.06 1462.0
-715.32 525.07 1467.6
-703.45 519.12 1451.0
-699.51 518.99 1450.6
-717.37 535.12 1495.7
-728.08 546.06 1526.3
-732.94 552.71 1544.8
-735.69 557.83 1559.1
-728.26 555.25 1551.9
-698.75 535.71 1497.3
-654.04 509.93 1425.3
-668.69 524.31 1465.5
-662.33 522.30 1459.8
-668.51 530.20 1481.9
-675.37 538.73 1505.8
-667.40 535.47 1496.7
-676.43 545.89 1525.8
-690.30 560.36 1566.2
-677.68 553.37 1546.7
-651.48 535.15 1495.8
-639.85 528.74 1477.9
-651.96 541.99 1514.9
-653.44 546.51 1527.5
-632.93 532.59 1488.6
-635.52 538.05 1503.9
-666.35 567.63 1586.5
-689.12 590.68 1651.0
-678.86 585.52 1636.5
-659.62 572.50 1600.2
-657.45 574.23 1605.0
-657.40 577.84 1615.1
-656.59 580.83 1623.4
-669.19 595.79 1665.3
-677.72 607.31 1697.5
-668.26 602.75 1684.7
-656.08 595.65 1664.9
-635.33 580.64 1622.9
-624.40 574.45 1605.6
-638.50 591.37 1652.9
-646.95 603.23 1686.1
-656.58 616.39 1722.8
-673.10 636.22 1778.3
-663.67 631.63 1765.4
-673.86 645.78 1805.0
-685.25 675.46 1887.9
-659.02 654.28 1828.7
-644.23 644.23 1800.6
-676.18 681.12 1903.8
-938.11 465.66 1311.0
-922.39 459.52 1293.7
-911.73 455.86 1283.5
-818.98 410.99 1157.1
-718.94 362.11 1019.5
-741.40 374.80 1055.2
-857.32 435.01 1224.7
-873.78 445.01 1252.9
-862.74 441.03 1241.7
-861.58 442.08 1244.7
-860.40 443.14 1247.6
-827.15 427.62 1203.9
-838.49 435.13 1225.1
-871.92 454.20 1278.8
-690.59 361.11 1016.7
-741.10 392.01 1103.7
-735.85 390.74 1100.1
-809.31 431.42 1214.6
-933.25 499.44 1406.1
-858.40 462.99 1303.5
-831.77 450.40 1268.1
-820.47 446.05 1255.8
-756.42 412.87 1162.4
-771.95 423.03 1191.0
-799.84 440.07 1239.0
-795.94 439.69 1237.9
-841.12 466.53 1313.5
-865.92 482.24 1357.7
-819.16 458.06 1289.6
-775.73 435.56 1226.3
-776.96 438.04 1233.3
-788.33 446.29 1256.5
-734.16 417.34 1175.0
-705.59 402.78 1134.0
-752.82 431.53 1214.9
-765.54 440.67 1240.7
-750.61 433.90 1221.6
-767.71 445.66 1254.7
-756.80 441.20 1242.2
-716.16 419.29 1180.5
-726.72 427.30 1203.0
-719.92 425.12 1196.9
-663.50 393.51 1107.9
-687.77 409.67 1153.4
-764.59 457.42 1287.8
-717.76 431.29 1214.3
-666.37 402.17 1132.3
-754.51 457.38 1287.7
-826.13 503.02 1416.2
-766.66 468.90 1320.1
-674.56 414.42 1166.8
-667.93 412.19 1160.5
-786.28 487.42 1372.3
-758.11 474.25 1335.2
-651.53 409.44 1152.8
-618.75 390.64 1099.8
-686.99 435.73 1226.8
-757.97 482.99 1359.8
-791.34 506.61 1426.3
-806.44 518.69 1460.4
-798.85 516.24 1453.4
-804.13 522.11 1470.0
-770.98 502.98 1416.1
-758.52 497.21 1399.9
-781.92 515.01 1450.0
-767.19 507.75 1429.5
-737.26 490.31 1380.4
-717.39 479.42 1349.8
-719.49 483.19 1360.4
-720.21 486.06 1368.5
-757.19 513.54 1445.8
-804.42 548.29 1543.7
-775.29 531.07 1495.2
-746.80 514.13 1447.5
-742.45 513.72 1446.3
-749.38 521.14 1467.2
-752.77 526.17 1481.4
-732.87 514.89 1449.6
-700.68 494.81 1393.1
-703.68 502.10 1413.6
-737.04 528.66 1488.4
-736.81 531.28 1495.8
-729.84 529.04 1489.5
-725.82 528.92 1489.1
-711.41 521.19 1467.4
-690.05 508.26 1431.0
-689.86 510.87 1438.3
-699.88 521.10 1467.1
-705.69 528.30 1487.4
-716.28 539.18 1518.0
-717.04 542.73 1528.0
-709.29 539.85 1519.9
-683.15 522.85 1472.1
-658.00 506.44 1425.9
-669.97 518.57 1460.0
-688.11 535.63 1508.0
-685.20 536.41 1510.2
-677.58 533.50 1502.0
-669.22 529.96 1492.1
-655.86 522.40 1470.8
-658.78 527.80 1486.0
-680.81 548.65 1544.7
-678.92 550.37 1549.5
-647.38 527.93 1486.3
-631.24 517.84 1458.0
-637.77 526.35 1481.9
-633.71 526.17 1481.4
-628.55 525.07 1478.3
-646.33 543.23 1529.4
-641.43 542.44 1527.2
-627.39 533.86 1503.1
-646.94 553.95 1559.6
-659.00 567.82 1598.7
-648.55 562.35 1583.3
-637.81 556.56 1567.0
-640.68 562.65 1584.1
-656.57 580.32 1633.9
-648.98 577.34 1625.5
-626.03 560.56 1578.2
-647.50 583.60 1643.1
-663.48 601.97 1694.8
-644.47 588.61 1657.2
-647.17 595.05 1675.3
-647.08 598.98 1686.4
-647.60 603.54 1699.2
-654.78 614.41 1729.8
-638.77 603.53 1699.2
-632.53 601.78 1694.3
-654.67 627.21 1765.9
-679.10 655.19 1844.6
-680.69 661.38 1862.1
-676.05 661.56 1862.6
-665.29 655.72 1846.1
-651.73 647.01 1821.6
-676.68 676.68 1905.2
-664.02 673.86 1897.2
-663.00 677.85 1908.4
-1051.63 518.20 1469.7
-909.51 449.80 1275.7
-800.93 397.54 1127.5
-758.93 378.08 1072.3
-720.46 360.23 1021.7
-773.30 388.08 1100.6
-875.44 440.96 1250.6
-880.32 445.07 1262.3
-862.14 437.50 1240.8
-759.85 387.04 1097.7
-750.95 385.39 1093.0
-843.86 434.71 1232.9
-752.89 389.33 1104.2
-720.13 378.14 1072.4
-808.31 426.09 1208.4
-829.47 438.94 1244.9
-887.64 471.56 1337.4
-912.19 488.41 1385.2
-839.62 451.34 1280.1
-795.78 429.47 1218.0
-741.18 401.59 1139.0
-754.68 410.54 1164.4
-772.24 421.78 1196.2
-767.90 421.10 1194.3
-809.57 445.76 1264.2
-831.39 459.63 1303.6
-803.21 445.86 1264.5
-784.91 437.49 1240.8
-756.99 423.67 1201.6
-734.32 412.67 1170.4
-750.85 423.72 1201.7
-780.93 442.52 1255.1
-823.41 468.55 1328.9
-829.38 473.93 1344.1
-777.64 446.24 1265.6
-758.69 437.21 1240.0
-803.10 464.77 1318.2
-812.45 472.19 1339.2
-784.58 457.95 1298.8
-746.02 437.32 1240.3
-706.70 416.06 1180.0
-756.82 447.51 1269.2
-728.43 432.60 1226.9
-756.43 455.20 1291.0
-829.06 501.12 1421.2
-774.35 470.14 1333.4
-753.49 459.53 1303.3
-811.95 497.41 1410.7
-757.78 466.32 1322.6
-672.22 415.55 1178.6
-698.64 433.86 1230.5
-691.45 431.36 1223.4
-674.45 422.70 1198.8
-756.55 476.34 1351.0
-788.70 498.90 1414.9
-787.68 500.58 1419.7
-815.27 520.55 1476.3
-820.54 526.38 1492.9
-816.57 526.32 1492.7
-775.59 502.29 1424.6
-739.45 481.17 1364.7
-740.72 484.32 1373.6
-765.43 502.89 1426.3
-772.83 510.22 1447.0
-737.12 489.02 1386.9
-725.76 483.84 1372.2
-721.13 483.12 1370.2
-753.26 507.15 1438.3
-797.33 542.18 1537.7
-754.73 515.79 1462.9
-738.15 507.01 1438.0
-750.31 517.98 1469.1
-758.45 526.27 1492.6
-719.58 501.86 1423.3
-702.02 497.27 1410.3
-726.10 517.02 1466.3
-717.50 513.58 1456.6
-720.68 518.59 1470.8
-725.89 525.11 1489.3
-718.54 522.57 1482.1
-703.77 514.58 1459.4
-695.68 511.42 1450.5
-698.71 516.44 1464.7
-703.72 522.98 1483.2
-713.52 533.18 1512.2
-708.62 532.45 1510.1
-694.87 525.01 1489.0
-688.02 522.74 1482.6
-680.80 520.16 1475.3
-677.58 520.63 1476.6
-680.68 525.98 1491.7
-697.47 542.04 1537.3
-709.76 554.75 1573.4
-689.94 542.38 1538.3
-663.29 524.46 1487.4
-661.94 526.45 1493.1
-678.98 543.19 1540.5
-679.39 546.73 1550.6
-652.02 527.82 1497.0
-633.57 515.96 1463.3
-638.59 523.18 1483.8
-655.11 539.97 1531.4
-670.67 556.17 1577.4
-678.99 566.52 1606.7
-665.45 558.65 1584.4
-634.79 536.22 1520.8
-636.84 541.31 1535.2
-646.79 553.23 1569.0
-634.96 546.55 1550.1
-634.33 549.48 1558.4
-645.77 562.98 1596.7
-637.19 559.08 1585.6
-606.46 535.57 1519.0
-597.75 531.33 1506.9
-631.94 565.42 1603.6
-654.26 589.27 1671.2
-644.24 584.11 1656.6
-644.22 588.01 1667.7
-641.76 589.72 1672.5
-647.73 599.26 1699.6
-658.95 613.82 1740.9
-641.24 601.44 1705.8
-631.66 596.57 1692.0
-622.14 591.69 1678.1
-612.36 586.49 1663.4
-634.58 612.08 1735.9
-654.84 636.13 1804.2
-660.95 646.68 1834.1
-665.95 656.30 1861.4
-650.18 645.44 1830.5
-624.14 624.14 1770.1
-623.14 627.75 1780.4
-652.28 662.02 1877.6
-892.15 439.56 1255.9
-796.58 393.91 1125.5
-792.34 393.26 1123.6
-898.09 447.39 1278.2
-884.76 442.38 1263.9
-791.20 397.07 1134.5
-811.63 408.84 1168.1
-767.39 388.01 1108.6
-710.82 360.75 1030.7
-775.32 394.97 1128.5
-870.39 445.08 1271.7
-787.96 404.47 1155.6
-728.58 379.76 1085.0
-806.11 421.80 1205.1
-818.24 429.82 1228.0
-843.56 444.85 1271.0
-881.43 466.64 1333.3
-829.31 440.78 1259.4
-736.42 392.95 1122.7
-722.24 386.91 1105.5
-702.36 377.76 1079.3
-722.77 390.29 1115.1
-738.35 400.31 1143.7
-708.69 385.78 1102.2
-726.25 396.94 1134.1
-789.59 433.31 1238.0
-805.75 443.98 1268.5
-773.59 428.01 1222.9
-731.38 406.32 1160.9
-722.02 402.78 1150.8
-744.19 416.87 1191.1
-757.09 425.86 1216.8
-789.57 445.99 1274.3
-832.40 472.16 1349.0
-811.73 462.38 1321.1
-741.15 423.96 1211.3
-737.79 423.84 1211.0
-807.48 465.85 1331.0
-841.03 487.29 1392.3
-787.45 458.22 1309.2
-740.10 432.53 1235.8
-763.18 447.95 1279.9
-707.37 417.01 1191.4
-648.49 383.98 1097.1
-718.67 427.41 1221.2
-729.80 435.94 1245.6
-662.70 397.62 1136.1
-705.13 424.97 1214.2
-787.02 476.44 1361.3
-758.04 460.97 1317.1
-641.71 391.99 1120.0
-656.09 404.44 1155.5
-710.71 440.12 1257.5
-757.89 471.50 1347.1
-820.58 512.86 1465.3
-830.18 521.27 1489.4
-766.84 483.75 1382.2
-736.29 466.66 1333.3
-749.69 477.39 1364.0
-753.32 481.98 1377.1
-750.04 482.17 1377.6
-744.48 480.88 1373.9
-758.43 492.25 1406.4
-794.84 518.38 1481.1
-821.94 538.65 1539.0
-802.61 528.55 1510.1
-786.98 520.79 1488.0
-779.43 518.34 1481.0
-754.64 504.34 1441.0
-759.58 510.16 1457.6
-778.95 525.79 1502.3
-770.98 523.03 1494.4
-754.33 514.32 1469.5
-766.44 525.23 1500.6
-774.95 533.77 1525.1
-736.85 510.13 1457.5
-706.32 491.51 1404.3
-711.89 497.95 1422.7
-720.35 506.50 1447.1
-715.58 505.78 1445.1
-711.66 505.65 1444.7
-718.23 513.02 1465.8
-735.57 528.20 1509.2
-739.83 534.10 1526.0
-722.47 524.37 1498.2
-711.82 519.44 1484.1
-698.36 512.38 1464.0
-687.43 507.12 1448.9
-699.76 519.05 1483.0
-698.17 520.73 1487.8
-690.10 517.58 1478.8
-688.89 519.56 1484.4
-678.07 514.27 1469.3
-670.89 511.70 1462.0
-673.63 516.70 1476.3
-688.90 531.44 1518.4
-702.41 544.97 1557.1
-683.79 533.59 1524.5
-674.61 529.49 1512.8
-689.42 544.28 1555.1
-676.00 536.82 1533.8
-645.47 515.61 1473.2
-637.26 512.08 1463.1
-638.17 515.89 1474.0
-645.05 524.59 1498.8
-663.05 542.50 1550.0
-673.75 554.61 1584.6
-677.24 560.91 1602.6
-673.29 561.07 1603.1
-653.56 548.02 1565.8
-636.19 536.79 1533.7
-625.85 531.38 1518.2
-631.80 539.83 1542.4
-649.12 558.16 1594.7
-651.22 563.55 1610.2
-633.74 551.97 1577.0
-615.35 539.43 1541.2
-619.21 546.36 1561.0
-625.42 555.47 1587.1
-617.64 552.19 1577.7
-611.97 550.77 1573.6
-616.25 558.35 1595.3
-619.74 565.31 1615.2
-630.25 578.80 1653.7
-673.22 622.50 1778.6
-664.36 622.83 1779.5
-634.15 598.68 1710.5
-621.01 590.40 1686.8
-638.30 611.14 1746.1
-637.82 615.04 1757.3
-623.11 605.18 1729.1
-619.73 606.25 1732.2
-594.71 586.03 1674.4
-593.33 588.97 1682.8
-618.89 618.89 1768.2
-639.67 644.45 1841.3
-663.21 673.19 1923.4
-635.47 670.22 1914.9
-1037.39 512.95 1476.5
-898.92 447.79 1288.9
-910.30 455.15 1310.1
-880.56 441.93 1272.1
-819.30 412.73 1188.0
-853.61 431.63 1242.4
-905.63 459.68 1323.2
-885.34 451.08 1298.4
-777.65 397.73 1144.8
-734.07 376.88 1084.8
-798.67 411.62 1184.8
-793.27 410.42 1181.4
-767.05 398.39 1146.7
-757.46 394.94 1136.8
-780.31 408.44 1175.7
-869.23 456.77 1314.8
-856.21 451.70 1300.2
-712.09 377.15 1085.6
-669.78 357.57 1029.3
-736.77 394.91 1136.7
-764.82 411.59 1184.7
-740.25 399.97 1151.3
-726.68 394.23 1134.8
-758.58 413.21 1189.4
-781.53 427.45 1230.4
-752.50 413.26 1189.6
-769.15 424.14 1220.9
-822.89 455.65 1311.6
-826.98 459.81 1323.6
-819.36 457.48 1316.8
-772.87 433.33 1247.3
-737.73 415.36 1195.6
-778.58 440.21 1267.1
-770.12 437.27 1258.7
-708.81 404.17 1163.4
-715.98 410.01 1180.2
-727.06 418.14 1203.6
-673.33 388.90 1119.4
-682.95 396.17 1140.4
-749.90 436.90 1257.6
-761.61 445.66 1282.8
-759.56 446.41 1285.0
-771.11 455.19 1310.3
-714.76 423.79 1219.9
-669.38 398.65 1147.5
-726.73 434.74 1251.4
-779.36 468.31 1348.0
-724.12 437.08 1258.1
-672.09 407.51 1173.0
-683.97 416.60 1199.2
-674.47 412.69 1187.9
-665.48 409.05 1177.4
-692.19 427.44 1230.4
-731.32 453.69 1305.9
-776.66 484.06 1393.3
-752.47 471.17 1356.3
-712.71 448.37 1290.6
-714.68 451.73 1300.3
-715.24 454.23 1307.5
-707.53 451.47 1299.5
-707.59 453.67 1305.9
-728.51 469.33 1350.9
-763.70 494.38 1423.0
-785.99 511.27 1471.7
-778.90 509.14 1465.5
-773.18 507.87 1461.9
-789.29 521.01 1499.7
-783.95 520.04 1496.9
-784.36 522.91 1505.2
-801.01 536.68 1544.8
-783.75 527.75 1519.1
-759.62 514.09 1479.8
-754.77 513.40 1477.8
-746.90 510.64 1469.9
-741.22 509.35 1466.1
-738.97 510.43 1469.2
-743.98 516.55 1486.9
-750.61 523.86 1507.9
-739.78 519.01 1493.9
-729.85 514.73 1481.6
-714.92 506.88 1459.0
-711.39 507.05 1459.5
-725.33 519.76 1496.1
-717.97 517.25 1488.9
-702.39 508.76 1464.4
-684.45 498.46 1434.8
-676.04 495.02 1424.9
-688.83 507.16 1459.8
-701.07 519.02 1494.0
-707.11 526.40 1515.2
-705.02 527.78 1519.2
-693.72 522.24 1503.2
-682.48 516.68 1487.3
-680.42 518.05 1491.2
-690.15 528.46 1521.2
-697.79 537.38 1546.8
-688.54 533.32 1535.2
-687.88 535.91 1542.6
-691.82 542.13 1560.5
-668.39 526.85 1516.5
-642.09 509.11 1465.5
-636.18 507.43 1460.6
-644.67 517.28 1489.0
-659.43 532.31 1532.2
-658.27 534.59 1538.8
-649.99 531.09 1528.7
-656.21 539.46 1552.8
-654.95 541.75 1559.4
-642.28 534.57 1538.7
-631.89 529.21 1523.3
-631.00 531.79 1530.7
-645.96 547.84 1576.9
-643.47 549.21 1580.9
-626.34 538.01 1548.6
-618.22 534.46 1538.4
-610.49 531.21 1529.1
-620.35 543.31 1563.9
-632.49 557.59 1605.0
-636.11 564.50 1624.9
-643.09 574.50 1653.7
-632.11 568.48 1636.3
-618.82 560.28 1612.8
-613.09 558.87 1608.7
-634.64 582.48 1676.7
-654.77 613.56 1766.1
-607.33 573.12 1649.7
-629.30 598.06 1721.5
-635.68 608.44 1751.4
-607.12 585.29 1684.7
-586.24 569.24 1638.6
-587.51 574.64 1654.1
-614.62 605.58 1743.1
-642.56 637.80 1835.9
-669.45 669.45 1927.0
-662.46 667.44 1921.2
-627.19 636.69 1832.7
-629.30 643.71 1852.9
-653.15 673.25 1937.9
-887.55 432.40 1254.0
-887.52 433.97 1258.6
-1043.50 512.12 1485.2
-942.11 467.54 1355.9
-879.96 438.33 1271.2
-813.21 406.60 1179.2
-848.10 425.65 1234.4
-852.36 429.41 1245.3
-791.57 400.30 1160.9
-766.74 389.22 1128.8
-811.01 413.27 1198.5
-843.73 431.60 1251.7
-796.94 409.24 1186.8
-774.97 399.50 1158.6
-761.63 394.15 1143.1
-705.29 366.42 1062.7
-731.93 381.75 1107.1
-844.55 442.22 1282.5
-841.09 442.15 1282.3
-840.79 443.75 1286.9
-855.27 455.01 1319.6
-743.90 397.35 1152.3
-743.80 398.89 1156.8
-754.04 406.02 1177.5
-759.54 410.65 1190.9
-756.25 410.53 1190.6
-802.22 437.28 1268.1
-867.25 476.63 1382.3
-761.35 420.17 1218.5
-773.71 428.77 1243.5
-740.99 412.35 1195.9
-697.86 389.98 1131.0
-733.84 411.82 1194.3
-809.63 456.28 1323.3
-823.03 465.80 1350.9
-756.72 430.10 1247.3
-708.65 404.51 1173.1
-724.65 415.42 1204.8
-803.58 462.66 1341.8
-809.78 468.26 1358.0
-762.07 442.60 1283.6
-720.51 420.30 1218.9
-688.44 403.36 1169.8
-718.59 422.89 1226.4
-757.20 447.59 1298.1
-770.98 457.77 1327.6
-769.77 459.10 1331.4
-769.02 460.72 1336.1
-765.39 460.62 1335.8
-766.98 463.67 1344.7
-746.77 453.52 1315.3
-704.53 429.83 1246.6
-697.32 427.39 1239.5
-728.50 448.57 1300.9
-764.09 472.67 1370.8
-760.38 472.57 1370.5
-735.37 459.17 1331.7
-768.62 482.20 1398.4
-802.97 506.14 1467.8
-750.53 475.34 1378.5
-706.67 449.70 1304.2
-725.79 464.09 1345.9
-763.29 490.42 1422.3
-763.95 493.23 1430.4
-738.10 478.86 1388.8
-746.85 486.91 1412.1
-776.43 508.70 1475.3
-780.46 513.87 1490.3
-788.84 521.97 1513.8
-790.08 525.40 1523.7
-757.96 506.58 1469.1
-758.37 509.41 1477.3
-775.27 523.40 1517.9
-756.48 513.33 1488.7
-742.13 506.17 1467.9
-755.35 517.84 1501.8
-776.11 534.83 1551.1
-768.14 532.09 1543.1
-742.39 516.95 1499.2
-729.91 510.93 1481.8
-712.03 501.06 1453.1
-691.35 489.09 1418.4
-688.73 489.84 1420.6
-697.71 498.90 1446.9
-698.32 502.03 1456.0
-698.88 505.17 1465.0
-708.41 514.85 1493.1
-703.96 514.43 1491.9
-698.30 513.11 1488.1
-694.66 513.28 1488.6
-685.00 508.97 1476.1
-687.39 513.61 1489.5
-689.31 517.96 1502.1
-679.30 513.33 1488.7
-681.56 517.98 1502.2
-692.78 529.54 1535.7
-687.84 528.80 1533.6
-679.03 525.06 1522.7
-674.90 524.92 1522.3
-670.00 524.18 1520.2
-661.28 520.41 1509.3
-646.89 512.12 1485.2
-647.76 515.88 1496.1
-662.15 530.52 1538.6
-660.97 532.78 1545.1
-655.66 531.72 1542.1
-664.46 542.16 1572.3
-662.78 544.14 1578.1
-651.17 537.92 1560.0
-637.44 529.87 1536.7
-633.62 530.01 1537.1
-638.82 537.74 1559.5
-626.69 530.89 1539.6
-609.28 519.45 1506.5
-600.89 515.60 1495.3
-619.39 534.93 1551.4
