ply
format ascii 1.0
element vertex 2115
property float x
property float y
property float z
end_header
-1451.21 1020.10 2342.1
-1486.00 1048.94 2408.3
-1442.39 1044.49 2398.1
-1393.82 1013.69 2327.3
-1416.52 1034.67 2375.5
-1390.83 1029.34 2363.3
-1384.14 1033.49 2372.8
-1375.12 1031.34 2367.9
-1297.03 990.46 2274.0
-1337.89 1031.03 2367.2
-1278.29 1008.23 2314.8
-1241.00 1012.08 2323.6
-1175.67 1007.72 2313.6
-1165.79 1009.55 2317.8
-1166.57 1026.09 2355.8
-1162.74 1028.10 2360.4
-1158.06 1029.38 2363.4
-1149.69 1027.38 2358.8
-942.18 1014.65 2329.6
-848.28 1025.26 2353.9
-805.08 1040.41 2388.7
-778.94 1038.58 2384.5
-684.27 1064.42 2443.8
-637.18 1009.87 2318.6
-648.47 1037.56 2382.1
-632.10 1021.08 2344.3
-1852.33 985.16 2275.4
-1848.31 989.32 2285.0
-1840.64 991.57 2290.2
-1885.91 1039.43 2400.7
-1795.45 992.85 2293.1
-1826.52 1020.17 2356.2
-1748.15 989.63 2285.7
-1739.03 991.19 2289.3
-1710.75 998.93 2307.2
-1685.89 987.87 2281.6
-1659.12 993.09 2293.7
-1630.53 1004.79 2320.7
-1627.90 1006.89 2325.6
-1588.74 1005.00 2321.2
-1604.42 1022.66 2362.0
-1589.98 1017.34 2349.7
-1428.94 1028.59 2375.7
-1444.92 1044.60 2412.7
-1395.58 1017.74 2350.6
-1313.12 978.97 2261.1
-1314.64 984.50 2273.9
-1320.72 1002.54 2315.5
-1299.71 1009.54 2331.7
-1287.20 1023.63 2364.3
-1253.39 1016.10 2346.8
-1198.49 1015.98 2346.6
-1183.77 1008.62 2329.6
-1177.54 1008.46 2329.2
-1094.23 982.46 2269.2
-1018.87 1037.51 2396.3
-997.56 1041.20 2404.8
-816.43 1002.52 2315.5
-819.08 1052.20 2430.2
-813.61 1053.28 2432.7
-675.65 1064.47 2458.6
-668.44 1063.14 2455.5
-636.50 1022.08 2360.7
-641.44 1040.01 2402.1
-1810.39 975.73 2267.2
-1847.36 1015.44 2359.5
-1768.17 975.14 2265.8
-1784.63 987.50 2294.5
-1808.53 1004.07 2333.0
-1822.45 1015.19 2358.9
-1768.80 995.32 2312.7
-1757.89 992.55 2306.3
-1725.52 998.04 2319.0
-1674.59 996.35 2315.1
-1665.77 1016.61 2362.2
-1631.62 999.44 2322.3
-1653.32 1016.49 2361.9
-1601.63 999.52 2322.5
-1599.51 1017.31 2363.8
-1507.32 1013.02 2353.8
-1428.45 1009.03 2344.6
-1329.61 985.34 2289.5
-1275.43 998.68 2320.5
-1244.16 992.93 2307.2
-1240.86 1014.69 2357.7
-1237.63 1017.07 2363.2
-1215.06 1018.69 2367.0
-992.03 1042.26 2421.8
-894.56 1038.44 2412.9
-845.15 1016.63 2362.2
-830.37 1013.54 2355.0
-815.95 1010.81 2348.7
-808.91 1009.62 2345.9
-802.90 1017.41 2364.0
-771.63 1041.38 2419.7
-770.57 1057.15 2456.4
-674.17 1008.21 2342.7
-661.64 998.48 2320.0
-662.54 1009.01 2344.5
-674.78 1037.15 2409.9
-672.86 1043.88 2425.5
-674.29 1055.97 2453.6
-651.78 1050.44 2440.8
-631.64 1027.97 2388.6
-634.99 1054.08 2449.2
-1843.78 984.54 2301.5
-1833.39 1005.02 2349.4
-1802.03 991.12 2316.9
-1778.31 981.34 2294.0
-1715.51 979.44 2289.6
-1692.79 986.96 2307.2
-1680.40 990.23 2314.8
-1652.42 977.24 2284.5
-1629.18 984.67 2301.8
-1654.41 1007.30 2354.7
-1626.28 993.84 2323.3
-1622.01 994.92 2325.8
-1443.16 1013.28 2368.7
-1378.69 1006.57 2353.0
-1364.20 1018.52 2380.9
-1311.93 1002.17 2342.7
-1272.57 985.79 2304.5
-1283.60 999.03 2335.4
-1275.71 1002.35 2343.1
-1238.54 992.04 2319.0
-1179.01 1002.76 2344.1
-1131.64 982.74 2297.3
-1019.34 1019.34 2382.9
-949.85 991.93 2318.8
-931.61 979.08 2288.8
-929.15 989.10 2312.2
-840.70 997.95 2332.9
-819.05 993.70 2322.9
-813.37 1016.71 2376.7
-798.28 1013.21 2368.5
-800.02 1023.29 2392.1
-772.37 1044.60 2441.9
-770.96 1051.31 2457.6
-745.68 1042.70 2437.5
-728.89 1036.78 2423.6
-717.57 1047.78 2449.4
-713.19 1050.68 2456.1
-710.31 1055.87 2468.3
-698.75 1048.12 2450.1
-684.34 1045.53 2444.1
-656.90 1012.97 2368.0
-661.94 1050.19 2455.0
-649.26 1040.08 2431.3
-627.95 1015.81 2374.6
-613.06 1011.55 2364.7
-629.76 1049.61 2453.6
-619.95 1054.55 2465.2
-1833.03 972.87 2288.1
-1817.64 970.98 2283.7
-1827.93 979.67 2304.1
-1765.85 985.03 2316.7
-1708.60 972.95 2288.3
-1696.65 969.52 2280.2
-1707.31 989.39 2327.0
-1643.35 987.21 2321.8
-1575.63 993.86 2337.5
-1515.91 998.43 2348.2
-1388.40 989.99 2328.4
-1385.19 992.01 2333.1
-1371.26 1017.59 2393.3
-1319.92 983.94 2314.1
-1290.99 989.36 2326.9
-1149.25 971.53 2285.0
-1133.07 962.82 2264.5
-1093.50 969.37 2279.9
-1035.81 993.41 2336.4
-1061.43 1023.97 2408.3
-1033.36 1027.09 2415.6
-992.78 1024.00 2408.4
-996.84 1034.69 2433.5
-915.32 974.76 2292.5
-817.99 1024.05 2408.5
-811.70 1024.00 2408.4
-780.48 1015.86 2389.2
-761.70 1015.60 2388.6
-756.65 1025.54 2412.0
-753.83 1038.89 2443.4
-709.09 1029.11 2420.4
-678.96 994.20 2338.3
-685.33 1012.56 2381.5
-684.89 1021.11 2401.6
-681.07 1024.73 2410.1
-662.24 1005.62 2365.1
-623.78 1002.94 2358.8
-617.06 1001.96 2356.5
-631.24 1035.24 2434.8
-1853.95 959.35 2270.1
-1895.78 984.12 2328.8
-1900.82 996.25 2357.5
-1877.10 993.40 2350.7
-1879.05 997.67 2360.8
-1852.64 986.86 2335.3
-1801.58 962.81 2278.4
-1749.08 966.44 2286.9
-1767.50 983.29 2326.8
-1758.30 981.52 2322.6
-1721.14 964.08 2281.3
-1729.10 971.87 2299.8
-1740.97 981.93 2323.6
-1652.11 968.68 2292.2
-1671.35 987.06 2335.7
-1667.12 988.15 2338.3
-1467.42 996.62 2358.4
-1463.63 1010.89 2392.1
-1433.95 994.61 2353.6
-1418.81 992.56 2348.7
-1386.29 1008.77 2387.1
-1368.52 1009.36 2388.5
-1308.79 969.70 2294.6
-1306.44 972.37 2301.0
-1303.60 974.71 2306.5
-1270.97 991.23 2345.6
-1200.49 945.31 2236.9
-1214.04 970.04 2295.5
-1203.52 971.16 2298.1
-1204.74 976.98 2311.9
-1215.81 990.89 2344.8
-1071.41 970.23 2295.9
-998.01 1029.59 2436.4
-954.91 991.40 2346.0
-878.53 1015.61 2403.3
-845.58 991.58 2346.4
-835.88 1001.83 2370.7
-830.62 1002.90 2373.2
-814.51 1013.47 2398.2
-777.41 974.75 2306.6
-785.08 1007.63 2384.4
-787.47 1026.86 2429.9
-751.58 987.97 2337.9
-748.91 1043.35 2468.9
-733.09 1030.12 2437.6
-722.98 1024.74 2424.9
-709.44 1023.35 2421.6
-661.82 998.86 2363.6
-661.60 1017.36 2407.4
-654.27 1015.67 2403.4
-635.14 995.46 2355.6
-651.12 1030.41 2438.3
-640.66 1023.80 2422.7
-611.28 986.51 2334.4
-616.24 1004.47 2376.9
-622.83 1025.46 2426.6
-624.84 1039.27 2459.3
-1854.35 981.71 2337.4
-1820.35 966.87 2302.1
-1818.98 972.52 2315.5
-1833.86 986.99 2350.0
-1771.45 969.51 2308.4
-1769.18 971.55 2313.2
-1745.06 971.48 2313.0
-1721.64 961.74 2289.9
-1742.63 976.84 2325.8
-1644.86 948.28 2257.8
-1644.15 951.26 2264.9
-1641.76 953.28 2269.7
-1664.80 970.13 2309.8
-1689.89 988.31 2353.1
-1670.78 980.67 2334.9
-1637.11 967.93 2304.6
-1641.36 981.18 2336.1
-1662.03 997.22 2374.3
-1651.73 994.72 2368.4
-1613.39 975.26 2322.0
-1519.13 1000.40 2381.9
-1485.72 982.40 2339.0
-1451.30 987.86 2352.0
-1402.49 970.95 2311.8
-1371.26 987.30 2350.7
-1370.77 991.36 2360.4
-1326.97 963.98 2295.2
-1290.58 946.03 2252.5
-1302.30 958.96 2283.2
-1278.33 967.70 2304.1
-1258.61 957.25 2279.2
-1292.79 987.88 2352.1
-1283.98 995.24 2369.6
-1282.17 998.61 2377.6
-1244.40 983.38 2341.4
-1244.32 988.13 2352.7
-1219.74 973.39 2317.6
-1208.78 969.42 2308.1
-1216.04 980.10 2333.6
-1111.11 967.74 2304.2
-1098.70 967.33 2303.2
-1088.48 963.57 2294.2
-1048.55 965.15 2298.0
-1042.33 964.90 2297.4
-1059.91 986.81 2349.6
-1041.26 1022.33 2434.1
-962.20 968.18 2305.2
-1000.92 1013.44 2412.9
-1012.87 1031.98 2457.1
-941.26 977.46 2327.3
-846.61 965.85 2299.6
-851.48 978.29 2329.3
-831.15 968.68 2306.4
-858.96 1008.35 2400.8
-843.69 1004.99 2392.8
-842.07 1010.48 2405.9
-759.90 969.32 2307.9
-789.29 1022.92 2435.5
-757.29 1005.58 2394.2
-703.53 982.51 2339.3
-681.11 976.46 2324.9
-682.99 987.89 2352.1
-668.03 983.82 2342.4
-663.83 1005.04 2393.0
-673.96 1030.02 2452.4
-634.35 1007.50 2398.8
-626.14 1024.59 2439.5
-1888.17 977.48 2341.8
-1802.59 980.46 2348.9
-1734.69 963.05 2307.2
-1662.80 949.33 2274.3
-1691.65 969.24 2322.0
-1655.78 952.07 2280.9
-1653.52 971.59 2327.7
-1672.26 986.20 2362.7
-1609.05 966.63 2315.8
-1635.48 986.19 2362.6
-1490.24 975.32 2336.6
-1461.38 984.44 2358.5
-1394.55 989.09 2369.6
-1394.52 997.85 2390.6
-1395.37 1002.92 2402.7
-1293.26 937.90 2247.0
-1298.52 945.98 2266.3
-1291.13 944.87 2263.7
-1299.99 955.70 2289.6
-1262.52 958.80 2297.0
-1236.60 943.57 2260.5
-1217.06 951.20 2278.8
-1207.89 948.64 2272.7
-1247.44 984.50 2358.6
-1125.62 953.81 2285.1
-1087.14 935.99 2242.4
-1118.48 968.14 2319.4
-1077.91 991.67 2375.8
-1079.63 1010.58 2421.1
-1047.37 986.12 2362.5
-1006.24 970.09 2324.1
-1018.76 988.07 2367.2
-1017.26 998.65 2392.5
-1003.73 1016.36 2434.9
-952.95 971.04 2326.4
-921.71 963.61 2308.6
-839.61 979.55 2346.7
-838.17 985.00 2359.8
-831.71 984.60 2358.8
-832.84 1000.65 2397.3
-832.35 1007.59 2413.9
-790.01 978.39 2344.0
-772.50 1019.45 2442.3
-696.10 974.54 2334.8
-680.07 1004.51 2406.5
-660.47 984.58 2358.8
-664.65 1000.08 2395.9
-641.32 992.81 2378.5
-656.32 1025.91 2457.8
-639.64 1009.63 2418.8
-630.20 1004.57 2406.7
-1854.49 947.98 2285.3
-1853.68 950.61 2291.6
-1714.08 948.97 2287.7
-1727.09 959.50 2313.1
-1674.62 946.78 2282.4
-1657.13 940.22 2266.6
-1636.45 941.84 2270.5
-1661.48 984.58 2373.5
-1604.79 965.29 2327.0
-1480.77 991.31 2389.8
-1397.41 993.71 2395.6
-1382.90 996.69 2402.7
-1279.47 930.53 2243.2
-1275.84 932.12 2247.1
-1220.37 925.40 2230.9
-1284.94 979.00 2360.1
-1204.05 930.67 2243.6
-1197.61 930.18 2242.4
-1205.26 940.69 2267.7
-1122.75 945.47 2279.3
-1123.62 951.21 2293.1
-1050.18 949.32 2288.5
-1058.50 973.33 2346.4
-1055.02 987.15 2379.7
-1043.58 1005.86 2424.8
-1020.50 989.58 2385.6
-1016.24 991.46 2390.1
-1030.87 1011.89 2439.4
-991.02 997.25 2404.1
-910.40 971.09 2341.0
-842.86 949.70 2289.5
-833.16 959.03 2312.0
-867.61 1005.92 2425.0
-817.34 975.93 2352.7
-815.75 981.35 2365.8
-805.19 998.69 2407.5
-784.58 996.29 2401.8
-767.69 998.62 2407.4
-763.06 1000.74 2412.5
-755.90 999.54 2409.6
-753.72 1004.96 2422.7
-746.82 1004.13 2420.7
-706.61 974.63 2349.6
-698.41 997.73 2405.2
-706.20 1017.95 2454.0
-680.13 989.28 2384.9
-667.02 979.11 2360.4
-680.82 1008.62 2431.5
-666.03 1005.32 2423.5
-650.43 1010.37 2435.7
-618.76 980.21 2363.0
-603.22 995.01 2398.7
-1854.17 944.92 2292.2
-1859.32 950.58 2306.0
-1888.51 971.76 2357.4
-1806.31 957.35 2322.4
-1834.38 975.47 2366.4
-1807.66 974.30 2363.5
-1740.87 951.19 2307.5
-1732.84 950.07 2304.8
-1660.97 936.51 2271.8
-1630.28 932.42 2261.9
-1620.68 930.28 2256.7
-1675.65 965.32 2341.7
-1654.90 970.96 2355.4
-1639.19 965.30 2341.7
-1633.28 965.39 2341.9
-1460.09 939.89 2280.1
-1495.31 978.42 2373.5
-1501.75 986.69 2393.6
-1482.09 977.81 2372.1
-1451.85 969.93 2352.9
-1459.58 979.21 2375.5
-1458.37 982.54 2383.5
-1451.72 982.22 2382.8
-1395.52 973.19 2360.8
-1318.17 952.68 2311.1
-1301.74 953.81 2313.8
-1255.56 932.87 2263.0
-1263.40 956.58 2320.5
-1206.64 917.97 2226.9
-1198.89 916.46 2223.2
-1234.72 948.41 2300.7
-1224.68 949.87 2304.3
-1099.71 925.16 2244.3
-1094.54 935.65 2269.8
-1103.81 948.68 2301.4
-1102.04 952.31 2310.2
-1105.86 960.83 2330.9
-1074.40 938.62 2277.0
-1061.87 932.80 2262.9
-1094.95 967.21 2346.3
-1072.09 963.06 2336.3
-1029.12 997.75 2420.4
-1015.67 990.75 2403.4
-1008.45 989.78 2401.1
-879.02 977.37 2371.0
-865.14 968.71 2350.0
-865.43 975.92 2367.5
-847.19 962.17 2334.1
-830.32 977.93 2372.3
-793.66 956.00 2319.1
-788.13 994.54 2412.6
-746.00 964.34 2339.4
-744.62 970.45 2354.2
-743.73 977.29 2370.8
-706.67 968.63 2349.8
-732.37 1012.58 2456.4
-708.22 996.52 2417.4
-682.64 977.83 2372.1
-665.16 961.46 2332.4
-677.64 997.64 2420.2
-616.51 1000.25 2426.5
-1900.49 959.35 2342.0
-1790.84 955.92 2333.6
-1749.81 956.64 2335.4
-1671.38 939.78 2294.2
-1663.94 938.93 2292.2
-1668.48 948.27 2315.0
-1632.22 931.01 2272.8
-1664.01 952.59 2325.5
-1672.19 967.79 2362.6
-1641.67 953.62 2328.0
-1625.65 954.84 2331.0
-1499.82 959.40 2342.1
-1494.82 971.94 2372.7
-1494.12 979.55 2391.3
-1459.11 972.74 2374.7
-1390.92 955.50 2332.6
-1418.06 978.40 2388.5
-1290.54 922.65 2252.4
-1221.76 910.56 2222.9
-1192.47 919.08 2243.7
-1180.75 914.50 2232.5
-1107.57 925.90 2260.3
-1126.54 946.78 2311.3
-1070.65 934.60 2281.6
-1055.36 926.37 2261.5
-1081.19 954.35 2329.8
-1035.63 951.33 2322.4
-1030.48 952.14 2324.4
-1047.47 985.12 2404.9
-1042.84 986.64 2408.6
-1007.86 959.28 2341.8
-1008.50 965.71 2357.5
-985.52 955.29 2332.1
-973.02 949.00 2316.7
-1007.35 1007.35 2459.2
-998.24 1004.60 2452.5
-936.23 948.23 2314.9
-934.00 958.26 2339.3
-904.42 952.66 2325.7
-887.63 941.25 2297.8
-859.84 977.37 2386.0
-821.27 940.29 2295.5
-781.11 956.71 2335.5
-756.81 972.16 2373.3
-738.78 956.79 2335.7
-743.79 971.24 2371.0
-722.02 983.44 2400.8
-729.53 1002.31 2446.9
-722.43 1010.12 2465.9
-1909.70 960.97 2360.9
-1884.77 957.63 2352.7
-1840.99 938.42 2305.5
-1843.64 942.84 2316.4
-1842.71 945.44 2322.7
-1848.83 951.69 2338.1
-1827.38 946.86 2326.2
-1810.52 941.23 2312.4
-1789.46 942.77 2316.2
-1776.79 958.61 2355.1
-1702.86 948.04 2329.1
-1669.62 932.85 2291.8
-1628.15 912.93 2242.9
-1629.15 916.76 2252.3
-1655.71 952.19 2339.3
-1630.55 958.79 2355.5
-1460.29 963.30 2366.6
-1406.54 939.69 2308.6
-1295.67 920.45 2261.3
-1216.29 900.74 2212.9
-1232.07 916.75 2252.3
-1224.09 919.53 2259.1
-1199.36 914.07 2245.7
-1093.73 918.27 2256.0
-1111.70 938.37 2305.4
-1089.58 929.69 2284.1
-1088.05 938.60 2305.9
-1081.83 938.38 2305.4
-1035.29 945.00 2321.7
-1051.41 965.33 2371.6
-1029.96 956.82 2350.7
-994.19 945.98 2324.1
-996.30 953.78 2343.2
-984.47 948.24 2329.6
-1015.12 983.79 2417.0
-1018.33 993.03 2439.6
-960.10 942.10 2314.5
-1004.60 998.24 2452.5
-940.48 946.51 2325.4
-911.82 923.59 2269.0
-874.76 934.27 2295.3
-884.35 950.98 2336.3
-888.81 962.37 2364.3
-876.88 962.73 2365.2
-831.05 931.97 2289.6
-794.86 931.30 2288.0
-804.09 949.19 2331.9
-794.43 959.43 2357.1
-759.71 969.71 2382.4
-748.12 962.74 2365.2
-761.72 988.34 2428.1
-743.28 997.39 2450.4
-741.41 1003.46 2465.3
-718.33 998.03 2451.9
-712.66 999.00 2454.3
-712.39 1007.61 2475.5
-1897.79 958.11 2368.9
-1858.72 941.43 2327.7
-1823.93 942.16 2329.5
-1841.72 957.70 2367.9
-1807.48 952.59 2355.3
-1652.93 911.15 2252.9
-1642.66 942.11 2329.4
-1538.90 926.91 2291.8
-1520.75 926.71 2291.3
-1454.06 922.09 2279.9
-1503.97 957.63 2367.8
-1418.08 925.61 2288.6
-1305.86 917.63 2268.9
-1292.36 912.25 2255.6
-1279.95 911.75 2254.3
-1295.32 926.93 2291.9
-1290.66 927.84 2294.1
-1227.07 907.22 2243.1
-1204.22 911.93 2254.8
-1179.11 906.12 2240.4
-1088.88 933.32 2307.7
-1091.83 941.02 2326.7
-1064.39 938.10 2319.5
-1029.76 923.23 2282.7
-1059.65 955.53 2362.6
-1049.08 951.49 2352.6
-1024.47 934.61 2310.8
-1030.75 951.47 2352.5
-1026.26 952.96 2356.2
-995.35 935.39 2312.8
-1048.42 991.23 2450.8
-1013.33 969.82 2397.9
-1031.88 993.67 2456.9
-975.96 957.55 2367.6
-974.50 962.17 2379.0
-947.90 947.90 2343.7
-947.80 953.92 2358.6
-819.42 933.06 2307.0
-816.50 936.58 2315.7
-795.92 933.56 2308.2
-824.05 973.87 2407.9
-766.01 971.52 2402.1
-760.28 972.16 2403.7
-733.03 945.06 2336.7
-714.31 944.35 2334.9
-747.96 997.28 2465.8
-703.18 962.25 2379.2
-654.02 981.03 2425.6
-629.11 952.83 2355.9
-618.53 955.35 2362.1
-604.63 972.39 2404.3
-1915.21 948.43 2360.1
-1909.17 951.52 2367.8
-1815.60 931.85 2318.9
-1795.82 924.76 2301.2
-1833.45 947.28 2357.3
-1802.73 940.82 2341.2
-1775.50 929.74 2313.6
-1671.52 909.07 2262.2
-1695.59 928.68 2311.0
-1650.00 926.63 2305.9
-1596.53 916.53 2280.8
-1534.46 925.45 2303.0
-1483.66 912.57 2270.9
-1453.00 915.51 2278.2
-1448.39 923.87 2299.0
-1409.60 921.89 2294.1
-1390.55 925.04 2302.0
-1290.07 896.69 2231.4
-1258.62 894.89 2226.9
-1252.23 894.45 2225.8
-1268.90 910.55 2265.9
-1279.43 922.38 2295.3
-1217.99 894.73 2226.5
-1216.42 902.13 2244.9
-1097.70 924.69 2301.1
-1112.45 942.24 2344.7
-1079.23 929.33 2312.6
-1012.93 923.56 2298.3
-1010.08 926.41 2305.3
-1034.20 983.44 2447.3
-1023.25 979.03 2436.3
-964.57 952.28 2369.7
-947.24 941.17 2342.1
-934.33 946.54 2355.4
-883.26 906.65 2256.2
-901.16 931.20 2317.3
-836.51 939.55 2338.1
-852.95 965.02 2401.4
-819.65 934.16 2324.7
-803.08 922.06 2294.5
-793.85 932.17 2319.7
-771.18 971.82 2418.3
-756.96 961.72 2393.2
-727.64 980.73 2440.5
-696.32 981.18 2441.7
-696.49 990.42 2464.6
-679.19 974.76 2425.7
-677.03 980.75 2440.6
-664.92 972.28 2419.5
-631.27 959.28 2387.1
-1885.70 933.75 2338.7
-1838.47 928.27 2325.0
-1851.67 938.02 2349.4
-1802.74 922.33 2310.1
-1761.07 931.98 2334.3
-1719.80 913.27 2287.4
-1724.37 918.87 2301.4
-1721.96 937.04 2346.9
-1639.27 908.08 2274.4
-1637.41 910.33 2280.0
-1657.66 924.93 2316.6
-1683.30 942.65 2361.0
-1478.33 914.31 2290.0
-1450.36 919.16 2302.2
-1435.42 917.24 2297.4
-1270.19 897.29 2247.4
-1240.73 884.59 2215.6
-1235.74 885.13 2216.9
-1248.15 898.20 2249.7
-1071.65 906.78 2271.2
-1033.77 953.30 2387.7
-903.90 915.79 2293.7
-903.24 927.32 2322.6
-888.75 950.46 2380.6
-883.23 951.17 2382.3
-874.14 948.02 2374.4
-840.80 945.13 2367.2
-835.25 945.80 2368.9
-718.90 962.70 2411.2
-713.62 964.01 2414.5
-678.25 967.14 2422.3
-1822.07 911.04 2296.7
-1846.84 929.49 2343.3
-1820.37 928.39 2340.5
-1800.25 930.54 2345.9
-1784.63 925.59 2333.4
-1713.81 897.99 2263.8
-1693.90 893.68 2253.0
-1760.84 932.21 2350.1
-1649.20 891.62 2247.8
-1626.20 918.11 2314.6
-1474.04 898.52 2265.2
-1463.87 899.48 2267.6
-1295.07 896.59 2260.3
-935.65 911.81 2298.7
-946.54 934.33 2355.4
-950.22 944.05 2380.0
-915.96 921.99 2324.3
-883.21 900.88 2271.1
-909.09 933.49 2353.3
-911.74 942.54 2376.2
-877.65 932.50 2350.8
-867.32 927.97 2339.4
-867.45 954.82 2407.1
-819.86 908.98 2291.5
-823.47 926.40 2335.5
-829.44 940.03 2369.8
-823.63 954.67 2406.7
-759.03 936.55 2361.0
-741.46 977.96 2465.4
-724.31 963.64 2429.3
-710.77 953.93 2404.9
-716.26 969.81 2444.9
-686.37 972.36 2451.3
-669.43 957.22 2413.2
-1891.97 918.78 2331.5
-1910.36 930.69 2361.7
-1907.64 932.35 2365.9
-1871.38 917.58 2328.4
-1861.12 924.48 2346.0
-1787.26 890.70 2260.2
-1818.33 909.17 2307.1
-1800.52 906.22 2299.6
-1770.18 893.91 2268.4
-1817.32 920.78 2336.6
-1789.69 919.03 2332.1
-1741.61 897.37 2277.2
-1744.05 901.69 2288.1
-1733.29 927.68 2354.1
-1675.57 899.95 2283.7
-1738.45 937.04 2377.8
-1619.89 905.23 2297.1
-1610.79 903.47 2292.6
-1586.45 903.15 2291.8
-1504.03 900.05 2284.0
-1498.29 914.62 2320.9
-1469.97 904.59 2295.5
-984.35 906.80 2301.1
-960.12 895.33 2272.0
-983.77 923.04 2342.3
-928.76 893.49 2267.3
-924.51 906.62 2300.6
-947.26 941.07 2388.1
-915.64 915.64 2323.5
-900.67 918.81 2331.6
-900.02 924.34 2345.6
-897.29 927.81 2354.4
-895.19 931.97 2365.0
-887.74 930.60 2361.5
-868.50 916.75 2326.3
-877.79 933.03 2367.7
-774.36 934.15 2370.5
-770.18 936.53 2376.5
-742.71 948.67 2407.3
-744.60 959.15 2433.9
-722.94 947.29 2403.8
-709.13 937.29 2378.5
-703.71 946.58 2402.0
-632.86 943.09 2393.2
-615.64 926.51 2351.1
-1878.35 909.07 2322.1
-1902.12 923.54 2359.1
-1891.52 927.33 2368.8
-1833.37 901.75 2303.4
-1812.87 894.59 2285.1
-1783.60 888.86 2270.5
-1783.55 894.74 2285.5
-1757.37 884.54 2259.5
-1751.77 884.67 2259.8
-1738.35 902.03 2304.1
-1718.86 894.99 2286.2
-1684.63 892.56 2279.9
-1675.52 890.86 2275.6
-1717.76 916.54 2341.2
-1711.36 916.37 2340.8
-1692.05 909.25 2322.6
-1706.40 920.24 2350.7
-1563.78 887.71 2267.6
-1564.12 904.91 2311.5
-1536.43 892.31 2279.3
-1503.95 894.08 2283.8
-1470.25 884.49 2259.3
-1503.16 907.91 2319.2
-1470.69 895.46 2287.4
-973.69 896.50 2290.0
-937.92 885.16 2261.1
-972.24 929.17 2373.5
-935.04 905.07 2311.9
-925.23 901.35 2302.4
-950.42 938.00 2396.0
-888.77 888.77 2270.3
-879.49 885.35 2261.5
-889.53 901.47 2302.7
-874.48 892.20 2279.0
-866.30 895.97 2288.7
-868.29 904.22 2309.7
-880.37 942.80 2408.3
-817.18 949.19 2424.6
-805.51 942.88 2408.5
-776.29 937.76 2395.4
-743.44 959.48 2450.9
-718.40 935.16 2388.8
-687.86 944.25 2412.0
-629.32 931.64 2379.8
-625.88 945.08 2414.1
-589.93 937.68 2395.2
-1853.78 902.81 2321.5
-1785.14 877.94 2257.6
-1858.30 916.93 2357.8
-1820.60 910.30 2340.8
-1758.93 903.56 2323.4
-1751.45 902.81 2321.5
-1751.38 909.02 2337.5
-1739.42 925.22 2379.1
-1678.08 902.20 2319.9
-1670.04 901.10 2317.1
-1616.07 894.50 2300.1
-1584.08 889.93 2288.4
-1546.44 892.18 2294.2
-1528.89 888.89 2285.7
-1514.54 887.42 2281.9
-1510.25 888.38 2284.4
-1527.92 902.32 2320.2
-1472.75 880.13 2263.2
-1470.84 886.05 2278.4
-1480.89 895.70 2303.2
-1448.30 879.54 2261.7
-974.77 919.60 2364.7
-954.09 905.78 2329.1
-907.41 895.47 2302.6
-898.03 892.08 2293.9
-916.29 916.29 2356.2
-913.93 920.07 2365.9
-881.89 893.81 2298.4
-859.05 888.67 2285.1
-874.80 911.25 2343.2
-855.11 936.25 2407.5
-852.29 940.02 2417.2
-813.77 924.73 2377.9
-829.89 950.26 2443.5
-814.54 939.85 2416.8
-791.27 920.08 2365.9
-793.27 936.93 2409.3
-783.19 932.36 2397.5
-733.16 939.95 2417.0
-690.60 959.17 2466.4
-641.14 907.27 2333.0
-621.41 922.89 2373.1
-612.08 918.11 2360.9
-604.41 925.11 2378.9
-590.58 913.26 2348.4
-1887.67 901.48 2333.7
-1820.31 901.09 2332.6
-1751.30 878.60 2274.4
-1805.03 908.62 2352.1
-1792.86 905.55 2344.2
-1762.75 893.37 2312.7
-1748.94 889.39 2302.4
-1776.68 906.59 2346.9
-1750.74 896.43 2320.6
-1772.33 916.94 2373.7
-1744.40 921.69 2386.0
-1674.97 888.15 2299.1
-1639.24 878.59 2274.4
-1652.98 889.15 2301.7
-1633.87 882.05 2283.4
-1617.58 876.44 2268.8
-1575.57 885.89 2293.3
-1536.02 894.01 2314.3
-1503.34 878.42 2274.0
-1506.91 883.97 2288.3
-1490.29 884.67 2290.1
-1487.78 890.28 2304.6
-1486.98 893.39 2312.7
-1452.57 879.81 2277.6
-1454.32 884.46 2289.6
-964.13 886.76 2295.6
-956.79 885.47 2292.2
-934.47 881.24 2281.3
-969.06 919.68 2380.8
-933.84 909.43 2354.2
-932.26 913.86 2365.7
-921.43 915.29 2369.4
-866.74 872.60 2258.9
-868.24 880.05 2278.2
-857.07 880.71 2279.9
-888.63 919.49 2380.3
-882.80 919.84 2381.2
-863.96 906.55 2346.8
-851.71 933.12 2415.6
-765.88 943.11 2441.4
-750.57 931.96 2412.5
-741.20 928.06 2402.4
-725.24 931.56 2411.5
-709.12 935.04 2420.5
-711.38 946.40 2449.9
-664.38 925.16 2395.0
-650.61 914.53 2367.4
-631.83 914.01 2366.1
-617.50 929.37 2405.8
-607.05 932.48 2413.9
-584.15 906.66 2347.0
-545.20 912.75 2362.8
-1902.30 905.27 2359.3
-1779.54 874.99 2280.4
-1773.91 883.97 2303.8
-1735.02 867.51 2260.9
-1754.38 880.16 2293.9
-1752.76 882.34 2299.5
-1716.06 872.77 2274.6
-1774.16 905.43 2359.7
-1692.67 882.10 2298.9
-1747.95 914.12 2382.4
-1732.47 909.24 2369.6
-1696.32 899.84 2345.1
-1719.50 915.42 2385.7
-1700.20 908.41 2367.5
-1657.63 888.87 2316.6
-1633.52 879.13 2291.2
-1674.72 904.59 2357.5
-1626.44 891.53 2323.5
-1563.05 872.95 2275.1
-1577.71 884.47 2305.1
-1545.64 886.65 2310.8
-1532.64 889.54 2318.3
-1489.53 867.91 2261.9
-1511.90 884.43 2305.0
-1512.23 888.14 2314.6
-1503.70 886.64 2310.8
-1484.33 885.81 2308.6
-958.07 903.15 2353.8
-910.85 869.71 2266.6
-950.40 913.37 2380.4
-938.03 907.37 2364.8
-901.64 914.00 2382.0
-889.37 920.47 2398.9
-860.81 923.19 2406.0
-853.62 922.16 2403.3
-830.25 916.99 2389.8
-790.03 935.39 2437.8
-749.35 916.56 2388.7
-746.22 928.07 2418.7
-740.15 928.33 2419.4
-687.26 933.16 2432.0
-659.36 903.56 2354.8
-654.39 905.13 2358.9
-586.67 904.45 2357.2
-1910.52 897.27 2354.4
-1811.05 875.74 2297.9
-1754.92 859.91 2256.3
-1769.48 872.87 2290.3
-1741.12 873.53 2292.1
-1714.06 862.90 2264.2
-1764.88 891.54 2339.3
-1760.82 892.55 2342.0
-1712.01 870.81 2284.9
-1706.89 874.26 2294.0
-1727.36 887.84 2329.6
-1689.18 871.26 2286.1
-1704.88 885.57 2323.7
-1715.79 897.58 2355.2
-1665.41 877.48 2302.4
-1707.67 902.98 2369.3
-1710.13 907.54 2381.3
-1611.00 877.10 2301.4
-1568.72 866.92 2274.7
-1549.96 859.79 2256.0
-1578.68 879.04 2306.5
-1518.51 865.20 2270.2
-1515.33 866.74 2274.3
-1507.76 872.60 2289.6
-1505.01 874.45 2294.5
-1474.63 860.20 2257.1
-952.70 875.29 2296.7
-919.27 871.83 2287.6
-907.67 913.89 2398.0
-907.44 919.96 2413.9
-859.94 884.00 2319.5
-844.11 892.69 2342.3
-863.70 920.03 2414.1
-845.20 920.33 2414.9
-748.54 909.38 2386.1
-732.41 904.75 2374.0
-720.90 929.59 2439.1
-670.02 895.39 2349.4
-653.91 898.37 2357.2
-651.91 904.07 2372.2
-645.89 904.25 2372.7
-598.22 888.27 2330.7
-1792.38 872.29 2304.5
-1778.85 874.45 2310.2
-1719.32 871.60 2302.7
-1689.03 859.23 2270.0
-1689.03 865.26 2285.9
-1711.10 879.65 2323.9
-1724.55 889.69 2350.5
-1730.59 902.38 2384.0
-1616.67 880.72 2326.8
-1565.34 859.17 2269.8
-1553.88 862.61 2278.9
-1503.04 853.87 2255.8
-1517.81 865.63 2286.9
-1515.63 867.77 2292.5
-1474.09 847.31 2238.5
-1467.73 850.35 2246.5
-883.90 860.33 2272.9
-915.04 896.62 2368.8
-886.41 898.72 2374.3
-864.21 882.34 2331.0
-854.35 897.37 2370.7
-843.29 918.80 2427.4
-821.02 922.07 2436.0
-775.40 912.97 2411.9
-765.94 909.17 2401.9
-757.12 921.16 2433.6
-669.78 888.99 2348.6
-644.79 905.18 2391.4
-604.19 882.11 2330.4
-590.35 897.83 2372.0
-549.45 911.58 2408.3
-1763.04 854.99 2274.4
-1767.57 862.96 2295.5
-1710.94 852.53 2267.8
-1731.20 871.61 2318.6
-1722.43 876.32 2331.1
-1690.95 885.16 2354.6
-1639.44 861.30 2291.1
-1638.96 867.33 2307.2
-1658.18 883.96 2351.4
-1625.91 869.95 2314.2
-1621.16 870.62 2315.9
-1594.00 859.22 2285.6
-1570.23 859.18 2285.5
-1549.85 851.24 2264.4
-1524.70 840.61 2236.1
-1538.28 851.34 2264.6
-1549.10 863.92 2298.1
-1521.95 852.06 2266.6
-1534.14 865.56 2302.5
-1508.20 854.25 2272.4
-1501.14 860.33 2288.6
-1491.08 857.96 2282.3
-1456.89 848.39 2256.8
-894.95 853.74 2271.0
-880.89 918.92 2444.4
-860.59 904.24 2405.4
-825.00 873.18 2322.7
-837.13 892.53 2374.2
-856.17 919.59 2446.2
-815.34 909.42 2419.1
-754.82 889.82 2367.0
-726.54 900.42 2395.2
-714.29 892.86 2375.1
-615.08 900.87 2396.4
-607.12 898.29 2389.5
-604.90 913.65 2430.4
-584.03 900.90 2396.5
-570.20 889.02 2364.9
-543.62 885.68 2356.0
-1772.60 845.21 2264.0
-1794.15 858.33 2299.1
-1776.00 875.83 2346.0
-1771.94 876.84 2348.7
-1748.61 880.42 2358.3
-1755.30 886.89 2375.6
-1574.09 836.42 2240.4
-1605.68 856.36 2293.8
-1605.34 859.36 2301.9
-1591.88 855.34 2291.1
-1605.82 872.60 2337.3
-1567.61 858.31 2299.1
-1548.34 851.00 2279.5
-1514.36 841.96 2255.3
-1549.46 864.81 2316.5
-1529.25 856.86 2295.2
-1488.01 840.29 2250.8
-1518.44 860.85 2305.8
-1509.39 859.10 2301.2
-1467.27 845.15 2263.8
-1475.40 853.24 2285.5
-906.87 888.36 2379.5
-889.08 889.08 2381.5
-867.16 873.23 2339.0
-873.48 885.79 2372.6
-876.73 895.38 2398.3
-878.24 903.33 2419.6
-866.85 898.04 2405.5
-845.36 882.11 2362.8
-705.63 875.96 2346.3
-715.69 904.03 2421.5
-662.34 875.02 2343.8
-662.49 883.32 2366.0
-608.79 885.52 2371.9
-594.49 891.74 2388.6
-585.02 886.76 2375.3
-570.26 873.59 2340.0
-574.41 899.08 2408.2
-544.06 880.28 2357.9
-1772.87 850.74 2294.7
-1788.28 861.02 2322.4
-1764.45 882.23 2379.6
-1648.55 844.96 2279.1
-1645.62 846.49 2283.2
-1680.64 867.62 2340.2
-1635.23 847.24 2285.3
-1645.03 855.42 2307.3
-1661.96 867.37 2339.6
-1642.69 866.81 2338.0
-1555.13 836.03 2255.0
-1566.71 845.43 2280.4
-1597.63 865.38 2334.2
-1549.70 842.61 2272.8
-1529.65 851.13 2295.8
-1489.97 832.29 2244.9
-1493.67 837.63 2259.3
-1482.60 834.69 2251.4
-903.74 885.17 2387.6
-860.60 860.60 2321.3
-871.21 877.35 2366.5
-883.88 896.42 2417.9
-785.75 871.03 2349.4
-734.25 867.75 2340.6
-714.38 896.11 2417.1
-638.00 877.25 2366.2
-634.49 898.34 2423.1
-589.06 877.45 2366.8
-571.99 860.99 2322.3
-575.40 875.34 2361.1
-579.94 891.74 2405.3
-1783.71 873.40 2372.4
-1661.50 851.74 2313.6
-1690.26 869.63 2362.2
-1663.23 858.83 2332.8
-1647.40 853.76 2319.1
-1589.56 826.80 2245.8
-1609.24 840.12 2282.0
-1617.23 847.41 2301.8
-1565.85 823.52 2236.9
-1608.88 849.30 2307.0
-1614.78 865.28 2350.4
-1549.55 836.64 2272.6
-1558.27 844.56 2294.1
-1527.35 847.20 2301.3
-1503.54 837.26 2274.3
-869.58 869.58 2362.0
-884.22 890.49 2418.8
-842.51 866.93 2354.8
-828.21 877.66 2384.0
-768.74 859.53 2334.8
-736.49 886.28 2407.4
-716.79 877.45 2383.4
-702.38 874.89 2376.5
-634.17 882.87 2398.1
-620.41 898.96 2441.8
-610.74 894.07 2428.6
-587.48 868.99 2360.4
-585.95 875.85 2379.1
-520.60 880.06 2390.5
-1822.53 853.74 2335.5
-1719.53 836.05 2287.1
-1727.96 857.90 2346.8
-1719.87 856.89 2344.1
-1681.21 840.60 2299.5
-1678.55 848.30 2320.6
-1675.32 858.98 2349.8
-1666.67 857.67 2346.2
-1615.95 834.61 2283.1
-1576.36 845.12 2311.9
-1572.64 846.34 2315.2
-842.50 860.82 2354.8
-821.31 857.81 2346.6
-790.09 856.94 2344.2
-772.28 857.41 2345.5
-737.06 880.73 2409.3
-731.29 881.29 2410.8
-714.90 868.97 2377.1
-693.30 857.50 2345.7
-691.98 871.15 2383.1
-613.52 891.82 2439.6
-582.03 854.86 2338.5
-540.15 865.47 2367.5
-517.61 868.84 2376.8
-1819.49 840.69 2316.2
-1795.19 843.38 2323.6
-1789.82 855.20 2356.2
-1759.68 843.68 2324.4
-1727.91 848.80 2338.5
-1718.69 847.24 2334.2
-1725.38 853.55 2351.6
-1705.38 846.64 2332.6
-1691.87 848.97 2339.0
-1617.83 823.62 2269.2
-1607.10 821.15 2262.3
-1582.94 814.75 2244.7
-1657.27 859.33 2367.5
-858.44 870.88 2399.4
-854.11 872.81 2404.7
-818.80 849.13 2339.4
-806.18 842.28 2320.6
-725.19 860.40 2370.5
-730.75 874.40 2409.1
-723.07 872.67 2404.3
-710.54 865.01 2383.2
-580.35 864.35 2381.4
-557.67 867.48 2390.0
-553.87 871.26 2400.4
-532.40 847.01 2333.6
-521.03 868.39 2392.5
-1868.21 832.31 2309.6
-1858.19 833.19 2312.0
-1859.54 839.21 2328.7
-1821.65 835.68 2318.9
-1828.38 849.98 2358.6
-1808.51 843.57 2340.8
-1799.25 842.07 2336.7
-1780.64 836.18 2320.3
-1783.85 849.16 2356.4
-1746.28 839.91 2330.7
-1735.91 837.82 2324.9
-1708.27 836.09 2320.1
-1737.71 853.51 2368.4
-1687.21 840.58 2332.5
-1670.56 844.39 2343.1
-1674.14 849.29 2356.7
-1659.38 844.89 2344.5
-1647.98 842.16 2336.9
-1666.92 854.99 2372.5
-1608.75 837.52 2324.0
-789.81 838.04 2325.5
-776.44 836.63 2321.6
-776.12 849.45 2357.2
-767.15 859.95 2386.3
-754.34 866.56 2404.6
-724.17 845.88 2347.3
-726.30 855.56 2374.1
-720.34 855.78 2374.7
-710.55 851.44 2362.7
-692.49 844.36 2343.0
-704.92 867.11 2406.2
-602.29 863.07 2395.0
-610.99 884.67 2454.9
-586.67 858.39 2382.0
-574.77 849.93 2358.5
-547.52 864.83 2399.8
-1871.27 822.40 2298.6
-1879.49 831.31 2323.5
-1861.16 825.85 2308.3
-1855.72 831.46 2323.9
-1797.87 835.38 2334.9
-1807.37 842.63 2355.2
-1741.48 831.57 2324.3
-1740.32 833.90 2330.8
-1697.09 830.49 2321.3
-1681.40 831.66 2324.5
-1698.35 846.11 2364.9
-1706.98 853.49 2385.5
-1678.76 842.43 2354.6
-1652.30 832.18 2326.0
-1564.37 808.55 2259.9
-1573.86 816.51 2282.2
-1566.98 816.01 2280.8
-799.44 848.63 2372.0
-746.48 865.67 2419.6
-721.90 866.28 2421.3
-617.99 852.83 2383.7
-598.40 842.64 2355.2
-591.93 842.12 2353.8
-588.03 854.20 2387.5
-552.83 857.20 2395.9
-535.98 840.51 2349.3
-534.31 847.52 2368.8
-521.06 856.02 2392.6
-1889.56 829.71 2336.0
-1829.26 824.37 2321.0
-1762.05 832.42 2343.6
-1735.52 825.58 2324.4
-1696.90 824.38 2321.0
-1705.27 831.39 2340.7
-1720.90 842.01 2370.6
-1659.25 814.76 2293.9
-1618.60 800.53 2253.8
-1663.22 825.58 2324.4
-1676.36 835.13 2351.3
-1639.89 819.94 2308.5
-1650.73 828.39 2332.3
-1642.11 827.09 2328.6
-789.63 838.60 2361.0
-749.74 855.95 2409.9
-724.72 834.34 2349.0
-734.33 852.57 2400.4
-626.11 875.27 2464.3
-602.30 850.68 2395.0
-584.03 860.34 2422.2
-544.13 837.60 2358.2
-533.66 830.82 2339.1
-537.06 855.56 2408.8
-404.13 814.21 2292.4
-397.54 812.88 2288.6
-393.19 816.17 2297.9
-1888.01 812.56 2304.5
-1895.86 818.53 2321.5
-1828.72 820.81 2327.9
-1745.60 815.81 2313.8
-1687.40 794.07 2252.1
-1639.54 807.89 2291.3
-1605.94 802.97 2277.3
-765.11 819.33 2323.7
-758.15 831.52 2358.3
-750.82 830.17 2354.5
-608.08 852.56 2418.0
-585.00 828.75 2350.4
-590.53 845.39 2397.6
-574.77 831.58 2358.5
-562.70 831.82 2359.1
-552.21 843.83 2393.2
-1901.82 812.49 2321.4
-1847.61 817.79 2336.6
-1725.47 826.02 2360.1
-1671.65 811.77 2319.4
-1706.25 831.56 2375.9
-1670.12 816.91 2334.0
-1665.95 817.83 2336.7
-1637.38 821.73 2347.8
-1567.32 789.51 2255.7
-774.58 823.37 2352.5
-758.40 812.57 2321.6
-756.50 851.06 2431.6
-696.45 817.58 2335.9
-581.16 843.62 2410.3
-561.82 824.40 2355.4
-559.48 829.99 2371.4
-437.87 809.75 2313.6
-424.28 818.25 2337.9
-389.99 797.70 2279.1
-388.15 806.16 2303.3
-364.20 793.02 2265.8
-1899.18 802.81 2310.9
-1863.53 813.40 2341.3
-1857.84 813.57 2341.8
-1841.98 809.26 2329.4
-1818.48 814.97 2345.9
-1729.70 804.79 2316.6
-1745.81 815.12 2346.3
-1670.72 793.89 2285.2
-1647.43 785.61 2261.3
-1684.17 814.73 2345.2
-1685.04 818.10 2354.9
-1665.20 811.41 2335.6
-1572.84 783.49 2255.3
-752.96 776.13 2234.1
-734.35 841.05 2420.9
-702.79 833.40 2398.9
-608.64 832.23 2395.5
-574.72 828.09 2383.6
-469.39 816.85 2351.3
-469.53 827.86 2383.0
-445.42 817.63 2353.5
-425.44 791.80 2279.2
-427.59 807.00 2322.9
-393.96 799.87 2302.4
-370.54 788.12 2268.6
-1883.36 797.73 2313.5
-1813.24 811.99 2354.9
-1805.72 811.36 2353.0
-1767.00 813.19 2358.3
-1711.65 793.20 2300.4
-1703.47 803.41 2330.0
-1626.12 780.77 2264.3
-1674.20 806.77 2339.7
-1601.59 780.26 2262.8
-1667.43 815.32 2364.5
-794.49 812.83 2357.3
-583.73 825.91 2395.2
-580.27 829.85 2406.6
-448.76 817.61 2371.2
-442.28 816.99 2369.4
-388.52 782.93 2270.6
-383.88 785.49 2278.0
-1877.06 786.58 2298.4
-1881.26 790.85 2310.9
-1876.75 794.01 2320.2
-1869.31 793.40 2318.4
-1883.05 801.82 2343.0
-1777.45 787.33 2300.6
-1737.12 787.97 2302.5
-1727.95 786.51 2298.3
-1702.58 777.65 2272.4
-1688.85 774.06 2261.8
-1667.37 783.25 2288.7
-1650.32 778.01 2273.4
-1654.22 782.64 2286.9
-1649.05 783.00 2288.0
-1671.40 796.48 2327.4
-737.80 804.88 2351.9
-723.57 816.34 2385.4
-711.83 810.02 2366.9
-710.49 815.52 2383.0
-579.37 822.34 2402.9
-558.15 809.62 2365.8
-543.32 814.98 2381.4
-457.25 794.17 2320.6
-451.40 816.24 2385.1
-402.27 780.87 2281.8
-389.78 779.57 2278.0
-389.06 790.10 2308.7
-1801.67 758.90 2234.5
-1796.79 759.29 2235.6
-1847.93 785.97 2314.2
-1837.26 786.54 2315.9
-1738.68 759.22 2235.4
-1710.04 761.96 2243.5
-1759.93 786.86 2316.8
-1752.63 791.71 2331.1
-1725.47 782.13 2302.9
-1708.21 777.00 2287.8
-1678.33 766.07 2255.6
-1734.12 797.09 2346.9
-1671.92 787.85 2319.7
-1610.03 772.58 2274.8
-724.27 753.01 2217.2
-725.94 792.49 2333.4
-600.20 802.30 2362.3
-575.84 802.50 2362.9
-574.47 809.20 2382.6
-460.44 783.35 2306.5
-457.39 798.90 2352.3
-405.83 770.48 2268.6
-403.56 777.46 2289.1
-1886.93 776.27 2303.2
-1820.78 761.10 2258.2
-1803.14 756.16 2243.5
-1786.15 751.46 2229.6
-1762.57 743.94 2207.3
-1794.32 762.29 2261.8
-1754.59 747.86 2218.9
-1753.76 752.44 2232.5
-1767.91 761.02 2258.0
-1751.05 756.27 2243.9
-1760.92 763.07 2264.0
-1759.48 764.99 2269.8
-1775.33 785.01 2329.2
-1775.45 787.74 2337.3
-1745.22 776.98 2305.3
-1743.16 784.12 2326.5
-1699.87 767.30 2276.6
-1681.70 767.09 2276.0
-1669.76 767.03 2275.8
-1660.83 779.45 2312.7
-1619.69 762.90 2263.5
-1597.10 757.75 2248.3
-1629.85 776.12 2302.8
-740.97 752.55 2232.8
-746.31 788.78 2340.4
-751.37 800.64 2375.5
-720.35 773.93 2296.3
-699.32 757.60 2247.8
-713.04 778.95 2311.2
-729.79 804.00 2385.5
-716.16 802.60 2381.3
-592.09 810.22 2404.0
-456.40 760.67 2256.9
-455.19 778.62 2310.2
-457.92 793.72 2355.0
-433.55 793.82 2355.3
-416.60 773.69 2295.6
-1829.01 749.02 2239.6
-1827.82 750.92 2245.3
-1864.65 775.94 2320.1
-1788.25 746.55 2232.2
-1749.62 772.95 2311.1
-1690.47 759.83 2271.9
-1602.02 748.77 2238.9
-1590.76 746.21 2231.2
-1612.70 764.85 2286.9
-736.50 760.07 2272.6
-723.82 753.01 2251.5
-742.79 779.03 2329.3
-723.15 770.96 2305.2
-705.52 771.28 2306.2
-722.99 804.01 2404.0
-583.20 791.92 2367.9
-462.21 764.42 2285.6
-460.21 771.00 2305.3
-461.78 783.81 2343.6
-452.53 788.87 2358.7
-436.54 771.41 2306.6
-1887.41 779.32 2348.4
-1770.37 733.36 2209.9
-1784.08 746.28 2248.8
-1785.75 749.43 2258.3
-1818.93 781.29 2354.3
-1781.33 767.71 2313.4
-1747.63 758.29 2285.0
-1785.36 777.30 2342.3
-1712.59 750.72 2262.2
-1743.06 766.71 2310.4
-1708.89 754.27 2272.9
-1684.87 748.83 2256.5
-1713.85 764.36 2303.3
-1715.61 767.83 2313.8
-1713.29 772.19 2326.9
-1717.80 776.95 2341.3
-1680.64 762.84 2298.7
-1645.24 757.52 2282.7
-1649.09 762.03 2296.3
-1650.46 768.21 2314.9
-1587.63 741.67 2234.9
-757.12 745.47 2246.4
-742.32 760.14 2290.6
-734.55 758.25 2284.9
-726.15 781.07 2353.7
-718.57 779.46 2348.8
-722.91 790.87 2383.2
-709.79 783.21 2360.1
-694.05 772.50 2327.9
-701.15 801.31 2414.7
-699.28 806.37 2429.9
-586.36 790.04 2380.7
-491.50 767.22 2311.9
-492.19 777.78 2343.7
-472.84 786.02 2368.6
-453.30 763.46 2300.6
-455.16 776.81 2340.8
-446.96 773.12 2329.7
-1846.72 746.92 2268.5
-1796.06 738.19 2242.0
-1759.08 730.08 2217.3
-1773.90 741.07 2250.7
-1810.53 766.46 2327.8
-1803.06 765.85 2326.0
-1801.87 773.10 2348.0
-1784.37 768.19 2333.1
-1703.54 740.92 2250.3
-1704.93 744.08 2259.8
-1713.25 750.29 2278.7
-1696.00 745.30 2263.6
-1721.02 758.92 2304.9
-1745.90 772.57 2346.4
-1675.61 762.73 2316.5
-1628.03 743.74 2258.8
-1640.38 752.09 2284.2
-1646.45 757.60 2300.9
-1619.93 748.11 2272.1
-1651.68 765.56 2325.1
-1603.30 748.60 2273.6
-725.78 737.39 2239.6
-718.72 736.11 2235.6
-718.63 742.00 2253.5
-718.74 748.20 2272.4
-746.46 783.47 2379.5
-723.85 772.51 2346.2
-700.94 754.41 2291.2
-688.82 747.69 2270.8
-708.10 775.24 2354.5
-654.43 755.57 2294.7
-656.43 771.91 2344.4
-644.38 764.82 2322.9
-616.58 767.71 2331.6
-496.62 742.01 2253.6
-498.92 754.32 2291.0
-489.01 748.25 2272.5
-490.40 768.90 2335.2
-473.27 770.59 2340.4
-455.86 771.93 2344.4
-450.52 773.19 2348.3
-1767.77 727.91 2228.3
-1807.15 749.01 2292.9
-1770.64 741.20 2269.0
-1745.82 735.70 2252.1
-1818.68 774.17 2369.9
-1776.44 758.75 2322.7
-1757.08 760.80 2329.0
-1707.89 744.61 2279.4
-1690.07 739.40 2263.5
-1670.97 746.60 2285.5
-1645.90 738.02 2259.2
-1685.10 758.30 2321.3
-1699.72 767.61 2349.8
-1667.88 755.94 2314.1
-1676.19 762.46 2334.0
-1619.66 742.10 2271.7
-1623.45 746.55 2285.4
-738.67 732.86 2243.4
-743.45 743.45 2275.9
-723.64 729.43 2232.9
-745.23 757.25 2318.1
-728.42 746.18 2284.2
-716.37 739.85 2264.9
-694.53 735.39 2251.2
-701.00 781.64 2392.8
-693.64 780.34 2388.8
-677.36 783.01 2397.0
-680.05 793.39 2428.7
-623.42 755.30 2312.1
-579.39 752.61 2303.9
-493.50 731.54 2239.4
-482.93 751.23 2299.7
-467.91 736.96 2256.0
-478.90 763.82 2338.2
-455.50 735.81 2252.5
-442.01 732.81 2243.3
-1791.15 722.24 2228.6
-1771.28 738.03 2277.4
-1766.86 738.66 2279.3
-1759.48 738.03 2277.4
-1733.47 737.02 2274.2
-1758.88 750.38 2315.4
-1713.39 741.09 2286.8
-1731.46 751.50 2318.9
-1672.40 741.31 2287.5
-1702.58 757.37 2337.0
-1675.75 748.10 2308.4
-1629.17 729.92 2252.3
-1630.29 733.04 2262.0
-718.56 724.35 2235.1
-721.09 732.81 2261.3
-731.85 749.85 2313.8
-612.05 765.06 2360.8
-594.18 750.23 2315.0
-578.76 753.59 2325.4
-470.00 734.37 2266.1
-458.29 734.44 2266.3
-459.34 745.68 2301.0
-461.87 759.65 2344.1
-435.80 726.34 2241.3
-425.91 739.43 2281.7
-1836.47 722.93 2248.7
-1812.00 715.57 2225.8
-1827.34 726.25 2259.1
-1890.23 758.54 2359.5
-1758.56 731.75 2276.2
-1734.03 723.97 2252.0
-1756.19 735.70 2288.5
-1775.27 746.21 2321.2
-1763.99 749.09 2330.1
-1758.34 751.84 2338.7
-1693.85 742.18 2308.6
-1694.39 745.05 2317.6
-1662.96 736.45 2290.8
-1635.68 726.97 2261.3
-1659.99 740.43 2303.2
-1645.65 739.35 2299.8
-723.44 723.44 2250.3
-720.14 725.99 2258.3
-721.98 733.81 2282.6
-727.31 764.29 2377.4
-688.33 729.51 2269.2
-649.01 731.61 2275.8
-587.48 735.84 2288.9
-588.23 744.29 2315.2
-587.44 750.95 2335.9
-454.45 731.84 2276.5
-1831.73 712.98 2235.8
-1807.45 712.55 2234.5
-1826.30 724.63 2272.4
-1807.41 719.45 2256.1
-1783.12 712.09 2233.0
-1804.77 732.63 2297.4
-1776.22 725.83 2276.1
-1742.64 714.48 2240.5
-1742.82 719.35 2255.8
-1775.70 735.39 2306.1
-1715.14 722.47 2265.6
-1693.18 715.67 2244.3
-1733.01 735.04 2305.0
-1722.78 748.77 2348.1
-1697.54 740.42 2321.9
-1688.92 739.28 2318.3
-1637.07 719.14 2255.2
-1651.12 733.17 2299.1
-725.70 719.85 2257.4
-720.77 732.68 2297.6
-681.14 754.77 2366.9
-654.45 731.79 2294.8
-644.48 727.26 2280.6
-638.45 727.12 2280.2
-643.66 739.91 2320.3
-522.17 721.65 2263.0
-470.26 714.09 2239.3
-459.44 706.38 2215.1
-469.04 730.27 2290.0
-444.77 701.37 2199.4
-444.27 728.61 2284.8
-1761.56 713.99 2257.3
-1750.04 711.68 2250.0
-1748.41 715.79 2263.0
-1773.60 728.55 2303.4
-1739.20 724.17 2289.5
-1694.33 707.91 2238.1
-1699.85 712.65 2253.1
-1722.53 732.23 2315.0
-1678.13 715.84 2263.2
-1700.15 732.93 2317.2
-732.35 720.54 2278.0
-712.09 717.98 2269.9
-685.40 733.50 2319.0
-675.79 729.62 2306.8
-673.71 733.86 2320.2
-663.35 729.09 2305.1
-646.77 717.33 2267.9
-656.38 734.66 2322.7
-641.55 731.49 2312.7
-642.79 739.81 2339.0
-570.16 732.20 2314.9
-558.35 724.67 2291.1
-476.88 718.26 2270.8
-472.96 721.26 2280.3
-442.95 701.82 2218.9
-442.38 710.14 2245.2
-435.85 708.97 2241.5
-1799.88 709.40 2261.4
-1789.01 726.41 2315.6
-1776.28 731.06 2330.4
-1744.16 720.28 2296.1
-1743.76 722.59 2303.4
-1652.39 699.09 2228.5
-1660.06 704.80 2246.7
-1674.64 718.55 2290.5
-722.89 716.96 2285.5
-726.63 726.63 2316.3
-704.77 728.87 2323.4
-710.60 747.67 2383.4
-687.23 729.43 2325.2
-684.34 732.78 2335.9
-680.05 734.69 2342.0
-670.43 730.83 2329.7
-635.40 698.94 2228.0
-635.79 732.67 2335.6
-633.10 736.59 2348.0
-613.31 720.49 2296.7
-603.22 729.89 2326.7
-563.95 725.94 2314.1
-508.35 715.24 2280.0
-498.78 710.03 2263.4
-500.48 720.93 2298.1
-463.01 700.30 2232.4
-442.15 694.80 2214.8
-443.07 705.41 2248.7
-436.71 704.55 2245.9
-1826.57 728.20 2340.6
-1744.51 704.85 2265.6
-1732.37 726.87 2336.4
-1707.57 718.98 2311.0
-699.96 717.91 2307.6
-688.92 712.68 2290.7
-701.77 732.28 2353.8
-699.38 736.19 2366.3
-643.22 708.13 2276.1
-616.61 704.69 2265.1
-629.55 726.40 2334.9
-591.76 717.28 2305.5
-512.56 698.94 2246.6
-517.04 721.45 2318.9
-495.63 699.72 2249.1
-484.55 692.21 2225.0
-469.16 703.75 2262.0
-448.19 689.53 2216.3
-450.89 702.68 2258.6
-1871.78 725.54 2351.7
-1804.48 701.74 2274.6
-1848.95 721.40 2338.3
-1790.59 705.56 2286.9
-1777.59 705.11 2285.5
-1813.49 726.62 2355.2
-1770.49 711.79 2307.1
-1720.80 708.57 2296.7
-1686.83 699.42 2267.0
-697.40 715.43 2318.9
-686.59 729.50 2364.5
-664.19 712.06 2308.0
-658.51 732.36 2373.8
-623.80 700.30 2269.9
-631.13 715.28 2318.4
-633.98 725.41 2351.3
-605.86 713.83 2313.7
-598.52 712.24 2308.6
-570.21 714.26 2315.1
-538.39 711.87 2307.4
-526.23 703.61 2280.6
-468.45 688.22 2230.7
-450.41 687.16 2227.3
-1866.14 703.53 2299.7
-1785.82 700.09 2288.4
-1774.62 705.07 2304.7
-1688.52 684.69 2238.1
-1628.09 676.46 2211.2
-1607.21 672.52 2198.3
-681.69 711.85 2326.9
-656.41 697.81 2281.0
-665.23 720.15 2354.0
-644.27 703.93 2301.0
-625.42 709.61 2319.6
-614.58 704.08 2301.5
-466.41 679.47 2221.0
-461.65 680.94 2225.8
-450.91 682.15 2229.8
-1773.49 678.10 2235.5
-1694.59 681.33 2246.1
-1682.83 681.28 2246.0
-1635.67 666.81 2198.3
-1644.03 672.56 2217.2
-1606.07 663.99 2189.0
-654.85 684.09 2255.2
-668.27 704.40 2322.2
-645.74 699.55 2306.2
-631.09 709.98 2340.6
-628.61 714.06 2354.0
-607.90 704.20 2321.5
-602.23 704.61 2322.9
-590.32 712.03 2347.4
-571.82 696.90 2297.5
-529.11 695.58 2293.1
-523.44 695.94 2294.3
-460.22 673.08 2218.9
-456.99 676.81 2231.2
-1837.66 676.72 2250.2
-1809.56 681.52 2266.2
-1807.83 696.70 2316.6
-1789.03 691.76 2300.2
-1815.59 704.38 2342.1
-1805.13 702.67 2336.5
-1769.31 698.09 2321.3
-1760.26 699.28 2325.2
-1762.15 702.44 2335.7
-1617.19 662.88 2204.1
-1606.65 663.24 2205.4
-693.23 699.25 2325.1
-682.20 694.17 2308.2
-675.03 692.95 2304.2
-649.40 672.59 2236.4
-656.53 692.34 2302.1
-654.10 696.11 2314.6
-626.75 673.18 2238.4
-628.52 681.39 2265.7
-615.41 693.09 2304.6
-595.05 697.23 2318.4
-537.24 700.23 2328.3
-499.53 666.04 2214.7
-495.51 668.36 2222.4
-478.33 668.51 2222.9
-1839.61 669.48 2245.5
-1843.04 706.50 2369.6
-1763.71 680.63 2282.8
-1725.30 674.86 2263.5
-1662.20 656.88 2203.2
-1682.31 671.76 2253.1
-1660.66 667.75 2239.6
-1618.54 657.71 2206.0
-695.88 683.99 2294.1
-661.96 673.68 2259.5
-653.27 682.97 2290.7
-650.88 686.71 2303.2
-632.09 673.06 2257.5
-644.87 693.08 2324.6
-615.33 687.02 2304.3
-605.29 682.44 2288.9
-608.48 692.82 2323.7
-574.11 660.23 2214.4
-594.49 690.57 2316.2
-541.18 691.51 2319.3
-1855.77 667.38 2258.0
-1849.19 671.36 2271.5
-1902.02 692.75 2343.9
-1869.35 685.23 2318.4
-1801.93 671.31 2271.3
-1814.51 678.21 2294.7
-1831.59 689.11 2331.6
-1710.49 665.51 2251.7
-1659.80 652.47 2207.6
-1663.76 663.18 2243.8
-675.11 681.09 2304.4
-668.76 680.71 2303.1
-649.91 667.48 2258.4
-663.46 687.59 2326.4
-648.43 678.17 2294.6
-617.47 651.77 2205.2
-629.35 670.53 2268.7
-602.06 693.28 2345.7
-594.90 692.03 2341.4
-592.45 696.28 2355.8
-524.29 664.10 2247.0
-520.90 667.22 2257.5
-514.25 666.19 2254.0
-475.95 653.72 2211.8
-478.24 664.87 2249.6
-1899.89 675.12 2304.4
-1860.29 663.13 2263.5
-1833.80 655.76 2238.4
-1841.37 662.66 2261.9
-1836.47 669.42 2285.0
-1786.43 653.29 2229.9
-1742.72 641.46 2189.5
-1790.01 661.02 2256.3
-1792.68 668.56 2282.1
-1741.35 653.73 2231.4
-1675.94 659.87 2252.4
-1628.59 643.46 2196.4
-658.19 664.07 2266.7
-672.70 684.82 2337.6
-663.37 681.46 2326.1
-628.44 651.50 2223.8
-618.65 647.29 2209.5
-647.78 684.10 2335.1
-616.49 669.84 2286.4
-618.40 685.09 2338.5
-571.49 645.79 2204.3
-586.04 682.70 2330.3
-588.22 692.39 2363.4
-586.33 697.43 2380.6
-570.01 685.22 2338.9
-538.55 683.77 2334.0
-498.85 647.94 2211.7
-1883.32 663.31 2284.4
-1902.60 672.21 2315.0
-1887.62 677.61 2333.6
-1843.39 666.00 2293.6
-1800.63 652.65 2247.7
-1782.36 648.13 2232.1
-1764.74 643.81 2217.2
-1811.88 665.35 2291.4
-1751.73 651.81 2244.7
-1789.28 668.00 2300.5
-1832.03 686.24 2363.3
-1825.10 685.94 2362.3
-1768.82 667.03 2297.2
-1743.60 659.74 2272.1
-1754.58 666.15 2294.1
-1667.49 646.22 2225.5
-1650.28 641.77 2210.2
-654.49 660.39 2274.3
-643.25 660.95 2276.2
-638.27 661.91 2279.5
-634.59 676.89 2331.1
-614.89 662.19 2280.5
-590.90 655.26 2256.6
-585.97 669.68 2306.3
-561.95 669.56 2305.9
-566.43 682.15 2349.2
-497.68 648.14 2232.1
-1881.64 656.80 2282.3
-1904.03 666.71 2316.8
-1854.07 659.62 2292.1
-1784.82 637.02 2213.6
-1824.01 653.11 2269.5
-1859.97 668.15 2321.7
-1854.97 668.51 2323.0
-1853.82 674.67 2344.4
-1790.19 653.65 2271.4
-1767.16 647.37 2249.6
-1764.33 652.80 2268.4
-1834.63 681.08 2366.7
-1800.18 675.07 2345.8
-625.95 643.34 2235.5
-621.05 644.27 2238.8
-617.44 665.40 2312.2
-611.07 664.99 2310.8
-597.63 656.80 2282.3
-588.16 659.45 2291.5
-593.70 672.46 2336.7
-597.38 683.60 2375.4
-568.48 671.29 2332.7
-569.28 679.47 2361.1
-1862.67 646.35 2266.4
-1825.01 635.29 2227.6
-1786.85 623.98 2188.0
-1803.06 631.65 2214.9
-1881.32 661.17 2318.4
-1781.29 630.04 2209.2
-1796.67 637.53 2235.5
-1827.21 650.46 2280.8
-1775.48 648.85 2275.2
-1757.92 644.57 2260.2
-1804.36 663.81 2327.7
-1800.48 664.61 2330.4
-1803.72 668.04 2342.5
-655.21 667.34 2340.0
-628.41 646.03 2265.3
-620.83 663.02 2324.9
-607.28 654.91 2296.4
-587.03 639.34 2241.8
-559.68 634.69 2225.6
-578.67 663.06 2325.0
-575.50 666.37 2336.6
-549.45 642.97 2254.6
-538.26 636.65 2232.4
-563.10 680.67 2386.8
-1890.58 646.00 2286.0
-1883.35 649.64 2298.9
-1834.56 634.82 2246.4
-1772.37 615.25 2177.2
-1775.02 618.14 2187.4
-1822.49 642.89 2275.0
-1750.05 627.48 2220.5
-1766.05 639.53 2263.1
-1756.12 640.19 2265.4
-1788.14 654.05 2314.5
-1810.09 666.55 2358.7
-627.79 633.60 2242.1
-611.81 629.13 2226.3
-623.94 666.76 2359.5
-586.18 632.62 2238.6
-564.78 628.18 2222.9
-592.03 665.28 2354.2
-591.09 678.20 2399.9
-561.91 673.06 2381.7
-513.80 636.42 2252.1
-1901.48 649.87 2321.0
-1800.40 621.22 2218.7
-1775.31 614.53 2194.8
-1882.04 655.68 2341.7
-1849.53 646.44 2308.7
-1745.19 611.95 2185.5
-1764.03 628.76 2245.6
-1763.65 634.91 2267.6
-604.27 615.67 2198.8
-601.72 643.42 2297.9
-559.44 616.52 2201.9
-588.41 655.14 2339.8
-597.13 671.77 2399.2
-499.19 626.89 2238.9
-1883.68 637.83 2299.2
-1854.03 629.78 2270.2
-1909.02 650.53 2345.0
-1855.97 634.47 2287.1
-1760.07 603.61 2175.9
-1770.05 608.99 2195.3
-1777.52 613.53 2211.7
-1745.82 604.54 2179.2
-1850.69 645.03 2325.2
-1818.34 635.83 2292.0
-1829.13 641.70 2313.2
-1796.61 636.55 2294.6
-1804.92 645.91 2328.4
-617.27 641.24 2311.6
-608.95 645.12 2325.5
-582.19 622.94 2245.6
-573.10 619.41 2232.9
-564.55 616.40 2222.0
-571.36 630.26 2272.0
-561.36 625.68 2255.4
-543.35 611.99 2206.1
-566.05 644.34 2322.7
-565.37 657.55 2370.3
-547.78 644.09 2321.8
-1914.82 642.31 2337.3
-1794.78 603.96 2197.7
-1812.98 613.98 2234.2
-1822.30 619.11 2252.8
-1808.07 628.38 2286.6
-590.48 607.68 2211.2
-608.10 638.21 2322.3
-592.03 640.36 2330.1
-598.82 654.38 2381.2
-590.65 652.17 2373.1
-565.88 631.40 2297.5
-584.02 658.58 2396.5
-529.19 609.72 2218.7
-1864.83 621.61 2283.5
-1772.22 592.62 2177.0
-1776.12 595.82 2188.7
-1812.59 610.01 2240.8
-1845.04 628.99 2310.6
-1778.50 612.27 2249.2
-583.73 600.90 2207.4
-577.66 612.67 2250.6
-571.45 612.26 2249.1
-592.11 640.95 2354.5
-556.74 628.58 2309.1
-544.10 620.99 2281.2
-1907.67 625.86 2321.2
-1884.11 620.09 2299.8
-1808.91 601.04 2229.1
-1826.25 608.75 2257.7
-1785.75 597.16 2214.8
-1821.71 621.17 2303.8
-1750.12 610.78 2265.3
-602.19 608.04 2255.1
-578.89 590.24 2189.1
-571.29 618.89 2295.3
-552.10 617.40 2289.8
