ply
format ascii 1.0
element vertex 2222
property float x
property float y
property float z
end_header
5.38 -94.07 1036.7
8.91 -103.92 1145.3
10.19 -89.19 982.9
11.98 -83.86 924.1
15.06 -87.83 967.9
17.24 -86.20 949.9
20.84 -91.16 1004.7
25.07 -97.48 1074.3
27.31 -95.58 1053.3
28.25 -89.88 990.5
31.25 -91.14 1004.4
35.59 -95.83 1056.1
35.58 -88.96 980.3
34.25 -79.92 880.7
37.27 -81.53 898.5
40.26 -82.88 913.4
40.07 -77.90 858.5
41.31 -76.09 838.5
48.63 -85.10 937.9
56.31 -93.85 1034.2
58.75 -93.47 1030.1
59.99 -91.29 1006.1
63.27 -92.27 1016.9
66.09 -92.53 1019.7
64.37 -86.65 954.9
63.70 -82.58 910.0
69.01 -86.26 950.6
77.66 -93.72 1032.9
76.22 -88.93 980.0
69.02 -77.92 858.7
73.78 -80.70 889.3
81.93 -86.89 957.6
78.97 -81.29 895.9
78.21 -78.21 861.9
85.15 -82.78 912.3
93.10 -88.07 970.6
102.04 -93.98 1035.8
103.20 -92.61 1020.6
96.36 -84.32 929.2
96.11 -82.05 904.2
88.72 -72.21 795.8
111.08 -88.36 973.7
111.95 -87.07 959.6
103.32 -78.61 866.3
115.65 -86.12 949.1
142.80 -104.12 1147.5
134.68 -96.20 1060.2
118.05 -82.63 910.7
132.25 -90.76 1000.2
156.89 -105.60 1163.7
159.58 -105.38 1161.4
153.70 -99.62 1097.8
164.92 -104.95 1156.6
148.68 -92.93 1024.1
151.95 -91.70 1010.5
-341.87 -157.79 1690.6
-324.01 -151.49 1623.1
-307.06 -145.45 1558.4
-280.93 -134.85 1444.8
-275.81 -134.18 1437.6
-279.07 -137.62 1474.5
-288.35 -144.17 1544.7
-284.47 -144.24 1545.4
-260.86 -134.15 1437.4
-256.72 -133.94 1435.1
-263.14 -139.31 1492.6
-247.79 -133.14 1426.5
-230.60 -125.78 1347.6
-228.19 -126.38 1354.1
-232.60 -130.84 1401.8
-237.41 -135.66 1453.5
-232.94 -135.26 1449.2
-221.50 -130.72 1400.6
-211.68 -127.01 1360.8
-203.26 -124.02 1328.8
-200.93 -124.72 1336.2
-200.45 -126.60 1356.4
-198.44 -127.57 1366.8
-193.28 -126.51 1355.5
-184.59 -123.06 1318.5
-176.89 -120.15 1287.4
-170.29 -117.89 1263.1
-168.25 -118.76 1272.4
-169.48 -122.03 1307.4
-167.02 -122.71 1314.8
-161.45 -121.09 1297.4
-157.06 -120.30 1288.9
-152.35 -119.23 1277.4
-146.54 -117.23 1256.1
-144.34 -118.10 1265.3
-144.19 -120.72 1293.4
-141.42 -121.21 1298.7
-134.72 -118.29 1267.4
-127.77 -114.99 1232.1
-125.61 -115.95 1242.3
-123.59 -117.09 1254.5
-119.04 -115.82 1240.9
-116.96 -116.96 1253.1
-114.10 -117.36 1257.4
-109.64 -116.09 1243.8
-107.29 -117.04 1254.0
-106.61 -119.94 1285.0
-107.29 -124.59 1334.9
-105.08 -126.10 1351.1
-97.64 -121.21 1298.7
-90.91 -116.88 1252.3
-87.81 -117.09 1254.5
-86.52 -119.80 1283.5
-83.98 -120.93 1295.7
-81.87 -122.80 1315.7
-80.13 -125.42 1343.8
-73.94 -120.99 1296.3
-67.88 -116.36 1246.7
-65.84 -118.51 1269.8
-63.00 -119.36 1278.9
-56.90 -113.81 1219.4
-53.14 -112.52 1205.6
-53.48 -120.33 1289.3
-51.23 -122.95 1317.3
-42.83 -110.14 1180.1
-39.68 -109.87 1177.2
-40.10 -120.29 1288.8
-31.25 -102.27 1095.8
-28.77 -103.58 1109.8
-30.50 -121.98 1307.0
-27.29 -122.83 1316.0
-22.11 -113.73 1218.5
-19.17 -115.03 1232.5
-15.13 -108.90 1166.8
-9.95 -89.58 959.8
-7.12 -85.49 916.0
-4.82 -86.70 929.0
-2.45 -88.38 946.9
0.00 -89.96 963.8
2.41 -86.70 929.0
5.36 -96.46 1033.5
9.17 -110.03 1178.8
11.11 -99.99 1071.3
12.67 -91.25 977.7
15.02 -90.13 965.7
18.37 -94.49 1012.4
23.21 -104.43 1118.9
25.99 -103.96 1113.9
26.99 -97.17 1041.1
28.24 -92.43 990.3
31.27 -93.81 1005.1
34.68 -96.03 1028.9
33.26 -85.53 916.4
32.81 -78.75 843.7
37.35 -84.03 900.3
40.20 -85.13 912.2
40.20 -80.39 861.3
40.27 -76.30 817.5
45.63 -82.13 880.0
53.70 -92.05 986.3
57.55 -94.17 1009.0
58.44 -91.47 980.0
61.83 -92.75 993.8
68.14 -98.12 1051.2
68.71 -95.13 1019.3
65.15 -86.86 930.7
67.40 -86.66 928.5
71.96 -89.33 957.2
67.17 -80.61 863.6
66.13 -76.79 822.8
75.82 -85.30 913.9
93.62 -102.13 1094.3
98.97 -104.79 1122.8
85.03 -87.46 937.1
82.63 -82.63 885.3
90.13 -87.70 939.6
98.01 -92.86 994.9
112.59 -103.93 1113.5
120.48 -108.43 1161.7
120.51 -105.81 1133.7
110.70 -94.88 1016.6
96.64 -80.91 866.9
101.46 -83.01 889.4
112.50 -90.00 964.3
111.90 -87.57 938.3
114.42 -87.64 939.0
128.50 -96.37 1032.6
130.13 -95.61 1024.4
119.69 -86.17 923.3
133.92 -94.53 1012.8
159.78 -110.62 1185.2
173.64 -117.94 1263.7
180.17 -120.11 1286.9
155.80 -100.16 1073.1
130.87 -82.65 885.6
169.39 -105.14 1126.5
178.74 -103.78 1112.0
206.59 -118.05 1264.8
-355.89 -160.59 1674.1
-359.71 -166.36 1734.3
-338.44 -160.54 1673.6
-334.26 -160.62 1674.4
-334.90 -163.04 1699.7
-320.01 -157.87 1645.8
-293.95 -146.97 1532.2
-281.22 -142.54 1485.9
-279.15 -143.45 1495.4
-266.02 -138.63 1445.2
-256.53 -135.59 1413.5
-263.15 -141.11 1471.0
-267.40 -145.50 1516.8
-250.46 -138.31 1441.9
-231.55 -129.81 1353.2
-227.81 -129.67 1351.8
-233.03 -134.72 1404.4
-238.95 -140.34 1463.0
-235.41 -140.49 1464.6
-224.71 -136.30 1420.9
-217.90 -134.37 1400.8
-212.40 -133.20 1388.5
-201.62 -128.62 1340.8
-194.29 -126.12 1314.8
-192.24 -127.02 1324.1
-187.05 -125.83 1311.8
-181.09 -124.08 1293.5
-175.90 -122.80 1280.1
-170.65 -121.42 1265.8
-170.03 -123.36 1286.0
-170.72 -126.33 1317.0
-167.99 -126.85 1322.4
-162.28 -125.09 1304.0
-157.62 -124.08 1293.5
-153.37 -123.36 1286.0
-148.58 -122.17 1273.6
-144.53 -121.54 1267.0
-142.61 -122.71 1279.2
-139.23 -122.65 1278.6
-132.16 -119.27 1243.3
-127.74 -118.16 1231.8
-127.88 -121.32 1264.8
-125.03 -121.74 1269.1
-119.29 -119.29 1243.6
-115.73 -118.94 1239.9
-111.46 -117.83 1228.3
-106.12 -115.48 1203.8
-102.85 -115.31 1202.1
-101.23 -117.05 1220.2
-100.64 -120.12 1252.2
-101.20 -124.81 1301.1
-97.02 -123.79 1290.5
-91.10 -120.38 1255.0
-89.25 -122.31 1275.0
-85.03 -121.00 1261.4
-79.52 -117.68 1226.8
-77.27 -119.13 1241.9
-75.55 -121.53 1266.9
-74.71 -125.65 1309.9
-74.63 -131.48 1370.7
-69.69 -128.93 1344.0
-63.28 -123.22 1284.6
-57.03 -117.23 1222.1
-53.56 -116.57 1215.2
-52.60 -121.64 1268.1
-49.13 -121.18 1263.3
-43.62 -115.27 1201.7
-44.83 -127.60 1330.1
-39.47 -132.77 1384.1
-28.35 -104.91 1093.6
-25.01 -102.81 1071.8
-25.84 -119.53 1246.0
-22.31 -117.91 1229.2
-18.81 -116.00 1209.3
-14.45 -106.94 1114.8
-9.85 -91.09 949.6
-7.14 -88.04 917.8
-4.95 -91.57 954.6
-2.61 -96.63 1007.4
0.00 -99.21 1034.3
2.60 -96.06 1001.4
5.01 -92.72 966.6
7.63 -94.05 980.5
9.91 -91.66 955.6
11.73 -86.79 904.8
14.14 -87.17 908.7
17.59 -92.99 969.4
22.81 -105.49 1099.7
26.08 -107.20 1117.6
24.95 -92.31 962.3
24.15 -81.23 846.8
28.08 -86.57 902.4
33.03 -94.00 979.9
33.51 -88.55 923.2
35.43 -87.40 911.1
41.09 -95.02 990.6
45.36 -98.73 1029.3
46.40 -95.38 994.4
47.56 -92.61 965.4
48.97 -90.59 944.4
52.60 -92.68 966.1
58.67 -98.67 1028.6
62.45 -100.47 1047.3
63.43 -97.78 1019.4
66.96 -99.10 1033.1
69.89 -99.47 1036.9
68.40 -93.73 977.1
70.92 -93.72 977.0
76.20 -97.22 1013.5
71.02 -87.59 913.1
70.66 -84.33 879.1
76.54 -88.50 922.6
86.81 -97.33 1014.7
93.25 -95.84 999.1
91.92 -91.92 958.2
96.33 -93.80 977.8
107.35 -101.85 1061.7
119.22 -110.28 1149.6
124.58 -112.43 1172.0
123.92 -109.17 1138.1
113.05 -97.28 1014.1
115.99 -97.53 1016.8
129.43 -106.42 1109.4
125.55 -100.99 1052.7
122.58 -96.50 1006.0
125.89 -97.04 1011.6
118.18 -89.24 930.3
115.69 -85.61 892.5
144.19 -104.61 1090.5
169.58 -120.66 1257.9
176.17 -122.99 1282.1
175.29 -120.11 1252.1
172.85 -116.28 1212.2
174.50 -115.30 1201.9
178.57 -115.92 1208.4
192.89 -123.05 1282.8
180.08 -109.23 1138.7
160.52 -95.80 998.7
-362.23 -167.86 1703.9
-361.68 -169.68 1722.3
-351.33 -173.38 1759.9
-338.66 -169.33 1718.8
-337.03 -170.76 1733.3
-318.82 -163.72 1661.8
-294.30 -153.20 1555.0
-283.28 -149.51 1517.6
-265.96 -142.34 1444.8
-252.91 -137.30 1393.6
-261.68 -144.11 1462.8
-267.16 -149.30 1515.4
-259.94 -147.43 1496.5
-248.28 -142.95 1451.0
-236.19 -138.08 1401.5
-234.61 -139.30 1413.9
-232.00 -139.93 1420.4
-221.30 -135.64 1376.7
-217.04 -135.20 1372.4
-215.55 -136.52 1385.7
-212.65 -136.96 1390.2
-204.39 -133.91 1359.2
-191.77 -127.85 1297.7
-185.33 -125.76 1276.5
-183.07 -126.48 1283.9
-179.94 -126.63 1285.3
-176.67 -126.67 1285.8
-173.40 -126.71 1286.2
-170.77 -127.24 1291.6
-169.65 -128.94 1308.8
-165.94 -128.69 1306.2
-159.65 -126.39 1282.9
-158.06 -127.80 1297.2
-157.10 -129.78 1317.3
-152.35 -128.65 1305.9
-148.44 -128.20 1301.3
-145.33 -128.43 1303.7
-140.59 -127.20 1291.2
-134.02 -124.21 1260.8
-130.27 -123.76 1256.2
-127.95 -124.67 1265.5
-123.04 -123.04 1248.9
-118.31 -121.51 1233.4
-115.42 -121.83 1236.7
-111.97 -121.57 1234.0
-107.31 -119.94 1217.4
-103.42 -119.08 1208.8
-101.21 -120.19 1219.9
-95.99 -117.67 1194.4
-91.60 -116.03 1177.8
-93.34 -122.31 1241.5
-94.75 -128.59 1305.3
-91.73 -129.11 1310.5
-86.01 -125.70 1275.9
-80.07 -121.71 1235.4
-77.56 -122.81 1246.6
-75.94 -125.47 1273.6
-75.49 -130.38 1323.5
-77.80 -140.78 1429.0
-75.44 -143.35 1455.0
-67.03 -134.06 1360.8
-58.45 -123.40 1252.6
-58.94 -131.74 1337.2
-56.19 -142.35 1444.9
-44.80 -121.59 1234.2
-39.49 -115.43 1171.7
-35.40 -112.11 1137.9
-32.63 -112.71 1144.0
-26.33 -100.07 1015.7
-20.03 -84.59 858.6
-18.43 -87.53 888.5
-15.48 -84.01 852.7
-13.70 -86.76 880.6
-11.22 -85.29 865.7
-4.68 -88.92 902.6
-2.65 -100.89 1024.0
0.00 -109.51 1111.6
2.76 -104.81 1063.8
5.31 -100.89 1024.0
7.70 -97.55 990.2
9.53 -90.49 918.5
12.47 -94.80 962.3
16.61 -105.19 1067.7
18.38 -99.79 1012.9
21.52 -102.24 1037.8
25.16 -106.25 1078.5
23.83 -90.56 919.2
23.38 -80.76 819.7
28.07 -88.88 902.2
31.38 -91.72 931.0
30.83 -83.67 849.3
31.36 -79.45 806.5
34.94 -82.97 842.2
42.77 -95.60 970.4
47.88 -101.07 1025.9
49.40 -98.81 1002.9
50.50 -95.96 974.0
52.21 -94.47 958.9
55.88 -96.52 979.7
60.54 -100.02 1015.3
62.55 -99.03 1005.2
65.66 -99.80 1013.0
68.54 -100.17 1016.8
66.99 -94.29 957.0
69.82 -94.76 961.8
78.42 -102.76 1043.0
78.33 -99.22 1007.1
73.27 -89.82 911.7
74.22 -88.14 894.6
81.44 -93.78 951.9
93.59 -104.60 1061.8
104.60 -113.56 1152.7
104.79 -110.61 1122.7
102.54 -105.31 1068.9
105.19 -105.19 1067.7
100.42 -97.84 993.2
94.55 -89.82 911.7
107.41 -99.55 1010.4
115.06 -104.10 1056.7
96.82 -85.56 868.4
101.95 -86.09 873.9
109.49 -90.45 918.1
113.76 -91.98 933.6
122.78 -97.20 986.6
122.67 -95.13 965.6
129.48 -98.40 998.8
137.64 -102.55 1040.9
139.22 -101.74 1032.7
146.32 -104.91 1064.9
151.10 -106.33 1079.3
161.29 -111.44 1131.1
177.89 -120.71 1225.3
188.28 -125.52 1274.1
196.28 -124.31 1261.8
188.59 -117.48 1192.5
-341.70 -173.07 1711.7
-327.42 -168.02 1661.7
-324.41 -168.69 1668.4
-328.11 -172.92 1710.2
-319.58 -170.73 1688.6
-295.44 -160.03 1582.7
-267.33 -146.85 1452.3
-261.38 -145.63 1440.2
-276.33 -156.19 1544.7
-273.66 -156.95 1552.3
-260.05 -151.37 1497.1
-247.21 -146.08 1444.7
-234.64 -140.78 1392.4
-227.71 -138.76 1372.3
-221.67 -137.23 1357.2
-217.45 -136.79 1352.8
-218.85 -139.92 1383.8
-215.96 -140.37 1388.3
-211.69 -139.93 1383.9
-207.00 -139.19 1376.6
-196.81 -134.66 1331.8
-187.43 -130.53 1291.0
-183.16 -129.88 1284.5
-180.31 -130.22 1287.9
-176.90 -130.17 1287.4
-175.35 -131.51 1300.7
-174.25 -133.25 1317.9
-173.19 -135.09 1336.1
-168.91 -134.44 1329.6
-159.49 -129.59 1281.6
-155.50 -129.03 1276.1
-154.35 -130.87 1294.3
-149.66 -129.71 1282.8
-147.05 -130.34 1289.1
-144.97 -131.48 1300.4
-143.14 -132.92 1314.6
-139.46 -132.65 1312.0
-134.45 -131.09 1296.5
-131.02 -131.02 1295.8
-125.26 -128.55 1271.4
-120.18 -126.68 1252.9
-118.81 -128.71 1273.0
-116.80 -130.15 1287.2
-112.00 -128.47 1270.6
-108.14 -127.80 1264.0
-105.62 -128.73 1273.2
-100.03 -125.85 1244.7
-92.43 -120.16 1188.4
-91.01 -122.39 1210.4
-91.70 -127.73 1263.3
-88.37 -127.65 1262.5
-86.45 -129.68 1282.6
-84.43 -131.71 1302.6
-80.39 -130.63 1291.9
-77.29 -131.05 1296.1
-74.79 -132.58 1311.2
-74.37 -138.12 1366.0
-71.05 -138.54 1370.2
-62.31 -127.91 1265.0
-54.50 -118.08 1167.8
-54.80 -125.73 1243.5
-60.04 -146.35 1447.4
-53.16 -138.22 1367.0
-39.26 -109.38 1081.8
-31.27 -93.81 927.7
-29.30 -95.22 941.7
-27.65 -98.04 969.7
-24.08 -93.93 929.0
-20.93 -90.72 897.2
-18.98 -92.53 915.1
-16.23 -90.42 894.3
-13.18 -85.70 847.6
-8.35 -81.38 804.9
-7.99 -103.91 1027.7
-4.80 -93.56 925.3
-2.16 -84.20 832.8
0.00 -92.65 916.3
2.34 -91.34 903.4
5.06 -98.69 976.0
8.18 -106.33 1051.6
10.93 -106.53 1053.6
18.99 -105.81 1046.5
20.28 -98.87 977.8
21.77 -94.34 933.0
24.19 -94.33 932.9
27.60 -97.84 967.7
30.54 -99.24 981.5
31.80 -95.41 943.7
30.53 -85.05 841.2
30.20 -78.51 776.5
34.70 -79.60 787.2
42.25 -91.55 905.4
46.94 -96.36 953.0
49.51 -96.55 954.9
52.74 -97.94 968.6
54.28 -96.22 951.6
56.08 -95.10 940.5
58.88 -95.69 946.4
63.26 -98.68 976.0
66.45 -99.67 985.7
65.52 -94.63 935.9
68.29 -95.12 940.7
76.01 -102.22 1011.0
77.46 -100.70 995.9
74.77 -94.06 930.3
79.05 -96.35 952.9
88.21 -104.25 1031.0
91.47 -104.92 1037.7
92.07 -102.60 1014.7
99.77 -108.08 1068.9
106.88 -112.66 1114.2
107.89 -110.73 1095.1
100.59 -100.59 994.9
94.32 -91.96 909.5
105.59 -100.44 993.4
115.89 -107.61 1064.3
100.54 -91.19 901.8
100.98 -85.61 846.7
112.41 -93.28 922.5
129.02 -104.83 1036.8
139.69 -111.18 1099.6
141.34 -110.25 1090.4
143.21 -109.51 1083.1
146.10 -109.58 1083.7
154.82 -113.92 1126.7
159.76 -115.38 1141.1
171.22 -121.41 1200.8
181.85 -126.65 1252.5
184.01 -125.90 1245.2
184.95 -124.36 1230.0
181.15 -119.74 1184.3
192.10 -124.86 1234.9
204.86 -130.98 1295.4
-356.21 -178.10 1717.4
-325.61 -171.37 1652.5
-303.63 -161.94 1561.5
-293.17 -158.47 1528.1
-297.38 -165.21 1593.1
-269.25 -151.69 1462.7
-263.62 -150.64 1452.6
-273.46 -158.53 1528.7
-267.03 -157.07 1514.6
-250.96 -149.82 1444.7
-237.25 -143.79 1386.5
-235.90 -145.17 1399.9
-238.72 -149.20 1438.7
-234.13 -148.65 1433.4
-232.55 -150.04 1446.8
-224.85 -147.45 1421.8
-213.76 -142.51 1374.2
-207.57 -140.73 1357.0
-200.73 -138.44 1334.9
-197.78 -138.79 1338.4
-194.67 -139.05 1340.8
-188.45 -137.06 1321.6
-183.85 -136.19 1313.2
-178.07 -134.39 1295.9
-174.24 -134.03 1292.4
-173.03 -135.71 1308.7
-171.49 -137.19 1322.9
-170.49 -139.18 1342.1
-163.63 -136.36 1314.9
-154.97 -131.89 1271.8
-149.60 -130.09 1254.4
-144.20 -128.18 1236.0
-141.04 -128.22 1236.4
-140.74 -130.92 1262.5
-140.41 -133.73 1289.5
-137.63 -134.28 1294.8
-133.39 -133.39 1286.2
-130.99 -134.35 1295.5
-126.10 -132.74 1280.0
-122.81 -132.77 1280.3
-123.68 -137.42 1325.2
-119.47 -136.53 1316.6
-112.50 -132.35 1276.2
-109.55 -132.79 1280.5
-108.31 -135.39 1305.5
-106.30 -137.17 1322.7
-101.51 -135.34 1305.1
-95.98 -132.39 1276.6
-92.54 -132.20 1274.8
-88.07 -130.48 1258.2
-85.03 -130.81 1261.4
-82.93 -132.69 1279.5
-78.94 -131.57 1268.8
-76.26 -132.62 1278.9
-74.26 -135.01 1301.9
-72.84 -138.74 1337.9
-68.71 -137.42 1325.1
-63.42 -133.52 1287.5
-58.93 -130.96 1262.9
-49.80 -117.17 1129.8
-43.53 -108.83 1049.5
-42.79 -114.10 1100.3
-37.41 -106.90 1030.8
-26.74 -97.23 937.6
-29.10 -116.42 1122.6
-24.08 -107.04 1032.2
-20.69 -103.44 997.4
-17.52 -100.14 965.7
-14.74 -98.29 947.8
-12.51 -100.05 964.7
-11.32 -113.15 1091.1
-10.19 -135.85 1309.9
-5.59 -111.71 1077.2
-2.17 -86.65 835.5
0.00 -85.51 824.6
2.13 -85.31 822.6
4.71 -94.28 909.1
7.67 -102.32 986.7
10.18 -101.80 981.7
12.60 -100.77 971.7
13.30 -88.70 855.3
15.63 -89.31 861.2
18.65 -93.23 899.0
21.02 -93.43 900.9
24.41 -97.65 941.6
28.33 -103.01 993.3
32.11 -107.02 1032.0
33.77 -103.92 1002.1
32.33 -92.36 890.6
34.01 -90.70 874.7
36.07 -90.18 869.6
37.23 -87.59 844.7
42.29 -93.97 906.2
47.13 -99.21 956.7
50.01 -100.03 964.5
54.29 -103.41 997.2
56.98 -103.60 999.0
58.32 -101.43 978.0
60.72 -101.20 975.9
64.91 -103.86 1001.5
67.70 -104.15 1004.3
66.61 -98.68 951.6
68.63 -98.05 945.5
73.46 -101.32 977.0
71.81 -95.75 923.3
72.44 -93.47 901.3
80.27 -100.33 967.5
83.94 -101.75 981.2
81.67 -96.08 926.5
78.03 -89.17 859.9
81.53 -90.59 873.5
102.39 -110.69 1067.4
113.78 -116.69 1125.3
107.94 -107.94 1040.9
109.66 -106.99 1031.7
107.57 -102.45 987.9
114.84 -106.83 1030.1
115.22 -104.75 1010.1
105.13 -93.45 901.1
104.60 -90.96 877.1
111.90 -95.23 918.3
124.32 -103.60 999.0
135.14 -110.32 1063.8
139.64 -111.72 1077.3
146.69 -115.05 1109.4
157.23 -120.94 1166.3
159.79 -120.60 1162.9
158.06 -117.08 1129.0
170.06 -123.68 1192.6
186.24 -133.03 1282.7
171.60 -120.42 1161.2
163.31 -112.63 1086.0
177.34 -120.23 1159.4
-343.02 -185.05 1740.9
-324.06 -177.15 1666.6
-291.78 -161.66 1520.8
-285.75 -160.49 1509.8
-294.20 -167.53 1576.0
-278.90 -161.05 1515.1
-258.94 -151.66 1426.8
-257.10 -152.77 1437.2
-261.09 -157.42 1480.9
-253.78 -155.30 1461.0
-239.54 -148.80 1399.9
-237.99 -150.12 1412.2
-240.77 -154.25 1451.1
-235.99 -153.58 1444.8
-232.65 -153.85 1447.4
-223.71 -150.36 1414.5
-214.62 -146.66 1379.7
-210.08 -145.98 1373.4
-199.94 -141.34 1329.6
-194.09 -139.61 1313.4
-193.19 -141.44 1330.6
-189.10 -140.97 1326.2
-186.84 -141.86 1334.5
-183.03 -141.59 1332.0
-175.52 -138.39 1302.0
-171.29 -137.71 1295.5
-163.00 -133.66 1257.5
-155.53 -130.14 1224.3
-158.67 -135.53 1275.0
-159.62 -139.25 1310.0
-152.62 -136.04 1279.8
-145.78 -132.82 1249.5
-143.37 -133.59 1256.8
-143.68 -136.99 1288.8
-138.01 -134.72 1267.4
-130.03 -130.03 1223.3
-128.22 -131.43 1236.4
-128.05 -134.62 1266.4
-125.58 -135.49 1274.7
-124.77 -138.26 1300.7
-123.46 -140.61 1322.8
-116.83 -136.86 1287.5
-111.59 -134.57 1266.0
-110.62 -137.44 1293.0
-107.38 -137.58 1294.3
-103.33 -136.66 1285.6
-101.40 -138.58 1303.7
-98.64 -139.45 1311.9
-96.33 -141.06 1327.1
-93.19 -141.51 1331.3
-87.01 -137.21 1290.8
-81.68 -133.96 1260.3
-78.12 -133.46 1255.5
-75.71 -134.95 1269.6
-74.92 -139.62 1313.5
-74.71 -145.86 1372.2
-72.50 -148.63 1398.3
-69.57 -150.13 1412.3
-67.26 -153.21 1441.3
-58.02 -139.92 1316.3
-48.88 -125.25 1178.4
-47.18 -128.96 1213.3
-43.54 -127.50 1199.5
-33.03 -104.16 979.9
-30.24 -103.33 972.1
-32.94 -122.77 1155.0
-32.37 -132.72 1248.5
-26.88 -122.47 1152.2
-22.70 -116.35 1094.6
-18.51 -108.43 1020.1
-15.51 -106.01 997.3
-13.22 -108.44 1020.2
-10.62 -108.87 1024.2
-8.45 -115.53 1086.8
-6.56 -134.56 1265.9
0.00 -112.36 1057.0
2.32 -94.92 893.0
4.60 -94.28 887.0
6.82 -93.23 877.0
9.55 -97.87 920.8
12.48 -102.31 962.5
14.37 -98.18 923.7
17.36 -101.67 956.5
20.58 -105.47 992.2
23.31 -106.20 999.1
25.75 -105.56 993.1
28.18 -105.02 988.0
30.27 -103.43 973.1
30.38 -95.82 901.4
32.43 -94.96 893.4
38.06 -104.04 978.8
41.50 -106.35 1000.5
43.48 -104.86 986.5
45.43 -103.48 973.5
46.58 -100.51 945.5
51.70 -105.98 997.1
58.49 -114.20 1074.4
61.33 -114.29 1075.2
62.92 -112.16 1055.2
66.39 -113.41 1066.9
71.65 -117.51 1105.5
71.63 -112.95 1062.6
67.56 -102.60 965.2
70.13 -102.69 966.0
76.35 -107.94 1015.4
73.72 -100.75 947.8
74.17 -98.09 922.8
87.81 -112.51 1058.4
90.11 -108.67 1022.3
81.15 -95.06 894.3
76.52 -87.15 819.8
85.56 -94.81 891.9
106.86 -115.30 1084.7
106.34 -111.80 1051.7
102.27 -104.83 986.2
105.12 -105.12 988.9
107.65 -105.09 988.6
115.91 -110.52 1039.7
121.39 -113.11 1064.1
113.40 -103.32 972.0
108.23 -96.46 907.5
112.11 -97.80 920.0
118.02 -100.81 948.4
119.81 -100.25 943.1
124.65 -102.21 961.6
135.18 -108.68 1022.4
144.43 -113.88 1071.3
149.59 -115.72 1088.7
149.74 -113.69 1069.6
162.99 -121.50 1143.1
184.76 -135.27 1272.6
179.41 -129.05 1214.0
167.40 -118.34 1113.3
177.74 -123.52 1162.0
208.57 -135.74 1277.0
-334.23 -182.31 1674.3
-328.13 -181.34 1665.3
-335.74 -188.01 1726.6
-319.43 -181.30 1665.0
-298.80 -171.91 1578.8
-296.31 -172.85 1587.4
-284.59 -168.35 1546.0
-266.32 -159.79 1467.5
-259.66 -158.05 1451.5
-259.81 -160.47 1473.7
-252.18 -158.09 1451.8
-237.29 -151.00 1386.8
-225.20 -145.52 1336.4
-219.06 -143.76 1320.3
-219.58 -146.38 1344.3
-220.75 -149.54 1373.4
-216.19 -148.85 1367.0
-210.90 -147.63 1355.8
-211.22 -150.36 1380.9
-205.06 -148.49 1363.7
-193.90 -142.87 1312.1
-188.71 -141.53 1299.8
-186.53 -142.44 1308.1
-185.82 -144.53 1327.3
-182.71 -144.79 1329.7
-176.01 -142.16 1305.5
-170.07 -140.06 1286.3
-160.40 -134.74 1237.4
-153.36 -131.45 1207.2
-156.54 -136.97 1257.9
-160.66 -143.57 1318.5
-156.47 -142.86 1312.0
-148.50 -138.60 1272.9
-145.02 -138.43 1271.3
-146.61 -143.20 1315.1
-142.38 -142.38 1307.6
-132.20 -135.42 1243.7
-128.70 -135.14 1241.0
-127.02 -136.79 1256.2
-123.30 -136.28 1251.6
-121.89 -138.36 1270.7
-119.92 -139.91 1284.9
-117.51 -141.02 1295.1
-116.28 -143.64 1319.1
-112.80 -143.56 1318.4
-107.27 -140.79 1292.9
-104.02 -140.92 1294.2
-102.99 -144.19 1324.2
-99.43 -144.00 1322.5
-96.60 -144.89 1330.7
-94.07 -146.32 1343.8
-88.59 -143.11 1314.3
-83.01 -139.46 1280.8
-79.15 -138.51 1272.0
-76.04 -138.86 1275.2
-74.73 -142.66 1310.1
-74.74 -149.49 1372.9
-73.25 -153.83 1412.8
-62.80 -138.83 1274.9
-52.65 -122.84 1128.1
-56.12 -138.64 1273.2
-60.69 -159.32 1463.1
-54.62 -152.95 1404.6
-46.16 -138.47 1271.7
-40.22 -129.93 1193.3
-41.95 -146.82 1348.4
-39.76 -151.81 1394.2
-34.40 -144.46 1326.7
-25.83 -120.56 1107.2
-20.12 -105.63 970.1
-15.50 -92.97 853.8
-12.73 -89.08 818.1
-11.75 -98.71 906.6
-10.28 -107.92 991.1
-8.51 -119.07 1093.5
-6.50 -136.50 1253.6
-3.22 -135.42 1243.6
0.00 -114.64 1052.8
2.18 -91.58 841.0
3.98 -83.68 768.4
6.49 -90.93 835.0
9.86 -103.48 950.3
12.92 -108.56 997.0
14.87 -104.12 956.2
17.06 -102.39 940.3
19.46 -102.17 938.3
23.47 -109.52 1005.8
27.29 -114.60 1052.4
28.45 -108.64 997.7
29.15 -102.03 937.0
27.29 -88.17 809.8
36.31 -101.68 933.8
44.09 -115.73 1062.8
45.13 -111.50 1024.0
45.93 -107.16 984.1
47.39 -104.77 962.2
52.71 -110.70 1016.6
59.23 -118.47 1088.0
62.16 -118.67 1089.8
61.84 -112.92 1037.0
63.41 -110.96 1019.0
68.87 -115.69 1062.5
69.00 -111.46 1023.6
63.80 -99.24 911.4
64.64 -96.96 890.4
77.74 -112.59 1034.0
81.41 -113.97 1046.7
75.74 -102.62 942.4
84.50 -110.90 1018.5
91.53 -116.49 1069.8
80.40 -99.32 912.1
77.71 -93.26 856.4
79.36 -92.59 850.3
77.27 -87.72 805.6
79.44 -87.80 806.4
87.41 -94.14 864.5
95.06 -99.82 916.7
97.94 -100.33 921.4
100.73 -100.73 925.1
109.93 -107.38 986.1
114.71 -109.50 1005.6
117.51 -109.68 1007.3
123.15 -112.44 1032.6
112.20 -100.26 920.8
101.78 -89.06 817.9
116.15 -99.56 914.3
131.65 -110.58 1015.5
144.53 -119.02 1093.1
153.96 -124.35 1142.0
164.71 -130.53 1198.7
172.17 -133.91 1229.8
187.09 -142.87 1312.1
201.45 -143.41 1317.0
-338.42 -191.47 1717.5
-328.06 -188.08 1687.1
-324.21 -188.39 1689.9
-312.59 -184.13 1651.6
-291.67 -174.19 1562.5
-266.15 -161.19 1445.9
-260.57 -160.06 1435.8
-264.14 -164.61 1476.6
-257.32 -162.72 1459.6
-244.12 -156.67 1405.4
-233.37 -152.04 1363.8
-225.14 -148.94 1336.0
-219.82 -147.69 1324.8
-220.80 -150.70 1351.8
-218.80 -151.75 1361.2
-211.63 -149.18 1338.2
-206.56 -148.04 1327.9
-207.11 -150.94 1354.0
-206.19 -152.86 1371.2
-199.51 -150.51 1350.1
-191.37 -146.94 1318.1
-186.90 -146.12 1310.7
-183.01 -145.73 1307.2
-177.66 -144.14 1292.9
-172.37 -142.54 1278.6
-168.20 -141.82 1272.1
-163.04 -140.22 1257.7
-159.71 -140.15 1257.2
-160.92 -144.15 1293.1
-162.90 -149.04 1336.9
-158.66 -148.31 1330.4
-150.65 -143.96 1291.3
-146.90 -143.56 1287.7
-148.33 -148.33 1330.6
-148.37 -151.90 1362.6
-141.62 -148.53 1332.3
-132.77 -142.72 1280.2
-126.28 -139.23 1248.9
-122.29 -138.39 1241.3
-120.62 -140.18 1257.5
-120.72 -144.19 1293.4
-120.27 -147.76 1325.4
-118.60 -150.00 1345.5
-114.88 -149.70 1342.8
-109.87 -147.63 1324.3
-107.49 -149.10 1337.4
-106.20 -152.22 1365.4
-102.53 -152.03 1363.7
-95.92 -147.31 1321.4
-89.60 -142.69 1280.0
-87.43 -144.60 1297.0
-85.69 -147.38 1322.1
-81.60 -146.19 1311.4
-77.79 -145.44 1304.6
-75.61 -147.79 1325.6
-75.37 -154.33 1384.4
-74.62 -160.44 1439.2
-64.79 -146.63 1315.3
-52.49 -125.40 1124.8
-51.90 -131.28 1177.6
-58.00 -155.87 1398.1
-54.96 -157.54 1413.2
-44.85 -137.74 1235.5
-40.94 -135.43 1214.8
-40.24 -144.19 1293.4
-35.90 -140.32 1258.7
-35.29 -151.74 1361.1
-31.60 -150.97 1354.2
-24.85 -133.59 1198.3
-17.56 -107.90 967.8
-13.36 -95.72 858.6
-11.84 -101.81 913.3
-9.35 -100.49 901.4
-7.12 -102.04 915.3
-5.61 -120.65 1082.3
-2.94 -126.53 1135.0
0.00 -116.45 1044.5
2.44 -105.03 942.2
4.08 -87.75 787.1
6.25 -89.63 804.0
8.49 -91.29 818.9
12.98 -93.06 834.7
16.88 -103.69 930.1
19.06 -102.46 919.1
22.70 -108.44 972.7
25.40 -109.21 979.6
25.27 -98.79 886.2
29.14 -104.43 936.7
31.23 -103.31 926.7
27.65 -84.92 761.8
34.64 -99.31 890.8
41.56 -111.70 1001.9
42.89 -108.48 973.0
45.59 -108.91 976.9
48.85 -110.55 991.7
48.94 -105.23 943.9
49.33 -101.01 906.1
52.63 -102.87 922.8
53.83 -100.65 902.8
53.27 -95.43 856.1
55.60 -95.64 857.9
59.62 -98.61 884.5
58.71 -93.51 838.8
55.70 -85.53 767.2
63.34 -93.91 842.4
75.60 -108.37 972.1
80.90 -112.21 1006.5
80.37 -107.99 968.7
78.11 -101.79 913.0
76.89 -97.24 872.2
81.55 -100.20 898.8
83.03 -99.18 889.6
81.24 -94.41 846.9
83.61 -94.61 848.7
89.79 -99.00 888.0
92.58 -99.52 892.7
91.40 -95.86 859.9
95.30 -93.14 835.4
124.51 -118.97 1067.2
130.53 -122.02 1094.5
121.79 -111.42 999.5
100.53 -90.06 807.8
104.97 -92.12 826.3
117.17 -100.77 903.9
122.86 -103.59 929.2
133.86 -110.69 992.9
147.75 -119.88 1075.3
160.55 -127.84 1146.8
184.23 -144.03 1292.0
184.09 -141.35 1267.9
178.58 -134.72 1208.5
199.99 -143.33 1285.7
-332.71 -195.19 1711.1
-322.43 -191.72 1680.6
-310.84 -187.35 1642.4
-289.40 -176.85 1550.3
-270.22 -167.46 1468.0
-270.08 -169.76 1488.2
-272.99 -174.08 1526.0
-264.84 -171.37 1502.2
-256.64 -168.54 1477.4
-249.73 -166.49 1459.5
-235.98 -159.74 1400.3
-226.42 -155.67 1364.6
-227.78 -159.09 1394.6
-225.68 -160.16 1404.0
-217.00 -156.53 1372.2
-210.63 -154.46 1354.0
-205.85 -153.51 1345.7
-199.92 -151.66 1329.5
-201.49 -155.53 1363.4
-201.02 -157.95 1384.6
-191.19 -152.95 1340.8
-182.68 -148.85 1304.9
-178.28 -148.01 1297.5
-174.71 -147.83 1295.9
-171.93 -148.33 1300.3
-168.23 -148.04 1297.8
-165.67 -148.77 1304.1
-168.11 -154.10 1350.9
-167.54 -156.85 1375.0
-160.73 -153.75 1347.8
-153.26 -149.85 1313.6
-150.23 -150.23 1317.0
-146.09 -149.49 1310.4
-140.37 -147.05 1289.1
-138.32 -148.44 1301.3
-133.55 -146.90 1287.8
-127.24 -143.56 1258.5
-123.14 -142.58 1249.9
-119.93 -142.61 1250.2
-118.47 -144.79 1269.3
-116.64 -146.63 1285.4
-113.77 -147.23 1290.7
-113.07 -150.76 1321.6
-111.23 -152.94 1340.7
-106.74 -151.51 1328.1
-103.40 -151.65 1329.4
-99.97 -151.68 1329.6
-93.81 -147.41 1292.2
-88.67 -144.50 1266.7
-88.07 -149.05 1306.6
-84.96 -149.52 1310.8
-79.17 -145.14 1272.3
-77.48 -148.21 1299.3
-77.80 -155.59 1364.0
-75.19 -157.54 1381.0
-71.15 -156.54 1372.3
-72.30 -167.43 1467.7
-62.91 -162.83 1427.4
-58.47 -160.80 1409.7
-57.88 -169.77 1488.2
-50.24 -157.89 1384.1
-39.39 -133.33 1168.8
-33.06 -121.21 1062.6
-28.35 -113.41 994.2
-26.11 -114.89 1007.1
-26.26 -128.38 1125.4
-23.24 -127.82 1120.5
-19.61 -123.29 1080.8
-17.23 -126.36 1107.7
-14.59 -128.40 1125.6
-11.13 -122.40 1073.0
-7.31 -107.22 939.9
-5.16 -113.45 994.5
-2.79 -122.63 1075.0
0.00 -115.27 1010.4
2.61 -114.93 1007.5
5.18 -114.02 999.5
7.31 -107.22 939.9
9.43 -103.70 909.1
11.19 -98.48 863.3
14.26 -104.60 916.9
18.66 -117.29 1028.2
22.31 -122.72 1075.8
23.04 -112.63 987.3
22.76 -100.16 878.0
24.24 -96.98 850.1
30.12 -110.45 968.3
35.54 -120.30 1054.6
36.80 -115.64 1013.8
38.18 -112.01 981.9
40.07 -110.19 965.9
42.44 -109.83 962.8
45.99 -112.42 985.5
49.13 -113.77 997.3
48.83 -107.42 941.6
46.83 -98.12 860.2
47.98 -95.96 841.2
49.74 -95.15 834.1
49.73 -91.18 799.3
55.72 -98.06 859.6
63.55 -107.54 942.8
66.68 -108.66 952.5
68.48 -107.62 943.4
70.99 -107.71 944.2
78.28 -114.81 1006.5
79.44 -112.75 988.4
75.41 -103.69 909.0
84.78 -113.04 991.0
98.41 -127.36 1116.5
99.31 -124.85 1094.4
91.23 -111.50 977.4
89.94 -106.96 937.6
95.47 -110.54 969.1
100.46 -113.34 993.5
102.19 -112.40 985.4
110.28 -118.35 1037.5
108.74 -113.92 998.7
96.77 -99.02 868.0
106.65 -106.65 934.9
114.22 -111.68 979.1
110.37 -105.57 925.5
126.20 -118.14 1035.7
130.32 -119.46 1047.2
126.60 -113.68 996.6
131.70 -115.90 1016.0
128.43 -110.80 971.3
130.11 -110.09 965.1
139.87 -116.12 1017.9
147.42 -120.12 1053.0
165.10 -132.08 1157.9
165.33 -129.90 1138.8
165.32 -127.61 1118.7
184.05 -134.97 1183.2
-331.42 -193.69 1660.2
-330.93 -195.95 1679.5
-330.72 -198.43 1700.8
-321.41 -195.45 1675.3
-311.30 -191.90 1644.8
-280.11 -180.07 1543.5
-269.59 -175.82 1507.0
-264.76 -175.21 1501.8
-259.28 -174.15 1492.7
-255.69 -174.33 1494.3
-244.00 -168.92 1447.9
-228.31 -160.53 1376.0
-224.84 -160.60 1376.5
-224.04 -162.61 1393.8
-216.32 -159.58 1367.8
-209.35 -157.01 1345.8
-203.98 -155.58 1333.5
-197.35 -153.12 1312.4
-197.94 -156.27 1339.5
-199.39 -160.23 1373.4
-190.86 -156.16 1338.5
-181.81 -151.50 1298.6
-176.34 -149.72 1283.3
-174.66 -151.15 1295.6
-174.36 -153.84 1318.7
-167.67 -150.91 1293.5
-162.62 -149.34 1280.1
-164.14 -153.88 1318.9
-162.93 -156.00 1337.1
-156.33 -152.94 1310.9
-149.07 -149.07 1277.7
-146.25 -149.57 1282.0
-142.30 -148.92 1276.5
-135.92 -145.62 1248.2
-133.03 -146.01 1251.5
-131.46 -147.89 1267.6
-128.01 -147.70 1266.0
-126.61 -149.93 1285.1
-126.15 -153.43 1315.1
-120.65 -150.81 1292.7
-114.90 -147.73 1266.2
-110.42 -146.15 1252.7
-108.04 -147.33 1262.9
-106.02 -149.10 1278.0
-101.54 -147.39 1263.4
-99.44 -149.16 1278.5
-97.19 -150.80 1292.6
-93.78 -150.72 1291.9
-91.70 -152.83 1309.9
-90.05 -155.86 1335.9
-85.64 -154.15 1321.3
-79.57 -149.20 1278.9
-77.93 -152.46 1306.8
-78.00 -159.54 1367.5
-74.79 -160.26 1373.7
-68.20 -153.45 1315.3
-65.97 -156.25 1339.3
-66.77 -166.92 1430.7
-60.18 -159.30 1365.4
-56.73 -159.55 1367.6
-56.08 -168.25 1442.1
-52.21 -167.80 1438.3
-44.10 -152.65 1308.4
-38.21 -143.28 1228.1
-32.68 -133.67 1145.8
-26.85 -120.82 1035.6
-25.26 -126.28 1082.4
-22.31 -125.47 1075.5
-17.82 -114.59 982.2
-15.74 -118.07 1012.0
-14.02 -126.18 1081.6
-12.20 -137.20 1176.0
-9.12 -136.85 1173.0
-5.73 -128.97 1105.5
-2.70 -121.33 1039.9
0.00 -122.60 1050.9
2.89 -130.25 1116.4
5.18 -116.57 999.2
6.65 -99.77 855.2
9.94 -111.82 958.4
13.60 -122.36 1048.8
16.30 -122.24 1047.8
20.71 -133.13 1141.1
23.42 -131.73 1129.1
22.85 -114.23 979.1
24.53 -110.40 946.3
28.23 -115.49 989.9
31.29 -117.33 1005.7
33.26 -115.12 986.8
36.35 -116.85 1001.6
39.52 -118.57 1016.3
41.41 -116.48 998.4
43.56 -115.31 988.3
46.40 -115.99 994.2
48.62 -115.16 987.1
50.97 -114.69 983.0
51.51 -110.39 946.2
54.75 -111.99 959.9
58.59 -114.64 982.6
54.34 -101.90 873.4
55.12 -99.22 850.5
65.53 -113.43 972.2
73.25 -122.08 1046.4
72.71 -116.85 1001.6
72.76 -112.90 967.7
80.95 -121.43 1040.8
84.03 -121.98 1045.6
78.27 -110.06 943.4
88.65 -120.89 1036.2
88.70 -117.40 1006.3
74.42 -95.68 820.1
77.63 -97.04 831.8
89.54 -108.90 933.4
95.34 -112.91 967.8
102.23 -117.95 1011.0
103.28 -116.19 995.9
111.30 -122.15 1047.0
126.10 -128.96 1105.4
112.81 -112.81 966.9
111.63 -109.21 936.1
126.16 -120.79 1035.4
144.51 -135.48 1161.2
155.11 -142.45 1221.0
149.54 -134.59 1153.6
135.68 -119.72 1026.2
124.10 -107.39 920.5
116.97 -99.32 851.3
142.14 -118.45 1015.3
172.49 -141.12 1209.6
184.41 -148.18 1270.2
190.68 -150.54 1290.3
187.51 -140.63 1205.4
-342.80 -204.79 1717.2
-330.48 -205.44 1722.6
-309.92 -195.29 1637.5
-290.20 -188.02 1576.5
-276.66 -181.81 1524.5
-262.34 -174.89 1466.5
-254.68 -172.29 1444.6
-250.71 -172.13 1443.3
-248.08 -172.90 1449.8
-247.39 -175.08 1468.0
-240.76 -173.05 1451.0
-224.93 -164.23 1377.1
-214.04 -158.80 1331.6
-215.33 -162.38 1361.5
-216.31 -165.83 1390.5
-206.33 -160.86 1348.9
-195.82 -155.30 1302.2
-194.69 -157.12 1317.5
-194.06 -159.40 1336.6
-189.54 -158.52 1329.2
-183.68 -156.47 1312.0
-179.80 -156.05 1308.5
-179.12 -158.45 1328.6
-175.74 -158.51 1329.1
-166.47 -153.16 1284.2
-157.57 -147.92 1240.3
-155.01 -148.55 1245.6
-157.72 -154.36 1294.3
-154.99 -154.99 1299.6
-147.87 -151.16 1267.5
-145.19 -151.79 1272.8
-144.13 -154.19 1292.9
-140.39 -153.76 1289.3
-136.56 -153.21 1284.7
-134.08 -154.20 1293.0
-132.86 -156.71 1314.0
-134.16 -162.41 1361.8
-131.23 -163.15 1368.1
-122.92 -157.06 1317.0
-117.11 -153.91 1290.6
-112.92 -152.77 1281.0
-109.37 -152.45 1278.3
-106.24 -152.72 1280.6
-100.47 -149.09 1250.1
-97.10 -148.88 1248.4
-95.52 -151.51 1270.4
-92.96 -152.72 1280.6
-91.81 -156.41 1311.5
-91.03 -161.05 1350.4
-88.95 -163.67 1372.4
-85.35 -163.58 1371.6
-81.57 -163.13 1367.9
-79.11 -165.40 1386.9
-78.17 -171.22 1435.7
-73.99 -170.18 1427.0
-67.32 -162.99 1366.7
-62.77 -160.41 1345.0
-57.98 -156.87 1315.4
-56.63 -162.81 1365.2
-56.30 -172.65 1447.7
-53.27 -175.03 1467.6
-40.34 -142.73 1196.8
-31.22 -119.67 1003.4
-35.24 -147.37 1235.7
-32.52 -166.22 1393.7
-20.61 -118.51 993.7
-17.48 -114.85 963.0
-15.49 -118.76 995.8
-13.10 -120.54 1010.8
-11.03 -126.82 1063.4
-8.69 -133.22 1117.1
-5.69 -130.85 1097.2
-2.72 -124.93 1047.6
0.00 -128.72 1079.4
2.85 -130.97 1098.2
4.76 -109.54 918.5
6.29 -96.51 809.2
10.22 -117.58 986.0
12.96 -119.24 999.8
14.44 -110.71 928.3
18.31 -120.30 1008.7
20.41 -117.33 983.8
21.10 -107.85 904.3
23.26 -107.02 897.3
26.81 -112.10 940.0
29.77 -114.10 956.8
30.74 -108.77 912.0
32.60 -107.10 898.0
37.78 -115.85 971.4
42.10 -121.04 1014.9
41.10 -111.21 932.5
40.18 -102.68 861.0
43.38 -105.03 880.7
46.48 -106.91 896.5
50.53 -110.68 928.1
57.45 -120.12 1007.2
61.23 -122.47 1026.9
56.30 -107.91 904.9
55.30 -101.75 853.2
63.18 -111.78 937.2
71.98 -122.62 1028.2
73.76 -121.18 1016.1
72.44 -114.90 963.5
77.93 -119.49 1001.9
84.80 -125.84 1055.1
84.56 -121.56 1019.3
78.22 -109.03 914.2
77.05 -98.46 825.6
90.27 -112.23 941.0
98.24 -118.92 997.1
102.10 -120.42 1009.7
101.20 -116.38 975.9
113.05 -126.83 1063.5
130.79 -136.73 1146.5
119.22 -121.87 1021.9
117.72 -117.72 987.1
123.84 -121.21 1016.3
131.83 -126.34 1059.4
141.17 -132.53 1111.3
134.94 -124.15 1041.0
124.45 -112.25 941.2
116.36 -102.94 863.1
143.47 -122.22 1024.8
185.33 -155.01 1299.7
-284.77 -185.89 1525.6
-272.14 -180.15 1478.4
-267.18 -179.39 1472.2
-259.99 -177.09 1453.3
-254.61 -175.98 1444.2
-251.65 -176.53 1448.7
-241.14 -171.72 1409.2
-233.29 -168.69 1384.4
-235.33 -172.82 1418.3
-226.46 -168.95 1386.5
-215.24 -163.16 1339.0
-216.04 -166.45 1366.0
-218.68 -171.30 1405.8
-209.87 -167.18 1372.0
-201.37 -163.18 1339.1
-202.47 -166.95 1370.1
-199.28 -167.25 1372.6
-192.14 -164.20 1347.5
-187.20 -162.94 1337.2
-184.48 -163.59 1342.5
-179.47 -162.21 1331.2
-171.65 -158.19 1298.2
-168.59 -158.48 1300.6
-165.27 -158.53 1301.0
-158.15 -154.86 1270.9
-156.23 -156.23 1282.1
-157.42 -160.84 1320.0
-153.81 -160.65 1318.4
-150.89 -161.17 1322.7
-150.36 -164.35 1348.7
-146.04 -163.43 1341.2
-141.24 -161.91 1328.7
-137.32 -161.35 1324.2
-134.42 -161.99 1329.4
-132.47 -163.84 1344.6
-126.26 -160.39 1316.3
-122.24 -159.58 1309.7
-120.57 -161.91 1328.8
-116.37 -160.86 1320.2
-112.63 -160.42 1316.5
-110.15 -161.78 1327.7
-104.58 -158.55 1301.2
-100.61 -157.62 1293.6
-98.69 -159.94 1312.6
-94.73 -159.01 1304.9
-91.85 -159.88 1312.1
-93.40 -168.84 1385.6
-93.87 -176.47 1448.3
-91.61 -179.40 1472.3
-89.64 -183.17 1503.2
-83.66 -178.73 1466.8
-79.01 -176.82 1451.1
-78.03 -183.37 1504.9
-75.02 -185.57 1522.9
-68.35 -178.46 1464.6
-61.76 -170.75 1401.3
-59.04 -173.43 1423.3
-57.36 -179.73 1475.0
-53.65 -180.11 1478.1
-38.52 -139.26 1142.9
-25.31 -99.14 813.6
-23.94 -102.29 839.5
-29.05 -136.52 1120.3
-26.10 -136.28 1118.4
-19.29 -113.31 929.9
-14.97 -100.50 824.8
-15.62 -122.39 1004.4
-15.52 -145.86 1197.0
-12.40 -145.75 1196.1
-9.13 -143.09 1174.3
-5.83 -136.92 1123.7
-2.74 -128.82 1057.2
0.00 -102.09 837.8
6.81 -106.68 875.5
10.72 -125.91 1033.3
13.23 -124.33 1020.4
12.40 -97.12 797.0
14.72 -98.81 810.9
18.59 -109.20 896.2
20.72 -108.23 888.2
23.03 -108.22 888.1
26.85 -114.74 941.7
30.00 -117.51 964.4
31.10 -112.43 922.7
31.79 -106.74 875.9
35.80 -112.16 920.5
42.87 -125.93 1033.5
45.28 -125.19 1027.4
42.71 -111.52 915.2
43.27 -107.04 878.4
44.57 -104.73 859.5
45.93 -102.78 843.5
55.74 -119.07 977.2
63.44 -124.23 1019.5
64.72 -121.67 998.5
66.23 -119.72 982.5
66.41 -115.60 948.7
72.30 -121.37 996.0
75.02 -121.59 997.8
72.28 -113.24 929.3
69.27 -105.02 861.9
66.89 -98.25 806.3
75.36 -101.19 830.5
84.13 -109.84 901.4
88.63 -112.59 924.0
96.16 -118.94 976.1
99.37 -119.75 982.8
93.19 -109.49 898.6
96.96 -111.15 912.2
111.65 -124.95 1025.4
114.17 -124.79 1024.1
118.48 -126.56 1038.6
121.14 -126.52 1038.3
110.74 -113.15 928.6
106.75 -106.75 876.1
106.78 -104.56 858.1
106.47 -102.13 838.1
128.52 -120.81 991.4
148.87 -137.20 1125.9
141.26 -127.68 1047.8
142.17 -126.08 1034.7
142.60 -124.12 1018.6
155.71 -133.06 1092.0
-285.59 -190.40 1530.0
-268.46 -181.49 1458.4
-260.72 -178.78 1436.6
-260.61 -181.29 1456.8
-260.73 -184.05 1479.0
-255.99 -183.40 1473.7
-242.90 -176.66 1419.6
-233.55 -172.47 1385.9
-234.60 -175.95 1413.9
-230.71 -175.78 1412.5
-223.68 -173.17 1391.5
-213.65 -168.11 1350.9
-207.17 -165.74 1331.8
-209.50 -170.44 1369.6
-211.05 -174.66 1403.5
-205.60 -173.14 1391.3
-196.36 -168.31 1352.5
-191.38 -167.03 1342.2
-188.25 -167.33 1344.6
-182.53 -165.31 1328.4
-175.03 -161.57 1298.3
-170.55 -160.52 1289.9
-170.58 -163.76 1315.9
-171.35 -167.86 1348.8
-168.15 -168.15 1351.2
-159.78 -163.18 1311.3
-154.66 -161.39 1296.9
-155.95 -166.34 1336.7
-158.04 -172.40 1385.4
-154.38 -172.33 1384.8
-146.64 -167.59 1346.7
-141.72 -165.92 1333.3
-137.28 -164.73 1323.7
-132.28 -162.81 1308.3
-128.05 -161.74 1299.7
-123.29 -159.94 1285.2
-120.26 -160.35 1288.5
-119.46 -163.83 1316.5
-115.64 -163.25 1311.8
-112.01 -162.92 1309.2
-109.62 -164.43 1321.3
-105.26 -162.99 1309.7
-102.50 -164.00 1317.9
-101.26 -167.61 1346.8
-97.86 -167.76 1348.1
-94.31 -167.67 1347.3
-94.91 -175.21 1408.0
-96.15 -184.61 1483.5
-94.66 -189.32 1521.3
-88.66 -193.45 1554.5
-79.04 -180.65 1451.7
-72.71 -174.51 1402.3
-71.97 -181.81 1461.0
-67.72 -180.60 1451.2
-57.15 -161.37 1296.7
-51.21 -153.62 1234.4
-53.56 -171.40 1377.3
-49.87 -184.15 1479.8
-34.96 -139.85 1123.8
-24.64 -107.52 864.0
-22.86 -109.75 881.9
-24.26 -129.38 1039.7
-20.68 -124.08 997.1
-14.37 -114.96 923.8
-14.21 -136.45 1096.5
-10.85 -130.15 1045.9
-8.27 -132.26 1062.8
-5.54 -133.00 1068.7
-2.66 -127.44 1024.1
0.00 -104.72 841.5
3.97 -95.33 766.1
7.02 -112.37 903.0
10.89 -130.65 1049.8
14.55 -139.66 1122.3
15.25 -122.00 980.3
15.40 -105.57 848.3
17.00 -101.98 819.5
20.53 -109.51 880.0
24.59 -118.02 948.4
29.02 -126.65 1017.7
32.89 -131.58 1057.3
31.32 -115.65 929.3
29.59 -101.44 815.2
33.43 -106.99 859.7
41.42 -124.25 998.4
46.01 -129.91 1043.9
45.70 -121.88 979.4
46.19 -116.68 937.6
47.17 -113.22 909.8
46.94 -107.28 862.1
54.36 -118.61 953.1
63.68 -132.89 1067.9
59.78 -119.56 960.7
63.99 -122.87 987.3
68.08 -125.68 1009.9
65.35 -116.17 933.5
68.11 -116.77 938.3
70.53 -116.75 938.1
67.33 -107.73 865.7
65.67 -101.68 817.1
65.15 -97.72 785.3
70.06 -98.91 794.8
83.32 -114.26 918.2
88.07 -117.43 943.7
89.74 -116.42 935.5
94.87 -119.83 962.9
95.14 -117.10 941.0
84.86 -101.84 818.3
88.12 -103.16 829.0
108.61 -124.13 997.5
103.91 -115.99 932.1
101.57 -110.81 890.4
106.73 -113.84 914.8
98.96 -103.26 829.8
103.24 -105.44 847.2
112.39 -112.39 903.1
109.69 -107.45 863.5
130.14 -124.93 1003.9
161.19 -151.71 1219.1
164.29 -151.66 1218.7
156.45 -141.69 1138.6
151.37 -134.55 1081.2
130.44 -113.84 914.8
127.06 -108.91 875.1
171.21 -144.18 1158.6
-325.35 -209.77 1651.2
-271.41 -177.32 1395.8
-288.30 -190.90 1502.7
-296.25 -201.61 1587.0
-285.80 -197.24 1552.6
-268.08 -187.66 1477.2
-260.18 -184.76 1454.4
-258.07 -185.96 1463.8
-250.82 -183.43 1443.9
-242.83 -180.28 1419.1
-237.93 -179.36 1411.9
-235.18 -180.06 1417.4
-228.24 -177.52 1397.4
-221.72 -175.23 1379.3
-212.34 -170.57 1342.7
-202.99 -165.78 1304.9
-202.39 -168.08 1323.1
-207.14 -175.00 1377.6
-204.52 -175.81 1384.0
-194.87 -170.52 1342.3
-189.50 -168.83 1329.0
-185.57 -168.39 1325.5
-179.36 -165.83 1305.3
-172.99 -163.01 1283.2
-169.59 -162.94 1282.6
-170.53 -167.12 1315.5
-172.42 -172.42 1357.3
-169.33 -172.85 1360.7
-161.05 -167.90 1321.7
-152.62 -162.57 1279.7
-150.61 -164.00 1290.9
-152.48 -169.80 1336.7
-148.73 -169.48 1334.1
-143.80 -167.77 1320.6
-141.57 -169.19 1331.9
-136.82 -167.61 1319.4
-131.54 -165.27 1301.0
-128.49 -165.69 1304.3
-124.67 -165.10 1299.6
-119.85 -163.13 1284.1
-116.82 -163.55 1287.4
-115.42 -166.35 1309.4
-114.08 -169.40 1333.5
-110.98 -169.94 1337.7
-106.02 -167.58 1319.2
-105.78 -172.77 1360.0
-107.03 -180.85 1423.6
-100.70 -176.23 1387.2
-94.21 -170.98 1345.9
-94.61 -178.30 1403.6
-95.03 -186.26 1466.2
-89.39 -182.51 1436.7
-83.73 -178.39 1404.2
-81.80 -182.19 1434.2
-75.56 -176.30 1387.8
-67.45 -165.25 1300.8
-65.21 -168.17 1323.8
-65.07 -177.13 1394.3
-59.14 -170.47 1341.9
-49.79 -152.49 1200.3
-47.19 -154.14 1213.3
-42.39 -148.36 1167.9
-35.25 -132.88 1046.0
-35.32 -144.23 1135.3
-32.13 -143.11 1126.5
-25.38 -124.34 978.8
-24.74 -134.68 1060.2
-21.21 -129.90 1022.6
-14.87 -104.08 819.3
-13.83 -112.90 888.8
-12.49 -122.36 963.2
-10.17 -124.63 981.1
-7.98 -130.31 1025.7
-5.36 -131.44 1034.7
-2.58 -126.28 994.0
0.00 -126.02 992.0
2.61 -128.04 1007.9
5.24 -128.29 1009.9
8.17 -133.46 1050.5
11.04 -135.22 1064.4
12.65 -124.00 976.1
13.45 -109.88 864.9
19.81 -107.85 848.9
24.48 -119.94 944.1
29.69 -132.27 1041.2
32.79 -133.90 1054.0
30.54 -115.12 906.2
29.11 -101.89 802.0
33.38 -109.06 858.5
39.14 -119.87 943.6
41.93 -120.87 951.4
43.15 -117.45 924.6
45.25 -116.69 918.5
49.62 -121.58 957.0
53.18 -124.08 976.7
55.70 -124.06 976.6
56.98 -121.40 955.6
55.14 -112.58 886.2
58.65 -114.95 904.8
66.72 -125.74 989.8
70.18 -127.36 1002.5
72.62 -127.08 1000.3
74.75 -126.30 994.2
74.24 -121.25 954.5
74.79 -118.21 930.5
75.22 -115.17 906.6
75.94 -112.76 887.6
78.66 -113.37 892.4
84.10 -117.73 926.8
91.37 -124.36 978.9
100.13 -132.61 1043.9
94.16 -121.41 955.7
78.75 -98.94 778.8
103.61 -123.83 974.7
133.67 -152.32 1199.0
113.68 -126.60 996.6
107.84 -117.43 924.4
106.45 -113.39 892.6
116.29 -121.23 954.3
130.36 -133.08 1047.6
132.91 -132.91 1046.2
129.71 -127.12 1000.7
136.04 -130.70 1028.8
152.71 -143.90 1132.7
161.81 -149.59 1177.6
161.09 -146.17 1150.6
143.14 -127.53 1003.9
133.43 -116.75 919.1
170.87 -146.89 1156.2
-276.82 -184.55 1423.6
-301.11 -203.45 1569.5
-311.45 -216.28 1668.5
-281.28 -200.92 1549.9
-256.60 -185.94 1434.4
-240.59 -176.91 1364.7
-242.42 -180.91 1395.6
-241.58 -183.02 1411.8
-233.57 -179.67 1386.0
-228.77 -178.73 1378.8
-223.85 -177.66 1370.5
-219.29 -176.84 1364.2
-214.13 -175.52 1354.0
-207.50 -172.92 1333.9
-204.87 -173.62 1339.3
-207.37 -178.77 1379.1
-205.61 -180.36 1391.4
-196.52 -175.47 1353.6
-190.98 -173.62 1339.4
-187.30 -173.43 1337.9
-181.87 -171.58 1323.6
-176.51 -169.72 1309.3
-170.32 -166.98 1288.1
-169.33 -169.33 1306.2
-169.74 -173.21 1336.2
-164.37 -171.22 1320.8
-160.88 -171.15 1320.3
-157.03 -170.69 1316.7
-151.02 -167.80 1294.5
-149.28 -169.64 1308.6
-148.57 -172.75 1332.7
-146.66 -174.59 1346.8
-141.53 -172.59 1331.4
-134.22 -167.78 1294.3
-131.90 -169.10 1304.5
-131.95 -173.62 1339.4
-129.93 -175.58 1354.5
-126.63 -175.88 1356.8
-121.98 -174.26 1344.3
-118.87 -174.81 1348.5
-116.75 -176.90 1364.6
-112.58 -175.91 1357.0
-107.90 -174.02 1342.5
-107.59 -179.31 1383.3
-111.83 -192.81 1487.4
-108.28 -193.36 1491.6
-97.72 -180.95 1395.9
-94.25 -181.24 1398.2
-95.06 -190.12 1466.7
-89.92 -187.33 1445.1
-83.83 -182.23 1405.8
-81.32 -184.82 1425.8
-77.69 -184.98 1427.0
-72.56 -181.41 1399.4
-69.38 -182.59 1408.5
-68.84 -191.21 1475.1
-60.61 -178.26 1375.2
-49.20 -153.75 1186.1
-44.01 -146.70 1131.7
-38.45 -137.34 1059.4
-32.30 -124.24 958.4
-30.87 -128.62 992.2
-33.16 -150.73 1162.8
-30.89 -154.47 1191.6
-28.96 -160.91 1241.3
-23.65 -147.81 1140.2
-17.35 -123.91 955.8
-15.02 -125.20 965.8
-13.87 -138.70 1070.0
-12.36 -154.51 1192.0
-8.33 -138.83 1071.0
-4.87 -121.87 940.1
-2.61 -130.74 1008.6
0.00 -149.25 1151.4
2.72 -135.75 1047.2
4.97 -124.31 959.0
8.40 -139.99 1079.9
11.82 -147.70 1139.4
13.34 -133.43 1029.3
13.60 -113.37 874.6
14.38 -102.70 792.2
17.46 -109.12 841.8
20.89 -116.05 895.3
24.73 -123.63 953.7
27.28 -124.01 956.6
27.54 -114.74 885.2
30.27 -116.40 898.0
33.92 -121.15 934.6
36.69 -122.29 943.4
40.65 -127.03 980.0
42.66 -125.48 968.0
43.09 -119.68 923.3
44.11 -116.07 895.4
47.40 -118.50 914.1
53.43 -127.21 981.3
57.94 -131.69 1015.9
59.86 -130.13 1003.8
59.25 -123.43 952.2
58.50 -117.00 902.6
61.50 -118.26 912.3
67.17 -124.40 959.6
72.52 -129.50 999.0
73.83 -127.30 982.0
71.91 -119.84 924.5
75.64 -122.00 941.1
79.21 -123.77 954.8
78.62 -119.13 919.0
80.38 -118.20 911.9
87.47 -124.96 964.0
95.48 -132.62 1023.0
95.37 -128.87 994.2
83.72 -110.16 849.8
82.11 -105.27 812.1
95.65 -119.57 922.4
99.49 -121.33 935.9
103.28 -122.95 948.5
112.85 -131.23 1012.3
111.62 -126.85 978.5
117.46 -130.51 1006.8
127.20 -138.26 1066.6
133.88 -142.43 1098.7
143.18 -149.15 1150.6
144.24 -147.19 1135.4
138.85 -138.85 1071.1
134.04 -131.41 1013.8
139.81 -134.43 1037.0
158.11 -149.16 1150.6
169.70 -157.13 1212.1
145.62 -132.38 1021.2
132.96 -118.72 915.8
167.04 -146.53 1130.4
193.47 -163.96 1264.8
-261.93 -193.60 1464.2
-250.16 -187.62 1419.0
-255.75 -194.67 1472.3
-254.21 -196.44 1485.7
-245.52 -192.64 1457.0
-238.60 -190.13 1438.0
-231.61 -187.49 1418.0
-230.54 -189.64 1434.3
-228.77 -191.27 1446.6
-218.56 -185.77 1405.0
-212.30 -183.51 1387.9
-206.42 -181.51 1372.8
-197.14 -176.39 1334.0
-199.74 -181.90 1375.7
-204.92 -190.01 1437.1
-194.25 -183.46 1387.5
-182.76 -175.86 1330.0
-179.63 -176.18 1332.5
-176.11 -176.11 1331.9
-174.75 -178.25 1348.1
-174.56 -181.69 1374.1
-167.62 -178.10 1347.0
-162.50 -176.33 1333.6
-164.14 -181.98 1376.4
-163.26 -185.03 1399.4
-156.99 -181.96 1376.2
-152.25 -180.58 1365.7
-149.18 -181.15 1370.0
-142.84 -177.68 1343.8
-135.51 -172.77 1306.7
-133.55 -174.64 1320.8
-133.37 -178.99 1353.7
-131.21 -180.86 1367.9
-127.70 -180.91 1368.2
-122.75 -178.86 1352.7
-120.75 -181.12 1369.8
-119.76 -185.08 1399.7
-114.84 -183.03 1384.2
-109.21 -179.67 1358.8
-106.32 -180.75 1367.0
-107.56 -189.15 1430.5
-106.38 -193.76 1465.4
-98.17 -185.43 1402.4
-95.68 -187.68 1419.5
-97.66 -199.23 1506.8
-92.60 -196.77 1488.2
-86.69 -192.22 1453.8
-84.79 -196.57 1486.7
-81.49 -197.91 1496.8
-74.69 -190.47 1440.5
-69.90 -187.62 1418.9
-69.04 -195.63 1479.5
-61.29 -183.86 1390.6
-49.18 -156.77 1185.7
-42.65 -145.00 1096.6
-39.88 -145.28 1098.7
-35.23 -138.21 1045.3
-32.37 -137.57 1040.4
-31.51 -146.10 1104.9
-30.58 -155.94 1179.3
-30.11 -170.62 1290.4
-26.72 -170.37 1288.5
-21.17 -154.26 1166.7
-16.93 -143.91 1088.4
-15.51 -158.20 1196.5
-12.94 -165.02 1248.1
-7.21 -122.56 926.9
-4.29 -109.32 826.8
-2.35 -119.81 906.1
0.00 -145.89 1103.4
2.81 -143.53 1085.5
4.07 -103.82 785.2
9.91 -126.36 955.6
13.72 -139.98 1058.7
15.06 -128.05 968.5
17.04 -124.11 938.7
19.63 -125.16 946.6
22.46 -127.25 962.4
25.72 -131.17 992.0
27.27 -126.44 956.3
28.18 -119.75 905.7
31.89 -125.11 946.2
35.92 -130.87 989.7
39.56 -134.52 1017.4
39.90 -127.17 961.8
38.11 -114.32 864.6
42.56 -120.60 912.1
48.04 -128.96 975.3
49.23 -125.54 949.5
52.33 -127.09 961.2
57.41 -133.10 1006.6
60.31 -133.73 1011.4
58.67 -124.68 943.0
57.13 -116.55 881.5
55.81 -109.47 827.9
57.53 -108.67 821.9
66.11 -120.41 910.7
71.28 -125.36 948.1
71.50 -121.54 919.2
77.76 -127.92 967.5
80.99 -129.07 976.2
79.87 -123.43 933.5
81.66 -122.49 926.4
88.97 -129.64 980.5
95.45 -135.22 1022.7
92.49 -127.49 964.2
84.47 -113.37 857.4
85.48 -111.78 845.4
92.55 -118.01 892.5
90.55 -112.63 851.8
96.49 -117.16 886.1
106.99 -126.90 959.8
104.73 -121.39 918.1
110.99 -125.79 951.3
122.46 -135.77 1026.8
129.04 -140.03 1059.0
140.69 -149.48 1130.5
144.20 -150.08 1135.1
143.91 -146.78 1110.1
142.58 -142.58 1078.3
140.42 -137.72 1041.6
149.28 -143.65 1086.4
167.03 -157.75 1193.1
151.31 -140.30 1061.1
136.34 -124.17 939.1
173.08 -154.86 1171.2
-279.13 -210.36 1560.3
-261.43 -199.92 1482.9
-259.40 -201.32 1493.3
-250.79 -197.59 1465.6
-241.98 -193.59 1435.9
-235.11 -191.03 1417.0
-230.58 -190.32 1411.7
-231.88 -194.48 1442.6
-231.64 -197.46 1464.7
-222.60 -192.92 1431.0
-209.08 -184.28 1366.9
-196.92 -176.55 1309.6
-194.76 -177.67 1317.9
-203.80 -189.24 1403.7
-204.29 -193.15 1432.7
-188.28 -181.30 1344.8
-180.67 -177.26 1314.9
-182.22 -182.22 1351.7
-179.56 -183.08 1358.0
-179.28 -186.45 1383.0
-177.75 -188.63 1399.2
-169.28 -183.39 1360.3
-163.53 -180.92 1342.0
-164.79 -186.29 1381.8
-163.21 -188.60 1398.9
-156.37 -184.80 1370.8
-150.34 -181.80 1348.5
-146.02 -180.79 1341.0
-145.62 -184.69 1370.0
-144.05 -187.26 1389.1
-138.29 -184.39 1367.7
-134.68 -184.30 1367.1
-129.18 -181.55 1346.7
-122.41 -176.81 1311.5
-118.41 -175.92 1304.9
-117.40 -179.55 1331.8
-121.66 -191.70 1422.0
-122.18 -198.54 1472.7
-115.29 -193.38 1434.4
-111.05 -192.49 1427.8
-105.88 -189.86 1408.3
-97.88 -181.77 1348.3
-94.12 -181.27 1344.6
-96.52 -193.03 1431.8
-99.42 -206.80 1533.9
-94.91 -205.63 1525.3
-87.31 -197.39 1464.2
-83.86 -198.22 1470.3
-81.79 -202.52 1502.2
-75.80 -197.08 1461.8
-69.09 -189.09 1402.6
-66.48 -192.05 1424.6
-61.79 -189.01 1402.0
-51.55 -167.53 1242.7
-50.26 -174.23 1292.3
-53.63 -199.21 1477.7
-42.73 -170.92 1267.8
-34.52 -149.57 1109.4
-36.98 -174.82 1296.7
-26.02 -169.11 1254.4
-19.83 -147.34 1092.9
-14.92 -129.32 959.2
-14.10 -146.69 1088.1
-11.78 -153.10 1135.7
-7.58 -131.46 975.1
-4.59 -119.31 885.0
