ply
format ascii 1.0
element vertex 2248
property float x
property float y
property float z
end_header
240.36 666.25 1626.5
-467.45 780.73 1918.1
-428.27 723.00 1776.3
-424.10 723.74 1778.1
-411.38 709.74 1743.7
-395.23 689.45 1693.8
-375.15 661.78 1625.8
-356.64 636.28 1563.2
-353.98 638.80 1569.4
-367.88 671.60 1650.0
-370.57 684.47 1681.6
-357.49 668.16 1641.5
-344.80 652.20 1602.3
-333.65 638.82 1569.4
-331.07 641.70 1576.5
-331.65 650.87 1599.0
-327.65 651.16 1599.8
-328.80 661.82 1625.9
-329.27 671.37 1649.4
-309.34 639.02 1569.9
-293.87 615.17 1511.3
-299.52 635.47 1561.2
-300.78 646.88 1589.2
-298.82 651.60 1600.8
-296.30 655.20 1609.7
-286.77 643.19 1580.2
-278.05 632.66 1554.3
-275.41 635.88 1562.2
-275.44 645.42 1585.7
-272.68 648.64 1593.6
-275.28 664.90 1633.5
-279.80 686.38 1686.3
-273.13 680.66 1672.2
-261.23 661.51 1625.2
-257.98 663.98 1631.3
-260.40 681.37 1674.0
-253.76 675.25 1659.0
-239.88 649.34 1595.3
-235.55 648.80 1594.0
-237.36 665.45 1634.9
-237.25 677.25 1663.8
-236.35 687.18 1688.2
-225.23 667.19 1639.1
-217.82 657.66 1615.7
-217.47 669.46 1644.7
-209.21 656.92 1613.9
-203.45 651.86 1601.5
-198.09 647.92 1591.8
-186.28 622.25 1528.7
-182.91 624.29 1533.7
-188.65 658.19 1617.0
-191.76 684.22 1681.0
-193.09 705.02 1732.1
-188.15 703.31 1727.9
-178.91 685.09 1683.1
-177.55 696.89 1712.1
-172.87 695.92 1709.7
-163.84 676.92 1663.1
-158.32 671.81 1650.5
-155.97 680.21 1671.1
-152.93 685.99 1685.3
-147.12 679.36 1669.0
-143.45 682.50 1676.7
-140.51 689.39 1693.7
-134.81 682.75 1677.4
-130.99 685.50 1684.1
-131.23 710.44 1745.4
-120.32 726.58 1785.0
-114.52 719.16 1766.8
-110.24 721.14 1771.7
-103.51 706.56 1735.9
-97.70 697.24 1713.0
-88.49 661.55 1625.3
-85.15 668.41 1642.1
-79.99 660.95 1623.8
-64.81 635.91 1562.3
-60.26 630.69 1549.5
-62.19 697.44 1713.5
-59.84 722.74 1775.6
-51.82 677.95 1665.6
-47.05 671.58 1649.9
-42.66 669.74 1645.4
-34.57 603.06 1481.6
-26.72 524.31 1288.1
-25.63 574.85 1412.3
-19.87 623.89 1532.8
-14.97 587.72 1443.9
-10.52 550.41 1352.2
-6.32 495.75 1218.0
-2.96 464.84 1142.0
0.00 419.23 1029.9
2.60 407.92 1002.2
5.85 459.56 1129.0
9.54 499.52 1227.2
11.96 469.35 1153.1
16.04 503.64 1237.3
22.07 577.51 1418.8
25.87 580.13 1425.2
31.37 547.28 1344.5
31.30 491.47 1207.4
33.48 477.87 1174.0
38.05 497.81 1223.0
42.00 507.20 1246.1
45.26 507.54 1246.9
49.85 521.81 1282.0
53.90 528.92 1299.4
54.62 504.39 1239.2
52.42 457.25 1123.4
53.78 444.40 1091.8
58.28 457.53 1124.1
59.18 442.42 1086.9
61.83 441.23 1084.0
72.63 495.76 1218.0
81.93 535.96 1316.7
77.90 489.22 1201.9
69.73 421.05 1034.4
76.67 445.81 1095.3
85.73 480.72 1181.0
87.39 473.12 1162.4
91.68 479.81 1178.8
98.14 497.02 1221.1
92.47 453.70 1114.7
91.95 437.46 1074.7
106.84 493.36 1212.1
113.56 509.42 1251.5
113.60 495.42 1217.1
121.42 515.22 1265.8
122.31 505.35 1241.5
124.85 502.61 1234.8
146.00 573.05 1407.8
152.02 568.28 1396.1
140.30 512.26 1258.5
155.51 554.88 1363.2
150.51 525.12 1290.1
152.28 519.74 1276.9
166.54 556.32 1366.7
177.82 581.63 1428.9
186.27 596.83 1466.3
174.52 548.00 1346.3
165.32 508.92 1250.3
198.74 600.05 1474.2
225.10 666.82 1638.2
218.61 635.58 1561.5
223.50 638.00 1567.4
242.96 681.14 1673.4
-417.08 699.62 1729.8
-392.73 665.93 1646.5
-377.54 647.22 1600.3
-361.32 626.29 1548.5
-361.46 633.56 1566.5
-360.05 638.28 1578.2
-353.68 634.18 1568.0
-363.54 659.45 1630.5
-366.49 672.62 1663.1
-353.84 657.13 1624.8
-331.99 623.98 1542.8
-325.05 626.02 1547.9
-340.06 663.12 1639.6
-345.85 682.94 1688.6
-335.75 680.21 1681.8
-297.93 611.53 1512.0
-290.50 612.41 1514.2
-293.95 628.18 1553.2
-294.14 637.30 1575.7
-291.35 640.14 1582.8
-281.38 627.08 1550.5
-277.47 627.33 1551.1
-279.52 641.26 1585.5
-282.36 657.42 1625.5
-282.32 667.30 1649.9
-277.68 666.43 1647.8
-275.48 671.49 1660.3
-275.17 681.37 1684.7
-269.72 678.65 1678.0
-261.11 667.75 1651.0
-258.34 671.69 1660.8
-255.67 676.00 1671.4
-245.48 660.26 1632.5
-242.14 662.70 1638.6
-245.17 682.98 1688.7
-231.17 655.69 1621.2
-216.74 626.15 1548.2
-218.86 644.19 1592.8
-224.96 674.89 1668.7
-231.53 708.21 1751.1
-229.56 716.23 1770.9
-213.92 681.06 1683.9
-199.19 647.35 1600.6
-189.92 630.39 1558.7
-189.56 642.85 1589.5
-192.37 666.88 1648.9
-191.93 680.47 1682.5
-189.26 686.61 1697.7
-179.88 668.12 1651.9
-173.19 658.95 1629.3
-174.17 679.26 1679.5
-170.69 682.77 1688.2
-162.71 667.99 1651.6
-156.78 661.03 1634.4
-153.87 666.78 1648.6
-152.81 681.11 1684.1
-148.88 683.11 1689.0
-144.85 684.74 1693.0
-141.48 689.73 1705.4
-133.45 671.53 1660.4
-127.29 661.93 1636.6
-124.04 667.27 1649.9
-124.35 692.82 1713.0
-130.10 751.67 1858.5
-117.50 733.18 1812.8
-110.11 715.70 1769.6
-99.74 676.48 1672.6
-90.82 644.00 1592.3
-84.59 628.35 1553.6
-83.54 651.64 1611.2
-84.03 689.92 1705.8
-75.72 656.28 1622.7
-68.54 629.00 1555.2
-65.06 634.30 1568.3
-61.28 637.36 1575.9
-63.16 703.74 1740.0
-57.09 685.06 1693.8
-45.03 585.41 1447.4
-45.38 643.55 1591.2
-45.44 708.81 1752.5
-38.69 670.61 1658.1
-31.35 611.41 1511.7
-25.99 579.20 1432.1
-22.25 578.47 1430.3
-18.13 565.74 1398.8
-15.02 585.63 1448.0
-10.45 543.65 1344.2
-6.31 492.29 1217.2
-3.14 490.42 1212.6
0.00 449.18 1110.6
2.59 404.18 999.4
5.44 424.43 1049.4
9.08 472.41 1168.1
11.93 465.28 1150.4
15.38 479.89 1186.5
20.01 520.36 1286.6
33.71 525.89 1300.3
35.92 509.37 1259.4
40.42 525.45 1299.2
44.35 532.15 1315.8
48.02 535.11 1323.1
48.67 506.21 1251.6
47.84 466.46 1153.3
56.01 513.99 1270.9
59.78 518.06 1280.9
56.20 461.45 1140.9
56.90 443.79 1097.3
59.43 441.49 1091.6
63.94 453.42 1121.1
75.29 510.64 1262.6
85.81 557.73 1379.0
88.83 554.29 1370.5
87.00 522.02 1290.7
80.88 467.32 1155.5
77.75 433.20 1071.1
80.38 432.38 1069.1
86.23 448.39 1108.7
95.33 479.72 1186.1
93.02 453.46 1121.2
89.27 421.98 1043.4
98.47 451.80 1117.1
102.02 454.70 1124.2
99.99 433.31 1071.4
108.60 457.87 1132.1
112.96 463.75 1146.6
124.50 497.99 1231.3
148.54 551.73 1364.2
134.88 489.31 1209.8
143.24 507.84 1255.6
138.50 480.12 1187.1
139.56 473.29 1170.2
148.39 492.54 1217.8
152.88 496.87 1228.5
167.02 531.74 1314.7
164.06 511.86 1265.6
154.64 473.01 1169.5
186.64 559.93 1384.4
204.26 590.08 1459.0
237.99 675.02 1669.0
-473.89 765.13 1904.0
-463.18 755.72 1880.6
-464.06 765.20 1904.2
-434.25 723.75 1801.0
-409.06 689.17 1715.0
-394.12 671.31 1670.5
-385.12 663.26 1650.5
-393.59 685.46 1705.8
-387.91 683.25 1700.2
-376.11 670.07 1667.5
-374.19 674.41 1678.3
-366.61 668.52 1663.6
-361.67 667.37 1660.7
-345.39 645.01 1605.1
-320.29 605.44 1506.6
-327.05 625.84 1557.4
-343.95 666.40 1658.3
-350.25 687.21 1710.1
-350.95 697.40 1735.5
-322.01 648.21 1613.1
-299.26 610.34 1518.8
-299.36 618.67 1539.6
-298.82 625.91 1557.6
-296.11 628.73 1564.6
-287.40 618.70 1539.6
-274.93 600.21 1493.6
-275.15 609.27 1516.2
-281.81 633.05 1575.3
-281.71 642.13 1597.9
-282.60 653.78 1626.9
-281.63 661.39 1645.9
-275.61 657.22 1635.5
-272.99 661.14 1645.2
-272.56 670.60 1668.8
-268.33 670.83 1669.4
-261.05 663.32 1650.7
-255.57 660.23 1643.0
-250.55 658.23 1638.0
-247.91 662.51 1648.7
-252.54 686.74 1708.9
-252.60 699.16 1739.8
-235.18 662.78 1649.3
-222.86 639.69 1591.9
-227.65 665.78 1656.8
-228.89 682.26 1697.8
-230.52 700.59 1743.4
-232.99 722.27 1797.3
-222.19 702.84 1749.0
-209.34 676.00 1682.2
-201.67 665.07 1655.0
-196.22 661.17 1645.3
-193.94 668.01 1662.3
-194.41 684.87 1704.3
-192.31 693.20 1725.0
-183.26 676.30 1683.0
-176.58 667.56 1661.2
-175.86 681.44 1695.8
-170.75 678.63 1688.8
-165.41 674.69 1679.0
-162.07 678.93 1689.5
-151.85 653.81 1627.0
-144.06 637.96 1587.6
-148.61 677.48 1685.9
-153.29 719.99 1791.7
-146.60 710.08 1767.0
-135.35 676.75 1684.1
-127.26 657.53 1636.2
-122.21 653.17 1625.4
-117.61 651.05 1620.1
-116.93 671.25 1670.4
-110.74 660.18 1642.9
-100.67 624.18 1553.3
-103.52 668.56 1663.7
-103.20 695.46 1730.6
-97.03 683.64 1701.2
-93.54 690.42 1718.1
-89.48 693.48 1725.7
-86.52 705.85 1756.5
-78.82 678.74 1689.0
-71.71 653.84 1627.1
-73.46 711.66 1770.9
-72.16 745.63 1855.5
-65.57 725.94 1806.5
-52.79 629.47 1566.4
-44.24 571.37 1421.9
-47.96 675.78 1681.7
-45.62 707.13 1759.7
-37.49 645.66 1606.7
-31.81 616.24 1533.5
-28.05 621.12 1545.6
-23.47 606.23 1508.6
-19.11 592.45 1474.3
-15.35 594.70 1479.9
-10.49 542.14 1349.1
-6.67 516.79 1286.0
-3.56 551.48 1372.3
0.00 502.63 1250.8
2.86 443.72 1104.2
5.72 443.34 1103.2
8.94 461.98 1149.6
11.21 434.38 1080.9
14.13 438.09 1090.2
20.22 522.34 1299.8
34.22 530.44 1320.0
35.76 503.95 1254.1
40.86 527.77 1313.3
46.11 549.72 1368.0
45.54 504.21 1254.7
42.30 437.09 1087.7
42.38 410.60 1021.8
50.79 463.09 1152.4
58.45 503.28 1252.4
56.43 460.39 1145.7
61.90 479.70 1193.7
70.43 519.87 1293.7
71.72 505.28 1257.4
80.10 539.84 1343.4
88.31 547.50 1362.5
86.89 518.02 1289.1
80.31 461.02 1147.2
77.96 431.55 1073.9
82.19 439.29 1093.2
87.46 451.86 1124.5
96.60 483.02 1202.0
101.39 491.11 1222.1
102.56 481.73 1198.8
115.92 528.46 1315.1
121.99 540.24 1344.4
111.82 481.44 1198.1
112.60 471.68 1173.8
118.53 483.46 1203.1
132.83 527.91 1313.7
146.45 567.50 1412.2
143.89 543.99 1353.7
147.87 545.72 1358.0
160.20 577.48 1437.0
154.42 543.96 1353.6
132.38 455.97 1134.7
144.19 485.87 1209.1
162.91 537.24 1336.9
167.01 539.32 1342.1
181.92 575.46 1432.0
191.31 593.07 1475.8
198.00 601.78 1497.5
192.89 574.96 1430.8
177.95 520.42 1295.0
193.36 555.02 1381.1
-470.26 762.32 1909.3
-459.82 753.32 1886.8
-458.44 759.13 1901.4
-453.52 759.16 1901.4
-431.49 730.21 1828.9
-417.00 713.54 1787.2
-410.90 710.99 1780.8
-393.42 688.49 1724.4
-375.61 664.87 1665.3
-368.23 659.38 1651.5
-370.33 670.96 1680.5
-374.28 686.17 1718.6
-365.88 678.86 1700.3
-345.95 649.70 1627.3
-343.03 652.18 1633.5
-349.54 672.86 1685.3
-333.74 650.58 1629.5
-313.97 619.89 1552.6
-313.18 626.36 1568.8
-316.08 640.49 1604.2
-310.81 638.20 1598.5
-305.04 634.82 1590.0
-301.74 636.54 1594.3
-291.75 624.01 1562.9
-285.45 619.15 1550.7
-292.68 643.89 1612.7
-285.01 636.10 1593.2
-271.29 614.39 1538.8
-269.31 619.02 1550.4
-265.55 619.61 1551.9
-261.93 620.58 1554.3
-261.50 629.23 1576.0
-262.90 642.66 1609.6
-260.60 647.28 1621.2
-263.02 664.02 1663.1
-267.52 686.63 1719.8
-259.63 677.69 1697.4
-254.90 676.81 1695.2
-243.38 657.56 1647.0
-227.83 626.54 1569.3
-228.96 641.07 1605.7
-234.79 669.59 1677.1
-235.20 683.40 1711.7
-231.57 685.81 1717.7
-229.50 693.01 1735.7
-227.94 702.04 1758.4
-218.52 686.77 1720.1
-206.77 663.39 1661.6
-205.10 672.05 1683.2
-205.64 688.44 1724.3
-198.96 680.88 1705.4
-195.11 682.90 1710.4
-195.57 700.40 1754.3
-189.05 693.19 1736.2
-176.05 661.25 1656.2
-169.40 652.18 1633.5
-170.25 672.26 1683.8
-170.66 691.61 1732.2
-167.62 697.67 1747.4
-157.43 673.44 1686.7
-145.86 641.80 1607.5
-147.35 667.43 1671.7
-149.70 698.61 1749.8
-140.58 676.55 1694.5
-142.02 705.52 1767.1
-147.19 755.57 1892.4
-137.92 732.40 1834.4
-128.01 704.03 1763.3
-122.22 697.11 1746.0
-111.21 658.73 1649.9
-100.88 621.44 1556.5
-103.09 661.51 1656.8
-106.28 711.58 1782.3
-103.57 725.01 1815.9
-100.29 735.46 1842.1
-96.06 739.63 1852.5
-87.88 712.30 1784.1
-75.34 644.58 1614.4
-69.40 628.72 1574.7
-71.41 687.32 1721.5
-70.49 723.70 1812.6
-64.04 704.49 1764.5
-60.44 716.03 1793.4
-45.40 699.12 1751.0
-38.11 652.08 1633.2
-33.12 637.65 1597.1
-26.07 573.54 1436.5
-19.95 512.02 1282.4
-17.44 537.25 1345.6
-15.03 578.79 1449.7
-10.34 530.97 1329.9
-6.77 520.96 1304.8
-3.54 545.44 1366.1
0.00 486.86 1219.4
2.95 454.23 1137.7
6.23 479.81 1201.7
8.54 438.27 1097.7
13.43 413.78 1036.4
22.10 567.26 1420.8
31.80 489.68 1226.5
33.15 464.08 1162.3
37.75 484.43 1213.3
43.99 521.09 1305.1
44.64 491.03 1229.8
45.73 469.49 1175.9
51.08 491.68 1231.5
49.53 448.66 1123.7
49.86 404.12 1012.2
61.81 475.92 1192.0
72.36 530.67 1329.1
76.49 535.42 1341.0
80.56 539.43 1351.1
83.94 538.61 1349.0
83.22 512.63 1283.9
80.79 478.50 1198.5
80.51 459.19 1150.1
84.08 462.45 1158.3
85.89 456.08 1142.3
88.98 456.74 1144.0
93.94 466.65 1168.8
95.41 459.17 1150.1
94.02 438.75 1098.9
102.89 466.02 1167.2
118.82 522.83 1309.5
120.12 513.85 1287.0
118.55 493.43 1235.9
123.01 498.49 1248.5
120.70 476.60 1193.7
118.49 456.19 1142.6
120.74 453.51 1135.9
126.27 462.99 1159.6
124.40 445.54 1115.9
139.59 467.31 1170.5
171.26 561.14 1405.5
185.99 596.72 1494.6
195.09 613.13 1535.7
198.29 610.74 1529.7
217.19 655.84 1642.6
222.01 657.48 1646.8
202.03 587.03 1470.3
232.37 650.63 1629.6
213.27 586.49 1468.9
-451.92 727.82 1834.8
-446.29 726.41 1831.3
-448.77 738.29 1861.2
-443.95 738.31 1861.3
-421.36 708.43 1786.0
-408.67 694.74 1751.4
-403.91 694.36 1750.5
-384.21 668.01 1684.1
-364.03 640.19 1613.9
-357.38 635.80 1602.9
-360.01 648.02 1633.7
-359.72 655.20 1651.8
-347.16 639.95 1613.3
-333.83 622.89 1570.3
-336.62 635.84 1602.9
-343.59 657.12 1656.6
-327.85 634.96 1600.7
-311.28 610.60 1539.3
-314.00 623.91 1572.9
-313.83 631.80 1592.8
-305.03 622.27 1568.7
-300.74 621.80 1567.6
-299.23 627.15 1581.0
-299.18 635.76 1602.7
-302.56 652.00 1643.7
-300.08 655.90 1653.5
-282.30 625.97 1578.1
-268.45 604.02 1522.7
-266.68 608.98 1535.2
-259.18 600.83 1514.7
-251.79 592.68 1494.1
-252.89 604.55 1524.1
-255.48 620.45 1564.2
-259.94 641.45 1617.1
-269.65 676.33 1705.0
-273.76 698.10 1759.9
-264.79 686.65 1731.1
-259.00 683.23 1722.4
-246.05 660.44 1665.0
-228.57 624.48 1574.3
-228.76 636.37 1604.3
-237.96 674.23 1699.7
-241.36 696.75 1756.5
-233.77 687.81 1734.0
-227.87 683.62 1723.4
-227.66 696.63 1756.2
-218.71 682.91 1721.6
-207.87 662.59 1670.4
-207.76 676.33 1705.0
-207.58 690.44 1740.6
-199.78 679.25 1712.4
-196.13 681.99 1719.3
-196.87 700.50 1766.0
-192.84 702.51 1771.0
-182.30 680.29 1715.0
-173.67 664.30 1674.7
-173.21 679.50 1713.0
-170.63 687.00 1731.9
-164.40 679.80 1713.8
-168.72 717.04 1807.7
-171.96 751.73 1895.1
-156.39 703.74 1774.1
-142.78 661.97 1668.8
-139.09 665.04 1676.6
-146.02 720.68 1816.8
-138.60 731.23 1843.4
-128.72 703.39 1773.3
-122.72 695.41 1753.1
-120.63 709.86 1789.6
-120.10 735.00 1852.9
-114.79 731.79 1844.8
-109.97 731.52 1844.2
-105.31 732.35 1846.3
-99.77 726.92 1832.6
-97.34 744.68 1877.4
-90.70 730.40 1841.4
-78.09 663.81 1673.5
-72.90 656.14 1654.1
-71.78 686.41 1730.4
-67.81 691.63 1743.6
-64.47 704.59 1776.3
-64.32 756.98 1908.3
-52.18 725.75 1829.6
-46.38 709.58 1788.8
-35.56 680.16 1714.7
-26.50 579.17 1460.1
-20.59 525.00 1323.5
-18.04 551.93 1391.4
-16.09 615.36 1551.3
-11.63 592.88 1494.7
-6.87 525.42 1324.6
-3.21 491.87 1240.0
0.00 521.00 1313.4
3.66 559.71 1411.0
6.85 523.94 1320.9
8.15 415.53 1047.6
15.48 473.77 1194.4
22.84 582.51 1468.5
31.64 537.83 1355.9
31.15 476.61 1201.5
34.05 473.64 1194.0
35.58 453.70 1143.8
37.42 440.40 1110.3
43.50 475.38 1198.4
50.79 518.08 1306.1
53.90 515.45 1299.5
49.08 441.72 1113.6
48.97 416.26 1049.4
58.00 467.05 1177.4
64.56 493.88 1245.1
68.34 497.87 1255.1
72.74 505.91 1275.4
77.87 517.99 1305.9
79.91 509.45 1284.3
79.20 484.72 1222.0
77.36 455.21 1147.6
79.60 451.09 1137.2
85.17 465.37 1173.2
89.94 474.49 1196.2
89.85 458.23 1155.2
90.96 448.95 1131.8
95.57 456.96 1152.0
97.67 452.83 1141.6
97.67 439.51 1108.0
101.36 443.10 1117.1
110.98 471.66 1189.1
120.61 498.74 1257.3
125.76 506.34 1276.5
124.92 490.08 1235.5
122.24 467.58 1178.8
123.89 462.33 1165.5
122.96 447.92 1129.2
142.64 484.97 1222.6
155.91 518.56 1307.3
161.39 525.38 1324.5
176.27 561.87 1416.5
183.88 574.16 1447.5
239.40 665.98 1678.9
-454.75 727.61 1846.4
-430.30 695.81 1765.7
-424.19 693.31 1759.3
-411.61 680.06 1725.7
-391.48 653.90 1659.3
-379.95 641.69 1628.4
-370.46 632.69 1605.5
-350.98 620.34 1574.2
-358.91 641.82 1628.7
-363.00 656.86 1666.8
-353.35 647.10 1642.1
-342.27 634.45 1610.0
-332.50 623.94 1583.3
-327.78 622.79 1580.4
-322.71 620.90 1575.6
-315.43 614.69 1559.8
-314.08 620.01 1573.3
-309.42 618.83 1570.3
-296.39 600.69 1524.3
-288.17 591.92 1502.1
-291.51 606.97 1540.2
-297.38 627.81 1593.1
-297.76 637.46 1617.6
-292.19 634.46 1610.0
-288.45 635.43 1612.5
-287.94 643.64 1633.3
-280.79 637.01 1616.5
-267.11 615.16 1561.0
-264.71 619.01 1570.8
-271.57 644.97 1636.7
-277.03 668.40 1696.1
-285.60 700.18 1776.8
-270.90 675.04 1713.0
-251.08 636.08 1614.1
-250.22 644.65 1635.8
-252.16 660.84 1676.9
-250.62 668.32 1695.9
-243.49 660.90 1677.1
-238.17 658.21 1670.3
-242.30 682.04 1730.7
-250.70 718.98 1824.5
-247.04 722.11 1832.4
-234.67 699.40 1774.8
-229.17 696.69 1767.9
-219.37 680.50 1726.8
-207.82 658.11 1670.0
-209.29 676.87 1717.6
-210.63 696.00 1766.2
-204.60 691.08 1753.7
-202.32 698.91 1773.6
-203.03 717.68 1821.2
-199.46 721.87 1831.8
-193.09 715.84 1816.5
-188.71 717.10 1819.7
-182.44 711.06 1804.4
-174.15 696.62 1767.7
-171.65 705.17 1789.4
-163.72 731.91 1857.3
-147.74 680.52 1726.9
-142.14 675.16 1713.3
-136.38 668.70 1696.9
-127.31 645.05 1636.9
-122.88 644.07 1634.4
-120.08 651.85 1654.1
-116.07 653.42 1658.1
-115.73 676.58 1716.9
-117.01 711.44 1805.4
-113.56 719.23 1825.1
-104.86 692.97 1758.5
-95.49 659.74 1674.2
-94.70 685.46 1739.4
-97.29 739.37 1876.2
-95.13 761.06 1931.3
-87.66 740.27 1878.5
-72.23 645.83 1638.9
-65.16 660.24 1675.4
-69.66 756.30 1919.2
-60.12 761.54 1932.5
-51.32 709.19 1799.6
-45.09 685.40 1739.3
-44.71 755.09 1916.1
-24.01 608.18 1543.3
-18.21 553.58 1404.8
-13.50 512.90 1301.5
-10.60 537.10 1363.0
-6.90 524.65 1331.3
-3.63 552.15 1401.1
3.95 599.81 1522.1
6.28 476.98 1210.4
8.97 454.61 1153.6
12.87 489.07 1241.1
15.51 471.46 1196.4
18.23 461.91 1172.1
21.85 474.36 1203.7
24.85 472.14 1198.1
28.45 480.54 1219.4
31.44 477.95 1212.8
35.70 493.31 1251.8
38.51 487.78 1237.8
38.71 452.57 1148.4
43.13 468.29 1188.3
46.97 475.94 1207.8
46.66 443.30 1124.9
49.86 445.82 1131.3
58.12 490.83 1245.5
63.77 510.18 1294.6
64.95 493.65 1252.7
71.33 516.29 1310.1
78.64 543.32 1378.7
79.60 526.04 1334.9
77.33 489.74 1242.7
77.95 473.93 1202.6
78.24 457.39 1160.7
79.94 450.01 1141.9
83.89 455.42 1155.7
87.85 460.47 1168.5
87.47 443.20 1124.7
91.49 448.61 1138.4
98.74 469.00 1190.1
107.04 493.03 1251.1
113.61 507.91 1288.9
112.81 489.91 1243.2
119.55 504.79 1280.9
126.85 521.11 1322.4
129.06 516.26 1310.0
127.09 495.33 1257.0
124.08 471.50 1196.5
140.73 521.74 1324.0
157.74 570.86 1448.6
151.24 534.62 1356.6
158.31 546.88 1387.8
174.60 589.75 1496.5
175.89 581.21 1474.9
172.46 557.74 1415.3
178.84 566.33 1437.1
219.40 653.91 1659.4
179.09 523.48 1328.4
201.75 578.60 1468.3
-501.18 764.42 1952.6
-463.64 744.78 1902.5
-429.81 697.86 1782.6
-433.64 711.74 1818.1
-427.86 709.97 1813.5
-398.95 669.36 1709.8
-374.34 635.12 1622.3
-355.15 609.40 1556.7
-355.19 616.48 1574.7
-355.95 624.99 1596.5
-357.61 635.28 1622.8
-372.05 668.81 1708.4
-370.74 674.48 1722.9
-351.49 647.26 1653.4
-333.55 621.80 1588.3
-332.42 627.45 1602.8
-330.10 630.95 1611.7
-328.29 635.53 1623.4
-332.81 652.65 1667.1
-317.98 631.78 1613.8
-295.40 594.74 1519.2
-287.72 587.10 1499.7
-291.93 603.85 1542.5
-300.72 630.68 1611.0
-305.11 648.90 1657.5
-299.10 645.21 1648.1
-295.60 646.90 1652.4
-295.81 656.86 1677.9
-288.69 650.64 1662.0
-281.50 644.04 1645.1
-286.49 665.53 1700.0
-290.43 685.23 1750.3
-293.21 702.78 1795.2
-292.66 712.76 1820.7
-267.35 661.80 1690.5
-255.75 643.63 1644.1
-263.55 674.52 1723.0
-257.93 671.50 1715.3
-248.52 658.36 1681.7
-243.43 656.40 1676.7
-240.08 659.14 1683.7
-241.61 675.61 1725.8
-247.23 704.39 1799.3
-248.12 720.51 1840.5
-240.49 712.04 1818.8
-229.97 694.52 1774.1
-216.16 666.11 1701.5
-209.73 659.78 1685.3
-215.90 693.65 1771.9
-212.91 698.91 1785.3
-202.72 680.24 1737.6
-198.69 681.87 1741.8
-198.35 696.54 1779.2
-196.61 706.87 1805.6
-191.78 706.31 1804.2
-188.11 710.11 1813.9
-182.70 707.36 1806.9
-179.88 714.78 1825.8
-182.39 744.35 1901.4
-174.38 731.43 1868.4
-160.56 692.71 1769.5
-154.37 685.59 1751.3
-148.83 680.99 1739.5
-142.57 672.76 1718.5
-135.98 662.34 1691.9
-130.89 658.83 1682.9
-130.81 681.12 1739.9
-121.33 654.32 1671.4
-113.45 658.89 1683.1
-117.30 708.47 1809.7
-109.96 691.83 1767.2
-96.91 636.24 1625.2
-93.40 641.06 1637.5
-97.37 700.12 1788.4
-91.49 690.73 1764.4
-81.15 644.93 1647.4
-81.92 687.24 1755.5
-76.07 675.66 1725.9
-64.07 604.69 1544.6
-65.43 658.66 1682.5
-69.08 745.06 1903.2
-64.75 752.05 1921.0
-54.66 750.33 1916.6
-45.90 693.16 1770.6
-42.64 715.43 1827.5
-23.51 591.59 1511.2
-17.12 516.88 1320.3
-11.39 430.14 1098.7
-6.29 474.99 1213.3
-4.06 613.16 1566.3
0.00 536.24 1369.8
9.59 482.64 1232.9
13.03 491.74 1256.1
15.16 457.83 1169.5
17.53 441.05 1126.6
20.56 443.58 1133.1
23.65 446.48 1140.5
27.15 455.57 1163.7
29.37 443.52 1132.9
32.84 450.78 1151.5
38.72 487.19 1244.5
42.03 488.25 1247.2
44.55 480.56 1227.5
46.61 469.22 1198.6
48.21 454.97 1162.2
53.76 477.51 1219.8
60.26 505.51 1291.3
63.55 505.09 1290.2
59.13 446.41 1140.3
60.71 436.53 1115.1
65.18 447.39 1142.8
64.26 421.85 1077.6
69.87 439.63 1123.0
77.54 468.31 1196.3
82.69 480.25 1226.8
87.88 491.45 1255.4
89.36 481.92 1231.0
90.93 473.48 1209.4
91.31 459.58 1173.9
96.50 470.04 1200.7
99.44 469.23 1198.6
101.89 466.23 1190.9
112.32 498.84 1274.2
117.12 505.28 1290.7
120.53 505.54 1291.3
123.94 505.79 1292.0
121.69 483.54 1235.2
115.39 446.78 1141.2
119.38 450.67 1151.2
141.45 520.94 1330.7
156.97 564.33 1441.5
150.86 529.75 1353.2
154.11 528.89 1351.0
166.97 560.29 1431.2
168.32 552.53 1411.4
164.83 529.56 1352.7
179.46 564.54 1442.1
212.87 655.98 1675.6
217.03 642.58 1641.4
171.77 498.79 1274.1
190.63 543.11 1387.3
-499.73 757.17 1947.0
-502.33 768.87 1977.1
-491.99 760.82 1956.4
-477.01 745.33 1916.6
-487.06 769.04 1977.5
-459.15 732.69 1884.1
-424.25 684.27 1759.5
-427.28 696.65 1791.4
-447.12 737.01 1895.2
-440.51 734.19 1887.9
-417.76 704.08 1810.5
-399.33 680.68 1750.3
-390.05 672.50 1729.3
-382.29 666.79 1714.6
-364.35 642.97 1653.3
-361.63 645.76 1660.5
-371.45 671.29 1726.2
-362.29 662.72 1704.1
-344.39 637.77 1640.0
-342.57 642.32 1651.7
-336.94 639.76 1645.1
-332.27 638.98 1643.1
-342.97 668.12 1718.0
-333.42 658.07 1692.2
-313.66 627.32 1613.1
-309.43 627.23 1612.9
-312.50 642.13 1651.2
-322.06 670.96 1725.3
-323.80 684.09 1759.1
-313.37 671.50 1726.7
-299.97 652.10 1676.8
-290.55 640.91 1648.1
-294.53 659.40 1695.6
-297.65 676.48 1739.5
-289.37 667.78 1717.1
-280.44 657.28 1690.1
-277.66 661.10 1700.0
-271.13 655.96 1686.7
-267.14 656.90 1689.2
-275.48 688.70 1770.9
-278.32 707.59 1819.5
-266.48 689.16 1772.1
-254.46 669.64 1721.9
-247.00 661.60 1701.2
-243.06 662.89 1704.6
-244.15 678.19 1743.9
-242.24 685.59 1762.9
-236.00 680.76 1750.5
-234.46 689.59 1773.2
-229.81 689.43 1772.8
-221.40 677.75 1742.8
-220.74 689.82 1773.8
-222.75 710.90 1828.0
-214.64 699.92 1799.8
-201.06 670.20 1723.4
-193.89 661.00 1699.7
-195.43 681.72 1753.0
-195.67 698.83 1797.0
-194.21 710.54 1827.1
-193.56 725.86 1866.5
-187.73 722.06 1856.7
-184.24 727.27 1870.1
-181.93 737.54 1896.5
-169.51 706.28 1816.1
-155.82 667.78 1717.1
-149.51 659.60 1696.1
-148.88 676.71 1740.1
-147.86 693.10 1782.3
-145.58 704.43 1811.4
-144.45 722.27 1857.3
-140.43 726.37 1867.8
-126.16 675.87 1737.9
-115.75 643.06 1653.6
-119.26 688.02 1769.2
-120.66 723.94 1861.5
-111.56 697.26 1793.0
-106.04 691.57 1778.3
-109.99 749.93 1928.4
-102.72 733.73 1886.7
-86.69 650.19 1671.9
-81.95 682.93 1756.1
-80.24 707.99 1820.5
-71.43 669.66 1722.0
-69.18 691.82 1779.0
-68.16 730.27 1877.8
-63.58 733.59 1886.4
-60.14 751.76 1933.1
-55.13 751.81 1933.2
-39.59 659.86 1696.8
-31.39 588.50 1513.3
-28.19 604.11 1553.4
-24.67 616.82 1586.1
-18.62 558.49 1436.1
-12.82 480.58 1235.8
-5.60 419.71 1079.2
-3.77 565.78 1454.9
0.00 548.02 1409.2
2.75 413.19 1062.5
5.68 425.87 1095.1
10.05 502.70 1292.7
13.15 493.27 1268.4
16.48 494.34 1271.2
20.43 510.63 1313.1
25.49 546.13 1404.3
30.52 572.20 1471.4
32.87 547.89 1408.9
34.08 511.26 1314.7
36.45 497.10 1278.3
42.34 529.31 1361.1
44.36 511.88 1316.3
45.44 486.85 1251.9
51.76 517.60 1331.0
58.84 551.59 1418.4
61.07 538.87 1385.7
63.74 531.21 1366.0
62.14 490.60 1261.5
54.40 408.00 1049.1
59.51 405.73 1043.3
66.58 416.11 1070.0
74.89 449.34 1155.4
79.88 460.85 1185.0
86.19 478.86 1231.4
89.17 477.70 1228.4
98.21 507.99 1306.3
107.36 536.82 1380.4
109.36 529.14 1360.6
108.01 506.28 1301.9
97.77 444.40 1142.7
96.70 426.61 1097.0
106.01 454.34 1168.3
114.30 476.27 1224.7
118.70 481.22 1237.4
117.13 462.35 1188.9
120.28 462.61 1189.6
135.55 508.32 1307.1
135.56 495.94 1275.3
126.21 450.74 1159.1
135.28 471.90 1213.5
157.84 538.10 1383.7
168.41 561.38 1443.6
163.72 533.86 1372.8
165.31 527.59 1356.7
188.25 588.29 1512.8
229.16 648.56 1667.7
-498.82 758.42 1963.3
-451.98 694.27 1797.3
-447.33 694.30 1797.3
-463.73 727.32 1882.8
-452.88 717.87 1858.3
-430.96 690.47 1787.4
-381.59 618.01 1599.8
-381.12 630.96 1633.4
-383.60 642.20 1662.5
-390.30 660.85 1710.7
-402.32 689.03 1783.7
-401.55 695.71 1801.0
-388.82 681.57 1764.4
-366.11 649.41 1681.1
-358.77 644.06 1667.3
-365.31 663.80 1718.4
-361.98 665.87 1723.7
-340.96 635.04 1643.9
-317.52 598.87 1550.3
-314.20 600.20 1553.7
-325.32 629.51 1629.6
-328.10 643.25 1665.2
-320.17 636.08 1646.6
-311.63 627.48 1624.4
-311.38 635.55 1645.2
-314.61 651.08 1685.4
-309.02 648.50 1678.8
-304.95 649.11 1680.4
-296.60 640.48 1658.0
-289.66 634.69 1643.0
-296.22 658.77 1705.3
-298.69 674.32 1745.6
-289.93 664.60 1720.4
-279.15 649.89 1682.4
-274.89 650.13 1683.0
-273.44 657.13 1701.1
-274.81 671.26 1737.7
-276.86 687.54 1779.8
-272.91 689.21 1784.1
-260.18 668.38 1730.2
-247.03 645.76 1671.7
-246.54 655.96 1698.1
-249.60 676.18 1750.4
-247.85 683.89 1770.4
-242.96 683.03 1768.2
-242.94 696.11 1802.0
-247.27 722.42 1870.1
-247.18 736.58 1906.8
-243.83 741.45 1919.4
-231.66 719.10 1861.5
-221.70 702.83 1819.4
-221.02 715.91 1853.3
-214.87 711.44 1841.7
-207.29 701.95 1817.1
-208.32 721.84 1868.6
-203.52 722.02 1869.1
-197.24 716.81 1855.6
-196.52 732.05 1895.0
-190.43 727.55 1883.4
-185.04 725.56 1878.2
-180.66 727.51 1883.3
-176.94 732.33 1895.8
-170.37 725.30 1877.6
-157.67 690.97 1788.7
-151.79 685.36 1774.2
-152.08 708.12 1833.1
-150.87 725.14 1877.2
-144.94 719.88 1863.5
-136.50 701.31 1815.5
-129.72 690.28 1786.9
-126.47 697.94 1806.8
-123.82 709.56 1836.8
-119.92 714.70 1850.1
-114.96 713.72 1847.6
-114.24 740.08 1915.8
-104.84 743.87 1925.7
-91.84 684.22 1771.2
-87.58 686.81 1777.9
-86.24 713.89 1848.0
-79.40 695.96 1801.6
-70.33 654.98 1695.5
-67.72 672.68 1741.4
-54.12 733.04 1897.6
-45.38 676.17 1750.4
-35.49 587.58 1521.1
-26.49 563.86 1459.7
-20.60 613.98 1589.4
-18.05 672.37 1740.6
-6.02 448.62 1161.3
-3.11 463.76 1200.5
6.50 483.94 1252.8
8.17 405.74 1050.3
12.47 464.46 1202.3
18.19 541.92 1402.9
31.40 519.85 1345.7
31.77 473.35 1225.4
32.92 445.95 1154.4
39.54 490.94 1270.9
43.43 497.75 1288.5
44.67 475.38 1230.6
50.90 505.59 1308.8
54.40 506.63 1311.5
54.02 473.45 1225.6
56.23 465.48 1205.0
53.89 422.60 1094.0
54.98 409.59 1060.3
63.96 453.81 1174.8
67.63 458.07 1185.8
66.98 433.90 1123.2
77.41 480.61 1244.2
87.51 521.55 1350.1
81.58 467.52 1210.3
79.10 436.53 1130.0
84.86 451.56 1168.9
95.85 492.46 1274.8
110.50 548.80 1420.7
113.89 530.28 1372.7
99.36 448.64 1161.4
92.93 407.26 1054.3
97.25 414.00 1071.7
112.93 467.40 1210.0
125.49 505.35 1308.2
131.87 517.08 1338.6
145.83 557.14 1442.3
149.34 556.30 1440.1
130.94 475.84 1231.8
121.97 432.71 1120.1
131.98 457.33 1183.9
151.95 514.55 1332.0
158.82 525.88 1361.3
168.83 546.87 1415.7
189.45 588.10 1522.4
190.29 578.63 1497.9
237.60 643.67 1666.3
-488.92 745.98 1944.2
-482.33 743.59 1937.9
-475.77 741.19 1931.7
-445.71 701.76 1828.9
-438.57 697.94 1818.9
-401.25 645.49 1682.3
-367.19 597.20 1556.4
-381.44 627.25 1634.7
-394.44 655.93 1709.5
-410.62 690.59 1799.8
-408.22 694.44 1809.8
-393.94 677.94 1766.8
-387.13 674.06 1756.7
-369.01 650.15 1694.4
-330.51 589.35 1535.9
-332.85 608.17 1585.0
-339.92 628.85 1638.9
-321.54 602.39 1569.9
-323.37 613.57 1599.1
-326.32 627.22 1634.6
-320.60 624.32 1627.1
-305.44 602.73 1570.8
-290.92 581.83 1516.4
-291.63 591.25 1540.9
-294.45 605.25 1577.4
-295.73 616.45 1606.6
-299.03 632.23 1647.7
-295.86 634.60 1653.9
-294.45 640.86 1670.2
-290.55 641.82 1672.7
-282.85 634.28 1653.0
-284.73 648.32 1689.6
-284.90 658.82 1717.0
-278.74 654.81 1706.6
-275.90 658.59 1716.4
-274.17 665.20 1733.6
-273.22 673.94 1756.4
-266.78 669.20 1744.1
-251.08 640.69 1669.8
-249.84 648.71 1690.7
-261.93 692.23 1804.1
-260.89 702.04 1829.6
-254.55 697.64 1818.2
-252.71 705.68 1839.1
-255.76 727.93 1897.1
-252.87 733.83 1912.5
-245.10 725.51 1890.8
-246.16 743.51 1937.7
-238.90 736.60 1919.7
-221.89 698.71 1821.0
-214.46 690.00 1798.3
-212.23 698.02 1819.2
-208.42 701.05 1827.1
-209.32 720.46 1877.7
-204.61 721.00 1879.0
-190.60 688.02 1793.1
-183.20 677.84 1766.6
-181.86 690.12 1798.6
-180.44 702.76 1831.5
-175.73 702.91 1831.9
-171.28 704.13 1835.1
-164.61 696.07 1814.1
-152.15 662.29 1726.0
-149.93 672.42 1752.4
-154.14 712.91 1858.0
-149.58 714.11 1861.1
-140.50 693.16 1806.5
-135.56 691.85 1803.1
-132.33 699.47 1822.9
-127.10 696.72 1815.8
-122.60 697.90 1818.8
-118.75 703.01 1832.2
-113.21 698.10 1819.4
-110.62 711.79 1855.1
-108.90 732.63 1909.4
-103.31 728.07 1897.5
-94.44 698.82 1821.2
-93.49 728.24 1897.9
-85.19 741.64 1932.8
-73.37 678.71 1768.8
-67.78 668.75 1742.9
-69.26 732.18 1908.2
-58.94 726.92 1894.5
-53.29 716.94 1868.5
-48.52 718.06 1871.4
-40.95 673.33 1754.8
-35.66 659.75 1719.4
-27.90 589.93 1537.5
-22.22 548.05 1428.3
-18.21 539.11 1405.0
-15.18 561.69 1463.9
-3.39 501.89 1308.0
0.00 510.49 1330.4
6.96 515.14 1342.5
15.82 468.18 1220.2
22.93 565.60 1474.0
30.94 572.36 1491.7
28.49 468.46 1220.9
30.05 444.80 1159.2
34.47 463.75 1208.6
43.09 531.40 1384.9
40.07 456.17 1188.9
43.58 429.96 1120.6
50.73 469.30 1223.1
51.97 452.43 1179.1
55.89 459.54 1197.6
60.18 468.80 1221.8
66.49 492.00 1282.2
70.11 494.09 1287.7
66.79 449.31 1171.0
68.15 438.52 1142.9
80.03 493.54 1286.2
93.62 554.25 1444.5
92.08 524.14 1366.0
85.76 470.08 1225.1
88.99 470.36 1225.8
98.52 502.80 1310.4
108.28 534.16 1392.1
118.22 564.43 1471.0
118.62 548.61 1429.8
116.65 523.15 1363.4
122.95 535.19 1394.8
115.14 486.89 1268.9
117.37 482.51 1257.5
127.74 510.95 1331.6
133.36 519.40 1353.7
147.83 561.01 1462.1
151.88 561.95 1464.6
132.04 476.62 1242.2
136.03 468.19 1220.2
164.89 554.64 1445.5
167.30 550.22 1434.0
172.96 556.49 1450.3
190.33 574.88 1498.2
174.58 516.75 1346.7
200.56 582.02 1516.8
236.48 636.35 1658.4
-502.13 760.97 1996.7
-478.88 733.28 1924.1
-457.32 707.64 1856.8
-456.07 713.22 1871.4
-434.65 694.50 1822.3
-402.16 649.64 1704.6
-416.05 679.55 1783.1
-428.28 707.39 1856.1
-416.80 696.25 1826.9
-391.02 660.70 1733.6
-387.74 662.76 1739.0
-390.67 675.64 1772.8
-365.52 639.67 1678.4
-331.83 609.74 1599.9
-324.07 603.01 1582.3
-329.58 621.13 1629.8
-336.68 642.76 1686.5
-326.84 632.18 1658.8
-307.66 603.02 1582.3
-293.45 582.94 1529.6
-294.83 593.71 1557.8
-296.59 605.53 1588.9
-297.16 615.25 1614.4
-302.29 634.81 1665.7
-301.06 641.38 1682.9
-299.74 647.96 1700.2
-296.08 649.62 1704.5
-293.04 652.68 1712.6
-301.62 682.12 1789.8
-292.80 672.52 1764.6
-276.86 646.01 1695.1
-269.89 639.90 1679.0
-264.02 636.25 1669.5
-269.42 660.08 1732.0
-268.98 670.18 1758.5
-251.30 636.90 1671.2
-248.69 641.35 1682.8
-258.92 679.67 1783.4
-256.10 684.48 1796.0
-250.87 682.93 1791.9
-249.99 693.38 1819.4
-242.73 686.17 1800.4
-229.67 661.99 1737.0
-227.76 669.61 1757.0
-234.82 704.45 1848.4
-242.68 743.21 1950.1
-239.84 750.14 1968.3
-223.61 714.59 1875.0
-213.18 696.37 1827.2
-207.64 693.72 1820.3
-206.71 706.65 1854.2
-205.09 717.80 1883.4
-194.42 697.07 1829.0
-187.12 687.66 1804.4
-185.68 699.87 1836.4
-181.14 700.74 1838.7
-173.11 687.77 1804.6
-171.42 699.98 1836.7
-167.20 702.25 1842.6
-156.22 675.42 1772.2
-154.92 690.10 1810.8
-155.05 712.25 1868.9
-146.56 694.98 1823.6
-137.00 671.31 1761.4
-131.27 665.38 1745.9
-129.67 680.77 1786.3
-126.30 687.63 1804.3
-122.27 691.29 1813.9
-118.79 698.51 1832.8
-110.69 677.99 1779.0
-106.04 677.72 1778.3
-104.69 699.50 1835.4
-98.77 691.41 1814.2
-95.77 703.95 1847.1
-83.41 721.25 1892.5
-73.44 674.71 1770.4
-70.12 687.22 1803.2
-69.62 731.06 1918.2
-66.33 749.98 1967.9
-58.18 712.66 1870.0
-53.12 709.86 1862.6
-50.91 748.35 1963.6
-45.52 743.41 1950.6
-37.63 691.46 1814.3
-23.34 571.88 1500.5
-19.40 570.47 1496.9
-4.10 603.27 1582.9
0.00 498.57 1308.2
3.37 494.66 1297.9
7.01 514.95 1351.2
9.56 468.29 1228.8
11.72 430.89 1130.6
16.25 477.88 1253.9
19.36 474.31 1244.5
21.77 457.20 1199.6
28.39 521.62 1368.7
36.23 591.74 1552.7
36.76 540.44 1418.1
40.28 538.27 1412.4
40.80 461.31 1210.4
44.81 439.17 1152.3
60.07 551.94 1448.2
64.74 528.70 1387.3
61.29 474.21 1244.3
65.87 484.12 1270.3
67.88 475.17 1246.8
65.84 439.90 1154.3
68.21 435.93 1143.8
78.82 482.80 1266.8
90.14 530.01 1390.7
95.55 540.24 1417.5
95.30 518.83 1361.4
88.79 466.16 1223.2
89.50 453.65 1190.3
99.67 488.38 1281.5
108.59 514.93 1351.1
115.16 529.04 1388.1
122.01 543.49 1426.1
131.02 566.46 1486.3
125.97 529.08 1388.3
119.90 489.59 1284.6
120.97 480.62 1261.1
126.14 487.96 1280.4
140.91 531.11 1393.6
142.36 523.19 1372.8
121.38 435.18 1141.9
146.61 501.20 1315.1
202.96 634.79 1665.6
187.23 550.46 1444.4
-494.23 751.64 1985.7
-474.75 729.62 1927.6
-474.45 736.91 1946.8
-468.32 735.22 1942.4
-411.28 652.68 1724.3
-397.10 637.11 1683.2
-424.49 688.62 1819.3
-420.83 690.35 1823.8
-396.69 658.15 1738.8
-391.14 656.40 1734.1
-405.82 688.95 1820.1
-389.38 668.82 1766.9
-346.47 602.19 1590.9
-336.98 592.76 1566.0
-342.63 610.05 1611.7
-337.07 607.55 1605.1
-329.06 600.53 1586.5
-319.26 590.02 1558.8
-323.16 604.89 1598.1
-327.97 621.86 1642.9
-315.70 606.47 1602.2
-313.11 609.52 1610.3
-314.89 621.27 1641.3
-313.90 627.81 1658.6
-314.20 637.13 1683.2
-304.71 626.58 1655.3
-299.36 624.39 1649.6
-302.14 639.30 1689.0
-306.01 657.02 1735.8
-308.20 671.60 1774.3
-311.14 688.28 1818.4
-308.57 693.09 1831.0
-288.14 657.31 1736.5
-281.02 651.25 1720.5
-283.35 667.24 1762.8
-272.44 652.07 1722.7
-272.96 664.20 1754.7
-284.08 702.98 1857.2
-276.02 694.80 1835.6
-258.07 661.02 1746.3
-254.30 662.99 1751.5
-253.27 672.32 1776.2
-249.27 673.94 1780.5
-241.16 664.32 1755.0
-227.42 638.53 1686.9
-225.20 644.69 1703.2
-234.21 683.89 1806.8
-239.38 713.26 1884.4
-245.31 746.17 1971.3
-231.34 734.26 1939.8
-219.97 713.69 1885.5
-214.08 710.35 1876.7
-204.70 695.04 1836.2
-194.52 676.20 1786.4
-192.21 684.46 1808.3
-192.97 704.35 1860.8
-190.08 711.57 1879.9
-184.23 707.85 1870.0
-174.06 686.85 1814.6
-170.00 689.46 1821.5
-171.83 716.77 1893.6
-166.79 716.20 1892.1
-158.80 702.58 1856.1
-151.78 692.48 1829.4
-146.54 690.14 1823.3
-140.24 682.49 1803.1
-131.31 661.07 1746.5
-126.73 660.83 1745.8
-128.76 696.26 1839.4
-129.36 726.40 1919.0
-126.46 738.52 1951.1
-120.02 730.14 1928.9
-110.75 703.03 1857.3
-105.58 700.65 1851.0
-100.43 698.26 1844.7
-98.13 716.38 1892.6
-96.74 743.33 1963.8
-87.29 708.05 1870.6
-80.31 689.73 1822.2
-78.31 714.56 1887.8
-72.44 705.07 1862.7
-69.65 726.36 1918.9
-59.97 729.65 1927.7
-50.26 667.07 1762.3
-41.17 667.85 1764.4
-36.77 671.07 1772.9
-26.62 647.76 1711.3
-22.61 660.17 1744.1
-12.22 594.72 1571.2
-7.91 577.38 1525.4
3.72 543.40 1435.6
6.81 497.37 1314.0
10.45 508.34 1343.0
14.49 528.86 1397.2
19.77 577.34 1525.3
23.33 567.77 1500.0
22.04 459.79 1214.7
23.47 428.27 1131.4
31.79 515.67 1362.3
34.61 505.37 1335.1
34.34 455.80 1204.2
37.26 453.29 1197.5
41.56 466.70 1233.0
46.65 486.48 1285.2
48.34 470.52 1243.1
53.73 490.28 1295.3
62.85 539.76 1426.0
59.52 482.76 1275.4
56.05 430.72 1137.9
59.67 435.62 1150.9
67.99 472.69 1248.8
73.46 487.48 1287.9
67.26 426.98 1128.0
69.77 424.44 1121.3
82.95 484.45 1279.9
89.97 505.23 1334.7
90.09 487.13 1286.9
85.14 443.96 1172.9
78.70 396.22 1046.8
91.74 432.09 1141.5
97.94 446.83 1180.5
106.96 473.21 1250.2
120.20 516.16 1363.6
113.31 472.67 1248.7
104.79 424.96 1122.7
118.31 466.83 1233.3
138.73 533.00 1408.1
151.10 565.66 1494.4
150.88 550.73 1455.0
127.71 454.78 1201.5
125.22 435.30 1150.0
145.49 493.99 1305.1
172.39 572.01 1511.2
208.67 634.70 1676.8
231.34 637.28 1683.6
240.44 626.86 1656.1
-512.06 735.14 1955.5
-495.08 747.78 1989.2
-458.96 700.52 1863.5
-449.03 692.66 1842.5
-436.12 679.98 1808.8
-415.32 654.57 1741.2
-428.26 682.40 1815.2
-435.30 701.31 1865.6
-413.79 674.15 1793.3
-397.23 654.52 1741.1
-398.48 664.14 1766.7
-397.37 669.98 1782.2
-367.28 626.53 1666.6
-343.16 592.35 1575.7
-349.70 610.92 1625.1
-362.82 641.57 1706.6
-364.93 653.26 1737.7
-353.91 641.47 1706.4
-341.36 626.55 1666.7
-323.24 600.90 1598.5
-306.57 577.30 1535.7
-314.33 599.70 1595.3
-331.63 641.15 1705.5
-333.71 653.90 1739.4
-333.35 662.14 1761.4
-331.85 668.31 1777.8
-320.24 654.01 1739.7
-312.01 646.30 1719.2
-313.62 659.05 1753.1
-310.66 662.43 1762.1
-305.09 660.26 1756.4
-300.01 659.12 1753.3
-289.50 645.81 1717.9
-280.86 636.32 1692.7
-284.43 654.64 1741.4
-291.62 682.01 1814.2
-284.82 677.03 1801.0
-277.94 671.70 1786.8
-281.91 692.83 1843.0
-293.39 733.48 1951.1
-272.56 705.72 1877.3
-255.87 674.56 1794.4
-253.63 681.05 1811.7
-247.23 676.38 1799.2
-239.51 667.86 1776.6
-243.45 692.15 1841.2
-245.49 711.92 1893.8
-243.60 720.86 1917.5
-241.47 729.45 1940.4
-234.01 721.96 1920.5
-224.10 706.42 1879.1
-216.69 698.21 1857.3
-212.03 698.74 1858.7
-203.53 686.32 1825.7
-194.48 671.43 1786.1
-193.07 682.80 1816.3
-197.10 714.48 1900.6
-183.01 698.34 1857.7
-164.37 644.17 1713.6
-161.45 650.27 1729.8
-165.12 684.06 1819.7
-162.57 693.32 1844.3
-156.78 688.89 1832.5
-154.15 698.50 1858.1
-153.41 717.57 1908.8
-149.94 724.72 1927.8
-143.92 719.58 1914.2
-128.47 665.28 1769.7
-123.74 690.08 1835.7
-124.08 719.69 1914.4
-121.70 735.25 1955.8
-116.42 733.94 1952.4
-112.76 743.17 1976.9
-108.92 752.05 2000.5
-100.35 727.54 1935.3
-93.13 710.75 1890.7
-87.24 702.74 1869.4
-84.34 719.34 1913.5
-70.05 725.52 1929.9
-58.30 650.31 1729.9
-56.79 686.23 1825.4
-52.76 695.43 1849.9
-45.17 655.01 1742.4
-43.28 697.27 1854.8
-38.18 692.02 1840.9
-31.22 646.67 1720.2
-24.79 718.84 1912.2
-7.74 560.90 1492.0
-4.50 652.39 1735.4
3.98 576.38 1533.2
7.26 526.41 1400.3
11.27 544.70 1449.0
14.47 524.63 1395.6
18.72 542.92 1444.2
25.38 613.27 1631.4
26.99 559.06 1487.2
24.53 444.70 1182.9
27.21 438.34 1166.0
33.99 492.84 1311.0
39.81 524.82 1396.1
40.05 483.99 1287.5
41.56 463.55 1233.1
49.51 512.75 1364.0
54.28 524.66 1395.7
52.77 478.20 1272.1
54.99 469.01 1247.6
62.27 501.66 1334.5
68.68 524.10 1394.2
67.87 492.06 1308.9
73.29 506.06 1346.2
82.69 544.99 1449.7
78.36 493.98 1314.0
72.27 436.65 1161.5
78.48 455.20 1210.9
80.16 447.06 1189.2
76.63 411.52 1094.7
83.59 432.87 1151.5
90.56 452.81 1204.5
89.02 430.27 1144.6
94.75 443.18 1178.9
98.25 445.20 1184.3
103.62 455.29 1211.1
105.91 451.69 1201.5
110.36 432.48 1150.4
124.43 474.79 1263.0
129.93 483.09 1285.1
149.66 542.52 1443.1
147.13 520.33 1384.1
132.22 456.49 1214.3
143.23 482.98 1284.8
166.27 547.93 1457.6
-495.41 713.39 1910.9
-496.94 737.72 1976.0
-474.82 712.23 1907.8
-460.46 697.96 1869.5
-466.98 715.38 1916.2
-458.07 709.27 1899.8
-441.17 690.52 1849.6
-424.30 671.41 1798.4
-406.82 650.91 1743.5
-380.53 615.69 1649.2
-359.93 588.97 1577.6
-357.67 592.00 1585.7
-353.93 592.63 1587.4
-354.44 600.46 1608.4
-357.23 612.40 1640.3
-353.94 614.06 1644.8
-357.84 628.41 1683.2
-358.85 637.96 1708.8
-346.38 623.49 1670.1
-345.41 629.61 1686.5
-338.03 624.05 1671.6
-322.08 602.33 1613.4
-333.10 631.14 1690.5
-342.66 657.90 1762.2
-335.58 653.02 1749.2
-335.90 662.59 1774.8
-335.40 670.79 1796.8
-332.06 673.48 1804.0
-332.38 683.75 1831.5
-329.08 686.78 1839.6
-319.72 677.05 1813.5
-308.39 662.81 1775.4
-297.89 649.94 1740.9
-298.48 661.24 1771.2
-300.91 677.04 1813.5
-286.93 655.85 1756.7
-275.78 640.52 1715.7
-286.23 675.69 1809.9
-296.35 711.23 1905.1
-298.46 728.44 1951.2
-261.73 673.03 1802.7
-252.90 662.15 1773.6
-259.31 691.49 1852.2
-258.29 701.76 1879.7
-255.37 707.18 1894.2
-241.31 681.36 1825.1
-226.89 653.44 1750.3
-235.65 692.52 1855.0
-243.30 729.89 1955.1
-239.65 734.26 1966.8
-234.18 733.07 1963.6
-223.17 714.14 1912.9
-214.12 700.76 1877.0
-211.91 709.64 1900.8
-208.65 715.38 1916.2
-193.43 679.36 1819.7
-184.11 662.81 1775.4
-188.51 696.04 1864.4
-178.11 674.95 1807.9
-164.96 642.01 1719.7
-167.33 669.32 1792.8
-170.93 703.27 1883.8
-167.89 711.08 1904.7
-162.91 710.87 1904.1
-161.10 724.95 1941.8
-156.10 725.09 1942.2
-148.83 714.40 1913.6
-147.55 732.67 1962.5
-137.40 706.62 1892.7
-123.68 659.62 1766.8
-123.59 684.50 1833.5
-117.52 676.93 1813.2
-108.41 650.49 1742.4
-107.98 676.07 1810.9
-110.03 720.17 1929.0
-99.07 750.82 2011.1
-91.07 728.54 1951.5
-85.23 721.98 1933.9
-66.20 680.93 1823.9
-54.04 648.52 1737.1
-54.46 712.89 1909.5
-50.70 730.07 1955.5
-39.53 711.62 1906.1
-32.91 677.03 1813.5
-24.87 716.24 1918.5
-10.49 503.63 1349.0
-7.47 537.92 1440.8
-4.04 581.29 1557.0
0.00 563.10 1508.3
4.06 584.44 1565.5
13.79 661.72 1772.5
17.52 630.58 1689.0
20.67 595.24 1594.4
25.49 611.66 1638.4
28.37 583.66 1563.4
27.47 494.46 1324.4
29.00 464.01 1242.9
34.16 491.96 1317.7
41.64 545.07 1460.0
44.14 529.65 1418.7
44.44 492.21 1318.4
51.11 525.73 1408.2
58.22 558.89 1497.0
58.44 525.98 1408.9
56.93 482.25 1291.7
60.97 487.79 1306.6
71.59 542.59 1453.4
74.87 539.04 1443.8
71.37 489.37 1310.8
71.29 466.61 1249.8
78.87 493.78 1322.6
84.67 508.03 1360.8
85.76 493.99 1323.2
81.81 453.08 1213.6
77.87 415.32 1112.5
84.27 433.39 1160.9
98.72 490.19 1313.0
106.47 511.04 1368.8
105.79 491.41 1316.3
102.83 462.73 1239.5
105.22 459.15 1229.9
105.59 447.21 1197.9
98.17 403.91 1081.9
104.09 416.37 1115.3
119.85 466.44 1249.4
123.34 467.38 1251.9
119.39 440.82 1180.8
125.61 452.20 1211.3
144.58 507.78 1360.1
152.43 522.62 1399.9
155.40 520.40 1393.9
172.04 563.05 1508.2
182.43 571.09 1529.7
-508.44 734.41 1980.9
-491.30 716.89 1933.7
-473.24 697.66 1881.8
-462.93 689.57 1860.0
-458.35 689.94 1861.0
-484.07 736.40 1986.3
-457.46 711.05 1917.9
-429.82 675.43 1821.9
-415.06 659.48 1778.8
-391.41 628.89 1696.3
-364.82 592.84 1599.1
-357.13 587.01 1583.3
-352.58 586.27 1581.4
-352.50 593.03 1599.6
-362.32 616.81 1663.7
-364.31 627.67 1693.0
-359.31 626.60 1690.1
-351.03 619.73 1671.6
-337.31 602.95 1626.3
-333.81 604.25 1629.8
-338.12 619.89 1672.0
-333.75 619.82 1671.8
-344.09 647.44 1746.3
-330.72 639.10 1723.8
-316.60 620.20 1672.9
-316.36 628.33 1694.8
-313.80 632.01 1704.7
-311.52 636.38 1716.5
-305.20 632.52 1706.1
-303.18 637.57 1719.7
-298.36 636.79 1717.6
-295.28 639.78 1725.7
-304.19 669.21 1805.1
-306.07 683.88 1844.6
-291.11 660.77 1782.3
-283.01 652.76 1760.7
-296.59 695.28 1875.4
-300.20 715.48 1929.9
-296.29 718.13 1937.0
-299.19 737.65 1989.7
-275.74 691.76 1865.9
-259.66 663.05 1788.5
-268.49 698.07 1882.9
-279.44 739.99 1996.0
-263.74 725.27 1956.3
-236.47 663.05 1788.4
-222.61 636.67 1717.3
-232.30 677.93 1828.6
-240.14 715.41 1929.7
-236.45 719.41 1940.5
-228.04 708.90 1912.1
-214.00 680.06 1834.3
-207.50 674.36 1819.0
-208.24 692.51 1867.9
-206.80 704.09 1899.2
-192.00 669.67 1806.3
-177.89 669.45 1805.7
-190.09 734.68 1981.7
-176.80 702.29 1894.3
-165.06 674.38 1819.0
-163.50 687.68 1854.9
-159.85 692.67 1868.3
-159.14 711.17 1918.2
-155.17 715.81 1930.7
-145.25 692.36 1867.5
-140.85 694.56 1873.4
-140.30 716.52 1932.7
-136.49 722.88 1949.8
-131.01 720.57 1943.6
-119.38 682.86 1841.9
-111.19 662.48 1786.9
-111.98 696.24 1878.0
-112.79 733.13 1977.5
-113.79 774.88 2090.1
-99.43 748.32 2018.5
-94.16 748.06 2017.7
-91.13 766.54 2067.6
-66.39 678.16 1829.2
-52.63 684.22 1845.5
-49.14 702.68 1895.3
-45.26 719.05 1939.5
-40.13 717.35 1934.9
-34.90 712.86 1922.8
-29.75 709.07 1912.6
-21.91 626.71 1690.4
-3.89 556.19 1500.2
0.00 583.31 1573.4
4.49 642.75 1733.7
24.47 583.24 1573.2
23.39 477.91 1289.1
25.65 458.42 1236.5
30.60 486.20 1311.4
35.24 503.90 1359.2
41.03 533.41 1438.8
43.04 512.87 1383.4
42.55 468.01 1262.4
45.61 465.89 1256.6
48.43 461.68 1245.3
53.01 473.80 1278.0
55.49 466.80 1259.1
59.50 472.66 1274.9
68.56 516.01 1391.8
73.86 528.11 1424.5
72.75 495.41 1336.3
63.39 412.04 1111.4
73.50 437.95 1181.3
80.07 458.01 1235.4
87.43 480.84 1297.0
94.11 498.46 1344.5
92.02 469.94 1267.6
97.68 481.65 1299.2
108.16 515.54 1390.6
110.61 510.25 1376.3
106.72 476.88 1286.3
108.51 470.21 1268.3
112.85 474.62 1280.2
105.29 430.19 1160.4
111.33 442.22 1192.8
126.49 488.87 1318.6
136.87 515.07 1389.3
136.76 501.45 1352.6
128.52 459.47 1239.3
130.12 453.83 1224.1
141.39 481.38 1298.4
153.03 508.92 1372.7
145.49 472.85 1275.4
135.93 431.95 1165.1
159.47 495.74 1337.2
170.32 497.06 1340.7
191.48 547.64 1477.2
-512.36 734.89 1996.2
-467.10 676.82 1838.5
-474.99 695.35 1888.8
-485.13 717.60 1949.2
-463.22 692.40 1880.8
-473.08 714.66 1941.2
-476.02 726.83 1974.3
-439.04 677.65 1840.7
-433.41 676.31 1837.1
-437.64 690.49 1875.6
-423.26 675.31 1834.3
-406.99 656.73 1783.9
-389.93 636.44 1728.8
-374.37 618.15 1679.1
-367.57 614.05 1668.0
-372.03 628.90 1708.3
-369.55 632.25 1717.4
-359.40 622.38 1690.6
-355.57 623.35 1693.2
-345.99 614.14 1668.2
-337.67 606.95 1648.7
-337.65 614.69 1669.7
-336.41 620.40 1685.2
-350.92 655.66 1781.0
-339.50 651.47 1769.6
-316.69 616.02 1673.3
-310.06 611.52 1661.1
-290.05 580.11 1575.7
-284.10 584.66 1588.1
-302.45 631.59 1715.6
-297.64 630.81 1713.5
-294.58 633.78 1721.5
-313.18 684.18 1858.4
-306.04 689.81 1873.7
-294.43 674.35 1831.7
-299.04 696.12 1890.9
-293.66 694.99 1887.8
-277.78 668.56 1816.0
-268.14 656.47 1783.2
-276.51 688.86 1871.1
-289.17 733.24 1991.7
-284.09 733.48 1992.4
-279.93 736.11 1999.5
-260.94 712.57 1935.6
-248.37 691.53 1878.4
-247.07 701.68 1906.0
-241.73 700.51 1902.8
-235.35 696.25 1891.2
-231.42 699.19 1899.2
-222.67 687.36 1867.1
-214.51 676.90 1838.7
-214.05 690.81 1876.5
-211.01 696.83 1892.8
-206.46 698.03 1896.1
-200.50 694.42 1886.3
-184.52 655.04 1779.3
-186.70 697.66 1895.0
-172.07 698.11 1896.3
-163.64 683.44 1856.4
-161.90 696.66 1892.3
-163.00 723.32 1964.7
-155.71 737.02 2002.0
-146.96 719.57 1954.6
-142.05 720.38 1956.8
-137.06 720.84 1958.0
-130.30 711.65 1933.0
-122.52 695.89 1890.3
-117.63 695.99 1890.5
-120.29 742.66 2017.3
-103.18 732.59 1989.9
-99.97 747.17 2029.5
-70.36 713.69 1938.6
-59.81 653.32 1774.6
-60.09 711.04 1931.4
-42.78 674.91 1833.2
-28.43 672.92 1827.9
-23.01 653.60 1775.4
-18.21 646.36 1755.7
-13.52 640.16 1738.9
-9.15 649.84 1765.2
-4.51 640.86 1740.8
0.00 628.08 1706.1
4.47 635.34 1725.8
8.67 615.29 1671.3
11.49 543.77 1477.0
14.67 520.61 1414.1
20.98 595.91 1618.7
24.26 574.13 1559.5
23.62 479.11 1301.4
25.69 455.95 1238.5
32.42 511.53 1389.5
37.29 529.46 1438.2
43.71 564.31 1532.8
46.63 551.84 1499.0
45.46 496.55 1348.8
47.22 478.90 1300.8
52.77 499.58 1357.0
60.99 541.30 1470.3
59.96 500.86 1360.5
60.95 480.79 1306.0
66.08 493.85 1341.5
66.58 472.75 1284.1
72.46 489.94 1330.8
71.57 461.94 1254.8
65.54 404.61 1099.1
71.64 423.87 1151.4
76.86 436.57 1185.9
82.83 452.37 1228.8
98.45 517.79 1406.5
105.82 536.67 1457.8
104.52 511.77 1390.1
107.01 506.51 1375.8
114.17 522.95 1420.5
115.19 511.15 1388.4
108.60 467.31 1269.4
100.99 421.77 1145.7
108.01 438.21 1190.3
130.70 515.56 1400.4
127.85 490.67 1332.8
119.77 447.56 1215.7
139.80 509.02 1382.7
150.42 534.01 1450.5
152.16 527.01 1431.5
169.76 573.96 1559.1
167.52 553.20 1502.7
146.25 471.99 1282.1
144.86 457.10 1241.6
182.51 563.41 1530.4
-521.10 727.48 1990.1
-489.53 704.32 1926.7
-503.41 731.77 2001.8
-480.05 712.49 1949.1
-454.72 682.08 1865.9
-429.36 650.96 1780.7
-404.41 619.81 1695.5
-401.31 621.80 1701.0
-434.78 681.15 1863.3
-449.22 711.69 1946.9
-414.86 664.71 1818.4
-386.31 626.08 1712.7
-383.49 628.74 1720.0
-388.33 644.18 1762.2
-370.52 621.95 1701.4
-347.86 590.95 1616.6
-356.56 613.11 1677.2
-371.53 646.74 1769.2
-360.04 634.57 1735.9
-350.79 626.09 1712.7
-350.80 634.13 1734.7
-350.14 641.16 1753.9
-348.65 646.85 1769.5
-343.14 645.10 1764.7
-334.45 637.27 1743.3
-324.30 626.38 1713.5
-328.62 643.55 1760.5
-320.44 636.37 1740.8
-286.65 577.40 1579.5
-292.94 598.63 1637.6
-320.83 665.25 1819.8
-322.19 678.05 1854.8
-312.75 668.14 1827.7
-294.82 670.49 1834.2
-284.59 657.82 1799.5
-295.64 694.74 1900.5
-295.36 705.86 1930.9
-280.66 682.30 1866.5
-284.30 703.27 1923.9
-283.13 725.85 1985.6
-268.69 701.57 1919.2
-259.57 690.56 1889.1
-256.01 694.17 1899.0
-257.32 711.42 1946.1
-252.47 711.97 1947.6
-243.23 699.90 1914.6
-241.93 710.67 1944.1
-243.21 729.63 1995.9
-235.76 722.66 1976.9
-227.98 714.32 1954.1
-219.45 736.73 2015.4
-204.25 702.40 1921.5
-198.24 698.81 1911.6
-196.26 709.57 1941.1
-185.56 688.53 1883.5
-177.85 677.74 1854.0
