ply
format ascii 1.0
element vertex 2117
property float x
property float y
property float z
end_header
-1130.35 780.75 2247.4
-1102.89 773.76 2227.2
-1117.55 788.17 2268.7
-1127.41 799.33 2300.8
-1124.22 809.92 2331.3
-1072.33 785.21 2260.2
-1062.56 782.33 2251.9
-1086.05 804.04 2314.4
-1089.50 811.07 2334.6
-1094.86 819.62 2359.2
-1054.35 798.21 2297.6
-1073.47 817.30 2352.6
-1045.47 800.53 2304.3
-1012.69 822.43 2367.3
-999.21 816.43 2350.1
-948.36 779.63 2244.1
-930.36 784.08 2256.9
-950.17 805.84 2319.6
-888.07 777.79 2238.8
-911.85 809.20 2329.2
-923.78 825.24 2375.4
-912.52 831.82 2394.4
-882.26 832.55 2396.5
-853.90 829.15 2386.7
-832.44 814.21 2343.7
-831.71 819.48 2358.8
-807.68 801.70 2307.7
-815.06 815.06 2346.1
-793.95 812.14 2337.7
-785.42 809.59 2330.4
-764.16 806.28 2320.8
-710.86 787.24 2266.0
-707.71 790.28 2274.8
-713.69 817.39 2352.8
-697.00 819.28 2358.3
-705.72 836.88 2408.9
-680.87 814.62 2344.8
-629.09 802.83 2310.9
-618.77 797.26 2294.9
-619.78 806.32 2321.0
-595.11 813.72 2342.3
-511.65 737.22 2122.1
-516.75 752.65 2166.5
-1884.79 785.82 2279.0
-1862.02 788.69 2287.3
-1818.05 777.49 2254.8
-1822.56 787.02 2282.4
-1815.78 786.64 2281.3
-1836.60 798.26 2315.0
-1817.78 792.67 2298.8
-1796.39 788.52 2286.8
-1810.56 805.36 2335.6
-1757.66 784.46 2275.0
-1783.82 798.81 2316.6
-1815.78 818.64 2374.1
-1741.76 790.63 2292.9
-1694.98 774.68 2246.7
-1759.47 806.93 2340.2
-1770.47 814.78 2363.0
-1671.64 785.61 2278.4
-1660.82 783.30 2271.6
-1652.29 782.05 2268.0
-1693.56 804.44 2333.0
-1714.28 817.20 2370.0
-1631.74 783.47 2272.1
-1630.17 791.29 2294.8
-1609.38 784.06 2273.8
-1602.53 783.59 2272.5
-1658.75 814.07 2360.9
-1585.00 786.59 2281.2
-1526.47 763.23 2213.5
-1639.54 822.87 2386.4
-1633.01 822.69 2385.9
-1621.06 819.78 2377.4
-1572.44 801.28 2323.8
-1555.80 795.85 2308.1
-1609.96 826.73 2397.6
-1608.72 829.30 2405.1
-1513.15 789.21 2288.8
-1473.99 771.81 2238.3
-1527.24 802.86 2328.4
-1550.73 818.44 2373.6
-1532.09 818.34 2373.3
-1486.05 796.95 2311.2
-1435.57 773.00 2241.8
-1431.31 773.84 2244.2
-1460.50 792.84 2299.3
-1481.26 807.41 2341.6
-1492.64 816.96 2369.3
-1470.29 821.63 2382.8
-1441.43 815.79 2365.9
-1412.54 813.28 2358.6
-1406.43 813.28 2358.6
-1410.10 818.97 2375.1
-1341.99 782.83 2270.3
-1304.69 774.66 2246.6
-1353.92 807.50 2341.8
-1266.53 769.17 2230.7
-1265.34 771.97 2238.8
-1301.20 797.51 2312.9
-1312.89 808.40 2344.4
-1282.85 801.03 2323.1
-1233.85 777.73 2255.5
-1288.26 815.90 2366.2
-1201.88 779.75 2261.4
-1241.46 809.39 2347.3
-1253.07 820.98 2380.9
-1239.48 824.26 2390.4
-1198.02 804.73 2333.8
-1146.59 774.10 2245.0
-1151.39 781.30 2265.9
-1144.89 780.87 2264.6
-1112.62 762.78 2212.1
-1122.69 781.77 2267.2
-1148.26 803.78 2331.1
-1100.80 782.92 2270.6
-1069.38 764.66 2217.6
-1113.34 800.40 2321.3
-1085.27 793.08 2300.0
-1043.41 770.96 2235.9
-1067.40 802.06 2326.0
-1030.93 788.01 2285.3
-1064.55 818.41 2373.5
-988.71 801.82 2325.4
-945.30 771.32 2236.9
-972.50 818.62 2374.1
-939.34 806.01 2337.5
-907.33 809.90 2348.8
-856.84 814.00 2360.7
-819.43 784.06 2273.9
-850.03 819.23 2375.9
-798.49 792.53 2298.4
-770.85 794.75 2304.9
-751.98 806.56 2339.1
-726.79 785.88 2279.1
-723.38 788.60 2287.0
-710.54 781.00 2265.0
-701.46 777.46 2254.7
-734.16 820.53 2379.6
-724.44 830.60 2408.8
-707.80 818.59 2374.0
-673.30 785.52 2278.1
-665.95 783.81 2273.1
-685.88 814.48 2362.1
-684.12 819.71 2377.2
-645.24 809.59 2347.9
-628.31 795.86 2308.1
-634.30 811.18 2352.5
-599.76 813.97 2360.6
-526.93 753.57 2185.4
-499.75 738.52 2141.8
-1836.71 772.12 2256.2
-1829.99 771.75 2255.1
-1858.51 786.29 2297.6
-1833.74 785.89 2296.4
-1817.31 781.38 2283.3
-1824.93 787.22 2300.3
-1794.94 792.41 2315.5
-1785.71 790.99 2311.3
-1697.62 770.05 2250.2
-1711.14 778.86 2275.9
-1740.75 795.08 2323.3
-1685.39 772.47 2257.2
-1702.83 788.68 2304.6
-1731.97 805.00 2352.3
-1727.85 805.92 2355.0
-1731.69 810.58 2368.6
-1674.18 786.45 2298.1
-1669.01 786.82 2299.1
-1683.98 799.59 2336.5
-1653.98 788.18 2303.1
-1626.17 789.17 2306.0
-1571.58 779.88 2278.9
-1627.38 810.62 2368.7
-1563.81 781.90 2284.8
-1511.38 758.56 2216.6
-1491.10 751.24 2195.2
-1519.04 771.21 2253.5
-1599.07 814.97 2381.4
-1605.71 824.72 2409.9
-1558.16 803.42 2347.7
-1526.21 790.04 2308.6
-1555.21 808.22 2361.7
-1563.45 815.71 2383.6
-1534.80 803.94 2349.2
-1508.74 803.04 2346.5
-1472.16 786.74 2298.9
-1477.61 792.87 2316.8
-1486.59 800.94 2340.4
-1487.78 804.86 2351.9
-1492.50 810.74 2369.0
-1439.41 798.33 2332.8
-1434.80 805.93 2355.0
-1392.37 785.44 2295.1
-1343.23 760.97 2223.6
-1340.36 762.62 2228.4
-1360.64 777.51 2271.9
-1372.88 787.92 2302.4
-1414.38 815.28 2382.3
-1287.73 755.47 2207.5
-1335.83 787.18 2300.2
-1251.85 751.11 2194.8
-1264.48 762.15 2227.1
-1320.33 803.15 2346.9
-1280.47 782.51 2286.5
-1281.43 786.74 2298.9
-1282.34 790.97 2311.3
-1303.10 807.56 2359.7
-1265.72 795.60 2324.8
-1280.57 808.78 2363.3
-1232.12 789.52 2307.0
-1222.41 787.11 2300.0
-1143.85 766.44 2239.6
-1121.90 759.44 2219.1
-1124.06 768.79 2246.5
-1126.20 782.41 2286.3
-1084.43 765.48 2236.8
-1080.61 771.03 2253.0
-1101.89 799.17 2335.2
-1054.63 769.12 2247.4
-1092.17 800.92 2340.4
-1037.85 773.99 2261.6
-1028.55 771.41 2254.1
-1065.66 813.11 2376.0
-1006.00 785.75 2296.0
-1047.77 823.25 2405.6
-1023.51 813.87 2378.2
-914.94 759.57 2219.5
-901.26 767.52 2242.8
-926.48 804.58 2351.0
-913.34 803.74 2348.6
-860.94 762.71 2228.7
-906.28 819.38 2394.3
-884.69 805.37 2353.4
-886.26 812.41 2373.9
-882.11 814.25 2379.3
-869.04 807.84 2360.6
-857.69 802.95 2346.3
-816.53 769.87 2249.6
-840.70 804.15 2349.8
-847.97 817.02 2387.4
-840.19 815.47 2382.9
-783.75 777.86 2273.0
-798.75 798.75 2334.0
-778.59 784.53 2292.5
-789.51 807.87 2360.7
-712.48 777.25 2271.2
-717.51 789.26 2306.3
-726.57 805.95 2355.0
-730.95 817.67 2389.3
-721.92 814.47 2379.9
-706.36 803.79 2348.7
-711.58 816.77 2386.7
-702.07 812.93 2375.4
-665.37 777.25 2271.2
-668.08 794.47 2321.5
-639.68 796.58 2327.7
-619.98 794.54 2321.7
-522.44 741.53 2166.8
-511.15 733.39 2143.0
-507.82 736.62 2152.5
-1867.21 786.51 2315.8
-1872.49 791.28 2329.8
-1833.00 777.10 2288.1
-1839.49 782.38 2303.6
-1720.22 769.11 2264.6
-1746.06 783.34 2306.4
-1723.50 775.87 2284.5
-1717.25 775.73 2284.0
-1730.68 784.49 2309.9
-1676.14 767.74 2260.5
-1676.80 770.74 2269.3
-1705.74 803.79 2366.7
-1618.73 779.61 2295.5
-1593.59 781.87 2302.1
-1580.66 778.44 2292.0
-1510.02 757.90 2231.6
-1537.65 774.74 2281.1
-1599.97 809.25 2382.8
-1607.69 819.48 2412.9
-1562.76 809.18 2382.5
-1483.07 770.96 2270.0
-1516.72 807.69 2378.1
-1496.74 800.30 2356.4
-1481.97 795.65 2342.7
-1470.83 792.92 2334.6
-1396.37 768.59 2263.0
-1366.84 755.51 2224.5
-1442.15 803.92 2367.0
-1411.06 793.34 2335.9
-1384.22 781.61 2301.4
-1377.74 781.31 2300.5
-1336.83 761.41 2241.9
-1324.09 757.45 2230.2
-1342.64 771.43 2271.4
-1305.05 753.14 2217.5
-1298.67 756.11 2226.3
-1319.78 771.83 2272.6
-1369.99 804.79 2369.6
-1304.42 776.72 2287.0
-1317.34 788.00 2320.2
-1279.30 772.30 2273.9
-1300.00 788.42 2321.4
-1292.89 802.69 2363.4
-1256.43 783.77 2307.7
-1248.96 782.84 2305.0
-1242.86 782.76 2304.8
-1213.29 775.32 2282.8
-1245.73 799.95 2355.4
-1222.11 788.65 2322.1
-1221.27 792.01 2332.0
-1213.32 790.77 2328.3
-1228.29 804.53 2368.8
-1183.34 786.89 2316.9
-1138.14 760.70 2239.8
-1123.92 755.04 2223.1
-1139.43 769.41 2265.4
-1148.78 787.91 2319.9
-1129.89 779.03 2293.8
-1140.21 794.51 2339.3
-1075.13 753.16 2217.6
-1081.82 770.21 2267.8
-1098.13 790.41 2327.3
-1092.69 790.84 2328.5
-1026.85 764.30 2250.4
-1039.80 787.36 2318.3
-1040.42 797.05 2346.8
-1022.28 801.91 2361.1
-1006.50 803.97 2367.2
-1012.35 813.61 2395.6
-1006.77 819.17 2412.0
-941.51 785.59 2313.1
-905.17 760.11 2238.1
-907.92 767.34 2259.4
-941.70 801.06 2358.6
-910.68 779.73 2295.8
-887.71 770.13 2267.6
-913.28 797.60 2348.4
-920.28 809.11 2382.3
-892.97 790.40 2327.2
-868.29 773.78 2278.3
-890.22 809.85 2384.5
-839.34 768.90 2263.9
-842.01 776.78 2287.1
-845.22 785.27 2312.1
-816.13 763.67 2248.5
-823.39 787.33 2318.2
-793.60 764.42 2250.8
-808.48 784.52 2309.9
-811.04 804.89 2369.9
-774.08 786.08 2314.5
-789.90 808.41 2380.3
-774.75 799.16 2353.0
-757.07 787.12 2317.6
-736.62 771.98 2273.0
-747.51 796.13 2344.1
-749.39 804.68 2369.3
-706.90 812.32 2391.8
-673.11 787.30 2318.1
-663.57 783.14 2305.9
-648.60 794.08 2338.1
-621.01 767.48 2259.8
-610.15 776.01 2284.9
-623.52 800.79 2357.8
-599.50 801.37 2359.5
-587.45 793.37 2336.0
-537.36 740.99 2181.8
-529.07 737.32 2171.0
-521.72 734.89 2163.8
-1894.97 772.24 2291.3
-1875.89 766.87 2275.3
-1835.46 757.49 2247.5
-1799.53 752.22 2231.8
-1811.63 759.71 2254.1
-1827.75 789.39 2342.2
-1793.07 784.85 2328.7
-1810.30 795.06 2359.0
-1819.79 801.94 2379.4
-1757.63 790.63 2345.8
-1702.35 776.51 2303.9
-1703.48 779.76 2313.6
-1562.89 758.12 2249.4
-1598.30 778.20 2308.9
-1568.08 781.03 2317.4
-1586.29 799.29 2371.5
-1556.27 787.22 2335.7
-1527.98 775.93 2302.2
-1513.61 771.64 2289.5
-1516.22 776.02 2302.5
-1540.95 791.79 2349.3
-1501.28 774.47 2297.9
-1525.87 796.64 2363.7
-1537.01 805.69 2390.5
-1514.33 797.02 2364.8
-1451.39 767.00 2275.7
-1427.98 757.70 2248.1
-1415.98 754.42 2238.4
-1414.27 756.61 2244.9
-1433.99 770.33 2285.6
-1443.87 778.85 2310.9
-1452.64 786.84 2334.6
-1444.59 785.76 2331.4
-1375.48 751.31 2229.2
-1415.38 789.70 2343.1
-1409.80 789.98 2343.9
-1345.47 763.81 2266.2
-1306.79 745.10 2210.7
-1289.79 741.91 2201.3
-1294.61 748.00 2219.3
-1301.77 755.49 2241.6
-1339.10 780.64 2316.2
-1318.66 786.36 2333.2
-1288.55 771.94 2290.4
-1284.39 780.24 2315.0
-1226.82 748.77 2221.6
-1241.23 764.74 2269.0
-1276.47 790.20 2344.5
-1221.88 760.02 2255.0
-1233.85 782.44 2321.5
-1208.43 770.08 2284.8
-1188.51 761.12 2258.3
-1192.26 767.30 2276.6
-1200.80 776.64 2304.3
-1232.15 800.90 2376.3
-1216.51 798.72 2369.8
-1150.37 782.98 2323.1
-1145.43 783.71 2325.3
-1102.13 766.18 2273.3
-1055.69 737.85 2189.2
-1085.41 766.86 2275.3
-1048.57 774.51 2298.0
-1065.27 791.34 2347.9
-1044.79 785.11 2329.4
-1044.73 789.62 2342.8
-945.89 749.79 2224.7
-983.67 784.52 2327.7
-956.94 782.41 2321.4
-919.51 756.56 2244.7
-922.36 763.74 2266.0
-910.08 758.40 2250.2
-888.56 750.08 2225.5
-907.08 770.72 2286.8
-890.18 781.91 2320.0
-843.06 750.67 2227.3
-845.23 773.80 2295.9
-863.49 796.12 2362.1
-821.50 768.31 2279.6
-823.91 776.15 2302.9
-831.79 806.96 2394.3
-820.28 801.78 2378.9
-790.95 778.96 2311.2
-755.74 755.74 2242.3
-773.42 779.42 2312.6
-767.97 779.97 2314.2
-766.37 784.48 2327.6
-762.94 787.16 2335.5
-750.07 780.07 2314.5
-726.17 800.02 2373.7
-726.85 814.57 2416.9
-706.10 798.20 2368.3
-704.99 803.94 2385.3
-700.85 806.29 2392.3
-664.58 771.39 2288.7
-647.75 758.62 2250.9
-654.57 773.59 2295.3
-658.99 800.64 2375.5
-614.16 753.22 2234.8
-608.98 753.98 2237.1
-619.88 774.85 2299.0
-600.29 757.65 2248.0
-571.02 734.97 2180.7
-614.36 798.67 2369.7
-1882.97 766.25 2291.1
-1835.09 749.13 2239.9
-1836.36 752.03 2248.6
-1848.60 759.46 2270.8
-1810.15 748.43 2237.8
-1833.22 760.40 2273.6
-1840.41 765.85 2289.9
-1807.24 761.88 2278.0
-1783.11 761.66 2277.4
-1814.99 777.85 2325.8
-1731.47 752.05 2248.7
-1774.15 773.19 2311.9
-1810.74 791.81 2367.6
-1734.60 768.95 2299.2
-1742.27 775.01 2317.3
-1753.34 782.63 2340.1
-1723.87 772.15 2308.8
-1724.49 775.12 2317.6
-1609.37 749.49 2241.0
-1599.51 755.81 2259.9
-1605.47 761.42 2276.7
-1557.58 741.43 2216.9
-1562.09 751.90 2248.2
-1605.76 775.82 2319.7
-1559.28 782.67 2340.2
-1495.27 753.48 2252.9
-1483.70 759.51 2271.0
-1503.01 781.81 2337.6
-1431.00 750.40 2243.7
-1469.57 773.77 2313.6
-1446.64 764.82 2286.8
-1436.12 762.38 2279.5
-1443.00 769.20 2299.9
-1436.04 768.67 2298.4
-1414.86 760.48 2273.9
-1379.57 744.62 2226.4
-1372.75 744.05 2224.7
-1371.47 746.49 2232.0
-1369.15 748.39 2237.7
-1405.32 771.43 2306.6
-1434.24 790.67 2364.1
-1433.61 793.71 2373.2
-1386.36 770.86 2304.9
-1370.48 765.33 2288.4
-1399.21 795.15 2377.5
-1374.59 784.61 2346.0
-1356.87 777.94 2326.1
-1287.99 745.07 2227.8
-1301.75 756.42 2261.7
-1286.24 750.79 2244.9
-1308.38 767.19 2293.9
-1345.97 792.83 2370.6
-1322.70 789.94 2362.0
-1274.45 764.67 2286.4
-1252.12 754.78 2256.8
-1250.77 757.51 2265.0
-1237.35 760.08 2272.7
-1202.97 746.07 2230.8
-1233.76 768.86 2298.9
-1232.05 779.09 2329.5
-1196.85 760.56 2274.1
-1189.45 759.60 2271.2
-1190.92 764.32 2285.4
-1191.89 768.77 2298.6
-1181.37 765.81 2289.8
-1172.64 763.99 2284.4
-1208.82 791.56 2366.8
-1143.81 764.51 2285.9
-1115.02 773.32 2312.2
-1109.22 773.46 2312.7
-1095.07 776.18 2320.8
-1043.10 760.23 2273.1
-1031.79 756.25 2261.2
-1061.23 782.28 2339.0
-990.90 743.17 2222.1
-990.37 755.97 2260.4
-998.00 775.55 2318.9
-904.92 738.83 2209.1
-857.50 757.65 2265.4
-848.26 754.66 2256.5
-858.08 768.70 2298.4
-868.70 783.66 2343.2
-875.16 795.04 2377.2
-851.80 796.25 2380.8
-825.83 777.60 2325.1
-791.64 767.84 2295.9
-789.16 783.09 2341.5
-786.97 786.97 2353.1
-781.12 787.23 2353.8
-776.16 788.38 2357.3
-774.73 793.18 2371.6
-762.94 787.36 2354.2
-723.88 778.17 2326.8
-693.05 751.29 2246.4
-729.20 797.18 2383.6
-697.40 789.17 2359.6
-641.73 752.58 2250.2
-677.19 801.45 2396.4
-621.60 778.51 2327.8
-601.08 767.72 2295.5
-584.01 753.37 2252.6
-549.79 723.70 2163.9
-543.09 722.25 2159.6
-535.49 719.56 2151.5
-1866.67 756.12 2278.5
-1826.23 742.09 2236.2
-1873.02 770.89 2323.0
-1844.81 764.19 2302.8
-1820.17 761.38 2294.3
-1846.98 775.13 2335.8
-1767.69 751.71 2265.2
-1792.99 765.01 2305.3
-1818.34 781.03 2353.6
-1740.61 750.16 2260.5
-1731.18 751.16 2263.5
-1740.81 757.91 2283.9
-1692.75 742.03 2236.0
-1687.98 745.04 2245.1
-1715.41 759.77 2289.5
-1709.73 759.88 2289.8
-1695.39 756.13 2278.5
-1701.22 761.39 2294.4
-1709.85 770.64 2322.2
-1720.08 777.99 2344.4
-1691.47 767.76 2313.6
-1639.64 752.24 2266.8
-1621.49 749.28 2257.9
-1634.34 757.95 2284.0
-1627.48 757.52 2282.7
-1602.17 748.46 2255.4
-1593.68 747.22 2251.7
-1618.57 761.68 2295.2
-1599.48 755.47 2276.5
-1577.68 747.94 2253.8
-1573.06 748.52 2255.6
-1562.94 746.48 2249.4
-1563.26 749.43 2258.3
-1541.64 741.84 2235.5
-1550.13 748.74 2256.3
-1512.19 744.46 2243.4
-1494.09 738.39 2225.1
-1498.35 770.23 2321.0
-1487.74 774.11 2332.7
-1498.42 786.06 2368.7
-1474.40 776.64 2340.3
-1466.86 775.86 2338.0
-1432.79 760.98 2293.1
-1380.58 736.31 2218.8
-1392.53 745.79 2247.4
-1431.66 769.97 2320.2
-1429.19 771.88 2326.0
-1425.18 772.98 2329.3
-1430.30 789.13 2378.0
-1380.18 764.78 2304.6
-1419.00 789.71 2379.7
-1409.63 791.37 2384.7
-1406.38 793.03 2389.7
-1396.31 790.83 2383.1
-1338.78 761.62 2295.1
-1279.65 744.53 2243.5
-1315.00 768.58 2316.0
-1316.01 772.70 2328.5
-1239.52 748.39 2255.2
-1270.69 781.96 2356.4
-1255.85 776.57 2340.1
-1262.78 784.64 2364.4
-1266.91 791.04 2383.7
-1231.02 772.40 2327.6
-1206.98 761.05 2293.3
-1212.89 768.57 2316.0
-1194.77 760.85 2292.7
-1176.30 752.83 2268.6
-1179.47 758.66 2286.1
-1185.64 766.47 2309.7
-1198.24 778.55 2346.1
-1141.18 745.26 2245.8
-1121.85 763.81 2301.7
-1118.18 765.38 2306.4
-1129.47 777.27 2342.2
-1117.40 773.12 2329.7
-1104.37 776.70 2340.5
-1040.31 735.69 2216.9
-1080.46 768.33 2315.3
-1015.77 738.74 2226.1
-1038.19 759.36 2288.3
-1018.83 758.20 2284.8
-1013.30 767.47 2312.7
-989.08 753.59 2270.8
-980.24 751.33 2264.0
-977.19 772.10 2326.6
-955.04 759.28 2288.0
-902.53 750.16 2260.5
-887.18 742.22 2236.6
-907.32 764.06 2302.4
-918.75 789.26 2378.3
-894.94 784.61 2364.3
-887.16 783.14 2359.9
-896.75 797.11 2402.0
-878.27 786.14 2369.0
-854.32 770.10 2320.6
-865.02 785.26 2366.3
-798.20 762.46 2297.6
-780.02 756.38 2279.3
-792.67 786.53 2370.1
-770.56 770.56 2322.0
-761.20 767.19 2311.9
-753.37 765.32 2306.2
-737.62 755.32 2276.1
-743.31 767.29 2312.1
-728.93 777.52 2343.0
-708.16 761.72 2295.4
-712.26 785.94 2368.3
-712.83 793.42 2390.9
-678.19 761.48 2294.6
-651.59 751.38 2264.2
-667.02 776.17 2338.9
-621.32 772.13 2326.7
-538.18 717.58 2162.3
-537.88 724.72 2183.9
-1893.36 760.94 2311.1
-1875.53 756.17 2296.6
-1856.51 750.88 2280.5
-1792.78 744.06 2259.8
-1830.55 767.26 2330.3
-1800.09 764.59 2322.1
-1749.66 760.98 2311.2
-1741.04 759.84 2307.7
-1732.43 758.69 2304.2
-1730.79 760.59 2310.0
-1737.22 766.07 2326.6
-1729.74 765.42 2324.7
-1738.95 772.19 2345.2
-1705.54 765.38 2324.6
-1674.91 765.16 2323.9
-1689.40 774.56 2352.4
-1644.60 759.51 2306.7
-1619.24 750.52 2279.4
-1612.38 750.08 2278.1
-1628.91 766.19 2327.0
-1604.84 757.67 2301.1
-1542.85 731.12 2220.5
-1533.15 731.99 2223.2
-1515.72 740.37 2248.6
-1486.84 729.07 2214.3
-1498.84 737.80 2240.8
-1495.23 738.89 2244.1
-1477.74 733.10 2226.5
-1525.04 765.53 2325.0
-1500.41 762.21 2314.9
-1451.62 740.38 2248.6
-1464.42 752.96 2286.8
-1488.07 768.23 2333.2
-1478.47 766.39 2327.6
-1495.67 778.48 2364.3
-1461.55 767.01 2329.5
-1390.74 732.88 2225.8
-1389.78 738.50 2242.9
-1417.31 756.30 2297.0
-1408.84 754.95 2292.9
-1417.97 763.06 2317.5
-1415.44 768.21 2333.2
-1399.95 763.06 2317.5
-1389.77 767.40 2330.7
-1314.46 728.98 2214.0
-1328.70 740.11 2247.8
-1371.10 767.09 2329.8
-1395.67 784.29 2382.0
-1373.02 774.99 2353.7
-1305.55 740.20 2248.1
-1297.70 739.05 2244.6
-1278.22 734.54 2230.9
-1286.13 742.45 2254.9
-1295.85 751.47 2282.3
-1260.99 734.61 2231.1
-1245.18 728.74 2213.3
-1290.39 769.38 2336.7
-1285.16 769.89 2338.2
-1276.24 768.17 2333.0
-1271.01 768.66 2334.5
-1284.08 780.28 2369.8
-1259.16 768.81 2335.0
-1226.20 752.30 2284.8
-1235.96 761.98 2314.2
-1240.65 768.60 2334.3
-1241.21 772.71 2346.8
-1251.10 782.71 2377.2
-1235.91 777.03 2359.9
-1191.08 752.57 2285.7
-1174.82 746.01 2265.7
-1181.97 754.32 2291.0
-1169.29 750.00 2277.8
-1160.58 748.19 2272.3
-1131.94 756.61 2297.9
-1093.79 742.84 2256.1
-1121.77 774.26 2351.5
-1106.84 768.14 2332.9
-1102.21 769.13 2335.9
-1056.24 753.61 2288.8
-1062.04 762.03 2314.4
-1047.45 755.83 2295.5
-1032.36 757.86 2301.7
-968.01 749.62 2276.7
-973.46 777.55 2361.5
-939.14 754.88 2292.7
-926.54 764.10 2320.7
-895.89 743.65 2258.5
-881.29 736.34 2236.4
-904.08 760.39 2309.4
-914.06 773.91 2350.4
-873.56 744.58 2261.4
-893.19 776.95 2359.7
-872.97 764.60 2322.2
-854.25 753.40 2288.2
-865.67 785.29 2385.0
-848.16 780.55 2370.6
-797.25 739.06 2244.6
-789.16 736.94 2238.2
-786.14 739.56 2246.1
-789.98 748.72 2273.9
-813.92 777.20 2360.4
-795.45 777.10 2360.1
-769.61 757.68 2301.2
-778.92 772.83 2347.2
-745.00 763.03 2317.4
-724.43 747.99 2271.7
-732.84 762.87 2316.9
-726.18 762.19 2314.9
-715.56 757.30 2300.0
-727.51 776.42 2358.1
-688.59 753.89 2289.7
-674.65 745.05 2262.8
-659.76 734.99 2232.3
-655.12 742.86 2256.2
-682.38 780.74 2371.2
-618.90 734.58 2231.0
-615.87 759.37 2306.3
-591.10 743.26 2257.4
-563.82 716.06 2174.7
-528.38 713.88 2168.1
-1810.97 731.35 2238.8
-1785.71 737.70 2258.3
-1746.03 733.33 2244.9
-1785.57 752.45 2303.4
-1803.66 775.64 2374.4
-1766.98 765.09 2342.1
-1751.34 760.93 2329.4
-1727.03 752.96 2305.0
-1710.90 748.52 2291.4
-1672.63 742.08 2271.7
-1709.86 761.28 2330.4
-1729.18 772.61 2365.1
-1694.30 759.72 2325.7
-1684.53 758.04 2320.5
-1709.35 771.96 2363.2
-1669.59 764.98 2341.8
-1625.13 747.32 2287.7
-1575.83 727.31 2226.5
-1584.66 734.07 2247.2
-1557.79 735.14 2250.4
-1534.53 726.88 2225.1
-1558.37 740.96 2268.2
-1524.25 727.48 2227.0
-1519.40 739.17 2262.8
-1515.76 740.25 2266.1
-1518.52 744.49 2279.1
-1508.96 742.69 2273.5
-1522.30 752.19 2302.6
-1503.66 748.86 2292.4
-1477.50 756.77 2316.6
-1418.59 741.67 2270.4
-1368.04 724.25 2217.1
-1386.95 737.37 2257.2
-1424.81 760.71 2328.7
-1352.05 734.30 2247.9
-1376.84 751.01 2299.0
-1337.82 732.89 2243.5
-1314.73 723.39 2214.5
-1379.93 762.59 2334.5
-1384.60 768.54 2352.7
-1389.83 778.30 2382.6
-1322.50 754.01 2308.2
-1288.80 738.13 2259.6
-1317.52 758.02 2320.5
-1301.02 751.97 2301.9
-1235.07 717.14 2195.3
-1251.32 729.94 2234.5
-1283.16 762.63 2334.6
-1267.79 757.07 2317.6
-1258.92 755.35 2312.3
-1225.63 753.31 2306.1
-1218.61 752.67 2304.1
-1222.33 758.69 2322.5
-1199.24 748.04 2289.9
-1186.04 743.49 2276.0
-1198.95 762.97 2335.6
-1164.79 745.00 2280.6
-1180.44 758.86 2323.0
-1145.97 748.15 2290.2
-1090.23 715.46 2190.2
-1122.63 740.58 2267.1
-1057.69 708.88 2170.0
-1069.37 720.54 2205.7
-1052.87 724.93 2219.2
-1071.82 742.03 2271.5
-1051.02 731.65 2239.7
-1085.10 759.57 2325.2
-1006.94 729.16 2232.1
-1011.85 736.95 2256.0
-1016.78 762.58 2334.4
-997.90 752.91 2304.8
-987.11 749.25 2293.6
-975.39 749.39 2294.0
-963.66 749.51 2294.4
-955.52 766.85 2347.5
-910.75 735.61 2251.9
-919.58 747.53 2288.3
-930.71 761.49 2331.1
-884.50 728.41 2229.8
-895.97 747.63 2288.7
-881.73 745.63 2282.5
-881.65 750.60 2297.7
-868.18 754.42 2309.4
-839.12 734.23 2247.6
-833.00 749.70 2295.0
-845.50 766.42 2346.2
-805.48 740.80 2267.8
-827.52 766.67 2347.0
-794.58 741.61 2270.2
-819.47 776.34 2376.5
-801.56 770.96 2360.1
-765.80 742.24 2272.2
-750.15 732.71 2243.0
-768.33 756.33 2315.3
-780.79 774.64 2371.3
-765.69 765.69 2344.0
-738.80 750.72 2298.1
-712.62 735.99 2253.0
-711.83 741.25 2269.1
-704.16 739.36 2263.4
-676.18 747.36 2287.8
-655.93 731.39 2238.9
-670.49 754.30 2309.1
-680.75 772.75 2365.6
-672.16 769.93 2356.9
-678.92 784.81 2402.5
-664.36 775.09 2372.7
-644.08 758.44 2321.8
-638.19 758.60 2322.3
-620.27 744.33 2278.6
-615.23 745.37 2281.8
-609.43 745.51 2282.2
-598.26 739.02 2262.3
-563.89 717.67 2197.0
-1850.92 739.18 2280.9
-1872.96 757.67 2338.0
-1779.37 729.25 2250.3
-1809.66 751.52 2319.0
-1797.18 758.95 2341.9
-1747.75 745.63 2300.8
-1747.92 748.25 2308.9
-1750.97 752.13 2320.9
-1727.21 744.49 2297.3
-1701.79 736.07 2271.3
-1747.67 758.54 2340.6
-1666.50 730.92 2255.4
-1683.25 746.12 2302.3
-1658.11 753.69 2325.7
-1662.38 758.38 2340.2
-1607.22 738.61 2279.1
-1608.14 741.76 2288.9
-1541.43 729.85 2252.1
-1569.98 746.19 2302.5
-1526.00 733.65 2263.8
-1481.46 714.99 2206.3
-1460.67 713.22 2200.8
-1487.39 752.73 2322.7
-1475.21 749.60 2313.0
-1455.31 742.50 2291.2
-1470.02 753.09 2323.8
-1362.74 715.72 2208.5
-1355.95 715.16 2206.8
-1358.22 719.39 2219.8
-1374.47 731.10 2256.0
-1394.08 744.70 2297.9
-1330.81 713.95 2203.1
-1330.11 719.76 2221.0
-1355.86 736.88 2273.8
-1400.08 764.23 2358.2
-1358.35 751.30 2318.3
-1316.40 731.33 2256.7
-1295.96 723.19 2231.6
-1329.98 752.25 2321.2
-1258.09 714.82 2205.7
-1250.34 713.66 2202.2
-1313.63 753.23 2324.2
-1326.88 764.33 2358.5
-1282.15 741.99 2289.6
-1292.98 751.73 2319.6
-1281.75 762.95 2354.2
-1234.18 756.24 2333.5
-1217.36 753.32 2324.5
-1181.44 734.73 2267.2
-1213.39 762.18 2351.9
-1174.65 749.14 2311.6
-1140.74 731.25 2256.4
-1127.35 726.39 2241.4
-1109.70 726.24 2241.0
-1137.18 748.15 2308.6
-1111.14 734.88 2267.6
-1100.84 731.94 2258.6
-1110.67 742.43 2290.9
-1078.25 724.63 2236.0
-1052.30 718.79 2218.0
-1069.22 734.36 2266.0
-1048.02 723.77 2233.3
-1055.76 733.17 2262.4
-1075.90 751.32 2318.4
-1077.29 756.52 2334.4
-1015.48 729.51 2251.1
-1013.68 732.43 2260.1
-1037.62 754.08 2326.9
-1034.44 756.17 2333.3
-1008.25 750.19 2314.9
-952.26 730.26 2253.4
-967.63 746.63 2303.9
-978.71 759.87 2344.7
-929.31 744.64 2297.7
-924.47 745.54 2300.5
-929.56 754.51 2328.2
-877.32 716.77 2211.7
-880.02 723.70 2233.1
-875.77 734.71 2267.1
-842.36 731.22 2256.3
-859.78 751.56 2319.1
-852.44 750.39 2315.5
-841.83 746.31 2302.9
-818.88 731.14 2256.1
-817.54 735.20 2268.6
-850.29 770.19 2376.6
-779.96 722.19 2228.5
-769.23 722.96 2230.8
-787.04 751.00 2317.4
-738.33 732.47 2260.2
-753.94 760.02 2345.2
-721.09 732.81 2261.3
-737.61 755.75 2332.0
-712.31 741.99 2289.6
-710.81 772.62 2384.1
-693.17 760.06 2345.3
-703.91 778.66 2402.7
-700.79 782.13 2413.4
-694.97 782.62 2414.9
-655.62 745.03 2298.9
-637.60 731.20 2256.3
-655.31 758.46 2340.4
-629.29 742.08 2289.9
-608.14 738.03 2277.4
-595.34 736.80 2273.6
-568.71 710.89 2193.6
-1819.39 720.78 2242.1
-1798.08 716.92 2230.1
-1823.61 729.44 2269.0
-1869.62 750.27 2333.8
-1816.92 738.68 2297.7
-1832.01 754.72 2347.6
-1826.11 759.86 2363.6
-1819.76 759.77 2363.3
-1761.07 747.85 2326.3
-1741.57 757.74 2357.0
-1700.74 742.58 2309.9
-1654.34 724.87 2254.8
-1686.40 741.54 2306.6
-1616.37 726.19 2258.9
-1601.13 721.96 2245.7
-1621.44 739.19 2299.3
-1626.22 744.10 2314.6
-1534.61 720.80 2242.1
-1498.94 706.73 2198.3
-1483.53 744.77 2316.7
-1397.18 718.88 2236.2
-1395.95 721.24 2243.5
-1408.91 730.98 2273.8
-1423.78 741.80 2307.4
-1343.86 712.13 2215.1
-1347.22 723.18 2249.5
-1372.93 740.19 2302.4
-1343.80 727.65 2263.4
-1327.58 722.02 2245.9
-1368.14 754.00 2345.4
-1276.84 709.99 2208.5
-1264.19 709.32 2206.4
-1252.14 705.75 2195.3
-1252.02 708.91 2205.1
-1259.39 722.98 2248.9
-1245.00 718.04 2233.5
-1240.94 719.05 2236.7
-1221.30 724.60 2253.9
-1238.67 745.61 2319.3
-1168.82 721.07 2242.9
-1194.69 740.71 2304.1
-1175.78 732.64 2279.0
-1162.23 727.86 2264.1
-1190.72 749.49 2331.4
-1171.88 741.40 2306.2
-1130.60 718.95 2236.4
-1108.61 708.60 2204.2
-1082.16 698.90 2174.0
-1125.31 730.57 2272.5
-1115.22 731.68 2276.0
-1113.73 734.59 2285.0
-1092.51 724.44 2253.5
-1054.60 706.87 2198.8
-1111.91 749.33 2330.9
-1085.90 735.80 2288.8
-1043.67 711.07 2211.9
-1051.54 720.39 2240.8
-1085.66 747.90 2326.4
-1084.66 751.39 2337.3
-1063.90 741.14 2305.4
-1062.08 744.06 2314.5
-1077.36 759.05 2361.1
-1070.62 758.61 2359.7
-1019.55 739.32 2299.7
-1015.64 740.82 2304.4
-1019.80 748.25 2327.5
-978.26 722.05 2246.0
-961.41 722.52 2247.5
-934.22 710.70 2210.7
-961.95 736.31 2290.4
-966.80 744.61 2316.2
-961.97 745.53 2319.0
-952.38 742.74 2310.4
-953.36 748.21 2327.4
-945.45 756.36 2352.7
-937.28 754.69 2347.5
-873.66 708.07 2202.5
-902.41 741.05 2305.1
-864.87 714.96 2223.9
-855.65 712.08 2215.0
-876.32 734.21 2283.8
-859.83 725.30 2256.1
-840.42 713.78 2220.3
-873.67 757.59 2356.6
-821.72 727.81 2263.9
-818.42 730.10 2271.0
-797.88 732.87 2279.7
-757.10 757.10 2355.0
-722.27 740.18 2302.4
-710.25 733.93 2283.0
-678.66 713.16 2218.4
-689.78 737.35 2293.6
-678.81 731.94 2276.8
-700.97 762.46 2371.7
-647.41 736.50 2291.0
-632.59 726.31 2259.3
-654.44 758.42 2359.1
-627.46 734.00 2283.2
-1841.99 733.22 2299.3
-1847.30 737.72 2313.4
-1813.15 736.03 2308.1
-1758.32 718.52 2253.2
-1764.67 723.52 2268.9
-1748.39 719.24 2255.5
-1792.62 739.91 2320.3
-1774.70 745.01 2336.3
-1705.78 718.53 2253.2
-1699.02 718.14 2252.0
-1703.89 722.69 2266.3
-1680.25 715.12 2242.5
-1679.87 717.44 2249.8
-1722.26 738.11 2314.6
-1601.99 713.93 2238.8
-1628.23 730.92 2292.1
-1562.05 706.37 2215.1
-1589.97 727.01 2279.8
-1577.03 723.78 2269.7
-1372.59 706.40 2215.2
-1435.73 741.99 2326.8
-1395.87 724.44 2271.8
-1362.47 713.12 2236.3
-1380.20 734.91 2304.6
-1347.03 720.37 2259.0
-1339.56 725.84 2276.2
-1335.55 726.87 2279.4
-1283.91 701.87 2201.0
-1348.78 740.62 2322.5
-1304.43 722.72 2266.4
-1312.36 730.41 2290.5
-1305.87 730.10 2289.5
-1316.03 739.14 2317.9
-1326.55 748.46 2347.1
-1264.66 716.83 2247.9
-1257.77 716.23 2246.0
-1300.60 744.07 2333.3
-1258.96 723.61 2269.2
-1258.54 726.77 2279.1
-1259.19 741.05 2323.9
-1224.61 727.66 2281.9
-1186.80 708.63 2222.2
-1175.90 705.54 2212.5
-1225.77 739.07 2317.6
-1216.94 737.36 2312.3
-1176.55 730.89 2292.0
-1147.25 716.30 2246.2
-1165.63 731.49 2293.9
-1160.37 731.93 2295.2
-1162.45 737.01 2311.2
-1148.96 732.24 2296.2
-1098.68 703.84 2207.2
-1085.47 699.02 2192.0
-1110.13 718.66 2253.6
-1114.22 725.12 2273.9
-1072.31 701.56 2200.0
-1098.93 738.63 2316.2
-1076.31 727.39 2281.0
-1104.85 750.81 2354.5
-1107.47 756.77 2373.2
-1076.45 739.68 2319.6
-1035.59 715.60 2244.1
-1011.88 703.17 2205.1
-1017.04 710.77 2228.9
-1002.65 704.72 2209.9
-980.68 709.55 2225.1
-1016.21 739.61 2319.3
-966.63 707.71 2219.3
-961.33 708.05 2220.4
-958.26 714.34 2240.1
-963.78 722.84 2266.7
-924.79 743.46 2331.4
-875.21 708.23 2220.9
-875.05 712.79 2235.2
-851.20 697.98 2188.8
-861.05 710.80 2229.0
-885.14 735.62 2306.8
-869.28 727.35 2280.9
-865.06 728.79 2285.4
-850.71 721.64 2263.0
-850.87 726.78 2279.1
-849.22 740.81 2323.1
-827.17 726.73 2278.9
-851.12 753.15 2361.8
-777.70 713.86 2238.6
-744.69 721.24 2261.7
-755.23 743.15 2330.4
-764.06 757.90 2376.7
-716.27 716.27 2246.2
-708.92 714.73 2241.3
-738.88 757.35 2375.0
-692.32 715.59 2244.0
-667.65 695.94 2182.4
-694.66 736.58 2309.8
-712.03 768.25 2409.1
-674.79 734.50 2303.3
-676.71 743.17 2330.5
-690.66 765.32 2400.0
-676.46 763.34 2393.8
-647.47 737.40 2312.4
-656.18 754.30 2365.4
-637.78 740.06 2320.7
-1889.03 736.30 2327.9
-1819.90 711.63 2249.9
-1799.78 706.02 2232.2
-1869.13 735.59 2325.6
-1876.85 741.02 2342.8
-1785.85 719.05 2273.4
-1755.59 711.57 2249.7
-1752.42 712.65 2253.1
-1746.64 715.07 2260.7
-1809.11 743.14 2349.5
-1744.48 726.37 2296.5
-1734.71 724.78 2291.5
-1739.56 729.30 2305.8
-1686.31 711.87 2250.6
-1681.69 719.88 2276.0
-1644.12 721.52 2281.2
-1647.90 728.42 2303.0
-1604.95 714.61 2259.3
-1589.64 713.00 2254.2
-1609.32 727.17 2299.0
-1574.18 713.94 2257.2
-1592.21 724.81 2291.6
-1584.21 723.87 2288.6
-1408.14 709.89 2244.4
-1395.13 718.17 2270.6
-1388.85 721.02 2279.6
-1356.13 713.14 2254.6
-1356.20 719.37 2274.4
-1336.95 715.38 2261.8
-1328.99 717.42 2268.2
-1313.22 715.24 2261.3
-1319.65 735.15 2324.2
-1271.81 711.75 2250.3
-1274.38 716.47 2265.2
-1269.07 726.88 2298.1
-1229.12 707.32 2236.3
-1214.92 705.81 2231.5
-1259.47 735.19 2324.4
-1213.03 714.93 2260.3
-1183.88 701.13 2216.7
-1197.91 730.72 2310.3
-1163.27 720.40 2277.6
-1162.41 723.54 2287.5
-1162.81 727.50 2300.1
-1167.04 733.91 2320.3
-1157.84 731.90 2314.0
-1113.93 707.81 2237.8
-1081.01 690.49 2183.0
-1086.58 697.70 2205.8
-1105.42 717.34 2268.0
-1070.78 698.59 2208.6
-1129.14 740.62 2341.5
-1084.41 739.09 2336.7
-1023.76 701.67 2218.4
-994.89 697.57 2205.4
-1042.75 735.35 2324.9
-968.29 690.83 2184.1
-995.25 714.24 2258.1
-1018.79 735.46 2325.2
-958.42 696.00 2200.5
-982.55 717.79 2269.4
-978.68 728.04 2301.8
-941.80 713.66 2256.3
-922.40 703.33 2223.6
-948.87 728.06 2301.8
-923.43 726.83 2297.9
-920.72 729.40 2306.1
-912.94 742.53 2347.6
-849.68 710.01 2244.8
-825.68 709.38 2242.8
-822.80 711.92 2250.8
-858.47 748.09 2365.2
-806.84 734.58 2322.4
-769.86 706.19 2232.7
-759.67 702.12 2219.8
-779.41 725.87 2294.9
-767.43 731.46 2312.6
-764.67 734.56 2322.4
-732.18 726.23 2296.0
-729.90 729.90 2307.7
-699.01 716.63 2265.7
-681.56 704.66 2227.8
-667.89 696.43 2201.8
-700.11 736.32 2327.9
-703.03 752.37 2378.7
-670.14 723.52 2287.5
-681.45 742.29 2346.8
-674.73 741.60 2344.6
-663.56 735.95 2326.8
-629.35 724.35 2290.1
-1878.38 719.25 2292.8
-1926.93 740.19 2359.5
-1848.61 745.61 2376.8
-1752.82 711.71 2268.7
-1779.05 729.71 2326.1
-1735.41 726.59 2316.2
-1701.84 715.01 2279.3
-1672.44 705.11 2247.7
-1671.58 709.69 2262.3
-1682.63 724.55 2309.7
-1632.46 705.46 2248.8
-1635.90 709.48 2261.6
-1613.15 709.79 2262.6
-1604.65 708.62 2258.9
-1628.41 724.40 2309.2
-1609.25 718.52 2290.4
-1607.37 720.34 2296.2
-1604.91 721.91 2301.2
-1569.35 713.88 2275.6
-1372.86 703.88 2243.8
-1383.59 712.40 2270.9
-1381.69 714.46 2277.5
-1329.33 702.40 2239.0
-1347.53 715.13 2279.7
-1372.90 731.81 2332.8
-1356.59 726.31 2315.3
-1328.17 714.26 2276.9
-1329.96 718.42 2290.1
-1330.24 721.79 2300.9
-1340.58 730.68 2329.2
-1267.54 706.79 2253.0
-1283.27 718.87 2291.5
-1276.76 718.55 2290.5
-1302.07 736.22 2346.8
-1299.96 741.96 2365.2
-1251.19 717.51 2287.2
-1234.07 711.06 2266.7
-1225.31 709.39 2261.3
-1217.93 708.51 2258.5
-1214.20 709.75 2262.5
-1245.87 731.80 2332.8
-1228.58 728.72 2322.9
-1184.28 705.90 2250.2
-1203.88 724.72 2310.2
-1203.50 728.12 2321.0
-1211.03 736.35 2347.3
-1195.56 730.62 2329.0
-1166.16 716.27 2283.3
-1167.04 720.47 2296.6
-1110.29 696.09 2218.9
-1103.88 695.67 2217.6
-1109.01 702.56 2239.6
-1125.95 717.05 2285.8
-1117.20 722.90 2304.4
-1123.56 730.92 2330.0
-1087.02 726.68 2316.4
-1102.08 744.98 2374.8
-1063.90 735.61 2344.9
-1026.75 714.00 2276.0
-1025.31 717.12 2286.0
-1037.13 729.61 2325.8
-993.55 707.17 2254.3
-972.76 696.47 2220.2
-952.51 686.03 2186.9
-969.40 724.05 2308.1
-916.50 688.80 2195.7
-936.67 712.81 2272.2
-935.93 716.75 2284.8
-905.44 697.82 2224.5
-914.82 709.57 2261.9
-940.14 733.92 2339.5
-912.78 717.18 2286.2
-918.92 726.73 2316.6
-911.45 735.24 2343.7
-892.62 724.88 2310.7
-854.32 708.03 2257.0
-877.42 742.43 2366.7
-830.53 707.71 2256.0
-855.95 734.54 2341.5
-837.94 729.43 2325.2
-824.15 722.62 2303.5
-813.66 718.63 2290.8
-816.93 726.83 2316.9
-815.65 731.06 2330.4
-811.47 732.74 2335.8
-796.94 725.04 2311.2
-765.45 701.67 2236.7
-765.14 706.73 2252.9
-736.77 713.19 2273.4
-744.28 726.28 2315.2
-726.57 714.75 2278.4
-731.27 725.27 2312.0
-689.76 713.34 2273.9
-701.89 744.99 2374.8
-650.68 696.75 2221.0
-678.18 732.68 2335.6
-665.07 731.58 2332.1
-663.34 736.37 2347.3
-656.33 742.20 2365.9
-1932.74 736.28 2366.6
-1946.71 743.97 2391.3
-1915.28 734.29 2360.2
-1877.10 724.28 2328.1
-1854.31 720.12 2314.7
-1795.50 715.81 2300.8
-1807.76 723.10 2324.3
-1753.06 705.93 2269.1
-1793.47 729.55 2345.0
-1683.31 698.95 2246.6
-1658.55 691.06 2221.3
-1717.37 723.10 2324.3
-1669.71 708.00 2275.7
-1670.32 710.77 2284.6
-1672.61 714.28 2295.9
-1668.03 714.87 2297.8
-1638.99 704.94 2265.9
-1673.56 722.40 2322.0
-1677.20 729.22 2343.9
-1606.09 700.84 2252.7
-1569.48 692.42 2225.6
-1560.49 690.99 2221.0
-1565.96 695.98 2237.1
-1567.31 701.78 2255.7
-1373.29 701.26 2254.0
-1371.58 709.44 2280.3
-1376.56 715.10 2298.5
-1341.91 703.18 2260.2
-1361.55 716.61 2303.4
-1331.05 703.64 2261.7
-1301.03 700.11 2250.3
-1254.44 687.36 2209.4
-1258.08 692.52 2226.0
-1258.80 696.11 2237.5
-1234.02 685.57 2203.6
-1223.46 682.86 2194.9
-1257.41 705.09 2266.4
-1298.86 735.20 2363.1
-1238.02 704.09 2263.1
-1203.43 687.67 2210.4
-1249.92 717.65 2306.7
-1175.15 712.21 2289.3
-1120.39 682.47 2193.7
-1104.22 679.52 2184.2
-1117.42 698.39 2244.8
-1145.16 719.47 2312.6
-1084.40 692.17 2224.8
-1088.47 698.49 2245.1
-1103.05 719.38 2312.3
-1112.93 729.79 2345.8
-1105.83 729.12 2343.6
-1061.10 703.49 2261.2
-1061.51 707.67 2274.7
-1093.04 732.77 2355.3
-1053.90 726.82 2336.2
-1038.54 720.38 2315.5
-1038.95 724.85 2329.9
-1015.51 712.64 2290.6
-992.23 700.40 2251.3
-985.34 699.65 2248.9
-976.91 697.80 2242.9
-952.85 684.68 2200.8
-948.35 685.55 2203.6
-971.06 706.22 2270.0
-967.14 707.66 2274.6
-984.47 733.77 2358.5
-968.88 726.66 2335.7
-966.03 733.69 2358.3
-930.29 711.05 2285.5
-933.78 718.29 2308.8
-927.97 723.09 2324.2
-883.03 692.57 2226.1
-877.98 693.14 2228.0
-886.92 704.83 2265.5
-866.09 692.87 2227.1
-848.08 697.05 2240.5
-883.14 730.87 2349.2
-855.24 712.70 2290.8
-832.61 698.69 2245.8
-825.44 697.55 2242.1
-825.20 702.30 2257.4
-805.57 690.49 2219.4
-801.73 692.14 2224.7
-805.62 700.54 2251.7
-781.44 684.47 2200.1
-772.45 686.62 2207.0
-769.82 689.39 2215.9
-762.76 688.20 2212.1
-777.21 717.42 2306.0
-746.81 711.25 2286.1
-719.48 701.94 2256.2
-684.11 701.65 2255.3
-693.89 717.81 2307.3
-673.58 709.03 2279.0
-656.47 703.36 2260.8
-676.72 731.59 2351.5
-664.74 725.17 2330.9
-657.55 723.90 2326.8
-1904.21 728.62 2361.7
-1862.09 721.79 2339.5
-1850.99 719.83 2333.2
-1829.66 713.87 2313.9
-1827.04 715.19 2318.1
-1785.94 708.42 2296.2
-1761.61 703.46 2280.1
-1815.86 727.57 2358.3
-1774.04 713.21 2311.7
-1687.04 694.66 2251.6
-1660.37 690.85 2239.3
-1661.69 693.83 2248.9
-1662.97 696.81 2258.6
-1669.38 701.96 2275.3
-1668.28 703.99 2281.8
-1667.15 706.02 2288.4
-1648.90 700.78 2271.4
-1609.67 686.56 2225.3
-1566.05 670.36 2172.8
-1646.43 709.88 2300.9
-1611.88 700.05 2269.1
-1334.76 693.61 2248.2
-1327.88 693.06 2246.4
-1325.23 710.37 2302.5
-1309.03 711.30 2305.5
-1264.02 689.99 2236.5
-1261.14 694.80 2252.0
-1302.67 721.01 2337.0
-1283.42 713.68 2313.2
-1295.07 723.54 2345.2
-1285.19 721.40 2338.3
-1227.62 692.35 2244.1
-1210.12 685.73 2222.7
-1270.87 723.60 2345.4
-1177.66 697.22 2259.9
-1140.83 682.20 2211.2
-1093.07 673.96 2184.5
-1099.62 681.54 2209.1
-1106.92 689.65 2235.4
-1113.25 697.25 2260.0
-1118.14 711.54 2306.3
-1104.10 710.20 2302.0
-1116.58 722.13 2340.7
-1065.41 704.36 2283.0
-1041.35 708.12 2295.2
-1030.40 704.70 2284.1
-1034.46 711.56 2306.4
-1042.34 721.15 2337.5
-1029.40 716.37 2322.0
-1000.61 700.43 2270.3
-982.48 691.80 2242.3
-983.29 696.50 2257.5
-968.73 690.30 2237.5
-966.79 705.82 2287.8
-932.73 698.08 2262.7
-933.11 702.79 2277.9
-917.47 695.41 2254.0
-912.39 695.99 2255.9
-928.44 712.80 2310.4
-881.87 681.44 2208.8
-876.63 690.85 2239.3
-894.12 714.10 2314.6
-870.24 699.72 2268.0
-864.71 700.00 2268.9
-858.15 699.45 2267.1
-829.28 680.58 2206.0
-833.95 689.17 2233.8
-843.17 701.66 2274.3
-818.35 685.80 2222.9
-803.32 677.98 2197.5
-798.56 678.78 2200.1
-809.74 693.23 2247.0
-821.68 708.55 2296.6
-806.05 700.15 2269.4
-781.98 694.45 2250.9
-801.13 716.80 2323.4
-767.72 692.11 2243.3
-754.74 685.60 2222.2
-773.12 707.71 2293.9
-775.34 715.24 2318.3
-756.84 714.80 2316.9
-729.18 694.18 2250.0
-706.85 683.86 2216.6
-708.82 691.39 2241.0
-714.69 702.87 2278.2
-675.58 693.05 2246.4
-652.84 681.47 2208.8
-662.36 697.52 2260.9
-648.63 689.17 2233.8
-627.07 672.26 2179.0
-624.70 675.82 2190.5
-630.10 687.91 2229.7
-627.55 691.47 2241.3
-613.93 682.78 2213.1
-1951.25 728.63 2381.7
-1872.27 705.84 2307.2
-1894.93 723.63 2365.4
-1865.98 717.22 2344.4
-1848.22 712.71 2329.7
-1851.62 716.36 2341.6
-1754.95 692.59 2263.9
-1782.05 705.65 2306.6
-1715.22 700.33 2289.2
-1702.58 697.58 2280.2
-1669.09 686.25 2243.2
-1666.38 687.53 2247.4
-1673.46 692.87 2264.8
-1682.20 698.94 2284.7
-1683.98 702.15 2295.2
-1678.26 702.25 2295.5
-1639.39 688.43 2250.3
-1586.99 668.80 2186.2
-1583.72 669.82 2189.5
-1576.47 669.15 2187.3
-1579.41 672.82 2199.3
-1577.28 679.27 2220.4
-1312.94 704.22 2301.9
-1256.33 676.93 2212.7
-1288.29 703.79 2300.5
-1296.82 711.74 2326.5
-1243.38 685.60 2241.1
-1144.81 682.26 2230.1
-1132.68 678.46 2217.7
-1119.18 684.27 2236.7
-1120.04 688.36 2250.1
-1118.70 691.14 2259.2
-1112.21 690.74 2257.9
-1114.62 695.90 2274.7
-1114.71 707.18 2311.6
-1075.58 686.04 2242.5
-1086.95 697.07 2278.6
-1078.56 711.00 2324.1
-1020.10 687.84 2248.4
-1038.56 704.31 2302.2
-1035.49 706.29 2308.7
-1036.31 710.96 2324.0
-1041.35 718.60 2348.9
-1015.16 708.81 2316.9
-1019.27 715.92 2340.2
-961.71 683.63 2234.6
-977.84 721.16 2357.3
-899.91 676.37 2210.9
-905.39 684.85 2238.6
-941.59 716.82 2343.1
-917.03 702.66 2296.8
-862.53 669.59 2188.7
-888.76 694.52 2270.2
-895.09 704.14 2301.7
-878.28 705.01 2304.5
-845.09 683.02 2232.6
-840.30 683.83 2235.3
-868.79 711.92 2327.1
-847.10 703.93 2301.0
-835.19 698.95 2284.7
-835.81 704.46 2302.7
-829.82 704.45 2302.7
-826.74 706.93 2310.8
-805.62 693.89 2268.2
-753.07 678.34 2217.3
-756.97 692.42 2263.4
-751.08 703.39 2299.2
-658.85 676.04 2209.8
-654.37 677.33 2214.0
-660.64 689.88 2255.0
-641.04 675.38 2207.7
-627.23 666.78 2179.6
-628.81 674.54 2204.9
-1873.29 709.30 2338.4
-1833.03 696.31 2295.5
-1795.94 684.45 2256.4
-1833.95 701.22 2311.7
-1837.82 712.01 2347.3
-1766.24 693.46 2286.1
-1710.08 706.99 2330.7
-1683.08 700.78 2310.3
-1649.38 689.20 2272.1
-1661.84 699.41 2305.7
-1673.64 706.92 2330.5
-1663.32 705.10 2324.5
-1590.45 676.66 2230.8
-1239.39 677.61 2233.9
-1145.47 676.87 2231.4
-1110.77 673.37 2219.9
-1123.28 684.50 2256.6
-1104.58 698.58 2303.0
-1059.78 673.88 2221.6
-1044.67 667.90 2201.9
-1046.10 672.50 2217.0
-1078.19 696.95 2297.6
-1052.22 695.54 2293.0
-1021.22 678.88 2238.1
-1033.07 690.68 2277.0
-1051.87 707.29 2331.7
-1047.95 708.73 2336.5
-1034.20 703.49 2319.2
-973.73 686.30 2262.5
-946.74 671.32 2213.1
-964.43 688.04 2268.3
-957.13 687.02 2264.9
-912.14 662.86 2185.2
-961.85 703.35 2318.7
-947.30 705.95 2327.3
-902.35 676.76 2231.1
-888.70 670.83 2211.5
-916.53 696.33 2295.6
-898.20 686.86 2264.4
-887.42 683.08 2251.9
-891.42 690.71 2277.1
-864.27 674.13 2222.4
-851.23 668.41 2203.6
-897.21 709.28 2338.3
-866.40 694.31 2288.9
-842.53 679.84 2241.2
-852.52 692.67 2283.5
-841.25 688.29 2269.1
-806.56 678.90 2238.1
-821.12 696.17 2295.1
-771.11 668.29 2203.2
-743.45 669.10 2205.8
-765.72 705.43 2325.6
-740.54 687.64 2267.0
-737.55 690.34 2275.9
-725.40 684.45 2256.4
-702.48 708.54 2335.8
-688.65 700.63 2309.8
-666.78 684.32 2256.0
-655.96 679.18 2239.0
-643.88 672.62 2217.4
-633.23 667.45 2200.4
-1869.69 688.52 2289.4
-1818.04 671.63 2233.3
-1853.71 687.00 2284.3
-1889.35 709.27 2358.4
-1857.55 699.60 2326.2
-1800.39 680.28 2262.0
-1821.48 690.50 2296.0
-1831.68 710.62 2362.9
-1775.98 691.32 2298.7
-1782.87 703.45 2339.0
-1723.61 682.38 2269.0
-1733.84 688.79 2290.3
-1680.13 681.45 2265.9
-1686.62 686.48 2282.6
-1663.18 681.73 2266.8
-1682.76 692.20 2301.6
-1672.45 690.41 2295.7
-1657.02 686.48 2282.6
-1668.22 698.61 2323.0
-1579.90 664.02 2207.9
-1574.31 664.07 2208.1
-1569.27 664.36 2209.1
-1093.47 667.59 2219.8
-1092.15 670.32 2228.9
-1104.82 692.75 2303.5
-1064.15 670.88 2230.7
-1046.53 663.38 2205.8
-1051.26 670.03 2227.9
-1053.42 675.12 2244.9
-1076.32 693.63 2306.4
-1040.38 681.83 2267.2
-1017.83 670.84 2230.6
-1013.77 671.98 2234.4
-1013.65 675.76 2247.0
-1017.02 681.93 2267.5
-1013.62 683.60 2273.1
-1006.28 682.62 2269.8
-1034.34 705.79 2346.8
-1007.48 704.02 2341.0
-960.58 675.32 2245.5
-958.61 678.04 2254.6
-958.47 682.10 2268.1
-928.97 677.74 2253.6
-915.51 672.15 2235.0
-921.94 689.97 2294.2
-911.75 686.77 2283.6
-888.82 673.88 2240.7
-876.68 669.05 2224.7
-884.26 679.30 2258.8
-856.44 662.31 2202.3
-848.99 660.96 2197.8
-898.81 704.47 2342.5
-875.13 695.31 2312.0
-860.34 688.27 2288.6
-867.21 703.47 2339.1
-803.49 670.53 2229.6
-807.71 678.95 2257.6
-786.98 671.24 2232.0
-782.09 672.02 2234.6
-813.81 704.50 2342.5
-754.16 694.30 2308.6
-746.03 692.32 2302.0
-732.35 685.10 2278.0
-696.83 668.04 2221.3
-701.25 677.88 2254.0
-684.83 667.57 2219.7
-686.28 674.65 2243.3
-698.77 692.80 2303.6
-696.03 696.03 2314.4
-679.50 685.41 2279.1
-653.06 664.52 2209.6
-660.99 678.54 2256.2
-1958.79 712.85 2390.9
-1910.58 697.51 2339.5
-1880.36 688.67 2309.8
-1949.07 716.11 2401.9
-1900.92 702.91 2357.6
-1914.79 710.32 2382.5
-1854.57 694.71 2330.1
-1810.20 680.30 2281.8
-1785.91 673.38 2258.5
-1814.29 700.14 2348.3
-1783.04 690.40 2315.6
-1780.75 696.55 2336.3
-1769.73 694.60 2329.7
-1725.84 679.70 2279.7
-1704.39 673.56 2259.1
-1679.77 675.43 2265.4
-1672.39 674.83 2263.4
-1642.54 665.11 2230.8
-1627.16 661.22 2217.7
-1608.39 655.90 2199.9
-1598.43 656.50 2201.9
-1583.99 657.61 2205.7
-1552.51 649.23 2177.5
-1565.54 657.07 2203.8
-1082.15 654.99 2196.9
-1071.91 659.20 2211.0
-1076.84 665.79 2233.1
-1063.29 660.97 2216.9
-1044.46 659.96 2213.5
-1054.87 670.22 2247.9
-1072.06 684.93 2297.3
-1058.72 687.87 2307.1
-1015.64 663.63 2225.8
-987.66 649.03 2176.9
-985.29 651.20 2184.1
-989.59 657.82 2206.4
-976.11 652.63 2189.0
-957.62 644.01 2160.0
-995.28 673.28 2258.2
-1020.50 694.43 2329.1
-1005.35 688.18 2308.2
-988.48 688.94 2310.7
-933.16 654.35 2194.7
-927.21 666.43 2235.2
-958.94 693.57 2326.3
-919.73 669.42 2245.3
-935.39 685.16 2298.1
-940.48 697.77 2340.4
-923.40 689.55 2312.8
-890.80 669.55 2245.7
-885.71 670.11 2247.6
-897.81 683.76 2293.4
-862.91 661.56 2218.9
-849.52 655.67 2199.1
-876.25 680.87 2283.7
-880.29 688.66 2309.8
-872.27 687.06 2304.4
-863.03 698.93 2344.2
-821.20 684.34 2295.3
-786.87 660.51 2215.4
-789.72 667.78 2239.8
-814.71 694.01 2327.8
-811.81 696.70 2336.8
-796.31 688.54 2309.4
-804.31 700.72 2350.2
-795.70 698.52 2342.9
-777.60 687.88 2307.2
-772.49 688.65 2309.8
-667.03 667.03 2237.3
-643.66 660.90 2216.7
-1902.20 684.07 2314.5
-1892.31 682.67 2309.8
-1876.89 679.25 2298.2
-1888.57 685.66 2319.9
-1885.44 686.71 2323.5
-1830.20 668.73 2262.6
-1784.32 654.06 2213.0
-1791.10 658.66 2228.6
-1827.07 674.06 2280.7
-1803.89 667.67 2259.0
-1783.81 662.39 2241.2
-1781.95 663.86 2246.2
-1790.94 669.40 2264.9
-1842.08 690.78 2337.2
-1859.87 699.75 2367.6
-1740.25 670.23 2267.7
-1770.14 684.05 2314.5
-1757.38 681.43 2305.6
-1724.62 671.01 2270.3
-1666.82 655.23 2217.0
-1704.21 676.93 2290.4
-1684.04 671.26 2271.2
-1700.36 680.14 2301.2
-1696.95 681.17 2304.7
-1675.12 674.78 2283.1
-1656.23 669.54 2265.4
-1609.90 653.13 2209.8
-1645.47 669.94 2266.7
-1684.82 688.42 2329.2
-1621.04 664.74 2249.1
-1552.42 638.90 2161.7
-1548.28 644.17 2179.5
-1087.04 655.68 2218.5
-1097.99 665.80 2252.7
-1098.25 669.52 2265.3
-1054.17 653.13 2209.8
-1054.97 660.81 2235.8
-1055.32 679.70 2299.7
-1008.62 653.31 2210.5
-1004.21 654.17 2213.4
-1023.99 670.89 2269.9
-985.84 649.63 2198.0
-963.67 642.45 2173.7
-1014.82 688.63 2329.9
-1009.67 689.23 2332.0
-979.33 672.55 2275.5
-951.51 657.40 2224.3
-919.38 639.08 2162.3
-921.33 644.36 2180.2
-939.63 661.22 2237.2
-925.71 655.47 2217.8
-964.74 687.37 2325.7
-933.82 673.77 2279.7
-901.42 654.54 2214.6
-875.82 640.03 2165.5
-886.40 651.93 2205.8
-909.31 673.12 2277.5
-888.51 662.02 2239.9
-897.92 673.44 2278.6
-900.83 684.63 2316.4
-866.03 662.60 2241.9
-870.93 670.85 2269.8
-869.75 679.12 2297.8
-832.26 654.33 2213.9
-793.81 655.76 2218.7
-787.37 655.18 2216.8
-819.69 687.09 2324.8
-813.27 691.89 2341.0
-805.61 690.52 2336.4
-782.10 685.84 2320.5
-766.87 677.70 2293.0
-751.25 679.70 2299.7
-747.89 682.08 2307.8
-661.83 661.83 2239.3
-1815.52 653.35 2230.2
-1804.63 653.60 2231.0
-1800.44 656.29 2240.2
-1798.01 657.53 2244.4
-1824.15 669.25 2284.4
-1850.16 681.00 2324.5
-1848.16 682.49 2329.6
-1870.32 692.94 2365.3
-1850.74 687.94 2348.2
-1789.67 667.44 2278.2
-1796.11 672.06 2294.0
-1778.52 667.68 2279.1
-1760.61 672.12 2294.2
-1754.38 672.02 2293.9
-1720.39 661.24 2257.1
-1687.38 662.06 2259.9
-1675.36 659.64 2251.6
-1665.11 657.89 2245.7
-1693.13 673.68 2299.5
-1675.33 668.95 2283.4
-1690.90 677.56 2312.8
-1684.01 677.20 2311.5
-1693.12 683.29 2332.4
-1673.00 680.03 2321.2
-1634.88 666.94 2276.5
-1564.64 640.59 2186.6
-1536.63 633.72 2163.1
-1084.54 655.37 2237.0
-1081.67 660.70 2255.2
-1060.12 658.21 2246.7
-1031.28 662.13 2260.1
-1036.34 669.18 2284.2
-1053.20 683.98 2334.7
-1014.89 662.90 2262.8
-987.11 648.51 2213.6
-994.98 665.28 2270.9
-954.49 642.01 2191.4
-948.11 641.54 2189.8
-953.19 648.86 2214.8
-956.26 654.89 2235.4
-919.93 633.86 2163.6
-915.87 634.93 2167.3
-950.29 662.86 2262.6
-948.21 665.52 2271.7
-901.83 644.98 2201.6
-879.05 632.69 2159.6
-873.10 632.44 2158.8
-902.41 657.89 2245.6
-922.03 676.55 2309.3
-901.15 665.55 2271.8
-864.51 642.70 2193.8
-873.07 657.71 2245.0
-884.64 670.90 2290.1
-885.63 676.19 2308.1
-887.91 682.55 2329.8
-821.81 636.05 2171.1
-839.35 663.26 2264.0
-826.91 672.23 2294.6
-780.77 643.99 2198.2
-757.05 658.05 2246.2
-750.86 657.73 2245.1
-747.09 659.54 2251.3
-742.39 660.55 2254.7
-711.00 680.88 2324.1
-695.95 672.15 2294.3
-695.17 677.19 2311.5
-660.93 660.93 2256.0
-650.68 656.49 2240.9
-647.68 659.35 2250.6
-1861.79 659.88 2272.5
-1833.61 656.11 2259.6
-1897.44 681.13 2345.7
-1870.88 675.93 2327.8
-1854.90 672.33 2315.4
-1871.20 680.44 2343.3
-1849.15 681.27 2346.2
-1772.40 655.15 2256.2
-1754.24 650.58 2240.5
-1793.11 667.20 2297.8
-1733.27 662.55 2281.7
-1692.94 649.35 2236.3
-1663.93 649.34 2236.2
-1690.24 661.91 2279.5
-1705.99 670.42 2308.9
-1689.30 666.20 2294.3
-1638.67 648.52 2233.4
-1622.73 644.49 2219.5
-1637.79 652.78 2248.1
-1670.47 668.19 2301.2
-1650.41 667.31 2298.1
-1546.12 627.41 2160.7
-1041.22 647.87 2231.2
-1043.32 652.80 2248.2
-1040.48 654.68 2254.6
-1024.96 655.97 2259.1
-1004.80 650.51 2240.3
-977.18 643.79 2217.1
-931.02 624.39 2150.3
-949.94 640.92 2207.3
-943.91 640.71 2206.5
-907.47 627.39 2160.6
-931.29 647.86 2231.1
-962.20 673.54 2319.6
-955.53 673.08 2318.0
-921.78 653.41 2250.3
-915.26 652.93 2248.6
-926.13 664.91 2289.9
-922.40 666.51 2295.4
-908.27 660.56 2274.9
-901.34 659.80 2272.3
-880.26 648.61 2233.7
-870.92 654.65 2254.5
-885.02 674.30 2322.2
-865.36 677.76 2334.1
-822.46 653.30 2249.9
-835.04 668.03 2300.6
-818.92 659.85 2272.4
-778.22 650.45 2240.1
-798.45 672.38 2315.6
-747.99 644.42 2219.3
-747.97 649.40 2236.5
-751.51 657.57 2264.6
-761.86 671.87 2313.8
-735.74 653.99 2252.3
-712.59 638.48 2198.9
-730.08 670.24 2308.2
-708.73 656.02 2259.2
-721.97 673.83 2320.6
-709.77 673.68 2320.1
-708.98 678.68 2337.3
-689.53 671.54 2312.7
-1918.87 667.69 2320.2
-1916.42 668.94 2324.5
-1855.07 649.57 2257.2
-1838.10 656.04 2279.7
-1863.13 667.12 2318.2
-1827.57 658.64 2288.7
-1789.76 649.23 2256.0
-1865.37 683.35 2374.6
-1759.15 655.25 2276.9
-1747.01 652.92 2268.8
-1744.98 654.37 2273.9
-1738.19 654.03 2272.7
-1773.95 669.76 2327.3
-1707.40 655.78 2278.8
-1662.58 645.27 2242.2
-1688.25 657.53 2284.8
-1697.59 663.49 2305.6
-1671.70 655.68 2278.4
-1636.13 644.01 2237.9
-1679.78 668.30 2322.3
-1542.88 620.51 2156.2
-1026.50 643.74 2236.9
-1013.97 643.14 2234.9
