ply
format ascii 1.0
element vertex 2156
property float x
property float y
property float z
end_header
-882.33 288.54 1612.9
-879.56 289.00 1615.5
-864.06 285.27 1594.7
-837.40 277.79 1552.9
-826.78 275.59 1540.6
-848.31 284.14 1588.4
-866.87 291.78 1631.0
-851.54 288.02 1610.1
-872.17 296.45 1657.2
-909.56 310.69 1736.8
-884.09 303.49 1696.5
-878.78 303.18 1694.8
-892.04 309.30 1729.0
-872.24 303.96 1699.2
-865.13 303.02 1693.9
-890.70 313.56 1752.8
-888.84 314.51 1758.1
-871.43 309.94 1732.6
-850.58 304.09 1699.9
-804.79 289.22 1616.8
-793.51 286.66 1602.5
-790.15 286.95 1604.1
-784.61 286.44 1601.2
-802.00 294.35 1645.4
-794.22 293.05 1638.2
-772.32 286.50 1601.6
-790.70 294.91 1648.6
-839.48 314.80 1759.8
-832.77 314.00 1755.3
-790.27 299.61 1674.8
-772.02 294.31 1645.2
-740.95 284.03 1587.7
-724.66 279.34 1561.5
-741.99 287.63 1607.8
-760.76 296.57 1657.8
-768.25 301.19 1683.7
-736.06 290.22 1622.3
-710.64 281.80 1575.3
-711.26 283.68 1585.8
-698.57 280.24 1566.6
-705.56 284.70 1591.5
-738.31 299.67 1675.2
-730.29 298.17 1666.8
-712.85 292.78 1636.6
-739.06 305.36 1707.0
-750.91 312.13 1744.8
-703.60 294.23 1644.8
-663.69 280.95 1570.5
-689.26 293.57 1641.1
-705.38 302.31 1689.9
-719.02 310.08 1733.3
-707.64 307.09 1716.6
-680.25 297.07 1660.7
-677.66 297.83 1664.9
-698.35 308.88 1726.7
-706.25 314.40 1757.5
-706.33 316.47 1769.1
-685.26 309.04 1727.5
-654.96 297.32 1662.0
-650.13 297.08 1660.7
-653.17 300.46 1679.6
-662.88 306.97 1716.0
-685.13 319.42 1785.6
-680.37 319.36 1785.2
-648.03 306.26 1712.0
-634.41 301.89 1687.6
-631.25 302.47 1690.8
-629.44 303.71 1697.8
-652.80 317.21 1773.2
-650.77 318.46 1780.2
-613.03 302.14 1689.0
-605.80 300.72 1681.0
-636.14 318.07 1778.0
-669.99 337.44 1886.3
-660.27 337.47 1886.5
-625.16 321.91 1799.5
-601.69 312.16 1745.0
-588.37 307.56 1719.3
-592.29 311.97 1743.9
-619.08 328.59 1836.8
-645.74 345.40 1930.8
-644.33 347.33 1941.6
-628.36 341.39 1908.4
-619.29 339.13 1895.8
-632.15 348.95 1950.6
-631.48 351.39 1964.3
-637.32 363.43 2031.6
-659.44 379.18 2119.6
-652.09 378.10 2113.6
-637.26 372.64 2083.1
-634.88 374.42 2093.0
-633.30 376.70 2105.8
-618.98 371.39 2076.1
-627.71 379.93 2123.8
-658.10 401.85 2246.3
-612.98 381.04 2130.0
-597.37 378.15 2113.9
-638.47 415.61 2323.3
-625.35 410.94 2297.2
-1011.71 283.11 1605.9
-1020.26 286.68 1626.2
-1163.74 338.18 1918.3
-1170.30 341.55 1937.3
-1001.30 294.76 1671.9
-1026.82 306.25 1737.1
-1080.12 323.56 1835.3
-961.60 289.33 1641.2
-848.81 256.53 1455.1
-910.01 276.25 1567.0
-937.62 285.91 1621.8
-952.69 291.81 1655.3
-965.65 297.12 1685.4
-897.69 277.47 1573.9
-883.84 274.44 1556.7
-961.50 299.92 1701.2
-862.50 271.53 1540.2
-880.81 279.88 1587.6
-955.51 305.05 1730.3
-904.92 290.26 1646.4
-876.00 282.31 1601.4
-875.61 283.53 1608.3
-866.25 281.84 1598.7
-846.13 276.62 1569.1
-866.32 284.59 1614.3
-926.81 305.94 1735.4
-925.14 306.88 1740.7
-882.79 294.26 1669.1
-859.59 287.94 1633.3
-854.41 287.62 1631.5
-874.81 295.96 1678.7
-911.84 310.02 1758.5
-900.51 307.71 1745.4
-856.31 294.09 1668.1
-860.05 296.87 1683.9
-899.52 312.08 1770.2
-892.72 311.31 1765.8
-869.08 304.62 1727.9
-887.57 312.72 1773.8
-875.06 309.92 1757.9
-855.17 304.46 1727.0
-845.00 302.42 1715.4
-805.32 289.74 1643.5
-793.20 286.90 1627.4
-789.77 287.19 1629.0
-769.59 281.36 1595.9
-769.20 282.73 1603.7
-796.84 294.48 1670.4
-822.92 305.78 1734.5
-814.16 304.19 1725.5
-783.21 294.25 1669.0
-742.06 280.33 1590.1
-718.28 272.87 1547.8
-730.68 279.14 1583.3
-752.39 289.05 1639.6
-760.74 293.92 1667.2
-784.07 304.67 1728.1
-811.18 317.01 1798.2
-787.08 309.37 1754.8
-750.30 296.63 1682.6
-732.23 291.18 1651.7
-741.77 296.71 1683.0
-769.79 309.74 1756.9
-783.29 317.04 1798.4
-764.44 311.27 1765.6
-732.46 300.05 1701.9
-735.71 303.20 1719.8
-733.85 304.28 1725.9
-712.36 297.18 1685.7
-709.01 297.61 1688.1
-688.92 290.97 1650.5
-668.24 284.00 1610.9
-690.23 295.19 1674.4
-696.60 299.80 1700.6
-672.71 291.37 1652.7
-672.35 293.07 1662.4
-684.08 300.11 1702.3
-689.40 304.41 1726.7
-685.16 304.51 1727.3
-668.24 298.95 1695.7
-650.03 292.73 1660.4
-640.19 290.22 1646.2
-623.31 284.46 1613.6
-619.30 284.54 1614.0
-661.31 305.91 1735.2
-675.18 314.47 1783.7
-645.77 302.84 1717.8
-627.35 296.25 1680.4
-617.00 293.40 1664.2
-631.93 302.61 1716.5
-651.36 314.13 1781.8
-633.47 307.68 1745.3
-603.70 295.33 1675.2
-613.79 302.45 1715.6
-629.31 312.36 1771.8
-619.31 309.66 1756.4
-641.96 323.36 1834.2
-660.37 335.11 1900.8
-633.76 324.03 1838.0
-614.80 316.71 1796.5
-609.34 316.30 1794.1
-627.52 328.24 1861.9
-630.36 332.28 1884.8
-604.51 321.15 1821.6
-610.11 326.67 1853.0
-622.30 335.84 1905.0
-629.98 342.71 1943.9
-621.78 340.97 1934.1
-622.01 343.87 1950.5
-672.72 374.96 2126.9
-667.91 378.48 2146.9
-670.38 383.07 2172.9
-664.35 382.85 2171.6
-636.86 370.14 2099.5
-612.54 359.08 2036.8
-618.95 365.99 2076.0
-652.00 388.91 2206.0
-633.28 402.46 2282.8
-1179.20 333.36 1919.1
-1182.27 335.64 1932.3
-1169.32 333.38 1919.3
-1160.01 332.14 1912.1
-1037.73 304.95 1755.6
-1030.81 304.25 1751.5
-1065.35 317.24 1826.3
-1114.43 333.33 1919.0
-1126.51 338.46 1948.5
-1012.69 305.63 1759.5
-917.31 278.10 1601.0
-935.22 284.82 1639.7
-930.33 287.24 1653.6
-910.62 282.46 1626.1
-928.56 289.37 1665.9
-948.74 297.04 1710.0
-944.37 297.05 1710.1
-903.32 285.48 1643.5
-873.93 277.50 1597.6
-897.18 286.24 1647.9
-909.40 291.53 1678.3
-854.87 275.37 1585.3
-845.58 273.69 1575.6
-885.22 287.91 1657.5
-867.01 283.36 1631.3
-902.04 296.26 1705.5
-961.16 317.23 1826.3
-934.50 309.96 1784.4
-937.69 312.56 1799.4
-934.45 313.04 1802.1
-882.70 297.19 1710.9
-829.08 280.55 1615.1
-824.84 280.53 1615.0
-878.79 300.40 1729.4
-883.68 303.62 1747.9
-821.87 283.84 1634.1
-807.85 280.45 1614.5
-817.25 285.19 1641.8
-814.69 285.78 1645.2
-826.52 291.46 1677.9
-809.52 286.97 1652.1
-770.11 274.45 1580.0
-743.07 266.23 1532.7
-733.94 270.19 1555.4
-784.75 290.49 1672.3
-755.70 281.29 1619.3
-743.49 278.29 1602.1
-749.57 282.14 1624.3
-766.26 290.05 1669.8
-761.84 290.02 1669.6
-769.26 294.52 1695.5
-811.08 312.31 1798.0
-798.29 309.16 1779.8
-747.76 291.28 1676.9
-715.69 280.42 1614.3
-746.82 294.34 1694.5
-795.04 315.19 1814.6
-779.24 310.77 1789.1
-729.80 292.80 1685.6
-704.63 284.40 1637.3
-715.79 290.65 1673.3
-737.98 301.49 1735.7
-739.15 303.82 1749.1
-732.98 303.15 1745.2
-706.68 294.08 1693.0
-668.87 280.09 1612.4
-676.95 285.25 1642.2
-734.66 311.53 1793.5
-725.54 311.61 1793.9
-702.74 303.77 1748.8
-703.58 306.10 1762.2
-695.61 304.61 1753.6
-676.82 298.34 1717.5
-654.95 290.61 1673.0
-660.12 294.85 1697.4
-658.41 296.06 1704.4
-614.11 279.90 1611.4
-657.62 301.78 1737.4
-657.83 303.96 1749.9
-668.68 311.12 1791.1
-689.63 323.11 1860.1
-663.55 313.08 1802.4
-641.45 304.80 1754.7
-640.11 306.34 1763.6
-626.35 301.91 1738.1
-625.67 303.77 1748.8
-630.22 308.21 1774.3
-621.85 306.35 1763.7
-646.78 320.99 1847.9
-676.50 338.25 1947.3
-664.25 334.62 1926.4
-651.14 330.50 1902.7
-649.25 332.06 1911.6
-652.03 336.05 1934.6
-637.50 331.10 1906.1
-620.60 324.85 1870.1
-635.97 335.51 1931.5
-634.49 337.39 1942.3
-626.88 336.01 1934.4
-628.97 339.85 1956.5
-639.34 348.26 2004.9
-692.92 380.54 2190.7
-669.36 373.72 2151.5
-657.56 370.22 2131.4
-666.93 378.68 2180.0
-653.44 374.19 2154.2
-632.96 365.59 2104.7
-645.42 376.03 2164.8
-643.60 378.26 2177.6
-631.46 374.40 2155.4
-652.70 390.45 2247.8
-636.17 398.35 2293.3
-1175.41 328.72 1921.1
-1161.97 326.34 1907.2
-1150.63 324.54 1896.6
-1176.17 333.16 1947.1
-1158.66 329.62 1926.4
-1171.01 336.03 1963.8
-1156.61 333.35 1948.1
-1093.94 316.67 1850.7
-1061.71 311.44 1820.1
-1112.81 327.88 1916.2
-1131.34 334.84 1956.8
-1017.96 302.64 1768.7
-959.90 286.67 1675.3
-1017.37 305.21 1783.7
-920.29 278.62 1628.3
-926.76 281.87 1647.3
-976.16 298.27 1743.1
-966.43 296.67 1733.8
-962.01 296.70 1733.9
-1004.44 311.24 1818.9
-1016.52 316.46 1849.5
-934.50 292.31 1708.3
-899.85 282.81 1652.8
-917.25 289.66 1692.8
-866.89 275.07 1607.6
-832.78 265.52 1551.8
-845.00 270.73 1582.2
-861.27 277.29 1620.5
-938.87 303.75 1775.2
-942.16 307.83 1799.0
-902.37 296.30 1731.6
-863.77 285.05 1665.8
-859.89 285.19 1666.7
-849.68 283.23 1655.2
-839.96 281.41 1644.6
-885.82 298.29 1743.2
-900.04 304.63 1780.3
-847.03 288.17 1684.1
-808.14 276.36 1615.1
-793.31 272.70 1593.7
-793.05 274.04 1601.5
-806.72 280.23 1637.7
-813.28 284.00 1659.8
-795.93 279.42 1633.0
-767.05 270.72 1582.1
-742.67 263.53 1540.1
-744.96 265.77 1553.2
-787.76 285.67 1669.5
-827.86 301.87 1764.2
-788.56 289.14 1689.8
-786.19 289.88 1694.1
-803.25 297.84 1740.6
-810.22 302.12 1765.6
-792.88 297.33 1737.6
-769.13 290.07 1695.2
-780.90 296.20 1731.1
-774.72 295.56 1727.3
-729.52 279.93 1636.0
-737.98 284.83 1664.6
-809.26 314.18 1836.1
-799.25 313.99 1835.0
-766.58 302.96 1770.5
-755.66 300.44 1755.8
-723.04 289.22 1690.2
-706.18 284.19 1660.9
-718.27 290.83 1699.7
-722.16 294.21 1719.4
-728.25 298.54 1744.7
-718.69 296.46 1732.6
-708.82 294.23 1719.5
-750.29 313.41 1831.6
-742.10 313.97 1834.9
-700.43 298.25 1743.0
-685.53 293.80 1717.0
-691.14 298.14 1742.4
-683.23 296.67 1733.8
-654.48 286.07 1671.8
-653.57 287.57 1680.6
-694.24 307.52 1797.2
-686.63 306.20 1789.5
-644.24 289.25 1690.4
-647.03 292.49 1709.4
-673.02 306.34 1790.3
-688.02 319.78 1868.9
-653.56 305.92 1787.9
-639.01 301.25 1760.5
-638.98 303.40 1773.1
-651.19 311.44 1820.1
-639.72 308.18 1801.1
-615.85 298.87 1746.6
-625.51 305.80 1787.2
-636.59 313.54 1832.4
-646.17 320.65 1874.0
-657.79 328.89 1922.1
-637.94 328.94 1922.4
-642.39 333.84 1951.0
-628.92 329.43 1925.3
-628.04 331.61 1938.0
-637.68 339.41 1983.6
-626.40 336.12 1964.3
-652.42 352.95 2062.7
-693.33 378.18 2210.1
-686.33 377.48 2206.1
-674.12 373.88 2185.0
-684.80 383.03 2238.5
-654.27 369.08 2156.9
-620.14 352.84 2062.1
-626.22 359.40 2100.4
-618.13 357.86 2091.4
-619.78 362.00 2115.6
-635.83 378.06 2209.5
-642.23 396.14 2315.1
-1130.71 320.94 1904.5
-1112.93 317.28 1882.8
-1112.29 318.50 1890.0
-1100.11 316.40 1877.6
-1115.40 322.23 1912.1
-1090.80 316.53 1878.3
-1035.62 301.86 1791.3
-973.86 285.14 1692.0
-951.36 279.81 1660.4
-988.78 292.14 1733.6
-957.51 284.19 1686.4
-912.80 272.16 1615.0
-964.90 289.03 1715.1
-1036.91 312.03 1851.6
-1041.41 314.84 1868.3
-939.29 285.30 1693.0
-886.65 270.57 1605.6
-990.65 303.74 1802.4
-1005.07 309.62 1837.3
-909.61 281.55 1670.7
-863.83 268.65 1594.2
-864.36 270.11 1602.9
-877.49 275.54 1635.1
-904.00 285.24 1692.6
-936.76 297.02 1762.5
-936.41 298.37 1770.5
-896.40 287.03 1703.2
-870.44 280.09 1662.1
-851.95 275.50 1634.9
-842.67 273.87 1625.1
-862.90 281.85 1672.5
-901.91 296.08 1757.0
-942.36 310.93 1845.1
-913.90 303.08 1798.5
-852.61 284.20 1686.5
-845.55 283.30 1681.1
-846.03 284.93 1690.8
-834.56 282.53 1676.6
-838.08 285.21 1692.4
-857.68 293.42 1741.2
-870.99 299.55 1777.5
-875.48 302.69 1796.2
-864.79 300.60 1783.8
-827.53 289.19 1716.1
-820.90 288.42 1711.5
-837.27 295.78 1755.2
-856.00 304.04 1804.2
-837.39 299.07 1774.7
-779.43 279.91 1661.0
-757.49 273.54 1623.2
-771.49 280.15 1662.4
-780.76 285.11 1691.9
-781.24 286.90 1702.5
-786.19 290.35 1723.0
-784.10 291.24 1728.2
-786.87 293.94 1744.3
-772.97 290.42 1723.4
-772.05 291.76 1731.3
-827.17 314.42 1865.8
-799.18 305.57 1813.3
-731.37 281.30 1669.2
-755.74 292.40 1735.1
-789.23 307.19 1822.9
-791.48 309.92 1839.1
-767.61 302.39 1794.4
-724.61 287.19 1704.2
-712.77 284.23 1686.6
-724.72 290.78 1725.5
-739.55 298.58 1771.8
-735.24 298.69 1772.4
-730.17 298.50 1771.3
-731.09 300.76 1784.8
-719.28 297.79 1767.1
-717.55 298.98 1774.2
-710.63 298.01 1768.4
-674.79 284.82 1690.1
-657.88 279.49 1658.5
-663.57 283.76 1683.9
-647.52 278.74 1654.0
-644.14 279.13 1656.4
-679.55 296.45 1759.1
-710.57 316.35 1877.2
-681.96 305.71 1814.1
-685.77 309.55 1836.9
-664.74 302.16 1793.0
-667.46 305.53 1813.0
-671.44 309.53 1836.8
-657.45 305.25 1811.3
-658.31 307.84 1826.8
-650.44 306.37 1818.0
-616.82 292.65 1736.6
-609.85 291.47 1729.6
-638.14 307.25 1823.3
-631.97 306.55 1819.1
-623.88 304.90 1809.3
-626.71 308.61 1831.3
-650.39 322.71 1915.0
-665.87 335.51 1991.0
-624.82 317.29 1882.8
-636.46 325.75 1933.0
-637.75 329.00 1952.3
-652.64 339.37 2013.9
-664.21 348.18 2066.1
-654.24 345.74 2051.6
-646.12 344.25 2042.8
-651.34 349.89 2076.3
-664.02 359.68 2134.3
-672.05 367.09 2178.3
-678.72 373.87 2218.6
-645.36 358.53 2127.6
-612.49 349.23 2072.3
-635.84 365.75 2170.4
-657.38 384.95 2284.3
-648.54 386.74 2295.0
-1255.74 344.92 2078.8
-1134.84 314.41 1894.9
-1091.65 305.09 1838.7
-1154.58 324.09 1953.2
-1166.87 328.98 1982.7
-1138.37 325.25 1960.2
-1061.71 304.71 1836.4
-984.54 283.83 1710.6
-992.50 287.42 1732.2
-1064.61 309.71 1866.5
-1066.79 311.76 1878.9
-1049.93 308.24 1857.7
-1035.58 305.42 1840.7
-1040.63 308.33 1858.3
-1074.51 319.85 1927.7
-988.57 295.65 1781.8
-902.72 271.24 1634.7
-986.68 297.87 1795.2
-1028.67 312.01 1880.4
-954.38 290.86 1753.0
-922.57 282.51 1702.6
-942.61 290.03 1748.0
-919.89 284.41 1714.1
-910.82 282.97 1705.4
-957.50 298.93 1801.6
-973.26 305.34 1840.2
-922.05 290.69 1752.0
-883.12 279.80 1686.3
-908.92 289.41 1744.2
-943.60 301.95 1819.8
-943.48 303.43 1828.7
-963.65 311.48 1877.2
-964.72 313.41 1888.9
-890.45 290.76 1752.3
-810.50 266.01 1603.2
-791.16 261.00 1573.0
-840.12 278.59 1679.0
-874.52 291.51 1756.8
-851.09 285.18 1718.7
-845.74 284.88 1716.9
-866.50 293.42 1768.4
-877.08 298.58 1799.5
-875.01 299.47 1804.8
-843.71 290.31 1749.6
-830.16 287.19 1730.8
-841.82 292.81 1764.7
-845.70 295.76 1782.5
-814.90 286.56 1727.0
-775.92 274.36 1653.5
-770.30 273.88 1650.6
-780.50 279.06 1681.8
-786.42 282.76 1704.1
-748.93 270.80 1632.1
-718.74 261.36 1575.2
-765.18 279.84 1686.5
-817.23 300.59 1811.6
-808.85 299.23 1803.4
-814.60 303.11 1826.8
-778.73 293.17 1766.9
-693.94 262.79 1583.8
-699.16 266.35 1605.2
-756.13 289.77 1746.4
-785.51 302.85 1825.2
-788.50 305.84 1843.2
-769.74 300.38 1810.4
-749.96 294.46 1774.7
-753.69 297.76 1794.5
-758.47 301.51 1817.1
-744.59 297.84 1795.0
-728.55 293.25 1767.4
-720.86 292.00 1759.8
-688.24 280.56 1690.9
-667.05 273.66 1649.3
-716.79 295.96 1783.7
-738.81 307.04 1850.4
-697.11 291.60 1757.4
-677.94 285.45 1720.3
-667.22 282.79 1704.3
-670.89 286.25 1725.1
-672.33 288.78 1740.4
-691.74 299.13 1802.8
-697.19 305.62 1841.9
-647.79 285.92 1723.2
-634.53 282.01 1699.6
-628.58 281.32 1695.5
-644.84 290.63 1751.6
-664.91 301.80 1818.9
-667.47 305.13 1839.0
-650.85 299.67 1806.1
-623.06 288.95 1741.5
-626.64 292.74 1764.3
-658.70 309.98 1868.2
-646.54 306.51 1847.3
-597.19 285.23 1719.0
-597.71 287.62 1733.4
-611.27 296.37 1786.2
-605.52 295.83 1782.9
-621.87 306.15 1845.1
-652.96 323.95 1952.4
-663.58 334.40 2015.4
-632.78 321.41 1937.1
-630.35 322.74 1945.1
-625.47 322.82 1945.6
-652.09 339.30 2044.9
-681.22 357.36 2153.7
-669.62 354.18 2134.6
-665.45 354.90 2138.9
-664.74 357.51 2154.6
-661.36 358.70 2161.8
-657.36 359.58 2167.1
-638.83 352.46 2124.2
-627.84 349.41 2105.8
-631.21 354.36 2135.7
-625.95 360.91 2175.1
-1120.94 305.71 1871.7
-1150.63 316.55 1938.0
-1156.45 319.55 1956.4
-1110.98 308.33 1887.8
-1080.28 301.14 1843.7
-1055.24 295.47 1809.0
-1082.54 304.46 1864.1
-1063.04 300.32 1838.7
-1028.81 291.96 1787.5
-1093.23 311.64 1908.0
-1117.93 320.13 1960.0
-1059.80 304.87 1866.6
-1038.09 300.00 1836.7
-1018.43 295.67 1810.2
-1024.03 298.67 1828.6
-1052.68 308.46 1888.5
-1014.34 298.61 1828.2
-976.71 288.89 1768.7
-997.96 296.56 1815.7
-982.92 293.48 1796.8
-963.21 288.96 1769.2
-985.11 296.95 1818.0
-1005.87 304.66 1865.3
-973.55 296.30 1814.1
-920.91 281.64 1724.3
-930.87 286.07 1751.5
-975.43 301.24 1844.3
-950.93 295.11 1806.8
-918.30 286.40 1753.5
-949.93 297.74 1822.9
-977.08 310.89 1903.4
-923.18 295.23 1807.5
-873.26 280.69 1718.5
-813.89 262.95 1609.9
-793.20 257.59 1577.1
-844.82 275.77 1688.4
-899.50 295.15 1807.0
-893.53 294.72 1804.4
-854.77 283.42 1735.2
-840.67 280.23 1715.7
-856.14 286.90 1756.5
-859.34 289.51 1772.5
-818.64 277.28 1697.6
-789.80 268.96 1646.7
-817.40 279.87 1713.5
-837.93 288.47 1766.1
-830.79 287.58 1760.7
-813.59 283.18 1733.8
-822.85 288.00 1763.3
-849.89 299.12 1831.4
-835.60 295.74 1810.7
-777.25 276.65 1693.8
-748.55 267.95 1640.5
-800.59 288.21 1764.6
-837.44 303.21 1856.4
-811.56 295.54 1809.4
-730.70 267.64 1638.6
-741.11 274.65 1681.5
-769.59 286.89 1756.5
-739.68 277.38 1698.3
-758.36 286.09 1751.6
-770.54 292.43 1790.4
-759.99 290.18 1776.6
-749.89 288.07 1763.7
-740.22 286.10 1751.6
-730.22 283.97 1738.6
-719.89 281.70 1724.7
-716.06 281.95 1726.2
-709.59 281.16 1721.4
-727.87 290.23 1776.9
-713.84 286.44 1753.7
-673.96 272.18 1666.4
-714.84 290.55 1778.9
-764.44 314.77 1927.2
-736.54 305.28 1869.0
-717.55 299.38 1832.9
-685.46 287.89 1762.6
-652.62 275.94 1689.4
-638.65 275.58 1687.2
-661.94 287.60 1760.8
-639.95 279.98 1714.1
-627.44 276.42 1692.4
-655.66 290.89 1781.0
-686.53 306.75 1878.1
-673.45 303.05 1855.4
-640.03 290.09 1776.0
-637.27 290.93 1781.2
-666.90 306.68 1877.6
-684.58 317.12 1941.6
-654.29 305.34 1869.4
-615.25 289.26 1771.0
-633.05 299.86 1835.9
-640.30 305.60 1871.0
-627.04 301.55 1846.2
-635.36 307.90 1885.1
-666.68 325.59 1993.4
-680.07 334.72 2049.3
-634.78 314.89 1927.9
-622.89 311.45 1906.8
-644.30 324.73 1988.1
-645.97 328.19 2009.4
-684.76 350.73 2147.3
-686.14 357.25 2187.2
-663.06 348.11 2131.3
-645.77 341.88 2093.1
-646.29 345.05 2112.6
-646.43 348.08 2131.1
-641.35 348.32 2132.6
-643.89 352.74 2159.6
-644.89 356.39 2182.0
-652.04 380.36 2328.7
-1275.38 337.92 2102.3
-1141.96 311.90 1940.4
-1064.09 291.92 1816.1
-1047.58 288.67 1795.8
-1083.37 299.86 1865.5
-1106.00 307.50 1913.0
-1114.60 311.29 1936.6
-1108.83 311.07 1935.3
-1060.37 298.83 1859.1
-1043.02 295.28 1837.0
-1054.49 299.90 1865.7
-1056.62 301.89 1878.1
-1085.80 311.66 1938.9
-1084.84 312.84 1946.2
-1018.02 294.94 1834.9
-950.21 276.59 1720.7
-941.52 275.35 1713.0
-993.68 291.98 1816.5
-1047.80 309.35 1924.5
-1048.64 311.08 1935.3
-1040.97 310.29 1930.4
-1021.61 305.99 1903.6
-976.71 293.96 1828.8
-906.55 274.17 1705.7
-876.69 266.44 1657.6
-939.24 286.86 1784.6
-992.09 304.50 1894.4
-960.76 296.35 1843.7
-947.86 293.84 1828.0
-945.00 294.42 1831.7
-897.83 281.14 1749.0
-864.95 272.22 1693.5
-832.74 263.42 1638.8
-855.69 272.07 1692.6
-911.33 291.25 1811.9
-917.30 294.68 1833.2
-933.76 301.53 1875.9
-868.79 282.01 1754.5
-775.01 252.90 1573.3
-796.10 261.15 1624.7
-848.18 279.72 1740.2
-860.49 285.30 1774.9
-829.23 276.41 1719.6
-823.02 275.82 1716.0
-870.94 293.47 1825.7
-865.79 293.33 1824.8
-835.30 284.55 1770.3
-823.95 282.24 1755.9
-841.12 289.72 1802.4
-864.34 299.38 1862.5
-842.51 293.46 1825.7
-821.67 287.82 1790.6
-832.19 293.16 1823.8
-843.38 298.80 1858.9
-835.29 297.63 1851.6
-815.08 292.11 1817.3
-744.25 268.27 1669.0
-739.68 271.36 1688.2
-766.41 282.84 1759.6
-775.13 287.77 1790.3
-775.89 289.79 1802.8
-765.31 287.57 1789.0
-754.02 285.06 1773.4
-735.47 279.75 1740.4
-715.15 273.70 1702.7
-724.34 278.94 1735.3
-737.16 285.65 1777.1
-729.44 284.44 1769.5
-744.62 292.19 1817.8
-740.19 292.31 1818.5
-704.98 280.18 1743.1
-694.80 277.92 1729.0
-703.03 283.04 1760.8
-708.19 286.98 1785.4
-697.28 284.42 1769.4
-703.39 288.81 1796.7
-695.03 287.28 1787.2
-670.67 279.07 1736.2
-646.90 271.00 1685.9
-627.22 264.54 1645.8
-655.69 278.44 1732.2
-682.71 291.92 1816.1
-660.58 284.42 1769.4
-641.76 278.24 1731.0
-668.54 291.90 1816.0
-693.23 304.83 1896.4
-672.01 297.60 1851.5
-647.97 289.02 1798.1
-656.82 295.09 1835.8
-651.92 295.03 1835.4
-634.86 289.42 1800.5
-648.98 298.05 1854.2
-657.66 304.29 1893.0
-662.29 308.73 1920.7
-657.50 308.82 1921.3
-634.58 300.34 1868.5
-635.59 303.13 1885.8
-628.36 302.00 1878.8
-599.99 290.62 1808.0
-608.12 296.88 1846.9
-648.91 319.30 1986.4
-664.04 329.37 2049.0
-661.03 330.52 2056.2
-672.10 338.78 2107.6
-668.62 339.79 2113.9
-660.07 338.22 2104.1
-650.09 335.88 2089.6
-646.01 336.58 2093.9
-661.28 347.45 2161.6
-667.90 353.93 2201.9
-667.49 356.76 2219.5
-662.48 357.17 2222.0
-655.78 356.65 2218.8
-648.52 355.83 2213.7
-637.44 352.87 2195.3
-644.47 359.97 2239.5
-1274.73 332.30 2101.2
-1169.26 306.12 1935.6
-1188.82 313.93 1985.0
-1240.82 329.09 2080.9
-1247.84 335.32 2120.3
-1163.08 313.93 1985.0
-1146.24 310.76 1965.0
-1148.88 312.86 1978.3
-1127.16 308.33 1949.6
-1105.06 303.64 1920.0
-1073.71 296.36 1874.0
-1084.75 300.77 1901.8
-1126.98 313.91 1984.9
-1108.43 310.16 1961.2
-1077.84 302.99 1915.8
-1117.60 315.62 1995.7
-1130.51 320.75 2028.2
-1118.78 318.90 2016.5
-1102.78 315.82 1997.0
-1053.46 303.12 1916.7
-1083.36 313.20 1980.4
-1088.60 317.73 2009.0
-1026.25 300.97 1903.1
-958.24 282.38 1785.5
-947.16 280.47 1773.5
-913.34 271.77 1718.5
-905.21 270.68 1711.5
-1005.04 302.01 1909.6
-992.18 301.11 1904.0
-935.85 285.44 1804.9
-894.45 274.18 1733.7
-863.30 265.96 1681.7
-844.06 261.36 1652.6
-839.74 261.35 1652.5
-889.48 278.25 1759.4
-941.43 296.02 1871.8
-945.07 298.70 1888.7
-953.04 302.79 1914.6
-875.66 279.66 1768.3
-783.58 251.57 1590.7
-811.60 261.95 1656.3
-830.68 269.53 1704.3
-808.94 263.88 1668.6
-822.62 269.78 1705.9
-861.82 284.17 1796.9
-884.44 293.21 1854.0
-855.89 285.30 1804.0
-838.53 281.05 1777.1
-841.89 283.73 1794.1
-813.78 275.78 1743.8
-793.37 270.37 1709.6
-818.74 280.58 1774.2
-841.76 290.10 1834.3
-832.88 288.67 1825.3
-824.85 287.52 1818.0
-846.15 296.64 1875.7
-857.08 302.21 1910.9
-814.63 288.91 1826.8
-740.87 264.29 1671.1
-719.28 259.62 1641.6
-757.58 275.07 1739.3
-778.54 284.38 1798.2
-766.77 281.76 1781.6
-743.78 274.97 1738.7
-758.54 282.14 1784.0
-763.07 285.57 1805.7
-737.24 277.60 1755.3
-741.74 281.03 1777.0
-766.23 292.12 1847.2
-771.17 295.86 1870.8
-758.76 292.94 1852.3
-727.39 282.62 1787.0
-713.38 278.95 1763.9
-721.61 283.99 1795.7
-715.01 283.22 1790.9
-706.25 281.58 1780.5
-678.66 272.36 1722.2
-666.85 269.39 1703.4
-692.40 281.58 1780.5
-703.35 287.95 1820.7
-687.88 283.52 1792.7
-677.12 280.98 1776.7
-689.89 288.24 1822.6
-696.18 292.88 1851.9
-706.83 299.42 1893.3
-721.07 307.59 1945.0
-686.55 294.93 1864.9
-652.05 282.09 1783.7
-652.00 284.09 1796.3
-648.54 284.61 1799.7
-662.72 292.94 1852.3
-662.09 294.80 1864.1
-635.42 285.00 1802.1
-641.05 289.66 1831.6
-652.70 297.13 1878.8
-662.52 303.86 1921.4
-651.33 300.99 1903.2
-620.18 288.79 1826.1
-630.45 295.83 1870.6
-632.35 299.02 1890.8
-613.91 292.57 1850.0
-629.37 302.30 1911.5
-664.19 321.55 2033.2
-672.82 328.34 2076.1
-637.37 313.54 1982.6
-617.67 306.33 1937.0
-645.90 322.95 2042.1
-673.33 339.45 2146.4
-666.49 338.80 2142.3
-664.91 340.83 2155.2
-676.56 349.75 2211.5
-677.62 353.29 2233.9
-684.54 359.98 2276.2
-665.24 362.32 2291.0
-650.73 357.61 2261.2
-1290.05 332.20 2135.6
-1259.38 331.42 2130.5
-1227.06 325.77 2094.2
-1136.10 302.96 1947.6
-1067.10 285.83 1837.5
-1102.20 296.56 1906.4
-1131.59 305.84 1966.1
-1088.32 295.47 1899.5
-1091.95 297.80 1914.5
-1111.17 304.43 1957.1
-1067.32 293.76 1888.5
-1058.24 292.60 1881.0
-1114.55 309.60 1990.3
-1119.27 312.36 2008.0
-1105.18 309.86 1992.0
-1126.11 317.21 2039.2
-1108.66 313.77 2017.1
-1078.47 306.67 1971.5
-1052.71 300.77 1933.6
-1026.94 297.66 1913.5
-961.92 280.17 1801.1
-950.36 278.15 1788.1
-968.48 284.85 1831.2
-1075.48 317.88 2043.5
-960.77 288.23 1852.9
-927.89 279.77 1798.5
-905.19 274.30 1763.3
-915.51 278.84 1792.5
-940.52 287.91 1850.9
-911.21 280.37 1802.4
-886.55 274.19 1762.6
-905.48 281.50 1809.6
-922.01 288.13 1852.2
-909.34 285.66 1836.4
-875.30 276.41 1776.9
-896.41 284.57 1829.4
-907.31 289.57 1861.5
-858.89 275.58 1771.6
-846.98 273.22 1756.4
-826.56 268.07 1723.3
-788.37 257.08 1652.6
-809.05 265.26 1705.3
-845.14 278.62 1791.1
-849.32 281.54 1809.9
-820.32 273.44 1757.8
-809.06 271.19 1743.4
-848.88 286.14 1839.5
-869.70 294.82 1895.2
-851.65 290.33 1866.4
-827.58 283.74 1824.0
-837.07 288.64 1855.6
-856.14 296.93 1908.8
-819.34 285.82 1837.4
-788.46 276.65 1778.5
-787.38 277.90 1786.5
-754.48 267.86 1722.0
-741.62 264.87 1702.7
-749.69 269.35 1731.5
-726.72 262.67 1688.6
-714.05 259.66 1669.2
-738.26 270.10 1736.3
-773.73 284.81 1830.9
-780.80 289.19 1859.1
-744.28 277.37 1783.1
-731.60 274.35 1763.7
-751.82 283.71 1823.8
-754.51 286.52 1841.9
-713.09 272.52 1751.9
-689.51 265.19 1704.8
-731.82 283.29 1821.1
-759.30 295.83 1901.8
-767.80 301.10 1935.6
-759.45 299.78 1927.2
-720.47 286.28 1840.4
-718.47 287.39 1847.5
-720.00 289.93 1863.8
-695.21 281.84 1811.8
-673.12 274.74 1766.2
-673.66 276.85 1779.7
-697.47 288.61 1855.3
-726.81 302.84 1946.8
-723.05 303.38 1950.3
-669.36 282.83 1818.2
-651.60 277.28 1782.5
-669.11 286.76 1843.5
-660.51 285.11 1832.9
-670.62 291.57 1874.4
-673.71 301.66 1939.3
-676.63 305.25 1962.3
-657.33 298.79 1920.8
-601.95 275.70 1772.4
-623.48 289.99 1864.2
-641.86 300.87 1934.2
-656.20 310.02 1993.0
-684.09 325.76 2094.1
-684.96 328.78 2113.6
-638.20 308.81 1985.2
-621.50 303.17 1949.0
-657.17 323.20 2077.7
-690.45 342.37 2201.0
-685.24 342.62 2202.6
-673.31 339.48 2182.4
-673.34 342.38 2201.0
-667.53 342.32 2200.6
-665.99 344.48 2214.5
-674.28 351.80 2261.5
-670.41 355.97 2288.4
-641.47 349.89 2249.3
-1272.53 323.62 2115.7
-1222.92 316.46 2068.8
-1244.83 326.42 2134.0
-1138.61 299.90 1960.6
-1141.72 302.07 1974.8
-1204.12 320.01 2092.1
-1194.60 318.92 2084.9
-1162.99 311.89 2039.0
-1147.72 309.20 2021.4
-1131.05 306.11 2001.2
-1149.44 312.52 2043.1
-1142.97 312.20 2041.0
-1088.24 298.63 1952.3
-1039.15 286.49 1873.0
-1017.68 281.89 1842.9
-1029.75 286.58 1873.5
-1035.98 289.68 1893.8
-1018.43 286.13 1870.6
-1088.32 307.23 2008.5
-1098.01 312.96 2046.0
-1010.77 289.49 1892.6
-982.27 282.70 1848.2
-971.10 280.86 1836.1
-1029.20 299.13 1955.5
-1068.88 312.20 2041.0
-1016.16 298.27 1950.0
-945.56 278.94 1823.6
-910.01 269.80 1763.8
-910.90 271.43 1774.5
-945.09 283.05 1850.4
-974.93 293.47 1918.6
-948.15 286.88 1875.5
-868.57 264.15 1726.9
-839.26 256.56 1677.3
-884.33 271.75 1776.5
-896.88 277.05 1811.2
-883.89 274.47 1794.4
-927.64 289.58 1893.1
-943.19 296.00 1935.1
-900.65 284.16 1857.7
-872.20 276.67 1808.7
-835.39 266.42 1741.7
-781.37 250.55 1638.0
-787.23 253.81 1659.3
-857.25 277.90 1816.8
-896.72 292.30 1910.9
-885.93 290.39 1898.4
-896.88 295.62 1932.6
-895.64 296.87 1940.8
-867.51 289.17 1890.5
-870.43 291.79 1907.6
-864.67 291.52 1905.8
-823.09 279.09 1824.6
-797.25 271.89 1777.5
-833.32 285.85 1868.7
-867.92 301.22 1969.2
-815.54 284.71 1861.3
-792.09 278.17 1818.6
-792.44 279.96 1830.3
-753.58 267.84 1751.0
-728.31 260.43 1702.5
-742.77 267.22 1746.9
-770.91 279.04 1824.2
-802.15 292.14 1909.9
-789.53 289.33 1891.5
-752.33 277.42 1813.7
-750.19 278.37 1819.9
-760.40 283.95 1856.3
-724.15 272.13 1779.1
-681.57 257.77 1685.2
-704.01 267.98 1751.9
-733.86 281.15 1838.0
-746.52 287.87 1882.0
-775.32 300.95 1967.4
-774.13 302.47 1977.4
-740.96 291.44 1905.3
-711.32 281.66 1841.4
-723.11 288.27 1884.6
-738.22 296.29 1937.0
-676.00 273.18 1785.9
-638.84 259.94 1699.4
-671.32 275.05 1798.2
-671.34 276.98 1810.8
-637.78 264.99 1732.4
-639.25 267.49 1748.7
-675.42 284.64 1860.9
-684.90 290.71 1900.5
-627.51 268.28 1753.9
-607.56 261.65 1710.5
-677.99 294.13 1922.9
-697.08 304.65 1991.7
-631.73 278.15 1818.4
-637.05 284.74 1861.5
-640.67 288.55 1886.4
-603.72 273.99 1791.2
-617.42 282.39 1846.1
-652.38 300.70 1965.9
-683.36 317.47 2075.5
-699.69 327.63 2141.9
-688.56 325.00 2124.7
-651.15 309.82 2025.5
-643.37 308.61 2017.5
-672.92 325.43 2127.5
-693.96 338.38 2212.1
-694.60 341.51 2232.6
-688.43 341.32 2231.4
-682.84 341.42 2232.0
-670.64 338.19 2210.9
-665.38 338.42 2212.5
-670.84 344.17 2250.0
-670.93 350.31 2290.2
-633.17 333.55 2180.6
-640.26 340.32 2224.8
-651.47 349.42 2284.4
-1255.00 313.75 2086.5
-1171.51 294.14 1956.1
-1149.80 291.21 1936.6
-1241.90 317.31 2110.2
-1153.58 296.05 1968.8
-1240.69 319.82 2126.9
-1212.53 315.37 2097.3
-1213.87 317.14 2109.0
-1206.28 316.58 2105.3
-1180.04 311.10 2068.9
-1170.20 312.77 2080.0
-1110.85 298.28 1983.7
-1105.94 298.35 1984.1
-1103.43 299.06 1988.8
-1058.24 288.16 1916.3
-1044.38 285.73 1900.2
-1082.44 297.54 1978.7
-1093.64 302.05 2008.7
-1042.84 289.40 1924.6
-1007.43 280.92 1868.2
-1014.90 284.37 1891.1
-1017.61 286.51 1905.4
-1011.88 286.29 1903.9
-1022.37 290.67 1933.1
-1036.90 296.26 1970.2
-1031.03 296.04 1968.7
-1012.34 292.12 1942.7
-978.70 283.82 1887.5
-917.10 267.30 1777.6
-891.26 261.08 1736.2
-934.56 275.15 1829.8
-973.88 288.19 1916.5
-966.78 287.55 1912.3
-901.79 269.61 1793.0
-880.76 264.69 1760.2
-944.22 285.23 1896.9
-951.69 289.00 1921.9
-931.46 284.34 1890.9
-938.40 287.97 1915.1
-915.27 282.37 1877.8
-923.85 286.54 1905.6
-944.79 294.61 1959.2
-899.93 282.14 1876.3
-840.49 264.94 1761.9
-816.36 258.74 1720.7
-859.21 273.81 1820.9
-907.10 290.67 1933.1
-903.81 291.23 1936.7
-887.99 287.73 1913.5
-862.30 280.97 1868.5
-838.44 274.74 1827.1
-840.27 276.91 1841.5
-839.57 278.26 1850.5
-805.83 268.61 1786.3
-782.50 262.34 1744.6
-820.68 276.74 1840.4
-880.92 298.79 1987.0
-875.40 298.66 1986.2
-862.71 296.08 1969.0
-843.86 293.08 1949.0
-771.45 269.54 1792.5
-755.43 265.54 1765.9
-781.38 276.34 1837.8
-805.48 286.61 1906.0
-835.02 298.96 1988.1
-827.56 298.13 1982.6
-793.94 287.80 1914.0
-777.61 283.66 1886.4
-774.16 284.19 1889.9
-746.42 275.75 1833.8
-707.79 263.15 1750.0
-707.57 264.77 1760.8
-713.90 268.87 1788.1
-725.59 275.06 1829.2
-751.25 286.66 1906.4
-755.98 290.38 1931.1
-729.36 282.02 1875.5
-714.77 278.23 1850.3
-742.15 290.84 1934.2
-751.52 296.52 1971.9
-679.73 270.03 1795.8
-654.92 263.79 1754.2
-681.55 276.43 1838.3
-672.55 274.70 1826.8
-640.15 263.32 1751.2
-641.53 265.78 1767.5
-672.38 280.56 1865.8
-634.73 266.77 1774.1
-635.42 270.99 1802.1
-656.43 282.02 1875.5
-632.46 277.90 1848.1
-666.68 295.17 1963.0
-658.94 293.99 1955.1
-628.00 282.36 1877.7
-613.63 278.05 1849.1
-656.04 299.61 1992.5
-693.79 319.36 2123.8
-693.38 321.73 2139.6
-664.10 310.63 2065.8
-647.20 305.18 2029.6
-669.88 318.47 2117.9
-696.27 333.75 2219.5
-688.96 335.80 2233.1
-674.40 331.48 2204.4
-672.03 333.14 2215.5
-677.58 338.79 2253.0
-677.30 341.60 2271.7
-1236.57 305.13 2064.8
-1165.02 288.72 1953.8
-1233.68 307.07 2077.9
-1282.67 320.67 2169.9
-1139.61 286.16 1936.4
-1178.07 298.44 2019.5
-1244.37 316.65 2142.7
-1224.30 312.94 2117.6
-1184.53 304.14 2058.1
-1137.10 293.28 1984.6
-1143.03 296.15 2004.0
-1191.48 310.11 2098.5
-1158.87 304.40 2059.9
-1103.42 291.18 1970.4
-1097.57 290.98 1969.1
-1115.78 297.19 2011.1
-1086.36 290.72 1967.2
-1068.09 287.18 1943.3
-1099.89 297.13 2010.6
-1127.63 306.07 2071.2
-1087.08 296.48 2006.2
-1045.38 286.47 1938.5
-1053.18 290.01 1962.5
-1076.30 297.81 2015.3
-1089.43 302.91 2049.8
-1083.40 302.72 2048.5
-1081.54 303.68 2055.0
-1053.42 297.25 2011.5
-1012.19 287.04 1942.4
-1011.85 288.38 1951.4
-985.57 282.30 1910.3
-937.71 269.95 1826.7
-958.74 277.40 1877.2
-972.83 282.91 1914.5
-935.76 273.53 1850.9
-954.63 280.48 1898.0
-946.64 283.99 1921.8
-898.99 271.12 1834.7
-903.39 273.90 1853.4
-938.83 286.17 1936.5
-972.63 298.07 2017.0
-934.93 288.06 1949.3
-877.45 271.82 1839.4
-859.53 267.72 1811.6
-889.51 278.58 1885.1
-929.70 292.78 1981.2
-897.39 284.17 1923.0
-859.06 273.56 1851.1
-851.35 272.62 1844.8
-842.84 271.42 1836.7
-856.58 277.41 1877.2
-869.73 283.28 1917.0
-831.76 272.47 1843.8
-800.60 263.78 1785.0
-801.57 265.64 1797.5
-817.34 272.45 1843.6
-843.30 282.75 1913.4
-861.80 290.66 1966.9
-857.89 291.07 1969.7
-810.27 276.56 1871.5
-768.95 264.04 1786.7
-778.66 268.99 1820.3
-813.43 282.72 1913.1
-846.62 296.06 2003.4
-829.53 291.87 1975.1
-778.60 275.65 1865.3
-781.67 278.47 1884.4
-799.01 286.44 1938.3
-789.06 284.66 1926.3
-753.39 273.52 1850.9
-735.51 268.74 1818.6
-755.82 277.95 1880.8
-745.36 275.88 1866.9
-740.07 275.71 1865.7
-743.14 278.68 1885.8
-723.00 272.92 1846.8
-716.32 272.20 1842.0
-722.15 276.26 1869.4
-724.66 279.09 1888.6
-706.61 273.99 1854.1
-692.58 270.39 1829.7
-699.92 275.14 1861.8
-729.97 288.95 1955.3
-733.00 294.23 1991.1
-684.23 276.60 1871.8
-685.34 279.03 1888.2
-718.94 294.82 1995.0
-702.00 289.96 1962.1
-678.91 282.47 1911.4
-675.49 283.11 1915.8
-649.13 274.08 1854.7
-627.28 266.83 1805.6
-650.53 278.80 1886.6
-680.46 293.83 1988.3
-685.70 298.36 2019.0
-687.00 301.22 2038.4
-666.22 294.38 1992.0
-644.40 286.96 1941.8
-683.83 306.92 2076.9
-651.90 294.91 1995.6
-656.15 301.62 2041.0
-709.82 331.64 2244.2
-682.88 321.69 2176.8
-692.88 334.70 2264.9
-682.61 332.55 2250.4
-665.38 332.69 2251.3
-634.94 320.28 2167.3
-641.07 326.26 2207.8
-654.95 336.32 2275.9
-1250.74 305.86 2106.7
-1180.53 289.95 1997.1
-1171.13 288.91 1990.0
-1227.46 304.15 2094.9
-1184.89 294.91 2031.2
-1116.16 279.04 1922.0
-1149.16 288.58 1987.7
-1163.09 293.39 2020.8
-1160.11 293.96 2024.8
-1211.68 308.43 2124.4
-1206.71 309.98 2135.1
-1117.69 291.12 2005.1
-1045.83 273.68 1885.0
-1077.08 283.18 1950.4
-1122.87 296.61 2043.0
-1044.03 277.09 1908.5
-1041.08 278.95 1921.3
-1124.31 302.70 2084.9
-1136.98 307.59 2118.6
-1130.25 308.75 2126.6
-1070.27 293.80 2023.6
-1110.03 306.22 2109.1
-1124.13 311.64 2146.5
-1078.03 300.35 2068.7
-1074.70 300.92 2072.6
-1088.17 306.22 2109.2
-1082.02 306.02 2107.8
-990.60 281.59 1939.5
-895.84 255.95 1763.0
-939.17 269.71 1857.7
-1026.85 297.95 2052.2
-981.47 286.26 1971.7
-1004.19 294.42 2027.9
-966.21 284.78 1961.5
-935.04 277.05 1908.2
-958.83 285.61 1967.2
-948.63 284.08 1956.7
-936.75 282.03 1942.6
-929.64 281.40 1938.2
-900.35 274.02 1887.4
-894.64 273.77 1885.7
-939.28 289.01 1990.6
-918.21 285.66 1967.6
-852.23 266.62 1836.4
-820.04 257.99 1777.0
-838.97 265.44 1828.3
-881.95 280.62 1932.8
-893.34 285.87 1969.0
-851.18 273.94 1886.8
-817.88 264.75 1823.5
-815.54 265.53 1828.9
-822.82 269.46 1856.0
-839.17 276.43 1904.0
-860.47 285.13 1963.9
-861.72 287.24 1978.4
-828.25 277.74 1913.0
-794.66 268.08 1846.5
-804.64 273.09 1881.0
-841.22 287.25 1978.5
-812.55 279.16 1922.8
-745.36 257.65 1774.7
-730.14 257.16 1771.2
-773.16 274.03 1887.5
-794.73 283.47 1952.5
-778.31 283.02 1949.4
-760.41 278.32 1917.0
-751.74 276.96 1907.6
-762.61 282.82 1948.0
-755.95 284.11 1956.9
-721.34 272.94 1879.9
-704.73 268.47 1849.1
-692.81 265.73 1830.3
-706.07 272.69 1878.2
-739.91 287.74 1981.9
-727.32 288.86 1989.6
-707.24 287.00 1976.8
-696.71 284.79 1961.6
-708.66 291.80 2009.8
-687.97 285.38 1965.6
-674.63 281.94 1941.9
-682.07 287.19 1978.1
-693.51 294.22 2026.5
-709.19 303.16 2088.1
-709.49 308.00 2121.4
-699.85 306.18 2108.9
-696.76 307.23 2116.2
-621.36 276.16 1902.1
-670.62 302.86 2086.0
-653.31 299.88 2065.5
-661.47 306.13 2108.6
-684.71 324.95 2238.2
-655.21 324.70 2236.5
-662.83 331.42 2282.7
-648.05 326.94 2251.9
-640.47 326.06 2245.8
-1326.30 311.74 2186.2
-1251.94 296.80 2081.4
-1273.45 303.20 2126.4
-1275.47 305.00 2139.0
-1277.43 306.81 2151.6
-1249.54 301.42 2113.9
-1276.16 309.20 2168.4
-1276.47 310.64 2178.5
-1174.22 287.03 2012.9
-1117.96 274.50 1925.1
-1162.39 286.69 2010.5
-1183.21 293.14 2055.8
-1190.53 296.28 2077.8
-1114.97 286.56 2009.6
-1116.24 288.23 2021.4
-1144.22 296.85 2081.8
-1051.95 274.20 1923.0
-1078.47 285.17 1999.9
-1081.00 287.22 2014.3
-1075.22 289.89 2033.0
-1086.32 294.32 2064.1
-1123.07 305.79 2144.5
-1098.97 300.71 2108.9
-1096.01 301.40 2113.7
-1110.32 306.87 2152.1
-1100.00 305.56 2142.9
-1004.88 280.55 1967.5
-941.49 264.19 1852.8
-1019.56 287.57 2016.7
-1038.69 296.00 2075.8
-974.24 279.08 1957.2
-978.08 281.65 1975.2
-962.11 278.51 1953.2
-948.85 276.12 1936.4
-992.58 290.38 2036.4
-965.52 288.61 2024.0
-959.95 288.51 2023.3
-916.29 276.90 1941.9
-856.96 260.40 1826.2
-897.51 274.24 1923.2
-918.03 282.08 1978.2
-880.13 271.95 1907.2
-895.89 278.38 1952.3
-880.16 275.05 1928.9
-836.25 262.82 1843.2
-844.10 266.81 1871.2
-857.50 272.61 1911.8
-859.81 274.94 1928.2
-872.10 280.50 1967.1
-856.62 277.14 1943.6
-851.19 277.01 1942.7
-839.02 274.68 1926.3
-790.68 260.40 1826.2
-780.01 258.44 1812.4
-813.08 271.03 1900.7
-841.10 282.07 1978.2
-805.47 271.78 1906.0
-752.50 255.48 1791.7
-716.77 247.94 1738.8
-786.18 273.67 1919.2
-818.77 290.53 2037.5
-774.88 276.74 1940.8
-758.82 272.78 1913.0
-757.79 274.20 1923.0
-776.59 282.86 1983.7
-765.48 282.56 1981.6
-741.10 275.41 1931.4
-733.90 274.59 1925.7
-707.41 266.49 1868.9
-708.74 268.83 1885.3
-700.98 267.73 1877.6
-690.83 265.70 1863.4
-699.24 270.83 1899.3
-699.99 273.05 1914.9
-700.33 275.13 1929.5
-683.46 270.43 1896.6
-677.09 269.85 1892.5
-710.21 285.12 1999.5
-724.05 292.81 2053.5
-706.53 287.84 2018.6
-690.14 283.27 1986.5
-692.31 286.29 2007.8
-660.69 275.29 1930.6
-634.21 266.27 1867.3
-651.06 275.45 1931.7
-646.23 275.53 1932.3
-649.20 278.95 1956.3
-657.33 284.67 1996.4
-653.26 285.15 1999.8
-676.05 297.46 2086.1
-653.25 289.75 2032.0
-675.35 312.14 2189.0
-656.82 306.15 2147.0
-1267.67 296.34 2116.7
-1311.91 308.01 2200.1
-1222.05 293.29 2094.9
-1180.58 284.60 2032.9
-1203.94 291.54 2082.4
-1205.81 293.31 2095.0
-1152.85 281.69 2012.1
-1141.52 280.19 2001.4
-1163.56 286.90 2049.3
-1150.72 285.04 2036.0
-1165.19 289.96 2071.1
-1206.19 301.55 2153.9
-1200.46 301.51 2153.7
-1146.58 289.32 2066.6
-1128.54 286.11 2043.6
-1134.50 288.98 2064.1
-1130.36 289.29 2066.3
-1121.47 288.38 2059.8
-1098.41 283.80 2027.1
-1079.25 280.19 2001.4
-1056.43 275.59 1968.5
-1104.34 289.49 2067.8
-1145.58 303.24 2166.0
-1115.29 296.68 2119.1
-1110.50 296.87 2120.5
-1070.39 287.57 2054.1
-1049.73 283.43 2024.5
-1068.32 289.90 2070.7
-1063.61 290.07 2072.0
-1028.19 281.84 2013.1
-1015.03 279.65 1997.5
-990.75 274.36 1959.7
-957.25 266.45 1903.2
-991.03 277.28 1980.6
-1017.42 286.15 2043.9
-988.49 279.47 1996.2
-940.90 267.41 1910.1
-943.45 269.56 1925.4
-1007.21 289.31 2066.5
-968.24 279.60 1997.1
-922.22 267.74 1912.4
-956.79 279.28 1994.9
-959.83 281.69 2012.1
-952.15 280.96 2006.9
-903.86 268.18 1915.6
-864.80 258.01 1842.9
-926.31 277.89 1984.9
-957.56 288.87 2063.4
-927.36 281.33 2009.5
-924.70 282.11 2015.1
-889.07 272.78 1948.4
-857.00 264.44 1888.9
-874.13 271.28 1937.7
-870.34 271.67 1940.5
-855.22 268.50 1917.9
-892.87 281.96 2014.0
-899.68 285.78 2041.3
-863.79 276.00 1971.4
-823.04 264.55 1889.6
-804.72 260.21 1858.6
-824.95 268.36 1916.8
-830.88 271.92 1942.3
-830.10 273.32 1952.3
-842.39 279.07 1993.4
-832.61 277.54 1982.4
-803.78 269.59 1925.6
-793.81 267.91 1913.6
-789.93 268.28 1916.3
-803.34 274.56 1961.1
-823.27 283.16 2022.6
-811.69 280.97 2006.9
-800.91 279.03 1993.0
-782.47 274.37 1959.8
-770.03 271.77 1941.2
-771.84 274.21 1958.6
-750.08 268.24 1916.0
-732.82 263.81 1884.4
-735.35 266.50 1903.6
-745.95 272.17 1944.1
-759.91 279.15 1993.9
-754.32 279.00 1992.8
-728.15 271.17 1937.0
-693.57 260.09 1857.8
-700.70 264.60 1890.0
-727.89 276.80 1977.2
-709.40 271.69 1940.6
-688.71 265.65 1897.5
-685.36 266.25 1901.8
-693.67 271.44 1938.8
-666.64 262.76 1876.9
-623.73 247.66 1769.0
-651.08 260.43 1860.2
-681.25 274.53 1961.0
-677.02 274.88 1963.4
-640.04 261.83 1870.2
-600.62 247.58 1768.5
-606.63 251.98 1799.9
-612.48 256.39 1831.3
-625.06 263.70 1883.6
-667.77 283.93 2028.1
-698.41 299.32 2138.0
-659.16 284.76 2034.0
-681.54 301.66 2154.7
-650.14 292.56 2089.7
-653.38 304.16 2172.6
-675.96 317.41 2267.2
-657.62 311.50 2225.0
-1316.15 299.38 2178.8
-1299.18 296.80 2160.0
-1305.25 299.47 2179.5
-1299.24 304.69 2217.4
-1230.38 289.82 2109.2
-1177.41 278.58 2027.4
-1189.85 282.79 2058.0
-1210.59 289.02 2103.3
-1175.37 281.88 2051.4
-1114.28 268.44 1953.6
-1083.12 263.33 1916.4
-1100.75 268.85 1956.6
-1126.47 276.40 2011.6
-1106.52 272.77 1985.1
-1089.57 269.85 1963.8
-1108.21 275.75 2006.8
-1159.19 289.80 2109.0
-1204.52 302.56 2201.9
-1195.83 301.80 2196.4
-1169.65 296.61 2158.6
-1155.41 294.41 2142.6
-1142.63 292.56 2129.1
-1120.08 288.18 2097.2
-1114.89 288.24 2097.7
-1101.81 286.25 2083.3
-1081.85 282.45 2055.6
-1083.64 284.32 2069.2
-1053.71 277.85 2022.1
-1006.16 266.63 1940.5
-996.26 265.33 1931.0
-1043.96 279.44 2033.7
-1061.43 285.56 2078.2
-1049.04 283.67 2064.4
-1021.03 277.51 2019.6
-967.78 264.39 1924.2
-984.65 270.40 1967.8
-1006.65 277.88 2022.3
-972.03 269.73 1963.0
-932.84 260.21 1893.7
-948.52 265.99 1935.8
-997.07 281.09 2045.7
-942.10 267.01 1943.2
-898.27 257.34 1872.8
-928.49 267.44 1946.4
-955.41 276.70 2013.7
-946.47 275.62 2005.9
-937.13 274.41 1997.0
-949.66 279.62 2035.0
-931.52 275.81 2007.3
-956.74 284.87 2073.2
-968.00 291.50 2121.4
-924.48 279.99 2037.6
-919.67 280.13 2038.7
-894.15 273.93 1993.6
-839.31 258.63 1882.2
-835.22 258.87 1884.0
-895.95 279.33 2032.8
-886.28 279.60 2034.8
-883.40 280.36 2040.4
-864.42 275.99 2008.5
-831.52 267.09 1943.8
-833.06 269.22 1959.3
-846.12 275.12 2002.2
-844.00 276.12 2009.5
-822.36 270.71 1970.2
-818.37 271.09 1972.9
-820.42 273.47 1990.2
-788.16 264.38 1924.1
-764.05 257.93 1877.1
-768.42 261.06 1899.9
-771.93 263.95 1920.9
-776.09 267.10 1943.8
-787.82 272.90 1986.1
-786.26 274.16 1995.2
-760.79 267.03 1943.4
-765.76 270.57 1969.1
-793.12 282.12 2053.1
-761.11 272.56 1983.6
-731.18 263.62 1918.5
-733.49 266.27 1937.8
-715.12 261.39 1902.3
-704.19 259.18 1886.2
-738.84 273.84 1992.9
-740.02 280.15 2038.8
-721.55 275.12 2002.2
-706.58 271.37 1974.9
-657.55 254.38 1851.3
-653.25 256.46 1866.4
-664.22 262.71 1911.9
-635.86 253.39 1844.1
-656.94 263.77 1919.6
-675.11 273.14 1987.8
-661.29 269.60 1962.1
-649.48 266.84 1942.0
-630.57 261.09 1900.2
-644.10 268.80 1956.2
-688.78 289.72 2108.5
-657.23 278.67 2028.0
-659.43 284.14 2067.9
-682.05 296.30 2156.4
-631.85 276.76 2014.2
-638.09 284.19 2068.2
-678.43 304.72 2217.6
-693.01 313.93 2284.7
-663.87 303.32 2207.5
-648.98 299.10 2176.7
-654.46 304.27 2214.3
-1263.16 288.09 2136.9
-1234.84 282.87 2098.2
-1216.22 279.84 2075.7
-1192.16 275.52 2043.7
-1182.70 274.56 2036.5
-1173.76 273.70 2030.2
-1169.79 274.00 2032.4
-1182.59 278.26 2064.0
-1169.19 276.35 2049.9
-1143.58 271.53 2014.1
-1137.65 271.37 2012.9
-1090.33 261.28 1938.0
-1082.16 261.73 1941.4
-1122.62 272.79 2023.4
-1116.67 272.61 2022.1
-1145.15 280.89 2083.5
-1197.70 295.17 2189.4
-1196.63 296.31 2197.9
-1180.38 293.68 2178.4
-1176.46 294.11 2181.6
-1145.76 287.82 2134.9
-1104.95 278.92 2068.9
-1097.49 278.39 2065.0
-1081.68 275.72 2045.2
-1053.01 269.74 2000.8
-1042.47 268.36 1990.6
-1024.64 265.08 1966.3
-1004.27 262.42 1946.5
-1085.05 284.96 2113.7
-1069.86 282.40 2094.7
-1025.05 271.95 2017.2
-1048.96 284.09 2107.3
-1018.12 277.19 2056.0
-981.36 268.58 1992.2
-984.61 270.90 2009.4
-1015.18 280.79 2082.8
-939.77 261.33 1938.4
-959.95 271.29 2012.3
-997.38 283.41 2102.2
-996.72 284.78 2112.4
-941.62 270.52 2006.6
-915.09 264.36 1960.9
-940.14 273.11 2025.8
-889.89 264.43 1961.4
-843.21 251.99 1869.2
-871.66 262.00 1943.4
-870.28 263.11 1951.6
-834.66 253.82 1882.7
-861.79 263.61 1955.3
-857.52 263.85 1957.2
-813.62 251.83 1868.0
-850.54 264.84 1964.5
-871.73 273.07 2025.5
-822.01 259.06 1921.6
-811.18 257.20 1907.8
-813.15 259.41 1924.2
-797.37 255.95 1898.5
-813.81 262.85 1949.7
-847.13 275.32 2042.2
-848.65 277.55 2058.7
-813.98 267.89 1987.1
-760.17 251.77 1867.6
-751.08 251.97 1869.0
-765.28 258.41 1916.8
-767.20 260.75 1934.1
-756.67 258.86 1920.1
-762.83 262.70 1948.6
-799.43 277.14 2055.7
-793.33 278.74 2067.6
-757.54 267.97 1987.7
-755.49 269.08 1995.9
-759.32 272.31 2019.9
-772.07 278.80 2068.0
-738.38 268.50 1991.6
-710.86 260.31 1930.9
-738.11 272.21 2019.2
-743.97 276.33 2049.7
-723.12 270.52 2006.6
-706.47 266.20 1974.6
-697.27 264.66 1963.1
-703.95 269.16 1996.5
-697.69 268.74 1993.4
-657.91 255.31 1893.8
-645.76 252.48 1872.8
-687.01 270.64 2007.5
-718.39 285.16 2115.2
-714.09 285.64 2118.7
-694.67 280.02 2077.1
-670.44 272.37 2020.3
-664.16 271.94 2017.1
-692.38 285.75 2119.5
-695.79 294.16 2181.9
-656.25 279.71 2074.8
-639.47 274.81 2038.4
-654.97 283.82 2105.3
-699.40 305.62 2267.0
-1272.72 282.21 2134.4
-1191.31 267.65 2024.3
-1190.41 268.63 2031.7
-1182.96 268.14 2027.9
-1187.49 270.37 2044.8
-1192.46 272.71 2062.5
-1172.56 269.37 2037.3
-1169.07 269.78 2040.4
-1137.38 267.31 2021.7
-1110.38 264.62 2001.4
-1111.68 266.18 2013.1
-1098.08 264.16 1997.9
-1111.25 268.60 2031.4
-1147.07 278.57 2106.9
-1167.44 284.88 2154.5
-1165.93 285.88 2162.1
-1136.67 280.05 2118.0
-1108.05 274.32 2074.7
-1112.23 276.70 2092.7
-1125.16 281.29 2127.4
-1125.45 282.75 2138.4
-1108.64 279.91 2116.9
-1086.87 275.77 2085.7
-1046.48 266.85 2018.2
-1055.54 270.52 2045.9
-1123.90 290.96 2200.5
-1017.23 264.69 2001.8
-1030.11 269.41 2037.6
-1086.07 286.99 2170.5
-1056.32 280.59 2122.1
-1047.49 279.70 2115.3
-1043.50 280.10 2118.4
-1075.32 290.17 2194.5
-1052.88 285.62 2160.2
-931.37 254.01 1921.1
-943.86 260.20 1967.9
-970.48 268.99 2034.4
-969.99 270.33 2044.5
-1003.78 281.28 2127.3
-975.20 274.78 2078.2
-935.08 264.94 2003.7
-953.36 271.63 2054.3
-948.54 271.77 2055.4
-914.32 263.45 1992.5
-920.33 266.69 2017.0
-889.73 259.29 1961.0
-843.45 247.22 1869.7
-872.31 257.16 1944.9
-922.28 273.47 2068.2
-933.88 278.53 2106.5
-894.06 268.22 2028.5
-828.29 249.96 1890.4
-820.41 250.54 1894.9
-861.39 264.64 2001.5
-837.08 258.73 1956.8
-801.31 249.19 1884.6
-782.09 244.70 1850.7
-782.61 246.38 1863.4
-814.81 258.11 1952.1
-788.83 256.24 1938.0
-752.50 246.01 1860.6
-755.74 248.66 1880.6
-773.24 256.07 1936.7
-776.94 258.98 1958.7
-768.54 257.86 1950.2
-775.00 261.75 1979.7
-754.34 256.48 1939.7
-724.21 247.88 1874.8
-746.28 257.16 1944.9
-767.67 266.33 2014.3
-744.82 260.18 1967.7
-725.68 255.24 1930.4
-749.39 265.41 2007.3
-731.01 260.71 1971.8
-661.24 240.88 1821.8
-674.55 247.50 1871.8
-695.65 257.09 1944.4
-725.04 269.91 2041.3
-710.43 266.41 2014.9
-678.89 256.47 1939.7
-632.61 244.42 1848.5
-653.83 254.54 1925.1
-681.03 267.17 2020.6
-692.68 273.85 2071.1
-683.77 272.44 2060.5
-693.53 278.51 2106.3
-695.99 281.71 2130.6
-693.73 283.04 2140.7
-693.25 285.13 2156.4
-670.09 277.84 2101.3
-670.81 280.42 2120.8
-695.79 293.27 2218.0
-693.20 294.61 2228.1
-654.23 297.91 2253.1
-1336.75 285.63 2203.4
-1352.59 290.26 2239.1
-1336.02 287.94 2221.2
-1333.30 288.59 2226.3
-1261.33 274.20 2115.3
-1200.43 262.10 2021.9
-1255.70 275.37 2124.3
-1267.22 279.12 2153.2
-1241.95 274.77 2119.6
-1264.37 280.97 2167.5
-1246.47 279.48 2156.0
-1175.34 264.72 2042.1
-1197.03 270.82 2089.2
-1243.36 285.17 2199.9
-1168.85 269.32 2077.6
-1141.91 264.33 2039.1
-1130.13 262.82 2027.5
-1161.28 271.33 2093.1
-1180.65 277.15 2138.0
-1183.56 279.14 2153.4
-1165.42 276.17 2130.4
-1176.35 280.08 2160.6
-1194.72 285.82 2204.9
-1186.51 285.22 2200.3
-1132.88 277.67 2142.0
-1128.06 277.85 2143.4
-1105.71 273.69 2111.3
-1113.79 277.06 2137.3
-1104.83 276.21 2130.8
-1039.88 261.28 2015.6
-1043.90 263.61 2033.6
-1011.11 259.26 2000.0
-993.02 257.26 1984.6
-1038.46 270.43 2086.2
-1060.55 277.63 2141.7
-1062.94 281.20 2169.3
-982.66 261.35 2016.1
-988.38 264.27 2038.7
-1058.29 284.49 2194.6
-1046.78 282.91 2182.5
-992.12 269.60 2079.8
-948.54 259.16 1999.3
-943.02 259.07 1998.6
-979.27 270.52 2086.8
-999.17 277.55 2141.1
-984.98 275.13 2122.5
-948.81 266.52 2056.0
-917.05 259.05 1998.4
-922.24 262.00 2021.1
-948.25 270.93 2090.0
-947.00 272.13 2099.3
-941.24 272.03 2098.6
-912.34 268.33 2070.0
-863.99 255.62 1971.9
-841.04 250.31 1931.0
-820.25 245.58 1894.5
-807.07 243.09 1875.3
-831.85 252.08 1944.6
-844.66 257.52 1986.6
-819.80 251.47 1939.9
-816.29 251.94 1943.5
-817.34 253.83 1958.1
-840.39 262.62 2025.9
-852.46 269.77 2081.0
-827.98 263.69 2034.2
-828.65 265.59 2048.9
-805.93 259.98 2005.5
-798.13 259.13 1999.0
-793.64 259.36 2000.8
-777.49 255.75 1973.0
-792.96 262.57 2025.5
-778.31 259.44 2001.4
-714.76 239.85 1850.3
-705.95 238.50 1839.8
-731.83 248.92 1920.3
-714.82 244.80 1888.5
-699.69 241.27 1861.2
-723.57 251.24 1938.1
-730.19 255.31 1969.5
-678.02 238.74 1841.7
-663.47 236.95 1827.9
-677.11 243.56 1878.9
-698.86 253.21 1953.3
-729.58 266.27 2054.1
-718.56 264.18 2037.9
-691.55 256.13 1975.9
-640.07 238.83 1842.4
-625.40 236.90 1827.5
-676.20 262.09 2021.9
-694.05 273.25 2107.9
-667.84 265.02 2044.4
-652.33 260.93 2012.9
-656.72 266.96 2059.4
-702.74 288.01 2221.8
-703.73 293.22 2262.0
-687.54 288.88 2228.5
-680.80 288.48 2225.4
-671.77 287.08 2214.6
-673.07 290.12 2238.0
-675.89 296.44 2286.9
-664.01 293.81 2266.5
-650.28 290.31 2239.5
-1317.90 278.35 2191.1
-1312.88 280.92 2211.3
-1297.99 278.95 2195.9
-1248.37 269.47 2121.2
-1270.39 275.44 2168.2
-1212.32 267.58 2106.3
-1228.95 272.48 2144.9
-1255.27 279.58 2200.8
-1214.63 271.77 2139.3
-1164.93 261.84 2061.1
-1147.70 259.16 2040.0
-1156.28 262.31 2064.8
-1184.12 269.87 2124.3
