ply
format ascii 1.0
element vertex 2098
property float x
property float y
property float z
end_header
73.53 -741.39 2363.3
94.48 -762.15 2429.5
104.20 -741.66 2364.2
139.57 -734.24 2340.6
159.31 -741.38 2363.3
167.87 -752.31 2398.2
175.81 -733.55 2338.3
183.84 -741.47 2363.6
188.63 -736.26 2347.0
199.25 -753.43 2401.7
209.26 -767.30 2445.9
226.90 -762.65 2431.1
230.05 -752.34 2398.3
245.84 -762.72 2431.3
263.83 -760.08 2422.9
300.35 -741.68 2364.3
306.51 -741.75 2364.5
314.55 -746.28 2378.9
322.53 -750.50 2392.4
324.99 -741.95 2365.1
359.61 -737.50 2350.9
383.73 -737.01 2349.4
393.71 -732.90 2336.3
403.96 -740.59 2360.8
462.29 -736.01 2346.2
525.00 -738.66 2354.6
534.32 -734.69 2342.0
598.01 -761.68 2428.0
603.28 -760.38 2423.9
597.77 -730.60 2329.0
897.11 -769.86 2454.1
866.66 -738.49 2354.1
1745.67 -725.86 2313.8
1756.06 -727.68 2319.6
-1927.62 -771.05 2437.7
-1600.54 -768.76 2430.5
-1546.82 -757.88 2396.1
-1527.75 -770.19 2435.0
-1437.75 -762.63 2411.1
-1427.11 -760.29 2403.7
-1316.12 -753.83 2383.3
-1338.79 -774.08 2447.3
-1320.43 -767.11 2425.3
-1298.60 -761.68 2408.1
-1271.98 -760.69 2405.0
-1278.72 -783.94 2478.5
-1253.76 -772.52 2442.4
-1251.27 -774.90 2449.9
-1260.95 -784.88 2481.5
-1240.94 -784.43 2480.1
-1239.99 -787.91 2491.0
-1147.42 -764.95 2418.5
-1110.71 -757.02 2393.4
-1142.16 -782.83 2475.0
-1091.48 -752.32 2378.5
-1092.22 -761.43 2407.3
-1101.57 -772.37 2441.9
-1095.83 -772.78 2443.2
-1058.38 -750.71 2373.5
-1064.27 -772.87 2443.5
-1047.21 -788.64 2493.4
-1019.08 -772.22 2441.5
-1032.73 -787.46 2489.6
-1025.68 -787.00 2488.2
-951.32 -753.64 2382.7
-986.22 -791.57 2502.6
-933.48 -769.49 2432.8
-920.40 -763.87 2415.0
-871.05 -748.37 2366.0
-873.15 -755.49 2388.6
-836.78 -750.64 2373.2
-748.20 -760.67 2404.9
-684.38 -745.49 2356.9
-686.37 -754.39 2385.1
-680.36 -754.58 2385.7
-668.35 -748.06 2365.1
-659.79 -745.32 2356.4
-654.08 -745.77 2357.8
-640.27 -758.38 2397.7
-643.23 -769.36 2432.4
-621.07 -750.20 2371.8
-615.75 -751.22 2375.1
-603.20 -758.66 2398.6
-589.46 -749.11 2368.4
-577.59 -749.64 2370.1
-542.87 -752.61 2379.5
-541.81 -759.78 2402.1
-546.25 -774.91 2450.0
-523.06 -778.21 2460.4
-505.15 -760.84 2405.5
-488.95 -774.70 2449.3
-463.80 -744.52 2353.9
-462.61 -762.68 2411.3
-453.94 -780.00 2466.1
-437.16 -761.91 2408.8
-412.89 -751.83 2377.0
-369.01 -763.04 2412.4
-369.70 -777.64 2458.6
-279.74 -741.91 2345.6
-284.45 -771.19 2438.2
-281.88 -781.59 2471.1
-263.61 -747.90 2364.6
-246.61 -771.46 2439.0
-230.52 -760.10 2403.1
-219.20 -742.85 2348.6
-216.61 -755.03 2387.1
-213.56 -766.30 2422.7
-182.74 -743.14 2349.5
-181.61 -764.03 2415.5
-177.45 -773.19 2444.5
-170.01 -768.20 2428.7
-158.87 -745.45 2356.8
-154.82 -755.50 2388.6
-147.76 -751.10 2374.7
-118.79 -762.74 2411.5
-92.71 -754.01 2383.9
-76.61 -778.92 2462.6
-63.38 -773.29 2444.8
-37.95 -771.63 2439.6
6.11 -745.78 2357.9
25.54 -778.92 2462.6
73.44 -746.66 2360.6
82.38 -773.13 2444.3
84.98 -740.52 2341.2
91.93 -747.68 2363.9
100.42 -765.69 2420.8
103.33 -741.51 2344.4
112.10 -759.81 2402.2
127.25 -776.20 2454.0
128.67 -747.49 2363.3
170.48 -742.80 2348.4
175.96 -740.27 2340.4
182.44 -741.94 2345.7
193.90 -739.25 2337.2
209.35 -773.97 2447.0
210.38 -754.88 2386.6
221.86 -751.86 2377.1
223.78 -737.88 2332.9
243.73 -743.37 2350.2
250.67 -745.88 2358.2
260.54 -739.21 2337.1
265.66 -736.62 2328.9
289.57 -767.98 2428.0
309.35 -754.82 2386.4
313.94 -751.00 2374.4
317.70 -745.38 2356.6
320.98 -738.87 2336.0
390.02 -743.47 2350.6
400.56 -751.82 2377.0
404.31 -747.36 2362.9
511.79 -734.57 2322.4
530.86 -753.08 2380.9
528.77 -741.50 2344.3
538.62 -746.72 2360.8
551.12 -755.46 2388.5
545.51 -739.47 2337.9
636.35 -739.38 2337.6
943.93 -733.50 2319.0
1077.53 -734.40 2321.9
1404.35 -725.98 2295.2
-1923.25 -770.55 2416.4
-1851.76 -761.76 2388.8
-1844.19 -761.19 2387.0
-1829.20 -765.28 2399.8
-1843.88 -774.05 2427.3
-1741.38 -762.24 2390.3
-1750.57 -771.76 2420.1
-1518.01 -762.10 2389.9
-1522.29 -773.73 2426.3
-1454.03 -767.58 2407.0
-1389.51 -766.41 2403.4
-1314.13 -769.70 2413.7
-1346.80 -792.62 2485.6
-1283.67 -759.09 2380.4
-1272.57 -767.29 2406.1
-1259.97 -763.43 2394.0
-1260.81 -767.72 2407.5
-1249.58 -764.67 2397.9
-1221.93 -755.26 2368.4
-1245.09 -773.47 2425.5
-1238.48 -781.19 2449.7
-1203.50 -763.04 2392.8
-1235.80 -791.69 2482.6
-1166.99 -767.59 2407.1
-1121.74 -770.80 2417.2
-1149.90 -794.59 2491.7
-1102.01 -765.81 2401.5
-1083.90 -766.20 2402.7
-1100.25 -782.26 2453.1
-1100.34 -786.87 2467.5
-1072.73 -771.61 2419.7
-1053.58 -766.81 2404.6
-1067.81 -781.79 2451.6
-1071.53 -789.21 2474.9
-1036.62 -777.47 2438.0
-943.18 -758.24 2377.8
-933.91 -755.73 2369.9
-957.87 -780.25 2446.8
-920.11 -759.56 2381.9
-921.88 -766.15 2402.6
-910.18 -777.45 2438.0
-911.23 -783.78 2457.9
-890.00 -770.91 2417.5
-803.46 -760.20 2383.9
-798.26 -767.08 2405.5
-757.13 -769.65 2413.5
-744.49 -769.52 2413.1
-722.78 -753.41 2362.6
-722.40 -759.45 2381.5
-709.54 -752.35 2359.3
-720.76 -784.54 2460.2
-679.36 -759.64 2382.2
-669.21 -769.28 2412.4
-625.92 -754.79 2366.9
-644.59 -785.00 2461.7
-635.70 -781.91 2452.0
-617.59 -767.31 2406.2
-597.11 -749.44 2350.2
-548.15 -757.55 2375.6
-548.43 -766.55 2403.8
-545.62 -771.40 2419.0
-543.78 -777.73 2438.9
-516.33 -774.50 2428.7
-503.51 -783.94 2458.4
-495.47 -781.32 2450.1
-471.59 -753.33 2362.3
-464.57 -751.87 2357.8
-474.33 -777.90 2439.4
-449.65 -768.14 2408.8
-445.14 -771.16 2418.3
-442.63 -777.77 2439.0
-420.19 -749.04 2348.9
-390.52 -750.52 2353.6
-393.78 -768.82 2410.9
-356.95 -756.97 2373.8
-308.39 -758.64 2379.0
-305.65 -783.22 2456.1
-285.74 -764.04 2395.9
-273.20 -746.74 2341.7
-276.81 -773.82 2426.6
-264.47 -756.50 2372.3
-256.53 -751.25 2355.8
-251.39 -754.16 2365.0
-239.91 -756.64 2372.7
-242.13 -783.74 2457.7
-229.62 -763.34 2393.8
-204.65 -762.78 2392.0
-163.62 -774.05 2427.3
-148.89 -763.06 2392.9
-133.39 -781.27 2450.0
-121.65 -787.53 2469.6
-108.32 -783.76 2457.8
-97.30 -748.02 2345.7
-75.40 -772.87 2423.6
-57.21 -781.83 2451.7
-31.64 -778.32 2440.7
-25.05 -770.44 2416.0
-18.75 -768.63 2410.3
-12.53 -770.47 2416.1
-6.21 -764.09 2396.1
0.00 -748.90 2348.5
6.33 -778.07 2439.9
12.70 -781.10 2449.4
18.28 -749.49 2350.3
24.74 -760.72 2385.5
31.29 -769.81 2414.0
36.78 -753.99 2364.4
55.87 -763.60 2394.6
80.75 -764.01 2395.8
98.76 -759.25 2380.9
104.84 -758.57 2378.8
110.73 -756.66 2372.8
117.99 -763.86 2395.4
124.39 -764.99 2398.9
129.50 -758.52 2378.6
134.13 -749.93 2351.7
142.14 -760.14 2383.7
146.76 -752.14 2358.6
165.16 -752.40 2359.4
176.22 -774.10 2427.5
184.98 -784.57 2460.3
196.90 -781.25 2449.9
196.28 -754.45 2365.9
202.54 -754.91 2367.3
216.16 -782.00 2452.3
246.30 -757.37 2375.0
256.53 -769.58 2413.3
274.30 -749.76 2351.2
297.26 -746.19 2340.0
302.87 -745.07 2336.4
317.34 -765.34 2400.0
313.52 -741.60 2325.6
325.24 -740.82 2323.1
336.54 -752.62 2360.1
340.49 -747.86 2345.2
350.50 -756.33 2371.8
391.39 -740.64 2322.5
402.25 -749.64 2350.8
402.96 -739.75 2319.8
539.77 -745.98 2339.3
545.34 -745.29 2337.2
665.80 -737.78 2313.6
670.84 -736.73 2310.3
801.17 -740.94 2323.5
875.22 -768.94 2411.3
850.86 -742.24 2327.6
1010.52 -744.28 2334.0
1016.45 -744.19 2333.7
1376.23 -732.80 2298.0
-1951.72 -785.76 2444.2
-1941.05 -784.01 2438.7
-1877.04 -791.68 2462.6
-1819.51 -775.32 2411.7
-1745.81 -767.66 2387.9
-1739.35 -767.54 2387.5
-1753.08 -779.15 2423.6
-1666.43 -765.32 2380.6
-1534.25 -776.52 2415.4
-1506.44 -765.57 2381.4
-1435.26 -763.83 2376.0
-1366.05 -777.02 2417.0
-1396.59 -798.05 2482.4
-1290.53 -765.67 2381.7
-1240.29 -768.98 2392.0
-1222.07 -761.49 2368.7
-1228.53 -769.38 2393.2
-1215.64 -765.17 2380.2
-1181.62 -771.16 2398.8
-1172.29 -769.12 2392.4
-1116.52 -769.16 2392.5
-1149.98 -801.11 2491.9
-1088.91 -762.85 2372.9
-1074.13 -765.47 2381.1
-1076.38 -771.51 2399.8
-1065.64 -768.25 2389.7
-1039.20 -776.27 2414.7
-1062.49 -798.48 2483.8
-1033.33 -781.29 2430.3
-982.79 -771.30 2399.2
-969.80 -765.95 2382.6
-950.33 -770.20 2395.8
-945.24 -771.11 2398.6
-954.20 -799.47 2486.8
-921.97 -793.92 2469.6
-913.28 -791.93 2463.4
-879.81 -768.29 2389.8
-862.78 -758.76 2360.2
-869.73 -770.33 2396.2
-848.54 -768.02 2389.0
-865.25 -788.90 2454.0
-844.35 -775.55 2412.4
-822.39 -761.02 2367.2
-823.09 -767.39 2387.0
-812.23 -763.00 2373.4
-803.44 -778.33 2421.1
-803.58 -790.82 2459.9
-789.21 -782.90 2435.3
-756.22 -756.22 2352.3
-748.32 -754.40 2346.6
-728.76 -759.38 2362.1
-737.10 -774.58 2409.4
-729.39 -773.03 2404.6
-711.25 -760.30 2365.0
-701.48 -756.38 2352.8
-715.06 -777.78 2419.4
-666.08 -764.75 2378.8
-672.06 -778.83 2422.6
-620.11 -753.86 2344.9
-640.51 -786.37 2446.1
-632.62 -784.44 2440.1
-607.18 -760.51 2365.7
-593.70 -766.86 2385.4
-558.46 -752.71 2341.4
-566.93 -772.52 2403.0
-555.14 -764.86 2379.2
-539.81 -752.10 2339.5
-524.29 -755.95 2351.4
-523.99 -764.41 2377.8
-536.15 -791.46 2461.9
-511.99 -774.23 2408.3
-501.33 -777.07 2417.1
-478.16 -770.02 2395.2
-471.61 -769.47 2393.5
-450.40 -765.06 2379.8
-450.54 -775.93 2413.6
-445.16 -777.47 2418.4
-441.80 -782.62 2434.4
-423.41 -760.91 2366.9
-415.46 -757.60 2356.6
-401.40 -765.75 2381.9
-345.85 -765.81 2382.1
-309.89 -784.21 2439.4
-302.60 -781.71 2431.6
-288.69 -778.19 2420.7
-247.88 -749.68 2331.9
-245.86 -781.72 2431.6
-235.73 -790.01 2457.4
-216.63 -767.48 2387.3
-206.28 -775.12 2411.1
-199.91 -774.66 2409.7
-198.20 -792.81 2466.1
-191.18 -790.21 2458.0
-182.56 -780.59 2428.1
-176.36 -781.03 2429.5
-138.91 -782.96 2435.5
-108.49 -791.37 2461.6
-56.19 -774.13 2408.0
-50.46 -782.12 2432.9
-37.61 -777.29 2417.9
-30.80 -763.85 2376.0
-24.99 -774.59 2409.4
-18.89 -780.72 2428.5
-12.74 -789.61 2456.2
-6.29 -780.44 2427.6
0.00 -761.16 2367.7
6.19 -767.28 2386.7
12.10 -750.44 2334.3
18.50 -764.81 2379.0
37.45 -773.93 2407.4
42.39 -750.95 2335.9
48.82 -756.73 2353.9
56.28 -775.35 2411.8
63.31 -785.10 2442.1
76.47 -790.19 2458.0
81.81 -780.34 2427.3
85.37 -756.12 2352.0
112.11 -772.33 2402.4
115.85 -756.04 2351.7
127.49 -752.80 2341.7
136.42 -768.90 2391.7
144.41 -778.57 2421.8
148.90 -769.30 2393.0
166.83 -766.19 2383.3
186.75 -771.90 2401.1
195.38 -781.52 2431.0
198.97 -771.00 2398.3
204.66 -769.02 2392.1
221.19 -783.64 2437.6
235.51 -768.50 2390.5
247.49 -786.90 2447.7
256.54 -757.41 2356.0
259.20 -747.47 2325.1
272.83 -768.88 2391.7
286.93 -757.00 2354.7
311.98 -758.54 2359.5
316.98 -755.88 2351.2
334.12 -767.23 2386.5
335.75 -756.97 2354.6
372.72 -745.44 2318.8
386.89 -761.49 2368.7
389.29 -754.25 2346.2
391.26 -746.41 2321.8
403.15 -746.13 2320.9
554.92 -747.93 2326.5
676.43 -755.65 2350.5
687.42 -761.08 2367.4
684.26 -750.86 2335.6
723.32 -747.43 2324.9
811.55 -756.63 2353.6
1455.88 -739.87 2301.5
1449.90 -733.83 2282.6
-1704.91 -789.31 2435.6
-1680.62 -780.96 2409.8
-1667.54 -783.62 2418.0
-1666.98 -786.31 2426.3
-1659.84 -785.91 2425.1
-1234.66 -771.67 2381.1
-1218.56 -769.29 2373.8
-1209.65 -767.55 2368.4
-1199.02 -764.68 2359.6
-1206.62 -773.48 2386.7
-1181.29 -773.10 2385.6
-1197.33 -791.89 2443.5
-1153.17 -792.01 2443.9
-1165.01 -804.57 2482.7
-1145.84 -795.72 2455.4
-1146.17 -800.40 2469.8
-1086.13 -762.74 2353.6
-1084.59 -774.71 2390.5
-1011.24 -761.48 2349.7
-1055.02 -799.26 2466.3
-1011.57 -775.74 2393.7
-996.30 -788.22 2432.2
-986.60 -795.65 2455.1
-948.02 -769.50 2374.5
-945.46 -772.43 2383.5
-943.55 -775.95 2394.4
-918.56 -760.40 2346.4
-937.50 -781.25 2410.7
-906.63 -770.95 2378.9
-902.19 -772.42 2383.5
-895.70 -772.16 2382.7
-898.06 -790.54 2439.4
-881.42 -792.65 2445.9
-827.14 -760.23 2345.9
-822.61 -761.68 2350.3
-819.00 -763.99 2357.5
-837.48 -787.11 2428.8
-832.72 -788.56 2433.3
-808.00 -789.06 2434.8
-729.32 -772.58 2384.0
-726.94 -776.65 2396.5
-710.47 -765.60 2362.4
-705.90 -767.28 2367.6
-701.83 -790.35 2438.8
-655.57 -758.76 2341.3
-616.36 -762.83 2353.9
-614.92 -768.65 2371.8
-583.13 -759.29 2342.9
-552.29 -758.63 2340.9
-529.31 -760.50 2346.7
-521.42 -757.87 2338.6
-515.88 -767.68 2368.8
-510.59 -768.96 2372.8
-499.13 -760.87 2347.8
-490.93 -757.60 2337.7
-482.66 -773.50 2386.8
-487.51 -791.42 2442.1
-485.82 -799.04 2465.6
-468.36 -780.60 2408.7
-441.73 -777.70 2399.7
-433.48 -774.07 2388.6
-414.66 -762.24 2352.0
-415.41 -775.01 2391.5
-389.78 -761.30 2349.1
-386.14 -766.15 2364.1
-385.47 -789.89 2437.4
-339.44 -757.67 2338.0
-308.63 -756.44 2334.2
-280.13 -761.22 2348.9
-274.00 -761.12 2348.6
-253.46 -754.36 2327.7
-250.71 -764.36 2358.6
-237.64 -761.66 2350.3
-214.92 -790.15 2438.2
-208.72 -790.61 2439.6
-190.15 -792.30 2444.8
-175.93 -758.30 2339.9
-171.13 -763.97 2357.4
-168.97 -782.25 2413.8
-161.39 -775.91 2394.2
-57.14 -793.65 2449.0
-50.56 -789.99 2437.7
-44.29 -790.95 2440.7
-38.20 -795.92 2456.0
-6.14 -767.64 2368.7
37.49 -781.12 2410.3
43.19 -771.22 2379.8
48.72 -761.33 2349.2
54.77 -760.67 2347.2
72.54 -755.59 2331.5
80.08 -770.02 2376.1
86.44 -771.80 2381.6
119.22 -784.35 2420.3
139.46 -792.37 2445.0
150.79 -785.38 2423.5
167.97 -777.63 2399.6
181.74 -757.25 2336.6
192.21 -750.82 2316.8
207.42 -785.70 2424.4
214.67 -789.23 2435.3
229.92 -756.31 2333.8
243.57 -780.68 2409.0
254.53 -776.01 2394.6
271.76 -772.05 2382.3
312.55 -751.31 2318.3
323.12 -762.08 2351.6
329.51 -762.76 2353.6
359.52 -749.00 2311.2
367.46 -753.00 2323.5
384.39 -774.97 2391.3
390.75 -775.29 2392.3
389.00 -759.78 2344.4
407.25 -759.80 2344.5
436.04 -767.67 2368.8
542.65 -745.40 2300.1
558.50 -758.83 2341.5
700.17 -761.05 2348.4
1103.34 -745.50 2300.4
-1612.12 -775.29 2373.3
-1385.30 -772.33 2364.3
-1360.60 -768.77 2353.4
-1378.95 -782.64 2395.9
-1282.73 -777.04 2378.7
-1237.00 -779.31 2385.6
-1235.54 -782.30 2394.8
-1272.63 -809.85 2479.1
-1197.95 -782.08 2394.1
-1203.12 -793.68 2429.6
-1169.09 -783.54 2398.6
-1157.69 -780.05 2387.9
-1151.32 -779.93 2387.5
-1097.76 -790.39 2419.5
-1076.36 -788.50 2413.8
-1076.93 -798.20 2443.5
-1019.67 -778.66 2383.7
-1025.81 -792.96 2427.4
-983.31 -764.80 2341.2
-950.38 -793.03 2427.7
-961.14 -807.36 2471.5
-942.65 -802.52 2456.7
-867.72 -769.95 2357.0
-869.80 -788.45 2413.6
-838.12 -765.24 2342.6
-829.62 -774.31 2370.3
-840.70 -790.51 2419.9
-833.79 -789.91 2418.1
-805.23 -768.63 2353.0
-796.95 -766.53 2346.5
-792.35 -767.97 2350.9
-814.99 -796.04 2436.8
-752.54 -764.68 2340.8
-683.15 -782.52 2395.5
-658.68 -761.41 2330.9
-648.41 -763.55 2337.4
-629.95 -778.17 2382.2
-615.32 -783.13 2397.4
-540.46 -773.83 2368.9
-553.03 -800.95 2451.9
-535.34 -784.34 2401.0
-514.21 -762.24 2333.4
-509.42 -764.13 2339.2
-488.41 -769.25 2354.9
-472.42 -773.06 2366.5
-474.78 -787.14 2409.6
-476.38 -800.31 2449.9
-454.98 -774.70 2371.5
-434.85 -760.99 2329.6
-433.30 -768.96 2354.0
-414.77 -780.02 2387.8
-400.55 -764.69 2340.9
-395.59 -766.83 2347.4
-397.44 -782.46 2395.3
-381.41 -762.81 2335.1
-382.74 -777.83 2381.1
-386.81 -798.99 2445.9
-379.29 -796.51 2438.3
-371.52 -793.42 2428.8
-349.50 -759.26 2324.3
-309.41 -779.72 2386.9
-258.11 -774.33 2370.4
-257.76 -792.14 2424.9
-247.51 -779.66 2386.7
-229.84 -762.09 2332.9
-228.93 -779.58 2386.5
-204.90 -759.35 2324.5
-205.56 -784.88 2402.7
-170.70 -796.58 2438.5
-155.58 -784.13 2400.4
-146.01 -799.85 2448.5
-136.27 -780.43 2389.1
-132.36 -794.18 2431.1
-126.62 -797.69 2441.9
-118.94 -788.78 2414.6
-112.12 -784.84 2402.6
-104.40 -773.75 2368.6
-78.26 -758.52 2322.0
-73.81 -775.03 2372.5
-68.29 -782.22 2394.6
-60.02 -756.19 2314.9
-48.94 -770.87 2359.8
-42.83 -770.90 2359.9
-36.92 -775.28 2373.3
0.00 -780.02 2387.8
18.50 -776.90 2378.3
24.85 -782.78 2396.3
41.91 -754.45 2309.5
49.22 -775.21 2373.1
56.01 -784.18 2400.5
61.89 -779.79 2387.1
98.46 -775.38 2373.6
127.61 -765.65 2343.8
145.01 -761.30 2330.5
199.06 -783.80 2399.4
206.78 -789.53 2416.9
206.74 -766.16 2345.4
215.18 -774.66 2371.4
225.88 -790.58 2420.1
230.74 -785.77 2405.4
238.60 -791.16 2421.9
238.89 -771.81 2362.7
250.72 -770.51 2358.7
259.66 -778.97 2384.6
292.86 -768.76 2353.4
299.00 -768.85 2353.6
310.53 -752.44 2303.4
317.31 -754.36 2309.3
400.55 -764.69 2340.9
408.26 -767.76 2350.3
452.88 -750.82 2298.4
472.42 -773.06 2366.5
473.06 -764.17 2339.3
590.32 -766.80 2347.4
615.55 -791.43 2422.7
607.74 -773.48 2367.8
790.80 -760.62 2328.4
810.05 -756.05 2314.4
843.41 -781.40 2392.0
844.18 -776.40 2376.7
843.59 -770.23 2357.9
1422.89 -747.02 2286.8
-1568.40 -778.07 2363.1
-1535.46 -786.30 2388.1
-1555.89 -799.99 2429.7
-1462.32 -777.05 2360.0
-1449.17 -773.30 2348.6
-1365.62 -791.94 2405.2
-1377.61 -806.25 2448.7
-1343.48 -804.82 2444.3
-1352.32 -813.96 2472.1
-1289.39 -779.77 2368.3
-1312.91 -797.80 2423.0
-1323.44 -808.06 2454.2
-1271.81 -803.58 2440.6
-1283.07 -814.75 2474.5
-1269.54 -810.21 2460.7
-1258.79 -811.50 2464.6
-1242.74 -805.24 2445.6
-1251.01 -814.76 2474.5
-1230.70 -805.66 2446.9
-1174.75 -785.22 2384.8
-1150.68 -773.21 2348.3
-1147.35 -775.07 2354.0
-1178.29 -800.23 2430.4
-1148.51 -784.20 2381.7
-1111.21 -775.41 2355.0
-1064.18 -776.73 2359.0
-1037.14 -784.03 2381.2
-1036.91 -802.97 2438.7
-1041.53 -811.50 2464.6
-1010.08 -791.85 2405.0
-1005.06 -792.81 2407.9
-1012.12 -803.37 2439.9
-993.52 -793.56 2410.1
-967.06 -777.32 2360.8
-998.88 -808.01 2454.0
-970.67 -795.32 2415.5
-966.61 -797.14 2421.0
-950.10 -804.42 2443.1
-934.18 -796.25 2418.3
-937.90 -804.82 2444.3
-927.19 -801.04 2432.9
-883.38 -768.42 2333.8
-849.45 -776.12 2357.2
-849.44 -781.73 2374.2
-843.92 -782.32 2376.0
-867.60 -810.18 2460.6
-803.13 -772.71 2346.8
-819.27 -806.56 2449.6
-808.60 -808.60 2455.8
-789.75 -796.02 2417.6
-757.55 -769.67 2337.6
-726.66 -775.52 2355.3
-726.50 -795.39 2415.7
-628.38 -806.10 2448.2
-597.28 -774.02 2350.8
-584.78 -765.63 2325.3
-565.82 -764.46 2321.8
-581.09 -793.53 2410.0
-536.92 -766.17 2327.0
-551.71 -796.21 2418.2
-543.44 -802.53 2437.4
-524.07 -783.03 2378.1
-507.22 -766.87 2329.1
-493.14 -773.19 2348.3
-492.11 -781.23 2372.7
-447.47 -767.96 2332.4
-448.52 -780.30 2369.9
-422.98 -767.41 2330.7
-427.16 -786.23 2387.9
-411.56 -768.65 2334.5
-404.11 -777.60 2361.7
-395.53 -797.34 2421.6
-391.51 -801.96 2435.7
-371.11 -785.53 2385.7
-351.08 -768.74 2334.8
-356.68 -794.71 2413.6
-346.58 -785.99 2387.1
-311.87 -792.14 2405.8
-297.81 -771.88 2344.3
-270.52 -798.97 2426.6
-263.88 -797.93 2423.4
-252.74 -782.88 2377.7
-251.73 -799.26 2427.4
-244.93 -797.58 2422.3
-231.06 -772.23 2345.4
-211.16 -766.19 2327.0
-197.26 -782.87 2377.7
-187.25 -767.12 2329.8
-167.78 -789.18 2396.8
-156.51 -795.05 2414.7
-125.98 -799.96 2429.6
-83.73 -759.51 2306.7
-71.98 -761.82 2313.7
-55.70 -786.04 2387.3
-37.13 -785.84 2386.7
-31.46 -799.00 2426.7
0.00 -790.93 2402.1
6.22 -789.99 2399.3
12.37 -785.29 2385.0
30.35 -770.85 2341.2
48.69 -772.95 2347.5
56.41 -796.05 2417.7
68.34 -789.07 2396.5
97.28 -772.19 2345.2
138.70 -800.70 2431.8
186.11 -762.44 2315.6
200.32 -795.03 2414.6
204.84 -788.33 2394.2
206.58 -771.65 2343.6
216.82 -786.76 2389.5
225.71 -796.25 2418.3
229.30 -787.04 2390.3
234.23 -782.82 2377.5
246.21 -762.66 2316.3
260.08 -786.42 2388.4
280.88 -758.96 2305.1
298.86 -790.74 2401.6
302.12 -783.06 2378.2
310.68 -758.77 2304.5
329.37 -789.24 2397.0
323.74 -761.39 2312.4
342.50 -763.12 2317.7
401.28 -760.63 2310.1
408.59 -763.10 2317.6
435.60 -757.83 2301.6
451.62 -754.68 2292.1
467.42 -770.94 2341.4
486.48 -792.08 2405.7
486.19 -781.59 2373.8
515.27 -760.92 2311.0
586.25 -759.73 2307.4
711.76 -759.61 2307.0
727.91 -751.58 2282.6
760.58 -754.64 2291.9
1277.40 -754.56 2291.7
1405.00 -746.59 2267.5
1430.73 -757.09 2299.4
-1806.85 -781.34 2354.5
-1653.90 -795.86 2398.3
-1698.70 -820.51 2472.5
-1628.83 -789.73 2379.8
-1560.60 -780.30 2351.3
-1559.95 -783.03 2359.6
-1522.62 -779.58 2349.2
-1530.95 -790.17 2381.1
-1535.27 -795.61 2397.5
-1400.29 -779.29 2348.3
-1351.52 -789.93 2380.4
-1328.77 -780.20 2351.0
-1337.69 -789.05 2377.7
-1314.58 -779.01 2347.5
-1297.13 -786.88 2371.2
-1270.49 -778.10 2344.7
-1267.04 -779.72 2349.6
-1239.15 -781.34 2354.5
-1209.73 -782.05 2356.6
-1206.53 -783.94 2362.3
-1207.64 -788.66 2376.6
-1190.52 -781.47 2354.9
-1151.20 -787.99 2374.5
-1156.10 -795.60 2397.4
-1115.98 -780.58 2352.2
-1126.85 -792.51 2388.1
-1114.77 -788.34 2375.6
-1098.52 -808.11 2435.1
-1102.97 -816.07 2459.1
-1082.36 -805.48 2427.2
-1067.44 -808.48 2436.3
-1035.31 -788.80 2377.0
-1019.39 -781.33 2354.5
-1008.87 -777.92 2344.2
-1036.38 -803.98 2422.7
-1007.55 -796.09 2398.9
-968.08 -779.33 2348.4
-995.76 -806.69 2430.9
-963.97 -785.92 2368.3
-955.68 -794.33 2393.6
-974.21 -815.02 2456.0
-959.17 -807.72 2434.0
-956.38 -816.11 2459.3
-923.91 -793.69 2391.7
-909.54 -786.63 2370.4
-923.84 -804.43 2424.1
-905.09 -793.50 2391.1
-875.73 -773.06 2329.5
-878.72 -781.08 2353.7
-862.14 -788.24 2375.3
-878.31 -808.81 2437.3
-859.79 -797.48 2403.1
-835.35 -780.47 2351.9
-840.34 -790.91 2383.3
-854.01 -809.73 2440.0
-847.36 -809.42 2439.1
-737.49 -773.76 2331.7
-720.52 -781.58 2355.2
-686.87 -778.05 2344.6
-667.80 -777.08 2341.6
-638.89 -778.84 2346.9
-652.52 -803.10 2420.1
-636.31 -790.75 2382.8
-628.31 -788.46 2375.9
-618.21 -799.31 2408.6
-593.09 -774.65 2334.3
-596.19 -786.72 2370.7
-580.25 -773.67 2331.4
-576.71 -802.38 2417.9
-540.81 -777.79 2343.8
-540.14 -803.93 2422.6
-517.95 -779.98 2350.4
-503.37 -785.74 2367.8
-493.95 -780.56 2352.1
-425.84 -789.96 2380.5
-415.05 -781.27 2354.3
-390.10 -768.19 2314.9
-378.66 -794.57 2394.3
-371.56 -792.67 2388.6
-350.99 -788.19 2375.1
-347.95 -795.32 2396.6
-339.98 -791.22 2384.2
-334.17 -792.10 2386.9
-321.87 -777.36 2342.5
-321.61 -791.66 2385.6
-317.02 -795.65 2397.6
-302.96 -775.57 2337.1
-272.00 -791.28 2384.5
-256.26 -800.04 2410.8
-251.15 -803.68 2421.8
-244.83 -803.56 2421.4
-230.42 -776.15 2338.8
-218.48 -776.80 2340.8
-199.67 -774.46 2333.8
-196.00 -809.31 2438.8
-171.43 -783.66 2361.5
-161.82 -767.13 2311.7
-155.66 -766.31 2309.2
-149.69 -766.43 2309.6
-149.21 -795.78 2398.0
-124.65 -797.78 2404.0
-113.76 -766.41 2309.5
-110.71 -787.26 2372.3
-104.44 -786.40 2369.7
-96.93 -775.47 2336.8
-74.11 -790.53 2382.2
-36.52 -779.13 2347.8
0.00 -783.63 2361.4
6.18 -791.50 2385.1
12.45 -796.84 2401.2
54.00 -768.00 2314.3
68.43 -796.25 2399.4
71.54 -763.14 2299.6
78.08 -768.74 2316.5
86.21 -788.20 2375.1
91.77 -783.09 2359.8
97.37 -778.93 2347.2
102.65 -772.87 2329.0
108.19 -769.33 2318.3
114.23 -769.56 2319.0
122.24 -782.36 2357.6
151.17 -773.97 2332.3
201.69 -782.31 2357.4
212.68 -800.67 2412.7
218.89 -800.50 2412.2
223.68 -795.31 2396.6
245.82 -767.45 2312.6
251.86 -767.57 2313.0
262.10 -780.22 2351.1
275.14 -782.62 2358.3
299.22 -797.92 2404.5
299.86 -783.31 2360.4
317.48 -766.74 2310.5
342.52 -769.17 2317.8
362.33 -760.31 2291.1
374.02 -772.17 2326.9
373.48 -758.81 2286.6
399.35 -762.93 2299.0
405.64 -763.56 2300.9
412.78 -765.74 2307.5
467.70 -757.79 2283.5
475.14 -760.22 2290.8
605.42 -759.75 2289.4
613.70 -762.66 2298.2
617.56 -760.08 2290.4
707.04 -760.51 2291.7
709.11 -756.38 2279.3
720.53 -755.97 2278.0
754.62 -785.30 2366.4
736.60 -760.36 2291.3
916.35 -761.64 2295.1
1466.86 -775.86 2338.0
-1639.32 -783.23 2341.9
-1639.79 -792.26 2368.9
-1628.92 -789.97 2362.0
-1598.08 -805.28 2407.8
-1611.67 -815.31 2437.8
-1527.94 -782.16 2338.7
-1560.84 -802.18 2398.6
-1534.86 -791.99 2368.1
-1379.81 -798.19 2386.6
-1306.23 -783.74 2343.4
-1308.46 -788.74 2358.4
-1256.24 -779.11 2329.6
-1170.82 -782.57 2339.9
-1189.77 -799.37 2390.2
-1194.47 -806.73 2412.2
-1171.14 -795.14 2377.5
-1141.21 -778.92 2329.0
-1161.32 -801.13 2395.4
-1150.83 -806.83 2412.4
-1115.26 -786.17 2350.7
-1092.68 -810.09 2422.2
-1080.32 -805.56 2408.6
-1014.16 -783.39 2342.4
-1013.89 -792.68 2370.1
-1029.35 -814.64 2435.8
-992.08 -789.99 2362.1
-974.27 -780.63 2334.1
-977.35 -797.96 2385.9
-967.64 -795.07 2377.3
-930.60 -779.53 2330.8
-961.57 -810.74 2424.1
-927.71 -787.33 2354.1
-915.73 -782.31 2339.1
-890.79 -776.43 2321.6
-918.32 -811.39 2426.1
-879.83 -782.74 2340.4
-909.48 -814.75 2436.1
-849.57 -788.45 2357.5
-864.01 -807.66 2414.9
-840.07 -796.83 2382.6
-817.81 -781.46 2336.6
-817.36 -786.86 2352.7
-818.88 -806.38 2411.1
-765.26 -783.48 2342.6
-780.86 -805.85 2409.5
-781.28 -812.78 2430.2
-776.37 -814.25 2434.6
-744.73 -787.46 2354.5
-738.26 -787.08 2353.4
-732.54 -800.83 2394.5
-696.66 -774.73 2316.5
-678.23 -788.22 2356.8
-667.58 -782.89 2340.9
-649.04 -782.49 2339.7
-647.34 -802.95 2400.8
-642.72 -804.95 2406.8
-625.90 -791.58 2366.9
-632.41 -807.74 2415.2
-618.39 -797.73 2385.2
-590.39 -793.34 2372.1
-569.75 -790.30 2363.0
-571.21 -800.93 2394.8
-571.41 -810.02 2422.0
-508.08 -789.67 2361.1
-507.54 -798.44 2387.4
-486.94 -775.49 2318.7
-472.30 -791.25 2365.9
-464.90 -789.11 2359.5
-456.27 -784.78 2346.5
-460.41 -802.60 2399.8
-455.97 -805.76 2409.2
-439.80 -787.98 2356.1
-433.88 -788.31 2357.1
-422.52 -778.64 2328.2
-406.16 -770.51 2303.8
-340.45 -770.50 2303.8
-335.28 -772.33 2309.3
-327.72 -782.90 2340.9
-324.08 -788.81 2358.6
-323.90 -803.53 2402.6
-317.77 -803.77 2403.3
-281.02 -771.31 2306.3
-258.75 -794.74 2376.3
-255.46 -803.77 2403.3
-252.42 -814.07 2434.1
-235.26 -798.66 2388.0
-226.77 -790.63 2364.0
-202.18 -790.34 2363.2
-196.64 -792.71 2370.2
-175.10 -778.91 2329.0
-150.25 -775.30 2318.2
-125.59 -810.04 2422.0
-115.36 -783.20 2341.8
-108.50 -777.59 2325.0
-97.37 -785.04 2347.3
-94.35 -811.42 2426.2
-86.76 -799.44 2390.4
-74.08 -796.40 2381.3
-66.16 -775.85 2319.8
-61.74 -796.51 2381.6
-56.57 -810.82 2424.4
-12.14 -783.10 2341.5
-6.09 -785.33 2348.1
0.00 -793.26 2371.9
6.10 -787.23 2353.8
11.96 -771.68 2307.3
18.31 -787.21 2353.8
24.63 -794.17 2374.6
30.40 -784.32 2345.1
42.92 -790.92 2364.9
47.51 -766.15 2290.8
85.35 -786.45 2351.5
93.72 -806.03 2410.1
98.23 -792.01 2368.1
102.32 -776.40 2321.5
141.21 -791.99 2368.1
172.83 -768.79 2298.7
205.42 -802.99 2401.0
209.02 -793.03 2371.2
218.75 -783.85 2343.7
263.84 -773.52 2312.8
290.55 -780.86 2334.8
359.05 -785.04 2347.3
363.55 -781.63 2337.1
398.85 -779.57 2330.9
402.30 -774.57 2316.0
472.85 -762.47 2279.8
487.72 -776.73 2322.5
500.22 -786.94 2353.0
490.89 -762.94 2281.2
511.23 -775.86 2319.8
555.53 -762.38 2279.5
619.68 -761.32 2276.4
659.28 -766.19 2290.9
660.29 -760.51 2273.9
806.79 -770.93 2305.1
952.19 -762.93 2281.2
1469.59 -783.38 2342.3
-1904.96 -791.20 2347.5
-1873.19 -825.47 2449.2
-1792.44 -798.00 2367.7
-1684.76 -808.19 2397.9
-1580.50 -805.75 2390.7
-1576.57 -806.91 2394.1
-1401.11 -798.88 2370.3
-1435.40 -822.03 2439.0
-1401.92 -806.42 2392.7
-1374.18 -801.09 2376.9
-1312.31 -797.20 2365.3
-1313.53 -801.68 2378.6
-1324.85 -812.41 2410.4
-1279.42 -788.27 2338.8
-1248.12 -787.65 2337.0
-1245.09 -789.57 2342.7
-1246.96 -794.63 2357.7
-1238.94 -793.41 2354.1
-1192.35 -803.14 2382.9
-1179.64 -811.39 2407.4
-1161.50 -803.16 2383.0
-1176.02 -817.55 2425.7
-1168.20 -825.36 2448.9
-1125.61 -799.61 2372.5
-1050.69 -785.00 2329.1
-1023.35 -796.62 2363.6
-1001.86 -784.59 2327.9
-1000.40 -797.87 2367.3
-1022.84 -820.80 2435.3
-1014.81 -819.41 2431.2
-977.16 -793.94 2355.6
-972.38 -805.16 2388.9
-972.35 -810.29 2404.2
-947.90 -805.40 2389.7
-935.62 -805.50 2390.0
-925.28 -818.28 2427.9
-886.96 -789.76 2343.2
-883.58 -792.18 2350.4
-864.67 -791.60 2348.7
-824.93 -782.78 2322.5
-814.44 -778.51 2309.9
-824.48 -793.94 2355.6
-767.97 -792.35 2350.9
-772.97 -803.89 2385.2
-762.94 -799.86 2373.2
-771.19 -815.08 2418.4
-751.66 -800.95 2376.4
-736.59 -791.38 2348.1
-730.34 -804.62 2387.3
-672.21 -787.28 2335.9
-662.80 -805.28 2389.3
-637.10 -781.34 2318.3
-624.83 -781.04 2317.4
-622.13 -785.21 2329.7
-609.88 -777.30 2306.3
-608.59 -783.33 2324.2
-553.15 -781.62 2319.1
-566.84 -809.77 2402.6
-548.60 -792.42 2351.1
-511.90 -801.76 2378.9
-514.86 -816.24 2421.8
-498.47 -800.02 2373.7
-483.49 -785.67 2331.1
-474.04 -780.07 2314.5
-480.68 -801.13 2377.0
-464.44 -805.03 2388.6
-458.09 -804.75 2387.7
-458.63 -816.73 2423.3
-448.01 -808.90 2400.0
-442.83 -810.81 2405.7
-430.33 -799.19 2371.2
-405.52 -775.26 2300.2
-401.99 -779.98 2314.2
-388.40 -776.80 2304.8
-382.57 -777.10 2305.7
-379.33 -782.75 2322.5
-369.99 -775.78 2301.8
-344.08 -784.74 2328.3
-318.96 -797.41 2365.9
-320.51 -816.99 2424.0
-302.01 -785.21 2329.8
-287.40 -778.38 2309.5
-285.24 -806.11 2391.7
-243.74 -772.83 2293.0
-231.84 -814.59 2416.9
-208.19 -796.01 2361.8
-192.96 -783.91 2325.9
-185.38 -803.31 2383.4
-175.18 -785.29 2330.0
-171.37 -795.62 2360.6
-162.82 -783.96 2326.0
-159.05 -795.24 2359.5
-152.65 -793.77 2355.1
-149.15 -807.92 2397.1
-137.14 -810.37 2404.4
-130.00 -804.74 2387.7
-109.21 -788.75 2340.2
-96.31 -782.53 2321.8
-94.24 -816.75 2423.3
-87.35 -811.08 2406.5
-80.28 -802.84 2382.1
-47.53 -772.44 2291.9
-42.58 -790.68 2346.0
-23.94 -777.98 2308.3
-6.16 -800.38 2374.7
0.00 -770.36 2285.7
6.07 -789.20 2341.6
12.23 -794.94 2358.6
17.90 -775.76 2301.7
43.23 -802.81 2382.0
60.59 -787.68 2337.1
86.42 -802.46 2380.9
99.45 -808.06 2397.5
105.32 -805.42 2389.7
110.54 -798.32 2368.6
160.64 -773.45 2294.8
204.04 -803.81 2384.9
203.78 -779.14 2311.7
214.17 -773.41 2294.7
222.88 -783.10 2323.5
295.42 -768.10 2279.0
303.48 -773.57 2295.2
368.48 -772.62 2292.4
387.30 -774.59 2298.2
399.83 -787.54 2336.6
404.10 -784.08 2326.4
432.68 -770.52 2286.2
502.26 -768.16 2279.1
657.48 -770.02 2284.7
807.79 -777.87 2308.0
866.70 -771.72 2289.7
886.22 -783.73 2325.4
-1861.62 -829.50 2442.4
-1836.42 -821.06 2417.5
-1743.42 -795.78 2343.1
-1726.31 -810.56 2386.6
-1682.07 -792.63 2333.8
-1627.77 -807.72 2378.2
-1574.76 -796.50 2345.2
-1544.99 -796.83 2346.2
-1443.75 -791.34 2330.0
-1444.29 -794.97 2340.7
-1403.61 -789.16 2323.6
-1390.07 -788.31 2321.1
-1460.73 -831.98 2449.7
-1416.12 -820.85 2416.9
-1329.51 -788.08 2320.4
-1290.33 -797.32 2347.6
-1260.31 -797.59 2348.4
-1237.86 -787.19 2317.8
-1206.65 -794.33 2338.8
-1192.04 -792.68 2334.0
-1204.29 -830.33 2444.8
-1159.09 -803.39 2365.5
-1127.28 -789.70 2325.2
-1129.77 -795.70 2342.8
-1118.12 -791.75 2331.2
-1148.09 -817.39 2406.7
-1140.96 -821.24 2418.1
-1085.56 -803.44 2365.6
-1025.33 -785.49 2312.8
-1046.41 -806.35 2374.2
-1063.39 -824.28 2427.0
-981.52 -788.83 2322.6
-1009.58 -816.39 2403.8
-1008.24 -820.37 2415.5
-966.68 -806.60 2374.9
-949.18 -802.21 2362.0
-947.05 -816.21 2403.2
-942.27 -817.47 2406.9
-882.89 -786.79 2316.6
-884.65 -793.76 2337.1
-874.64 -818.41 2409.7
-821.80 -785.80 2313.7
-817.35 -787.30 2318.1
-832.70 -808.03 2379.1
-817.11 -817.11 2405.9
-783.09 -807.75 2378.3
-783.08 -814.15 2397.2
-766.84 -803.65 2366.2
-739.35 -793.89 2337.5
-759.13 -821.86 2419.9
-744.49 -819.56 2413.1
-726.75 -806.82 2375.6
-721.34 -807.66 2378.1
-700.85 -791.48 2330.4
-693.28 -818.20 2409.1
-673.12 -801.63 2360.3
-644.01 -781.16 2300.0
-641.99 -785.99 2314.3
-630.30 -793.94 2337.7
-627.31 -797.84 2349.1
-587.10 -784.80 2310.7
-597.65 -807.13 2376.5
-573.23 -782.22 2303.2
-557.91 -803.15 2364.8
-548.83 -798.86 2352.1
-534.05 -786.07 2314.5
-516.18 -795.52 2342.3
-499.86 -798.56 2351.3
-500.63 -809.67 2384.0
-486.97 -797.42 2347.9
-477.11 -791.16 2329.5
-472.23 -793.10 2335.2
-474.56 -807.36 2377.2
-468.60 -807.72 2378.2
-450.33 -786.57 2316.0
-440.40 -779.63 2295.5
-438.17 -786.30 2315.2
-439.14 -798.98 2352.5
-445.75 -822.44 2421.6
-434.91 -813.91 2396.5
-413.51 -785.07 2311.5
-404.39 -779.04 2293.8
-349.35 -802.90 2364.1
-324.23 -801.40 2359.6
-321.25 -809.30 2382.9
-315.29 -809.87 2384.6
-310.42 -813.30 2394.7
-301.79 -806.84 2375.6
-294.67 -804.20 2367.9
-293.19 -817.20 2406.2
-288.49 -821.58 2419.1
-278.35 -810.30 2385.8
-265.25 -789.73 2325.3
-246.85 -808.44 2380.4
-221.75 -806.94 2375.9
-209.90 -785.64 2313.2
-203.45 -783.88 2308.0
-198.39 -787.56 2318.9
-181.12 -790.89 2328.7
-161.34 -812.93 2393.6
-149.89 -785.45 2312.7
-143.74 -784.60 2310.2
-138.51 -788.89 2322.8
-130.40 -776.47 2286.2
-124.54 -776.89 2287.5
-119.36 -781.80 2301.9
-99.10 -811.38 2389.0
-88.83 -775.79 2284.2
-85.01 -795.46 2342.1
-81.02 -816.42 2403.9
-72.97 -796.55 2345.4
-65.84 -784.07 2308.6
-61.23 -802.12 2361.8
-56.24 -818.56 2410.2
-48.30 -790.95 2328.9
-35.80 -781.70 2301.6
-25.02 -819.37 2412.5
-5.96 -780.17 2297.1
5.96 -781.14 2300.0
12.13 -794.31 2338.8
17.94 -783.37 2306.5
56.28 -819.21 2412.1
71.44 -779.84 2296.1
91.15 -796.03 2343.8
97.84 -801.10 2358.8
106.20 -818.37 2409.6
114.90 -792.18 2332.5
148.61 -778.71 2292.8
167.73 -784.75 2310.6
190.70 -780.66 2298.6
201.06 -798.14 2350.0
205.94 -793.49 2336.3
209.73 -785.00 2311.3
215.33 -783.55 2307.1
224.40 -773.60 2277.8
237.50 -797.75 2348.9
267.59 -778.97 2293.6
271.89 -774.29 2279.8
373.46 -789.09 2323.4
381.79 -793.89 2337.5
384.45 -786.92 2317.0
401.34 -808.85 2381.6
404.16 -802.19 2362.0
397.95 -778.08 2291.0
447.61 -781.83 2302.0
452.65 -780.22 2297.3
512.34 -771.46 2271.5
638.37 -774.32 2279.9
644.71 -767.79 2260.7
662.26 -781.58 2301.3
656.41 -767.76 2260.6
810.17 -769.08 2264.5
1015.81 -764.78 2251.8
1027.85 -769.42 2265.5
-1748.25 -804.07 2349.6
-1715.96 -797.56 2330.5
-1723.29 -803.80 2348.8
-1671.75 -799.53 2336.3
-1692.20 -812.26 2373.5
-1607.10 -797.51 2330.4
-1597.46 -814.15 2379.0
-1583.44 -810.13 2367.3
-1540.00 -797.17 2329.4
-1558.92 -810.15 2367.3
-1525.49 -795.91 2325.7
-1520.07 -796.23 2326.6
-1441.30 -792.71 2316.4
-1491.95 -824.01 2407.8
-1489.82 -826.29 2414.5
-1384.79 -801.72 2342.7
-1353.95 -808.70 2363.1
-1335.91 -801.55 2342.2
-1252.73 -798.84 2334.3
-1243.60 -804.68 2351.3
-1209.89 -798.53 2333.4
-1250.62 -829.56 2424.0
-1235.93 -823.95 2407.7
-1221.30 -818.33 2391.2
-1188.76 -821.55 2400.6
-1161.69 -807.07 2358.3
-1156.24 -807.53 2359.7
-1161.24 -815.34 2382.5
-1121.12 -791.38 2312.5
-1104.55 -792.40 2315.4
-1156.07 -833.89 2436.7
-1127.16 -817.50 2388.8
-1097.24 -800.20 2338.2
-1098.23 -805.37 2353.3
-1095.93 -808.17 2361.5
-1086.81 -815.11 2381.8
-1047.61 -803.98 2349.3
-1068.73 -824.99 2410.7
-1058.41 -821.82 2401.4
-1046.21 -817.15 2387.8
-1030.25 -809.48 2365.4
-1028.03 -812.58 2374.4
-980.48 -794.01 2320.2
-1003.35 -817.55 2388.9
-942.82 -787.67 2301.6
-982.19 -825.79 2413.0
-977.31 -832.29 2432.0
-915.67 -789.99 2308.4
-897.87 -806.25 2355.9
-892.80 -807.19 2358.7
-895.08 -814.83 2381.0
-893.59 -819.12 2393.5
-889.72 -821.28 2399.8
-892.07 -829.25 2423.1
-886.79 -830.18 2425.9
-861.67 -812.44 2374.0
-869.39 -825.61 2412.5
-813.24 -795.17 2323.6
-788.42 -825.96 2413.5
-774.20 -817.55 2389.0
-745.54 -793.64 2319.1
-741.48 -795.73 2325.2
-749.47 -817.60 2389.1
-715.53 -787.09 2299.9
-711.16 -788.85 2305.1
-715.94 -800.88 2340.2
-724.12 -816.96 2387.2
-714.30 -812.82 2375.1
-672.02 -799.15 2335.2
-625.12 -801.13 2341.0
-634.46 -821.07 2399.2
-606.00 -792.00 2314.3
-599.05 -815.20 2382.1
-585.87 -805.57 2353.9
-563.97 -783.62 2289.8
-545.73 -791.60 2313.1
-551.87 -809.40 2365.1
-519.74 -797.74 2331.1
-512.79 -805.81 2354.7
-495.18 -806.97 2358.0
-495.77 -828.38 2420.6
-489.34 -828.12 2419.8
-468.07 -802.40 2344.7
-441.71 -798.71 2333.9
-438.64 -827.15 2417.0
-420.53 -804.50 2350.8
-415.59 -806.74 2357.4
-397.48 -783.10 2288.3
-347.98 -805.84 2354.7
-332.19 -783.01 2288.0
-320.37 -797.90 2331.5
-323.40 -820.95 2398.9
-317.03 -820.56 2397.7
-312.25 -824.34 2408.8
-303.47 -817.51 2388.8
-295.49 -812.60 2374.5
-292.51 -821.51 2400.5
-287.60 -825.28 2411.5
-270.34 -792.99 2317.2
-238.36 -806.76 2357.4
-209.82 -791.34 2312.4
-197.91 -791.66 2313.3
-190.15 -784.39 2292.0
-182.01 -800.83 2340.1
-180.09 -819.70 2395.2
-167.88 -791.41 2312.6
-149.84 -791.14 2311.8
-134.23 -805.38 2353.4
-112.04 -821.62 2400.8
-105.83 -821.70 2401.1
-96.16 -793.31 2318.1
-78.21 -794.17 2320.6
-72.50 -797.47 2330.3
-66.19 -794.28 2321.0
-62.43 -824.11 2408.1
-56.13 -823.19 2405.4
-47.26 -779.85 2278.8
-41.27 -778.27 2274.2
-17.76 -781.28 2283.0
0.00 -802.99 2346.4
5.98 -789.39 2306.7
35.39 -778.62 2275.2
53.83 -789.52 2307.0
71.50 -786.46 2298.1
88.83 -781.74 2284.3
163.82 -800.91 2340.3
170.48 -803.69 2348.4
176.54 -803.55 2348.0
185.97 -818.26 2391.0
186.07 -792.29 2315.1
193.96 -775.85 2267.1
210.08 -792.31 2315.2
224.34 -800.35 2338.7
228.22 -792.76 2316.5
235.60 -797.41 2330.1
373.78 -795.78 2325.3
380.89 -798.05 2332.0
384.93 -793.92 2319.9
398.83 -809.92 2366.7
398.09 -796.19 2326.5
453.40 -787.48 2301.1
648.66 -778.39 2274.5
-1739.27 -803.21 2329.4
-1658.51 -799.21 2317.8
-1620.14 -804.02 2331.8
-1668.48 -831.11 2410.3
-1624.23 -812.11 2355.2
-1563.83 -806.16 2338.0
-1596.36 -832.61 2414.7
-1560.14 -816.92 2369.2
-1462.97 -800.72 2322.2
-1437.54 -803.33 2329.8
-1278.75 -794.74 2304.8
-1263.09 -799.96 2320.0
-1198.02 -804.73 2333.8
-1212.25 -818.42 2373.5
-1173.05 -795.99 2308.5
-1183.47 -811.35 2353.0
-1166.26 -807.88 2342.9
-1132.44 -801.14 2323.4
-1110.70 -816.15 2366.9
-1128.17 -833.59 2417.5
-1078.14 -810.13 2349.5
-1058.35 -799.78 2319.4
-1043.27 -811.43 2353.2
-1033.08 -808.23 2344.0
-1025.59 -807.12 2340.7
-999.82 -801.06 2323.2
-1004.77 -809.90 2348.8
-985.36 -799.10 2317.5
-972.01 -793.12 2300.1
-998.23 -819.54 2376.7
-960.70 -819.06 2375.4
-965.26 -828.26 2402.0
-924.85 -798.74 2316.4
-941.01 -818.00 2372.3
-929.51 -818.70 2374.3
-933.40 -827.62 2400.2
-885.58 -795.83 2308.0
-878.69 -800.45 2321.4
-894.62 -826.28 2396.3
-858.99 -798.92 2317.0
-857.25 -802.92 2328.5
-853.82 -805.37 2335.7
-840.29 -798.27 2315.1
-859.74 -822.63 2385.7
-867.33 -835.91 2424.2
-834.63 -810.26 2349.8
-823.77 -805.60 2336.3
-785.62 -809.98 2349.0
-787.90 -825.12 2392.9
-751.62 -812.72 2357.0
-765.20 -834.20 2419.3
-734.70 -807.57 2342.0
-726.62 -825.99 2395.5
-702.28 -805.20 2335.2
-636.69 -798.86 2316.8
-614.87 -793.95 2302.5
-625.01 -814.97 2363.5
-599.06 -788.86 2287.8
-589.27 -791.65 2295.9
-575.24 -788.73 2287.4
-582.68 -807.25 2341.1
-580.55 -812.77 2357.1
-568.01 -803.68 2330.7
-540.68 -799.00 2317.2
-512.74 -792.96 2299.7
-498.08 -788.63 2287.1
-491.50 -807.02 2340.5
-466.78 -806.26 2338.2
-449.23 -829.84 2406.6
-428.66 -814.46 2362.0
-409.04 -788.43 2286.5
-418.56 -818.65 2374.2
-413.38 -820.58 2379.8
-380.91 -791.58 2295.7
-336.77 -785.80 2278.9
-340.36 -808.35 2344.3
-334.52 -808.94 2346.0
-294.41 -799.10 2317.5
-272.13 -786.82 2281.9
-250.57 -812.81 2357.2
-249.49 -829.55 2405.8
-226.33 -813.57 2359.4
-219.65 -811.47 2353.4
-207.69 -789.23 2288.9
-188.83 -784.83 2276.1
-183.65 -787.90 2285.0
-180.91 -802.03 2326.0
-174.63 -800.87 2322.6
-165.62 -786.69 2281.5
-159.07 -783.57 2272.4
-154.41 -789.88 2290.7
-141.33 -817.24 2370.1
-130.35 -788.05 2285.4
-127.07 -804.76 2333.9
-122.70 -815.93 2366.3
-113.36 -793.55 2301.4
-110.01 -812.86 2357.4
-96.12 -799.01 2317.2
-79.20 -810.30 2350.0
-73.23 -811.66 2353.9
-66.92 -809.11 2346.5
-41.65 -791.36 2295.0
-37.32 -827.25 2399.1
-24.38 -810.67 2351.0
-6.12 -814.62 2362.5
12.16 -808.42 2344.5
18.09 -801.89 2325.6
24.13 -802.20 2326.5
30.38 -808.04 2343.4
36.97 -819.42 2376.4
42.56 -808.64 2345.1
47.60 -791.33 2294.9
65.30 -789.56 2289.8
73.79 -817.86 2371.9
90.56 -803.00 2328.8
112.67 -788.67 2287.2
117.46 -781.09 2265.2
133.10 -804.65 2333.6
139.19 -804.87 2334.2
160.52 -790.73 2293.2
164.87 -783.12 2271.1
177.10 -785.12 2276.9
216.67 -823.34 2387.8
218.20 -784.35 2274.7
242.37 -786.22 2280.1
254.98 -807.42 2341.6
259.20 -801.71 2325.0
259.15 -783.35 2271.8
281.82 -780.88 2264.6
365.22 -783.46 2272.1
370.83 -782.85 2270.4
458.91 -803.09 2329.1
476.61 -823.24 2387.5
465.12 -793.09 2300.0
562.98 -779.96 2262.0
566.91 -777.31 2254.3
678.68 -791.79 2296.3
687.72 -795.37 2306.7
695.17 -797.05 2311.5
701.12 -783.60 2272.5
-1808.77 -816.08 2349.0
-1575.31 -827.81 2382.8
-1458.52 -804.29 2315.1
-1435.95 -822.29 2366.9
-1414.47 -813.47 2341.6
-1413.83 -816.61 2350.6
-1305.45 -813.63 2342.0
-1332.72 -834.51 2402.1
-1301.93 -819.05 2357.6
-1253.15 -799.63 2301.7
-1246.14 -798.96 2299.8
-1240.28 -802.89 2311.1
-1232.81 -801.92 2308.3
-1185.49 -798.27 2297.8
-1209.03 -818.23 2355.2
-1229.28 -836.16 2406.9
-1195.22 -817.14 2352.1
-1185.92 -827.67 2382.4
-1087.67 -805.24 2317.8
-1127.42 -839.30 2415.9
-1102.49 -825.33 2375.7
-1011.89 -802.33 2309.5
-1020.47 -813.95 2342.9
-1001.83 -813.61 2341.9
-1008.42 -829.01 2386.3
-982.86 -823.15 2369.4
-970.27 -817.71 2353.8
-941.15 -798.19 2297.6
-941.87 -814.27 2343.8
-953.85 -829.97 2389.0
-931.36 -832.02 2394.9
-887.68 -803.71 2313.5
-883.79 -811.15 2334.9
-870.70 -810.24 2332.2
-852.04 -804.04 2314.4
-870.83 -827.60 2382.2
-876.01 -838.47 2413.5
-858.16 -827.29 2381.3
-830.53 -806.46 2321.4
-814.94 -797.10 2294.4
-819.70 -807.65 2324.8
-818.67 -812.60 2339.0
-794.48 -794.48 2286.9
-783.14 -795.01 2288.4
-797.31 -815.57 2347.6
-805.44 -830.22 2389.8
-802.82 -833.94 2400.5
-795.06 -832.33 2395.8
-776.04 -818.81 2356.9
-739.16 -811.87 2336.9
-715.07 -818.97 2357.4
-673.72 -798.92 2299.7
-637.26 -798.07 2297.2
-641.99 -811.57 2336.1
-644.28 -822.22 2366.7
-646.17 -832.56 2396.5
-635.44 -826.68 2379.6
-618.24 -812.20 2337.9
-607.49 -805.97 2320.0
-613.71 -822.37 2367.2
-614.75 -832.08 2395.1
-601.64 -822.66 2368.0
-590.29 -815.45 2347.2
-585.89 -817.81 2354.0
-572.40 -807.39 2324.0
-547.52 -797.47 2295.5
-544.68 -802.06 2308.7
-548.44 -816.57 2350.5
-538.16 -810.26 2332.3
-525.85 -800.72 2304.9
-514.30 -792.14 2280.1
-497.93 -813.69 2342.2
-492.09 -814.07 2343.3
-483.36 -809.62 2330.5
-484.56 -821.91 2365.9
-478.83 -822.61 2367.9
-468.64 -815.56 2347.6
-439.56 -795.97 2291.2
-404.27 -796.65 2293.1
-401.23 -802.47 2309.9
-395.48 -828.03 2383.5
-387.77 -824.77 2374.1
-376.95 -814.69 2345.1
-366.13 -804.27 2315.1
-330.44 -790.70 2276.0
-334.66 -815.35 2347.0
-325.80 -808.46 2327.1
-272.98 -812.87 2339.8
-264.52 -805.58 2318.8
-255.18 -814.15 2343.5
-221.55 -802.36 2309.6
-183.65 -793.85 2285.1
-170.35 -815.22 2346.6
-142.76 -797.06 2294.3
-135.48 -789.31 2272.0
-129.71 -790.07 2274.2
-124.50 -794.43 2286.7
-118.59 -794.53 2287.0
-112.62 -794.29 2286.3
-96.01 -804.05 2314.4
-84.81 -811.74 2336.6
-59.35 -795.24 2289.1
-29.91 -801.65 2307.5
-24.20 -810.86 2334.0
-6.16 -825.01 2374.8
30.59 -819.70 2359.5
35.75 -798.35 2298.0
41.75 -799.30 2300.8
47.46 -795.00 2288.4
52.93 -788.07 2268.4
58.93 -789.66 2273.0
65.60 -799.13 2300.3
73.35 -819.08 2357.7
79.14 -815.74 2348.1
115.23 -812.65 2339.2
118.29 -792.56 2281.4
131.65 -801.86 2308.1
136.88 -797.50 2295.6
194.46 -789.62 2272.9
205.54 -810.07 2331.8
211.11 -808.27 2326.6
232.66 -799.39 2301.0
241.98 -810.63 2333.4
240.98 -787.58 2267.0
292.80 -784.70 2258.7
341.62 -803.12 2311.7
346.23 -799.92 2302.5
385.19 -782.05 2251.1
436.00 -789.51 2272.6
449.95 -793.34 2283.6
465.68 -810.40 2332.7
663.05 -786.27 2263.3
677.91 -796.84 2293.7
670.68 -781.49 2249.5
693.23 -787.22 2266.0
696.12 -783.87 2256.3
908.79 -801.17 2306.1
-1867.79 -832.18 2377.7
-1570.10 -818.39 2338.3
-1420.17 -819.33 2340.9
-1396.16 -823.06 2351.6
-1426.10 -844.40 2412.6
-1311.47 -827.33 2363.8
-1316.36 -834.31 2383.7
-1259.92 -825.68 2359.1
-1233.96 -812.61 2321.7
-1236.77 -822.49 2350.0
-1196.90 -816.07 2331.6
-1208.70 -832.53 2378.6
-1099.08 -802.03 2291.5
-1099.48 -806.68 2304.8
-1089.57 -817.18 2334.8
-1088.11 -820.64 2344.7
-1007.98 -809.98 2314.2
-989.60 -799.98 2285.6
-980.63 -817.19 2334.8
-941.67 -799.53 2284.4
-965.37 -824.84 2356.7
-964.71 -829.53 2370.1
-957.41 -839.28 2398.0
-932.32 -822.64 2350.4
-893.59 -820.65 2344.7
-896.28 -828.75 2367.9
-883.81 -822.85 2351.0
-854.79 -801.36 2289.6
-846.83 -805.08 2300.2
-855.53 -819.12 2340.4
-863.06 -832.24 2377.8
-853.35 -828.80 2368.0
-833.45 -815.33 2329.5
-824.84 -812.80 2322.3
-829.21 -823.12 2351.8
-827.17 -827.17 2363.3
-826.31 -832.48 2378.5
-828.78 -841.25 2403.6
-785.03 -802.87 2293.9
-791.82 -822.27 2349.3
-791.19 -834.46 2384.2
-743.76 -823.02 2351.5
-722.26 -805.83 2302.4
-722.95 -827.10 2363.2
-694.44 -801.28 2289.4
-699.17 -827.96 2365.6
-679.31 -818.81 2339.4
-657.93 -800.19 2286.2
-669.56 -821.73 2347.8
-652.28 -807.87 2308.2
-636.23 -810.29 2315.1
-641.55 -824.85 2356.7
-630.36 -834.31 2383.7
-621.66 -830.94 2374.1
-609.20 -822.42 2349.8
-592.15 -807.47 2307.1
-588.36 -810.49 2315.7
-584.99 -814.16 2326.2
-571.73 -803.99 2297.1
-536.00 -795.17 2271.9
-540.28 -810.42 2315.5
-531.14 -805.67 2301.9
-517.85 -832.26 2377.9
-496.57 -827.61 2364.6
-483.37 -815.68 2330.5
-480.01 -820.27 2343.6
-458.77 -794.03 2268.7
-445.51 -801.91 2291.2
-435.30 -794.13 2268.9
-412.29 -795.13 2271.8
-396.79 -824.11 2354.6
-383.10 -834.17 2383.3
-354.74 -798.16 2280.5
-288.61 -829.00 2368.6
-281.32 -825.62 2358.9
-266.30 -798.91 2282.6
-263.13 -807.34 2306.7
-255.33 -801.63 2290.4
-222.45 -811.65 2319.0
-185.32 -807.04 2305.8
-185.60 -835.19 2386.3
-173.14 -806.01 2302.9
-170.00 -819.66 2341.9
-154.55 -834.56 2384.4
-129.61 -795.32 2272.4
-125.63 -807.63 2307.5
-122.69 -828.19 2366.3
-96.71 -816.00 2331.4
-90.82 -817.40 2335.4
-84.19 -811.86 2319.6
-77.26 -802.35 2292.4
-72.00 -810.00 2314.3
-66.65 -817.98 2337.1
-49.11 -828.69 2367.7
-24.31 -820.55 2344.4
-18.04 -811.98 2319.9
0.00 -830.50 2372.9
29.52 -797.08 2277.4
40.92 -789.09 2254.5
125.53 -806.97 2305.6
131.60 -807.53 2307.2
198.99 -790.11 2257.5
233.71 -808.99 2311.4
235.45 -794.66 2270.5
348.66 -797.78 2279.4
352.99 -794.24 2269.2
375.67 -792.43 2264.1
387.99 -805.84 2302.4
406.42 -818.91 2339.7
427.14 -789.92 2256.9
430.31 -785.03 2242.9
557.09 -783.41 2238.3
570.90 -794.55 2270.1
747.45 -782.21 2234.9
-1909.13 -826.88 2345.2
-1843.60 -827.49 2346.9
-1802.83 -811.87 2302.6
-1626.29 -828.37 2349.4
-1595.30 -815.64 2313.3
-1565.99 -822.29 2332.1
-1548.86 -816.45 2315.6
-1514.68 -811.01 2300.1
-1523.36 -822.13 2331.7
-1430.77 -810.77 2299.5
-1445.90 -833.23 2363.2
-1406.43 -813.93 2308.4
-1285.96 -821.08 2328.7
-1221.96 -810.67 2299.2
-1200.52 -808.27 2292.4
-1131.89 -805.96 2285.8
-1150.19 -823.30 2335.0
-1147.55 -839.07 2379.7
-1128.01 -829.24 2351.8
-1079.83 -806.91 2288.5
-1091.65 -824.80 2339.3
-1097.39 -833.77 2364.7
-1057.28 -812.38 2304.0
-1082.68 -836.62 2372.8
-1049.95 -815.96 2314.2
-1028.87 -808.82 2293.9
-1042.43 -824.24 2337.7
-1015.67 -807.78 2291.0
-1011.97 -824.12 2337.3
-1034.98 -847.93 2404.9
-986.65 -818.20 2320.5
-943.43 -812.07 2303.1
-960.81 -832.29 2360.5
-915.38 -803.17 2277.9
-916.90 -820.39 2326.7
-883.48 -817.37 2318.2
-895.30 -833.98 2365.3
-893.86 -838.38 2377.8
-876.76 -828.05 2348.5
-857.47 -815.50 2312.9
-854.42 -818.32 2320.9
-816.62 -816.62 2316.0
-814.03 -820.05 2325.8
-813.56 -825.71 2341.8
-806.26 -830.69 2356.0
-804.87 -842.01 2388.1
-785.83 -834.94 2368.0
-751.47 -804.72 2282.3
-750.78 -810.36 2298.3
-752.07 -838.38 2377.7
-728.82 -819.17 2323.3
-688.62 -814.37 2309.7
-709.38 -846.28 2400.2
-688.04 -835.47 2369.5
-661.89 -810.96 2300.0
-671.39 -830.09 2354.2
-666.47 -831.56 2358.4
-652.84 -822.09 2331.6
-649.46 -825.48 2341.2
-648.04 -831.45 2358.1
-649.02 -840.64 2384.2
-618.03 -824.04 2337.1
-597.45 -804.49 2281.6
-587.21 -814.90 2311.2
-584.54 -819.56 2324.4
-572.43 -810.94 2299.9
-560.21 -801.99 2274.5
-538.14 -813.19 2306.3
-534.77 -817.18 2317.6
-523.56 -809.14 2294.8
-492.90 -798.04 2263.3
-428.33 -832.19 2360.2
-398.28 -820.70 2327.6
-389.57 -815.10 2311.7
-351.99 -797.84 2262.8
-347.53 -801.08 2272.0
-328.94 -828.45 2349.6
-328.48 -842.89 2390.6
-322.13 -842.49 2389.4
-305.14 -813.71 2307.8
-277.42 -802.76 2276.7
-221.19 -813.04 2305.9
-220.52 -833.09 2362.7
-208.05 -808.41 2292.8
-198.81 -819.35 2323.8
-197.97 -841.38 2386.3
-186.68 -818.99 2322.8
-174.28 -817.30 2318.0
-157.97 -826.33 2343.6
-150.09 -816.49 2315.7
-144.99 -821.59 2330.1
-135.76 -802.78 2276.8
-116.98 -795.45 2256.0
-114.25 -817.80 2319.4
-109.17 -824.87 2339.4
-103.74 -829.94 2353.8
-98.35 -836.00 2371.0
-91.96 -833.75 2364.6
-84.91 -824.85 2339.4
-76.50 -800.32 2269.8
-65.17 -805.76 2285.2
-61.62 -838.05 2376.8
-47.41 -805.89 2285.6
-18.04 -817.66 2319.0
-12.12 -823.99 2337.0
6.02 -818.68 2321.9
12.22 -830.64 2355.8
18.40 -833.96 2365.2
24.11 -819.64 2324.6
29.66 -806.65 2287.8
36.13 -818.93 2322.6
41.60 -808.26 2292.3
53.31 -805.52 2284.6
59.62 -810.79 2299.5
76.50 -800.32 2269.8
82.96 -805.91 2285.7
88.66 -803.84 2279.8
125.94 -815.61 2313.2
129.18 -798.57 2264.9
173.43 -813.32 2306.7
182.38 -826.77 2344.8
353.00 -800.14 2269.3
365.84 -789.75 2239.8
388.40 -800.35 2269.9
556.37 -796.48 2258.9
569.92 -807.38 2289.8
585.00 -820.21 2326.2
576.96 -800.67 2270.8
592.17 -813.48 2307.1
600.90 -817.22 2317.8
757.16 -804.48 2281.6
753.82 -794.72 2253.9
1022.55 -799.24 2266.7
1007.46 -782.94 2220.5
-1720.58 -821.32 2312.4
-1746.33 -836.53 2355.2
-1683.35 -835.57 2352.5
-1672.46 -833.19 2345.8
-1608.61 -819.26 2306.6
-1630.72 -833.62 2347.0
-1598.59 -820.25 2309.4
-1633.07 -841.09 2368.0
-1611.90 -833.32 2346.2
-1514.59 -823.41 2318.3
-1507.09 -822.60 2316.0
-1430.07 -826.66 2327.4
-1445.02 -838.85 2361.7
-1251.70 -824.44 2321.1
-1248.26 -826.15 2326.0
-1222.64 -821.09 2311.7
-1244.49 -839.88 2364.6
