ply
format ascii 1.0
element vertex 2111
property float x
property float y
property float z
end_header
1287.21 -111.24 3064.8
1281.51 -110.07 3032.5
1341.26 -111.11 3061.2
1362.83 -112.23 3092.1
1350.90 -110.60 3047.1
1444.85 -111.76 3079.0
1452.67 -111.74 3078.7
1547.45 -113.43 3125.0
1571.61 -114.00 3140.9
1559.77 -110.85 3053.9
1563.31 -110.54 3045.4
1755.02 -110.68 3049.3
1760.84 -110.05 3032.1
1859.08 -109.36 3012.9
2215.96 -109.24 3009.6
2239.65 -108.87 2999.5
-1701.35 -123.29 3170.2
-1405.82 -122.60 3152.6
-1391.70 -122.08 3139.2
-1316.52 -121.90 3134.6
-1202.20 -122.67 3154.5
-1222.99 -125.65 3231.0
-1107.11 -121.22 3117.0
-1089.34 -122.86 3159.2
-1105.95 -125.68 3231.7
-1063.42 -121.77 3131.1
-1016.97 -122.04 3138.1
-1012.35 -122.46 3149.0
-994.31 -121.26 3118.1
-909.72 -120.76 3105.2
-907.03 -121.48 3123.7
-879.73 -122.18 3141.9
-893.00 -125.19 3219.1
-865.39 -123.63 3179.0
-861.87 -124.31 3196.5
-789.39 -122.07 3139.0
-779.56 -121.81 3132.1
-784.57 -123.88 3185.5
-762.30 -124.29 3196.0
-731.28 -120.54 3099.6
-668.07 -120.74 3104.6
-642.41 -121.98 3136.6
-638.57 -122.80 3157.7
-600.23 -121.67 3128.6
-601.14 -123.52 3176.3
-547.71 -120.82 3106.8
-550.50 -123.25 3169.2
-536.11 -121.84 3133.1
-506.59 -120.62 3101.6
-424.95 -120.27 3092.6
-393.03 -120.32 3093.8
-389.08 -121.59 3126.5
-383.15 -122.28 3144.4
-370.73 -120.89 3108.6
-361.63 -120.54 3099.6
-352.11 -120.04 3086.7
-330.91 -121.07 3113.1
-320.76 -120.29 3093.1
-301.90 -122.39 3147.2
-292.97 -122.07 3139.0
-284.90 -122.10 3139.7
-282.44 -124.61 3204.2
-274.28 -124.67 3205.9
-257.69 -124.69 3206.2
-245.47 -122.74 3156.1
-233.37 -120.71 3103.9
-224.28 -120.15 3089.5
-218.68 -121.49 3124.0
-210.62 -121.51 3124.6
-200.81 -120.48 3098.2
-186.11 -121.38 3121.1
-180.66 -123.18 3167.5
-171.61 -122.58 3152.0
-115.44 -123.69 3180.5
-106.13 -122.45 3148.8
-97.47 -121.84 3133.1
-89.81 -122.47 3149.3
-82.87 -124.31 3196.5
-72.66 -121.09 3113.8
-56.72 -121.53 3125.1
-49.70 -124.26 3195.2
-33.07 -123.99 3188.4
-24.12 -120.62 3101.6
-16.34 -122.52 3150.6
16.28 -122.09 3139.6
23.97 -119.84 3081.6
74.08 -123.46 3174.7
79.66 -119.49 3072.6
98.19 -122.74 3156.1
143.24 -119.36 3069.3
153.49 -121.17 3115.9
163.87 -122.90 3160.4
169.16 -120.83 3107.1
177.65 -121.12 3114.6
233.14 -120.59 3100.9
242.45 -121.23 3117.2
247.60 -119.81 3080.7
262.61 -119.37 3069.5
273.23 -120.54 3099.6
281.20 -120.51 3098.9
286.47 -119.36 3069.4
302.73 -119.50 3072.8
326.85 -122.57 3151.7
370.31 -123.44 3174.1
371.80 -121.24 3117.6
392.90 -120.28 3092.8
422.95 -122.00 3137.3
435.29 -123.19 3167.9
436.56 -121.27 3118.3
462.71 -119.67 3077.1
472.47 -120.12 3088.8
507.06 -118.84 3055.9
532.04 -122.78 3157.1
552.57 -121.89 3134.3
567.49 -123.37 3172.3
592.51 -120.10 3088.4
603.88 -119.19 3064.8
705.27 -120.22 3091.3
721.19 -118.88 3056.8
737.50 -120.24 3092.0
762.11 -121.61 3127.2
755.89 -119.35 3069.0
772.56 -120.71 3104.0
799.90 -118.80 3054.8
844.46 -119.50 3072.8
866.55 -121.48 3123.8
870.83 -120.95 3110.1
864.17 -118.92 3058.0
923.59 -118.41 3044.8
934.61 -118.81 3055.0
962.25 -118.31 3042.3
978.22 -119.30 3067.6
1007.76 -121.91 3134.7
1010.36 -120.28 3092.9
1020.10 -120.48 3098.2
1042.13 -122.12 3140.3
1021.56 -118.79 3054.5
1057.09 -119.22 3065.7
1078.62 -120.74 3104.8
1076.22 -119.58 3074.9
1102.84 -119.87 3082.5
1131.26 -122.08 3139.2
1118.00 -119.79 3080.2
1145.69 -120.18 3090.3
1184.63 -120.06 3087.3
1203.48 -121.16 3115.4
1186.96 -118.70 3052.2
1209.49 -120.15 3089.5
1211.66 -119.57 3074.7
1204.55 -118.09 3036.7
1210.98 -117.95 3033.1
1281.22 -120.11 3088.7
1301.52 -121.26 3118.1
1472.17 -121.33 3120.0
1495.26 -121.90 3134.5
1507.49 -122.23 3143.0
1481.12 -119.45 3071.4
1535.27 -119.32 3068.3
1633.24 -117.78 3028.7
1871.07 -118.42 3045.1
1885.71 -118.85 3056.1
1957.42 -117.92 3032.1
2238.31 -116.58 2997.7
2278.65 -118.27 3041.2
2259.07 -116.85 3004.7
-1682.31 -130.03 3134.7
-1446.50 -131.50 3170.1
-1445.88 -132.19 3186.8
-1322.98 -130.66 3150.0
-1324.11 -131.59 3172.2
-1318.63 -131.86 3178.8
-1285.31 -129.34 3118.0
-1213.16 -131.15 3161.7
-1231.27 -134.02 3230.7
-1204.84 -132.04 3183.0
-1134.60 -129.67 3125.9
-1149.79 -132.35 3190.6
-1133.03 -131.37 3166.9
-1032.28 -129.03 3110.7
-1027.19 -129.41 3119.7
-1028.57 -130.61 3148.7
-1024.26 -131.11 3160.6
-1003.08 -129.43 3120.2
-1001.50 -130.28 3140.6
-995.01 -130.49 3145.8
-956.57 -130.81 3153.5
-952.81 -131.42 3168.2
-921.43 -130.47 3145.2
-896.43 -129.22 3115.0
-898.50 -133.11 3208.9
-859.27 -130.94 3156.5
-837.34 -128.82 3105.5
-845.55 -131.35 3166.4
-850.14 -133.36 3214.8
-825.25 -132.04 3183.1
-791.02 -130.48 3145.4
-802.17 -133.69 3223.0
-785.69 -132.33 3190.0
-774.10 -131.76 3176.4
-764.68 -131.56 3171.5
-688.45 -131.13 3161.2
-672.84 -129.70 3126.8
-601.68 -130.09 3136.2
-576.65 -129.95 3132.7
-568.43 -129.93 3132.2
-518.62 -129.66 3125.6
-518.30 -131.63 3173.3
-479.52 -130.04 3134.9
-468.16 -129.15 3113.4
-437.07 -129.50 3121.9
-426.67 -128.81 3105.2
-403.70 -129.19 3114.3
-401.30 -131.04 3158.9
-390.15 -130.05 3135.1
-385.04 -131.08 3159.9
-374.01 -130.09 3136.1
-363.09 -129.10 3112.2
-307.01 -129.27 3116.2
-307.21 -132.85 3202.6
-297.68 -132.30 3189.4
-247.98 -127.99 3085.4
-242.74 -129.46 3120.9
-234.62 -129.44 3120.5
-229.03 -130.87 3155.0
-220.05 -130.40 3143.6
-209.79 -129.10 3112.3
-199.95 -127.97 3084.9
-164.37 -131.50 3170.0
-130.19 -130.19 3138.6
-123.74 -131.99 3181.9
-115.07 -131.50 3170.2
-106.45 -131.02 3158.5
-98.40 -131.20 3162.8
-63.83 -127.67 3077.7
-56.35 -128.79 3104.8
-48.14 -128.38 3095.0
0.00 -131.38 3167.3
8.17 -130.72 3151.3
16.16 -129.27 3116.3
24.57 -131.05 3159.2
32.96 -131.83 3178.1
40.64 -130.05 3135.0
57.83 -132.19 3186.7
64.37 -128.74 3103.7
89.86 -130.71 3151.0
112.06 -128.07 3087.3
119.58 -127.56 3075.0
131.60 -131.60 3172.5
139.28 -131.09 3160.2
146.06 -129.83 3129.9
151.11 -127.25 3067.6
167.08 -127.30 3068.8
180.53 -131.29 3165.1
187.93 -130.74 3151.7
192.91 -128.61 3100.3
203.05 -129.95 3132.7
213.08 -131.13 3161.1
229.39 -131.08 3160.0
232.97 -128.53 3098.6
244.98 -130.66 3149.8
249.02 -128.52 3098.4
261.82 -126.94 3060.2
271.53 -127.78 3080.4
277.65 -126.93 3059.8
301.52 -126.96 3060.6
315.01 -129.23 3115.4
367.86 -127.95 3084.5
465.18 -128.33 3093.6
470.45 -127.58 3075.6
529.32 -128.32 3093.4
558.63 -129.54 3122.8
561.64 -126.57 3051.2
581.57 -129.24 3115.6
597.91 -129.28 3116.5
721.09 -128.19 3090.4
741.53 -130.38 3143.1
753.19 -130.99 3157.8
767.00 -130.55 3147.3
756.29 -127.38 3070.7
766.69 -127.78 3080.5
877.73 -127.67 3077.7
903.61 -130.25 3140.0
889.67 -127.10 3063.9
919.00 -127.86 3082.4
945.91 -130.47 3145.3
944.97 -129.23 3115.3
1013.78 -130.81 3153.5
1024.85 -130.14 3137.3
1006.56 -126.81 3057.1
1049.56 -127.22 3066.9
1058.62 -127.35 3070.1
1108.12 -127.55 3074.9
1119.26 -127.92 3083.7
1165.97 -128.66 3101.6
1197.05 -129.41 3119.7
1208.05 -129.72 3127.3
1185.76 -126.48 3049.1
1209.38 -128.15 3089.2
1211.19 -127.49 3073.5
1225.52 -125.69 3030.1
1261.65 -128.58 3099.6
1401.29 -128.12 3088.6
1407.92 -127.99 3085.5
1448.59 -125.28 3020.2
1562.88 -125.66 3029.3
1572.30 -125.78 3032.3
1621.82 -125.36 3022.0
1623.62 -124.89 3010.8
1643.81 -125.24 3019.2
1737.88 -125.82 3033.1
1732.82 -124.89 3010.7
2051.05 -125.73 3031.1
-1446.79 -139.75 3170.7
-1342.98 -140.93 3197.6
-1309.17 -139.97 3175.9
-1275.61 -137.25 3114.1
-1195.86 -137.36 3116.6
-1204.53 -141.22 3204.2
-1104.07 -139.03 3154.5
-1030.52 -137.94 3129.8
-956.64 -137.82 3127.0
-924.43 -139.07 3155.4
-893.30 -136.81 3104.1
-892.26 -139.16 3157.4
-862.37 -137.01 3108.7
-868.65 -139.31 3160.9
-842.39 -136.39 3094.5
-832.57 -137.42 3117.8
-842.65 -140.44 3186.5
-830.93 -141.26 3205.0
-780.70 -136.82 3104.4
-769.99 -136.35 3093.7
-753.82 -137.80 3126.5
-706.52 -141.30 3206.0
-689.37 -141.20 3203.6
-660.24 -136.88 3105.6
-654.58 -137.38 3117.0
-656.17 -139.44 3163.7
-645.09 -138.82 3149.6
-599.54 -137.73 3125.0
-603.61 -140.57 3189.3
-537.73 -136.44 3095.7
-519.87 -138.09 3133.2
-520.01 -140.32 3183.8
-507.53 -139.16 3157.4
-493.15 -137.43 3118.3
-484.49 -137.27 3114.6
-484.30 -139.54 3166.1
-453.31 -137.61 3122.3
-443.12 -136.96 3107.6
-438.68 -138.10 3133.4
-410.94 -136.98 3108.0
-406.87 -138.34 3138.7
-391.56 -135.85 3082.3
-388.63 -137.64 3122.9
-379.17 -140.13 3179.4
-365.83 -138.20 3135.7
-356.45 -137.72 3124.7
-306.68 -137.20 3112.9
-289.85 -136.87 3105.5
-279.24 -135.63 3077.4
-263.83 -135.91 3083.8
-239.61 -135.78 3080.7
-234.22 -137.30 3115.2
-201.28 -136.87 3105.5
-195.99 -138.83 3149.9
-151.83 -135.85 3082.3
-147.21 -139.03 3154.5
-138.56 -138.56 3143.9
-97.98 -138.81 3149.4
-89.34 -138.07 3132.7
-48.20 -136.57 3098.6
-41.17 -139.96 3175.7
-32.26 -137.11 3110.8
-24.76 -140.32 3183.8
-7.98 -135.66 3078.0
23.96 -135.79 3080.9
57.36 -139.29 3160.4
128.98 -137.04 3109.3
136.80 -136.80 3104.0
174.99 -135.22 3068.0
225.03 -136.62 3099.8
236.31 -138.53 3143.1
246.97 -139.95 3175.3
249.95 -137.07 3110.0
328.20 -136.08 3087.6
335.36 -135.74 3079.8
519.31 -135.82 3081.6
526.40 -135.59 3076.3
542.01 -137.52 3120.3
547.95 -136.99 3108.1
562.30 -134.64 3054.8
578.76 -136.65 3100.5
599.92 -137.82 3127.0
621.01 -135.35 3070.9
645.49 -138.90 3151.6
636.49 -135.25 3068.8
761.95 -136.35 3093.6
782.05 -138.49 3142.2
778.51 -136.44 3095.7
877.31 -136.83 3104.5
918.25 -138.14 3134.3
903.35 -134.71 3056.5
937.18 -137.34 3116.2
958.10 -138.03 3131.8
964.93 -137.85 3127.6
948.59 -134.38 3049.0
981.57 -134.57 3053.3
993.05 -135.06 3064.3
1028.16 -138.72 3147.4
1038.78 -137.96 3130.3
1048.30 -138.15 3134.5
1048.58 -137.12 3111.2
1061.93 -137.81 3126.7
1061.75 -136.74 3102.5
1090.41 -136.30 3092.6
1096.87 -136.11 3088.2
1115.40 -135.44 3073.0
1105.96 -133.34 3025.4
1138.07 -136.25 3091.3
1161.99 -136.23 3091.0
1187.38 -137.32 3115.6
1190.85 -136.79 3103.6
1213.54 -134.84 3059.3
1218.90 -134.55 3052.9
1216.41 -133.41 3027.0
1227.28 -133.74 3034.5
1234.03 -133.62 3031.7
1263.37 -134.23 3045.6
1274.72 -134.60 3053.9
1312.95 -134.46 3050.7
1353.36 -137.77 3125.8
1358.04 -135.80 3081.3
1368.36 -136.04 3086.5
1395.77 -134.82 3058.9
1391.90 -133.69 3033.2
1456.56 -133.13 3020.5
1468.57 -133.51 3029.1
1478.61 -133.00 3017.6
1574.66 -134.52 3052.1
1591.48 -135.28 3069.3
1570.04 -132.79 3012.9
1603.52 -134.95 3061.9
1614.40 -135.20 3067.5
1626.33 -132.92 3015.9
1756.61 -135.12 3065.8
1735.17 -132.87 3014.8
1971.36 -134.05 3041.5
-1415.89 -145.63 3120.7
-1303.07 -145.69 3121.8
-1321.82 -148.70 3186.5
-1197.58 -146.64 3142.3
-1197.37 -148.64 3185.1
-1112.53 -148.34 3178.7
-1075.95 -147.84 3168.0
-1049.75 -145.35 3114.6
-1032.29 -146.31 3135.2
-934.12 -147.49 3160.5
-931.63 -148.40 3180.0
-838.72 -145.16 3110.6
-839.18 -146.65 3142.6
-840.51 -148.33 3178.4
-833.05 -148.46 3181.4
-768.02 -148.65 3185.3
-747.69 -146.29 3134.7
-739.77 -146.33 3135.6
-722.30 -144.46 3095.6
-689.14 -144.24 3090.8
-668.47 -146.74 3144.4
-663.75 -147.50 3160.7
-611.80 -144.90 3105.0
-613.19 -147.17 3153.6
-587.67 -146.92 3148.3
-572.59 -147.24 3155.1
-556.57 -145.19 3111.3
-540.32 -147.36 3157.7
-510.98 -143.71 3079.6
-509.81 -145.66 3121.3
-495.11 -143.74 3080.2
-493.09 -145.50 3117.9
-487.42 -148.70 3186.5
-479.34 -148.76 3187.7
-471.40 -148.86 3189.9
-449.24 -144.40 3094.2
-427.53 -145.20 3111.4
-428.15 -148.21 3175.8
-407.62 -143.87 3082.8
-385.92 -147.80 3167.2
-379.25 -148.40 3180.0
-363.13 -145.25 3112.5
-342.43 -143.34 3071.6
-327.46 -147.36 3157.6
-309.09 -146.41 3137.4
-294.18 -147.09 3151.9
-283.82 -145.96 3127.8
-272.61 -144.32 3092.7
-271.98 -148.35 3178.9
-263.54 -148.24 3176.6
-248.00 -144.00 3085.7
-237.63 -147.50 3160.6
-228.54 -146.92 3148.3
-204.62 -147.32 3156.9
-161.23 -145.11 3109.4
-138.86 -147.02 3150.5
-131.28 -147.69 3164.8
-120.06 -144.07 3087.3
-103.77 -143.68 3078.9
-82.30 -148.14 3174.5
-71.91 -143.82 3081.8
-41.25 -148.51 3182.3
-24.58 -147.49 3160.5
-16.06 -144.51 3096.6
0.00 -144.00 3085.6
8.07 -145.30 3113.6
32.14 -144.64 3099.5
40.58 -146.08 3130.3
47.90 -143.70 3079.3
57.10 -146.82 3146.1
65.62 -147.65 3163.9
127.56 -143.50 3075.0
135.16 -143.11 3066.7
167.31 -143.41 3073.1
176.91 -144.74 3101.6
184.74 -144.58 3098.1
214.00 -142.67 3057.2
221.60 -142.46 3052.7
233.14 -144.71 3100.9
244.15 -146.49 3139.1
250.24 -145.30 3113.6
254.87 -143.37 3072.1
264.06 -144.03 3086.4
276.38 -146.32 3135.4
281.65 -144.85 3103.9
314.73 -145.26 3112.8
326.43 -146.89 3147.7
328.59 -144.26 3091.2
431.15 -143.72 3079.6
446.45 -146.11 3131.0
531.20 -147.10 3152.2
548.95 -147.48 3160.3
554.93 -142.70 3057.8
588.37 -143.12 3066.8
638.00 -145.37 3115.0
634.99 -142.87 3061.6
656.22 -144.05 3086.7
702.61 -143.71 3079.6
769.90 -142.87 3061.4
773.91 -142.15 3046.0
799.65 -142.51 3053.8
818.29 -144.40 3094.4
856.02 -142.67 3057.2
884.83 -146.12 3131.1
913.37 -145.49 3117.7
912.91 -141.66 3035.5
932.59 -143.48 3074.5
926.73 -141.37 3029.3
973.03 -144.75 3101.7
1041.13 -144.16 3089.1
1056.66 -141.94 3041.6
1095.04 -146.01 3128.7
1099.82 -143.45 3074.0
1101.12 -142.59 3055.5
1108.81 -142.56 3054.9
1124.71 -143.58 3076.7
1161.82 -145.23 3112.0
1139.02 -141.40 3029.9
1165.70 -143.72 3079.6
1158.44 -141.85 3039.6
1219.52 -142.54 3054.5
1340.92 -144.53 3097.1
1332.52 -142.77 3059.3
1339.89 -141.04 3022.3
1455.98 -140.90 3019.3
1462.76 -140.80 3017.2
1475.84 -140.56 3011.9
1612.39 -142.97 3063.7
1600.39 -141.21 3025.9
1654.61 -142.50 3053.6
1678.87 -143.90 3083.6
1657.22 -141.37 3029.5
1921.57 -140.03 3000.7
1955.18 -141.91 3040.9
1937.99 -140.10 3002.1
-1301.01 -153.54 3116.9
-1308.66 -155.40 3154.8
-1225.83 -153.23 3110.7
-1210.83 -157.57 3198.9
-1188.45 -155.73 3161.4
-1115.22 -152.44 3094.7
-1119.21 -154.09 3128.2
-1115.36 -154.68 3140.2
-1128.05 -157.59 3199.3
-1112.60 -157.76 3202.6
-1043.73 -156.15 3169.9
-1027.93 -155.01 3146.7
-998.48 -152.99 3105.9
-1004.22 -155.12 3149.1
-990.77 -154.30 3132.4
-957.06 -152.81 3102.1
-935.43 -155.90 3165.0
-924.78 -155.49 3156.7
-876.39 -154.18 3130.0
-883.54 -156.89 3185.0
-872.16 -156.33 3173.6
-855.32 -154.77 3142.0
-843.57 -154.11 3128.6
-830.33 -153.17 3109.4
-824.07 -153.50 3116.2
-812.21 -152.79 3101.8
-775.41 -151.88 3083.4
-704.38 -153.83 3122.9
-705.79 -155.93 3165.5
-704.85 -157.55 3198.5
-697.36 -157.74 3202.2
-675.56 -154.65 3139.4
-645.06 -153.20 3110.1
-635.12 -152.75 3100.9
-629.97 -153.45 3115.2
-601.11 -152.28 3091.4
-590.18 -151.53 3076.2
-593.44 -154.46 3135.6
-575.51 -151.87 3083.1
-486.63 -151.57 3077.1
-494.66 -156.64 3179.9
-485.85 -156.46 3176.2
-467.85 -153.26 3111.3
-432.24 -154.95 3145.7
-412.28 -153.60 3118.1
-362.50 -153.06 3107.2
-360.10 -155.50 3156.7
-329.29 -152.60 3097.8
-329.27 -156.41 3175.1
-278.81 -155.80 3162.9
-253.65 -155.46 3156.0
-164.68 -156.44 3175.9
-155.53 -155.53 3157.3
-127.71 -151.65 3078.6
-119.39 -151.22 3070.0
-112.45 -152.62 3098.2
-82.42 -156.60 3179.1
-72.11 -152.23 3090.4
-24.18 -153.15 3109.1
31.81 -151.08 3067.1
40.53 -154.03 3126.9
47.58 -150.68 3058.9
56.13 -152.35 3092.7
65.57 -155.73 3161.5
88.09 -152.16 3089.0
119.00 -150.73 3060.0
139.23 -155.62 3159.1
167.13 -151.21 3069.7
179.44 -154.97 3146.1
195.01 -154.39 3134.1
202.01 -153.53 3116.7
207.50 -151.63 3078.3
232.59 -152.38 3093.5
246.06 -155.84 3163.6
253.65 -155.46 3156.0
255.42 -151.65 3078.7
263.85 -151.92 3084.0
290.52 -153.33 3112.7
310.58 -151.31 3071.6
316.91 -150.53 3055.9
349.12 -150.76 3060.5
460.12 -150.73 3059.9
484.99 -153.58 3117.8
497.58 -152.48 3095.6
506.85 -152.86 3103.2
685.58 -151.47 3074.9
719.19 -155.28 3152.3
736.56 -150.48 3054.9
778.00 -150.84 3062.1
788.43 -151.32 3071.8
800.41 -152.08 3087.3
822.84 -154.79 3142.4
831.36 -153.36 3113.3
838.02 -150.21 3049.4
857.11 -152.20 3089.7
873.70 -153.71 3120.3
871.14 -151.85 3082.7
887.57 -151.93 3084.2
895.79 -151.96 3085.0
920.42 -153.40 3114.2
922.33 -149.78 3040.7
940.87 -150.22 3049.6
959.06 -151.85 3082.7
978.73 -151.19 3069.2
986.06 -149.88 3042.7
1043.01 -153.62 3118.6
1024.43 -149.72 3039.5
1047.22 -149.60 3037.0
1086.37 -154.04 3127.1
1080.73 -152.10 3087.8
1108.34 -153.71 3120.4
1109.46 -152.75 3101.0
1142.10 -151.75 3080.6
1129.90 -149.08 3026.5
1139.59 -149.33 3031.4
1159.56 -150.90 3063.4
1259.84 -148.68 3018.2
1264.56 -148.31 3010.9
1364.56 -148.15 3007.6
1412.08 -152.44 3094.6
1431.21 -153.63 3118.9
1408.16 -150.31 3051.4
1464.16 -150.37 3052.7
1499.66 -153.19 3109.9
1480.05 -150.38 3052.8
1500.52 -150.05 3046.2
1805.58 -149.81 3041.2
1914.61 -148.48 3014.3
-1290.73 -163.38 3151.0
-1307.82 -166.60 3213.0
-1300.66 -166.75 3215.9
-1097.84 -160.27 3090.9
-1043.78 -163.09 3145.3
-1028.74 -163.29 3149.2
-990.96 -162.45 3133.0
-966.37 -162.42 3132.3
-945.51 -160.26 3090.6
-948.36 -163.51 3153.4
-902.92 -161.24 3109.6
-903.49 -162.79 3139.5
-908.01 -165.09 3183.9
-868.86 -165.50 3191.7
-851.78 -163.80 3159.1
-832.80 -161.71 3118.7
-820.65 -160.91 3103.3
-816.41 -161.67 3117.8
-793.83 -163.68 3156.6
-773.10 -161.06 3106.2
-683.27 -160.77 3100.5
-683.67 -162.78 3139.3
-685.77 -165.24 3186.9
-678.69 -165.53 3192.5
-655.78 -161.92 3122.8
-646.60 -161.65 3117.6
-643.86 -163.00 3143.6
-644.54 -165.27 3187.3
-620.37 -161.13 3107.6
-601.59 -162.59 3135.7
-601.17 -164.70 3176.4
-574.33 -159.54 3076.8
-557.83 -159.38 3073.7
-513.15 -160.36 3092.6
-507.75 -161.19 3108.7
-504.02 -162.59 3135.6
-430.55 -162.47 3133.4
-403.75 -164.80 3178.2
-357.60 -158.93 3065.1
-354.51 -161.14 3107.7
-338.48 -161.18 3108.5
-326.39 -159.22 3070.6
-308.43 -162.33 3130.7
-272.19 -160.11 3087.9
-263.99 -159.99 3085.6
-246.65 -164.43 3171.2
-188.91 -164.27 3168.1
-135.43 -159.34 3072.9
-127.07 -158.84 3063.3
-120.15 -160.20 3089.5
-114.83 -164.04 3163.7
-97.42 -162.36 3131.3
-90.27 -164.14 3165.5
-74.13 -164.73 3176.9
-65.81 -164.53 3173.1
-56.68 -161.95 3123.3
-49.38 -164.60 3174.4
-24.54 -163.58 3154.7
-16.09 -160.89 3102.8
56.10 -160.29 3091.3
79.30 -158.61 3058.9
89.14 -162.06 3125.5
119.84 -159.78 3081.5
128.06 -160.08 3087.2
135.13 -158.97 3065.9
176.97 -160.89 3102.8
185.82 -161.59 3116.3
190.52 -158.77 3062.0
202.11 -161.69 3118.3
212.11 -163.16 3146.6
219.46 -162.56 3135.1
237.05 -163.48 3152.9
244.71 -163.14 3146.3
251.06 -161.97 3123.7
252.41 -157.76 3042.5
263.31 -159.58 3077.6
287.51 -159.73 3080.5
297.91 -161.03 3105.6
319.48 -163.83 3159.7
479.14 -162.42 3132.4
515.16 -163.54 3154.0
520.83 -162.76 3138.9
537.54 -160.46 3094.6
538.39 -158.35 3053.9
547.47 -158.69 3060.4
556.93 -159.12 3068.8
593.60 -158.29 3052.8
598.71 -157.56 3038.6
614.85 -157.65 3040.5
706.66 -160.60 3097.4
737.87 -158.68 3060.3
741.35 -157.73 3042.0
840.56 -158.60 3058.6
852.20 -159.29 3072.0
860.67 -159.38 3073.8
872.12 -160.02 3086.1
872.13 -158.57 3058.1
884.98 -159.46 3075.2
881.20 -157.36 3034.7
892.66 -157.99 3047.0
965.19 -162.22 3128.5
993.48 -161.54 3115.4
992.55 -160.09 3087.4
994.87 -159.18 3069.9
1021.34 -158.35 3053.8
1047.16 -158.66 3059.9
1122.20 -161.47 3114.0
1142.88 -160.97 3104.4
1124.61 -157.29 3033.4
1127.33 -156.57 3019.6
1216.76 -157.00 3027.9
1255.48 -159.93 3084.4
1249.19 -156.15 3011.4
1290.86 -160.36 3092.6
1276.41 -157.58 3039.1
1374.60 -156.20 3012.5
1415.64 -159.96 3084.9
1420.57 -159.61 3078.3
1459.28 -158.62 3059.1
1444.14 -156.12 3010.9
1530.38 -161.09 3106.8
1539.96 -161.25 3109.9
1521.50 -158.49 3056.6
1566.57 -158.24 3051.8
1553.13 -156.09 3010.4
1606.66 -156.75 3023.0
1623.59 -157.63 3040.0
1626.88 -157.19 3031.5
1792.66 -156.56 3019.5
1936.39 -158.07 3048.5
1937.72 -157.54 3038.2
-1544.03 -168.88 3101.8
-1561.06 -171.63 3152.5
-1541.24 -170.35 3128.8
-1537.34 -170.82 3137.4
-1320.50 -169.09 3105.7
-1284.78 -172.95 3176.7
-1260.56 -170.79 3136.9
-1213.46 -168.76 3099.7
-1084.43 -168.69 3098.4
-1051.48 -168.56 3096.0
-1072.66 -173.28 3182.6
-1061.76 -172.84 3174.7
-1039.88 -170.60 3133.6
-1022.24 -169.03 3104.7
-1014.97 -169.16 3107.0
-989.11 -168.87 3101.7
-1002.88 -172.63 3170.7
-963.01 -169.94 3121.4
-951.81 -169.39 3111.3
-950.81 -170.66 3134.5
-923.33 -168.61 3096.9
-897.79 -168.34 3091.9
-902.15 -172.23 3163.4
-879.34 -169.41 3111.7
-878.33 -170.79 3136.9
-838.32 -167.66 3079.5
-842.31 -170.08 3124.0
-844.29 -172.14 3161.7
-771.07 -168.67 3098.0
-786.66 -173.89 3194.0
-758.04 -169.35 3110.5
-671.54 -171.98 3158.8
-665.14 -172.44 3167.3
-645.50 -169.44 3112.3
-631.15 -167.77 3081.6
-629.41 -169.46 3112.5
-572.87 -169.44 3112.2
-568.45 -170.53 3132.3
-535.59 -167.87 3083.3
-516.35 -169.43 3111.9
-517.82 -172.61 3170.4
-501.64 -172.69 3171.9
-422.61 -167.45 3075.6
-416.25 -168.10 3087.5
-406.81 -167.51 3076.7
-408.72 -171.66 3153.0
-395.01 -169.29 3109.4
-358.94 -167.50 3076.6
-353.21 -168.58 3096.4
-351.92 -171.87 3156.8
-338.00 -169.00 3104.1
-328.88 -168.45 3094.0
-306.04 -169.13 3106.4
-304.16 -172.63 3170.8
-280.10 -168.06 3086.8
-237.24 -171.80 3155.4
-193.04 -168.91 3102.4
-182.47 -166.60 3060.0
-177.12 -169.07 3105.4
-171.81 -171.81 3155.7
-122.77 -171.88 3156.9
-112.53 -168.80 3100.4
-96.26 -168.45 3093.9
0.00 -170.05 3123.4
47.73 -167.04 3068.1
55.59 -166.76 3063.0
71.18 -166.09 3050.7
80.74 -169.56 3114.3
98.30 -172.03 3159.8
104.81 -169.30 3109.6
111.77 -167.66 3079.4
165.78 -165.78 3045.0
176.10 -168.09 3087.4
181.46 -165.68 3043.1
190.50 -166.68 3061.6
245.53 -171.87 3156.8
249.66 -169.13 3106.4
272.51 -168.31 3091.5
279.10 -167.46 3075.8
286.27 -166.99 3067.1
317.42 -170.92 3139.4
316.00 -165.90 3047.2
416.65 -168.26 3090.5
428.05 -169.60 3115.2
480.27 -165.34 3036.8
495.87 -167.96 3084.9
522.53 -168.82 3100.8
556.01 -169.22 3108.1
564.53 -169.36 3110.7
598.67 -167.63 3078.9
613.50 -169.52 3113.6
626.15 -170.77 3136.6
641.77 -170.60 3133.4
704.98 -166.34 3055.3
753.46 -170.14 3125.0
746.45 -166.76 3062.9
814.76 -164.52 3021.8
834.91 -166.98 3067.0
869.96 -164.59 3023.0
886.66 -166.25 3053.5
927.27 -170.81 3137.4
908.49 -165.90 3047.1
916.03 -165.83 3045.9
933.41 -167.54 3077.2
945.68 -168.30 3091.2
985.20 -164.20 3015.9
1025.05 -169.50 3113.2
1037.05 -170.14 3125.0
1010.13 -164.44 3020.3
1047.77 -164.20 3016.0
1101.35 -164.03 3012.8
1109.96 -164.15 3015.0
1115.80 -163.86 3009.6
1245.17 -166.55 3059.1
1305.56 -164.17 3015.4
1334.99 -163.95 3011.3
1367.56 -164.11 3014.2
1433.38 -164.49 3021.2
1441.49 -164.52 3021.7
1530.21 -169.13 3106.4
1535.13 -167.90 3084.0
1666.36 -164.29 3017.6
1676.23 -164.49 3021.2
1959.23 -167.93 3084.5
1908.52 -162.92 2992.5
-1533.85 -176.67 3097.5
-1242.53 -176.36 3092.0
-1213.31 -176.77 3099.3
-1139.14 -176.49 3094.3
-1108.71 -176.75 3098.9
-1118.29 -179.58 3148.5
-1120.33 -181.23 3177.4
-1104.41 -179.98 3155.5
-1070.90 -175.82 3082.5
-1056.49 -177.43 3110.7
-1054.03 -178.37 3127.3
-1032.80 -176.14 3088.1
-998.31 -175.70 3080.5
-1009.11 -179.04 3138.9
-986.86 -176.51 3094.7
-985.10 -180.60 3166.4
-982.61 -181.66 3184.9
-952.86 -177.65 3114.7
-919.79 -175.96 3085.0
-911.02 -175.81 3082.4
-897.40 -176.27 3090.5
-895.80 -177.55 3112.8
-833.62 -176.34 3091.7
-853.45 -182.29 3196.0
-832.94 -179.65 3149.8
-782.25 -181.15 3176.1
-765.50 -179.16 3141.1
-740.02 -175.06 3069.2
-626.16 -176.61 3096.4
-624.11 -178.32 3126.3
-619.78 -179.41 3145.5
-599.73 -175.92 3084.3
-500.69 -174.84 3065.5
-496.91 -176.32 3091.4
-470.56 -175.46 3076.3
-461.23 -178.02 3121.1
-365.83 -178.85 3135.7
-350.34 -175.17 3071.1
-334.53 -179.51 3147.2
-328.32 -180.57 3165.9
-318.79 -179.83 3152.8
-302.27 -175.00 3068.2
-279.60 -175.75 3081.4
-261.45 -174.30 3055.9
-202.31 -178.03 3121.4
-194.75 -178.52 3129.9
-169.94 -178.03 3121.3
-154.68 -179.10 3140.1
-142.37 -174.00 3050.7
-136.98 -177.27 3107.9
-130.14 -178.94 3137.2
-120.42 -176.62 3096.6
-88.94 -177.88 3118.7
-73.94 -180.75 3169.0
-64.14 -176.38 3092.3
-56.25 -176.78 3099.5
-32.74 -180.05 3156.7
-24.46 -179.37 3144.8
-16.35 -179.83 3152.8
-8.10 -178.18 3123.9
0.00 -174.82 3065.0
8.00 -176.07 3087.0
16.39 -180.28 3160.8
23.92 -175.44 3075.9
56.52 -177.64 3114.4
64.65 -177.80 3117.3
106.27 -179.84 3153.1
111.28 -174.88 3066.0
181.14 -173.26 3037.7
195.24 -178.97 3137.8
204.70 -180.14 3158.3
211.58 -179.03 3138.8
227.26 -178.57 3130.7
230.85 -175.12 3070.4
237.75 -174.35 3056.8
252.19 -178.97 3137.8
261.01 -179.44 3146.1
262.21 -174.81 3064.8
275.18 -178.06 3121.8
310.05 -174.90 3066.4
354.95 -173.53 3042.5
470.86 -175.57 3078.3
489.55 -179.50 3147.1
497.35 -179.37 3144.9
498.76 -174.17 3053.6
539.97 -174.70 3062.9
555.40 -177.09 3104.7
555.36 -174.54 3060.1
564.12 -174.80 3064.6
614.53 -175.58 3078.4
735.34 -173.95 3049.8
773.16 -175.36 3074.4
767.38 -172.27 3020.3
827.71 -173.43 3040.6
885.60 -177.12 3105.3
884.20 -175.25 3072.5
880.13 -172.88 3031.1
898.32 -174.89 3066.3
919.07 -174.31 3056.0
935.61 -175.93 3084.4
947.31 -176.62 3096.5
965.01 -172.60 3026.2
985.88 -174.91 3066.7
1010.87 -175.11 3070.1
1020.45 -174.03 3051.2
1108.41 -172.94 3032.1
1135.35 -175.90 3083.9
1162.63 -171.66 3009.7
1179.55 -173.00 3033.1
1183.46 -172.42 3023.0
1203.06 -174.13 3052.9
1273.38 -177.31 3108.6
1276.06 -175.46 3076.2
1388.44 -174.55 3060.2
1395.84 -174.48 3059.1
1400.32 -172.11 3017.5
1412.74 -170.77 2994.0
1443.48 -173.53 3042.5
1435.30 -171.61 3008.8
1678.25 -173.34 3039.1
1704.28 -171.99 3015.4
1730.18 -170.69 2992.6
1749.04 -171.78 3011.7
1910.60 -172.27 3020.3
1917.79 -172.21 3019.3
2270.35 -169.31 2968.5
2323.24 -172.67 3027.4
-1382.26 -184.84 3099.7
-1380.39 -185.67 3113.7
-1301.16 -185.88 3117.2
-1145.70 -184.27 3090.3
-1144.86 -185.43 3109.8
-1103.52 -183.92 3084.4
-1121.82 -188.33 3158.4
-1118.19 -189.11 3171.3
-1096.35 -186.79 3132.4
-1082.88 -185.87 3117.0
-1065.89 -184.33 3091.2
-1057.75 -184.30 3090.8
-1060.84 -186.25 3123.5
-1059.63 -187.47 3143.9
-1041.84 -185.76 3115.1
-1009.74 -184.32 3091.0
-1019.72 -187.63 3146.6
-1027.91 -190.66 3197.4
-1001.58 -187.29 3140.9
-965.55 -183.53 3077.9
-972.80 -186.45 3126.9
-951.27 -183.86 3083.4
-952.14 -185.59 3112.3
-954.90 -187.71 3148.0
-861.13 -183.39 3075.5
-840.78 -185.94 3118.3
-819.55 -184.80 3099.1
-795.46 -184.80 3099.2
-790.38 -185.50 3110.8
-776.22 -184.05 3086.6
-768.92 -184.22 3089.4
-775.94 -187.86 3150.4
-759.72 -185.89 3117.4
-733.31 -183.33 3074.4
-720.72 -186.25 3123.5
-672.46 -186.34 3125.0
-653.71 -183.36 3074.9
-628.77 -183.06 3069.9
-634.58 -187.12 3138.0
-631.44 -188.61 3163.1
-615.46 -188.74 3165.2
-591.74 -183.92 3084.4
-589.96 -185.88 3117.2
-586.37 -187.31 3141.3
-566.20 -183.42 3075.9
-511.13 -183.69 3080.5
-499.01 -182.18 3055.2
-495.73 -183.90 3084.0
-473.53 -187.78 3149.1
-462.62 -186.67 3130.5
-446.78 -183.50 3077.3
-436.85 -182.68 3063.6
-423.17 -183.64 3079.6
-419.06 -185.35 3108.4
-384.58 -188.20 3156.1
-348.17 -186.23 3123.1
-312.41 -184.24 3089.8
-279.11 -183.42 3075.9
-268.56 -187.18 3139.0
-222.10 -182.44 3059.5
-191.49 -183.52 3077.6
-171.21 -187.52 3144.8
-162.36 -186.71 3131.2
-135.20 -182.92 3067.6
-126.97 -182.52 3060.9
-23.77 -182.26 3056.5
-16.31 -187.62 3146.4
0.00 -187.62 3146.4
40.33 -185.52 3111.2
89.15 -186.41 3126.2
128.13 -184.19 3088.9
185.15 -185.15 3105.0
192.11 -184.11 3087.6
207.52 -183.57 3078.6
227.81 -187.13 3138.2
228.42 -181.16 3038.0
248.95 -184.70 3097.5
259.73 -186.68 3130.7
262.86 -183.20 3072.3
275.93 -186.66 3130.3
292.49 -186.87 3133.8
296.25 -184.16 3088.4
306.53 -185.53 3111.4
311.71 -183.83 3082.8
389.80 -186.78 3132.3
391.13 -183.59 3078.8
396.54 -182.41 3059.0
471.83 -180.87 3033.2
485.27 -182.97 3068.5
494.30 -183.37 3075.1
611.31 -182.60 3062.2
629.30 -180.93 3034.1
817.13 -180.71 3030.6
834.15 -182.72 3064.2
883.83 -184.80 3099.1
909.39 -181.88 3050.1
958.04 -185.17 3105.3
958.51 -179.23 3005.8
990.33 -183.69 3080.5
1018.17 -180.14 3020.9
1022.63 -179.55 3011.0
1048.15 -179.91 3017.1
1073.92 -182.96 3068.3
1083.66 -183.27 3073.4
1108.12 -186.03 3119.8
1114.28 -185.71 3114.5
1101.13 -182.20 3055.5
1102.00 -181.04 3036.1
1120.60 -182.79 3065.5
1112.09 -180.13 3020.8
1180.11 -182.16 3054.9
1198.88 -181.41 3042.3
1226.36 -181.98 3051.8
1237.64 -180.16 3021.4
1324.17 -181.29 3040.2
1359.09 -179.65 3012.8
1410.54 -185.39 3108.9
1415.98 -185.04 3103.2
1378.07 -179.07 3003.1
1410.02 -179.17 3004.8
1466.67 -178.48 2993.2
1479.10 -179.05 3002.7
1540.04 -178.89 3000.1
1709.00 -180.31 3023.8
1730.72 -181.76 3048.2
1711.95 -178.98 3001.5
1728.49 -178.27 2989.7
1763.75 -178.71 2996.9
1970.64 -177.05 2969.2
1978.75 -177.09 2969.8
-1148.74 -191.46 3077.0
-1166.02 -195.70 3145.1
-1150.22 -194.40 3124.3
-1084.36 -194.21 3121.3
-1076.81 -194.31 3122.9
-1071.17 -194.76 3130.1
-1047.63 -196.43 3156.9
-1005.11 -192.98 3101.5
-1018.42 -198.72 3193.7
-984.71 -193.71 3113.2
-964.56 -196.18 3152.9
-895.82 -193.69 3112.9
-879.05 -191.79 3082.4
-881.46 -195.88 3148.1
-857.03 -194.04 3118.6
-865.23 -197.77 3178.4
-844.04 -194.78 3130.4
-773.67 -191.42 3076.4
-789.06 -197.27 3170.3
-767.47 -193.89 3116.0
-720.17 -194.20 3121.1
-698.71 -190.56 3062.5
-665.22 -192.35 3091.4
-613.37 -191.18 3072.5
-612.26 -193.35 3107.4
-608.31 -194.66 3128.5
-599.74 -194.51 3126.1
-577.32 -195.15 3136.3
-523.21 -190.26 3057.7
-488.79 -192.31 3090.7
-469.59 -194.31 3122.9
-468.24 -197.15 3168.5
-460.34 -197.29 3170.7
-445.10 -194.22 3121.4
-429.08 -194.30 3122.7
-427.00 -197.07 3167.3
-380.89 -194.50 3125.9
-373.73 -194.99 3133.8
-361.21 -192.64 3096.1
-333.42 -190.53 3062.0
-333.06 -194.96 3133.3
-326.88 -196.13 3152.0
-315.88 -194.39 3124.1
-300.71 -189.92 3052.3
-290.31 -193.54 3110.5
-276.81 -189.81 3050.6
-268.00 -194.91 3132.5
-248.27 -192.21 3089.1
-239.38 -191.51 3077.8
-233.62 -193.34 3107.2
-222.50 -190.71 3065.0
-213.82 -190.07 3054.6
-206.61 -190.72 3065.1
-199.60 -191.62 3079.6
-193.88 -193.88 3116.0
-182.03 -189.94 3052.7
-80.01 -192.02 3086.0
-64.90 -194.71 3129.3
-31.99 -191.95 3084.9
-24.53 -196.24 3153.8
16.13 -193.57 3110.9
24.16 -193.26 3105.9
39.97 -191.88 3083.8
71.80 -191.47 3077.2
106.24 -196.13 3152.1
137.99 -194.81 3130.9
151.73 -191.66 3080.3
175.34 -191.28 3074.1
184.94 -192.98 3101.5
197.41 -189.51 3045.7
245.63 -190.17 3056.3
280.15 -192.10 3087.4
307.44 -189.20 3040.6
365.22 -190.55 3062.4
378.03 -189.01 3037.7
385.53 -188.83 3034.8
395.96 -190.06 3054.6
440.45 -192.19 3088.8
455.32 -195.14 3136.1
456.56 -192.24 3089.5
566.13 -188.71 3032.8
636.28 -193.30 3106.6
646.44 -193.93 3116.8
803.24 -187.16 3008.0
824.59 -188.48 3029.1
857.50 -190.56 3062.5
860.43 -187.73 3017.1
948.05 -189.61 3047.3
976.13 -188.93 3036.4
978.65 -187.90 3019.8
986.66 -187.93 3020.4
997.01 -186.94 3004.4
1037.26 -192.98 3101.5
1047.04 -193.30 3106.6
1035.65 -189.74 3049.3
1056.30 -190.61 3063.4
1090.81 -192.50 3093.7
1128.07 -193.38 3108.0
1129.36 -192.23 3089.4
1173.76 -190.34 3059.0
1189.30 -191.56 3078.7
1203.11 -192.50 3093.7
1195.42 -188.75 3033.5
1229.92 -190.44 3060.6
1249.10 -192.17 3088.4
1264.63 -193.32 3106.9
1247.69 -189.52 3045.9
1307.25 -186.75 3001.3
1362.61 -187.95 3020.6
1371.58 -188.10 3023.1
1475.27 -187.34 3010.8
1469.65 -185.64 2983.5
1551.49 -187.11 3007.2
1894.70 -186.36 2995.1
1897.03 -185.83 2986.6
1994.18 -184.79 2969.8
2007.86 -185.34 2978.7
-1457.35 -200.19 3088.6
-1324.10 -201.84 3114.2
-1315.70 -201.79 3113.4
-1298.40 -200.37 3091.4
-1088.33 -200.06 3086.6
-1082.57 -201.97 3116.1
-1046.53 -204.40 3153.6
-1016.68 -200.13 3087.8
-1017.23 -205.09 3164.2
-986.43 -200.49 3093.3
-958.94 -201.46 3108.2
-959.16 -203.21 3135.3
-939.26 -200.70 3096.5
-933.34 -201.15 3103.5
-925.09 -201.11 3102.8
-915.15 -200.69 3096.4
-903.54 -199.90 3084.2
-884.94 -201.12 3103.0
-891.33 -204.43 3154.1
-881.86 -204.13 3149.5
-853.47 -199.41 3076.6
-826.50 -198.68 3065.3
-785.05 -198.25 3058.6
-681.53 -198.12 3056.7
-630.58 -199.55 3078.8
-628.45 -201.43 3107.7
-625.39 -203.05 3132.7
-607.54 -199.85 3083.4
-593.25 -200.42 3092.2
-573.07 -201.79 3113.3
-525.65 -199.11 3072.0
-472.15 -200.06 3086.7
-456.25 -203.68 3142.5
-433.22 -204.35 3152.8
-426.13 -204.87 3160.8
-390.12 -199.04 3070.9
-383.88 -199.94 3084.8
-374.80 -199.36 3075.8
-342.87 -199.34 3075.5
-333.26 -198.37 3060.5
-325.73 -198.61 3064.3
-327.75 -204.84 3160.5
-311.43 -204.89 3161.1
-302.64 -204.49 3154.9
-247.91 -199.93 3084.6
-221.81 -198.05 3055.6
-218.74 -202.53 3124.8
-212.02 -203.86 3145.3
-185.56 -201.70 3112.0
-174.45 -198.24 3058.6
-142.58 -198.03 3055.3
-118.31 -197.19 3042.3
-114.27 -204.06 3148.3
-103.23 -198.52 3062.8
-79.06 -197.66 3049.6
-72.35 -200.97 3100.7
-65.10 -203.44 3138.7
-56.42 -201.51 3109.0
-47.90 -199.58 3079.2
-40.73 -203.66 3142.1
-32.42 -202.63 3126.3
-24.14 -201.15 3103.4
-16.30 -203.74 3143.4
-8.16 -204.00 3147.4
0.00 -201.54 3109.5
8.02 -200.57 3094.5
15.88 -198.56 3063.5
23.83 -198.56 3063.5
31.81 -198.81 3067.4
55.35 -197.69 3050.1
63.67 -198.97 3069.9
79.27 -198.18 3057.6
87.93 -199.84 3083.3
95.27 -198.47 3062.1
104.17 -200.33 3090.8
145.37 -201.90 3115.1
167.96 -199.95 3085.0
191.31 -199.28 3074.6
250.55 -202.06 3117.4
280.19 -200.14 3087.9
306.69 -196.60 3033.2
347.34 -197.35 3044.9
375.88 -199.94 3084.8
391.41 -195.71 3019.5
429.81 -195.37 3014.2
443.92 -198.18 3057.6
445.84 -195.54 3017.0
467.93 -198.27 3059.1
540.04 -195.67 3018.8
570.80 -198.20 3057.9
569.74 -195.12 3010.4
629.52 -196.72 3035.2
687.06 -195.19 3011.5
714.00 -200.56 3094.4
701.88 -194.97 3008.1
750.37 -195.41 3014.9
796.85 -195.31 3013.3
805.69 -195.56 3017.2
857.20 -200.28 3090.1
873.52 -202.20 3119.7
850.62 -195.10 3010.0
867.25 -195.33 3013.6
971.24 -200.67 3096.0
950.85 -194.85 3006.2
978.24 -198.83 3067.7
980.88 -197.76 3051.1
1001.39 -198.69 3065.5
1030.81 -201.33 3106.2
1042.42 -200.47 3092.9
1020.09 -194.67 3003.5
1029.65 -195.01 3008.7
1087.79 -201.44 3108.0
1060.45 -194.94 3007.6
1105.13 -201.67 3111.4
1138.33 -200.41 3092.0
1163.93 -196.61 3033.4
1198.24 -199.71 3081.2
1201.53 -198.93 3069.2
1200.01 -197.37 3045.1
1190.64 -194.55 3001.6
1201.43 -195.04 3009.2
1224.91 -197.57 3048.2
1217.86 -195.17 3011.2
1242.22 -196.55 3032.5
1322.33 -197.95 3054.1
1344.94 -200.14 3087.9
1337.24 -197.82 3052.0
1323.34 -194.61 3002.5
1338.38 -194.53 3001.4
1359.14 -195.28 3012.9
1515.54 -198.37 3060.6
1488.99 -193.88 2991.3
1652.36 -197.65 3049.5
1640.33 -195.28 3012.9
1693.33 -195.08 3009.9
1678.62 -192.50 2970.0
1763.33 -194.20 2996.2
1894.80 -192.56 2970.9
1911.58 -193.48 2985.1
1984.40 -193.03 2978.2
2030.24 -192.99 2977.5
2330.96 -192.96 2977.1
-1326.25 -210.26 3119.2
-1303.85 -207.98 3085.4
-1087.63 -209.47 3107.5
-1028.77 -208.97 3100.1
-1026.51 -210.15 3117.6
-1004.50 -208.94 3099.6
-1018.90 -213.64 3169.4
-966.90 -207.76 3082.2
-981.15 -214.37 3180.2
-948.79 -209.06 3101.4
-946.35 -210.30 3119.9
-948.71 -212.64 3154.6
-932.64 -210.86 3128.1
-915.00 -208.68 3095.9
-898.91 -206.83 3068.4
-879.25 -209.73 3111.4
-883.07 -212.59 3153.8
-856.80 -208.19 3088.6
-840.06 -208.02 3085.9
-843.00 -210.75 3126.5
-790.14 -207.51 3078.4
-629.27 -207.10 3072.4
-632.50 -210.83 3127.7
-619.62 -209.22 3103.8
-599.73 -210.72 3126.0
-586.46 -211.78 3141.7
-562.32 -205.92 3054.9
-552.63 -211.30 3134.7
-537.06 -208.41 3091.8
-527.25 -207.70 3081.3
-522.80 -209.12 3102.3
-507.29 -206.09 3057.4
-489.15 -205.13 3043.1
-484.73 -206.61 3065.0
-475.13 -205.89 3054.4
-453.50 -206.86 3068.8
-452.87 -210.26 3119.3
-426.78 -205.49 3048.4
-426.90 -209.42 3106.8
-394.68 -205.23 3044.7
-380.89 -210.70 3125.8
-353.17 -208.69 3095.9
-327.36 -207.59 3079.7
-319.05 -207.38 3076.6
-315.37 -210.25 3119.1
-300.61 -205.68 3051.3
-276.45 -205.36 3046.6
-258.45 -209.99 3115.3
-229.58 -205.83 3053.5
-217.52 -209.46 3107.4
-200.05 -208.06 3086.5
-195.74 -212.05 3145.8
-186.48 -210.81 3127.4
-178.17 -210.57 3123.8
-167.44 -207.31 3075.5
-145.72 -210.48 3122.5
-120.27 -208.47 3092.6
-104.05 -208.10 3087.2
-95.44 -206.78 3067.6
-72.08 -208.23 3089.2
-65.30 -212.21 3148.2
-56.79 -210.94 3129.4
-48.51 -210.21 3118.5
-32.40 -210.63 3124.7
15.77 -204.99 3041.1
48.09 -208.40 3091.6
96.99 -210.14 3117.4
105.87 -211.73 3141.1
149.43 -204.48 3033.4
159.44 -207.27 3074.9
196.63 -204.50 3033.8
209.16 -209.16 3102.9
241.08 -208.94 3099.6
257.54 -209.25 3104.3
354.84 -205.02 3041.5
406.06 -203.03 3012.0
429.46 -203.02 3011.8
437.25 -203.01 3011.7
542.06 -204.25 3030.1
600.87 -202.89 3009.9
662.68 -205.12 3042.9
674.29 -206.25 3059.8
710.29 -207.50 3078.3
723.53 -209.02 3100.9
759.84 -210.17 3117.9
758.63 -207.63 3080.2
780.09 -202.82 3008.9
800.67 -202.11 2998.4
814.68 -203.67 3021.5
829.52 -203.47 3018.5
848.53 -206.19 3058.8
844.05 -203.20 3014.5
850.21 -202.80 3008.6
876.31 -207.13 3072.8
904.38 -209.94 3114.6
885.73 -203.80 3023.3
939.40 -208.76 3096.9
956.06 -207.15 3073.1
980.11 -205.51 3048.7
988.84 -204.05 3027.1
1018.71 -206.93 3069.8
1002.45 -202.04 2997.4
1042.74 -205.39 3047.0
1063.54 -201.84 2994.3
1077.49 -203.01 3011.6
1095.91 -204.99 3041.1
1111.40 -206.40 3062.0
1117.80 -203.24 3015.0
1125.90 -201.89 2995.0
1152.48 -205.24 3044.7
1169.12 -205.39 3046.9
1194.08 -205.60 3050.2
1206.29 -204.99 3041.1
1234.40 -207.06 3071.8
1343.07 -203.02 3011.9
1386.34 -208.35 3090.9
1387.50 -203.81 3023.6
1377.66 -201.23 2985.3
1421.65 -200.89 2980.2
1452.82 -200.92 2980.7
1465.28 -200.51 2974.6
1502.49 -204.53 3034.2
1633.70 -204.21 3029.5
1670.69 -207.84 3083.3
1627.70 -201.53 2989.7
1659.57 -202.58 3005.2
1656.82 -201.30 2986.2
1712.69 -205.21 3044.3
1710.82 -204.04 3027.0
1794.50 -205.54 3049.2
1828.25 -200.57 2975.4
1841.18 -201.14 2983.9
2016.51 -199.35 2957.4
2064.75 -199.57 2960.6
2416.96 -198.86 2950.2
-1404.01 -215.39 3077.0
-1402.75 -216.42 3091.8
-1244.81 -215.45 3077.8
-1241.91 -222.06 3172.3
-1202.94 -216.53 3093.3
-1190.75 -217.23 3103.3
-1188.70 -218.33 3119.0
-1073.28 -214.66 3066.5
-1034.89 -216.60 3094.3
-1031.43 -217.57 3108.1
-1007.62 -214.22 3060.3
-992.65 -214.41 3063.0
-1014.46 -220.89 3155.6
-979.15 -214.94 3070.5
-961.07 -214.45 3063.6
-968.63 -219.77 3139.6
-966.74 -221.20 3160.0
-886.15 -213.62 3051.8
-901.74 -219.34 3133.5
-884.38 -217.07 3101.1
-881.82 -218.43 3120.4
-875.93 -218.98 3128.3
-860.10 -221.17 3159.6
-854.03 -221.72 3167.4
-740.85 -215.08 3072.6
-700.15 -214.82 3068.8
-688.19 -213.57 3051.1
-658.60 -214.24 3060.6
-661.86 -220.62 3151.7
-636.20 -214.72 3067.4
-629.76 -215.24 3074.8
-555.84 -217.50 3107.2
-538.16 -216.87 3098.1
-530.35 -216.96 3099.5
-527.68 -219.19 3131.3
-515.05 -217.28 3104.1
-504.96 -216.41 3091.6
-503.16 -219.12 3130.3
-481.03 -216.46 3092.3
-447.92 -215.96 3085.2
-417.73 -212.80 3040.1
-400.93 -220.92 3156.0
-367.16 -215.51 3078.7
-354.43 -212.66 3038.0
-330.44 -212.43 3034.7
-309.39 -214.20 3059.9
-275.31 -218.63 3123.3
-191.31 -215.22 3074.5
-181.76 -213.37 3048.1
-173.60 -213.05 3043.6
-145.74 -218.61 3123.0
-94.55 -212.74 3039.1
-88.78 -217.92 3113.1
-23.83 -214.51 3064.4
-15.69 -211.79 3025.6
-8.01 -216.19 3088.4
0.00 -213.61 3051.5
7.94 -214.30 3061.5
16.03 -216.40 3091.4
23.95 -215.56 3079.4
32.46 -219.11 3130.2
48.24 -217.07 3101.0
55.44 -213.85 3055.0
128.75 -217.26 3103.7
136.69 -217.10 3101.4
166.82 -214.48 3064.0
173.54 -212.98 3042.6
180.16 -211.49 3021.3
191.55 -215.50 3078.5
202.73 -218.95 3127.8
211.20 -219.33 3133.2
259.39 -218.86 3126.6
263.45 -215.55 3079.2
383.07 -211.08 3015.4
393.20 -212.33 3033.3
409.43 -216.76 3096.5
416.52 -216.27 3089.6
415.55 -211.70 3024.3
447.29 -211.88 3026.8
492.25 -210.96 3013.8
498.55 -210.33 3004.7
523.65 -211.02 3014.6
603.50 -211.62 3023.1
626.47 -211.43 3020.5
660.66 -212.35 3033.6
665.37 -211.35 3019.3
669.36 -210.15 3002.1
724.48 -210.33 3004.7
757.79 -215.37 3076.7
819.74 -212.82 3040.2
841.76 -216.45 3092.2
831.50 -211.80 3025.7
855.37 -209.95 2999.4
881.87 -214.51 3064.4
906.90 -216.69 3095.6
895.91 -212.19 3031.3
896.29 -210.43 3006.2
996.14 -216.90 3098.6
989.27 -213.68 3052.6
991.47 -212.46 3035.1
991.40 -210.77 3011.0
1054.10 -217.26 3103.7
1029.80 -209.06 2986.5
1098.02 -210.26 3003.7
1116.59 -210.82 3011.8
1138.36 -211.97 3028.2
1157.96 -214.14 3059.2
1394.48 -213.93 3056.1
1395.86 -211.73 3024.7
1440.78 -211.42 3020.3
1442.43 -208.27 2975.2
1477.73 -211.10 3015.8
1481.39 -210.51 3007.3
1470.39 -207.86 2969.4
1660.48 -214.51 3064.5
1620.32 -208.33 2976.1
1673.79 -208.26 2975.1
1715.99 -212.53 3036.2
1692.88 -208.71 2981.6
2042.76 -206.57 2951.0
-1777.32 -224.17 3088.0
-1400.48 -222.80 3069.2
-1183.54 -222.41 3063.8
-1185.66 -225.84 3111.1
-1157.81 -225.13 3101.3
-1093.54 -226.81 3124.4
-1084.35 -226.58 3121.3
-1054.35 -227.09 3128.3
-1047.06 -227.27 3130.7
-1021.83 -223.53 3079.2
-1033.97 -227.96 3140.3
-1004.48 -225.00 3099.5
-976.86 -222.38 3063.3
-983.18 -225.65 3108.4
-963.60 -222.98 3071.7
-949.36 -223.38 3077.1
-945.23 -228.16 3143.0
-874.38 -222.57 3066.0
-869.46 -223.35 3076.7
-862.06 -223.50 3078.8
-830.61 -221.50 3051.2
-809.72 -222.28 3062.0
-776.74 -226.55 3120.8
-763.36 -227.38 3132.3
-752.88 -226.67 3122.5
-750.77 -228.50 3147.6
-734.80 -226.09 3114.5
-691.80 -222.65 3067.1
-638.31 -223.41 3077.6
-629.05 -222.96 3071.3
-565.15 -226.06 3114.1
-554.51 -225.02 3099.8
-512.83 -220.91 3043.2
-512.67 -224.29 3089.7
-498.59 -221.60 3052.6
-493.41 -222.83 3069.6
-493.28 -226.43 3119.1
-476.19 -222.22 3061.2
-456.07 -220.17 3033.0
-464.71 -228.28 3144.7
-427.16 -225.67 3108.7
-365.56 -222.52 3065.3
-354.72 -220.71 3040.4
-320.48 -224.34 3090.3
-314.25 -225.62 3108.0
-301.09 -221.86 3056.2
-295.91 -223.93 3084.8
-285.66 -222.18 3060.7
-275.70 -227.05 3127.7
-255.72 -223.75 3082.3
-252.09 -227.70 3136.7
-241.77 -225.65 3108.5
-216.88 -224.91 3098.3
-189.91 -221.56 3052.1
-158.97 -222.56 3065.8
-150.60 -221.93 3057.3
-94.56 -220.65 3039.5
-87.63 -223.05 3072.7
-79.15 -221.62 3052.9
-73.05 -227.28 3130.9
-56.77 -227.09 3128.3
-48.54 -226.52 3120.4
-32.47 -227.26 3130.6
8.03 -224.81 3096.8
31.78 -222.48 3064.8
48.15 -224.71 3095.5
80.00 -224.01 3085.8
121.39 -226.59 3121.4
144.55 -224.85 3097.5
158.09 -221.33 3048.9
197.14 -220.80 3041.6
203.12 -218.74 3013.3
217.79 -225.85 3111.2
224.29 -224.29 3089.8
265.95 -225.65 3108.5
272.55 -224.45 3091.9
275.09 -220.07 3031.6
298.16 -219.70 3026.4
311.85 -223.89 3084.2
346.03 -220.20 3033.4
358.53 -223.09 3073.1
370.29 -225.39 3104.9
411.58 -225.97 3112.8
407.78 -219.57 3024.7
444.01 -218.11 3004.5
494.58 -219.81 3028.0
501.40 -219.36 3021.8
517.81 -219.68 3026.2
536.18 -224.08 3086.8
533.04 -219.49 3023.5
605.81 -226.17 3115.6
614.48 -220.58 3038.7
625.25 -221.61 3052.8
641.55 -224.54 3093.2
633.86 -219.11 3018.4
825.57 -222.27 3061.9
844.58 -223.10 3073.3
871.25 -217.81 3000.5
884.31 -219.12 3018.5
887.27 -217.93 3002.0
953.77 -224.42 3091.4
961.81 -222.57 3066.0
957.31 -219.71 3026.6
974.14 -221.75 3054.8
989.26 -223.38 3077.2
986.95 -221.08 3045.4
995.33 -221.18 3046.9
992.79 -218.88 3015.2
1054.36 -223.65 3080.9
1034.51 -217.79 3000.2
1090.30 -216.51 2982.6
1144.70 -219.53 3024.2
1195.25 -218.74 3013.2
1221.75 -217.89 3001.6
1254.15 -216.77 2986.1
1264.61 -217.23 2992.5
1342.67 -218.57 3011.0
1372.04 -222.06 3059.1
1384.79 -222.84 3069.7
1366.26 -218.60 3011.3
1380.18 -219.57 3024.7
1384.59 -219.03 3017.3
1466.62 -216.13 2977.3
1474.60 -216.17 2977.9
1648.83 -220.90 3043.0
1665.90 -222.12 3059.8
1665.79 -221.05 3045.1
1673.31 -221.00 3044.4
1669.14 -216.37 2980.6
1693.63 -216.54 2982.9
1893.63 -214.66 2957.1
1934.70 -218.43 3009.0
2007.45 -216.19 2978.1
1999.89 -214.55 2955.5
2055.57 -215.57 2969.5
2146.63 -215.43 2967.7
2149.92 -214.99 2961.6
-1553.27 -233.39 3104.2
-1497.71 -232.27 3089.2
-1493.37 -232.84 3096.9
-1436.32 -232.70 3095.0
-1224.84 -232.16 3087.8
-1245.34 -237.60 3160.2
-1221.51 -234.59 3120.2
-1167.35 -230.29 3063.0
-1091.04 -236.12 3140.5
-1053.19 -229.64 3054.4
-1042.70 -232.60 3093.7
-1040.87 -233.99 3112.2
-1025.43 -232.32 3090.0
-1013.84 -235.21 3128.4
-977.60 -230.49 3065.7
-986.02 -234.38 3117.4
-970.30 -232.55 3093.0
-940.07 -229.09 3047.1
-942.77 -231.70 3081.7
-937.19 -232.30 3089.6
-896.69 -232.18 3088.1
-854.11 -229.34 3050.4
-818.75 -232.78 3096.1
-821.35 -235.83 3136.7
-765.73 -228.93 3044.9
-751.88 -231.96 3085.2
-711.60 -229.29 3049.7
-711.65 -234.52 3119.3
-687.06 -229.02 3046.1
-653.83 -234.09 3113.5
-591.04 -228.54 3039.6
-567.71 -235.20 3128.2
-541.08 -230.75 3069.1
-511.08 -228.02 3032.8
-512.41 -232.19 3088.2
-500.27 -230.28 3062.9
-486.83 -227.71 3028.7
-480.57 -228.47 3038.8
-481.01 -232.49 3092.2
-462.22 -231.11 3073.9
-452.52 -230.23 3062.2
-425.31 -232.72 3095.3
-402.03 -233.18 3101.4
-380.80 -234.96 3125.1
-362.66 -228.63 3040.9
-356.50 -229.74 3055.7
-348.57 -229.74 3055.6
-323.61 -234.62 3120.5
-302.70 -231.01 3072.5
-292.71 -229.42 3051.4
-232.07 -232.07 3086.6
-177.11 -233.47 3105.2
-159.35 -231.06 3073.2
-143.78 -231.64 3081.0
-121.60 -235.09 3126.8
-113.25 -234.59 3120.1
-105.74 -235.88 3137.4
-55.78 -231.11 3073.8
-48.11 -232.54 3092.9
-32.14 -233.01 3099.1
-24.10 -233.01 3099.2
15.78 -228.82 3043.4
31.49 -228.28 3036.3
48.22 -233.06 3099.9
78.15 -226.64 3014.5
87.58 -230.90 3071.1
96.47 -233.13 3100.8
102.79 -229.29 3049.7
119.04 -230.15 3061.1
164.26 -226.84 3017.0
225.86 -225.86 3004.1
260.63 -229.04 3046.3
273.98 -233.69 3108.2
282.34 -233.94 3111.5
282.74 -227.76 3029.3
297.42 -226.98 3018.9
306.97 -228.26 3036.0
312.19 -226.34 3010.4
320.44 -226.65 3014.6
343.37 -226.31 3010.0
351.07 -226.24 3009.2
389.47 -225.89 3004.5
542.47 -227.99 3032.4
581.19 -227.76 3029.4
591.04 -228.54 3039.6
595.93 -227.40 3024.5
624.14 -229.11 3047.3
637.59 -231.13 3074.1
648.71 -226.66 3014.7
653.84 -225.73 3002.3
771.38 -225.96 3005.4
830.42 -227.19 3021.7
840.63 -227.84 3030.3
854.53 -225.28 2996.4
868.88 -227.00 3019.3
903.90 -224.04 2979.9
949.65 -229.50 3052.5
967.31 -231.84 3083.5
1008.22 -230.22 3062.1
997.47 -225.99 3005.8
1142.84 -225.46 2998.7
1165.31 -225.29 2996.5
1192.78 -229.08 3046.8
1209.51 -223.41 2971.5
1259.98 -231.26 3075.9
1269.03 -230.01 3059.3
1280.40 -230.63 3067.5
1282.92 -229.66 3054.6
1304.00 -223.76 2976.2
1320.56 -223.95 2978.7
1366.89 -223.95 2978.7
1413.90 -226.54 3013.0
1505.35 -223.87 2977.6
1658.16 -226.82 3016.9
1659.35 -225.92 3004.9
1951.71 -228.22 3035.5
1949.16 -227.01 3019.3
2004.96 -223.63 2974.4
2059.99 -222.08 2953.8
2099.43 -222.20 2955.4
-1356.23 -240.75 3095.4
-1368.99 -244.46 3143.1
-1355.39 -243.48 3130.5
-1256.16 -241.57 3105.9
-1185.62 -241.96 3111.0
-1172.21 -240.86 3096.8
-1058.11 -236.89 3045.7
-1079.34 -243.46 3130.2
-1061.42 -241.23 3101.5
-1011.16 -238.86 3071.0
-1002.10 -238.60 3067.7
-1000.13 -240.03 3086.1
-1004.48 -243.02 3124.5
-981.06 -239.28 3076.5
-966.29 -237.61 3055.0
-932.68 -237.12 3048.7
-937.31 -240.34 3090.0
-929.96 -240.51 3092.2
-910.92 -237.63 3055.3
-912.68 -240.18 3088.0
-894.37 -237.44 3052.8
-862.64 -237.42 3052.6
-852.88 -236.91 3046.0
-803.51 -238.67 3068.6
-773.74 -236.86 3045.3
-771.93 -243.77 3134.1
-749.62 -239.24 3075.9
-721.66 -240.55 3092.8
-706.86 -240.98 3098.3
-701.41 -241.87 3109.7
-655.84 -239.94 3084.9
-638.34 -236.42 3039.7
-616.03 -236.94 3046.3
-553.25 -240.54 3092.7
-527.20 -239.64 3081.0
-525.23 -242.42 3116.8
-522.43 -244.89 3148.6
-509.50 -242.62 3119.4
-494.81 -239.42 3078.3
-479.11 -243.62 3132.2
-444.20 -242.29 3115.2
-426.04 -241.16 3100.6
-412.82 -238.17 3062.1
-397.21 -238.33 3064.2
-398.69 -244.10 3138.4
-387.48 -242.17 3113.7
-372.17 -237.55 3054.3
-315.73 -236.80 3044.5
-316.24 -243.26 3127.7
-300.39 -237.15 3049.1
-281.92 -241.65 3106.9
-275.15 -242.78 3121.5
-234.64 -234.64 3016.8
-231.50 -239.48 3079.0
-225.15 -241.23 3101.5
-190.76 -238.45 3065.8
-145.33 -242.22 3114.2
-119.64 -239.27 3076.4
-112.40 -240.85 3096.6
-103.64 -239.16 3075.0
-95.61 -239.03 3073.2
-64.34 -241.26 3102.0
-39.62 -237.73 3056.5
-32.12 -240.92 3097.5
-23.45 -234.48 3014.8
-7.91 -237.44 3052.8
15.85 -237.82 3057.7
23.40 -234.02 3008.8
32.11 -240.84 3096.5
71.17 -237.22 3050.0
78.89 -236.66 3042.8
87.85 -239.59 3080.4
95.61 -239.03 3073.2
103.30 -238.39 3065.0
135.25 -238.68 3068.8
172.25 -234.89 3020.0
217.56 -241.74 3108.0
222.47 -238.37 3064.7
228.73 -236.62 3042.3
242.76 -242.76 3121.2
242.09 -234.28 3012.2
271.13 -239.23 3075.8
291.03 -235.97 3034.0
299.80 -236.69 3043.1
310.42 -238.79 3070.1
317.79 -238.34 3064.4
326.59 -238.97 3072.5
330.80 -236.28 3037.9
334.16 -233.13 2997.4
372.95 -233.09 2996.9
380.60 -233.02 2995.9
427.43 -237.46 3053.1
567.19 -236.33 3038.5
578.87 -237.89 3058.6
584.08 -236.79 3044.4
665.16 -240.42 3091.1
758.02 -232.05 2983.5
832.12 -235.51 3027.9
907.78 -236.81 3044.7
910.10 -233.36 3000.3
988.45 -237.23 3050.1
997.43 -235.61 3029.3
1002.38 -231.32 2974.1
1015.08 -232.46 2988.8
1042.04 -236.83 3044.9
1044.88 -235.69 3030.3
1106.05 -233.67 3004.4
1108.74 -232.60 2990.6
1132.53 -234.32 3012.6
1156.85 -236.09 3035.5
1189.18 -234.71 3017.7
1232.92 -234.10 3009.9
1276.84 -239.41 3078.1
1250.60 -233.03 2996.1
1301.22 -238.03 3060.3
1302.48 -232.58 2990.4
