ply
format ascii 1.0
element vertex 1993
property float x
property float y
property float z
end_header
532.75 -1341.99 2601.1
538.55 -1339.64 2596.6
522.67 -1284.10 2488.9
520.92 -1264.19 2450.3
532.31 -1276.26 2473.7
549.51 -1301.83 2523.3
558.12 -1306.66 2532.7
560.75 -1297.55 2515.0
576.06 -1317.65 2554.0
584.01 -1320.66 2559.8
587.77 -1314.23 2547.3
602.02 -1331.14 2580.1
610.89 -1335.91 2589.3
601.97 -1302.10 2523.8
603.90 -1278.46 2478.0
623.93 -1306.96 2533.2
629.54 -1304.99 2529.4
655.70 -1291.92 2504.1
663.45 -1294.39 2508.9
675.79 -1280.78 2482.5
702.51 -1318.86 2556.3
712.83 -1325.72 2569.6
724.41 -1334.80 2587.2
725.61 -1324.74 2567.7
717.37 -1297.79 2515.5
736.47 -1285.59 2491.8
751.98 -1301.25 2522.2
763.51 -1309.81 2538.8
757.15 -1287.81 2496.1
777.66 -1300.46 2520.6
783.73 -1299.69 2519.1
925.08 -1296.42 2512.8
937.53 -1304.68 2528.8
1040.78 -1294.47 2509.0
-1645.61 -1201.17 2316.5
-1685.99 -1235.16 2382.1
-1647.60 -1211.47 2336.4
-1609.37 -1187.73 2290.6
-1616.70 -1197.55 2309.6
-1606.06 -1194.09 2302.9
-1562.88 -1166.33 2249.4
-1593.57 -1198.17 2310.8
-1615.24 -1219.05 2351.0
-1601.44 -1213.22 2339.8
-1565.42 -1190.43 2295.8
-1532.66 -1169.97 2256.4
-1550.50 -1188.12 2291.4
-1594.40 -1226.46 2365.3
-1601.65 -1236.80 2385.3
-1527.64 -1184.22 2283.9
-1562.54 -1225.52 2363.5
-1559.49 -1227.94 2368.2
-1557.42 -1231.16 2374.4
-1561.85 -1239.56 2390.6
-1510.18 -1203.33 2320.7
-1472.25 -1177.80 2271.5
-1487.71 -1194.95 2304.5
-1515.92 -1222.52 2357.7
-1489.56 -1206.12 2326.1
-1451.00 -1179.67 2275.1
-1458.31 -1190.46 2295.9
-1461.62 -1198.05 2310.5
-1440.96 -1185.97 2287.2
-1438.38 -1188.74 2292.6
-1451.78 -1204.80 2323.5
-1452.49 -1210.41 2334.4
-1482.06 -1240.22 2391.9
-1503.72 -1263.63 2437.0
-1417.44 -1196.16 2306.9
-1400.79 -1202.40 2318.9
-1409.30 -1214.92 2343.1
-1403.16 -1214.86 2342.9
-1364.73 -1186.73 2288.7
-1365.12 -1202.75 2319.6
-1377.01 -1218.59 2350.1
-1362.55 -1211.15 2335.8
-1322.48 -1180.79 2277.2
-1323.59 -1192.42 2299.7
-1330.64 -1204.20 2322.4
-1298.75 -1180.68 2277.0
-1292.69 -1180.54 2276.8
-1305.02 -1197.27 2309.0
-1286.38 -1185.61 2286.5
-1277.18 -1182.57 2280.7
-1295.94 -1205.52 2324.9
-1306.55 -1221.08 2354.9
-1295.91 -1216.82 2346.7
-1276.53 -1204.27 2322.5
-1287.82 -1220.68 2354.2
-1288.97 -1227.59 2367.5
-1244.54 -1190.95 2296.8
-1231.92 -1184.54 2284.5
-1228.39 -1186.85 2288.9
-1225.69 -1189.99 2295.0
-1229.79 -1199.79 2313.9
-1207.02 -1183.36 2282.2
-1212.33 -1194.41 2303.5
-1221.75 -1209.66 2332.9
-1201.24 -1195.26 2305.1
-1192.13 -1192.13 2299.1
-1178.87 -1184.80 2285.0
-1174.42 -1192.31 2299.5
-1189.62 -1213.90 2341.1
-1190.71 -1221.24 2355.3
-1217.83 -1255.50 2421.3
-1219.90 -1264.14 2438.0
-1179.45 -1228.59 2369.4
-1169.07 -1224.16 2360.9
-1143.90 -1204.11 2322.2
-1150.05 -1223.46 2359.5
-1177.70 -1259.58 2429.2
-1170.02 -1258.09 2426.3
-1148.64 -1241.77 2394.8
-1111.40 -1208.04 2329.8
-1114.42 -1217.95 2348.9
-1117.36 -1227.86 2368.0
-1095.98 -1211.02 2335.5
-1092.72 -1214.14 2341.5
-1080.30 -1207.04 2327.9
-1064.90 -1196.51 2307.6
-1086.93 -1228.17 2368.6
-1105.31 -1256.04 2422.4
-1078.61 -1232.70 2377.4
-1068.47 -1228.13 2368.5
-1084.26 -1253.48 2417.4
-1088.41 -1265.60 2440.8
-1070.85 -1252.46 2415.5
-1070.52 -1259.44 2428.9
-1092.24 -1292.60 2492.9
-1084.46 -1291.02 2489.8
-1075.97 -1288.58 2485.1
-1055.36 -1271.51 2452.2
-1009.33 -1223.43 2359.5
-997.97 -1217.04 2347.2
-1018.99 -1250.29 2411.3
-1049.83 -1296.09 2499.6
-1055.26 -1310.88 2528.1
-1000.07 -1250.09 2410.9
-959.85 -1207.36 2328.5
-979.81 -1240.27 2391.9
-987.58 -1258.07 2426.3
-980.66 -1257.26 2424.7
-1011.04 -1304.57 2515.9
-1005.91 -1306.38 2519.4
-986.15 -1289.09 2486.1
-977.38 -1303.17 2513.3
-970.90 -1303.23 2513.4
-964.74 -1303.71 2514.3
-956.33 -1301.13 2509.3
-956.22 -1309.89 2526.2
-934.50 -1288.97 2485.9
-895.04 -1243.11 2397.4
-889.74 -1244.40 2399.9
-926.06 -1304.31 2515.5
-911.19 -1301.70 2510.4
-888.22 -1278.02 2464.7
-897.58 -1329.75 2564.5
-845.04 -1300.07 2507.3
-816.59 -1266.03 2441.6
-803.98 -1256.22 2422.7
-811.94 -1278.65 2466.0
-831.12 -1319.23 2544.2
-824.69 -1330.14 2565.3
-803.55 -1306.59 2519.8
-796.42 -1305.60 2517.9
-768.95 -1325.77 2556.8
-734.09 -1276.69 2462.2
-744.11 -1305.46 2517.7
-715.43 -1300.78 2508.7
-703.47 -1290.78 2489.4
-718.87 -1331.23 2567.4
-706.85 -1321.22 2548.1
-685.93 -1294.20 2496.0
-677.46 -1290.41 2488.6
-671.80 -1330.29 2565.6
-642.38 -1284.76 2477.7
-636.05 -1284.95 2478.1
-654.36 -1335.43 2575.5
-582.42 -1323.69 2552.8
-557.21 -1280.95 2470.4
-561.54 -1305.90 2518.5
-553.71 -1302.86 2512.7
-540.22 -1286.24 2480.6
-530.57 -1326.43 2558.1
-525.76 -1331.05 2567.0
-519.49 -1332.04 2568.9
-517.75 -1344.81 2593.6
-510.54 -1343.52 2591.1
-496.87 -1324.99 2555.3
-496.98 -1343.20 2590.5
-456.30 -1342.06 2588.3
-410.23 -1281.96 2472.4
-395.05 -1254.14 2418.7
-399.08 -1287.35 2482.8
-410.15 -1344.75 2593.4
-395.06 -1339.20 2582.7
-391.00 -1348.28 2600.2
-328.80 -1315.19 2536.4
-322.19 -1315.08 2536.2
-312.48 -1358.63 2620.2
-300.41 -1335.14 2574.9
-287.15 -1305.23 2517.2
-273.89 -1273.92 2456.8
-273.26 -1301.24 2509.5
-276.39 -1348.26 2600.2
-266.41 -1332.05 2569.0
-255.42 -1309.86 2526.2
-252.15 -1327.09 2559.4
-250.48 -1353.96 2611.2
-240.87 -1338.16 2580.7
-232.54 -1328.77 2562.6
-227.57 -1338.65 2581.7
-223.34 -1353.58 2610.5
-203.90 -1359.30 2621.5
-128.84 -1356.18 2615.5
-120.25 -1336.08 2576.7
-94.10 -1344.35 2592.7
-41.05 -1368.39 2639.0
-33.73 -1349.10 2601.8
-20.20 -1346.86 2597.5
-13.38 -1337.67 2579.8
13.51 -1351.48 2606.4
20.31 -1353.76 2610.8
47.68 -1362.36 2627.4
53.98 -1349.42 2602.5
61.30 -1362.25 2627.2
68.39 -1367.70 2637.7
74.28 -1350.60 2604.7
80.01 -1333.49 2571.7
88.23 -1357.33 2617.7
112.40 -1322.40 2550.3
114.62 -1273.53 2456.1
121.32 -1277.08 2462.9
131.10 -1310.98 2528.3
155.84 -1355.12 2613.4
157.74 -1314.50 2535.1
168.03 -1344.20 2592.4
176.16 -1355.05 2613.3
184.95 -1370.02 2642.2
191.52 -1367.99 2638.3
187.14 -1290.62 2489.1
193.77 -1291.80 2491.3
207.95 -1341.64 2587.4
212.94 -1330.85 2566.6
223.42 -1354.04 2611.4
245.66 -1364.77 2632.1
245.98 -1329.65 2564.3
250.40 -1317.92 2541.7
260.16 -1334.16 2573.0
274.11 -1370.55 2643.2
281.94 -1375.30 2652.4
282.98 -1347.51 2598.8
291.52 -1355.91 2615.0
296.02 -1345.53 2595.0
297.83 -1323.70 2552.8
307.33 -1336.20 2577.0
311.89 -1327.18 2559.6
315.81 -1315.87 2537.7
319.50 -1304.10 2515.0
316.79 -1267.18 2443.8
326.78 -1281.47 2471.4
335.11 -1288.90 2485.7
337.95 -1275.29 2459.5
360.02 -1333.41 2571.6
371.61 -1351.29 2606.1
361.12 -1289.73 2487.3
364.08 -1277.48 2463.7
379.62 -1309.04 2524.6
387.93 -1315.03 2536.1
387.41 -1291.36 2490.5
395.27 -1295.97 2499.4
402.19 -1297.38 2502.1
398.21 -1264.16 2438.0
413.14 -1291.07 2489.9
431.00 -1326.15 2557.6
420.66 -1274.73 2458.4
453.36 -1333.42 2571.6
474.77 -1376.13 2654.0
471.29 -1346.56 2596.9
476.08 -1341.07 2586.3
485.55 -1348.75 2601.2
478.03 -1309.66 2525.8
481.87 -1302.36 2511.7
500.78 -1335.42 2575.5
497.44 -1309.06 2524.6
498.11 -1277.22 2463.2
520.58 -1317.91 2541.7
522.42 -1306.06 2518.8
518.11 -1279.28 2467.2
526.51 -1284.17 2476.6
555.44 -1306.92 2520.5
592.60 -1378.15 2657.9
591.97 -1360.84 2624.5
582.62 -1324.14 2553.7
577.14 -1296.94 2501.2
583.36 -1296.35 2500.1
591.62 -1300.26 2507.6
590.24 -1269.34 2448.0
623.37 -1326.33 2557.9
629.28 -1324.80 2555.0
618.98 -1289.55 2487.0
636.46 -1312.28 2530.8
650.62 -1327.80 2560.8
628.94 -1270.59 2450.4
679.11 -1293.54 2494.7
683.56 -1289.73 2487.3
726.35 -1274.29 2457.6
733.84 -1276.24 2461.3
749.39 -1281.00 2470.5
762.43 -1292.25 2492.2
866.46 -1293.22 2494.1
-1778.81 -1160.85 2227.6
-1774.96 -1162.10 2230.1
-1737.92 -1160.54 2227.0
-1693.43 -1161.70 2229.3
-1692.23 -1164.86 2235.3
-1672.44 -1163.19 2232.1
-1682.23 -1174.05 2253.0
-1679.81 -1176.45 2257.6
-1660.34 -1166.88 2239.2
-1649.22 -1171.35 2247.8
-1632.06 -1163.28 2232.3
-1612.74 -1174.49 2253.8
-1616.58 -1181.57 2267.4
-1619.31 -1187.88 2279.5
-1618.26 -1191.46 2286.4
-1621.42 -1198.18 2299.3
-1625.06 -1205.30 2313.0
-1627.59 -1211.65 2325.1
-1613.24 -1205.43 2313.2
-1610.47 -1207.85 2317.8
-1637.50 -1232.72 2365.6
-1621.04 -1224.92 2350.6
-1584.33 -1201.70 2306.0
-1589.83 -1210.44 2322.8
-1574.55 -1203.37 2309.2
-1555.71 -1193.51 2290.3
-1586.85 -1222.06 2345.1
-1597.26 -1234.80 2369.6
-1569.19 -1217.79 2336.9
-1555.53 -1211.86 2325.5
-1535.80 -1201.15 2305.0
-1492.70 -1181.23 2266.8
-1548.14 -1229.95 2360.2
-1554.59 -1239.97 2379.5
-1503.48 -1203.98 2310.4
-1469.58 -1181.54 2267.4
-1489.00 -1201.97 2306.5
-1468.15 -1189.91 2283.4
-1512.11 -1240.54 2380.6
-1485.40 -1223.63 2348.1
-1430.52 -1183.27 2270.7
-1437.21 -1193.72 2290.7
-1461.27 -1218.73 2338.7
-1470.15 -1231.25 2362.7
-1511.68 -1271.33 2439.6
-1526.49 -1289.18 2473.9
-1433.51 -1215.76 2333.0
-1368.61 -1185.73 2275.4
-1386.52 -1206.45 2315.2
-1370.15 -1197.39 2297.8
-1348.25 -1183.40 2270.9
-1348.74 -1189.02 2281.7
-1376.94 -1219.23 2339.7
-1367.10 -1215.87 2333.2
-1332.46 -1190.33 2284.2
-1307.93 -1184.21 2272.5
-1304.61 -1186.54 2277.0
-1299.46 -1187.23 2278.3
-1317.24 -1208.97 2320.0
-1317.81 -1215.04 2331.6
-1287.52 -1192.59 2288.6
-1268.98 -1180.85 2266.0
-1278.44 -1195.19 2293.5
-1297.05 -1218.26 2337.8
-1293.48 -1220.61 2342.3
-1259.22 -1193.89 2291.0
-1257.47 -1197.88 2298.7
-1284.82 -1229.75 2359.9
-1269.45 -1220.86 2342.8
-1250.71 -1208.62 2319.3
-1241.94 -1205.94 2314.2
-1216.07 -1186.55 2277.0
-1196.89 -1185.10 2274.2
-1202.15 -1196.20 2295.5
-1187.32 -1193.26 2289.8
-1195.31 -1207.33 2316.8
-1178.33 -1196.18 2295.4
-1195.26 -1219.53 2340.2
-1200.08 -1230.69 2361.7
-1192.53 -1229.22 2358.8
-1220.01 -1264.04 2425.7
-1223.69 -1274.41 2445.6
-1194.56 -1250.55 2399.8
-1192.56 -1255.00 2408.3
-1195.72 -1264.95 2427.4
-1192.42 -1268.13 2433.5
-1193.86 -1276.41 2449.4
-1184.55 -1273.23 2443.3
-1156.39 -1249.65 2398.0
-1116.29 -1212.84 2327.4
-1102.61 -1204.48 2311.4
-1130.09 -1241.25 2381.9
-1148.39 -1268.27 2433.8
-1141.09 -1267.18 2431.7
-1098.62 -1226.79 2354.2
-1072.37 -1217.78 2336.9
-1121.56 -1280.87 2458.0
-1127.65 -1295.18 2485.4
-1070.84 -1237.00 2373.8
-1041.50 -1210.07 2322.1
-1055.79 -1233.80 2367.6
-1046.08 -1229.61 2359.6
-1036.41 -1225.40 2351.5
-1047.78 -1246.17 2391.4
-1057.52 -1265.24 2428.0
-1062.79 -1279.16 2454.7
-1091.46 -1321.59 2536.1
-1060.91 -1300.26 2495.2
-1047.52 -1291.72 2478.8
-1037.34 -1287.07 2469.9
-1000.12 -1248.60 2396.0
-982.22 -1233.91 2367.9
-978.18 -1236.57 2372.9
-1002.11 -1274.84 2446.4
-1013.82 -1297.94 2490.7
-989.87 -1275.41 2447.5
-1001.36 -1298.54 2491.9
-983.27 -1283.36 2462.7
-954.69 -1254.21 2406.8
-988.06 -1306.59 2507.3
-984.89 -1311.01 2515.8
-975.48 -1307.14 2508.4
-934.24 -1295.06 2485.2
-897.64 -1252.95 2404.4
-893.26 -1255.57 2409.4
-933.86 -1321.88 2536.7
-919.03 -1328.95 2550.2
-825.50 -1296.29 2487.6
-814.51 -1289.11 2473.8
-825.29 -1316.54 2526.4
-773.32 -1328.53 2549.4
-758.91 -1315.00 2523.5
-738.99 -1291.63 2478.6
-740.59 -1305.77 2505.7
-737.14 -1322.90 2538.6
-721.07 -1305.72 2505.6
-695.59 -1271.04 2439.1
-686.97 -1266.80 2431.0
-673.38 -1340.10 2571.6
-659.21 -1325.01 2542.7
-626.93 -1326.46 2545.4
-626.12 -1338.84 2569.2
-594.39 -1342.39 2576.0
-580.05 -1324.88 2542.4
-573.91 -1325.92 2544.4
-555.92 -1299.30 2493.3
-525.53 -1242.72 2384.8
-526.91 -1276.02 2448.6
-527.86 -1326.24 2545.0
-513.79 -1307.23 2508.5
-509.25 -1312.30 2518.3
-509.37 -1329.66 2551.6
-509.50 -1347.48 2585.8
-502.82 -1347.55 2585.9
-491.94 -1336.22 2564.2
-486.30 -1339.00 2569.5
-477.04 -1350.49 2591.6
-449.80 -1329.57 2551.4
-448.22 -1344.65 2580.3
-406.89 -1277.89 2452.2
-384.47 -1226.63 2353.9
-384.27 -1245.78 2390.6
-388.75 -1280.96 2458.1
-397.53 -1331.72 2555.5
-397.61 -1354.57 2599.4
-389.01 -1348.11 2587.0
-366.07 -1337.84 2567.3
-347.46 -1343.08 2577.3
-332.84 -1311.78 2517.3
-316.12 -1270.80 2438.6
-315.14 -1292.71 2480.7
-292.18 -1334.75 2561.3
-273.01 -1276.18 2449.0
-267.69 -1281.07 2458.3
-264.84 -1298.37 2491.5
-261.28 -1312.91 2519.4
-256.31 -1321.01 2535.0
-247.79 -1310.69 2515.2
-240.89 -1308.64 2511.3
-237.48 -1325.93 2544.4
-234.54 -1346.91 2584.7
-229.67 -1357.75 2605.5
-200.93 -1346.22 2583.4
-159.78 -1338.14 2567.9
-148.70 -1299.54 2493.8
-142.15 -1298.77 2492.3
-139.37 -1334.00 2559.9
-121.28 -1354.26 2598.8
-92.17 -1323.31 2539.4
-84.85 -1311.86 2517.4
-54.05 -1357.96 2605.9
-47.42 -1361.72 2613.1
-13.60 -1366.50 2622.3
13.37 -1343.39 2577.9
20.50 -1373.41 2635.5
54.53 -1369.98 2629.0
75.32 -1376.24 2641.0
115.10 -1360.85 2611.4
115.65 -1291.47 2478.3
120.89 -1278.88 2454.1
126.32 -1269.51 2436.2
135.85 -1300.30 2495.2
156.99 -1371.99 2632.8
157.02 -1315.06 2523.6
166.01 -1334.73 2561.3
170.30 -1316.56 2526.5
174.53 -1299.31 2493.4
191.19 -1372.45 2633.7
197.52 -1369.02 2627.1
197.07 -1320.40 2533.8
204.11 -1323.41 2539.6
210.88 -1324.58 2541.8
223.48 -1361.21 2612.1
245.48 -1370.61 2630.2
246.23 -1337.65 2566.9
252.40 -1335.09 2562.0
263.55 -1358.29 2606.5
267.50 -1344.20 2579.5
264.65 -1297.45 2489.8
273.07 -1306.83 2507.8
289.44 -1352.99 2596.3
296.01 -1352.22 2594.9
300.40 -1341.79 2574.9
303.01 -1324.01 2540.7
301.57 -1289.69 2474.9
305.17 -1277.88 2452.2
308.53 -1265.62 2428.7
320.12 -1286.87 2469.5
343.55 -1354.00 2598.3
352.21 -1361.44 2612.6
355.14 -1346.85 2584.6
354.84 -1320.79 2534.6
360.45 -1271.08 2439.2
374.33 -1297.26 2489.4
381.48 -1299.62 2493.9
380.99 -1276.33 2449.2
388.47 -1280.04 2456.4
409.67 -1328.13 2548.7
419.59 -1338.68 2568.9
421.74 -1324.52 2541.7
426.71 -1319.51 2532.1
421.87 -1284.80 2465.5
428.12 -1284.36 2464.6
452.58 -1337.78 2567.2
466.91 -1360.13 2610.1
461.91 -1326.34 2545.2
466.73 -1321.30 2535.5
478.03 -1334.49 2560.9
471.74 -1298.90 2492.6
465.78 -1265.15 2427.8
475.46 -1274.23 2445.2
485.74 -1284.66 2465.2
486.36 -1269.60 2436.3
513.00 -1273.00 2442.9
527.27 -1292.45 2480.2
523.16 -1266.94 2431.2
538.19 -1272.66 2442.2
579.78 -1355.07 2600.3
584.50 -1350.39 2591.4
576.28 -1316.27 2525.9
571.94 -1291.69 2478.7
583.37 -1302.87 2500.2
596.96 -1318.55 2530.3
599.51 -1309.80 2513.5
619.55 -1339.02 2569.5
629.29 -1345.61 2582.2
610.72 -1292.15 2479.6
606.72 -1270.32 2437.7
632.55 -1310.74 2515.3
658.98 -1351.58 2593.6
646.73 -1313.06 2519.7
638.55 -1270.78 2438.6
653.90 -1288.58 2472.7
664.12 -1296.01 2487.0
673.48 -1301.63 2497.8
680.77 -1303.20 2500.8
689.26 -1307.00 2508.1
683.21 -1283.42 2462.9
733.99 -1294.15 2483.4
757.91 -1324.69 2542.0
742.93 -1287.32 2470.3
937.17 -1290.22 2475.9
-1769.09 -1164.02 2222.7
-1755.45 -1158.83 2212.8
-1734.30 -1160.03 2215.0
-1738.53 -1198.58 2288.7
-1745.58 -1207.56 2305.8
-1687.55 -1171.43 2236.8
-1678.33 -1185.39 2263.5
-1640.90 -1171.24 2236.5
-1648.78 -1181.04 2255.2
-1606.55 -1171.56 2237.1
-1632.40 -1194.72 2281.3
-1665.02 -1223.03 2335.3
-1696.90 -1251.00 2388.8
-1672.80 -1237.75 2363.5
-1651.44 -1226.44 2341.9
-1597.92 -1191.07 2274.3
-1585.72 -1190.76 2273.7
-1635.96 -1233.07 2354.5
-1620.55 -1226.03 2341.1
-1565.56 -1188.89 2270.1
-1533.11 -1173.06 2239.9
-1551.09 -1191.33 2274.8
-1564.30 -1206.06 2302.9
-1572.25 -1216.83 2323.5
-1560.63 -1212.49 2315.2
-1541.37 -1202.15 2295.5
-1540.54 -1206.16 2303.1
-1555.94 -1222.95 2335.2
-1529.14 -1206.59 2303.9
-1478.20 -1170.97 2235.9
-1504.61 -1196.58 2284.8
-1480.59 -1182.13 2257.3
-1484.84 -1199.75 2290.9
-1464.97 -1188.45 2269.3
-1489.80 -1228.32 2345.5
-1455.35 -1204.84 2300.6
-1410.36 -1172.40 2238.7
-1421.96 -1186.92 2266.4
-1470.73 -1232.73 2353.9
-1504.19 -1266.03 2417.4
-1484.46 -1254.65 2395.7
-1437.95 -1220.45 2330.4
-1433.29 -1221.62 2332.7
-1431.96 -1225.66 2340.4
-1371.21 -1178.66 2250.6
-1353.84 -1178.77 2250.8
-1384.43 -1210.63 2311.7
-1386.29 -1217.52 2324.8
-1361.09 -1200.61 2292.5
-1354.57 -1200.10 2291.6
-1354.99 -1205.76 2302.4
-1320.80 -1180.54 2254.2
-1315.28 -1180.82 2254.8
-1318.43 -1188.94 2270.3
-1315.27 -1202.20 2295.6
-1343.46 -1233.54 2355.4
-1334.99 -1231.36 2351.3
-1309.08 -1213.00 2316.2
-1326.57 -1234.87 2358.0
-1358.55 -1270.50 2426.0
-1321.18 -1241.29 2370.2
-1291.97 -1219.52 2328.7
-1295.45 -1228.55 2345.9
-1268.65 -1208.81 2308.2
-1249.85 -1196.54 2284.8
-1258.08 -1210.15 2310.8
-1251.48 -1209.56 2309.6
-1242.30 -1206.46 2303.7
-1240.86 -1210.89 2312.2
-1219.71 -1196.03 2283.8
-1241.28 -1223.12 2335.5
-1268.99 -1256.55 2399.3
-1255.43 -1249.24 2385.4
-1230.98 -1230.98 2350.5
-1193.69 -1199.63 2290.7
-1196.72 -1208.68 2308.0
-1221.28 -1239.69 2367.2
-1221.99 -1246.68 2380.5
-1200.38 -1230.85 2350.3
-1168.64 -1204.41 2299.8
-1156.32 -1197.83 2287.2
-1179.05 -1227.67 2344.2
-1209.63 -1266.04 2417.5
-1206.40 -1269.24 2423.6
-1189.89 -1258.42 2402.9
-1183.06 -1257.78 2401.7
-1178.22 -1259.26 2404.5
-1176.53 -1264.15 2413.9
-1162.18 -1255.40 2397.2
-1130.60 -1227.86 2344.6
-1125.45 -1228.88 2346.5
-1145.99 -1258.09 2402.3
-1162.39 -1283.08 2450.0
-1171.64 -1300.40 2483.1
-1149.27 -1282.61 2449.1
-1089.60 -1222.77 2334.8
-1057.80 -1193.72 2279.4
-1067.50 -1211.43 2313.2
-1075.54 -1227.45 2343.8
-1101.42 -1264.13 2413.8
-1116.92 -1289.24 2461.8
-1069.86 -1242.02 2371.6
-1020.26 -1205.22 2301.3
-1061.64 -1261.48 2408.8
-1042.47 -1246.02 2379.3
-1020.18 -1226.64 2342.2
-1042.46 -1260.94 2407.7
-1049.34 -1300.42 2483.1
-1013.01 -1263.13 2411.9
-983.23 -1233.62 2355.6
-975.78 -1231.92 2352.3
-959.77 -1219.33 2328.3
-972.17 -1242.91 2373.3
-1013.20 -1303.61 2489.2
-1018.28 -1318.54 2517.7
-988.34 -1288.03 2459.5
-929.99 -1219.86 2329.3
-930.44 -1236.50 2361.1
-962.33 -1287.35 2458.2
-933.98 -1301.13 2484.5
-890.18 -1248.73 2384.4
-893.97 -1262.81 2411.3
-895.33 -1301.13 2484.5
-897.94 -1314.37 2509.8
-877.78 -1313.42 2507.9
-862.13 -1299.63 2481.6
-864.72 -1313.34 2507.8
-854.42 -1307.52 2496.7
-846.47 -1305.24 2492.3
-837.10 -1300.73 2483.7
-829.96 -1320.09 2520.7
-824.49 -1321.79 2523.9
-779.97 -1302.09 2486.3
-752.72 -1267.08 2419.5
-764.29 -1297.36 2477.3
-774.52 -1325.88 2531.7
-753.09 -1300.21 2482.7
-732.15 -1274.96 2434.5
-744.64 -1307.98 2497.6
-737.65 -1330.40 2540.4
-728.25 -1325.29 2530.6
-709.10 -1302.17 2486.5
-675.11 -1251.13 2389.0
-693.35 -1296.83 2476.3
-701.35 -1336.53 2552.1
-668.30 -1323.49 2527.2
-658.69 -1317.39 2515.5
-657.20 -1327.55 2534.9
-562.16 -1335.96 2551.0
-557.30 -1340.18 2559.0
-544.35 -1324.80 2529.7
-541.53 -1334.02 2547.3
-530.03 -1338.31 2555.5
-522.01 -1334.75 2548.7
-474.93 -1351.22 2580.1
-463.65 -1337.97 2554.8
-438.93 -1323.34 2526.9
-438.07 -1340.76 2560.2
-414.03 -1306.78 2495.3
-386.36 -1238.79 2365.4
-382.46 -1246.08 2379.4
-386.82 -1280.94 2445.9
-394.66 -1328.68 2537.1
-394.37 -1350.23 2578.2
-385.17 -1341.44 2561.5
-356.79 -1310.41 2502.2
-350.04 -1309.39 2500.3
-352.47 -1343.38 2565.1
-347.34 -1349.27 2576.4
-336.56 -1333.05 2545.4
-322.98 -1304.82 2491.5
-315.48 -1300.55 2483.4
-319.75 -1345.61 2569.4
-291.37 -1337.67 2554.2
-270.96 -1272.87 2430.5
-264.43 -1271.77 2428.4
-256.87 -1265.58 2416.6
-248.92 -1257.07 2400.3
-249.71 -1293.37 2469.7
-245.88 -1307.04 2495.8
-237.59 -1297.12 2476.8
-232.94 -1307.08 2495.8
-227.16 -1311.02 2503.4
-219.77 -1305.71 2493.2
-216.22 -1323.52 2527.2
-213.29 -1346.41 2570.9
-207.37 -1351.27 2580.2
-168.82 -1364.04 2604.6
-158.07 -1330.40 2540.4
-147.07 -1291.65 2466.4
-140.94 -1294.12 2471.1
-138.89 -1335.97 2551.0
-120.57 -1353.07 2583.6
-112.63 -1338.36 2555.6
-104.62 -1320.85 2522.1
-86.25 -1340.17 2559.0
-81.16 -1366.23 2608.8
-67.16 -1356.65 2590.5
-13.15 -1327.76 2535.3
-6.48 -1309.22 2499.9
0.00 -1302.26 2486.6
6.56 -1325.45 2530.9
13.38 -1350.96 2579.6
19.88 -1338.42 2555.7
26.30 -1328.19 2536.1
32.58 -1316.09 2513.0
38.25 -1287.76 2458.9
46.22 -1333.64 2546.5
114.97 -1366.17 2608.7
118.55 -1330.35 2540.3
125.38 -1333.00 2545.3
132.29 -1336.11 2551.3
135.52 -1303.53 2489.1
144.68 -1328.40 2536.6
155.77 -1368.09 2612.3
161.81 -1361.90 2600.5
165.78 -1339.49 2557.7
165.05 -1282.35 2448.6
169.65 -1269.20 2423.5
186.62 -1346.34 2570.8
196.45 -1368.36 2612.8
199.27 -1341.76 2562.1
207.44 -1351.73 2581.1
215.35 -1359.37 2595.7
225.59 -1380.88 2636.8
243.24 -1364.87 2606.2
242.93 -1326.25 2532.4
247.36 -1314.89 2510.8
255.96 -1325.72 2531.4
257.80 -1301.88 2485.9
261.09 -1286.36 2456.3
276.14 -1328.11 2536.0
312.20 -1341.79 2562.1
310.00 -1304.56 2491.0
315.93 -1302.39 2486.9
330.85 -1336.62 2552.3
345.98 -1370.37 2616.7
344.61 -1338.68 2556.2
345.10 -1315.29 2511.5
342.41 -1280.85 2445.8
344.64 -1265.76 2416.9
361.26 -1303.13 2488.3
372.02 -1318.38 2517.4
379.89 -1323.05 2526.3
393.03 -1345.64 2569.5
396.98 -1336.49 2552.0
401.52 -1329.64 2538.9
420.38 -1369.63 2615.3
415.71 -1332.92 2545.2
402.69 -1270.97 2426.9
419.18 -1302.67 2487.4
426.08 -1304.07 2490.1
423.42 -1276.57 2437.6
439.92 -1306.83 2495.4
461.11 -1349.90 2577.6
462.86 -1335.68 2550.4
457.71 -1302.23 2486.6
460.24 -1291.22 2465.6
468.61 -1296.69 2476.0
475.52 -1298.03 2478.6
491.09 -1322.68 2525.6
508.97 -1352.79 2583.1
503.45 -1320.74 2521.9
489.86 -1268.61 2422.4
494.87 -1265.36 2416.2
512.50 -1294.05 2471.0
518.51 -1293.07 2469.1
525.80 -1295.26 2473.3
547.34 -1332.09 2543.6
558.06 -1342.00 2562.5
561.20 -1333.68 2546.6
575.31 -1351.31 2580.3
576.65 -1338.89 2556.6
563.61 -1293.73 2470.4
567.55 -1288.15 2459.7
588.04 -1319.83 2520.2
605.35 -1343.74 2565.8
611.31 -1342.22 2562.9
608.47 -1321.63 2523.6
594.47 -1277.47 2439.3
635.64 -1271.29 2427.5
653.70 -1294.58 2472.0
660.46 -1295.28 2473.3
666.30 -1294.16 2471.2
667.43 -1284.01 2451.8
669.89 -1276.57 2437.6
720.35 -1276.40 2437.3
756.39 -1328.61 2537.0
752.49 -1310.37 2502.1
743.23 -1283.19 2450.2
777.04 -1286.58 2456.7
805.78 -1323.31 2526.8
815.67 -1328.76 2537.2
824.80 -1281.61 2447.2
938.52 -1289.66 2462.6
967.09 -1319.95 2520.4
-1707.56 -1187.10 2255.6
-1679.09 -1171.32 2225.6
-1674.33 -1188.42 2258.1
-1656.55 -1179.93 2241.9
-1624.18 -1169.18 2221.5
-1624.99 -1173.93 2230.5
-1587.82 -1167.85 2219.0
-1605.58 -1185.21 2252.0
-1630.67 -1208.13 2295.5
-1599.86 -1189.64 2260.4
-1616.29 -1206.28 2292.0
-1598.28 -1197.24 2274.8
-1552.98 -1171.95 2226.8
-1581.79 -1198.15 2276.6
-1544.60 -1174.36 2231.4
-1545.07 -1179.13 2240.4
-1565.25 -1199.04 2278.3
-1538.65 -1183.13 2248.0
-1526.12 -1177.95 2238.2
-1531.13 -1186.33 2254.1
-1537.62 -1195.93 2272.3
-1519.44 -1186.33 2254.1
-1491.63 -1169.11 2221.4
-1492.46 -1174.30 2231.3
-1514.07 -1195.94 2272.4
-1546.66 -1226.46 2330.4
-1553.78 -1236.93 2350.3
-1527.58 -1220.86 2319.7
-1472.20 -1195.43 2271.4
-1448.42 -1180.84 2243.7
-1433.24 -1182.71 2247.2
-1470.46 -1218.38 2315.0
-1448.31 -1204.95 2289.5
-1414.08 -1181.31 2244.6
-1402.63 -1186.39 2254.2
-1410.16 -1197.75 2275.8
-1380.70 -1177.65 2237.6
-1389.12 -1189.84 2260.8
-1450.77 -1247.91 2371.1
-1452.66 -1254.85 2384.3
-1370.76 -1189.16 2259.5
-1353.18 -1184.03 2249.7
-1374.39 -1207.79 2294.9
-1363.20 -1203.17 2286.1
-1322.38 -1177.38 2237.1
-1325.21 -1185.10 2251.8
-1328.75 -1204.18 2288.0
-1329.51 -1210.27 2299.6
-1310.77 -1209.49 2298.1
-1308.26 -1212.68 2304.2
-1308.85 -1218.80 2315.8
-1349.95 -1262.86 2399.5
-1364.05 -1281.95 2435.8
-1309.43 -1236.34 2349.1
-1253.84 -1189.39 2259.9
-1270.62 -1216.67 2311.8
-1310.64 -1260.95 2395.9
-1288.24 -1245.30 2366.2
-1250.40 -1214.50 2307.6
-1239.06 -1209.28 2297.7
-1232.92 -1209.09 2297.4
-1205.30 -1193.54 2267.8
-1260.25 -1254.07 2382.8
-1269.53 -1269.53 2412.2
-1250.08 -1256.27 2387.0
-1216.51 -1228.61 2334.4
-1189.41 -1207.25 2293.9
-1186.56 -1210.41 2299.9
-1175.42 -1205.10 2289.8
-1157.35 -1198.68 2277.6
-1190.41 -1239.25 2354.7
-1164.58 -1218.61 2315.4
-1142.56 -1201.76 2283.4
-1148.49 -1214.28 2307.2
-1142.27 -1214.03 2306.7
-1121.66 -1198.40 2277.1
-1143.40 -1234.62 2345.9
-1175.72 -1276.31 2425.1
-1148.81 -1253.81 2382.3
-1145.93 -1257.42 2389.2
-1147.67 -1266.18 2405.8
-1144.31 -1269.37 2411.9
-1164.42 -1298.77 2467.8
-1152.44 -1292.52 2455.9
-1125.25 -1269.03 2411.2
-1126.36 -1277.38 2427.1
-1114.54 -1271.08 2415.1
-1099.38 -1260.88 2395.8
-1091.05 -1258.43 2391.1
-1071.56 -1243.00 2361.8
-1052.56 -1227.99 2333.3
-1020.78 -1211.80 2302.5
-1078.10 -1287.38 2446.1
-1073.67 -1289.68 2450.5
-1051.60 -1270.68 2414.4
-1074.41 -1306.02 2481.5
-1071.28 -1310.06 2489.2
-1048.29 -1289.72 2450.6
-1040.97 -1288.52 2448.3
-1019.64 -1269.86 2412.8
-1000.91 -1254.22 2383.1
-989.93 -1248.17 2371.6
-981.07 -1244.73 2365.1
-963.32 -1229.90 2336.9
-956.94 -1229.49 2336.1
-979.71 -1266.76 2406.9
-987.33 -1284.79 2441.2
-959.26 -1256.32 2387.1
-942.77 -1242.74 2361.3
-954.87 -1266.92 2407.2
-969.40 -1294.65 2459.9
-965.52 -1324.33 2516.3
-948.48 -1309.81 2488.7
-940.78 -1308.07 2485.4
-909.41 -1273.18 2419.1
-889.64 -1254.15 2383.0
-918.36 -1303.68 2477.1
-923.39 -1320.06 2508.2
-899.66 -1295.25 2461.1
-884.70 -1282.82 2437.4
-871.68 -1273.02 2418.8
-889.82 -1308.94 2487.1
-861.00 -1304.35 2478.4
-841.99 -1285.14 2441.9
-826.92 -1271.70 2416.3
-813.98 -1261.36 2396.7
-819.42 -1279.56 2431.2
-786.95 -1320.26 2508.6
-767.64 -1298.58 2467.4
-734.97 -1275.21 2423.0
-720.62 -1261.09 2396.2
-740.33 -1306.84 2483.1
-727.45 -1318.50 2505.3
-709.01 -1296.67 2463.8
-708.15 -1306.86 2483.1
-692.15 -1289.04 2449.3
-704.20 -1323.64 2515.0
-674.05 -1328.48 2524.2
-655.77 -1305.12 2479.8
-648.09 -1302.61 2475.0
-652.96 -1325.50 2518.5
-575.77 -1313.28 2495.3
-578.27 -1333.96 2534.6
-534.32 -1322.76 2513.3
-519.07 -1300.88 2471.8
-525.87 -1334.39 2535.4
-454.61 -1318.36 2505.0
-447.80 -1317.45 2503.3
-447.48 -1335.86 2538.2
-439.53 -1331.72 2530.4
-431.63 -1327.57 2522.5
-425.23 -1328.02 2523.3
-415.19 -1316.94 2502.3
-400.54 -1290.64 2452.3
-401.35 -1314.11 2496.9
-392.62 -1350.88 2566.8
-375.27 -1313.43 2495.6
-369.55 -1316.13 2500.7
-353.23 -1327.90 2523.1
-347.75 -1331.97 2530.8
-343.42 -1340.65 2547.3
-334.00 -1329.45 2526.0
-321.95 -1307.12 2483.6
-316.38 -1310.70 2490.4
-319.30 -1350.38 2565.8
-304.26 -1342.70 2551.2
-284.06 -1281.41 2434.8
-281.12 -1296.99 2464.4
-275.19 -1299.14 2468.5
-264.92 -1280.42 2432.9
-254.64 -1260.76 2395.5
-248.39 -1260.57 2395.2
-249.62 -1299.33 2468.8
-250.92 -1340.42 2546.9
-248.25 -1362.03 2587.9
-235.17 -1326.08 2519.7
-221.23 -1283.16 2438.1
-215.57 -1287.10 2445.6
-212.97 -1310.08 2489.3
-210.43 -1334.92 2536.4
-205.38 -1344.90 2555.4
-199.75 -1351.62 2568.2
-180.72 -1358.73 2581.7
-173.81 -1357.06 2578.5
-166.69 -1353.52 2571.8
-158.34 -1339.28 2544.7
-149.49 -1319.45 2507.0
-144.07 -1329.37 2525.9
-124.51 -1330.27 2527.6
-115.37 -1301.08 2472.1
-107.88 -1288.17 2447.6
-100.99 -1281.30 2434.6
-99.09 -1340.98 2548.0
-72.84 -1344.14 2554.0
-65.60 -1331.65 2530.2
-20.10 -1359.91 2583.9
-12.60 -1279.35 2430.9
-6.30 -1278.43 2429.1
0.00 -1291.48 2453.9
6.55 -1330.60 2528.2
13.35 -1354.80 2574.2
19.84 -1342.68 2551.2
26.12 -1325.42 2518.4
32.24 -1309.09 2487.4
39.27 -1328.61 2524.5
80.80 -1366.87 2597.2
85.02 -1327.68 2522.7
107.12 -1359.02 2582.2
109.20 -1303.99 2477.7
115.57 -1303.41 2476.6
125.55 -1341.43 2548.8
135.95 -1379.91 2621.9
147.04 -1356.82 2578.0
152.18 -1343.17 2552.1
159.44 -1348.58 2562.4
164.40 -1334.93 2536.5
168.99 -1319.40 2507.0
179.85 -1352.23 2569.3
194.05 -1358.33 2580.9
196.79 -1331.64 2530.2
204.95 -1342.11 2550.1
213.95 -1357.22 2578.8
233.88 -1356.51 2577.5
237.72 -1340.47 2547.0
238.95 -1310.98 2491.0
245.70 -1312.58 2494.0
256.13 -1333.19 2533.2
262.28 -1331.06 2529.1
270.74 -1340.52 2547.1
283.04 -1368.04 2599.4
317.11 -1341.12 2548.2
316.04 -1309.31 2487.8
326.62 -1326.09 2519.7
337.14 -1341.94 2549.8
334.77 -1306.89 2483.2
334.24 -1280.19 2432.4
338.73 -1273.36 2419.5
348.03 -1284.55 2440.7
356.93 -1293.88 2458.5
359.31 -1279.65 2431.4
376.19 -1316.66 2501.8
400.53 -1378.11 2618.5
401.26 -1292.95 2456.7
408.86 -1276.89 2426.2
434.17 -1335.40 2537.4
449.41 -1361.65 2587.2
456.88 -1363.93 2591.6
469.38 -1380.93 2623.9
475.70 -1379.52 2621.2
474.92 -1357.88 2580.1
469.05 -1322.46 2512.8
468.45 -1302.68 2475.2
481.89 -1321.93 2511.8
502.29 -1359.52 2583.2
517.20 -1381.48 2624.9
510.06 -1344.71 2555.0
498.34 -1296.96 2464.3
505.59 -1299.19 2468.5
513.95 -1304.16 2478.0
511.58 -1282.10 2436.1
523.04 -1294.84 2460.3
550.52 -1346.46 2558.4
557.86 -1348.17 2561.6
556.23 -1328.40 2524.0
572.98 -1352.49 2569.8
576.45 -1345.05 2555.7
565.60 -1304.74 2479.1
571.97 -1304.61 2478.9
583.80 -1316.79 2502.0
591.86 -1320.30 2508.7
596.85 -1316.95 2502.3
592.83 -1294.02 2458.7
619.28 -1269.85 2412.8
632.83 -1284.65 2440.9
642.90 -1292.17 2455.2
658.51 -1310.56 2490.2
664.39 -1309.44 2488.0
661.68 -1291.55 2454.0
689.96 -1284.97 2441.5
704.97 -1300.99 2472.0
736.53 -1277.91 2428.1
748.41 -1287.51 2446.4
779.78 -1297.50 2465.3
792.76 -1308.38 2486.0
838.95 -1373.44 2609.6
846.03 -1373.95 2610.6
793.96 -1279.16 2430.5
959.74 -1316.40 2501.2
-1643.78 -1164.34 2201.5
-1621.05 -1176.85 2225.1
-1659.64 -1209.16 2286.2
-1629.03 -1191.12 2252.1
-1585.35 -1167.55 2207.5
-1585.54 -1171.92 2215.8
-1598.10 -1203.00 2274.6
-1593.31 -1203.84 2276.2
-1571.20 -1191.54 2252.9
-1549.16 -1179.21 2229.6
-1528.78 -1168.06 2208.5
-1552.20 -1190.41 2250.8
-1570.26 -1208.80 2285.5
-1536.41 -1187.23 2244.8
-1532.15 -1188.43 2247.0
-1545.37 -1203.26 2275.1
-1540.51 -1204.08 2276.6
-1509.54 -1184.41 2239.4
-1493.00 -1175.95 2223.4
-1504.00 -1189.21 2248.5
-1490.54 -1183.15 2237.1
-1485.22 -1183.53 2237.8
-1474.33 -1179.47 2230.1
-1473.52 -1207.22 2282.6
-1512.53 -1244.18 2352.4
-1513.33 -1249.88 2363.2
-1547.49 -1283.28 2426.4
-1536.83 -1279.65 2419.5
-1463.72 -1223.77 2313.8
-1426.55 -1197.60 2264.4
-1389.15 -1200.79 2270.4
-1459.99 -1267.39 2396.3
-1443.35 -1258.30 2379.1
-1399.93 -1225.69 2317.5
-1404.16 -1234.70 2334.5
-1398.97 -1235.45 2335.9
-1362.06 -1208.09 2284.2
-1338.36 -1192.26 2254.3
-1352.76 -1210.37 2288.5
-1349.02 -1212.33 2292.2
-1313.98 -1186.07 2242.6
-1326.81 -1202.97 2274.5
-1377.40 -1254.42 2371.8
-1366.61 -1250.18 2363.8
-1311.87 -1205.50 2279.3
-1279.15 -1180.76 2232.5
-1288.05 -1194.37 2258.3
-1271.71 -1184.60 2239.8
-1276.21 -1199.75 2268.4
-1265.72 -1195.40 2260.2
-1293.83 -1250.91 2365.2
-1302.73 -1265.51 2392.8
-1264.86 -1234.60 2334.3
-1253.48 -1229.37 2324.4
-1240.41 -1222.44 2311.3
-1198.80 -1187.16 2244.6
-1194.04 -1188.21 2246.6
-1234.58 -1234.58 2334.3
-1249.43 -1255.58 2374.0
-1234.70 -1246.92 2357.6
-1238.03 -1256.51 2375.7
-1247.94 -1272.90 2406.7
-1206.68 -1236.99 2338.9
-1156.61 -1191.66 2253.1
-1162.88 -1210.34 2288.5
-1187.72 -1242.54 2349.3
-1153.38 -1212.84 2293.2
-1118.86 -1188.79 2247.7
-1103.19 -1197.08 2263.4
-1155.75 -1260.81 2383.9
-1148.95 -1260.14 2382.6
-1145.28 -1262.90 2387.8
-1148.18 -1272.99 2406.9
-1119.67 -1248.16 2360.0
-1111.00 -1245.30 2354.6
-1141.04 -1286.04 2431.6
-1155.87 -1309.99 2476.9
-1140.89 -1300.23 2458.4
-1115.78 -1278.76 2417.8
-1069.81 -1233.00 2331.3
-1031.32 -1195.39 2260.2
-1036.32 -1208.06 2284.1
-1038.99 -1218.13 2303.2
-1034.57 -1219.96 2306.6
-1043.70 -1237.88 2340.5
-1034.79 -1234.49 2334.1
-1043.34 -1252.00 2367.2
-1046.31 -1263.00 2388.0
-1031.58 -1252.63 2368.4
-1039.09 -1269.31 2400.0
-1024.06 -1258.48 2379.5
-999.92 -1236.26 2337.5
-990.04 -1231.51 2328.5
-987.89 -1236.38 2337.7
-989.18 -1245.63 2355.2
-1000.42 -1267.61 2396.8
-1016.64 -1296.21 2450.8
-995.28 -1276.96 2414.4
-981.92 -1267.79 2397.1
-991.31 -1288.07 2435.4
-988.07 -1292.09 2443.0
-974.08 -1282.02 2424.0
-970.83 -1286.03 2431.6
-970.51 -1294.01 2446.7
-970.12 -1302.00 2461.8
-975.87 -1318.39 2492.7
-967.49 -1315.78 2487.8
-956.22 -1309.19 2475.4
-950.79 -1310.54 2477.9
-901.60 -1251.20 2365.7
-861.82 -1204.18 2276.8
-864.39 -1216.10 2299.4
-875.62 -1240.46 2345.4
-897.54 -1280.40 2420.9
-896.82 -1288.38 2436.0
-897.86 -1299.04 2456.2
-910.12 -1326.17 2507.5
-891.77 -1308.79 2474.6
-875.44 -1313.16 2482.9
-853.72 -1329.46 2513.7
-788.58 -1329.50 2513.8
-750.04 -1307.76 2472.7
-746.11 -1312.12 2480.9
-748.51 -1327.78 2510.5
-717.18 -1318.06 2492.1
-706.46 -1310.16 2477.2
-707.69 -1324.48 2504.3
-652.07 -1330.22 2515.1
-644.70 -1342.03 2537.5
-627.15 -1318.95 2493.8
-631.94 -1342.88 2539.1
-618.10 -1341.42 2536.3
-600.56 -1317.35 2490.8
-603.25 -1337.64 2529.1
-534.14 -1328.83 2512.5
-524.19 -1320.18 2496.1
-443.43 -1311.02 2478.8
-427.00 -1280.99 2422.0
-433.76 -1320.71 2497.1
-427.73 -1342.42 2538.2
-413.16 -1316.96 2490.0
-406.70 -1316.92 2490.0
-381.86 -1343.08 2539.4
-360.62 -1290.63 2440.3
-353.88 -1289.15 2437.5
-352.17 -1306.22 2469.7
-342.91 -1295.45 2449.4
-342.32 -1317.62 2491.3
-343.41 -1347.23 2547.3
-331.32 -1325.30 2505.8
-317.17 -1294.06 2446.8
-307.11 -1278.60 2417.5
-304.42 -1293.79 2446.2
-303.31 -1345.10 2543.3
-284.17 -1288.22 2435.7
-281.73 -1306.19 2469.7
-276.56 -1312.07 2480.8
-267.51 -1299.33 2456.7
-263.35 -1310.32 2477.5
-262.46 -1338.53 2530.8
-257.19 -1345.32 2543.7
-253.43 -1360.50 2572.4
-227.16 -1323.99 2503.3
-221.40 -1328.42 2511.7
-196.38 -1335.38 2524.9
-193.05 -1357.97 2567.6
-177.56 -1341.57 2536.6
-169.34 -1328.69 2512.2
-165.65 -1351.74 2555.8
-152.81 -1355.35 2562.6
-131.37 -1339.93 2533.5
-121.50 -1304.57 2466.6
-114.58 -1298.62 2455.4
-110.14 -1321.63 2498.9
-105.97 -1351.18 2554.8
-97.57 -1326.99 2509.0
-89.09 -1298.12 2454.4
-84.25 -1322.05 2499.7
-78.24 -1330.08 2514.9
-72.08 -1336.70 2527.4
-66.81 -1362.95 2577.0
-59.95 -1358.81 2569.2
-52.65 -1342.51 2538.4
-46.24 -1347.71 2548.2
-39.65 -1348.22 2549.2
-33.58 -1370.23 2590.8
-19.39 -1318.39 2492.8
-12.66 -1291.76 2442.4
-6.50 -1326.37 2507.8
0.00 -1374.53 2598.9
6.63 -1352.08 2556.5
12.90 -1316.07 2488.4
19.02 -1293.15 2445.0
24.91 -1270.22 2401.7
31.77 -1296.37 2451.1
39.96 -1358.50 2568.6
52.96 -1350.46 2553.4
58.50 -1326.09 2507.3
66.86 -1363.88 2578.8
85.68 -1344.48 2542.1
103.85 -1324.08 2503.5
109.24 -1310.89 2478.6
119.37 -1352.81 2557.8
125.68 -1349.41 2551.4
131.82 -1344.60 2542.3
141.19 -1371.54 2593.2
147.29 -1365.78 2582.4
152.86 -1355.82 2563.5
160.37 -1363.12 2577.3
165.54 -1350.81 2554.0
170.53 -1338.03 2529.9
175.52 -1326.17 2507.5
180.01 -1311.52 2479.8
185.62 -1305.73 2468.8
191.10 -1299.46 2457.0
202.18 -1330.50 2515.7
215.03 -1370.85 2591.9
220.21 -1361.29 2573.9
220.86 -1325.16 2505.6
222.68 -1297.89 2454.0
228.26 -1293.46 2445.6
238.27 -1313.71 2483.9
254.47 -1366.08 2582.9
278.60 -1386.19 2620.9
282.36 -1371.46 2593.1
293.06 -1358.75 2569.1
296.99 -1346.35 2545.6
312.01 -1383.69 2616.2
313.47 -1360.58 2572.5
305.51 -1298.44 2455.0
305.89 -1273.49 2407.9
319.90 -1305.21 2467.8
334.58 -1338.30 2530.4
335.01 -1314.27 2485.0
335.09 -1289.78 2438.7
341.07 -1288.49 2436.2
349.17 -1295.09 2448.7
356.30 -1297.96 2454.1
353.23 -1264.20 2390.3
364.20 -1280.98 2422.0
387.25 -1338.97 2531.7
407.18 -1384.41 2617.6
415.70 -1367.80 2586.2
400.41 -1296.56 2451.5
406.63 -1296.14 2450.7
410.34 -1287.85 2435.0
419.21 -1295.74 2449.9
427.54 -1301.77 2461.3
428.69 -1286.07 2431.6
446.87 -1321.18 2498.0
459.84 -1340.09 2533.8
467.36 -1342.84 2539.0
468.89 -1328.51 2511.9
469.94 -1313.26 2483.1
485.73 -1339.04 2531.8
478.39 -1301.21 2460.3
479.12 -1269.36 2400.0
491.31 -1284.97 2429.6
490.46 -1266.51 2394.7
505.94 -1274.21 2409.2
529.70 -1317.80 2491.6
546.22 -1342.51 2538.4
541.98 -1316.23 2488.7
538.63 -1292.72 2444.2
553.24 -1312.35 2481.3
557.28 -1306.73 2470.7
546.44 -1266.74 2395.1
560.59 -1284.96 2429.5
583.00 -1321.46 2498.6
600.23 -1345.58 2544.2
613.56 -1360.51 2572.4
610.56 -1339.30 2532.3
601.47 -1305.31 2468.0
616.43 -1283.19 2426.2
640.56 -1319.94 2495.7
644.48 -1314.73 2485.8
655.78 -1324.55 2504.4
671.95 -1343.91 2541.0
671.07 -1329.12 2513.0
662.40 -1299.33 2456.7
666.79 -1295.47 2449.4
679.16 -1307.06 2471.3
671.87 -1280.94 2421.9
696.05 -1302.71 2463.1
703.28 -1304.27 2466.1
736.60 -1295.40 2449.3
750.40 -1286.40 2432.3
771.38 -1311.35 2479.4
773.88 -1304.72 2466.9
777.66 -1300.35 2458.6
787.27 -1295.19 2448.9
823.99 -1344.75 2542.6
801.50 -1297.66 2453.6
813.68 -1286.75 2432.9
817.19 -1282.36 2424.6
908.58 -1305.28 2468.0
901.90 -1286.62 2432.7
973.41 -1306.41 2470.1
986.06 -1314.75 2485.9
-1890.52 -1211.12 2278.8
-1739.54 -1176.91 2214.4
-1716.32 -1165.05 2192.1
-1698.52 -1164.53 2191.1
-1717.18 -1181.28 2222.6
-1738.55 -1200.01 2257.9
-1695.83 -1174.48 2209.8
-1659.61 -1181.32 2222.7
-1643.51 -1173.94 2208.8
-1621.45 -1182.91 2225.7
-1693.99 -1240.24 2333.6
-1693.47 -1244.30 2341.2
-1632.23 -1203.63 2264.7
-1630.73 -1206.86 2270.7
-1615.84 -1200.17 2258.2
-1556.59 -1168.87 2199.3
-1560.94 -1176.44 2213.5
-1562.60 -1182.04 2224.0
-1587.35 -1205.21 2267.6
-1592.52 -1213.63 2283.5
-1589.79 -1216.07 2288.1
-1584.43 -1216.51 2288.9
-1574.39 -1213.34 2282.9
-1559.69 -1206.55 2270.2
-1527.97 -1186.49 2232.4
-1522.69 -1186.89 2233.2
-1531.81 -1198.55 2255.1
-1522.37 -1195.73 2249.8
-1487.89 -1173.14 2207.3
-1519.59 -1207.42 2271.8
-1547.67 -1234.52 2322.8
-1539.14 -1232.52 2319.0
-1521.05 -1222.81 2300.7
-1454.67 -1183.37 2226.5
-1478.24 -1207.33 2271.6
-1466.85 -1202.82 2263.1
-1501.05 -1235.81 2325.2
-1524.14 -1259.88 2370.5
-1508.17 -1251.72 2355.1
-1515.31 -1262.76 2375.9
-1477.36 -1236.16 2325.9
-1452.29 -1220.16 2295.8
-1459.41 -1231.19 2316.5
-1430.59 -1211.86 2280.2
-1413.50 -1202.35 2262.3
-1442.70 -1232.31 2318.6
-1450.56 -1244.20 2341.0
-1394.69 -1201.31 2260.3
-1363.76 -1184.62 2228.9
-1399.08 -1220.47 2296.4
-1426.09 -1249.35 2350.7
-1426.05 -1254.68 2360.7
-1400.18 -1237.22 2327.9
-1366.94 -1213.09 2282.5
-1332.03 -1187.24 2233.8
-1332.19 -1197.80 2253.7
-1336.81 -1207.25 2271.5
-1302.76 -1181.71 2223.4
-1316.07 -1199.08 2256.1
-1362.09 -1246.55 2345.4
-1352.72 -1243.53 2339.7
-1303.50 -1203.68 2264.8
-1274.00 -1181.76 2223.5
-1288.74 -1200.87 2259.5
-1280.03 -1198.20 2254.5
-1273.57 -1197.62 2253.4
-1296.47 -1224.77 2304.5
-1290.78 -1225.05 2305.0
-1262.13 -1203.42 2264.3
-1244.64 -1192.29 2243.3
-1243.88 -1197.17 2252.5
-1223.88 -1183.47 2226.7
-1235.73 -1200.59 2258.9
-1262.60 -1232.54 2319.1
-1244.33 -1220.52 2296.4
-1234.75 -1216.94 2289.7
-1220.91 -1209.12 2275.0
-1212.68 -1206.79 2270.6
-1240.57 -1240.57 2334.2
-1231.37 -1237.41 2328.2
-1198.60 -1210.40 2277.4
-1206.33 -1224.24 2303.5
-1237.35 -1261.97 2374.4
-1248.91 -1280.14 2408.6
-1210.58 -1247.08 2346.4
-1200.17 -1242.60 2338.0
-1219.80 -1269.34 2388.3
-1212.60 -1268.28 2386.3
-1207.45 -1269.37 2388.4
-1170.62 -1236.99 2327.4
-1135.26 -1205.84 2268.8
-1143.21 -1220.61 2296.6
-1143.82 -1227.66 2309.9
-1129.21 -1218.36 2292.4
-1124.61 -1219.81 2295.1
-1098.24 -1197.55 2253.2
-1106.77 -1219.83 2295.1
-1134.49 -1257.13 2365.3
-1158.01 -1290.17 2427.5
-1150.72 -1289.06 2425.4
-1115.75 -1256.76 2364.6
-1119.33 -1267.75 2385.3
-1144.52 -1303.49 2452.6
-1139.08 -1304.54 2454.5
-1117.40 -1286.89 2421.3
-1074.45 -1244.42 2341.4
-1034.10 -1204.50 2266.3
-1038.34 -1216.34 2288.6
-1070.60 -1261.34 2373.2
-1093.63 -1295.93 2438.3
-1079.00 -1286.02 2419.7
-1046.23 -1254.25 2359.9
-1042.00 -1256.53 2364.2
-1030.90 -1250.50 2352.9
-1002.97 -1223.87 2302.7
-997.41 -1224.36 2303.7
-1005.34 -1241.53 2336.0
-1003.93 -1247.30 2346.8
-977.86 -1222.32 2299.8
-958.99 -1206.09 2269.3
-951.04 -1203.47 2264.4
-951.41 -1211.42 2279.3
-987.13 -1264.76 2379.7
-988.18 -1274.07 2397.2
-965.34 -1252.50 2356.6
-964.66 -1259.59 2370.0
-980.74 -1288.80 2424.9
-985.86 -1303.88 2453.3
-960.26 -1278.26 2405.1
-936.19 -1254.38 2360.2
-933.37 -1258.82 2368.5
-936.38 -1271.24 2391.9
-933.11 -1275.24 2399.4
-931.73 -1281.91 2412.0
-943.77 -1307.26 2459.6
-909.34 -1268.13 2386.0
-884.44 -1241.85 2336.6
-899.78 -1272.10 2393.5
-890.74 -1268.07 2385.9
-892.62 -1279.64 2407.7
-908.62 -1311.74 2468.1
-883.63 -1303.19 2452.0
-890.50 -1322.85 2489.0
-881.04 -1318.34 2480.5
-842.18 -1269.46 2388.5
-854.54 -1297.64 2441.5
-844.91 -1332.36 2506.9
-815.14 -1295.38 2437.3
-812.70 -1301.59 2449.0
-817.18 -1319.06 2481.9
-816.78 -1328.89 2500.3
-765.85 -1286.89 2421.3
-742.41 -1257.80 2366.6
-753.39 -1287.05 2421.6
-774.62 -1334.44 2510.8
-715.51 -1333.46 2508.9
-647.17 -1326.69 2496.2
-635.51 -1329.37 2501.3
-616.97 -1303.91 2453.3
-569.99 -1343.08 2527.0
-546.11 -1301.76 2449.3
-551.64 -1330.43 2503.2
-543.97 -1343.54 2527.9
-531.00 -1327.50 2497.7
-532.03 -1346.50 2533.5
-485.67 -1327.51 2497.7
-487.06 -1349.30 2538.7
-480.66 -1349.80 2539.7
-448.55 -1352.23 2544.3
-412.71 -1301.63 2449.1
-414.90 -1328.99 2500.5
-398.74 -1340.03 2521.3
-384.03 -1312.09 2468.7
-376.00 -1306.44 2458.1
-373.82 -1321.26 2486.0
-362.44 -1303.50 2452.6
-352.37 -1289.91 2427.0
-347.05 -1293.54 2433.8
-335.68 -1274.34 2397.7
-332.21 -1284.95 2417.7
-333.00 -1312.79 2470.1
-321.81 -1293.56 2433.9
-311.60 -1277.58 2403.8
-304.22 -1272.78 2394.8
-299.40 -1278.69 2405.9
-305.22 -1331.27 2504.8
-274.02 -1337.48 2516.5
-266.99 -1334.96 2511.8
-261.17 -1338.52 2518.5
-251.23 -1320.56 2484.7
-244.23 -1317.55 2479.0
-240.13 -1330.44 2503.3
-235.00 -1338.17 2517.8
-228.27 -1337.02 2515.6
-223.11 -1345.21 2531.1
-191.99 -1311.93 2468.4
-187.27 -1323.84 2490.8
-185.58 -1358.69 2556.4
-179.65 -1364.04 2566.5
-167.38 -1319.72 2483.1
-159.82 -1310.53 2465.8
-158.77 -1356.15 2551.6
-145.93 -1359.76 2558.4
-136.38 -1331.32 2504.9
-128.94 -1321.61 2486.7
-121.94 -1315.65 2475.4
-116.89 -1331.25 2504.8
-106.63 -1366.20 2570.5
-95.79 -1309.09 2463.1
-89.09 -1304.49 2454.4
-85.70 -1351.50 2542.9
-56.90 -1295.97 2438.4
-51.07 -1308.70 2462.4
-45.91 -1344.41 2529.6
-19.46 -1330.01 2502.5
-12.63 -1294.36 2435.4
-6.44 -1321.12 2485.7
0.00 -1369.46 2576.7
6.58 -1348.81 2537.8
12.78 -1310.31 2465.4
18.83 -1286.83 2421.2
24.60 -1260.53 2371.7
31.35 -1285.37 2418.5
39.46 -1348.21 2536.7
52.43 -1343.42 2527.7
58.19 -1325.53 2494.0
64.93 -1331.10 2504.5
72.33 -1347.91 2536.1
100.35 -1371.47 2580.5
105.31 -1349.31 2538.8
125.89 -1358.32 2555.7
131.54 -1348.34 2536.9
140.27 -1369.29 2576.4
145.07 -1351.79 2543.4
149.18 -1329.60 2501.7
155.48 -1328.03 2498.7
159.88 -1311.00 2466.7
168.33 -1327.22 2497.2
176.82 -1342.49 2525.9
179.82 -1316.54 2477.1
183.56 -1297.61 2441.5
185.82 -1269.79 2389.2
194.11 -1283.63 2415.2
208.60 -1336.31 2514.3
215.60 -1339.36 2520.1
215.43 -1298.89 2443.9
215.17 -1260.29 2371.3
227.03 -1292.80 2432.5
244.77 -1356.16 2551.7
280.24 -1367.84 2573.6
287.44 -1370.35 2578.4
288.74 -1345.29 2531.2
293.80 -1338.44 2518.3
310.00 -1381.53 2599.4
311.21 -1357.40 2554.0
307.27 -1312.28 2469.1
312.92 -1309.15 2463.2
311.04 -1275.25 2399.4
320.71 -1264.32 2378.9
334.13 -1292.40 2431.7
344.27 -1306.95 2459.1
356.67 -1329.40 2501.3
369.66 -1353.22 2546.1
370.46 -1332.35 2506.9
370.66 -1310.09 2465.0
382.83 -1330.16 2502.7
390.56 -1334.40 2510.7
396.25 -1331.66 2505.6
412.88 -1365.16 2568.6
423.97 -1379.59 2595.7
419.69 -1344.31 2529.4
413.89 -1305.34 2456.0
412.20 -1280.31 2408.9
431.89 -1283.15 2414.3
458.56 -1342.94 2526.8
480.67 -1387.85 2611.3
472.79 -1346.13 2532.8
465.00 -1305.83 2457.0
476.37 -1319.68 2483.0
463.17 -1265.99 2382.0
497.37 -1324.17 2491.5
492.03 -1293.16 2433.1
518.27 -1295.67 2437.9
540.42 -1334.78 2511.4
533.30 -1301.50 2448.8
527.00 -1271.00 2391.4
538.57 -1283.80 2415.5
539.13 -1270.36 2390.2
574.93 -1309.57 2464.0
596.56 -1343.89 2528.6
619.74 -1380.93 2598.3
626.18 -1380.29 2597.1
620.63 -1353.49 2546.6
610.36 -1317.08 2478.1
601.46 -1284.37 2416.6
607.21 -1283.29 2414.6
633.49 -1285.79 2419.3
650.35 -1307.08 2459.3
650.88 -1295.45 2437.4
659.88 -1300.72 2447.3
682.70 -1332.90 2507.9
678.23 -1311.68 2468.0
733.30 -1295.91 2438.3
742.04 -1300.16 2446.3
734.66 -1276.31 2401.4
756.49 -1303.19 2452.0
777.76 -1328.68 2500.0
783.25 -1327.00 2496.8
777.42 -1306.32 2457.9
814.29 -1294.03 2434.8
832.93 -1313.46 2471.3
824.73 -1290.61 2428.3
830.21 -1289.35 2425.9
831.60 -1281.79 2411.7
899.04 -1297.91 2442.1
896.67 -1285.43 2418.6
911.44 -1288.59 2424.5
-1790.66 -1174.76 2199.6
-1742.55 -1157.95 2168.1
-1761.31 -1174.20 2198.6
-1728.02 -1174.83 2199.7
-1732.12 -1181.51 2212.3
-1716.32 -1174.63 2199.4
-1715.84 -1178.21 2206.1
-1685.98 -1161.58 2174.9
-1666.05 -1171.35 2193.2
-1654.34 -1167.10 2185.3
-1652.87 -1182.26 2213.7
-1645.02 -1180.75 2210.8
-1625.68 -1170.94 2192.5
-1645.17 -1189.14 2226.5
-1622.60 -1176.95 2203.7
-1593.18 -1167.96 2186.9
-1644.17 -1209.64 2264.9
-1682.49 -1242.27 2326.0
-1661.57 -1231.23 2305.4
-1639.11 -1218.98 2282.4
-1603.92 -1197.13 2241.5
-1567.82 -1174.44 2199.0
-1570.63 -1180.84 2211.0
-1567.56 -1182.85 2214.8
-1558.75 -1184.88 2218.6
-1607.65 -1226.58 2296.6
-1596.00 -1222.21 2288.5
-1573.92 -1209.80 2265.2
-1554.01 -1198.97 2245.0
-1530.53 -1185.30 2219.4
-1521.15 -1182.48 2214.1
-1490.50 -1171.92 2194.3
-1501.18 -1184.84 2218.5
-1486.71 -1177.93 2205.6
-1494.49 -1193.28 2234.3
-1570.25 -1258.64 2356.7
-1585.32 -1280.69 2398.0
-1497.80 -1214.75 2274.5
-1470.84 -1197.60 2242.4
-1510.42 -1234.71 2311.9
-1512.39 -1241.24 2324.1
-1483.53 -1222.43 2288.9
-1503.30 -1243.69 2328.7
-1512.54 -1256.39 2352.5
-1445.46 -1205.53 2257.2
-1404.73 -1176.32 2202.5
-1433.63 -1205.42 2257.0
-1472.54 -1243.21 2327.8
-1496.59 -1268.71 2375.5
-1484.61 -1263.76 2366.3
-1455.77 -1244.35 2329.9
-1468.94 -1260.84 2360.8
-1470.46 -1267.43 2373.1
-1411.22 -1221.47 2287.1
-1384.72 -1203.59 2253.6
-1407.27 -1228.38 2300.0
-1391.75 -1220.01 2284.3
-1367.81 -1204.14 2254.6
-1406.52 -1243.53 2328.4
-1415.87 -1257.20 2354.0
-1346.64 -1200.90 2248.6
-1308.87 -1182.58 2214.3
-1335.68 -1212.12 2269.6
-1327.37 -1209.90 2265.4
-1302.59 -1192.60 2233.0
-1306.67 -1201.67 2250.0
-1341.57 -1239.30 2320.5
-1340.41 -1243.80 2328.9
-1279.67 -1192.82 2233.4
-1270.42 -1195.01 2237.5
-1282.29 -1211.70 2268.8
-1291.79 -1226.31 2296.1
-1272.84 -1213.91 2272.9
-1291.04 -1236.99 2316.1
-1321.36 -1271.96 2381.6
-1306.74 -1263.79 2366.3
-1273.85 -1237.80 2317.7
-1245.51 -1216.00 2276.8
-1229.46 -1206.05 2258.2
-1224.27 -1206.70 2259.4
-1227.66 -1215.85 2276.6
-1239.10 -1233.11 2308.9
-1255.08 -1255.08 2350.0
-1249.66 -1255.76 2351.3
-1206.19 -1218.01 2280.6
-1174.02 -1203.23 2252.9
-1170.02 -1205.13 2256.5
-1193.35 -1235.32 2313.0
-1244.06 -1294.32 2423.5
-1224.69 -1293.78 2422.5
-1156.18 -1227.70 2298.7
-1125.35 -1201.15 2249.0
-1136.55 -1219.42 2283.2
-1144.79 -1234.69 2311.8
-1137.36 -1233.13 2308.9
-1151.76 -1255.35 2350.5
-1144.24 -1253.80 2347.6
-1091.13 -1201.99 2250.6
-1080.71 -1196.92 2241.1
-1094.49 -1218.73 2281.9
-1101.88 -1233.62 2309.8
-1129.98 -1272.00 2381.7
-1132.79 -1282.17 2400.7
-1124.80 -1280.16 2397.0
-1133.96 -1297.75 2429.9
-1116.44 -1284.84 2405.7
-1085.45 -1256.20 2352.1
-1088.47 -1266.81 2372.0
-1094.75 -1281.36 2399.2
-1079.36 -1270.56 2379.0
-1092.90 -1293.89 2422.7
-1102.92 -1313.30 2459.0
-1076.17 -1288.90 2413.3
-1058.36 -1274.99 2387.3
-1069.29 -1295.73 2426.1
-1058.42 -1290.14 2415.7
-1028.57 -1261.23 2361.5
-994.33 -1226.54 2296.6
-974.58 -1209.42 2264.5
-1019.93 -1273.36 2384.2
-1038.74 -1304.76 2443.0
-994.76 -1257.18 2353.9
-962.65 -1224.10 2292.0
-952.23 -1218.38 2281.3
-975.19 -1255.56 2350.9
-953.75 -1235.68 2313.7
-945.50 -1240.59 2322.9
-1003.33 -1324.91 2480.8
-987.26 -1312.10 2456.8
-941.40 -1259.28 2357.9
-933.31 -1256.62 2352.9
-948.23 -1285.10 2406.2
-951.47 -1298.03 2430.4
-949.08 -1303.40 2440.5
-938.58 -1297.63 2429.7
-935.81 -1302.55 2438.9
-928.54 -1301.22 2436.4
-928.88 -1310.60 2454.0
-908.23 -1308.36 2449.8
-883.03 -1281.01 2398.6
-884.15 -1291.74 2418.6
-860.47 -1266.13 2370.7
-843.38 -1249.90 2340.3
-868.56 -1296.55 2427.7
-876.40 -1327.48 2485.6
-857.24 -1308.09 2449.3
-850.27 -1307.13 2447.5
-844.75 -1308.41 2449.9
-851.94 -1329.54 2489.4
-847.16 -1332.18 2494.4
-809.88 -1283.34 2402.9
-813.20 -1298.60 2431.5
-784.87 -1336.22 2501.9
-777.78 -1335.19 2500.0
-772.27 -1336.88 2503.2
-757.89 -1323.09 2477.4
-747.50 -1316.12 2464.3
-748.71 -1329.61 2489.6
-707.72 -1325.36 2481.6
-709.16 -1340.25 2509.5
-650.62 -1327.00 2484.7
-588.05 -1345.98 2520.2
-561.83 -1300.42 2434.9
-546.69 -1279.75 2396.2
-550.08 -1302.49 2438.8
-555.57 -1330.79 2491.8
-555.65 -1346.63 2521.4
-533.71 -1324.63 2480.2
-516.44 -1297.40 2429.2
-524.74 -1334.53 2498.8
-496.58 -1346.00 2520.3
-471.98 -1296.37 2427.3
-474.54 -1321.02 2473.5
-474.72 -1339.63 2508.3
-408.01 -1293.09 2421.2
-413.60 -1331.27 2492.7
-391.23 -1343.23 2515.1
-370.66 -1294.15 2423.2
-355.94 -1264.19 2367.1
-358.30 -1294.93 2424.6
-361.90 -1331.28 2492.7
-358.66 -1343.35 2515.3
-348.68 -1330.17 2490.6
-334.26 -1299.20 2432.6
-324.74 -1286.45 2408.8
-323.56 -1306.91 2447.1
-322.86 -1330.19 2490.6
-310.14 -1303.84 2441.3
-300.17 -1288.25 2412.1
-306.39 -1342.90 2514.4
-296.05 -1355.25 2537.6
-286.74 -1342.44 2513.6
-280.77 -1345.09 2518.5
-270.96 -1328.97 2488.4
-266.43 -1338.64 2506.5
-262.44 -1351.59 2530.7
-257.18 -1358.43 2543.5
-242.99 -1352.87 2533.1
-231.96 -1327.30 2485.2
-223.24 -1313.93 2460.2
