ply
format ascii 1.0
element vertex 2000
property float x
property float y
property float z
end_header
443.62 -1346.16 2950.2
462.56 -1379.85 3024.0
468.01 -1372.83 3008.6
830.09 -1391.38 3049.3
823.46 -1367.26 2996.4
851.10 -1361.76 2984.4
-1425.97 -1261.99 2750.1
-1418.02 -1280.56 2790.6
-1452.97 -1318.85 2874.0
-1460.11 -1332.17 2903.0
-1415.38 -1298.04 2828.7
-1398.17 -1288.93 2808.8
-1386.47 -1298.44 2829.5
-1367.78 -1287.75 2806.2
-1333.87 -1262.54 2751.3
-1359.60 -1293.81 2819.5
-1323.89 -1266.64 2760.2
-1317.21 -1281.02 2791.6
-1305.20 -1276.36 2781.4
-1285.04 -1263.62 2753.7
-1255.90 -1284.94 2800.1
-1270.70 -1307.64 2849.6
-1274.06 -1318.77 2873.8
-1297.39 -1350.82 2943.7
-1258.25 -1317.82 2871.8
-1195.87 -1259.94 2745.6
-1201.43 -1273.37 2774.9
-1206.48 -1286.43 2803.4
-1187.13 -1273.46 2775.1
-1205.02 -1300.54 2834.1
-1222.64 -1327.66 2893.2
-1214.67 -1327.14 2892.1
-1219.47 -1340.66 2921.5
-1202.96 -1330.78 2900.0
-1174.27 -1307.21 2848.6
-1181.74 -1323.85 2884.9
-1154.70 -1301.79 2836.8
-1112.57 -1270.48 2768.6
-1156.37 -1329.07 2896.3
-1149.39 -1329.68 2897.6
-1114.41 -1297.70 2827.9
-1080.41 -1266.45 2759.8
-1097.38 -1294.91 2821.8
-1134.27 -1347.42 2936.3
-1099.82 -1315.33 2866.3
-1059.81 -1276.09 2780.8
-1075.48 -1303.84 2841.3
-1088.61 -1328.86 2895.8
-1084.77 -1333.37 2905.6
-1093.98 -1354.08 2950.8
-1086.15 -1353.86 2950.3
-1070.12 -1343.34 2927.4
-1039.78 -1314.58 2864.7
-1017.82 -1296.08 2824.4
-1023.26 -1312.45 2860.1
-1006.41 -1300.26 2833.5
-925.13 -1269.36 2766.2
-940.21 -1300.14 2833.2
-935.77 -1304.18 2842.0
-795.12 -1303.11 2839.7
-814.60 -1347.51 2936.5
-800.41 -1336.53 2912.5
-781.53 -1317.43 2870.9
-766.41 -1304.38 2842.5
-719.70 -1286.74 2804.0
-729.45 -1317.48 2871.0
-701.21 -1279.53 2788.3
-675.15 -1284.95 2800.1
-654.32 -1286.83 2804.2
-631.59 -1284.97 2800.2
-604.42 -1288.94 2808.8
-513.86 -1318.16 2872.5
-512.45 -1333.88 2906.8
-495.28 -1308.42 2851.3
-468.13 -1315.21 2866.1
-474.73 -1355.28 2953.4
-468.65 -1359.86 2963.4
-449.64 -1326.44 2890.6
-433.89 -1301.67 2836.6
-439.40 -1340.93 2922.1
-436.49 -1355.41 2953.7
-425.69 -1345.49 2932.1
-397.91 -1381.00 3009.4
-388.35 -1374.75 2995.8
-375.29 -1355.65 2954.2
-332.04 -1306.04 2846.1
-329.59 -1325.85 2889.3
-320.77 -1320.36 2877.3
-309.83 -1305.73 2845.4
-305.70 -1319.73 2875.9
-303.75 -1344.10 2929.0
-305.37 -1385.93 3020.2
-298.14 -1388.72 3026.3
-285.75 -1366.98 2978.9
-270.82 -1331.52 2901.6
-259.32 -1311.41 2857.8
-258.67 -1346.58 2934.4
-251.49 -1348.91 2939.5
-237.67 -1314.63 2864.8
-228.47 -1304.46 2842.7
-223.81 -1320.49 2877.6
-217.95 -1330.28 2898.9
-210.74 -1332.15 2903.0
-205.84 -1349.42 2940.6
-199.72 -1359.61 2962.8
-189.47 -1341.48 2923.3
-184.35 -1359.57 2962.7
-181.07 -1393.48 3036.6
-166.34 -1338.26 2916.3
-150.73 -1333.98 2907.0
-98.04 -1334.84 2908.8
-91.97 -1356.61 2956.3
-54.57 -1379.90 3007.1
-46.88 -1382.87 3013.5
-38.38 -1358.73 2960.9
-30.67 -1357.09 2957.3
-15.73 -1391.75 3032.9
-7.54 -1333.79 2906.6
0.00 -1341.72 2923.8
7.51 -1328.79 2895.7
14.92 -1320.02 2876.6
22.55 -1330.43 2899.2
30.36 -1343.33 2927.4
38.83 -1374.57 2995.4
45.66 -1347.01 2935.4
83.93 -1350.44 2942.9
158.84 -1338.83 2917.5
165.35 -1330.34 2899.0
183.33 -1352.07 2946.4
189.77 -1343.56 2927.9
239.85 -1326.69 2891.1
252.27 -1353.07 2948.6
260.58 -1356.56 2956.2
266.72 -1348.82 2939.3
404.86 -1352.07 2946.4
415.03 -1360.36 2964.5
430.10 -1335.57 2910.4
456.50 -1346.68 2934.7
857.09 -1379.14 3005.4
850.22 -1355.76 2954.4
1071.67 -1364.65 2973.8
-1451.05 -1266.12 2743.6
-1445.27 -1267.28 2746.1
-1451.49 -1279.03 2771.6
-1439.32 -1293.94 2803.9
-1437.55 -1298.90 2814.6
-1416.87 -1286.75 2788.3
-1388.79 -1267.72 2747.1
-1352.24 -1266.84 2745.2
-1367.85 -1288.24 2791.5
-1346.85 -1288.92 2793.0
-1360.33 -1308.86 2836.2
-1331.88 -1288.45 2792.0
-1332.90 -1296.48 2809.4
-1349.98 -1320.31 2861.0
-1308.43 -1286.74 2788.3
-1266.43 -1266.43 2744.3
-1256.53 -1263.62 2738.2
-1247.79 -1261.97 2734.6
-1182.89 -1268.40 2748.5
-1186.13 -1295.28 2806.8
-1199.02 -1317.44 2854.8
-1178.02 -1302.41 2822.2
-1138.13 -1266.17 2743.7
-1145.86 -1290.91 2797.3
-1150.23 -1304.08 2825.9
-1121.37 -1279.51 2772.6
-1103.22 -1275.15 2763.2
-1110.10 -1291.48 2798.6
-1085.47 -1271.15 2754.5
-1079.78 -1281.33 2776.6
-1123.35 -1341.98 2908.0
-1105.11 -1329.12 2880.1
-1058.58 -1299.50 2815.9
-1086.38 -1342.89 2910.0
-1087.44 -1372.80 2974.8
-1050.12 -1335.16 2893.2
-983.31 -1286.98 2788.8
-959.39 -1284.00 2782.3
-972.40 -1311.27 2841.4
-948.58 -1288.92 2793.0
-934.07 -1278.95 2771.4
-926.04 -1277.79 2768.9
-939.08 -1305.90 2829.8
-960.70 -1346.49 2917.8
-935.55 -1321.65 2863.9
-846.01 -1276.19 2765.4
-842.54 -1281.81 2777.6
-726.54 -1280.44 2774.6
-730.27 -1299.87 2816.7
-718.35 -1291.57 2798.8
-686.37 -1286.04 2786.8
-698.71 -1323.09 2867.1
-701.67 -1342.98 2910.2
-670.55 -1297.36 2811.3
-647.45 -1324.67 2870.5
-630.98 -1305.98 2830.0
-607.30 -1302.40 2822.2
-582.78 -1296.69 2809.8
-584.70 -1317.42 2854.8
-564.72 -1288.72 2792.6
-510.04 -1296.96 2810.4
-465.33 -1314.74 2849.0
-466.19 -1338.40 2900.2
-461.09 -1345.49 2915.6
-441.24 -1309.00 2836.5
-432.89 -1328.52 2878.8
-435.53 -1360.09 2947.2
-431.29 -1370.89 2970.6
-429.11 -1388.76 3009.3
-422.57 -1392.91 3018.3
-412.64 -1385.83 3003.0
-401.44 -1374.17 2977.7
-396.58 -1384.13 2999.3
-366.81 -1360.27 2947.6
-348.05 -1318.14 2856.3
-346.44 -1340.56 2904.9
-319.04 -1385.11 3001.5
-308.61 -1373.32 2975.9
-267.11 -1358.45 2943.7
-258.49 -1353.28 2932.5
-251.94 -1358.96 2944.8
-239.24 -1330.79 2883.7
-229.77 -1319.32 2858.9
-225.35 -1337.10 2897.4
-221.83 -1361.56 2950.4
-217.30 -1381.43 2993.5
-211.67 -1395.44 3023.8
-203.86 -1395.64 3024.3
-193.22 -1375.76 2981.2
-188.28 -1396.45 3026.0
-170.67 -1380.90 2992.3
-143.56 -1344.95 2914.4
-136.32 -1348.02 2921.1
-133.31 -1395.88 3024.8
-105.93 -1346.82 2918.5
-95.92 -1313.42 2846.1
-92.42 -1370.89 2970.6
-61.44 -1367.01 2962.2
-53.10 -1350.30 2926.0
-45.91 -1362.08 2951.5
-37.91 -1349.56 2924.4
-30.70 -1365.93 2959.9
-15.58 -1386.93 3005.4
-7.62 -1356.77 2940.0
0.00 -1389.04 3010.0
7.83 -1393.64 3019.9
53.50 -1360.36 2947.8
59.16 -1316.31 2852.4
99.56 -1363.26 2954.1
119.42 -1328.59 2879.0
127.00 -1329.73 2881.4
190.52 -1356.52 2939.5
200.31 -1371.39 2971.7
204.12 -1345.68 2916.0
208.89 -1327.91 2877.5
240.67 -1338.73 2900.9
321.76 -1331.95 2886.2
431.94 -1348.87 2922.9
443.98 -1362.57 2952.6
496.49 -1339.03 2901.6
538.89 -1351.02 2927.6
866.83 -1402.69 3039.5
-1412.41 -1276.87 2751.4
-1348.54 -1297.78 2796.5
-1352.81 -1308.94 2820.5
-1298.61 -1263.32 2722.2
-1320.13 -1298.37 2797.8
-1307.73 -1293.28 2786.8
-1258.42 -1265.49 2726.9
-1245.21 -1266.43 2728.9
-1232.31 -1260.48 2716.1
-1221.30 -1271.01 2738.8
-1245.04 -1303.29 2808.4
-1229.11 -1294.18 2788.7
-1206.62 -1278.02 2753.9
-1194.20 -1272.39 2741.8
-1204.86 -1291.44 2782.8
-1241.88 -1339.13 2885.6
-1237.55 -1342.55 2893.0
-1189.28 -1298.06 2797.1
-1178.31 -1293.97 2788.3
-1188.37 -1313.08 2829.5
-1163.90 -1294.03 2788.4
-1131.16 -1265.48 2726.9
-1123.91 -1265.28 2726.5
-1122.92 -1272.17 2741.3
-1112.82 -1276.88 2751.5
-1121.93 -1295.65 2791.9
-1096.81 -1274.86 2747.1
-1090.58 -1284.30 2767.5
-1100.61 -1304.70 2811.4
-1073.84 -1281.45 2761.3
-1067.46 -1282.39 2763.3
-1053.19 -1273.79 2744.8
-1028.92 -1270.18 2737.0
-1055.27 -1311.76 2826.6
-1076.74 -1347.81 2904.3
-1084.86 -1367.53 2946.8
-1065.07 -1352.11 2913.6
-1048.25 -1340.26 2888.0
-998.61 -1285.98 2771.1
-990.82 -1294.57 2789.6
-1008.32 -1327.13 2859.7
-980.41 -1299.95 2801.2
-975.68 -1323.08 2851.0
-975.99 -1333.61 2873.7
-974.15 -1341.33 2890.3
-979.49 -1359.13 2928.7
-940.53 -1315.27 2834.2
-913.18 -1287.08 2773.4
-927.88 -1318.18 2840.5
-922.80 -1321.45 2847.5
-893.32 -1289.55 2778.8
-888.62 -1293.19 2786.6
-890.50 -1306.55 2815.4
-882.65 -1305.74 2813.6
-871.01 -1299.25 2799.7
-857.27 -1289.51 2778.7
-845.24 -1282.18 2762.9
-826.91 -1276.01 2749.6
-820.01 -1276.36 2750.3
-836.19 -1336.41 2879.7
-837.54 -1350.62 2910.4
-709.28 -1282.44 2763.4
-706.75 -1290.90 2781.7
-709.91 -1310.03 2822.9
-700.08 -1305.36 2812.8
-695.10 -1309.71 2822.2
-688.34 -1310.78 2824.5
-673.45 -1296.21 2793.1
-651.43 -1295.62 2791.8
-646.75 -1300.76 2802.9
-627.79 -1291.67 2783.3
-631.17 -1313.72 2830.8
-617.65 -1300.69 2802.8
-577.60 -1292.39 2784.9
-580.85 -1316.11 2836.0
-566.89 -1300.93 2803.3
-466.49 -1325.43 2856.1
-449.14 -1296.72 2794.2
-437.46 -1305.08 2812.2
-455.04 -1380.55 2974.9
-438.42 -1353.04 2915.6
-417.44 -1310.91 2824.8
-420.56 -1344.28 2896.7
-426.51 -1388.11 2991.1
-413.47 -1370.56 2953.3
-398.26 -1345.06 2898.4
-397.17 -1367.17 2946.0
-371.05 -1383.73 2981.7
-343.53 -1308.35 2819.3
-342.33 -1332.12 2870.5
-310.19 -1354.24 2918.2
-297.63 -1331.91 2870.0
-302.13 -1386.69 2988.1
-287.10 -1388.95 2992.9
-280.07 -1392.58 3000.8
-269.15 -1376.49 2966.1
-260.95 -1373.82 2960.3
-254.48 -1380.37 2974.5
-244.64 -1368.44 2948.8
-238.12 -1374.97 2962.8
-231.26 -1379.82 2973.3
-225.28 -1390.55 2996.4
-218.54 -1397.07 3010.4
-210.57 -1396.02 3008.2
-195.32 -1398.52 3013.6
-159.72 -1361.39 2933.6
-149.17 -1335.05 2876.8
-146.72 -1382.29 2978.6
-138.09 -1373.18 2959.0
-107.90 -1379.56 2972.7
-98.24 -1352.73 2914.9
-90.10 -1343.99 2896.1
-83.99 -1366.80 2945.2
-70.36 -1399.36 3015.4
-60.79 -1360.28 2931.2
-53.82 -1376.33 2965.8
-46.32 -1381.85 2977.7
-38.08 -1363.37 2937.8
-30.16 -1349.52 2908.0
-22.91 -1367.22 2946.1
-15.22 -1362.19 2935.3
-7.61 -1361.78 2934.4
30.94 -1384.45 2983.3
37.67 -1348.64 2906.1
46.60 -1390.27 2995.8
53.63 -1371.28 2954.9
61.02 -1365.33 2942.1
68.35 -1359.37 2929.2
83.99 -1366.80 2945.2
101.24 -1393.97 3003.8
103.55 -1324.02 2853.0
112.07 -1337.38 2881.8
124.27 -1390.27 2995.8
133.06 -1401.08 3019.1
133.26 -1325.24 2855.7
155.13 -1322.29 2849.3
188.46 -1349.35 2907.6
199.20 -1371.43 2955.2
204.17 -1353.59 2916.7
212.36 -1357.58 2925.4
215.35 -1329.23 2864.3
245.31 -1372.22 2956.9
248.68 -1348.89 2906.6
359.02 -1367.35 2946.4
435.85 -1345.12 2898.5
832.57 -1367.25 2946.2
844.49 -1374.22 2961.2
-1486.54 -1268.14 2717.4
-1501.23 -1286.77 2757.4
-1270.34 -1277.43 2737.4
-1290.15 -1304.64 2795.7
-1221.83 -1263.97 2708.5
-1218.82 -1268.14 2717.4
-1239.74 -1297.41 2780.2
-1275.29 -1342.41 2876.6
-1275.54 -1350.57 2894.1
-1214.08 -1293.10 2770.9
-1195.06 -1288.09 2760.2
-1257.16 -1363.18 2921.1
-1238.59 -1359.43 2913.1
-1175.86 -1298.49 2782.5
-1132.82 -1266.51 2713.9
-1129.47 -1270.66 2722.8
-1130.28 -1279.56 2741.9
-1137.95 -1296.40 2778.0
-1109.47 -1272.00 2725.7
-1106.34 -1276.54 2735.4
-1100.76 -1278.30 2739.2
-1091.30 -1292.33 2769.3
-1108.00 -1320.79 2830.3
-1086.85 -1304.22 2794.8
-1064.21 -1285.62 2754.9
-1023.57 -1279.46 2741.7
-1045.85 -1316.45 2821.0
-1054.14 -1336.23 2863.4
-1041.48 -1329.55 2849.0
-1032.00 -1326.86 2843.3
-1026.90 -1329.79 2849.6
-1033.78 -1348.41 2889.5
-1022.10 -1342.90 2877.6
-992.20 -1313.20 2814.0
-938.51 -1299.47 2784.6
-916.24 -1278.47 2739.6
-918.52 -1312.17 2811.8
-907.87 -1307.33 2801.4
-878.65 -1285.82 2755.3
-886.65 -1308.17 2803.2
-869.81 -1293.93 2772.7
-850.67 -1276.01 2734.3
-850.86 -1320.31 2829.2
-832.29 -1302.72 2791.5
-819.89 -1317.68 2823.6
-805.68 -1318.38 2825.1
-761.38 -1280.82 2744.6
-792.86 -1346.37 2885.1
-792.52 -1358.60 2911.3
-760.95 -1317.03 2822.2
-692.35 -1284.77 2753.1
-678.54 -1285.66 2755.0
-673.89 -1290.42 2765.2
-667.47 -1291.89 2768.3
-657.66 -1286.73 2757.3
-653.09 -1306.17 2798.9
-651.66 -1317.96 2824.2
-634.92 -1298.70 2782.9
-635.41 -1314.64 2817.1
-638.29 -1335.96 2862.8
-610.01 -1291.78 2768.1
-581.02 -1291.16 2766.8
-596.44 -1342.00 2875.7
-589.42 -1342.98 2877.8
-566.88 -1308.19 2803.3
-495.41 -1292.38 2769.4
-477.29 -1342.37 2876.5
-472.48 -1349.94 2892.7
-435.36 -1306.07 2798.7
-452.54 -1380.63 2958.5
-436.10 -1353.41 2900.2
-411.73 -1300.18 2786.1
-410.50 -1319.45 2827.4
-418.02 -1368.08 2931.6
-406.52 -1355.06 2903.7
-391.20 -1328.60 2847.0
-388.78 -1345.77 2883.8
-392.11 -1383.93 2965.6
-332.54 -1330.17 2850.4
-313.64 -1344.17 2880.4
-303.75 -1333.53 2857.6
-304.08 -1368.35 2932.2
-276.25 -1343.94 2879.9
-262.27 -1311.34 2810.0
-268.31 -1379.87 2956.9
-199.13 -1378.57 2954.1
-193.08 -1390.17 2978.9
-168.94 -1382.26 2962.0
-163.60 -1402.27 3004.9
-131.14 -1388.49 2975.3
-107.07 -1376.59 2949.8
-99.15 -1372.89 2941.9
-92.41 -1386.09 2970.2
-83.88 -1372.65 2941.4
-77.13 -1388.37 2975.1
-69.55 -1390.98 2980.7
-61.19 -1376.67 2950.0
-53.54 -1376.73 2950.1
-45.54 -1366.21 2927.6
-38.62 -1390.35 2979.3
-22.96 -1377.30 2951.4
-14.69 -1321.93 2832.7
0.00 -1362.96 2920.6
30.85 -1388.27 2974.9
67.77 -1355.47 2904.6
75.37 -1356.67 2907.1
82.33 -1347.29 2887.0
91.00 -1364.95 2924.9
97.81 -1354.29 2902.1
102.83 -1322.07 2833.0
118.78 -1336.22 2863.3
126.71 -1341.59 2874.8
155.81 -1335.54 2861.9
161.87 -1324.40 2838.0
170.83 -1336.91 2864.8
181.21 -1359.11 2912.4
188.86 -1359.77 2913.8
194.07 -1343.54 2879.0
201.56 -1343.77 2879.5
212.35 -1365.08 2925.2
216.57 -1344.20 2880.4
244.88 -1335.69 2862.2
760.46 -1368.83 2933.2
-1469.17 -1284.63 2737.6
-1449.92 -1273.96 2714.8
-1335.45 -1272.20 2711.1
-1374.59 -1316.41 2805.3
-1327.33 -1277.91 2723.2
-1245.88 -1266.88 2699.7
-1248.36 -1276.57 2720.4
-1215.90 -1272.13 2710.9
-1234.56 -1299.16 2768.5
-1264.89 -1338.86 2853.1
-1277.78 -1360.46 2899.2
-1227.41 -1314.56 2801.4
-1221.59 -1331.97 2838.5
-1236.50 -1356.40 2890.5
-1215.60 -1341.61 2859.0
-1162.69 -1291.08 2751.3
-1138.90 -1280.38 2728.5
-1163.64 -1316.37 2805.2
-1195.37 -1360.77 2899.8
-1172.81 -1352.09 2881.3
-1121.18 -1300.86 2772.2
-1059.92 -1270.50 2707.5
-1071.28 -1292.67 2754.7
-1083.73 -1316.48 2805.4
-1066.42 -1304.20 2779.3
-1039.33 -1297.37 2764.7
-1049.23 -1318.82 2810.4
-1052.86 -1332.65 2839.9
-1065.84 -1358.58 2895.1
-1056.88 -1356.71 2891.2
-1035.76 -1339.09 2853.6
-1018.84 -1326.69 2827.2
-1019.30 -1336.90 2849.0
-1001.58 -1323.26 2819.9
-965.76 -1285.31 2739.0
-905.77 -1301.15 2772.8
-885.92 -1282.82 2733.7
-883.11 -1299.53 2769.3
-866.57 -1285.64 2739.7
-830.64 -1296.08 2762.0
-801.08 -1294.60 2758.8
-817.32 -1332.75 2840.1
-796.92 -1311.30 2794.4
-783.32 -1325.05 2823.7
-772.08 -1318.36 2809.5
-757.39 -1318.15 2809.0
-772.83 -1358.09 2894.1
-668.08 -1286.41 2741.4
-694.14 -1350.95 2878.9
-668.86 -1315.90 2804.2
-651.84 -1310.93 2793.6
-650.43 -1322.78 2818.9
-616.71 -1297.96 2766.0
-602.50 -1346.33 2869.1
-603.81 -1366.11 2911.2
-582.29 -1334.11 2843.0
-565.44 -1312.10 2796.1
-548.81 -1290.07 2749.2
-545.77 -1299.80 2769.9
-542.28 -1308.69 2788.8
-511.97 -1323.81 2821.1
-516.35 -1354.50 2886.5
-507.96 -1352.06 2881.3
-491.81 -1328.63 2831.3
-475.31 -1303.49 2777.8
-479.13 -1334.19 2843.2
-480.24 -1358.18 2894.3
-454.91 -1306.95 2785.1
-436.88 -1317.93 2808.5
-443.46 -1360.44 2899.1
-440.53 -1374.76 2929.6
-429.22 -1362.97 2904.5
-416.87 -1347.38 2871.3
-413.39 -1360.43 2899.1
-408.89 -1370.52 2920.6
-398.96 -1362.49 2903.5
-388.64 -1352.76 2882.8
-384.60 -1364.95 2908.7
-382.76 -1385.57 2952.7
-354.26 -1364.29 2907.3
-333.40 -1311.84 2795.6
-339.78 -1366.66 2912.4
-314.61 -1355.80 2889.2
-311.21 -1373.87 2927.7
-306.11 -1385.17 2951.8
-300.44 -1394.35 2971.4
-284.46 -1391.54 2965.4
-273.54 -1375.31 2930.8
-236.57 -1381.24 2943.4
-228.83 -1380.62 2942.1
-185.93 -1402.21 2988.1
-171.03 -1345.97 2868.3
-165.01 -1357.59 2893.0
-106.21 -1373.10 2926.1
-97.74 -1360.89 2900.1
-61.54 -1392.29 2967.0
-52.81 -1365.59 2910.1
-45.90 -1384.75 2950.9
-23.26 -1403.12 2990.1
-14.84 -1343.24 2862.5
-7.28 -1318.19 2809.1
0.00 -1347.50 2871.6
7.67 -1387.86 2957.5
15.18 -1373.40 2926.7
22.66 -1367.44 2914.0
38.58 -1396.69 2976.4
45.58 -1374.98 2930.1
59.59 -1348.12 2872.9
74.24 -1343.73 2863.5
83.31 -1370.84 2921.3
90.88 -1370.75 2921.1
96.52 -1343.90 2863.9
117.04 -1324.05 2821.6
124.23 -1322.66 2818.6
168.34 -1324.76 2823.1
206.69 -1336.12 2847.3
242.09 -1327.81 2829.6
278.85 -1328.21 2830.4
393.04 -1342.26 2860.4
401.72 -1346.50 2869.4
749.14 -1369.64 2918.7
770.25 -1394.16 2971.0
-1451.79 -1270.32 2692.2
-1491.56 -1311.42 2779.3
-1473.54 -1301.86 2759.1
-1471.63 -1306.52 2768.9
-1462.34 -1304.64 2764.9
-1453.06 -1302.74 2760.9
-1457.06 -1312.80 2782.2
-1431.55 -1296.23 2747.1
-1387.73 -1269.18 2689.8
-1384.10 -1272.25 2696.3
-1321.73 -1266.08 2683.2
-1373.04 -1322.19 2802.1
-1339.53 -1296.78 2748.3
-1299.03 -1264.29 2679.4
-1280.30 -1280.30 2713.4
-1286.06 -1293.17 2740.6
-1269.52 -1305.39 2766.5
-1250.43 -1293.06 2740.4
-1209.57 -1279.89 2712.5
-1256.36 -1337.17 2833.9
-1277.42 -1367.59 2898.3
-1267.98 -1365.52 2894.0
-1231.43 -1334.05 2827.3
-1177.68 -1283.46 2720.1
-1172.65 -1285.68 2724.7
-1173.72 -1294.65 2743.8
-1142.40 -1267.79 2686.8
-1135.79 -1283.94 2721.1
-1201.26 -1366.43 2895.9
-1179.38 -1358.53 2879.1
-1171.08 -1357.56 2877.1
-1139.78 -1329.74 2818.1
-1074.19 -1312.10 2780.7
-1092.35 -1343.29 2846.9
-1062.62 -1315.62 2788.2
-1077.20 -1342.81 2845.8
-1093.44 -1372.46 2908.7
-1067.48 -1349.18 2859.3
-1041.11 -1325.05 2808.2
-1026.66 -1315.86 2788.7
-1015.13 -1310.30 2776.9
-994.28 -1292.57 2739.3
-996.85 -1305.23 2766.2
-1013.76 -1336.98 2833.5
-977.74 -1298.90 2752.8
-923.71 -1283.33 2719.8
-900.59 -1280.53 2713.8
-884.16 -1297.73 2750.3
-880.08 -1302.23 2759.8
-848.99 -1298.45 2751.8
-831.96 -1283.20 2719.5
-806.71 -1287.90 2729.5
-811.11 -1306.39 2768.6
-816.08 -1326.13 2810.5
-835.95 -1370.66 2904.9
-819.40 -1355.74 2873.2
-773.58 -1315.80 2788.6
-761.54 -1345.63 2851.8
-731.52 -1305.26 2766.3
-671.53 -1300.20 2755.5
-694.11 -1358.38 2878.8
-666.74 -1318.99 2795.3
-631.42 -1291.22 2736.5
-604.84 -1310.50 2777.3
-594.47 -1303.54 2762.6
-587.00 -1302.85 2761.1
-601.92 -1352.46 2866.3
-596.96 -1358.07 2878.2
-577.90 -1331.37 2821.6
-563.27 -1314.30 2785.4
-521.31 -1299.70 2754.5
-529.18 -1337.66 2834.9
-522.03 -1338.17 2836.0
-526.70 -1369.41 2902.2
-518.95 -1388.97 2943.6
-500.64 -1359.96 2882.2
-482.95 -1331.77 2822.4
-476.10 -1333.08 2825.2
-465.23 -1322.99 2803.8
-426.72 -1316.31 2789.7
-420.29 -1318.84 2795.0
-423.37 -1351.82 2864.9
-426.75 -1386.92 2939.3
-416.95 -1379.72 2924.1
-406.22 -1369.12 2901.6
-394.13 -1353.43 2868.3
-380.63 -1332.21 2823.4
-376.03 -1341.90 2843.9
-374.58 -1363.46 2889.6
-371.75 -1380.78 2926.3
-363.48 -1378.18 2920.8
-348.77 -1350.54 2862.2
-338.75 -1340.27 2840.5
-324.86 -1313.87 2784.5
-315.25 -1304.00 2763.6
-316.99 -1341.67 2843.4
-315.18 -1365.77 2894.5
-291.13 -1358.60 2879.3
-275.29 -1318.50 2794.3
-275.36 -1354.48 2870.6
-276.64 -1398.55 2964.0
-245.26 -1394.91 2956.2
-230.46 -1353.01 2867.5
-221.73 -1345.15 2850.8
-216.88 -1361.12 2884.6
-213.56 -1388.16 2941.9
-181.25 -1374.46 2912.9
-166.39 -1316.69 2790.5
-159.59 -1320.26 2798.0
-98.86 -1384.10 2933.3
-92.42 -1401.69 2970.6
-59.09 -1344.40 2849.2
-37.59 -1368.44 2900.1
-30.75 -1399.19 2965.3
-23.02 -1396.66 2960.0
-15.07 -1371.08 2905.7
-7.36 -1339.51 2838.8
0.00 -1364.26 2891.3
7.64 -1390.29 2946.5
14.96 -1361.69 2885.8
22.40 -1358.68 2879.5
30.92 -1406.87 2981.6
38.64 -1406.41 2980.6
46.45 -1408.93 2986.0
61.59 -1401.14 2969.5
65.89 -1332.39 2823.7
73.81 -1343.41 2847.1
84.13 -1391.96 2950.0
93.07 -1411.50 2991.4
99.29 -1390.08 2946.0
105.38 -1369.93 2903.3
110.01 -1334.85 2829.0
116.81 -1328.76 2816.1
124.50 -1332.91 2824.8
279.73 -1339.75 2839.4
494.90 -1344.36 2849.1
734.53 -1364.13 2891.0
-1440.13 -1285.58 2709.7
-1437.43 -1289.46 2717.8
-1432.98 -1291.80 2722.8
-1426.78 -1292.58 2724.4
-1337.96 -1268.63 2673.9
-1333.43 -1270.92 2678.8
-1337.03 -1281.03 2700.1
-1334.04 -1284.89 2708.2
-1322.91 -1280.91 2699.8
-1281.22 -1281.22 2700.5
-1304.31 -1311.48 2764.2
-1289.26 -1303.51 2747.4
-1265.74 -1286.83 2712.3
-1249.71 -1277.63 2692.9
-1246.07 -1281.07 2700.2
-1233.97 -1275.80 2689.0
-1217.34 -1265.76 2667.9
-1182.39 -1265.37 2667.1
-1207.13 -1299.44 2738.9
-1202.10 -1301.68 2743.6
-1199.24 -1306.32 2753.4
-1178.12 -1290.99 2721.1
-1140.90 -1304.90 2750.4
-1132.89 -1303.90 2748.3
-1139.82 -1320.17 2782.6
-1161.42 -1353.76 2853.4
-1123.32 -1317.75 2777.4
-1061.91 -1278.48 2694.7
-1059.72 -1301.54 2743.3
-1086.03 -1370.64 2888.9
-1044.15 -1326.94 2796.8
-1004.60 -1285.61 2709.7
-1021.63 -1316.61 2775.1
-1041.81 -1352.13 2849.9
-1009.59 -1319.67 2781.5
-1000.90 -1317.73 2777.4
-1021.45 -1354.53 2855.0
-989.38 -1321.58 2785.5
-943.92 -1289.09 2717.1
-931.85 -1282.17 2702.5
-915.83 -1279.36 2696.5
-911.18 -1282.66 2703.5
-905.05 -1283.91 2706.1
-916.71 -1310.60 2762.4
-895.30 -1290.08 2719.1
-886.26 -1297.48 2734.7
-892.27 -1316.82 2775.5
-875.94 -1303.23 2746.9
-856.17 -1284.26 2706.9
-848.04 -1282.57 2703.3
-855.62 -1304.82 2750.2
-850.62 -1308.09 2757.1
-829.32 -1286.16 2710.9
-811.52 -1337.91 2819.9
-797.93 -1327.46 2797.9
-727.52 -1292.58 2724.4
-731.29 -1312.03 2765.4
-726.58 -1316.47 2774.8
-708.81 -1297.13 2734.0
-669.82 -1304.00 2748.5
-678.76 -1335.63 2815.2
-673.27 -1339.21 2822.7
-652.93 -1313.03 2767.5
-616.61 -1297.01 2733.7
-608.70 -1326.10 2795.1
-601.72 -1326.69 2796.3
-578.51 -1291.06 2721.2
-577.48 -1304.67 2749.9
-577.41 -1320.82 2783.9
-562.24 -1302.41 2745.1
-550.86 -1292.41 2724.1
-520.85 -1323.83 2790.3
-513.48 -1323.49 2789.6
-518.42 -1355.29 2856.6
-522.69 -1386.26 2921.9
-500.52 -1346.98 2839.1
-470.97 -1325.96 2794.8
-462.85 -1323.45 2789.5
-413.95 -1306.09 2752.9
-424.81 -1363.86 2874.6
-396.41 -1343.39 2831.5
-380.16 -1364.12 2875.2
-374.90 -1372.15 2892.1
-367.96 -1374.22 2896.5
-347.20 -1381.25 2911.3
-321.60 -1307.84 2756.6
-317.40 -1320.10 2782.4
-323.89 -1378.41 2905.3
-319.56 -1392.38 2934.8
-288.20 -1352.32 2850.3
-274.40 -1321.44 2785.2
-275.52 -1362.71 2872.2
-266.36 -1354.01 2853.9
-255.09 -1333.76 2811.2
-255.71 -1376.32 2900.9
-227.26 -1386.26 2921.9
-217.89 -1374.93 2898.0
-207.85 -1358.47 2863.3
-205.38 -1392.04 2934.0
-182.08 -1388.34 2926.2
-164.99 -1312.76 2766.9
-157.94 -1313.78 2769.1
-66.43 -1350.80 2847.1
-50.63 -1323.48 2789.5
-43.35 -1322.25 2786.9
-37.45 -1370.72 2889.1
-29.84 -1365.18 2877.4
-21.83 -1331.77 2807.0
-15.07 -1378.94 2906.4
0.00 -1397.39 2945.3
7.57 -1384.53 2918.2
15.03 -1375.09 2898.3
22.84 -1393.50 2937.1
38.35 -1403.72 2958.7
45.25 -1380.11 2908.9
53.61 -1401.49 2954.0
60.87 -1392.43 2934.9
67.28 -1367.94 2883.2
73.88 -1352.01 2849.7
82.32 -1369.50 2886.5
89.43 -1363.85 2874.6
94.05 -1323.91 2790.4
102.39 -1338.37 2820.9
109.34 -1333.98 2811.7
116.92 -1337.30 2818.7
125.45 -1350.45 2846.4
130.46 -1326.34 2795.6
159.43 -1326.19 2795.2
172.42 -1371.83 2891.4
212.40 -1340.29 2825.0
431.77 -1339.23 2822.7
439.51 -1340.49 2825.4
629.54 -1355.36 2856.7
940.17 -1398.79 2948.3
931.88 -1375.28 2898.7
-1366.98 -1296.51 2717.8
-1372.65 -1308.64 2743.3
-1357.31 -1300.75 2726.7
-1328.16 -1279.49 2682.2
-1301.39 -1287.39 2698.7
-1328.87 -1321.68 2770.6
-1317.67 -1317.67 2762.2
-1289.58 -1296.62 2718.1
-1261.67 -1275.54 2673.9
-1233.47 -1275.04 2672.8
-1163.18 -1266.42 2654.8
-1212.47 -1327.94 2783.7
-1201.11 -1323.38 2774.2
-1157.21 -1282.69 2688.9
-1112.37 -1287.27 2698.5
-1150.25 -1339.54 2808.0
-1147.29 -1344.59 2818.6
-1080.15 -1274.02 2670.7
-1080.30 -1299.18 2723.4
-1080.73 -1308.26 2742.5
-1061.42 -1293.39 2711.3
-1048.87 -1286.62 2697.1
-1041.32 -1285.93 2695.7
-1057.99 -1315.34 2757.3
-1089.66 -1363.93 2859.2
-1086.90 -1369.80 2871.5
-1079.91 -1370.37 2872.7
-1052.79 -1345.23 2820.0
-1024.00 -1317.60 2762.0
-1048.46 -1358.56 2847.9
-1025.17 -1347.36 2824.4
-992.88 -1314.31 2755.2
-988.87 -1318.49 2763.9
-953.98 -1281.26 2685.9
-937.37 -1287.14 2698.2
-937.54 -1297.04 2719.0
-933.46 -1301.19 2727.7
-934.62 -1312.75 2751.9
-933.04 -1320.61 2768.4
-897.57 -1280.25 2683.8
-894.19 -1295.52 2715.8
-898.46 -1312.04 2750.4
-896.95 -1320.31 2767.7
-884.20 -1312.04 2750.4
-861.58 -1288.86 2701.8
-840.22 -1288.34 2700.7
-846.07 -1308.20 2742.4
-833.61 -1299.86 2724.9
-793.15 -1314.78 2756.1
-770.25 -1288.42 2700.9
-758.52 -1304.36 2734.3
-767.49 -1332.24 2792.7
-742.77 -1301.61 2728.5
-722.14 -1290.03 2704.3
-726.65 -1310.82 2747.8
-723.59 -1318.22 2763.3
-707.00 -1300.88 2727.0
-671.95 -1329.44 2786.9
-678.09 -1356.18 2842.9
-662.92 -1340.41 2809.9
-644.82 -1318.29 2763.5
-618.57 -1293.38 2711.3
-637.16 -1347.56 2824.8
-630.12 -1348.17 2826.1
-591.03 -1310.24 2746.6
-596.60 -1338.72 2806.3
-585.86 -1330.84 2789.8
-576.85 -1326.75 2781.2
-556.42 -1295.98 2716.7
-529.29 -1298.52 2722.0
-536.43 -1333.82 2796.1
-525.01 -1323.31 2774.0
-507.05 -1295.80 2716.3
-495.76 -1303.15 2731.8
-501.61 -1337.64 2804.1
-483.05 -1307.09 2740.0
-473.91 -1321.21 2769.6
-464.79 -1315.72 2758.1
-447.67 -1328.57 2785.0
-440.88 -1329.86 2787.7
-429.34 -1316.64 2760.0
-418.76 -1305.98 2737.7
-416.37 -1320.89 2769.0
-411.83 -1329.41 2786.8
-405.12 -1331.09 2790.3
-409.49 -1369.93 2871.7
-387.74 -1321.20 2769.6
-378.55 -1339.48 2807.9
-385.59 -1391.16 2916.2
-375.58 -1382.13 2897.3
-360.08 -1352.13 2834.4
-354.94 -1360.61 2852.2
-356.60 -1396.06 2926.5
-337.76 -1351.03 2832.1
-312.48 -1306.72 2739.2
-323.07 -1382.42 2897.9
-289.28 -1364.79 2861.0
-276.78 -1340.20 2809.4
-275.42 -1369.64 2871.1
-263.16 -1345.03 2819.6
-256.96 -1350.87 2831.8
-213.40 -1402.33 2939.7
-172.24 -1377.94 2888.5
-167.65 -1402.19 2939.4
-144.48 -1399.22 2933.1
-133.11 -1360.64 2852.3
-128.43 -1390.03 2913.9
-21.97 -1347.61 2825.0
-14.64 -1347.20 2824.1
-7.50 -1379.50 2891.8
0.00 -1364.86 2861.1
7.42 -1365.72 2862.9
14.90 -1370.88 2873.7
22.63 -1388.08 2909.8
37.55 -1381.99 2897.0
44.14 -1353.54 2837.4
53.70 -1411.60 2959.1
68.56 -1401.58 2938.1
75.09 -1381.71 2896.4
81.44 -1362.26 2855.7
124.29 -1345.29 2820.1
132.14 -1350.75 2831.5
138.62 -1342.44 2814.1
145.34 -1337.14 2803.0
153.33 -1343.44 2816.2
166.88 -1395.74 2925.8
175.39 -1344.66 2818.8
222.90 -1367.10 2865.8
311.65 -1333.59 2795.6
364.07 -1339.79 2808.6
518.06 -1342.59 2814.4
626.75 -1406.37 2948.1
766.19 -1368.73 2869.2
765.88 -1355.02 2840.5
918.76 -1363.31 2857.9
-1433.39 -1274.89 2658.1
-1380.39 -1270.51 2648.9
-1376.87 -1273.61 2655.4
-1367.84 -1271.61 2651.2
-1331.61 -1276.41 2661.2
-1318.91 -1270.82 2649.6
-1300.88 -1273.35 2654.9
-1295.52 -1274.84 2658.0
-1300.15 -1286.24 2681.7
-1283.54 -1276.64 2661.7
-1248.85 -1269.43 2646.7
-1253.55 -1281.26 2671.3
-1242.93 -1284.60 2678.3
-1247.39 -1296.44 2703.0
-1210.94 -1287.50 2684.4
-1213.59 -1297.77 2705.8
-1159.59 -1269.38 2646.6
-1180.70 -1300.18 2710.8
-1165.60 -1299.01 2708.4
-1172.44 -1314.56 2740.8
-1107.55 -1288.66 2686.8
-1117.70 -1308.70 2728.6
-1088.39 -1282.50 2673.9
-1118.24 -1326.12 2764.9
-1101.84 -1323.63 2759.7
-1066.37 -1297.89 2706.0
-1073.45 -1315.16 2742.0
-1025.20 -1299.05 2708.5
-1037.84 -1324.14 2760.8
-1015.15 -1304.18 2719.1
-988.83 -1279.26 2667.2
-1007.81 -1312.99 2737.5
-1016.12 -1333.21 2779.7
-967.32 -1278.24 2665.1
-935.92 -1292.12 2694.0
-935.49 -1301.24 2713.0
-925.53 -1297.14 2704.5
-919.71 -1298.82 2708.0
-924.62 -1315.81 2743.4
-897.03 -1286.43 2682.1
-837.61 -1313.20 2738.0
-843.14 -1333.18 2779.6
-811.31 -1293.90 2697.7
-792.41 -1320.68 2753.5
-780.23 -1312.21 2735.9
-764.19 -1297.02 2704.2
-766.17 -1312.42 2736.3
-781.58 -1351.32 2817.4
-774.46 -1351.64 2818.1
-732.76 -1291.06 2691.8
-716.53 -1286.98 2683.3
-696.76 -1289.01 2687.5
-705.03 -1317.48 2746.9
-687.55 -1297.92 2706.1
-674.22 -1312.96 2737.5
-659.30 -1297.56 2705.3
-654.73 -1302.42 2715.5
-660.41 -1327.99 2768.8
-645.43 -1312.13 2735.7
-640.49 -1316.56 2745.0
-631.02 -1311.67 2734.8
-612.83 -1303.14 2717.0
-614.34 -1321.54 2755.3
-566.54 -1310.13 2731.5
-562.24 -1316.63 2745.1
-525.14 -1295.35 2700.7
-536.41 -1341.03 2796.0
-528.87 -1340.28 2794.4
-514.02 -1320.75 2753.7
-505.93 -1318.27 2748.5
-492.21 -1300.84 2712.2
-483.92 -1297.48 2705.2
-489.80 -1332.54 2778.3
-498.09 -1375.32 2867.5
-486.86 -1364.70 2845.3
-459.98 -1309.17 2729.5
-442.92 -1300.65 2711.8
-444.64 -1326.76 2766.2
-433.10 -1313.50 2738.6
-428.22 -1320.35 2752.9
-423.40 -1327.62 2768.0
-414.21 -1321.19 2754.6
-404.02 -1311.30 2734.0
-402.51 -1329.71 2772.4
-412.65 -1388.01 2893.9
-400.89 -1373.40 2863.5
-387.18 -1351.48 2817.8
-390.84 -1390.50 2899.1
-371.37 -1374.08 2864.9
-349.36 -1319.03 2750.1
-342.43 -1319.80 2751.7
-341.07 -1342.49 2799.0
-336.57 -1353.58 2822.1
-328.39 -1350.04 2814.8
-318.10 -1337.46 2788.5
-320.24 -1377.79 2872.6
-311.89 -1373.81 2864.3
-305.30 -1377.56 2872.1
-302.94 -1401.11 2921.2
-283.54 -1344.99 2804.2
-271.46 -1321.58 2755.4
-270.06 -1350.29 2815.3
-264.32 -1358.31 2832.0
-265.34 -1402.54 2924.2
-238.18 -1377.00 2871.0
-231.43 -1381.11 2879.5
-207.83 -1373.15 2862.9
-199.18 -1364.72 2845.4
-148.70 -1375.45 2867.7
-126.71 -1378.89 2874.9
-121.58 -1405.81 2931.0
-112.31 -1385.18 2888.0
-22.15 -1366.11 2848.3
-14.75 -1363.96 2843.8
-7.53 -1393.38 2905.1
0.00 -1395.98 2910.5
37.86 -1400.64 2920.3
43.28 -1334.44 2782.2
51.18 -1352.55 2820.0
60.73 -1404.38 2928.1
68.34 -1404.75 2928.8
75.34 -1393.87 2906.1
82.44 -1386.44 2890.6
90.09 -1388.95 2895.9
96.65 -1375.45 2867.7
100.38 -1326.51 2765.7
115.53 -1335.80 2785.1
126.35 -1375.00 2866.8
134.15 -1378.76 2874.6
140.57 -1368.68 2853.6
144.82 -1339.59 2793.0
159.57 -1341.88 2797.7
166.00 -1335.24 2783.9
222.39 -1371.42 2859.3
282.54 -1340.26 2794.4
297.92 -1377.86 2872.8
354.94 -1340.08 2794.0
604.87 -1364.65 2845.2
-1383.15 -1273.60 2641.1
-1312.02 -1284.39 2663.5
-1318.76 -1297.82 2691.3
-1296.83 -1283.03 2660.7
-1273.03 -1266.22 2625.8
-1250.52 -1278.00 2650.2
-1250.53 -1285.07 2664.9
-1263.61 -1335.41 2769.3
-1256.33 -1335.30 2769.1
-1231.35 -1316.27 2729.6
-1223.39 -1315.33 2727.6
-1155.27 -1271.48 2636.7
-1146.43 -1269.26 2632.1
-1153.01 -1291.92 2679.1
-1171.77 -1320.91 2739.2
-1138.40 -1291.11 2677.4
-1145.86 -1307.54 2711.5
-1168.37 -1341.46 2781.8
-1131.08 -1306.72 2709.8
-1100.64 -1287.55 2670.0
-1104.25 -1299.94 2695.7
-1092.92 -1294.80 2685.1
-1139.84 -1359.04 2818.3
-1054.83 -1274.01 2642.0
-1056.52 -1301.41 2698.8
-1023.62 -1304.07 2704.3
-1010.28 -1295.95 2687.4
-984.86 -1299.17 2694.1
-947.66 -1286.61 2668.1
-931.47 -1292.94 2681.2
-929.28 -1299.60 2695.0
-919.08 -1295.06 2685.6
-915.05 -1299.23 2694.3
-919.99 -1316.29 2729.6
-914.94 -1319.22 2735.7
-909.58 -1321.73 2740.9
-888.27 -1300.92 2697.8
-831.28 -1321.52 2740.5
-826.23 -1324.82 2747.3
-818.29 -1323.50 2744.6
-811.65 -1324.27 2746.2
-764.81 -1293.23 2681.8
-730.44 -1306.36 2709.0
-721.70 -1303.26 2702.6
-704.05 -1309.54 2715.6
-711.34 -1336.45 2771.4
-692.46 -1314.27 2725.4
-669.03 -1309.88 2716.3
-652.23 -1290.59 2676.3
-628.35 -1298.59 2692.9
-623.69 -1303.45 2703.0
-578.08 -1295.47 2686.5
-557.70 -1313.06 2722.9
-543.70 -1296.51 2688.6
-515.41 -1313.23 2723.3
-523.96 -1353.57 2806.9
-507.07 -1328.37 2754.7
-483.45 -1303.20 2702.5
-496.84 -1359.02 2818.2
-503.32 -1397.27 2897.6
-490.04 -1381.02 2863.9
-454.42 -1300.34 2696.6
-435.03 -1305.10 2706.4
-421.21 -1327.88 2753.7
-418.63 -1342.50 2784.0
-417.21 -1361.43 2823.2
-397.97 -1396.66 2896.3
-385.87 -1380.24 2862.2
-351.63 -1334.76 2767.9
-341.09 -1321.72 2740.9
-348.25 -1378.19 2858.0
-314.12 -1391.09 2884.7
-304.99 -1383.62 2869.2
-300.50 -1397.33 2897.7
-287.61 -1371.67 2844.5
-282.24 -1381.47 2864.8
-238.84 -1388.24 2878.8
-227.37 -1364.22 2829.0
-221.12 -1370.95 2843.0
-218.45 -1401.07 2905.4
-207.55 -1378.75 2859.2
-186.66 -1335.36 2769.2
-163.98 -1386.38 2875.0
-156.99 -1390.44 2883.4
-146.96 -1366.74 2834.2
-136.39 -1335.20 2768.9
-132.08 -1364.85 2830.3
-127.77 -1397.96 2899.0
-119.59 -1390.28 2883.1
-110.20 -1366.52 2833.8
-105.05 -1395.71 2894.3
-83.15 -1405.98 2915.6
-74.64 -1388.26 2878.9
-67.24 -1389.64 2881.7
-45.14 -1399.36 2901.9
-22.60 -1401.20 2905.7
22.64 -1403.81 2911.1
30.37 -1412.03 2928.2
45.52 -1411.09 2926.2
51.94 -1380.20 2862.2
59.64 -1386.66 2875.6
67.37 -1392.24 2887.1
74.52 -1386.09 2874.4
83.25 -1407.72 2919.2
97.41 -1393.64 2890.0
118.03 -1372.05 2845.3
127.37 -1393.62 2890.0
133.22 -1376.57 2854.6
138.74 -1358.20 2816.5
208.92 -1339.96 2778.7
219.51 -1360.98 2822.3
344.77 -1335.97 2770.4
353.33 -1341.23 2781.4
772.21 -1381.07 2864.0
-1398.73 -1275.92 2631.8
-1276.04 -1269.26 2618.0
-1319.53 -1319.53 2721.7
-1281.74 -1288.64 2658.0
-1260.09 -1273.71 2627.2
-1270.51 -1291.23 2663.3
-1260.75 -1288.30 2657.3
-1249.44 -1283.77 2648.0
-1248.42 -1318.95 2720.5
-1263.28 -1342.23 2768.5
-1207.23 -1290.02 2660.8
-1177.73 -1303.17 2688.0
-1181.91 -1315.58 2713.6
-1167.46 -1307.27 2696.4
-1144.41 -1289.18 2659.1
-1119.17 -1276.12 2632.2
-1168.65 -1340.73 2765.4
-1179.71 -1361.76 2808.8
-1133.24 -1316.25 2715.0
-1099.09 -1284.56 2649.6
-1109.75 -1305.18 2692.1
-1093.92 -1294.70 2670.5
-1069.25 -1273.56 2626.9
-1098.46 -1316.74 2716.0
-1103.80 -1331.68 2746.8
-1042.04 -1334.66 2752.9
-1043.65 -1345.94 2776.2
-997.06 -1294.79 2670.7
-973.58 -1282.11 2644.5
-990.83 -1314.08 2710.5
-1001.25 -1337.38 2758.5
-991.08 -1333.32 2750.2
-966.23 -1309.31 2700.6
-918.08 -1281.20 2642.7
-920.58 -1304.15 2690.0
-939.63 -1341.30 2766.6
-953.09 -1370.98 2827.8
-930.76 -1359.79 2804.8
-884.31 -1302.10 2685.8
-862.28 -1321.70 2726.2
-848.68 -1311.59 2705.3
-799.33 -1288.57 2657.9
-792.90 -1289.33 2659.4
-816.28 -1338.98 2761.8
-791.49 -1309.81 2701.7
-719.83 -1294.32 2669.7
-710.96 -1290.77 2662.4
-707.90 -1297.81 2676.9
-720.82 -1334.58 2752.8
-711.78 -1331.03 2745.4
-690.85 -1304.93 2691.6
-688.90 -1314.53 2711.4
-680.23 -1311.36 2704.9
-643.81 -1308.61 2699.2
-644.59 -1324.60 2732.2
-623.63 -1295.76 2672.7
-573.44 -1307.72 2697.4
-584.14 -1348.57 2781.6
-571.67 -1336.28 2756.3
-557.51 -1319.68 2722.0
-547.10 -1311.64 2705.4
-538.89 -1308.74 2699.5
-527.74 -1298.53 2678.4
-522.12 -1337.48 2758.7
-523.44 -1359.50 2804.2
-498.89 -1313.97 2710.2
-487.26 -1339.98 2763.9
-490.15 -1368.04 2821.8
-484.07 -1371.55 2829.0
-453.67 -1305.17 2692.1
-441.61 -1331.97 2747.4
-438.72 -1344.93 2774.1
-422.66 -1317.28 2717.1
-412.20 -1306.46 2694.8
-414.19 -1335.40 2754.5
-417.59 -1369.98 2825.8
-407.02 -1359.15 2803.4
-399.23 -1357.39 2799.8
-395.73 -1396.27 2880.0
-383.56 -1379.34 2845.1
-355.93 -1358.36 2801.8
-347.42 -1353.51 2791.8
-327.16 -1390.44 2868.0
-309.82 -1347.35 2779.1
-311.26 -1385.87 2858.6
-255.79 -1406.85 2901.8
-239.25 -1355.78 2796.5
-235.84 -1378.20 2842.7
-233.06 -1405.85 2899.8
-219.99 -1371.27 2828.4
-211.61 -1364.52 2814.5
-209.69 -1400.43 2888.6
-200.09 -1385.83 2858.5
-192.29 -1382.99 2852.6
-164.99 -1402.44 2892.7
-153.89 -1370.36 2826.6
-147.84 -1382.28 2851.1
-140.28 -1380.68 2847.9
-133.63 -1388.23 2863.4
-127.01 -1397.08 2881.7
-118.43 -1384.13 2855.0
-108.94 -1358.08 2801.2
-100.90 -1347.73 2779.9
-93.12 -1339.54 2763.0
-86.44 -1347.05 2778.5
-80.37 -1366.32 2818.2
-73.84 -1380.79 2848.1
-67.78 -1408.34 2904.9
-59.43 -1389.21 2865.4
-50.13 -1339.11 2762.1
-42.77 -1333.05 2749.6
-36.71 -1372.78 2831.6
-29.85 -1395.50 2878.4
-21.93 -1367.17 2820.0
-14.67 -1371.99 2829.9
-7.37 -1378.11 2842.5
52.12 -1392.32 2871.9
58.67 -1371.33 2828.6
65.07 -1352.07 2788.8
73.89 -1381.66 2849.9
92.27 -1327.33 2737.8
114.51 -1338.35 2760.5
123.20 -1355.23 2795.4
128.68 -1336.80 2757.3
171.11 -1333.27 2750.1
181.83 -1360.09 2805.4
185.51 -1334.21 2752.0
372.60 -1339.93 2763.8
759.21 -1365.12 2815.8
-1383.57 -1300.56 2668.3
-1364.00 -1288.60 2643.8
-1332.66 -1271.77 2609.3
-1329.14 -1274.89 2615.7
-1274.95 -1274.95 2615.8
-1287.63 -1294.52 2655.9
-1228.97 -1283.59 2633.5
-1230.09 -1291.93 2650.6
-1222.69 -1291.38 2649.5
-1241.23 -1318.37 2704.9
-1228.40 -1312.15 2692.1
-1203.16 -1292.54 2651.9
-1210.03 -1307.39 2682.3
-1180.12 -1282.44 2631.2
-1167.53 -1298.79 2664.7
-1169.93 -1309.21 2686.1
-1137.41 -1280.43 2627.0
-1149.95 -1318.23 2704.6
-1143.11 -1318.43 2705.0
-1093.59 -1276.98 2620.0
-1107.89 -1301.77 2670.8
-1129.95 -1336.04 2741.1
-1129.22 -1343.63 2756.7
-1074.47 -1286.63 2639.7
-1067.06 -1285.95 2638.3
-1110.28 -1346.66 2762.9
-1081.64 -1320.44 2709.1
-1037.25 -1344.85 2759.2
-1030.19 -1344.96 2759.4
-1009.21 -1326.79 2722.1
-1020.75 -1351.42 2772.7
-992.73 -1323.64 2715.7
-961.24 -1290.81 2648.3
-964.89 -1305.04 2677.5
-952.79 -1298.00 2663.1
-918.71 -1288.94 2644.5
-896.71 -1286.88 2640.2
-928.13 -1342.22 2753.8
-935.41 -1363.23 2796.9
-906.45 -1331.35 2731.5
-873.55 -1293.13 2653.1
-859.83 -1324.98 2718.4
-873.93 -1357.84 2785.8
-837.88 -1312.67 2693.2
-778.51 -1295.22 2657.4
-770.62 -1329.15 2727.0
-779.60 -1357.08 2784.3
-748.37 -1314.89 2697.7
-674.20 -1293.37 2653.6
-672.95 -1304.28 2675.9
-651.61 -1303.22 2673.8
-558.71 -1296.76 2660.5
-545.19 -1297.42 2661.9
-553.18 -1333.30 2735.5
-547.37 -1336.43 2741.9
-538.04 -1330.93 2730.6
-508.85 -1310.47 2688.7
-499.43 -1304.06 2675.5
-480.74 -1309.85 2687.4
-488.82 -1351.43 2772.7
-489.67 -1373.99 2819.0
-479.49 -1365.82 2802.2
-471.34 -1363.26 2797.0
-464.98 -1365.89 2802.4
-446.25 -1331.67 2732.2
-436.60 -1323.88 2716.2
-434.34 -1338.63 2746.4
-419.33 -1313.89 2695.7
-408.95 -1325.57 2719.6
-412.95 -1362.03 2794.4
-403.11 -1353.31 2776.6
-387.64 -1325.03 2718.5
-385.95 -1343.68 2756.8
-390.31 -1384.50 2840.5
-360.88 -1356.92 2784.0
-361.13 -1385.58 2842.8
-273.11 -1387.68 2847.1
-259.68 -1356.08 2782.2
-258.53 -1388.66 2849.1
-249.29 -1378.43 2828.1
-233.26 -1328.88 2726.4
-229.13 -1346.16 2761.9
-225.18 -1365.61 2801.8
-211.47 -1325.19 2718.9
-206.07 -1335.89 2740.8
-206.61 -1387.25 2846.2
-192.42 -1339.80 2748.8
-164.98 -1409.82 2892.5
-154.91 -1386.79 2845.2
-142.31 -1408.10 2889.0
-118.75 -1395.37 2862.8
-110.50 -1384.97 2841.5
-103.31 -1387.27 2846.2
-95.91 -1386.94 2845.5
-89.51 -1402.36 2877.2
-51.38 -1379.94 2831.2
-43.59 -1365.97 2802.5
-35.42 -1331.84 2732.5
-14.71 -1383.18 2837.8
-7.28 -1369.17 2809.1
0.00 -1389.76 2851.3
52.49 -1409.73 2892.3
58.35 -1371.12 2813.1
64.67 -1350.91 2771.6
73.20 -1376.25 2823.6
81.44 -1391.94 2855.8
86.35 -1352.87 2775.6
92.18 -1333.07 2735.0
99.13 -1331.22 2731.2
114.28 -1342.83 2755.0
124.82 -1380.36 2832.0
132.15 -1380.23 2831.8
160.11 -1368.25 2807.2
163.14 -1333.52 2735.9
180.66 -1358.54 2787.3
188.22 -1360.98 2792.3
242.08 -1379.12 2829.5
245.97 -1360.09 2790.5
-1277.47 -1284.26 2620.9
-1237.95 -1299.85 2652.8
-1239.02 -1308.24 2669.9
-1202.10 -1276.39 2604.9
-1192.14 -1272.96 2597.9
-1203.44 -1292.33 2637.4
-1200.22 -1296.23 2645.4
-1202.96 -1306.67 2666.7
-1170.12 -1278.34 2608.9
-1156.60 -1278.35 2608.9
-1154.05 -1290.62 2633.9
-1161.24 -1306.40 2666.1
-1128.79 -1277.49 2607.1
-1124.19 -1287.71 2628.0
-1117.17 -1287.47 2627.5
-1124.77 -1336.99 2728.5
-1138.91 -1362.36 2780.3
-1092.73 -1315.45 2684.6
-1069.51 -1295.76 2644.4
-1092.30 -1331.90 2718.2
-1074.92 -1319.22 2692.3
-1042.56 -1287.86 2628.3
-1037.84 -1290.47 2633.6
-1041.38 -1303.45 2660.1
-1033.92 -1302.74 2658.6
-1008.76 -1279.57 2611.4
-1005.59 -1310.74 2675.0
-1012.39 -1328.76 2711.8
-1005.75 -1329.28 2712.8
-1011.03 -1345.66 2746.2
-979.03 -1312.31 2678.2
-927.99 -1299.19 2651.4
-917.56 -1294.17 2641.2
-869.04 -1293.30 2639.4
-861.62 -1292.43 2637.6
-850.57 -1286.06 2624.6
-834.60 -1303.63 2660.5
-833.31 -1312.47 2678.5
-818.86 -1300.54 2654.2
-795.98 -1296.90 2646.7
-789.07 -1296.81 2646.6
-762.50 -1322.14 2698.2
-770.07 -1347.62 2750.2
-739.91 -1306.95 2667.2
-651.75 -1296.63 2646.2
-661.02 -1329.07 2712.4
-647.74 -1316.38 2686.5
-623.85 -1295.69 2644.3
-611.15 -1312.58 2678.7
-618.38 -1343.37 2741.6
-594.86 -1307.30 2668.0
-569.07 -1361.45 2778.5
-559.42 -1355.52 2766.4
-535.71 -1314.93 2683.5
-528.62 -1314.59 2682.8
-507.85 -1314.83 2683.3
-478.99 -1312.03 2677.6
-478.32 -1329.45 2713.2
-468.53 -1321.66 2697.3
-467.47 -1338.66 2732.0
-468.62 -1362.61 2780.8
-464.67 -1372.22 2800.4
-448.56 -1345.69 2746.3
-435.88 -1328.72 2711.7
-431.52 -1336.99 2728.6
-407.94 -1352.63 2760.5
-409.95 -1383.58 2823.6
-406.56 -1397.08 2851.2
-391.30 -1369.55 2795.0
-381.96 -1362.08 2779.8
-377.74 -1372.94 2801.9
-358.55 -1328.75 2711.7
-348.26 -1316.44 2686.6
-358.50 -1382.80 2822.0
-270.86 -1383.56 2823.6
-258.33 -1356.21 2767.8
-258.51 -1395.94 2848.9
-250.62 -1393.13 2843.1
-234.86 -1345.12 2745.1
-232.99 -1376.07 2808.3
-230.78 -1407.03 2871.5
-215.15 -1355.46 2766.3
-207.00 -1349.10 2753.3
-199.57 -1347.11 2749.2
-181.46 -1371.85 2799.7
-161.23 -1385.11 2826.8
-104.54 -1411.26 2880.1
-95.14 -1383.21 2822.9
-74.67 -1411.19 2880.0
-65.55 -1376.51 2809.2
-58.77 -1388.45 2833.6
-50.22 -1355.95 2767.2
-44.39 -1398.23 2853.5
-28.57 -1349.91 2754.9
-21.83 -1375.45 2807.0
-7.36 -1390.88 2838.5
0.00 -1342.05 2738.9
7.10 -1341.16 2737.1
14.86 -1404.07 2865.5
29.83 -1409.31 2876.1
52.16 -1408.30 2874.1
59.50 -1405.60 2868.6
67.24 -1412.14 2881.9
72.92 -1378.19 2812.6
77.75 -1335.89 2726.3
85.04 -1339.32 2733.3
93.54 -1359.90 2775.3
100.82 -1361.12 2777.8
107.63 -1356.18 2767.7
116.40 -1374.97 2806.1
126.87 -1410.46 2878.5
134.23 -1409.45 2876.4
136.42 -1357.00 2769.4
141.21 -1334.44 2723.3
154.55 -1390.99 2838.7
163.48 -1404.45 2866.2
162.23 -1333.10 2720.6
185.43 -1347.94 2750.9
212.02 -1335.71 2725.9
534.94 -1348.05 2751.1
-1333.74 -1286.34 2611.4
-1339.75 -1298.73 2636.5
-1292.59 -1292.59 2624.1
-1235.16 -1282.40 2603.4
-1274.26 -1330.27 2700.6
-1220.98 -1281.69 2601.9
-1170.32 -1292.79 2624.5
-1175.53 -1306.15 2651.6
-1160.03 -1296.50 2632.0
-1150.46 -1293.42 2625.7
-1135.10 -1283.74 2606.1
-1077.28 -1287.31 2613.3
-1057.97 -1288.55 2615.9
-1096.06 -1343.55 2727.5
-1093.16 -1348.71 2738.0
-1048.98 -1302.66 2644.5
-1034.56 -1293.20 2625.3
-996.26 -1278.98 2596.4
-985.81 -1291.75 2622.4
-996.22 -1314.45 2668.4
-975.79 -1296.50 2632.0
-966.19 -1292.79 2624.5
-980.30 -1320.97 2681.7
-975.25 -1323.56 2686.9
-930.72 -1309.90 2659.2
-930.98 -1320.05 2679.8
-852.93 -1286.16 2611.0
-844.91 -1326.72 2693.3
-852.41 -1349.66 2739.9
-830.08 -1325.34 2690.5
-792.70 -1309.68 2658.8
-757.35 -1320.15 2680.0
-770.54 -1355.59 2751.9
-740.65 -1315.16 2669.9
-685.92 -1316.41 2672.4
-699.11 -1355.42 2751.6
-691.89 -1355.24 2751.2
-683.57 -1352.90 2746.5
-650.89 -1301.79 2642.7
-653.45 -1335.01 2710.2
-674.14 -1392.26 2826.4
-650.15 -1357.46 2755.8
-614.63 -1297.55 2634.1
-609.75 -1316.50 2672.6
-622.13 -1358.67 2758.2
-604.66 -1335.89 2712.0
-585.49 -1308.74 2656.8
-575.79 -1302.37 2643.9
-562.11 -1335.02 2710.2
-573.39 -1379.03 2799.5
-551.37 -1343.08 2726.5
-520.71 -1336.95 2714.1
-523.74 -1363.17 2767.3
-498.43 -1315.31 2670.2
-484.15 -1314.11 2667.7
-479.62 -1320.70 2681.1
-468.16 -1308.09 2655.5
-433.91 -1308.60 2656.6
-438.58 -1344.03 2728.5
-443.58 -1381.65 2804.9
-428.57 -1357.15 2755.1
-408.51 -1315.55 2670.7
-415.62 -1361.50 2764.0
-418.56 -1395.21 2832.4
-411.09 -1394.76 2831.5
-401.96 -1388.59 2818.9
-382.31 -1345.15 2730.8
-369.09 -1323.17 2686.1
-359.71 -1314.32 2668.2
-360.78 -1344.09 2728.6
-360.63 -1398.37 2838.8
-344.60 -1364.04 2769.1
-336.42 -1359.99 2760.9
-330.41 -1364.72 2770.5
-324.66 -1370.77 2782.8
-317.62 -1371.53 2784.3
-311.87 -1378.01 2797.5
-310.71 -1405.59 2853.5
-288.54 -1370.57 2782.4
-279.04 -1359.42 2759.7
-272.38 -1361.90 2764.8
-271.78 -1395.63 2833.2
-242.56 -1355.46 2751.7
-230.80 -1328.83 2697.6
-232.67 -1381.50 2804.6
-212.51 -1392.32 2826.5
-202.75 -1375.78 2792.9
-188.89 -1329.24 2698.5
-184.52 -1348.39 2737.3
-180.52 -1371.96 2785.2
-170.31 -1348.32 2737.2
-164.68 -1360.40 2761.7
-161.07 -1391.02 2823.9
-95.38 -1393.97 2829.9
-87.26 -1381.69 2804.9
-64.43 -1360.28 2761.5
-56.09 -1332.07 2704.2
-49.79 -1351.56 2743.8
-28.67 -1361.85 2764.6
-21.48 -1360.10 2761.1
-14.57 -1383.98 2809.6
-7.44 -1413.16 2868.8
7.01 -1332.29 2704.7
21.94 -1389.27 2820.3
37.21 -1413.95 2870.4
43.53 -1378.56 2798.6
50.92 -1382.05 2805.7
59.44 -1411.59 2865.6
67.03 -1415.06 2872.7
72.40 -1375.67 2792.7
77.18 -1333.19 2706.5
84.61 -1339.73 2719.8
91.15 -1332.13 2704.3
105.78 -1339.88 2720.1
116.24 -1380.39 2802.3
123.77 -1383.36 2808.3
129.08 -1362.48 2765.9
133.45 -1334.53 2709.2
140.14 -1331.30 2702.6
151.52 -1370.88 2783.0
158.20 -1366.30 2773.7
163.45 -1350.25 2741.1
171.26 -1355.82 2752.4
198.20 -1344.91 2730.3
204.71 -1341.18 2722.7
262.57 -1385.78 2813.2
266.21 -1367.02 2775.1
506.36 -1355.04 2750.8
-1352.58 -1311.38 2648.3
-1343.16 -1308.90 2643.3
-1302.75 -1289.25 2603.6
-1274.92 -1281.63 2588.2
-1240.83 -1274.19 2573.2
-1253.77 -1294.43 2614.0
-1248.82 -1296.33 2617.9
-1279.47 -1335.40 2696.8
-1273.54 -1336.52 2699.0
-1111.72 -1310.73 2647.0
-1119.37 -1327.95 2681.7
-1088.52 -1299.42 2624.1
-1060.50 -1315.30 2656.2
-1051.04 -1312.08 2649.7
-1037.28 -1303.42 2632.2
-1011.34 -1279.24 2583.4
-1014.27 -1336.04 2698.1
-1003.54 -1331.09 2688.1
-961.64 -1284.43 2593.8
-966.61 -1318.74 2663.1
-964.97 -1325.97 2677.7
-921.05 -1293.53 2612.2
-961.87 -1360.87 2748.2
-958.05 -1365.58 2757.7
-908.13 -1304.16 2633.7
-897.79 -1299.07 2623.4
-895.35 -1305.43 2636.3
-866.84 -1293.48 2612.1
-881.27 -1325.37 2676.5
-826.02 -1293.20 2611.5
-834.90 -1317.91 2661.4
-828.77 -1319.13 2663.9
-786.78 -1306.74 2638.9
-790.63 -1324.65 2675.1
-763.83 -1291.07 2607.3
-744.34 -1304.30 2634.0
-762.01 -1347.63 2721.5
-733.90 -1310.04 2645.6
-727.91 -1311.61 2648.7
-732.10 -1331.72 2689.3
-676.51 -1305.18 2635.7
-697.99 -1360.36 2747.2
-697.59 -1373.60 2773.9
-677.02 -1346.99 2720.2
-646.47 -1327.71 2681.2
-654.46 -1358.72 2743.9
-619.31 -1299.88 2625.0
-613.82 -1302.66 2630.6
-627.12 -1345.85 2717.9
-617.36 -1339.94 2705.9
-608.64 -1336.20 2698.4
-612.69 -1360.74 2747.9
-615.91 -1383.98 2794.9
-592.07 -1346.26 2718.7
-575.36 -1356.72 2739.8
-572.33 -1366.45 2759.5
-566.86 -1370.51 2767.7
-553.85 -1356.22 2738.8
-533.76 -1324.01 2673.8
-510.70 -1318.15 2661.9
-501.65 -1312.53 2650.6
-478.36 -1305.25 2635.9
-439.61 -1311.97 2649.5
-449.11 -1361.59 2749.7
-435.43 -1341.39 2708.9
-423.77 -1326.89 2679.6
-420.27 -1337.86 2701.7
-411.09 -1330.81 2687.5
-422.41 -1391.04 2809.1
-409.38 -1396.28 2819.7
-387.10 -1344.31 2714.8
-375.57 -1328.41 2682.6
-369.82 -1332.75 2691.4
-351.45 -1398.49 2824.2
-329.42 -1398.21 2823.6
-317.80 -1379.56 2785.9
-307.57 -1366.19 2758.9
-284.17 -1356.94 2740.3
-267.22 -1379.44 2785.7
-261.22 -1385.90 2798.8
-245.99 -1342.38 2710.9
-234.91 -1319.62 2664.9
-230.10 -1331.80 2689.5
-226.36 -1351.07 2728.4
-224.06 -1380.51 2787.9
-198.59 -1404.84 2837.0
-189.69 -1393.52 2814.1
-181.15 -1383.97 2794.9
-174.54 -1389.03 2805.1
-160.70 -1395.13 2817.4
-150.97 -1373.13 2773.0
-144.45 -1379.49 2785.8
-133.71 -1344.17 2714.5
-85.81 -1365.80 2758.2
-80.20 -1392.50 2812.1
-51.30 -1399.87 2827.0
-29.14 -1391.57 2810.2
-7.33 -1400.05 2827.3
7.25 -1384.97 2796.9
14.11 -1347.24 2720.7
36.15 -1380.88 2788.6
43.47 -1383.95 2794.8
66.10 -1402.86 2833.0
73.89 -1411.21 2849.9
81.63 -1417.35 2862.3
86.95 -1383.99 2794.9
91.44 -1343.53 2713.2
113.15 -1350.76 2727.8
119.03 -1337.33 2700.7
129.15 -1370.46 2767.6
138.26 -1389.83 2806.7
139.44 -1331.61 2689.1
172.53 -1373.07 2772.9
179.35 -1370.24 2767.1
202.95 -1336.68 2699.3
259.13 -1374.84 2776.4
264.82 -1367.06 2760.7
345.11 -1345.22 2716.6
352.75 -1347.51 2721.2
466.98 -1351.42 2729.1
867.71 -1381.11 2789.1
895.53 -1368.37 2763.4
-1666.69 -1290.34 2592.2
-1668.59 -1297.04 2605.7
-1327.54 -1274.43 2560.2
-1332.29 -1298.48 2608.6
-1312.62 -1285.83 2583.1
-1303.67 -1296.92 2605.4
-1287.45 -1287.45 2586.4
-1242.02 -1289.02 2589.5
-1263.44 -1318.38 2648.5
-1238.08 -1298.97 2609.5
-1139.98 -1287.51 2586.5
-1083.62 -1284.29 2580.0
-1101.20 -1313.24 2638.2
-1078.83 -1294.60 2600.8
-1048.74 -1316.06 2643.9
-1074.58 -1357.37 2726.9
-1047.12 -1331.44 2674.8
-1002.47 -1283.16 2577.8
-1012.19 -1304.30 2620.2
-1040.23 -1349.48 2711.0
-1008.75 -1317.55 2646.9
-995.86 -1309.62 2630.9
-1026.09 -1358.69 2729.5
-1003.88 -1338.51 2689.0
-958.85 -1324.46 2660.7
-957.17 -1331.72 2675.3
-933.91 -1308.83 2629.4
-940.05 -1327.13 2666.1
-938.54 -1334.82 2681.6
-885.22 -1287.60 2586.7
-892.47 -1308.04 2627.8
-874.09 -1290.97 2593.5
-876.84 -1315.26 2642.3
-886.37 -1340.02 2692.0
-821.15 -1292.30 2596.1
-823.56 -1306.81 2625.3
-811.88 -1299.01 2609.6
-789.28 -1306.39 2624.4
-796.59 -1329.97 2671.8
-799.84 -1347.10 2706.2
-788.21 -1339.25 2690.5
-777.15 -1332.25 2676.4
-783.86 -1355.87 2723.8
-774.27 -1351.45 2715.0
-714.54 -1294.26 2600.1
-744.40 -1361.20 2734.5
-742.63 -1371.02 2754.3
-720.77 -1343.57 2699.1
-716.45 -1348.61 2709.3
-688.79 -1309.39 2630.5
-682.62 -1351.17 2714.4
-687.45 -1374.89 2762.1
-645.84 -1333.34 2678.6
-644.83 -1345.74 2703.5
-622.25 -1342.39 2696.8
-621.35 -1355.67 2723.4
-606.65 -1338.81 2689.6
-606.60 -1354.27 2720.6
-602.13 -1360.11 2732.4
-571.20 -1305.60 2622.9
-582.57 -1364.07 2740.3
-588.28 -1394.43 2801.3
-570.12 -1368.29 2748.8
-554.93 -1348.69 2709.4
-534.06 -1314.60 2640.9
-528.48 -1317.77 2647.3
-524.08 -1324.00 2659.8
-466.12 -1316.12 2644.0
-445.43 -1315.74 2643.2
