ply
format ascii 1.0
element vertex 2319
property float x
property float y
property float z
end_header
193.61 203.13 1224.2
197.96 204.35 1231.6
197.10 200.23 1206.7
207.58 207.58 1251.0
213.69 210.40 1268.0
209.73 203.37 1225.7
209.60 200.22 1206.7
207.67 195.46 1178.0
208.20 193.11 1163.9
219.94 201.09 1211.9
225.12 202.93 1223.0
223.66 198.81 1198.2
227.95 199.85 1204.4
229.66 198.63 1197.1
236.99 202.23 1218.8
247.67 208.56 1257.0
248.68 206.70 1245.7
253.74 208.20 1254.8
258.46 209.38 1261.9
249.57 199.66 1203.3
245.66 194.10 1169.8
251.85 196.57 1184.7
259.57 200.15 1206.3
252.48 192.36 1159.3
251.31 189.22 1140.4
271.32 201.91 1216.9
260.86 191.90 1156.5
248.56 180.77 1089.5
257.24 184.98 1114.8
257.07 182.81 1101.7
256.83 180.63 1088.6
273.02 189.93 1144.7
282.31 194.28 1170.9
262.27 178.57 1076.2
247.20 166.54 1003.7
250.85 167.23 1007.9
254.03 167.61 1010.1
256.98 167.83 1011.5
255.03 164.87 993.6
250.26 160.17 965.3
256.11 162.29 978.1
256.72 161.08 970.8
251.18 156.07 940.6
248.06 152.65 920.0
251.58 153.34 924.2
264.02 159.41 960.7
265.28 158.67 956.3
263.06 155.89 939.5
264.51 155.31 936.0
260.26 151.43 912.6
258.36 148.96 897.8
263.26 150.44 906.6
264.32 149.70 902.2
267.04 149.92 903.5
272.58 151.70 914.2
276.47 152.53 919.3
284.96 155.88 939.4
289.79 157.18 947.3
284.18 152.84 921.1
293.99 156.80 945.0
315.15 166.69 1004.6
316.93 166.26 1002.0
306.39 159.42 960.8
300.79 155.25 935.7
301.47 154.35 930.3
303.66 154.24 929.6
309.24 155.84 939.2
317.97 158.99 958.2
321.78 159.64 962.1
321.82 158.43 954.8
332.31 162.35 978.4
344.18 166.87 1005.7
345.23 166.13 1001.2
361.49 172.65 1040.5
373.37 177.00 1066.8
370.58 174.39 1051.0
409.05 191.09 1151.7
384.42 178.28 1074.5
332.29 153.00 922.1
384.98 175.99 1060.7
-54.31 244.38 1496.2
-45.64 221.20 1354.3
-40.05 210.26 1287.3
-36.63 209.80 1284.5
-32.51 204.81 1254.0
-28.96 202.73 1241.2
-26.69 210.16 1286.7
-23.39 210.49 1288.7
-19.46 204.37 1251.3
-16.11 202.93 1242.4
-12.50 196.81 1205.0
-9.11 191.34 1171.4
-6.09 191.82 1174.4
-3.06 192.95 1181.3
0.00 193.76 1186.3
3.10 195.21 1195.2
6.18 194.72 1192.2
9.15 192.14 1176.4
12.12 190.85 1168.5
15.15 190.84 1168.4
18.33 192.45 1178.2
21.58 194.21 1189.1
24.33 191.62 1173.2
26.94 188.55 1154.4
29.70 187.09 1145.4
32.64 186.91 1144.4
35.72 187.55 1148.2
38.46 186.40 1141.2
41.85 188.32 1153.0
45.29 190.23 1164.7
47.86 188.44 1153.7
50.37 186.65 1142.8
52.72 184.54 1129.8
54.92 182.10 1114.9
58.11 183.04 1120.7
61.92 185.75 1137.3
65.93 188.79 1155.8
69.15 189.40 1159.6
70.85 185.99 1138.7
73.22 184.52 1129.7
76.60 185.61 1136.4
79.88 186.38 1141.1
82.18 184.90 1132.1
84.88 184.39 1128.9
89.70 188.37 1153.3
93.15 189.30 1159.0
95.31 187.65 1148.9
99.70 190.34 1165.4
104.26 193.19 1182.8
107.48 193.47 1184.5
110.89 194.07 1188.2
113.85 193.86 1186.9
116.32 192.85 1180.7
119.55 193.12 1182.4
121.77 191.79 1174.2
123.64 189.98 1163.1
127.47 191.21 1170.7
130.91 191.80 1174.3
133.58 191.26 1171.0
137.38 192.33 1177.5
143.43 196.43 1202.7
145.90 195.57 1197.4
146.04 191.67 1173.5
149.28 191.93 1175.1
152.53 192.19 1176.7
155.40 191.97 1175.3
158.40 191.91 1174.9
161.66 192.16 1176.5
164.11 191.46 1172.2
168.06 192.51 1178.6
178.01 200.26 1226.1
181.99 201.14 1231.5
179.83 195.33 1195.9
183.31 195.73 1198.4
189.53 199.00 1218.4
200.17 206.73 1265.7
210.42 213.81 1309.1
216.12 216.12 1323.2
216.06 212.69 1302.2
210.00 203.54 1246.1
208.81 199.32 1220.3
211.55 198.92 1217.9
212.38 196.77 1204.7
215.76 197.00 1206.1
222.67 200.40 1227.0
222.35 197.30 1208.0
223.93 195.94 1199.6
231.53 199.81 1223.4
234.59 199.72 1222.8
244.25 205.17 1256.1
251.97 208.87 1278.8
251.10 205.45 1257.8
245.63 198.39 1214.6
236.57 188.65 1155.0
241.45 190.14 1164.1
251.65 195.73 1198.3
265.51 203.99 1248.9
281.49 213.66 1308.1
278.21 208.66 1277.5
284.35 210.76 1290.3
302.16 221.35 1355.2
282.04 204.24 1250.4
251.74 180.22 1103.4
245.13 173.52 1062.4
261.66 183.16 1121.4
280.29 194.05 1188.1
271.30 185.78 1137.4
253.25 171.56 1050.4
262.61 176.01 1077.6
271.15 179.82 1100.9
256.20 168.13 1029.4
244.74 158.95 973.2
252.46 162.30 993.7
255.13 162.36 994.0
249.37 157.10 961.9
254.96 159.04 973.7
255.81 158.00 967.4
250.26 153.07 937.2
258.44 156.56 958.5
272.18 163.31 999.8
272.76 162.11 992.5
263.01 154.85 948.1
262.63 153.20 938.0
266.50 154.03 943.0
267.41 153.15 937.7
270.20 153.36 938.9
274.11 154.19 944.0
274.14 152.84 935.8
274.42 151.65 928.5
278.05 152.32 932.6
284.25 154.38 945.2
295.11 158.90 972.9
306.96 163.88 1003.4
307.59 162.84 997.0
292.34 153.48 939.7
287.77 149.83 917.3
302.45 156.18 956.2
305.91 156.68 959.3
300.30 152.57 934.1
300.06 151.23 925.9
304.69 152.35 932.7
313.99 155.76 953.6
312.80 153.96 942.6
306.23 149.55 915.6
312.15 151.27 926.2
330.84 159.11 974.1
355.83 169.83 1039.8
368.55 174.58 1068.8
378.49 177.95 1089.5
382.65 178.57 1093.3
395.37 183.15 1121.3
-51.28 227.12 1412.9
-45.36 216.35 1346.0
-41.51 214.47 1334.2
-38.05 214.48 1334.3
-33.80 209.58 1303.8
-29.30 201.82 1255.5
-26.43 204.84 1274.4
-23.00 203.74 1267.5
-19.06 196.93 1225.1
-15.86 196.62 1223.2
-12.42 192.50 1197.6
-9.06 187.26 1165.0
-6.07 188.06 1170.0
-3.08 190.92 1187.7
0.00 193.30 1202.6
3.10 192.03 1194.7
6.10 189.01 1175.9
9.16 189.33 1177.8
12.32 190.91 1187.7
15.24 189.00 1175.8
18.27 188.83 1174.8
21.64 191.68 1192.5
24.53 190.09 1182.6
26.99 185.95 1156.8
29.61 183.56 1142.0
32.40 182.60 1136.0
35.28 182.26 1133.9
37.68 179.71 1118.0
40.65 180.01 1119.9
44.08 182.22 1133.6
46.65 180.77 1124.6
49.73 181.39 1128.4
52.75 181.68 1130.3
54.99 179.44 1116.3
58.08 180.05 1120.1
61.41 181.30 1127.9
64.83 182.70 1136.6
68.88 185.68 1155.1
71.50 184.70 1149.1
73.44 182.14 1133.1
76.37 182.11 1132.9
79.43 182.39 1134.7
81.43 180.30 1121.7
83.21 177.89 1106.7
87.06 179.92 1119.3
92.16 184.31 1146.6
96.17 186.33 1159.2
100.33 188.50 1172.7
104.48 190.52 1185.2
107.44 190.32 1184.0
110.48 190.27 1183.7
115.50 193.55 1204.1
120.34 196.34 1221.5
120.99 192.34 1196.6
120.39 186.61 1161.0
122.22 184.83 1149.8
125.92 185.88 1156.4
130.63 188.35 1171.8
134.75 189.88 1181.3
133.08 183.36 1140.7
133.08 179.37 1115.9
141.54 186.72 1161.6
148.54 191.86 1193.6
153.45 194.16 1207.9
158.69 196.77 1224.2
158.44 192.62 1198.3
158.86 189.41 1178.3
161.46 188.87 1175.0
163.08 187.24 1164.8
166.04 187.17 1164.4
174.25 192.92 1200.2
184.51 200.70 1248.6
188.86 201.88 1255.9
189.65 199.29 1239.8
192.79 199.22 1239.4
197.01 200.24 1245.7
200.32 200.32 1246.2
206.65 203.37 1265.2
208.07 201.56 1254.0
207.62 198.04 1232.0
211.89 199.05 1238.3
214.84 198.81 1236.8
215.21 196.22 1220.7
216.54 194.57 1210.5
220.99 195.74 1217.7
226.73 197.99 1231.8
234.17 201.65 1254.5
245.03 208.11 1294.7
250.88 210.19 1307.7
248.68 205.58 1278.9
244.24 199.25 1239.6
249.27 200.71 1248.6
250.81 199.36 1240.3
241.42 189.47 1178.7
245.15 189.99 1182.0
253.78 194.25 1208.5
264.79 200.21 1245.5
282.63 211.12 1313.4
281.48 207.76 1292.5
276.81 201.91 1256.1
281.85 203.20 1264.1
280.19 199.68 1242.2
262.82 185.17 1152.0
246.34 171.61 1067.6
251.44 173.21 1077.6
266.34 181.46 1128.9
257.88 173.79 1081.2
248.03 165.35 1028.7
261.78 172.66 1074.2
269.37 175.80 1093.7
254.39 164.29 1022.1
247.97 158.49 986.0
260.83 165.02 1026.6
269.72 168.92 1050.9
268.31 166.35 1034.9
265.32 162.87 1013.3
258.18 156.93 976.3
250.10 150.54 936.6
254.94 151.98 945.5
265.53 156.79 975.4
262.91 153.78 956.7
257.03 148.93 926.5
260.33 149.45 929.7
268.75 152.86 951.0
274.01 154.44 960.8
275.23 153.73 956.4
277.79 153.78 956.7
277.86 152.45 948.4
278.45 151.44 942.1
281.26 151.64 943.4
285.78 152.75 950.3
291.49 154.46 961.0
298.11 156.63 974.5
305.96 159.41 991.7
297.15 153.53 955.1
282.25 144.63 899.7
287.06 145.88 907.6
301.22 151.83 944.6
307.07 153.54 955.2
308.40 152.97 951.6
314.63 154.82 963.2
315.65 154.10 958.7
305.13 147.80 919.5
305.71 146.93 914.1
320.16 152.69 949.9
329.37 155.89 969.8
342.19 160.73 999.9
372.56 173.67 1080.5
402.97 186.45 1159.9
394.55 181.20 1127.3
393.21 179.26 1115.2
417.98 181.22 1127.4
374.21 161.12 1002.4
-53.45 232.91 1472.7
-49.57 232.62 1470.9
-44.38 225.61 1426.6
-40.04 222.04 1404.0
-35.76 218.15 1379.4
-31.13 210.98 1334.1
-26.48 201.93 1276.9
-21.99 191.63 1211.7
-18.48 187.89 1188.1
-15.57 189.93 1201.0
-12.57 191.66 1211.9
-9.42 191.50 1210.9
-6.23 189.94 1201.1
-3.14 191.35 1210.0
0.00 191.04 1208.0
3.07 187.14 1183.3
6.12 186.51 1179.3
9.30 189.00 1195.1
12.31 187.75 1187.2
15.07 183.84 1162.5
17.91 182.12 1151.6
21.02 183.20 1158.4
24.19 184.44 1166.3
27.00 183.03 1157.3
30.13 183.80 1162.2
33.48 185.66 1173.9
36.24 184.24 1165.0
38.56 180.94 1144.1
40.81 177.81 1124.3
43.49 176.85 1118.3
46.30 176.52 1116.2
49.58 177.91 1124.9
52.68 178.51 1128.8
55.01 176.62 1116.8
57.59 175.66 1110.7
60.36 175.32 1108.6
63.67 176.55 1116.3
67.67 179.48 1134.9
71.77 182.42 1153.5
75.32 183.79 1162.1
77.73 182.36 1153.1
80.22 181.24 1146.0
83.03 180.89 1143.8
85.54 179.92 1137.7
88.01 178.95 1131.6
91.64 180.32 1140.2
94.82 180.75 1142.9
98.01 181.18 1145.6
102.26 183.47 1160.1
105.25 183.43 1159.9
108.32 183.55 1160.6
113.95 187.86 1187.9
119.51 191.85 1213.1
120.94 189.16 1196.1
121.05 184.61 1167.3
123.94 184.40 1166.0
127.57 185.29 1171.6
132.44 187.87 1188.0
136.15 188.75 1193.5
133.82 181.41 1147.1
131.96 174.99 1106.5
138.49 179.75 1136.6
147.50 187.44 1185.2
154.76 192.65 1218.2
159.89 195.07 1233.5
159.67 190.98 1207.6
160.37 188.13 1189.6
163.27 187.91 1188.2
169.58 191.56 1211.3
178.24 197.68 1250.0
179.71 195.76 1237.8
181.99 194.76 1231.5
186.58 196.23 1240.8
187.63 193.99 1226.7
186.64 189.75 1199.8
186.28 186.28 1177.9
189.42 186.36 1178.4
195.42 189.22 1196.5
203.78 194.23 1228.1
210.16 197.23 1247.1
209.14 193.30 1222.3
206.47 187.98 1188.6
217.53 195.13 1233.9
231.07 204.28 1291.7
229.20 199.73 1262.9
227.90 195.80 1238.1
233.18 197.55 1249.2
241.45 201.76 1275.8
245.39 202.28 1279.1
240.67 195.74 1237.7
243.57 195.50 1236.2
257.10 203.68 1287.9
264.62 206.95 1308.6
259.95 200.72 1269.2
263.91 201.23 1272.4
273.78 206.18 1303.7
265.30 197.36 1247.9
260.50 191.45 1210.6
263.92 191.66 1211.9
266.07 190.94 1207.4
273.79 194.20 1227.9
274.65 192.57 1217.6
275.89 191.24 1209.3
279.10 191.29 1209.6
272.42 184.64 1167.5
273.47 183.32 1159.2
272.19 180.48 1141.2
269.90 177.03 1119.4
271.47 176.17 1113.9
266.16 170.90 1080.7
257.82 163.83 1035.9
257.94 162.21 1025.7
267.50 166.51 1052.9
271.54 167.32 1058.0
270.89 165.25 1044.9
267.93 161.82 1023.2
265.61 158.84 1004.4
262.94 155.72 984.7
270.73 158.79 1004.1
284.59 165.33 1045.4
274.54 157.99 999.0
261.62 149.15 943.1
266.02 150.25 950.1
276.37 154.67 978.0
281.16 155.92 985.9
281.62 154.76 978.6
277.62 151.20 956.1
272.13 146.90 928.9
273.51 146.35 925.4
276.84 146.85 928.5
277.92 146.15 924.1
279.83 145.89 922.5
279.42 144.45 913.4
278.09 142.55 901.4
287.57 146.18 924.3
293.90 148.16 936.9
288.36 144.18 911.7
292.31 144.97 916.7
306.28 150.67 952.7
316.44 154.42 976.5
330.41 159.96 1011.4
338.34 162.51 1027.6
332.96 158.68 1003.4
340.02 160.78 1016.7
356.29 167.18 1057.1
365.43 170.16 1076.0
378.18 174.77 1105.1
411.70 188.82 1194.0
393.70 179.22 1133.2
335.88 151.77 959.7
328.89 147.52 932.8
358.52 159.63 1009.4
416.82 184.25 1165.0
-53.98 231.33 1487.1
-49.39 227.97 1465.6
-43.82 219.08 1408.4
-38.79 211.57 1360.1
-34.14 204.82 1316.7
-31.07 207.14 1331.6
-27.48 206.08 1324.8
-22.81 195.48 1256.7
-19.15 191.50 1231.0
-15.93 191.20 1229.1
-12.73 190.89 1227.2
-9.61 192.28 1236.1
-6.40 192.13 1235.1
-3.19 191.52 1231.2
0.00 189.67 1219.3
3.08 184.91 1188.7
6.12 183.68 1180.8
9.27 185.37 1191.6
12.24 183.67 1180.7
15.10 181.21 1164.9
18.06 180.58 1160.9
20.85 178.73 1149.0
23.58 176.88 1137.1
26.55 177.02 1138.0
29.89 179.32 1152.8
33.21 181.15 1164.5
35.95 179.75 1155.6
38.61 178.20 1145.6
41.33 177.11 1138.6
44.54 178.17 1145.4
48.04 180.15 1158.1
50.47 178.13 1145.1
52.70 175.65 1129.2
55.23 174.40 1121.2
57.97 173.92 1118.1
60.76 173.59 1115.9
64.20 175.10 1125.7
67.47 176.00 1131.4
70.76 176.89 1137.2
75.61 181.46 1166.6
79.55 183.58 1180.2
81.70 181.56 1167.1
84.00 179.99 1157.1
87.13 180.26 1158.8
90.27 180.53 1160.6
93.57 181.11 1164.3
96.41 180.77 1162.1
98.31 178.74 1149.0
101.00 178.24 1145.8
102.88 176.36 1133.8
104.97 174.94 1124.6
109.84 178.12 1145.0
114.81 181.29 1165.4
118.80 182.77 1174.9
121.61 182.42 1172.7
123.57 180.84 1162.5
126.34 180.49 1160.3
131.17 183.03 1176.6
134.86 183.90 1182.2
137.20 182.93 1176.0
140.09 182.72 1174.6
142.49 181.90 1169.4
146.94 183.68 1180.8
150.83 184.69 1187.3
152.72 183.26 1178.1
157.40 185.18 1190.4
163.61 188.78 1213.6
164.95 186.73 1200.4
169.64 188.49 1211.7
178.17 194.36 1249.5
179.64 192.47 1237.3
181.48 191.03 1228.1
185.33 191.72 1232.5
189.95 193.17 1241.8
192.49 192.49 1237.4
191.91 188.77 1213.5
195.61 189.30 1216.9
203.15 193.47 1243.8
212.60 199.31 1281.3
216.82 200.14 1286.6
212.89 193.54 1244.2
210.61 188.61 1212.5
223.27 197.01 1266.5
233.94 203.43 1307.8
228.40 195.77 1258.5
230.67 194.93 1253.1
239.25 199.38 1281.7
244.67 201.10 1292.8
245.11 198.74 1277.6
243.40 194.72 1251.8
249.20 196.74 1264.8
254.49 198.30 1274.8
252.97 194.59 1250.9
256.88 195.10 1254.2
269.83 202.38 1301.0
282.62 209.35 1345.8
277.94 203.37 1307.4
266.00 192.29 1236.2
263.81 188.44 1211.4
262.13 185.03 1189.5
266.15 185.68 1193.7
270.18 186.33 1197.9
276.00 188.18 1209.7
286.98 193.47 1243.7
287.80 191.87 1233.4
285.84 188.46 1211.6
282.16 184.02 1183.0
282.75 182.42 1172.7
287.26 183.36 1178.7
277.38 175.18 1126.2
264.85 165.53 1064.1
270.82 167.52 1076.9
286.11 175.17 1126.1
283.20 171.64 1103.4
275.46 165.28 1062.5
273.79 162.65 1045.6
273.29 160.76 1033.5
271.20 157.98 1015.6
281.64 162.49 1044.6
281.31 160.75 1033.4
258.91 146.56 942.1
257.49 144.38 928.2
273.05 151.70 975.2
282.12 155.30 998.3
286.15 156.08 1003.4
284.46 153.76 988.5
277.45 148.63 955.5
278.07 147.65 949.1
285.66 150.35 966.5
287.68 150.10 964.9
287.99 148.96 957.6
283.38 145.32 934.2
275.47 140.07 900.4
283.73 143.06 919.7
304.13 152.06 977.6
310.88 154.16 991.0
305.47 150.23 965.8
304.44 148.51 954.7
314.56 152.21 978.5
317.47 152.39 979.6
322.23 153.44 986.4
349.60 165.17 1061.8
367.05 172.05 1106.1
360.22 167.54 1077.1
359.26 165.81 1065.9
358.88 164.37 1056.7
358.78 163.08 1048.4
397.66 179.39 1153.2
388.64 174.02 1118.7
357.57 158.92 1021.6
379.67 167.50 1076.8
388.78 170.27 1094.6
416.64 181.15 1164.5
-99.47 279.47 1827.1
-93.62 276.19 1805.6
-88.81 275.77 1802.9
-84.33 276.41 1807.0
-55.20 217.12 1419.4
-51.17 215.63 1409.7
-47.95 217.61 1422.7
-41.62 204.63 1337.8
-36.07 193.46 1264.8
-32.36 190.91 1248.1
-29.88 195.91 1280.8
-27.34 201.66 1318.4
-23.32 196.53 1284.8
-19.30 189.74 1240.4
-15.91 187.78 1227.6
-12.54 184.91 1208.9
-9.33 183.56 1200.0
-6.23 183.86 1202.0
-3.12 183.86 1202.0
0.00 185.23 1210.9
3.12 183.86 1202.0
6.11 180.38 1179.3
9.15 179.93 1176.3
12.29 181.28 1185.2
15.35 181.13 1184.1
18.22 179.16 1171.2
20.86 175.82 1149.4
23.49 173.24 1132.6
26.40 173.08 1131.5
29.41 173.53 1134.4
32.32 173.36 1133.4
35.53 174.71 1142.2
38.69 175.60 1148.0
40.95 172.56 1128.1
43.68 171.79 1123.1
47.73 176.01 1150.6
50.93 176.74 1155.5
53.41 175.06 1144.5
56.32 174.89 1143.3
59.07 174.26 1139.2
61.75 173.48 1134.1
65.13 174.67 1141.9
68.37 175.39 1146.6
69.92 171.90 1123.8
73.02 172.32 1126.6
78.32 177.72 1161.9
82.01 179.20 1171.5
84.74 178.57 1167.4
88.27 179.59 1174.1
91.30 179.55 1173.8
94.24 179.37 1172.6
97.59 179.93 1176.3
99.95 178.69 1168.2
102.08 177.15 1158.1
103.54 174.54 1141.1
104.92 171.95 1124.1
109.22 174.16 1138.6
114.08 177.13 1158.0
118.05 178.59 1167.5
122.78 181.10 1184.0
126.65 182.26 1191.5
128.96 181.15 1184.3
133.53 183.21 1197.7
139.17 186.61 1220.0
142.86 187.31 1224.5
144.36 185.15 1210.4
145.78 183.00 1196.3
148.47 182.49 1193.0
150.51 181.23 1184.8
153.79 181.47 1186.4
160.83 186.06 1216.4
164.99 187.20 1223.8
163.93 182.49 1193.0
163.13 178.23 1165.2
165.12 177.12 1158.0
171.47 180.65 1181.0
178.66 184.93 1209.0
186.28 189.49 1238.8
194.80 194.80 1273.5
198.49 195.18 1276.0
198.63 192.12 1256.0
201.49 191.74 1253.5
208.64 195.40 1277.4
215.27 198.45 1297.4
217.23 197.18 1289.0
219.14 195.90 1280.7
223.21 196.56 1285.0
226.96 196.92 1287.4
227.59 194.60 1272.2
226.72 191.10 1249.3
233.08 193.69 1266.2
240.07 196.72 1286.1
242.92 196.33 1283.5
250.61 199.81 1306.3
255.95 201.35 1316.3
257.33 199.77 1306.0
258.07 197.74 1292.7
260.31 196.90 1287.3
269.08 200.96 1313.8
273.35 201.60 1317.9
275.41 200.61 1311.5
283.60 204.05 1334.0
287.74 204.54 1337.2
278.22 195.42 1277.5
267.76 185.86 1215.0
270.33 185.46 1212.5
272.46 184.77 1207.9
273.02 183.05 1196.7
277.53 183.98 1202.8
280.71 184.02 1203.1
281.40 182.45 1192.7
290.99 186.61 1220.0
309.05 196.06 1281.8
314.30 197.27 1289.7
299.71 186.14 1216.9
283.34 174.14 1138.4
289.98 176.38 1153.1
291.82 175.69 1148.6
277.16 165.17 1079.8
276.31 163.02 1065.8
281.15 164.24 1073.7
276.93 160.19 1047.2
272.07 155.85 1018.8
271.45 153.99 1006.7
262.71 147.62 965.0
247.74 137.89 901.5
250.97 138.38 904.7
270.22 147.62 965.1
282.76 153.06 1000.6
285.98 153.39 1002.8
283.74 150.82 986.0
282.24 148.68 972.0
287.34 150.03 980.8
298.94 154.72 1011.5
305.03 156.49 1023.1
302.91 154.07 1007.2
296.40 149.47 977.2
284.25 142.13 929.2
290.25 143.90 940.8
310.11 152.47 996.8
315.44 153.81 1005.5
318.71 154.13 1007.6
328.00 157.33 1028.6
332.84 158.37 1035.3
328.57 155.08 1013.9
318.35 149.07 974.5
329.92 153.27 1002.0
342.55 157.90 1032.2
331.78 151.75 992.0
342.32 155.36 1015.7
354.87 159.83 1044.9
333.59 149.10 974.8
343.59 152.42 996.5
394.30 173.61 1135.0
-95.35 276.51 1838.9
-63.20 229.10 1523.6
-53.42 206.54 1373.5
-49.11 203.44 1352.9
-46.57 207.77 1381.7
-40.68 196.64 1307.7
-36.25 191.15 1271.2
-33.29 193.10 1284.1
-29.90 192.66 1281.3
-26.74 193.86 1289.2
-22.99 190.45 1266.6
-19.16 185.26 1232.0
-15.86 183.93 1223.1
-12.52 181.55 1207.4
-9.31 179.92 1196.5
-6.19 179.63 1194.6
-3.06 177.25 1178.7
0.00 176.80 1175.8
3.05 176.95 1176.8
6.03 174.87 1162.9
9.04 174.86 1162.9
12.16 176.35 1172.8
15.45 179.17 1191.5
18.58 179.61 1194.4
21.21 175.73 1168.7
23.91 173.35 1152.8
26.78 172.59 1147.8
29.73 172.43 1146.7
32.53 171.53 1140.7
35.52 171.67 1141.6
39.01 174.03 1157.3
41.57 172.23 1145.4
44.19 170.88 1136.4
48.04 174.13 1158.0
51.29 175.00 1163.8
53.89 173.64 1154.8
56.88 173.62 1154.6
59.76 173.30 1152.5
61.66 170.31 1132.6
64.20 169.25 1125.5
68.17 171.89 1143.1
70.57 170.53 1134.1
72.02 167.09 1111.2
75.49 168.40 1119.9
80.24 172.38 1146.3
84.35 174.72 1161.9
87.42 174.83 1162.7
89.88 173.76 1155.6
93.01 174.02 1157.3
96.48 174.88 1163.0
99.82 175.43 1166.7
103.08 175.84 1169.4
104.39 172.98 1150.4
105.69 170.28 1132.4
110.40 173.05 1150.8
115.97 177.01 1177.1
119.99 178.44 1186.7
124.97 181.21 1205.1
130.78 185.00 1230.3
135.22 186.73 1241.8
136.10 183.57 1220.8
137.88 181.75 1208.7
143.03 184.35 1226.0
145.58 183.56 1220.7
145.47 179.52 1193.8
146.93 177.55 1180.7
151.82 179.70 1195.1
159.32 184.81 1229.0
165.56 188.29 1252.1
168.09 187.49 1246.8
167.50 183.30 1219.0
167.31 179.70 1195.0
167.55 176.69 1175.0
171.96 178.10 1184.4
178.29 181.42 1206.5
185.32 185.32 1232.4
194.73 191.43 1273.0
199.78 193.12 1284.3
201.95 192.02 1276.9
206.90 193.55 1287.2
206.65 190.25 1265.2
205.80 186.50 1240.3
212.38 189.51 1260.3
219.56 192.94 1283.1
219.91 190.37 1266.0
220.01 187.65 1247.9
228.20 191.82 1275.6
234.58 194.37 1292.6
235.14 192.08 1277.4
236.71 190.68 1268.1
236.39 187.82 1249.0
240.26 188.31 1252.3
249.44 192.90 1282.8
255.89 195.29 1298.7
271.34 204.38 1359.2
291.59 216.82 1441.9
292.60 214.82 1428.6
289.52 209.91 1395.9
278.76 199.61 1327.4
272.39 192.67 1281.3
283.89 198.38 1319.3
283.58 195.81 1302.2
293.20 200.06 1330.5
316.08 213.17 1417.6
305.43 203.62 1354.1
296.67 195.53 1300.3
292.75 190.78 1268.8
287.34 185.17 1231.4
284.23 181.16 1204.7
290.40 183.08 1217.5
293.62 183.12 1217.8
283.96 175.21 1165.2
309.29 188.83 1255.8
331.24 200.12 1330.9
303.36 181.39 1206.3
279.01 165.13 1098.1
261.51 153.21 1018.9
258.78 150.09 998.1
277.50 159.35 1059.7
288.16 163.86 1089.7
280.85 158.15 1051.7
278.50 155.32 1032.9
286.46 158.23 1052.3
287.16 157.13 1044.9
280.69 152.15 1011.8
291.13 156.35 1039.7
297.94 158.54 1054.3
294.23 155.14 1031.7
288.49 150.74 1002.5
283.99 147.07 978.0
282.72 145.11 965.0
287.27 146.15 972.0
304.29 153.47 1020.6
314.13 157.07 1044.5
301.68 149.55 994.5
286.09 140.62 935.2
283.35 138.10 918.4
296.40 143.26 952.7
314.06 150.54 1001.1
329.56 156.68 1041.9
355.18 167.48 1113.8
378.10 176.85 1176.1
355.23 164.83 1096.1
328.30 151.12 1005.0
334.06 152.56 1014.6
339.24 153.72 1022.3
347.91 156.43 1040.3
385.12 171.82 1142.7
394.15 174.51 1160.5
359.99 158.18 1051.9
361.14 157.49 1047.3
406.46 175.93 1170.0
-59.01 224.24 1517.4
-50.24 204.53 1384.1
-44.79 196.37 1328.8
-42.24 200.62 1357.6
-40.21 208.38 1410.1
-35.02 199.63 1350.9
-30.16 191.02 1292.6
-27.22 193.95 1312.5
-23.50 191.33 1294.7
-19.62 186.37 1261.2
-16.25 185.21 1253.3
-12.89 183.75 1243.4
-9.60 182.44 1234.6
-6.31 179.81 1216.8
-3.08 175.57 1188.1
0.00 174.26 1179.2
3.04 173.53 1174.2
6.05 172.50 1167.3
9.12 173.23 1172.2
12.16 173.23 1172.2
15.30 174.39 1180.1
18.42 174.97 1184.0
21.00 171.01 1157.2
24.10 171.74 1162.1
27.48 174.07 1177.9
30.15 171.86 1163.0
32.60 168.93 1143.1
35.56 168.92 1143.0
39.09 171.39 1159.8
42.31 172.25 1165.6
45.55 173.11 1171.4
48.30 172.07 1164.4
50.22 168.40 1139.5
53.40 169.11 1144.3
57.00 170.99 1157.0
60.24 171.69 1161.8
62.60 169.92 1149.8
64.45 166.98 1129.9
67.72 167.83 1135.7
71.02 168.68 1141.4
73.39 167.34 1132.4
76.25 167.16 1131.2
80.41 169.76 1148.7
84.02 171.04 1157.4
86.71 170.43 1153.3
89.14 169.37 1146.1
92.33 169.78 1148.9
96.03 171.05 1157.5
99.52 171.89 1163.2
102.94 172.58 1167.8
104.43 170.07 1150.8
106.28 168.28 1138.7
111.76 172.17 1165.1
117.08 175.62 1188.4
120.63 176.30 1193.0
125.12 178.29 1206.5
130.62 181.59 1228.8
134.09 181.98 1231.4
134.50 178.29 1206.5
133.22 172.58 1167.8
134.95 170.93 1156.7
141.07 174.80 1182.9
145.17 176.05 1191.3
147.11 174.69 1182.1
152.37 177.25 1199.4
158.74 180.96 1224.6
164.20 183.51 1241.8
167.23 183.31 1240.4
166.75 179.33 1213.5
170.52 180.00 1218.0
174.88 181.24 1226.4
176.57 179.72 1216.2
180.24 180.24 1219.6
183.92 180.75 1223.1
189.86 183.43 1241.2
198.79 188.85 1277.9
205.58 192.10 1299.9
212.01 194.91 1318.9
213.74 193.39 1308.6
212.67 189.41 1281.7
219.53 192.51 1302.7
222.98 192.57 1303.1
218.30 185.72 1256.7
220.95 185.21 1253.3
230.89 190.74 1290.7
234.67 191.09 1293.1
232.90 186.97 1265.2
233.71 185.02 1252.0
231.88 181.05 1225.2
237.18 182.69 1236.3
247.83 188.35 1274.5
255.22 191.42 1295.3
271.82 201.22 1361.6
293.66 214.59 1452.1
297.07 214.34 1450.5
281.59 200.63 1357.7
260.15 183.07 1238.8
259.11 180.11 1218.8
274.21 188.31 1274.3
281.79 191.22 1293.9
301.18 201.97 1366.7
326.75 216.57 1465.5
318.39 208.60 1411.6
304.48 197.22 1334.6
296.42 189.84 1284.6
298.01 188.74 1277.2
303.65 190.20 1287.1
296.94 183.97 1244.9
287.93 176.47 1194.2
261.09 158.32 1071.3
258.98 155.39 1051.5
295.97 175.74 1189.2
296.95 174.50 1180.8
278.62 162.05 1096.6
265.54 152.89 1034.6
260.36 148.40 1004.2
277.34 156.52 1059.2
292.57 163.49 1106.3
288.86 159.86 1081.7
288.91 158.34 1071.5
301.90 163.89 1109.0
309.56 166.46 1126.4
310.43 165.37 1119.0
299.24 157.93 1068.7
285.66 149.38 1010.8
287.00 148.72 1006.4
285.58 146.65 992.4
291.82 148.52 1005.0
301.74 152.21 1030.0
294.66 147.33 997.0
300.44 148.91 1007.7
315.95 155.25 1050.6
309.26 150.66 1019.5
294.88 142.44 963.9
296.00 141.78 959.4
308.27 146.43 990.9
324.25 152.75 1033.6
344.61 161.01 1089.5
376.36 174.41 1180.2
380.96 175.12 1185.0
336.43 153.41 1038.1
333.64 150.93 1021.3
373.20 167.50 1133.4
390.20 173.76 1175.8
408.53 176.41 1193.8
-62.55 218.93 1507.9
-57.80 215.79 1486.3
-51.12 204.47 1408.3
-47.70 205.49 1415.4
-46.65 217.71 1499.6
-41.95 213.57 1471.0
-34.80 194.91 1342.5
-29.92 186.16 1282.2
-26.90 188.32 1297.1
-23.42 187.33 1290.3
-19.67 183.60 1264.6
-16.57 185.62 1278.5
-13.32 186.49 1284.5
-9.71 181.32 1248.9
-6.26 175.29 1207.3
-3.10 173.71 1196.5
0.00 174.57 1202.4
3.11 174.14 1199.4
6.19 173.42 1194.5
9.02 168.39 1159.8
11.66 163.21 1124.2
14.76 165.36 1139.0
17.87 166.79 1148.8
20.78 166.21 1144.8
24.28 169.94 1170.5
27.19 169.21 1165.5
29.34 164.31 1131.8
32.36 164.73 1134.6
36.04 168.17 1158.3
39.57 170.45 1174.0
42.75 171.01 1177.9
45.80 170.99 1177.8
48.32 169.11 1164.8
50.55 166.51 1146.9
54.07 168.21 1158.6
57.36 169.05 1164.4
60.21 168.60 1161.3
63.06 168.15 1158.2
65.37 166.40 1146.1
68.69 167.24 1151.9
71.97 167.93 1156.7
75.08 168.19 1158.4
78.81 169.74 1169.1
81.89 169.85 1169.9
84.19 168.39 1159.8
87.41 168.79 1162.6
90.56 169.04 1164.3
93.87 169.58 1168.0
97.86 171.26 1179.6
100.06 169.80 1169.5
102.02 168.04 1157.4
105.81 169.29 1166.0
110.00 171.11 1178.6
113.31 171.50 1181.2
116.15 171.17 1179.0
119.98 172.27 1186.6
124.35 174.09 1199.1
130.46 178.18 1227.3
135.10 180.14 1240.7
137.62 179.23 1234.5
138.65 176.47 1215.5
136.14 169.42 1166.9
138.07 168.09 1157.7
144.26 171.89 1183.9
148.39 173.12 1192.4
153.80 175.77 1210.7
160.32 179.56 1236.8
164.65 180.79 1245.2
166.76 179.59 1237.0
166.41 175.83 1211.0
170.17 176.48 1215.5
177.04 180.26 1241.6
181.47 181.47 1249.9
181.89 178.70 1230.9
182.07 175.79 1210.8
190.68 180.98 1246.6
202.97 189.44 1304.8
207.51 190.50 1312.1
211.92 191.42 1318.4
216.37 192.33 1324.7
218.10 190.84 1314.4
222.40 191.61 1319.7
221.89 188.27 1296.8
218.04 182.24 1255.2
221.20 182.16 1254.7
230.63 187.18 1289.2
233.34 186.67 1285.7
230.29 181.64 1251.1
228.34 177.60 1223.3
238.03 182.60 1257.7
257.04 194.51 1339.8
267.00 199.36 1373.1
272.73 200.96 1384.1
271.92 197.76 1362.1
271.39 194.84 1342.0
275.33 195.17 1344.3
261.58 183.11 1261.2
257.60 178.09 1226.7
273.41 186.72 1286.1
283.89 191.54 1319.3
285.89 190.60 1312.8
254.20 167.47 1153.5
231.84 150.97 1039.8
255.54 164.49 1132.9
284.33 180.93 1246.2
290.07 182.52 1257.1
307.34 191.23 1317.2
311.94 191.96 1322.2
301.64 183.60 1264.6
303.11 182.52 1257.2
286.27 170.54 1174.7
259.30 152.85 1052.8
266.66 155.55 1071.4
284.25 164.10 1130.3
287.01 164.01 1129.6
276.96 156.66 1079.1
273.37 153.09 1054.4
268.41 148.82 1025.0
261.28 143.45 988.0
271.85 147.80 1018.0
286.17 154.09 1061.3
283.01 150.94 1039.6
276.60 146.13 1006.5
290.41 151.99 1046.9
292.93 151.89 1046.2
272.29 139.89 963.5
265.91 135.37 932.4
281.84 142.19 979.4
307.11 153.56 1057.7
316.61 156.90 1080.7
306.55 150.59 1037.2
307.33 149.66 1030.8
318.91 153.96 1060.4
320.58 153.44 1056.8
313.23 148.65 1023.9
299.31 140.85 970.2
296.02 138.14 951.5
312.20 144.49 995.2
334.27 153.44 1056.8
358.13 163.05 1123.1
351.07 158.55 1092.1
335.62 150.36 1035.6
367.89 163.51 1126.2
-61.71 212.13 1487.7
-55.28 202.70 1421.6
-50.27 197.50 1385.1
-47.92 202.74 1421.8
-44.76 205.16 1438.8
-38.72 193.60 1357.7
-33.89 186.42 1307.3
-30.37 185.58 1301.5
-26.81 184.32 1292.6
-22.92 180.10 1263.0
-19.56 179.26 1257.1
-16.67 183.36 1285.9
-13.23 181.95 1276.0
-9.56 175.32 1229.5
-6.28 172.78 1211.7
-3.16 173.91 1219.7
0.00 172.36 1208.8
3.09 170.10 1192.9
6.07 166.85 1170.1
8.71 159.65 1119.6
11.45 157.39 1103.8
14.77 162.47 1139.4
18.08 165.71 1162.1
21.25 166.97 1171.0
24.51 168.52 1181.8
27.18 166.11 1164.9
29.58 162.71 1141.1
32.96 164.81 1155.8
36.20 165.93 1163.7
39.18 165.78 1162.6
42.55 167.17 1172.4
45.78 167.86 1177.2
48.62 167.14 1172.1
51.26 165.85 1163.1
54.36 166.11 1165.0
57.28 165.81 1162.8
58.75 161.56 1133.0
60.06 157.31 1103.2
63.25 158.13 1109.0
67.47 161.35 1131.6
70.95 162.60 1140.3
74.22 163.27 1145.0
77.37 163.67 1147.8
79.78 162.51 1139.7
84.37 165.72 1162.2
90.41 171.46 1202.5
92.20 169.04 1185.5
94.15 167.03 1171.4
98.96 170.10 1192.9
101.87 169.78 1190.7
103.28 167.07 1171.7
106.65 167.59 1175.3
110.68 169.10 1185.9
113.54 168.78 1183.6
117.36 169.86 1191.2
122.11 172.21 1207.7
125.11 172.02 1206.4
129.67 173.94 1219.9
135.69 177.69 1246.1
139.54 178.48 1251.7
142.29 177.87 1247.4
141.12 172.49 1209.6
141.64 169.35 1187.7
146.59 171.54 1203.0
152.11 174.29 1222.3
159.10 178.58 1252.4
160.89 176.98 1241.2
160.68 173.28 1215.2
168.28 177.98 1248.2
173.88 180.44 1265.4
175.31 178.56 1252.2
180.04 180.04 1262.6
184.10 180.81 1268.0
184.28 177.81 1247.0
181.25 171.88 1205.4
186.56 173.91 1219.6
199.39 182.77 1281.8
204.95 184.79 1295.9
205.56 182.35 1278.8
205.44 179.35 1257.8
211.37 181.64 1273.9
219.35 185.61 1301.7
217.12 180.94 1268.9
212.02 174.04 1220.6
217.67 176.05 1234.7
229.66 183.07 1283.8
236.25 185.62 1301.8
237.36 183.87 1289.5
237.69 181.57 1273.3
251.56 189.53 1329.2
264.59 196.66 1379.1
265.77 194.90 1366.8
273.02 197.58 1385.6
273.57 195.40 1370.4
272.27 191.99 1346.4
275.23 191.61 1343.8
265.90 182.81 1282.0
262.78 178.43 1251.3
281.12 188.56 1322.4
293.16 194.26 1362.3
292.11 191.26 1341.3
254.93 164.95 1156.8
241.25 152.51 1069.6
265.92 166.20 1165.6
268.12 165.69 1162.0
279.99 171.10 1199.9
279.98 169.22 1186.7
282.67 168.99 1185.1
297.42 175.89 1233.5
299.50 175.24 1229.0
287.82 166.63 1168.6
288.52 165.30 1159.3
300.29 170.27 1194.1
290.03 162.77 1141.5
267.94 148.86 1043.9
275.45 151.50 1062.5
279.54 152.23 1067.6
268.71 144.89 1016.1
277.56 148.21 1039.4
290.91 153.85 1078.9
287.01 150.34 1054.3
276.17 143.30 1004.9
286.80 147.42 1033.9
301.85 153.72 1078.0
289.89 146.28 1025.8
273.61 136.81 959.4
283.04 140.24 983.5
306.94 150.73 1057.1
312.25 151.98 1065.9
314.24 151.61 1063.2
328.67 157.19 1102.4
332.15 157.48 1104.4
323.85 152.24 1067.6
321.45 149.83 1050.8
313.72 145.00 1016.9
308.19 141.25 990.6
322.99 146.81 1029.6
335.88 151.42 1061.9
347.71 155.48 1090.4
364.23 161.55 1133.0
377.59 166.14 1165.1
-98.26 252.67 1804.8
-90.14 256.19 1830.0
-57.00 205.19 1465.6
-50.69 195.51 1396.5
-44.13 183.33 1309.5
-38.62 173.78 1241.3
-36.56 179.48 1282.0
-34.65 187.11 1336.5
-30.73 184.35 1316.8
-26.84 181.17 1294.1
-23.45 180.91 1292.2
-20.36 183.27 1309.1
-16.75 180.92 1292.3
-12.92 174.41 1245.8
-9.53 171.50 1225.0
-6.38 172.20 1230.0
-3.14 169.43 1210.2
0.00 165.27 1180.5
3.04 164.02 1171.6
5.97 161.25 1151.8
8.87 159.58 1139.8
12.05 162.63 1161.6
15.21 164.28 1173.5
18.21 163.86 1170.4
21.35 164.69 1176.3
24.58 165.93 1185.2
27.49 164.95 1178.2
30.24 163.27 1166.2
33.48 164.37 1174.1
36.52 164.36 1174.0
39.26 163.10 1165.0
42.35 163.36 1166.9
45.34 163.21 1165.8
47.86 161.53 1153.8
50.41 160.12 1143.7
53.51 160.52 1146.6
56.47 160.50 1146.4
58.05 156.74 1119.6
59.82 153.81 1098.7
63.61 156.15 1115.3
68.62 161.11 1150.8
72.88 163.99 1171.3
74.63 161.19 1151.4
76.13 158.12 1129.4
78.84 157.68 1126.3
83.82 161.66 1154.7
91.55 170.48 1217.7
95.00 171.00 1221.4
96.24 167.65 1197.5
100.31 169.27 1209.1
103.42 169.24 1208.8
104.97 166.71 1190.8
106.42 164.19 1172.8
108.24 162.36 1159.7
114.15 166.60 1190.0
121.58 172.77 1234.0
125.24 173.41 1238.7
126.68 171.02 1221.6
129.40 170.43 1217.3
133.48 171.62 1225.9
134.76 169.23 1208.8
134.93 165.60 1182.9
139.80 167.76 1198.3
146.73 172.25 1230.4
150.00 172.34 1231.0
153.51 172.70 1233.5
157.41 173.47 1239.1
155.86 168.32 1202.3
159.31 168.68 1204.9
171.51 178.11 1272.2
179.60 182.99 1307.1
183.48 183.48 1310.6
184.71 181.35 1295.4
184.73 178.13 1272.4
187.96 178.07 1271.9
187.65 174.71 1247.9
191.26 175.06 1250.4
202.35 182.11 1300.8
205.80 182.18 1301.3
203.43 177.18 1265.6
204.87 175.60 1254.3
212.41 179.23 1280.2
224.37 186.40 1331.4
225.55 184.54 1318.2
217.34 175.17 1251.2
220.67 175.23 1251.7
238.47 186.63 1333.0
251.72 194.18 1387.0
254.66 193.69 1383.5
257.95 193.46 1381.9
258.10 190.92 1363.7
254.98 186.06 1329.0
257.54 185.43 1324.5
265.83 188.88 1349.1
275.41 193.14 1379.6
283.36 196.17 1401.2
282.88 193.36 1381.1
270.02 182.26 1301.9
268.98 179.32 1280.8
288.64 190.08 1357.7
288.88 187.95 1342.5
274.92 176.73 1262.4
287.64 182.73 1305.2
300.57 188.73 1348.1
293.65 182.27 1301.9
288.05 176.76 1262.6
286.93 174.09 1243.5
298.32 178.99 1278.5
322.85 191.58 1368.4
354.49 208.07 1486.2
339.32 197.03 1407.3
311.57 178.99 1278.5
298.82 169.86 1213.3
300.11 168.81 1205.8
321.18 178.80 1277.2
313.07 172.51 1232.2
285.28 155.61 1111.5
289.97 156.58 1118.5
313.52 167.63 1197.3
317.44 168.06 1200.4
302.97 158.84 1134.6
297.97 154.72 1105.1
303.25 155.96 1114.0
299.11 152.38 1088.4
300.15 151.48 1082.0
304.89 152.44 1088.9
297.54 147.40 1052.9
285.12 139.97 999.8
287.51 139.87 999.1
305.38 147.24 1051.7
327.68 156.59 1118.5
352.55 167.00 1192.8
340.67 159.97 1142.6
317.13 147.63 1054.5
324.24 149.65 1068.9
340.99 156.05 1114.6
340.42 154.48 1103.4
342.15 153.97 1099.8
360.47 160.87 1149.1
376.04 166.44 1188.9
367.40 161.30 1152.1
362.53 157.88 1127.7
379.85 164.10 1172.1
-94.04 249.19 1813.5
-89.54 249.77 1817.7
-67.66 210.93 1535.1
-61.67 204.29 1486.8
-55.05 194.52 1415.6
-50.96 192.91 1403.9
-45.92 187.21 1362.4
-40.30 177.97 1295.2
-38.52 185.60 1350.8
-35.30 187.11 1361.8
-30.37 178.82 1301.4
-26.91 178.29 1297.5
-23.80 180.20 1311.5
-20.26 178.99 1302.6
-16.42 174.09 1267.0
-12.98 171.92 1251.2
-9.78 172.74 1257.1
-6.40 169.48 1233.4
-3.09 163.90 1192.8
0.00 161.31 1174.0
3.05 161.58 1175.9
6.07 160.77 1170.0
9.09 160.63 1169.0
12.23 161.98 1178.9
15.27 161.84 1177.8
18.14 160.20 1165.9
21.12 159.92 1163.9
24.34 161.28 1173.7
27.27 160.59 1168.7
30.07 159.35 1159.7
33.44 161.11 1172.5
36.44 160.96 1171.4
39.11 159.45 1160.4
42.40 160.53 1168.3
45.58 161.06 1172.1
47.92 158.73 1155.2
50.30 156.81 1141.2
52.69 155.16 1129.2
54.88 153.10 1114.2
57.77 153.08 1114.0
60.97 153.87 1119.8
65.95 158.88 1156.3
72.30 166.60 1212.5
75.98 167.80 1221.2
76.90 163.02 1186.4
77.76 158.51 1153.6
79.70 156.44 1138.5
82.92 156.96 1142.3
88.10 161.00 1171.7
94.65 167.21 1216.9
99.37 169.89 1236.4
101.00 167.28 1217.4
101.69 163.31 1188.5
104.22 162.46 1182.3
106.73 161.61 1176.2
109.66 161.44 1174.9
117.22 167.91 1222.0
120.45 168.00 1222.6
119.51 162.41 1181.9
123.25 163.31 1188.5
128.61 166.25 1209.9
133.42 168.37 1225.3
135.35 166.83 1214.1
136.78 164.76 1199.0
143.41 168.90 1229.2
147.49 169.93 1236.7
147.77 166.64 1212.7
149.89 165.50 1204.5
152.72 165.18 1202.1
156.67 166.07 1208.6
165.99 172.50 1255.4
174.88 178.24 1297.2
178.18 178.18 1296.7
182.86 179.47 1306.1
185.06 178.33 1297.8
183.51 173.68 1264.0
184.55 171.60 1248.8
192.43 175.84 1279.7
205.71 184.79 1344.9
218.56 193.07 1405.1
223.67 194.33 1414.3
219.85 187.94 1367.8
219.96 185.04 1346.7
216.38 179.19 1304.1
216.21 176.30 1283.0
232.98 187.09 1361.6
239.64 189.56 1379.6
231.58 180.50 1313.6
238.90 183.50 1335.4
252.87 191.46 1393.4
256.90 191.77 1395.7
258.95 190.61 1387.2
257.45 186.91 1360.3
259.55 185.89 1352.8
267.85 189.28 1377.5
269.56 187.98 1368.1
271.42 186.82 1359.6
280.71 190.74 1388.1
281.38 188.77 1373.8
270.51 179.21 1304.2
272.53 178.32 1297.8
296.77 191.82 1396.0
301.28 192.38 1400.1
284.71 179.64 1307.4
297.33 185.40 1349.2
311.89 192.21 1398.8
305.09 185.86 1352.6
309.53 186.42 1356.7
319.56 190.30 1384.9
334.00 196.69 1431.4
356.63 203.24 1479.1
316.60 178.51 1299.1
296.31 165.31 1203.1
302.36 166.93 1214.9
331.20 180.96 1317.0
324.65 175.57 1277.8
299.17 160.16 1165.6
289.57 153.47 1116.9
298.31 156.54 1139.2
303.61 157.76 1148.1
291.56 150.03 1091.8
287.75 146.64 1067.2
293.45 148.12 1078.0
298.68 149.34 1086.9
308.19 152.66 1111.0
310.87 152.56 1110.3
300.33 146.03 1062.8
302.07 145.54 1059.2
321.88 153.69 1118.5
321.52 152.15 1107.3
323.89 151.91 1105.6
340.58 158.34 1152.3
322.37 148.57 1081.2
311.24 142.20 1034.9
331.54 150.19 1093.0
353.28 158.68 1154.8
351.34 156.48 1138.8
344.03 151.94 1105.8
354.95 155.47 1131.5
378.85 164.58 1197.8
377.16 162.52 1182.7
350.20 149.68 1089.3
337.79 143.22 1042.3
375.03 157.75 1148.0
-96.17 250.05 1854.8
-89.91 246.08 1825.3
-66.68 203.96 1512.9
-61.49 199.84 1482.3
-56.15 194.65 1443.9
-52.99 196.81 1459.8
-50.37 201.50 1494.6
-46.07 199.65 1480.9
-41.84 197.79 1467.1
-36.58 190.19 1410.8
-30.93 178.72 1325.6
-27.02 175.65 1302.9
-23.50 174.59 1295.1
-19.75 171.13 1269.4
-16.37 170.20 1262.5
-13.14 170.87 1267.5
-9.76 169.14 1254.6
-6.29 163.53 1213.0
-3.11 161.66 1199.1
0.00 163.13 1210.1
3.09 160.59 1191.2
6.04 157.12 1165.4
9.16 158.85 1178.3
12.47 162.06 1202.1
15.44 160.58 1191.1
18.19 157.64 1169.3
21.09 156.69 1162.3
24.25 157.62 1169.2
27.49 158.82 1178.0
30.69 159.61 1183.9
33.53 158.53 1175.9
35.96 155.84 1156.0
38.36 153.43 1138.1
41.38 153.68 1139.9
45.25 156.87 1163.6
48.39 157.26 1166.5
50.31 153.90 1141.6
52.16 150.68 1117.7
55.24 151.20 1121.5
59.07 153.58 1139.2
62.12 153.82 1141.0
66.93 158.20 1173.5
71.97 162.72 1207.0
74.10 160.56 1190.9
76.54 159.20 1180.9
78.92 157.84 1170.8
81.04 156.08 1157.7
84.31 156.58 1161.5
88.20 158.15 1173.1
92.84 160.92 1193.6
97.66 163.82 1215.1
99.72 162.05 1202.0
101.64 160.15 1188.0
105.39 161.18 1195.6
108.82 161.68 1199.3
112.83 162.97 1208.9
116.50 163.73 1214.5
115.93 158.64 1176.7
116.66 155.54 1153.7
121.76 158.29 1174.1
128.96 163.56 1213.3
136.37 168.83 1252.3
141.44 171.04 1268.7
146.04 172.59 1280.2
150.00 173.33 1285.7
151.18 170.90 1267.6
151.90 168.06 1246.6
154.96 167.87 1245.2
155.89 165.43 1227.1
157.75 164.06 1216.9
165.40 168.64 1250.9
171.63 171.63 1273.1
175.14 171.83 1274.6
179.48 172.83 1282.0
184.70 174.63 1295.3
186.57 173.24 1285.0
188.96 172.38 1278.7
198.98 178.40 1323.3
205.93 181.50 1346.3
211.93 183.68 1362.4
221.89 189.15 1403.0
223.55 187.49 1390.7
228.50 188.60 1399.0
229.60 186.55 1383.7
218.43 174.74 1296.2
223.87 176.38 1308.3
243.28 188.81 1400.5
247.66 189.39 1404.8
244.04 183.91 1364.2
246.76 183.31 1359.7
256.63 187.95 1394.2
265.40 191.68 1421.8
265.46 189.10 1402.6
270.09 189.79 1407.8
279.10 193.51 1435.4
280.39 191.84 1423.0
276.76 186.90 1386.3
280.21 186.81 1385.7
289.83 190.77 1415.1
288.52 187.54 1391.1
276.90 177.76 1318.6
286.36 181.59 1347.0
314.73 197.18 1462.6
326.16 201.91 1497.7
321.54 196.71 1459.1
313.93 189.82 1408.0
309.99 185.28 1374.3
316.91 187.26 1389.1
322.12 188.20 1396.0
331.86 191.74 1422.3
334.22 190.98 1416.6
324.13 183.20 1358.9
335.60 187.64 1391.9
334.55 185.07 1372.8
298.07 163.15 1210.2
296.96 160.85 1193.1
330.10 176.96 1312.6
330.12 175.17 1299.3
297.54 156.29 1159.3
282.20 146.74 1088.5
284.84 146.65 1087.8
284.19 144.88 1074.7
289.86 146.34 1085.5
303.59 151.79 1126.0
312.30 154.66 1147.2
319.54 156.76 1162.7
325.52 158.20 1173.5
324.61 156.29 1159.3
317.69 151.56 1124.2
326.91 154.54 1146.3
346.67 162.40 1204.6
338.77 157.28 1166.7
329.57 151.66 1124.9
333.66 152.20 1128.9
327.57 148.12 1098.7
327.04 146.61 1087.5
335.96 149.32 1107.6
339.47 149.59 1109.6
350.28 153.07 1135.4
358.28 155.25 1151.6
364.86 156.80 1163.1
381.07 162.42 1204.8
391.44 165.49 1227.5
374.30 156.96 1164.3
359.91 149.72 1110.6
401.02 165.50 1227.6
-94.36 240.61 1819.7
-89.70 240.77 1821.0
-57.25 194.64 1472.1
-53.29 194.14 1468.3
-50.09 196.51 1486.2
-46.21 196.40 1485.4
-42.28 196.02 1482.5
-37.82 192.89 1458.8
-32.56 184.51 1395.5
-27.73 176.79 1337.1
-23.60 171.95 1300.5
-20.14 171.17 1294.6
-16.94 172.75 1306.5
-13.23 168.69 1275.8
-9.58 162.93 1232.2
-6.27 159.92 1209.5
-3.14 160.18 1211.5
0.00 162.02 1225.3
3.14 159.92 1209.5
6.10 155.46 1175.8
9.21 156.51 1183.7
12.26 156.37 1182.6
14.89 151.91 1148.9
17.92 152.30 1151.8
21.23 154.65 1169.6
24.38 155.43 1175.5
27.61 156.47 1183.4
30.78 156.98 1187.3
33.55 155.53 1176.3
36.22 153.95 1164.3
38.87 152.49 1153.3
41.25 150.25 1136.4
44.46 151.16 1143.2
48.32 154.02 1164.9
51.03 153.09 1157.8
53.10 150.45 1137.9
56.29 151.09 1142.7
60.32 153.82 1163.3
63.65 154.58 1169.1
66.84 154.95 1171.9
70.05 155.32 1174.7
72.84 154.78 1170.6
75.99 155.01 1172.4
78.88 154.72 1170.2
81.55 154.04 1165.0
85.35 155.45 1175.7
89.49 157.39 1190.3
93.33 158.66 1200.0
96.98 159.54 1206.6
99.18 158.07 1195.5
101.16 156.34 1182.4
106.03 159.05 1202.9
110.56 161.10 1218.4
112.40 159.24 1204.3
114.08 157.24 1189.2
117.91 158.25 1196.8
122.68 160.43 1213.3
123.13 156.99 1187.4
125.44 156.04 1180.1
133.94 162.64 1230.1
140.39 166.51 1259.3
142.94 165.68 1253.0
144.65 163.94 1239.9
147.24 163.24 1234.6
149.91 162.67 1230.3
157.22 167.04 1263.3
162.56 169.20 1279.7
162.26 165.51 1251.7
167.40 167.40 1266.1
173.14 169.81 1284.3
175.33 168.72 1276.0
179.54 169.57 1282.4
184.48 171.06 1293.8
186.91 170.22 1287.4
190.33 170.29 1287.9
196.84 173.08 1309.0
200.01 172.89 1307.5
203.01 172.56 1305.1
209.41 175.08 1324.2
218.58 179.80 1359.9
231.77 187.62 1419.0
237.46 189.23 1431.1
229.37 179.97 1361.1
228.29 176.41 1334.2
240.14 182.79 1382.4
249.98 187.49 1418.0
251.10 185.60 1403.7
250.20 182.29 1378.7
257.61 185.05 1399.5
271.13 192.05 1452.5
276.61 193.25 1461.6
270.37 186.33 1409.3
267.64 182.00 1376.5
276.83 185.77 1405.0
281.51 186.45 1410.1
285.41 186.62 1411.4
294.90 190.38 1439.8
311.77 198.76 1503.2
319.18 200.96 1519.9
314.91 195.86 1481.3
331.73 203.83 1541.6
333.44 202.44 1531.1
317.38 190.43 1440.2
320.51 190.07 1437.5
327.99 192.27 1454.1
330.47 191.52 1448.5
330.92 189.63 1434.2
334.00 189.26 1431.4
328.18 183.92 1391.0
323.77 179.48 1357.4
342.91 188.05 1422.2
359.60 193.05 1460.0
331.07 175.88 1330.2
348.35 183.15 1385.2
342.69 178.34 1348.8
297.89 153.46 1160.6
279.30 142.44 1077.3
280.41 141.59 1070.9
293.15 146.58 1108.6
313.75 155.35 1174.9
312.21 153.10 1157.9
306.15 148.70 1124.6
329.63 158.60 1199.5
354.80 169.11 1279.0
345.30 163.06 1233.2
329.39 154.12 1165.6
328.65 152.37 1152.4
338.00 155.30 1174.5
341.64 155.57 1176.6
344.17 155.34 1174.8
355.98 159.25 1204.4
357.72 158.64 1199.8
342.00 150.36 1137.2
337.22 146.99 1111.7
342.76 148.14 1120.4
358.58 153.68 1162.3
384.32 163.34 1235.3
-108.68 236.26 1822.5
-100.60 239.53 1847.8
-85.02 236.16 1821.8
-63.67 198.96 1534.8
-57.34 191.15 1474.6
-54.68 195.28 1506.4
-49.54 190.54 1469.9
-44.44 185.16 1428.4
-40.82 185.56 1431.4
-36.57 182.87 1410.7
-31.90 177.23 1367.2
-27.54 172.10 1327.6
-24.06 171.85 1325.7
-21.07 175.58 1354.5
-17.01 170.06 1311.9
-12.85 160.68 1239.6
-9.56 159.40 1229.7
-6.42 160.43 1237.6
-3.16 158.12 1219.8
0.00 158.25 1220.8
3.17 158.64 1223.8
6.25 156.32 1205.9
9.26 154.26 1190.0
12.09 151.17 1166.2
14.87 148.72 1147.3
18.17 151.42 1168.1
21.50 153.60 1184.9
24.66 154.10 1188.8
27.60 153.32 1182.8
30.43 152.16 1173.8
33.36 151.63 1169.7
36.11 150.47 1160.7
39.32 151.22 1166.6
42.34 151.21 1166.5
45.36 151.20 1166.4
49.04 153.24 1182.1
52.01 152.96 1180.0
54.23 150.63 1162.0
56.89 149.72 1154.9
60.34 150.85 1163.7
63.51 151.22 1166.5
66.64 151.45 1168.3
70.19 152.58 1177.1
73.04 152.18 1173.9
76.01 152.02 1172.7
78.71 151.36 1167.6
80.82 149.66 1154.5
84.08 150.15 1158.3
88.18 152.04 1172.9
91.67 152.78 1178.6
96.93 156.34 1206.1
100.86 157.59 1215.7
102.46 155.25 1197.6
107.38 157.90 1218.1
111.58 159.41 1229.7
113.09 157.06 1211.6
115.16 155.62 1200.5
119.31 156.99 1211.1
124.81 160.02 1234.4
125.32 156.65 1208.5
124.54 151.88 1171.7
130.01 154.78 1194.0
137.69 160.10 1235.1
141.30 160.57 1238.7
143.78 159.76 1232.4
147.05 159.84 1233.0
149.24 158.77 1224.8
156.53 163.06 1257.9
164.24 167.60 1292.9
166.14 166.14 1281.6
169.15 165.83 1279.3
172.27 165.65 1277.8
175.39 165.46 1276.4
180.01 166.68 1285.8
188.18 171.07 1319.7
194.10 173.30 1336.9
191.11 167.64 1293.2
191.89 165.42 1276.1
199.92 169.42 1307.0
208.26 173.55 1338.8
214.59 175.90 1356.9
223.38 180.14 1389.7
235.04 186.54 1439.0
238.35 186.21 1436.5
238.35 183.35 1414.4
245.09 185.68 1432.4
253.96 189.53 1462.1
259.71 190.96 1473.1
261.67 189.61 1462.7
262.33 187.38 1445.5
262.01 184.51 1423.4
267.58 185.82 1433.4
270.61 185.35 1429.9
262.04 177.06 1365.9
256.18 170.79 1317.5
260.05 171.08 1319.8
266.84 173.27 1336.7
272.92 174.95 1349.6
283.85 179.65 1385.9
303.01 189.38 1460.9
325.19 200.74 1548.5
335.23 204.41 1576.9
341.23 205.56 1585.7
329.32 196.02 1512.2
313.85 184.62 1424.2
316.72 184.14 1420.5
324.38 186.42 1438.1
326.82 185.69 1432.5
330.80 185.84 1433.6
338.84 188.24 1452.2
341.04 187.38 1445.5
342.52 186.15 1436.0
345.58 185.79 1433.3
355.90 189.31 1460.4
372.53 196.07 1512.5
372.63 194.08 1497.2
333.69 172.01 1326.9
286.35 146.10 1127.0
297.49 150.25 1159.0
328.94 164.47 1268.8
321.97 159.39 1229.6
333.83 163.64 1262.4
336.64 163.42 1260.6
313.60 150.77 1163.1
309.63 147.44 1137.4
336.57 158.76 1224.7
345.09 161.26 1244.0
321.06 148.64 1146.7
321.12 147.30 1136.3
332.83 151.29 1167.1
337.00 151.80 1171.1
337.04 150.46 1160.7
343.44 151.97 1172.3
363.40 159.39 1229.6
367.18 159.65 1231.5
350.40 151.03 1165.1
350.58 149.82 1155.7
366.97 155.49 1199.5
364.54 153.17 1181.6
365.57 152.32 1175.1
380.83 157.37 1214.0
384.59 157.62 1215.9
-88.73 228.84 1801.4
-63.24 193.66 1524.4
-59.14 193.18 1520.6
-54.12 189.42 1491.0
-47.38 178.60 1405.9
-42.42 173.20 1363.4
-38.88 173.21 1363.5
-36.79 180.28 1419.1
-33.58 182.81 1439.0
-28.31 173.37 1364.7
-24.30 170.11 1339.0
-20.92 170.87 1345.0
-16.68 163.44 1286.6
-12.74 156.01 1228.1
-9.60 156.77 1234.0
-6.46 158.28 1246.0
-3.19 156.52 1232.1
0.00 155.64 1225.2
3.17 155.39 1223.2
6.30 154.38 1215.2
9.40 153.49 1208.3
12.38 151.60 1193.3
15.33 150.21 1182.4
18.52 151.21 1190.3
21.67 151.71 1194.2
24.83 152.08 1197.1
27.77 151.19 1190.1
30.72 150.55 1185.1
33.74 150.29 1183.0
36.34 148.39 1168.1
39.43 148.63 1169.9
42.82 149.87 1179.7
46.26 151.12 1189.5
50.04 153.24 1206.3
52.90 152.47 1200.2
54.15 147.42 1160.4
55.79 143.87 1132.5
59.59 146.00 1149.2
63.10 147.23 1159.0
65.53 145.95 1148.9
68.20 145.30 1143.8
72.21 147.42 1160.4
76.16 149.28 1175.1
79.53 149.89 1179.9
82.51 149.73 1178.7
84.90 148.58 1169.5
87.92 148.55 1169.3
91.55 149.52 1177.0
96.72 152.89 1203.5
101.63 155.62 1225.0
104.27 154.83 1218.8
106.10 152.91 1203.7
107.32 150.24 1182.7
112.48 153.09 1205.1
118.04 156.32 1230.5
119.64 154.27 1214.4
122.66 154.11 1213.1
128.74 157.71 1241.4
133.39 159.42 1254.9
135.53 158.12 1244.7
140.37 159.96 1259.1
143.82 160.16 1260.8
145.55 158.49 1247.6
153.21 163.20 1284.6
160.69 167.53 1318.7
159.52 162.85 1281.9
158.54 158.54 1248.0
164.15 160.87 1266.3
171.02 164.31 1293.4
175.64 165.51 1302.8
179.90 166.33 1309.3
185.44 168.27 1324.5
194.41 173.20 1363.4
203.00 177.63 1398.2
203.21 174.69 1375.1
198.00 167.27 1316.7
200.73 166.71 1312.3
210.31 171.75 1352.0
218.54 175.55 1381.9
224.71 177.59 1398.0
233.52 181.63 1429.7
237.94 182.17 1434.0
239.25 180.36 1419.7
249.36 185.13 1457.3
261.86 191.51 1507.5
264.44 190.55 1500.0
262.97 186.75 1470.0
267.02 186.91 1471.3
271.07 187.08 1472.6
276.95 188.48 1483.6
280.11 188.02 1480.0
272.04 180.13 1417.9
266.11 173.86 1368.6
274.33 176.87 1392.3
284.99 181.36 1427.6
285.99 179.66 1414.2
291.10 180.56 1421.3
304.52 186.52 1468.2
319.59 193.33 1521.8
326.25 194.96 1534.6
327.97 193.62 1524.1
334.07 194.87 1534.0
337.65 194.65 1532.2
331.51 188.88 1486.8
327.97 184.72 1454.1
323.61 180.19 1418.4
318.85 175.55 1381.9
350.67 190.92 1502.9
357.59 190.46 1499.2
337.54 177.84 1399.9
333.92 174.07 1370.2
333.71 172.13 1354.9
344.22 175.69 1383.0
315.64 159.45 1255.1
292.06 146.03 1149.5
332.86 164.75 1296.9
358.68 175.75 1383.5
339.67 164.79 1297.2
336.73 161.76 1273.3
325.73 154.96 1219.8
328.16 154.62 1217.1
346.75 161.82 1273.8
352.72 163.05 1283.5
340.16 155.77 1226.2
319.02 144.74 1139.4
319.33 143.55 1130.0
336.74 150.00 1180.8
346.71 153.05 1204.8
350.71 153.43 1207.8
364.20 157.93 1243.2
379.55 163.14 1284.2
374.10 159.40 1254.8
365.08 154.22 1213.9
374.02 156.64 1233.0
395.09 162.68 1280.6
368.63 150.52 1184.9
362.52 146.80 1155.6
392.79 157.76 1241.8
-63.59 190.76 1532.9
-59.04 188.93 1518.2
-53.56 183.64 1475.7
-48.70 179.83 1445.0
-44.99 179.97 1446.2
-41.27 180.10 1447.3
-39.14 187.89 1509.9
-34.86 185.93 1494.1
-28.73 172.36 1385.0
-24.22 166.07 1334.5
-20.48 163.85 1316.7
-16.77 161.02 1293.9
-13.18 158.18 1271.1
-9.65 154.36 1240.4
-6.33 151.89 1220.6
-3.18 152.51 1225.5
0.00 153.62 1234.5
3.20 153.75 1235.5
6.38 153.13 1230.5
9.44 151.03 1213.6
12.36 148.31 1191.7
15.26 146.45 1176.8
18.32 146.57 1177.8
21.64 148.41 1192.6
25.02 150.13 1206.4
28.03 149.51 1201.4
31.02 148.88 1196.4
34.14 149.00 1197.3
36.84 147.38 1184.3
39.48 145.76 1171.3
42.33 145.13 1166.2
45.16 144.50 1161.2
48.20 144.61 1162.0
51.82 146.32 1175.8
53.89 143.71 1154.8
55.85 141.11 1133.9
59.97 143.92 1156.5
63.44 145.01 1165.3
65.89 143.76 1155.2
68.05 142.01 1141.2
71.61 143.22 1150.9
76.32 146.53 1177.5
80.42 148.48 1193.1
83.71 148.82 1195.9
