ply
format ascii 1.0
element vertex 2281
property float x
property float y
property float z
end_header
837.03 566.66 1428.6
882.60 594.88 1499.7
911.11 611.40 1541.3
923.83 617.23 1556.1
672.78 623.56 1582.3
665.60 613.16 1556.0
678.00 620.82 1575.4
680.02 618.94 1570.6
689.53 623.86 1583.1
692.30 622.66 1580.1
666.59 596.01 1512.4
645.92 574.15 1457.0
636.12 562.15 1426.5
631.18 554.57 1407.3
633.51 553.41 1404.3
641.66 557.33 1414.3
646.72 558.53 1417.3
634.91 545.23 1383.6
619.79 529.26 1343.0
623.52 529.47 1343.6
634.82 536.07 1360.3
638.58 536.27 1360.8
637.12 532.10 1350.3
632.78 525.59 1333.7
629.99 520.43 1320.6
632.85 519.96 1319.5
636.52 520.16 1320.0
626.20 509.00 1291.6
614.53 496.85 1260.8
620.14 498.74 1265.6
635.35 508.28 1289.8
639.78 509.15 1292.0
641.28 507.68 1288.3
651.20 512.86 1301.4
659.48 516.71 1311.2
657.16 512.25 1299.9
651.79 505.47 1282.7
652.36 503.35 1277.3
655.92 503.54 1277.8
652.56 498.44 1264.8
659.56 501.27 1272.0
682.30 515.97 1309.3
693.81 522.07 1324.8
681.63 510.38 1295.1
669.32 498.71 1265.5
669.74 496.59 1260.1
679.48 501.37 1272.3
697.76 512.37 1300.2
706.28 516.13 1309.7
697.74 507.45 1287.7
692.26 501.07 1271.5
693.98 499.93 1268.6
704.78 505.31 1282.3
726.60 518.52 1315.8
749.02 532.02 1350.0
755.47 534.10 1355.3
754.53 530.97 1347.4
713.69 499.91 1268.6
683.69 476.70 1209.7
758.07 526.15 1335.2
815.15 563.19 1429.2
817.56 562.31 1426.9
850.65 582.43 1478.0
864.05 588.95 1494.5
842.33 571.58 1450.4
841.89 568.75 1443.2
880.20 591.99 1502.2
884.64 592.36 1503.2
866.43 577.62 1465.8
851.94 565.48 1435.0
845.08 558.49 1417.2
863.95 568.48 1442.6
829.19 543.27 1378.6
864.74 564.12 1431.5
680.39 634.19 1620.0
663.52 614.67 1570.1
656.36 604.34 1543.7
661.30 605.19 1545.9
663.64 603.67 1542.0
655.49 592.69 1514.0
657.36 590.84 1509.2
655.42 585.61 1495.9
650.77 578.04 1476.5
647.17 571.48 1459.8
641.58 563.25 1438.8
640.91 559.40 1428.9
633.99 550.18 1405.4
633.97 547.02 1397.3
628.04 538.83 1376.4
605.52 516.57 1319.5
611.57 518.80 1325.2
635.09 535.75 1368.5
632.10 530.26 1354.5
623.44 520.11 1328.6
623.51 517.31 1321.4
620.32 511.85 1307.5
620.71 509.39 1301.2
627.20 511.93 1307.7
628.79 510.47 1303.9
616.79 498.05 1272.2
603.41 484.65 1238.0
607.31 485.20 1239.4
631.23 501.66 1281.4
644.44 509.48 1301.4
626.19 492.47 1258.0
616.62 482.43 1232.3
642.57 500.14 1277.6
659.34 510.56 1304.2
653.98 503.83 1287.0
654.98 502.04 1282.4
665.45 507.49 1296.3
669.91 508.33 1298.5
666.99 503.58 1286.3
680.61 511.30 1306.1
691.67 517.04 1320.7
680.35 506.08 1292.7
681.73 504.61 1289.0
695.06 511.97 1307.8
689.32 505.28 1290.7
691.10 504.14 1287.8
706.78 513.10 1310.7
708.14 511.62 1306.9
705.86 507.55 1296.5
711.26 509.00 1300.2
709.37 505.26 1290.6
717.05 508.33 1298.5
724.30 511.07 1305.5
714.99 502.16 1282.7
718.53 502.31 1283.1
684.48 476.30 1216.7
701.57 483.73 1235.6
758.01 520.27 1329.0
771.52 527.15 1346.5
819.58 557.46 1424.0
852.79 577.45 1475.0
850.04 573.02 1463.7
868.24 582.69 1488.4
871.70 582.42 1487.7
837.66 557.21 1423.3
839.05 555.68 1419.4
846.71 558.31 1426.1
809.73 531.60 1357.9
794.88 519.60 1327.3
822.42 535.28 1367.3
927.58 601.14 1535.5
668.92 623.22 1602.6
645.55 597.73 1537.0
636.17 585.44 1505.4
635.50 581.25 1494.6
637.73 579.75 1490.8
636.59 575.23 1479.2
622.30 558.96 1437.3
618.73 552.44 1420.6
645.33 572.78 1472.9
664.94 586.71 1508.7
663.32 581.86 1496.2
658.57 574.33 1476.9
640.61 555.45 1428.3
618.18 532.92 1370.4
629.77 539.80 1388.1
634.77 541.00 1391.1
615.41 521.53 1341.1
622.69 524.74 1349.3
643.10 538.91 1385.8
638.55 532.12 1368.3
629.51 521.69 1341.5
628.40 517.91 1331.8
632.50 518.44 1333.1
638.64 520.63 1338.8
630.92 511.56 1315.4
619.00 499.19 1283.6
614.77 493.13 1268.0
608.81 485.75 1249.1
608.16 482.67 1241.2
625.84 494.09 1270.5
645.32 506.80 1303.2
634.22 495.48 1274.1
622.98 484.18 1245.0
646.43 499.82 1285.2
666.21 512.47 1317.8
664.72 508.71 1308.1
657.17 500.38 1286.7
659.88 499.91 1285.5
670.39 505.32 1299.4
675.30 506.48 1302.4
679.34 506.97 1303.6
681.20 505.84 1300.7
675.55 499.18 1283.6
680.88 500.65 1287.4
698.65 511.21 1314.5
698.27 508.45 1307.4
684.88 496.29 1276.2
684.38 493.54 1269.1
705.48 506.33 1302.0
724.46 517.47 1330.6
723.11 514.06 1321.9
713.97 505.17 1299.0
703.36 495.33 1273.7
691.27 484.54 1246.0
686.44 478.91 1231.5
693.12 481.33 1237.7
708.64 489.84 1259.6
724.24 498.33 1281.4
724.50 496.23 1276.0
719.57 490.62 1261.6
735.31 499.08 1283.3
781.38 527.96 1357.6
805.46 541.79 1393.2
800.64 536.14 1378.6
822.98 548.65 1410.8
833.95 553.50 1423.3
839.19 554.53 1425.9
880.15 579.04 1489.0
899.08 588.92 1514.4
874.88 570.57 1467.2
856.82 556.38 1430.7
880.67 569.40 1464.2
922.31 593.76 1526.8
945.49 606.09 1558.5
960.40 613.02 1576.3
976.86 620.89 1596.6
958.11 606.40 1559.3
666.53 620.71 1606.8
643.30 595.35 1541.2
620.50 570.71 1477.4
611.72 559.18 1447.5
627.86 570.44 1476.7
643.77 581.34 1504.9
640.42 574.84 1488.1
624.27 556.98 1441.9
620.70 550.51 1425.1
645.81 569.39 1474.0
641.48 562.24 1455.5
617.95 538.45 1393.9
629.87 545.64 1412.5
627.97 540.85 1400.1
600.41 514.15 1331.0
604.90 515.03 1333.2
621.93 526.52 1363.0
615.47 518.11 1341.2
620.78 519.64 1345.2
638.02 531.09 1374.8
637.82 527.97 1366.8
632.78 520.90 1348.5
629.66 515.49 1334.5
631.34 514.04 1330.7
646.83 523.79 1355.9
648.94 522.66 1353.0
635.86 509.37 1318.6
630.05 502.02 1299.6
634.50 502.87 1301.8
643.94 507.66 1314.2
640.07 501.95 1299.4
638.24 497.89 1288.9
646.46 501.68 1298.7
655.15 505.79 1309.3
661.76 508.26 1315.7
664.12 507.46 1313.7
669.48 508.94 1317.5
669.68 506.51 1311.2
664.24 499.86 1294.0
667.40 499.71 1293.6
666.64 496.64 1285.7
664.96 492.93 1276.0
666.75 491.81 1273.2
661.04 485.20 1256.0
650.83 475.36 1230.6
651.17 473.29 1225.2
678.24 490.58 1269.9
694.76 500.09 1294.6
689.35 493.81 1278.3
704.17 502.01 1299.6
720.88 511.48 1324.1
719.06 507.78 1314.5
718.57 505.03 1307.4
717.13 501.65 1298.6
699.56 487.08 1260.9
687.84 476.69 1234.0
701.93 484.20 1253.4
725.39 498.08 1289.4
731.73 500.13 1294.7
725.00 493.26 1276.9
721.00 488.31 1264.1
735.81 496.09 1284.2
756.37 507.65 1314.2
753.31 503.33 1303.0
760.21 505.68 1309.0
795.33 526.69 1363.4
804.29 530.26 1372.7
808.47 530.67 1373.7
830.52 542.75 1405.0
830.40 540.30 1398.7
874.00 566.20 1465.7
933.96 602.43 1559.5
902.30 579.49 1500.1
876.78 560.69 1451.4
960.54 609.02 1576.6
978.64 615.26 1592.7
659.41 617.68 1609.8
647.96 603.13 1571.9
639.23 591.29 1541.0
650.32 597.81 1558.0
660.03 602.99 1571.5
623.92 566.51 1476.4
616.16 556.05 1449.2
621.26 557.25 1452.3
610.33 544.15 1418.2
623.61 552.66 1440.3
646.03 569.12 1483.2
651.98 570.96 1488.0
632.44 550.60 1435.0
602.73 521.66 1359.5
608.81 523.86 1365.3
625.34 534.98 1394.2
615.61 523.62 1364.6
603.00 509.97 1329.1
603.18 507.22 1321.9
608.44 508.75 1325.9
624.40 519.16 1353.0
630.93 521.66 1359.5
620.31 510.04 1329.2
623.61 509.91 1328.9
628.91 511.42 1332.9
626.94 507.04 1321.4
639.57 514.43 1340.7
651.45 521.16 1358.2
648.64 516.12 1345.1
635.86 503.25 1311.6
632.88 498.23 1298.5
648.15 507.54 1322.8
650.98 507.08 1321.5
649.61 503.36 1311.8
657.88 507.12 1321.6
655.62 502.75 1310.3
651.18 496.77 1294.7
645.39 489.83 1276.6
641.66 484.52 1262.7
645.19 484.71 1263.2
643.53 481.02 1253.6
651.81 484.77 1263.4
657.08 486.24 1267.2
655.80 482.88 1258.5
657.56 481.78 1255.6
654.01 476.81 1242.7
647.30 469.61 1223.9
643.18 464.35 1210.2
663.55 476.72 1242.4
697.48 498.68 1299.7
710.51 505.56 1317.6
702.40 497.39 1296.3
696.01 490.52 1278.4
703.19 493.23 1285.4
713.59 498.16 1298.3
719.00 499.58 1302.0
708.78 490.18 1277.5
707.23 486.84 1268.8
730.67 500.64 1304.8
752.85 513.47 1338.2
759.30 515.49 1343.5
735.32 496.93 1295.1
714.91 480.94 1253.4
726.40 486.46 1267.8
743.15 495.43 1291.2
744.79 494.30 1288.2
756.43 499.79 1302.5
781.04 513.75 1338.9
779.87 510.71 1331.0
763.75 497.95 1297.7
760.53 493.68 1286.6
772.78 499.44 1301.6
824.97 530.85 1383.5
913.11 585.02 1524.7
924.44 589.73 1536.9
889.15 564.78 1471.9
914.22 578.22 1506.9
972.55 612.50 1596.3
657.68 615.79 1615.8
643.46 598.67 1570.8
638.03 589.87 1547.8
648.38 595.70 1563.1
676.61 617.78 1621.0
675.51 612.96 1608.3
632.10 570.05 1495.8
612.93 549.39 1441.6
607.24 541.00 1419.5
595.49 527.33 1383.7
606.45 533.82 1400.7
629.55 550.85 1445.4
639.20 555.99 1458.9
634.05 548.27 1438.6
617.72 531.02 1393.4
605.41 517.42 1357.7
604.93 514.02 1348.7
614.12 518.82 1361.3
619.45 520.34 1365.3
616.56 514.97 1351.2
618.74 513.87 1348.3
628.81 519.30 1362.6
629.40 516.88 1356.2
627.56 512.51 1344.8
638.92 518.90 1361.5
639.45 516.48 1355.2
633.48 508.86 1335.2
642.47 513.28 1346.8
651.11 517.37 1357.5
649.10 513.00 1346.1
637.97 501.51 1315.9
627.53 490.68 1287.5
634.46 493.47 1294.8
636.39 492.37 1291.9
634.53 488.36 1281.4
644.43 493.40 1294.6
643.38 490.03 1285.8
646.54 489.90 1285.5
647.55 488.16 1280.9
634.39 475.79 1248.4
627.55 468.28 1228.7
616.31 457.56 1200.6
640.54 470.80 1235.3
660.64 483.15 1267.8
672.96 489.73 1285.0
680.94 493.10 1293.8
666.80 480.49 1260.8
655.64 470.14 1233.6
654.18 466.82 1224.9
662.10 470.19 1233.7
684.00 483.40 1268.4
688.43 484.20 1270.5
686.51 480.56 1260.9
696.84 485.48 1273.8
704.48 488.48 1281.7
706.65 487.69 1279.6
706.04 484.99 1272.6
715.11 488.93 1282.9
729.31 496.34 1302.3
741.73 502.46 1318.4
748.61 504.79 1324.5
726.45 487.61 1279.5
707.87 472.98 1241.1
719.34 478.47 1255.5
742.70 491.79 1290.4
750.52 494.74 1298.1
735.95 482.97 1267.3
729.87 476.85 1251.2
761.18 495.11 1299.1
783.05 507.08 1330.5
764.42 492.85 1293.2
756.31 485.49 1273.9
756.88 483.75 1269.3
776.48 494.13 1296.5
829.01 525.28 1378.3
853.35 538.38 1412.7
961.80 601.64 1578.6
967.96 600.38 1575.3
945.06 583.71 1531.6
960.06 590.50 1549.4
965.07 591.11 1551.0
976.14 595.40 1562.3
1009.58 608.23 1595.9
668.85 621.99 1643.2
643.23 594.38 1570.3
626.63 575.40 1520.1
627.17 572.29 1511.9
634.57 575.45 1520.3
618.24 557.18 1472.0
602.80 539.93 1426.4
602.67 536.52 1417.4
606.21 536.40 1417.1
603.02 530.37 1401.2
601.64 525.99 1389.6
612.66 532.43 1406.6
623.74 538.85 1423.6
621.18 533.49 1409.4
608.60 519.62 1372.8
597.77 507.41 1340.5
599.57 506.00 1336.8
611.07 512.73 1354.6
607.79 507.07 1339.6
597.00 495.23 1308.4
612.88 505.54 1335.6
635.21 521.02 1376.5
631.45 515.04 1360.7
625.21 507.12 1339.7
624.51 503.75 1330.8
613.27 491.96 1299.7
618.52 493.46 1303.7
637.64 505.95 1336.7
642.98 507.43 1340.6
637.65 500.52 1322.3
648.34 506.19 1337.3
659.92 512.49 1353.9
651.57 503.33 1329.7
637.68 490.01 1294.5
636.66 486.66 1285.7
647.85 492.63 1301.5
640.44 484.48 1279.9
637.63 479.86 1267.7
648.86 485.82 1283.5
645.57 480.88 1270.4
643.51 476.92 1260.0
637.08 469.77 1241.1
629.26 461.67 1219.7
647.97 473.02 1249.6
662.41 481.16 1271.2
669.91 484.19 1279.2
681.86 490.40 1295.6
672.59 481.36 1271.7
655.20 466.63 1232.8
646.14 457.95 1209.8
652.24 460.03 1215.3
671.86 471.60 1245.9
680.76 475.56 1256.4
684.71 476.04 1257.6
696.41 481.87 1273.1
704.50 485.18 1281.8
705.75 483.75 1278.0
704.68 480.76 1270.1
709.12 481.54 1272.2
717.74 485.14 1281.7
729.66 490.92 1297.0
735.09 492.31 1300.6
725.06 483.37 1277.0
718.22 476.64 1259.2
726.43 479.90 1267.8
744.62 489.71 1293.7
744.84 487.65 1288.3
722.12 470.67 1243.5
723.17 469.26 1239.7
759.29 490.51 1295.9
792.73 509.86 1347.0
792.98 507.79 1341.5
786.42 501.38 1324.6
784.66 498.09 1315.9
770.15 486.76 1286.0
782.00 492.12 1300.1
841.61 527.36 1393.2
917.88 572.69 1513.0
945.10 587.17 1551.2
949.16 584.71 1544.7
976.66 599.13 1582.8
977.72 597.27 1577.9
964.18 586.55 1549.6
647.99 610.12 1623.0
635.83 594.81 1582.3
667.04 620.01 1649.3
665.43 614.57 1634.8
650.51 596.99 1588.1
643.30 586.66 1560.6
616.77 558.95 1486.9
601.92 542.11 1442.1
598.58 535.76 1425.2
592.58 527.14 1402.2
599.05 529.64 1408.9
609.26 535.41 1424.2
618.04 539.86 1436.1
627.25 544.62 1448.7
618.77 534.06 1420.6
612.44 525.46 1397.8
618.20 527.29 1402.6
613.64 520.34 1384.2
600.91 506.58 1347.5
601.56 504.19 1341.2
602.17 501.81 1334.9
589.08 488.10 1298.4
599.78 494.14 1314.5
634.24 519.57 1382.1
638.05 519.76 1382.6
616.76 499.61 1329.0
607.65 489.50 1302.1
604.45 484.23 1288.1
600.38 478.32 1272.4
612.47 485.29 1290.9
623.01 490.96 1306.0
618.86 485.05 1290.3
625.35 487.50 1296.8
648.38 502.76 1337.4
666.20 513.82 1366.8
663.71 509.19 1354.5
646.09 493.07 1311.6
641.32 486.86 1295.1
656.33 495.66 1318.5
653.19 490.74 1305.4
639.78 478.18 1272.0
640.33 476.15 1266.6
638.72 472.52 1257.0
638.78 470.17 1250.7
634.92 464.97 1236.9
629.26 458.51 1219.7
643.18 466.30 1240.4
652.35 470.60 1251.8
649.69 466.36 1240.6
650.51 464.65 1236.0
663.29 471.45 1254.1
669.01 473.20 1258.8
660.45 464.88 1236.6
667.05 467.26 1242.9
680.43 474.34 1261.8
683.49 474.19 1261.4
684.27 472.47 1256.8
692.32 475.77 1265.6
694.00 474.67 1262.7
687.86 468.26 1245.6
698.24 473.11 1258.5
714.22 481.68 1281.3
719.61 483.07 1285.0
727.35 486.02 1292.9
735.58 489.26 1301.5
728.83 482.56 1283.7
724.83 477.73 1270.8
735.42 482.52 1283.5
742.74 485.13 1290.5
731.05 475.35 1264.5
712.57 461.26 1227.0
715.50 461.10 1226.6
761.23 488.40 1299.2
806.27 515.02 1370.0
797.86 507.41 1349.8
782.56 495.51 1318.1
816.85 514.97 1369.9
842.05 528.56 1406.0
839.42 524.64 1395.6
880.06 547.68 1456.9
896.25 555.37 1477.3
857.03 528.81 1406.7
839.41 515.74 1371.9
858.03 524.96 1396.4
624.75 612.00 1639.3
612.62 596.06 1596.6
643.57 601.78 1611.9
624.33 580.02 1553.6
644.51 594.93 1593.6
659.87 605.23 1621.2
659.95 601.48 1611.1
644.50 583.70 1563.5
613.61 552.25 1479.2
618.39 553.10 1481.5
630.87 560.78 1502.1
619.52 547.30 1466.0
620.95 545.22 1460.4
617.89 539.25 1444.4
614.76 533.28 1428.4
623.20 537.37 1439.4
615.07 527.20 1412.1
602.25 513.16 1374.5
601.48 509.49 1364.7
609.10 512.93 1373.9
607.90 508.94 1363.2
603.93 502.69 1346.5
600.66 497.10 1331.5
591.85 487.01 1304.5
606.11 495.91 1328.3
624.42 508.01 1360.7
613.51 496.32 1329.4
603.65 485.62 1300.8
606.08 484.87 1298.7
610.92 486.03 1301.9
614.15 485.92 1301.6
614.12 483.24 1294.4
612.43 479.29 1283.8
618.07 481.09 1288.6
634.85 491.49 1316.5
641.40 493.91 1323.0
643.82 493.14 1320.9
655.00 499.04 1336.7
650.73 493.19 1321.0
631.25 475.91 1274.8
631.43 473.57 1268.5
640.07 477.56 1279.2
638.52 473.95 1269.5
641.21 473.51 1268.3
642.60 472.11 1264.6
643.54 470.41 1260.0
640.56 465.86 1247.9
628.39 454.72 1218.0
634.88 457.11 1224.4
655.43 469.56 1257.8
664.23 473.51 1268.3
654.49 464.27 1243.6
656.19 463.20 1240.7
679.28 477.15 1278.1
688.64 481.38 1289.4
669.75 465.91 1248.0
657.90 455.47 1220.0
678.07 467.18 1251.4
697.00 477.94 1280.2
701.00 478.41 1281.4
698.13 474.20 1270.2
693.84 469.07 1256.4
704.71 474.19 1270.2
715.63 479.30 1283.8
716.38 477.59 1279.2
719.91 477.73 1279.6
722.03 476.94 1277.5
713.81 469.36 1257.2
708.81 463.95 1242.7
716.99 467.18 1251.4
721.40 467.94 1253.4
725.34 468.38 1254.6
722.60 464.53 1244.3
720.29 460.98 1234.8
756.91 482.28 1291.8
802.94 509.35 1364.3
798.86 504.55 1351.5
775.29 487.52 1305.9
794.46 497.40 1332.3
829.87 517.32 1385.7
842.42 522.88 1400.6
837.78 517.77 1386.9
802.45 493.82 1322.7
807.52 494.82 1325.4
845.41 515.85 1381.7
876.54 532.58 1426.6
964.90 583.80 1563.8
1008.32 602.48 1613.8
976.97 581.34 1557.2
618.49 601.66 1622.9
567.38 548.21 1478.7
609.59 585.04 1578.0
657.02 610.09 1645.6
656.53 605.70 1633.8
653.14 598.71 1614.9
646.81 589.13 1589.1
647.18 585.74 1579.9
633.08 569.37 1535.8
611.52 546.55 1474.2
623.22 553.54 1493.1
641.23 566.03 1526.7
635.44 557.48 1503.7
631.40 550.55 1485.0
622.81 539.77 1455.9
605.85 521.91 1407.7
599.96 513.73 1385.7
610.60 519.73 1401.9
615.23 520.58 1404.2
611.46 514.35 1387.4
615.30 514.55 1387.9
613.74 510.26 1376.3
608.63 503.09 1357.0
610.05 501.37 1352.3
605.59 494.85 1334.8
593.57 482.27 1300.8
586.93 474.18 1279.0
603.22 484.61 1307.1
620.44 495.66 1336.9
611.72 485.98 1310.8
604.50 477.59 1288.2
614.18 482.57 1301.6
619.43 484.04 1305.6
605.51 470.59 1269.3
600.05 463.82 1251.1
621.28 477.65 1288.4
632.74 483.86 1305.1
635.54 483.42 1303.9
647.10 489.61 1320.6
655.38 493.26 1330.5
647.69 484.92 1308.0
637.36 474.70 1280.4
635.84 471.11 1270.7
632.99 466.59 1258.5
634.37 465.20 1254.8
642.18 468.53 1263.8
650.47 472.17 1273.6
655.32 473.28 1276.6
651.47 468.14 1262.7
657.18 469.88 1267.4
678.27 482.55 1301.6
679.23 480.84 1297.0
661.13 465.72 1256.2
652.64 457.49 1234.0
663.23 462.65 1247.9
674.78 468.41 1263.5
660.31 456.16 1230.4
652.48 448.58 1209.9
677.16 463.32 1249.7
696.56 474.32 1279.4
701.92 475.71 1283.1
712.34 480.49 1296.0
722.35 484.96 1308.1
719.94 481.08 1297.6
716.57 476.60 1285.5
715.46 473.66 1277.6
716.19 471.96 1273.0
711.74 466.88 1259.3
695.96 454.44 1225.8
691.83 449.69 1212.9
700.42 453.21 1222.5
712.38 458.87 1237.7
725.34 465.13 1254.6
737.90 471.07 1270.6
750.51 476.99 1286.6
753.07 476.50 1285.3
760.46 479.06 1292.2
782.90 491.03 1324.5
789.41 492.95 1329.6
783.26 486.98 1313.5
786.34 486.78 1313.0
794.82 489.91 1321.4
787.06 483.05 1302.9
784.18 479.22 1292.6
826.39 502.87 1356.4
879.79 533.09 1437.9
971.52 583.73 1574.5
970.05 580.41 1565.5
1002.81 597.51 1611.7
987.22 585.78 1580.0
863.00 509.95 1375.5
793.42 466.91 1259.4
882.56 517.24 1395.2
654.80 607.73 1650.8
628.03 579.10 1573.0
632.66 579.60 1574.4
633.39 576.55 1566.1
609.46 551.23 1497.3
594.19 534.02 1450.6
617.67 551.63 1498.4
630.47 559.54 1519.9
612.74 540.43 1468.0
605.40 530.66 1441.4
618.95 539.21 1464.6
631.49 546.78 1485.2
624.38 537.34 1459.6
608.53 520.55 1414.0
607.17 516.27 1402.3
621.25 525.11 1426.3
617.57 518.91 1409.5
606.94 506.97 1377.1
627.65 521.21 1415.8
642.74 530.64 1441.4
621.87 510.43 1386.5
608.54 496.63 1349.0
601.71 488.25 1326.2
586.51 473.21 1285.4
593.67 476.28 1293.7
623.12 497.10 1350.3
631.66 501.09 1361.1
615.37 485.46 1318.6
608.96 477.75 1297.7
618.25 482.37 1310.3
616.21 478.15 1298.8
596.13 460.06 1249.7
602.75 460.17 1250.0
626.15 475.47 1291.5
640.56 483.83 1314.2
636.69 478.36 1299.4
628.98 470.08 1276.9
636.34 473.09 1285.1
641.19 474.21 1288.1
644.35 474.08 1287.8
646.23 473.01 1284.8
644.67 469.45 1275.2
649.08 470.25 1277.3
644.00 464.20 1260.9
636.67 456.60 1240.3
644.50 459.90 1249.2
662.88 470.64 1278.4
671.70 474.54 1289.0
660.72 464.47 1261.6
652.73 456.59 1240.2
653.97 455.22 1236.5
664.13 460.03 1249.6
674.78 465.14 1263.5
673.35 461.91 1254.7
680.00 464.23 1261.0
688.95 468.09 1271.5
692.47 468.24 1271.9
692.80 466.25 1266.5
699.06 468.24 1271.9
703.97 469.31 1274.8
697.33 462.71 1256.9
704.99 465.62 1264.8
715.00 470.05 1276.8
720.39 471.41 1280.5
721.11 469.72 1275.9
689.83 447.29 1215.0
668.22 431.30 1171.5
677.68 435.43 1182.8
690.03 441.37 1198.9
704.83 448.82 1219.1
718.76 455.64 1237.7
739.47 466.69 1267.7
752.60 472.87 1284.5
764.82 478.43 1299.6
793.11 493.95 1341.7
780.67 484.09 1314.9
750.55 463.39 1258.7
760.87 467.72 1270.5
775.17 474.46 1288.8
776.22 473.06 1285.0
784.18 475.87 1292.6
817.48 493.97 1341.8
864.42 520.11 1412.8
865.67 518.67 1408.9
837.34 499.59 1357.0
856.55 508.92 1382.4
985.31 580.56 1577.0
830.05 485.05 1317.5
885.66 515.43 1400.1
1006.11 583.13 1584.0
1006.75 574.13 1559.5
640.97 590.70 1615.9
630.25 577.05 1578.6
646.55 588.15 1608.9
623.92 563.92 1542.6
581.70 522.42 1429.1
584.21 521.35 1426.2
622.45 551.98 1510.0
647.27 570.40 1560.4
641.65 561.94 1537.2
613.91 534.33 1461.7
608.33 526.22 1439.5
612.29 526.42 1440.1
597.61 510.69 1397.0
601.85 511.21 1398.5
618.53 522.23 1428.6
627.38 526.55 1440.4
619.54 516.89 1414.0
608.52 504.71 1380.7
628.10 517.91 1416.8
644.75 528.54 1445.9
626.58 510.68 1397.0
605.07 490.32 1341.3
590.38 475.68 1301.2
587.32 470.52 1287.1
605.57 482.40 1319.6
621.97 492.69 1347.8
617.72 486.58 1331.1
607.77 476.09 1302.4
608.18 473.77 1296.0
613.42 475.23 1300.0
608.09 468.53 1281.7
607.18 465.29 1272.8
614.85 468.62 1281.9
618.85 469.13 1283.3
629.48 474.64 1298.4
636.84 477.63 1306.6
625.01 466.28 1275.5
620.60 460.55 1259.9
630.45 465.41 1273.2
634.43 465.91 1274.5
637.57 465.79 1274.2
650.95 473.11 1294.2
659.69 477.01 1304.9
663.74 477.49 1306.2
657.84 470.84 1288.0
651.43 463.90 1269.0
659.77 467.47 1278.8
659.82 465.18 1272.5
649.74 455.79 1246.8
653.22 455.96 1247.3
661.14 459.22 1256.2
663.31 458.46 1254.2
674.40 463.86 1268.9
686.45 469.85 1285.3
685.50 466.94 1277.3
681.81 462.19 1264.4
680.79 459.29 1256.4
685.65 460.37 1259.4
687.32 459.30 1256.4
683.93 454.88 1244.3
679.11 449.55 1229.8
686.70 452.45 1237.7
709.63 465.38 1273.1
697.32 455.19 1245.2
681.16 442.59 1210.7
705.17 456.10 1247.7
699.69 450.49 1232.3
681.87 437.02 1195.5
694.70 443.23 1212.5
690.48 438.55 1199.7
686.20 433.88 1186.9
697.67 439.16 1201.3
715.93 448.65 1227.3
737.65 460.22 1259.0
759.99 472.06 1291.4
784.39 485.08 1327.0
768.51 473.19 1294.4
737.84 452.33 1237.4
747.14 456.05 1247.5
780.09 474.11 1296.9
803.36 486.15 1329.9
796.56 479.98 1313.0
810.05 486.03 1329.6
861.97 514.99 1408.8
869.21 517.13 1414.6
844.88 500.54 1369.3
867.65 511.88 1400.3
952.10 559.36 1530.2
999.05 574.96 1572.8
610.28 593.33 1634.7
585.40 565.21 1557.2
621.83 596.28 1642.8
609.76 569.11 1568.0
606.09 561.94 1548.2
606.49 558.61 1539.0
616.64 564.24 1554.5
640.20 582.00 1603.5
643.13 580.89 1600.4
611.93 549.17 1513.0
590.34 526.42 1450.3
609.07 539.68 1486.9
610.98 537.97 1482.2
603.05 527.67 1453.8
619.83 538.99 1485.0
612.52 529.34 1458.4
595.48 511.45 1409.1
589.72 503.42 1387.0
595.43 505.21 1391.9
615.78 519.34 1430.8
615.20 515.74 1420.9
607.37 506.14 1394.5
619.98 513.59 1415.0
627.71 516.93 1424.2
625.47 512.08 1410.8
621.62 505.97 1394.0
616.53 498.93 1374.6
607.06 488.44 1345.7
604.13 483.31 1331.6
612.17 486.96 1341.6
613.92 485.59 1337.8
614.05 482.96 1330.6
620.15 485.04 1336.3
619.84 482.10 1328.2
611.83 473.24 1303.8
609.79 469.07 1292.3
609.33 466.15 1284.3
612.92 466.35 1284.9
623.91 472.15 1300.8
631.25 475.14 1309.0
638.63 478.12 1317.3
642.28 478.30 1317.8
631.71 467.94 1289.2
627.75 462.55 1274.4
631.73 463.05 1275.7
629.36 458.91 1264.3
634.17 460.02 1267.4
649.25 468.53 1290.9
658.85 473.02 1303.2
662.47 473.19 1303.7
663.48 471.51 1299.1
663.17 468.91 1291.9
664.58 467.54 1288.1
657.20 460.04 1267.5
654.57 455.92 1256.1
665.59 461.30 1270.9
673.56 464.52 1279.8
676.22 464.07 1278.6
675.30 461.18 1270.6
674.79 458.59 1263.5
675.15 456.62 1258.0
672.77 452.83 1247.6
676.25 452.99 1248.0
686.10 457.40 1260.2
692.80 459.68 1266.5
694.48 458.62 1263.5
697.52 458.47 1263.1
713.97 467.08 1286.9
716.13 466.31 1284.7
684.27 443.51 1221.9
668.51 431.30 1188.3
691.56 444.12 1223.6
703.92 449.99 1239.8
706.41 449.54 1238.5
725.03 459.29 1265.4
726.61 458.22 1262.5
709.56 445.47 1227.3
708.18 442.61 1219.4
713.98 444.25 1224.0
719.79 445.89 1228.5
748.37 461.55 1271.6
779.06 478.37 1318.0
763.64 466.85 1286.2
734.40 447.02 1231.6
745.65 451.91 1245.1
780.09 470.75 1297.0
814.24 489.24 1347.9
822.82 492.29 1356.3
839.38 500.06 1377.7
881.53 518.55 1428.7
883.29 517.41 1425.5
999.70 580.74 1600.0
902.92 520.20 1433.2
633.16 598.70 1661.3
609.01 568.13 1576.5
581.35 538.71 1494.9
590.29 543.38 1507.8
577.39 528.01 1465.2
575.83 523.14 1451.7
611.13 551.60 1530.7
626.98 562.26 1560.2
617.71 550.40 1527.3
614.73 544.25 1510.3
613.82 540.01 1498.5
598.04 522.81 1450.8
578.40 502.49 1394.4
581.90 502.39 1394.1
590.54 506.70 1406.0
588.89 502.18 1393.5
597.94 506.79 1406.3
616.02 518.95 1440.0
621.48 520.39 1444.1
606.96 505.19 1401.9
603.63 499.43 1385.9
619.66 509.66 1414.3
622.40 508.91 1412.2
615.90 500.65 1389.3
623.22 503.65 1397.6
629.02 505.40 1402.4
623.51 498.09 1382.2
623.40 495.16 1374.0
614.18 485.06 1346.0
600.08 471.25 1307.7
611.69 477.67 1325.5
628.99 488.43 1355.4
627.11 484.27 1343.8
617.10 473.91 1315.1
620.76 474.10 1315.6
626.46 475.84 1320.4
624.40 471.69 1308.9
630.51 473.74 1314.6
634.99 474.54 1316.8
639.89 475.64 1319.9
639.39 472.74 1311.8
624.19 459.06 1273.9
626.49 458.33 1271.8
636.38 463.13 1285.1
637.84 461.77 1281.4
646.53 465.63 1292.1
651.40 466.73 1295.1
651.14 464.14 1288.0
659.89 467.99 1298.6
666.10 469.99 1304.2
658.40 462.21 1282.6
652.36 455.67 1264.4
651.50 452.79 1256.5
655.89 453.58 1258.6
667.36 459.22 1274.3
676.22 463.03 1284.9
678.00 461.97 1281.9
677.09 459.10 1274.0
680.62 459.26 1274.4
685.06 460.02 1276.5
685.88 458.36 1271.9
693.04 460.92 1279.0
691.57 457.75 1270.2
687.31 452.78 1256.4
690.34 452.63 1256.0
695.67 453.98 1259.8
707.50 459.54 1275.2
704.98 455.78 1264.7
699.62 450.22 1249.3
711.04 455.46 1263.9
721.58 460.09 1276.7
718.98 456.34 1266.3
707.34 446.91 1240.1
709.36 446.16 1238.1
732.79 458.82 1273.2
740.12 461.33 1280.2
736.92 457.29 1268.9
740.42 457.41 1269.3
742.94 456.94 1268.0
767.25 469.82 1303.7
790.74 482.07 1337.7
768.02 466.18 1293.6
747.09 451.50 1252.9
766.25 461.08 1279.5
779.60 467.09 1296.1
788.56 470.43 1305.4
800.53 475.53 1319.6
820.52 485.33 1346.7
843.09 496.57 1377.9
815.75 478.43 1327.6
819.83 478.81 1328.7
851.61 495.29 1374.4
794.65 460.24 1277.1
719.58 415.03 1151.7
795.50 456.92 1267.9
586.26 557.95 1559.5
606.97 573.71 1603.5
635.31 596.41 1667.0
613.65 572.18 1599.3
608.77 563.82 1575.9
613.40 564.33 1577.3
621.50 567.99 1587.6
609.12 553.01 1545.7
584.64 527.33 1473.9
597.49 535.42 1496.5
620.71 552.63 1544.6
618.16 546.83 1528.4
604.43 531.29 1485.0
594.83 519.54 1452.1
598.83 519.74 1452.7
598.10 515.86 1441.8
597.68 512.30 1431.9
601.63 512.50 1432.4
599.29 507.37 1418.1
606.55 510.39 1426.5
614.96 514.33 1437.6
611.78 508.59 1421.5
611.54 505.35 1412.5
621.51 510.52 1426.9
631.92 516.00 1442.2
630.13 511.51 1429.7
617.10 498.01 1392.0
617.08 495.10 1383.8
632.18 504.28 1409.5
634.50 503.22 1406.5
619.51 488.53 1365.5
596.05 467.36 1306.3
589.39 459.53 1284.4
609.73 472.71 1321.2
625.42 482.17 1347.7
621.91 476.80 1332.7
615.91 469.59 1312.5
624.44 473.48 1323.4
633.01 477.35 1334.2
633.43 475.07 1327.8
637.53 475.56 1329.2
639.15 474.21 1325.4
644.90 475.91 1330.2
644.83 473.33 1323.0
627.97 458.52 1281.6
629.02 456.87 1277.0
642.73 464.38 1298.0
648.04 465.78 1301.9
643.13 459.85 1285.3
635.15 451.81 1262.8
642.12 454.42 1270.1
659.04 464.02 1296.9
674.78 472.69 1321.2
676.68 471.63 1318.2
662.85 459.66 1284.8
654.13 451.35 1261.5
652.36 447.89 1251.9
658.07 449.57 1256.6
667.79 453.97 1268.9
671.32 454.13 1269.3
676.19 455.19 1272.3
686.46 459.86 1285.3
690.47 460.31 1286.6
689.96 457.76 1279.5
697.13 460.31 1286.6
695.67 457.15 1277.8
686.38 448.92 1254.7
684.36 445.48 1245.1
679.52 440.25 1230.5
681.10 439.21 1227.6
695.68 446.53 1248.1
708.47 452.63 1265.1
708.23 450.39 1258.9
704.66 446.07 1246.8
706.71 445.32 1244.7
698.80 438.34 1225.2
689.87 430.78 1204.0
699.43 434.78 1215.2
729.12 451.20 1261.1
752.26 463.45 1295.4
748.11 458.84 1282.5
741.96 453.06 1266.3
732.84 445.52 1245.2
718.29 434.75 1215.1
750.45 452.24 1264.0
794.07 476.44 1331.7
775.08 463.03 1294.2
743.62 442.32 1236.3
767.30 454.45 1270.2
796.07 469.48 1312.2
786.69 461.97 1291.2
771.23 450.98 1260.5
764.17 444.96 1243.7
789.19 457.60 1279.0
803.76 464.09 1297.2
725.38 417.10 1165.8
669.32 383.26 1071.2
761.40 434.19 1213.6
855.05 485.59 1357.2
891.43 504.17 1409.2
877.79 490.43 1370.8
853.46 474.91 1327.4
631.77 584.82 1646.5
624.60 574.30 1616.9
615.22 561.90 1582.0
609.14 552.66 1556.0
621.04 559.76 1576.0
619.03 554.29 1560.6
606.37 539.44 1518.7
605.92 535.56 1507.8
607.56 533.56 1502.2
599.14 522.81 1471.9
575.09 498.66 1403.9
565.22 487.01 1371.2
587.60 503.13 1416.5
608.72 517.98 1458.3
603.89 510.70 1437.8
593.05 498.46 1403.4
600.65 501.76 1412.7
609.79 506.31 1425.5
606.57 500.60 1409.4
607.06 498.01 1402.1
606.38 494.49 1392.2
606.03 491.28 1383.2
611.00 492.40 1386.3
603.66 483.63 1361.6
590.39 470.25 1324.0
592.91 469.53 1321.9
609.12 479.59 1350.3
607.36 475.48 1338.7
603.58 469.83 1322.8
617.18 477.71 1345.0
619.32 476.67 1342.0
617.84 472.87 1331.3
621.94 473.36 1332.7
624.42 472.63 1330.7
636.24 478.93 1348.4
648.14 485.22 1366.1
637.15 474.40 1335.6
627.67 464.81 1308.6
635.86 468.35 1318.6
647.83 474.61 1336.2
651.11 474.48 1335.9
638.45 462.79 1303.0
619.76 446.88 1258.2
613.98 440.40 1239.9
628.09 448.17 1261.8
632.90 449.26 1264.9
632.15 446.42 1256.9
647.28 454.76 1280.3
660.35 461.57 1299.5
671.76 467.16 1315.3
674.09 466.41 1313.2
660.23 454.53 1279.7
654.56 448.38 1262.4
655.44 446.74 1257.8
647.00 438.81 1235.4
642.46 433.58 1220.7
654.81 439.75 1238.1
668.57 446.80 1257.9
683.32 454.44 1279.4
692.73 458.47 1290.8
675.46 444.89 1252.6
666.21 436.70 1229.5
686.08 447.59 1260.1
698.28 453.39 1276.5
687.56 444.32 1250.9
673.95 433.48 1220.4
675.05 432.16 1216.7
689.15 439.13 1236.3
698.66 443.13 1247.6
695.56 439.14 1236.4
694.77 436.62 1229.3
699.14 437.36 1231.4
699.25 435.44 1226.0
698.39 432.94 1218.9
696.06 429.55 1209.4
711.88 437.34 1231.3
749.38 458.33 1290.4
763.51 464.89 1308.9
748.71 453.86 1277.8
727.97 439.35 1236.9
703.65 422.81 1190.4
724.07 433.18 1219.6
749.99 446.73 1257.7
711.18 421.78 1187.5
715.97 422.79 1190.3
781.13 459.29 1293.1
796.07 466.07 1312.2
769.25 448.46 1262.6
788.19 457.55 1288.2
821.26 474.74 1336.6
798.22 459.48 1293.6
750.80 430.38 1211.7
767.30 438.00 1233.2
825.99 469.55 1322.0
817.85 463.00 1303.5
806.57 454.73 1280.3
855.61 480.40 1352.5
913.45 506.65 1426.4
831.69 459.44 1293.5
834.83 455.67 1282.9
809.46 440.06 1239.0
876.98 474.89 1337.0
801.45 432.28 1217.1
657.26 353.11 994.2
673.43 360.39 1014.7
855.04 455.80 1283.3
935.73 494.96 1393.5
884.15 465.88 1311.7
882.27 463.11 1303.8
914.32 478.10 1346.1
645.18 631.26 1790.3
652.18 629.05 1784.1
612.73 578.69 1641.2
590.78 554.12 1571.5
626.67 583.75 1655.6
643.12 590.97 1676.1
634.63 579.26 1642.9
624.96 566.63 1607.0
620.66 559.01 1585.4
634.03 567.29 1608.9
647.50 575.56 1632.4
648.39 572.60 1624.0
623.72 547.27 1552.1
605.50 527.87 1497.1
603.51 522.78 1482.7
584.51 503.12 1426.9
567.43 485.35 1376.5
581.82 494.55 1402.6
597.79 504.97 1432.2
589.59 494.96 1403.8
586.07 488.99 1386.8
599.96 497.53 1411.1
600.11 494.64 1402.9
589.70 483.13 1370.2
593.12 483.02 1369.9
595.78 482.30 1367.9
594.23 478.20 1356.2
598.38 478.70 1357.7
597.13 474.91 1346.9
589.64 466.22 1322.3
589.43 463.37 1314.2
602.88 471.22 1336.4
609.75 473.86 1343.9
614.27 474.66 1346.2
622.37 478.21 1356.3
619.35 473.21 1342.1
615.05 467.30 1325.3
616.72 465.97 1321.5
610.28 458.55 1300.5
613.91 458.75 1301.1
638.37 474.42 1345.5
638.81 472.16 1339.1
625.62 459.91 1304.4
630.08 460.70 1306.6
635.79 462.39 1311.4
633.17 458.04 1299.1
635.95 457.61 1297.9
632.40 452.66 1283.8
614.40 437.48 1240.7
617.03 437.07 1239.6
634.17 446.88 1267.4
647.14 453.67 1286.7
649.43 452.94 1284.6
649.12 450.41 1277.4
661.35 456.57 1294.9
664.07 456.13 1293.6
653.22 446.42 1266.1
649.28 441.51 1252.2
655.43 443.47 1257.8
652.29 439.17 1245.5
647.33 433.68 1230.0
657.92 438.61 1244.0
662.29 439.37 1246.1
667.57 440.72 1250.0
687.76 451.86 1281.5
682.24 446.08 1265.1
669.37 435.57 1235.3
685.61 444.01 1259.3
705.61 454.80 1289.9
702.73 450.81 1278.5
681.32 435.02 1233.8
673.17 427.81 1213.3
681.21 430.91 1222.1
685.09 431.36 1223.4
681.48 427.10 1211.3
680.16 424.32 1203.4
684.48 425.06 1205.5
685.01 423.46 1201.0
691.22 425.37 1206.4
697.45 427.27 1211.8
700.36 427.12 1211.4
724.87 440.10 1248.2
756.76 457.42 1297.3
761.75 458.40 1300.1
751.23 450.08 1276.5
736.71 439.44 1246.3
742.59 441.02 1250.8
752.41 444.90 1261.8
713.09 419.83 1190.7
716.91 420.26 1191.9
749.93 437.73 1241.5
725.54 421.68 1195.9
735.85 425.85 1207.8
798.17 459.96 1304.5
818.75 469.83 1332.5
778.58 444.91 1261.8
749.24 426.34 1209.2
781.94 443.10 1256.7
852.39 481.01 1364.2
863.66 485.37 1376.6
823.91 461.12 1307.8
836.14 466.05 1321.8
875.15 485.80 1377.8
891.18 492.68 1397.3
898.49 494.71 1403.1
913.07 500.72 1420.1
910.62 495.38 1405.0
821.21 444.96 1262.0
833.55 449.85 1275.8
913.80 491.21 1393.1
859.96 460.45 1305.9
740.18 394.76 1119.6
799.57 424.77 1204.7
918.33 485.96 1378.3
935.29 493.02 1398.3
948.69 490.58 1391.3
852.29 427.72 1213.1
857.24 428.62 1215.6
609.19 579.16 1654.7
597.49 564.07 1611.6
605.53 567.69 1622.0
616.96 574.41 1641.2
626.12 578.94 1654.1
627.21 576.01 1645.7
618.38 564.06 1611.6
609.74 552.45 1578.4
608.87 547.98 1565.7
612.79 547.86 1565.3
615.66 546.80 1562.3
618.86 546.05 1560.1
624.52 547.47 1564.2
607.14 528.80 1510.9
576.32 498.74 1425.0
560.18 481.68 1376.2
576.99 493.00 1408.6
592.49 503.06 1437.3
585.88 494.33 1412.4
582.45 488.39 1395.4
593.69 494.74 1413.5
609.08 504.45 1441.3
614.16 505.56 1444.4
605.77 495.63 1416.1
593.12 482.36 1378.2
595.05 481.03 1374.4
601.90 483.67 1381.9
605.72 483.86 1382.5
607.63 482.53 1378.7
604.49 477.23 1363.5
600.13 471.03 1345.8
601.92 469.71 1342.0
611.92 474.76 1356.5
614.10 473.74 1353.5
613.90 470.89 1345.4
616.44 470.17 1343.3
624.56 473.68 1353.4
631.92 476.59 1361.7
622.78 467.09 1334.5
606.64 452.47 1292.8
602.12 446.63 1276.1
617.14 455.27 1300.8
634.31 465.39 1329.7
638.41 465.87 1331.1
631.33 458.22 1309.2
625.40 451.49 1290.0
633.59 454.97 1299.9
647.29 462.35 1321.0
653.48 464.31 1326.6
645.29 456.10 1303.1
639.56 449.69 1284.8
649.11 454.04 1297.3
659.15 458.69 1310.5
660.20 457.06 1305.9
647.81 446.20 1274.9
648.76 444.58 1270.2
662.77 451.89 1291.1
662.41 449.37 1283.9
659.38 445.08 1271.7
666.01 447.32 1278.1
669.56 447.48 1278.5
669.99 445.56 1273.0
678.89 449.27 1283.6
681.55 448.83 1282.4
663.50 434.82 1242.3
659.73 430.26 1229.3
669.07 434.25 1240.7
671.62 433.82 1239.5
683.31 439.27 1255.1
698.72 447.05 1277.3
700.87 446.31 1275.2
684.52 433.85 1239.6
670.35 422.88 1208.2
671.40 421.58 1204.5
683.19 427.00 1220.0
686.60 427.15 1220.4
687.18 425.55 1215.9
693.88 427.74 1222.1
689.70 423.23 1209.2
692.61 423.09 1208.8
704.10 428.17 1223.3
714.21 432.37 1235.3
718.11 432.79 1236.5
728.29 436.97 1248.5
731.74 437.10 1248.9
717.70 426.83 1219.5
723.53 428.40 1224.0
753.81 444.38 1269.7
767.59 450.54 1287.3
733.71 428.79 1225.1
719.82 418.86 1196.7
732.07 424.16 1211.9
725.49 418.55 1195.9
759.23 436.15 1246.1
775.15 443.41 1266.9
741.99 422.65 1207.6
756.41 429.06 1225.9
790.58 446.56 1275.9
791.02 444.95 1271.3
819.37 458.98 1311.4
841.25 469.29 1340.8
815.71 453.17 1294.8
797.68 441.34 1261.0
799.57 440.58 1258.8
846.33 464.45 1327.0
896.44 489.95 1399.9
850.84 463.16 1323.3
842.94 457.01 1305.8
897.07 484.42 1384.0
909.62 489.24 1397.8
902.27 483.36 1381.0
940.72 496.08 1417.4
876.27 460.30 1315.1
922.93 475.56 1358.7
832.88 427.52 1221.5
851.39 435.37 1243.9
903.61 450.14 1286.1
829.46 411.68 1176.2
632.98 614.63 1769.2
654.30 617.44 1777.3
660.72 619.14 1782.2
612.09 561.78 1617.1
614.44 560.11 1612.2
607.58 550.10 1583.5
600.23 539.81 1553.8
599.99 535.99 1542.8
588.60 522.33 1503.5
575.62 507.46 1460.7
576.14 504.59 1452.5
582.61 506.95 1459.2
584.15 505.00 1453.6
568.88 488.65 1406.6
552.68 471.71 1357.8
569.09 482.65 1389.3
594.36 500.90 1441.8
597.60 500.49 1440.6
587.99 489.39 1408.7
593.73 491.11 1413.6
605.79 498.01 1433.5
607.50 496.37 1428.8
608.07 493.82 1421.5
604.45 487.93 1404.5
598.11 479.92 1381.4
597.75 476.77 1372.4
604.99 479.70 1380.8
611.50 482.01 1387.4
602.21 471.90 1358.4
590.06 459.70 1323.2
598.43 463.52 1334.2
615.08 473.68 1363.5
622.79 476.88 1372.7
627.38 477.66 1374.9
619.64 469.11 1350.3
616.99 464.48 1337.0
627.53 469.77 1352.2
622.40 463.34 1333.7
624.48 462.32 1330.8
636.72 468.80 1349.4
634.73 464.77 1337.8
634.74 462.25 1330.6
640.49 463.92 1335.4
634.24 456.92 1315.2
624.57 447.55 1288.3
629.83 448.92 1292.2
640.58 454.16 1307.3
643.36 453.74 1306.1
633.85 444.69 1280.0
627.21 437.74 1260.0
643.99 447.12 1287.0
662.59 457.66 1317.4
662.78 455.45 1311.0
649.97 444.37 1279.1
646.14 439.51 1265.1
656.22 444.11 1278.3
669.85 451.05 1298.3
680.48 455.92 1312.4
674.83 449.89 1295.0
665.56 441.51 1270.9
659.30 435.20 1252.7
661.45 434.48 1250.6
677.95 443.15 1275.6
674.28 438.61 1262.5
659.71 427.06 1229.3
659.06 424.59 1222.2
657.93 421.83 1214.2
665.91 424.91 1223.1
673.92 427.99 1231.9
668.60 422.61 1216.5
665.53 418.69 1205.2
665.20 416.53 1199.0
669.50 417.27 1201.1
683.16 423.81 1219.9
697.35 430.62 1239.5
709.75 436.27 1255.8
713.69 436.69 1257.0
706.26 430.18 1238.3
710.65 430.89 1240.3
725.07 437.66 1259.8
729.03 438.07 1261.0
727.21 435.03 1252.2
732.60 436.31 1255.9
730.74 433.27 1247.1
718.63 424.21 1221.1
725.43 426.35 1227.2
732.26 428.48 1233.4
719.47 419.17 1206.6
712.98 413.59 1190.5
729.64 421.43 1213.1
763.24 438.94 1263.5
782.61 448.16 1290.0
777.14 443.14 1275.6
751.60 426.76 1228.4
727.38 411.26 1183.8
753.34 424.15 1220.9
793.58 444.94 1280.7
800.61 447.01 1286.7
791.40 440.03 1266.6
767.32 424.88 1223.0
764.04 421.32 1212.8
781.74 429.32 1235.8
806.74 441.24 1270.1
872.11 475.05 1367.4
923.09 496.76 1429.9
923.18 494.82 1424.3
897.06 478.91 1378.5
840.83 447.11 1287.0
786.88 416.77 1199.6
741.06 390.95 1125.3
924.31 485.72 1398.1
925.25 482.43 1388.6
917.68 476.62 1371.9
895.35 461.45 1328.3
855.25 439.09 1263.9
824.63 421.76 1214.0
807.90 411.63 1184.9
895.31 454.44 1308.1
914.58 462.47 1331.2
818.21 412.18 1186.4
855.39 429.30 1235.7
631.84 608.94 1766.0
657.51 620.21 1798.7
631.76 591.72 1716.1
659.03 604.49 1753.1
612.18 557.68 1617.3
604.71 547.12 1586.7
607.33 545.77 1582.8
608.55 543.20 1575.3
616.29 546.44 1584.7
611.22 538.36 1561.3
597.67 522.96 1516.7
598.31 520.10 1508.4
601.38 519.38 1506.3
600.54 515.30 1494.4
604.63 515.49 1495.0
606.21 513.54 1489.3
592.24 498.53 1445.8
590.05 493.56 1431.4
603.85 501.95 1455.7
604.55 499.41 1448.3
592.30 486.27 1410.2
586.18 478.29 1387.1
597.11 484.24 1404.3
607.36 489.57 1419.8
613.91 491.87 1426.5
616.70 491.15 1424.4
605.01 478.97 1389.1
601.20 473.13 1372.1
608.85 476.33 1381.4
601.46 467.80 1356.7
600.17 464.09 1345.9
618.35 475.38 1378.7
628.05 480.06 1392.2
629.13 478.14 1386.7
630.58 476.51 1381.9
620.46 466.22 1352.1
609.01 455.05 1319.7
609.87 453.14 1314.2
615.15 454.53 1318.2
627.33 460.97 1336.9
634.30 463.52 1344.3
626.15 455.07 1319.8
620.77 448.71 1301.3
620.68 446.22 1294.1
623.87 446.10 1293.7
624.56 444.21 1288.3
618.53 437.58 1269.0
617.46 434.51 1260.1
631.97 442.38 1282.9
634.70 441.96 1281.7
622.09 430.93 1249.7
632.43 435.82 1263.9
651.00 446.30 1294.3
650.71 443.82 1287.1
647.36 439.28 1274.0
653.95 441.50 1280.4
659.26 442.84 1284.3
669.41 447.39 1297.5
677.84 450.76 1307.3
668.64 442.43 1283.1
654.45 430.90 1249.7
643.24 421.43 1222.2
648.46 422.77 1226.1
668.06 433.42 1257.0
679.67 438.82 1272.6
681.39 437.80 1269.7
677.65 433.30 1256.6
673.39 428.52 1242.8
673.65 426.65 1237.3
673.43 424.48 1231.0
664.87 417.11 1209.7
658.55 411.21 1192.5
669.80 416.28 1207.2
685.30 423.93 1229.4
692.01 426.10 1235.7
699.20 428.54 1242.8
709.25 432.71 1254.9
709.88 431.12 1250.3
700.06 423.22 1227.4
702.04 422.49 1225.3
716.44 429.22 1244.8
721.33 430.21 1247.6
721.89 428.62 1243.0
730.64 431.89 1252.5
744.27 438.00 1270.2
749.22 438.97 1273.1
747.83 436.23 1265.1
744.94 432.65 1254.7
736.12 425.67 1234.5
732.14 421.53 1222.5
741.45 425.06 1232.7
763.70 435.93 1264.2
771.64 438.58 1271.9
755.15 427.38 1239.5
750.55 422.98 1226.7
752.43 422.25 1224.6
756.31 422.64 1225.7
770.30 428.66 1243.2
768.64 425.96 1235.3
754.23 416.24 1207.1
699.92 384.67 1115.6
665.73 364.37 1056.7
693.92 378.25 1097.0
739.26 401.31 1163.8
766.77 414.56 1202.3
795.99 428.61 1243.0
864.83 463.80 1345.1
900.71 481.10 1395.2
917.97 488.36 1416.3
912.25 483.38 1401.9
777.73 410.47 1190.4
655.06 344.36 998.7
630.50 330.14 957.5
806.13 420.45 1219.4
736.49 379.66 1101.1
560.05 287.60 834.1
713.14 364.80 1058.0
931.18 474.51 1376.1
854.28 433.66 1257.7
808.90 409.07 1186.3
839.32 422.84 1226.3
813.24 408.15 1183.7
773.88 386.94 1122.2
853.13 424.97 1232.5
919.60 456.37 1323.5
884.01 437.08 1267.6
869.19 428.16 1241.7
799.13 389.32 1129.1
792.23 384.55 1115.2
642.94 601.90 1758.8
606.22 563.53 1646.7
608.37 561.57 1641.0
625.48 573.36 1675.4
636.04 579.01 1691.9
624.42 564.54 1649.6
612.26 549.79 1606.5
611.17 545.09 1592.8
606.23 537.06 1569.3
607.40 534.51 1561.9
601.23 525.58 1535.8
587.96 510.60 1492.0
602.25 519.58 1518.3
618.06 529.77 1548.0
612.33 521.47 1523.8
612.20 518.02 1513.7
613.10 515.48 1506.3
600.24 501.47 1465.3
587.91 488.08 1426.2
590.39 487.07 1423.3
602.76 494.19 1444.1
601.57 490.17 1432.3
596.23 482.84 1410.9
606.85 488.44 1427.3
614.90 491.92 1437.4
618.86 492.10 1438.0
619.40 489.58 1430.6
604.28 474.79 1387.4
597.01 466.30 1362.6
601.56 467.09 1364.9
600.70 463.70 1355.0
606.02 465.08 1359.0
616.04 470.04 1373.5
617.48 468.43 1368.8
623.63 470.40 1374.5
630.21 472.66 1381.1
620.48 462.73 1352.1
610.22 452.52 1322.3
615.10 453.60 1325.4
624.04 457.63 1337.2
615.57 448.93 1311.8
602.11 436.69 1276.0
608.55 438.95 1282.6
618.30 443.57 1296.1
614.07 438.14 1280.3
613.08 435.09 1271.4
623.31 439.98 1285.7
626.90 440.16 1286.2
621.65 434.17 1268.7
631.96 439.04 1282.9
648.69 448.31 1310.0
650.19 447.01 1306.2
649.96 444.53 1299.0
657.44 447.33 1307.1
655.88 443.98 1297.3
650.81 438.30 1280.8
663.08 444.30 1298.3
674.54 449.69 1314.0
667.64 442.86 1294.1
660.22 435.74 1273.3
649.17 426.32 1245.7
632.23 413.14 1207.2
637.41 414.47 1211.1
659.61 426.81 1247.2
676.12 435.36 1272.1
683.26 437.82 1279.3
680.01 433.63 1267.1
671.71 426.28 1245.6
674.27 425.86 1244.4
680.03 427.45 1249.0
684.88 428.46 1252.0
681.90 424.58 1240.7
676.56 419.27 1225.2
688.81 424.87 1241.5
695.53 427.02 1247.8
692.90 423.44 1237.3
697.75 424.44 1240.2
704.97 426.86 1247.3
707.48 426.43 1246.1
699.54 419.72 1226.5
696.28 415.88 1215.2
704.93 419.15 1224.8
716.97 424.39 1240.1
725.22 427.36 1248.8
729.63 428.05 1250.8
738.90 431.57 1261.1
764.27 444.42 1298.6
785.87 454.98 1329.5
770.86 444.34 1298.4
747.37 428.93 1253.4
731.10 417.77 1220.8
724.59 412.27 1204.7
768.13 435.16 1271.6
800.98 451.83 1320.3
786.07 441.54 1290.2
787.07 440.23 1286.4
772.98 430.52 1258.0
755.25 418.88 1224.0
802.62 443.29 1295.3
845.19 464.86 1358.3
798.44 437.32 1277.9
703.40 383.67 1121.1
669.19 363.51 1062.2
704.09 380.90 1113.0
710.33 382.71 1118.3
691.79 371.21 1084.7
707.32 378.00 1104.6
741.64 394.74 1153.5
830.86 440.46 1287.1
767.75 400.57 1170.5
699.61 363.58 1062.4
768.41 397.76 1162.3
841.30 433.79 1267.6
875.94 448.16 1309.6
620.43 316.20 924.0
700.64 355.71 1039.4
940.87 475.84 1390.5
875.30 440.99 1288.6
808.82 405.95 1186.2
821.86 410.93 1200.8
831.13 414.00 1209.7
825.14 409.47 1196.5
813.61 402.23 1175.4
797.06 392.58 1147.2
833.83 409.17 1195.6
895.62 437.86 1279.5
934.46 455.16 1330.0
806.98 391.62 1144.3
756.17 365.62 1068.4
888.60 426.53 1246.3
895.30 428.19 1251.2
619.82 571.80 1683.6
613.77 562.26 1655.5
614.25 558.80 1645.3
610.33 551.40 1623.5
618.11 554.60 1633.0
623.89 555.99 1637.0
618.42 547.39 1611.7
609.74 536.08 1578.4
601.25 525.10 1546.1
587.75 509.90 1501.3
574.39 495.03 1457.6
587.19 502.76 1480.3
596.92 507.77 1495.1
586.79 495.93 1460.2
580.08 487.12 1434.3
573.97 478.92 1410.1
584.74 484.82 1427.5
594.14 489.51 1441.3
578.00 473.24 1393.4
572.67 465.96 1372.0
588.68 476.03 1401.6
600.35 482.49 1420.6
609.87 487.16 1434.4
616.07 489.12 1440.2
612.11 483.05 1422.3
604.64 474.30 1396.5
597.44 465.86 1371.7
597.80 463.38 1364.4
601.58 463.57 1364.9
599.95 459.61 1353.3
609.54 464.24 1366.9
623.49 472.12 1390.1
617.89 465.20 1369.7
616.95 461.83 1359.8
629.83 468.80 1380.3
627.27 464.25 1366.9
613.03 451.16 1328.4
613.90 449.28 1322.9
625.26 455.05 1339.8
619.23 448.17 1319.6
604.95 435.43 1282.1
611.41 437.67 1288.7
616.24 438.74 1291.8
607.44 430.13 1266.5
608.50 428.56 1261.9
621.21 435.18 1281.3
625.63 435.94 1283.6
621.21 430.58 1267.8
620.96 428.13 1260.6
627.03 430.06 1266.3
647.63 441.87 1301.0
666.65 452.49 1332.3
662.59 447.42 1317.4
649.83 436.55 1285.4
648.20 433.23 1275.6
662.63 440.63 1297.4
675.41 446.86 1315.7
670.27 441.23 1299.1
659.76 432.14 1272.4
645.16 420.47 1238.0
637.96 413.73 1218.2
652.09 420.81 1239.0
673.46 432.47 1273.4
688.24 439.80 1294.9
683.69 434.77 1280.1
669.11 423.45 1246.8
668.04 420.74 1238.8
677.43 424.61 1250.2
682.29 425.62 1253.2
685.77 425.76 1253.6
688.79 425.62 1253.2
691.34 425.19 1251.9
683.66 418.50 1232.2
669.82 408.12 1201.7
681.15 413.11 1216.3
701.48 423.47 1246.9
706.82 424.74 1250.6
706.02 422.32 1243.5
704.72 419.63 1235.5
708.15 419.76 1235.9
706.79 417.07 1228.0
707.32 415.51 1223.4
715.54 418.46 1232.1
718.96 418.59 1232.5
738.87 428.28 1261.0
777.87 448.90 1321.7
785.37 451.24 1328.6
753.68 431.15 1269.5
746.84 425.37 1252.5
748.80 424.65 1250.3
731.45 413.02 1216.1
761.64 428.22 1260.8
812.41 454.81 1339.1
817.52 455.72 1341.8
795.06 441.32 1299.4
755.84 417.78 1230.1
737.53 405.95 1195.3
778.30 426.60 1256.1
849.75 463.82 1365.7
845.76 459.73 1353.6
752.33 407.25 1199.1
712.62 384.17 1131.1
720.43 386.79 1138.9
691.16 369.56 1088.1
685.99 365.30 1075.6
716.03 379.76 1118.1
761.83 402.42 1184.9
863.16 454.11 1337.1
888.69 465.67 1371.1
897.56 468.45 1379.3
923.83 480.24 1414.0
790.35 409.23 1204.9
707.42 364.85 1074.3
766.72 393.88 1159.7
772.07 395.08 1163.3
813.72 414.77 1221.3
895.70 454.79 1339.1
816.62 413.04 1216.1
731.70 368.67 1085.5
755.82 379.36 1117.0
822.78 411.39 1211.3
751.07 372.69 1097.3
630.92 311.89 918.3
656.10 323.12 951.4
677.56 332.44 978.8
845.32 413.20 1216.6
880.14 425.45 1252.7
755.22 363.73 1071.0
673.07 322.98 951.0
891.88 426.41 1255.5
633.18 596.48 1769.8
635.36 594.22 1763.1
643.02 597.09 1771.6
620.50 564.09 1673.7
586.67 529.63 1571.4
592.30 531.03 1575.6
607.06 540.53 1603.8
608.70 538.31 1597.2
601.77 528.58 1568.3
609.14 531.46 1576.9
615.50 533.44 1582.7
603.46 519.53 1541.5
591.92 506.25 1502.1
591.82 502.85 1492.0
589.54 497.67 1476.6
570.47 478.46 1419.6
553.28 461.07 1368.0
563.92 466.94 1385.4
589.85 485.32 1439.9
600.73 491.16 1457.3
585.71 475.89 1412.0
585.93 473.11 1403.7
607.57 487.55 1446.6
601.88 480.02 1424.2
594.59 471.32 1398.4
610.85 481.28 1428.0
615.54 482.05 1430.3
609.61 474.54 1408.0
603.95 467.34 1386.6
599.35 461.04 1367.9
598.13 457.39 1357.1
603.83 459.06 1362.0
620.07 468.65 1390.5
625.47 470.00 1394.5
611.62 456.96 1355.8
611.43 454.21 1347.6
624.70 461.42 1369.1
613.72 450.76 1337.4
591.39 431.92 1281.5
604.65 439.13 1302.9
626.89 452.75 1343.3
626.14 449.71 1334.3
616.78 440.56 1307.1
619.19 439.86 1305.1
619.53 437.71 1298.7
610.32 428.87 1272.5
610.97 427.02 1267.0
615.77 428.08 1270.1
612.20 423.33 1256.0
614.46 422.64 1254.0
620.93 424.85 1260.5
616.82 419.82 1245.6
626.71 424.34 1259.0
649.94 437.79 1298.9
650.54 435.93 1293.4
641.60 427.73 1269.1
642.54 426.17 1264.5
651.73 430.08 1276.0
658.78 432.53 1283.3
663.66 433.55 1286.4
661.94 430.26 1276.6
660.18 426.98 1266.9
665.03 427.99 1269.9
663.66 425.00 1261.0
668.96 426.30 1264.8
686.42 435.29 1291.5
685.93 432.87 1284.3
678.60 426.17 1264.5
685.30 428.31 1270.8
684.71 425.89 1263.6
679.04 420.36 1247.2
679.75 418.80 1242.6
680.44 417.25 1238.0
685.74 418.53 1241.8
680.82 413.58 1227.1
673.50 407.23 1208.3
691.41 416.13 1234.7
710.84 425.85 1263.5
714.81 426.26 1264.7
712.14 422.73 1254.3
708.48 418.65 1242.1
712.40 419.06 1243.4
710.57 416.10 1234.6
694.78 405.03 1201.7
685.60 397.89 1180.6
678.75 392.17 1163.6
686.88 395.11 1172.3
726.22 415.90 1234.0
735.01 419.09 1243.4
737.95 418.92 1243.0
771.88 436.28 1294.5
780.84 439.43 1303.8
770.02 431.48 1280.2
774.51 432.13 1282.1
790.96 439.42 1303.8
793.50 438.96 1302.4
768.44 423.29 1255.9
744.71 408.49 1212.0
744.02 406.40 1205.8
768.12 417.81 1239.6
812.16 439.92 1305.2
824.85 444.94 1320.2
759.92 408.22 1211.2
705.34 377.34 1119.6
694.11 369.81 1097.2
661.13 350.80 1040.8
651.73 344.41 1021.9
712.29 374.89 1112.3
795.04 416.76 1236.5
795.81 415.48 1232.8
725.39 377.20 1119.2
695.47 360.20 1068.7
692.74 357.36 1060.3
729.03 374.60 1111.5
784.05 401.29 1190.6
761.85 388.39 1152.4
700.63 355.79 1055.6
720.21 364.31 1080.9
758.62 382.25 1134.1
923.57 460.02 1364.9
751.25 372.76 1106.0
748.03 366.96 1088.8
730.32 356.92 1059.0
696.04 338.89 1005.5
772.64 374.79 1112.0
779.76 374.05 1109.8
593.95 283.87 842.3
662.85 314.49 933.1
810.07 382.94 1136.2
785.71 370.08 1098.0
776.41 364.38 1081.1
825.69 386.12 1145.6
872.05 399.18 1184.4
812.74 370.73 1100.0
736.47 334.76 993.2
641.96 604.47 1807.4
602.14 562.87 1683.0
590.52 548.04 1638.7
604.74 557.22 1666.1
635.19 577.04 1725.4
594.39 536.20 1603.3
591.08 529.51 1583.3
621.92 553.30 1654.4
614.58 543.02 1623.6
597.57 524.39 1568.0
594.32 518.02 1548.9
