ply
format ascii 1.0
element vertex 2162
property float x
property float y
property float z
end_header
-656.44 -57.08 1100.9
-625.77 -54.65 1054.0
-568.34 -49.85 961.5
-522.91 -46.07 888.5
-526.25 -46.57 898.1
-590.45 -52.48 1012.2
-627.62 -56.04 1080.7
-596.52 -53.50 1031.8
-585.04 -52.71 1016.5
-562.20 -50.88 981.2
-524.64 -47.69 919.8
-523.33 -47.79 921.7
-539.71 -49.51 954.9
-543.70 -50.11 966.4
-549.12 -50.84 980.6
-559.82 -52.08 1004.3
-568.01 -53.09 1023.8
-569.84 -53.51 1031.9
-559.60 -52.79 1018.1
-540.79 -51.26 988.6
-519.23 -49.45 953.7
-503.52 -48.18 929.3
-496.91 -47.78 921.5
-499.31 -48.24 930.4
-515.78 -50.08 965.8
-530.24 -51.73 997.7
-536.62 -52.61 1014.6
-529.91 -52.21 1006.9
-507.94 -50.29 969.9
-493.03 -49.06 946.1
-498.00 -49.80 960.4
-505.19 -50.77 979.2
-505.92 -51.10 985.6
-516.16 -52.40 1010.6
-533.99 -54.49 1050.9
-526.86 -54.04 1042.1
-509.44 -52.52 1012.9
-507.79 -52.62 1014.8
-502.12 -52.30 1008.7
-489.82 -51.29 989.2
-489.08 -51.48 992.9
-499.76 -52.88 1019.9
-507.69 -54.01 1041.6
-511.16 -54.67 1054.3
-514.15 -55.29 1066.2
-515.79 -55.76 1075.4
-514.81 -55.96 1079.2
-507.39 -55.45 1069.4
-507.25 -55.74 1075.0
-514.73 -56.88 1096.9
-515.77 -57.31 1105.2
-511.31 -57.13 1101.8
-511.89 -57.52 1109.2
-514.93 -58.18 1122.1
-522.89 -59.42 1145.9
-533.22 -60.94 1175.3
-532.33 -61.19 1180.0
-525.29 -60.73 1171.2
-518.69 -60.31 1163.2
-517.78 -60.56 1167.9
-513.64 -60.43 1165.4
-521.93 -61.77 1191.2
-549.65 -65.43 1261.9
-546.49 -65.45 1262.2
-518.86 -62.51 1205.6
-516.61 -62.62 1207.7
-539.75 -65.82 1269.4
-556.01 -68.22 1315.7
-548.86 -67.76 1306.8
-541.35 -67.25 1296.9
-546.14 -68.27 1316.6
-555.78 -69.91 1348.3
-557.71 -70.60 1361.5
-558.07 -71.09 1371.1
-563.26 -72.21 1392.7
-547.86 -70.69 1363.3
-527.40 -68.49 1321.0
-518.92 -67.83 1308.2
-520.75 -68.52 1321.4
-541.08 -71.67 1382.1
-554.26 -73.90 1425.2
-573.36 -76.96 1484.2
-592.55 -80.07 1544.3
-579.45 -78.84 1520.4
-561.15 -76.87 1482.5
-566.92 -78.20 1508.1
-576.07 -80.01 1543.0
-560.74 -78.43 1512.5
-557.64 -78.54 1514.7
-565.49 -80.21 1546.9
-561.26 -80.18 1546.3
-568.21 -81.76 1576.7
-574.68 -83.29 1606.3
-563.63 -82.28 1586.9
-557.32 -81.96 1580.6
-555.65 -82.32 1587.6
-560.17 -83.61 1612.4
-574.01 -86.32 1664.7
-565.95 -85.75 1653.7
-548.93 -83.81 1616.3
-550.27 -84.66 1632.7
-551.22 -85.46 1648.2
-548.63 -85.72 1653.2
-536.64 -84.51 1629.8
-507.08 -80.49 1552.3
-497.59 -79.61 1535.4
-514.46 -82.98 1600.3
-536.19 -87.19 1681.4
-547.89 -89.82 1732.2
-536.03 -88.60 1708.7
-521.60 -86.93 1676.6
-520.58 -87.49 1687.4
-521.84 -88.45 1705.8
-516.34 -88.26 1702.2
-513.44 -88.52 1707.3
-523.65 -91.07 1756.3
-515.41 -92.87 1791.0
-491.94 -89.44 1725.0
-487.26 -89.41 1724.2
-512.20 -94.85 1829.3
-523.01 -97.76 1885.4
-519.42 -98.94 1908.1
-493.23 -94.85 1829.3
-483.65 -93.91 1811.2
-467.26 -91.62 1767.0
-466.52 -92.38 1781.6
-493.27 -98.65 1902.6
-485.42 -98.06 1891.2
-449.09 -91.65 1767.5
-445.26 -91.81 1770.6
-454.69 -94.73 1826.9
-464.56 -97.80 1886.2
-493.28 -104.95 2024.1
-491.70 -106.89 2061.5
-632.32 -49.00 900.0
-693.77 -53.96 991.1
-726.33 -56.70 1041.5
-601.38 -47.12 865.5
-636.82 -50.09 920.0
-666.40 -52.61 966.3
-567.96 -45.01 826.7
-521.93 -41.52 762.6
-489.06 -39.05 717.3
-515.29 -41.30 758.6
-608.56 -48.96 899.3
-568.43 -45.91 843.3
-515.13 -41.77 767.2
-508.76 -41.41 760.6
-555.03 -45.35 833.0
-629.76 -51.66 948.9
-574.61 -47.32 869.2
-504.91 -41.74 766.7
-539.13 -44.75 821.9
-627.79 -52.32 960.9
-640.75 -53.61 984.7
-585.17 -49.15 902.8
-562.38 -47.43 871.2
-576.99 -48.86 897.4
-539.25 -45.85 842.1
-527.49 -45.03 827.1
-570.95 -48.94 898.9
-567.15 -48.81 896.5
-567.08 -49.01 900.1
-562.75 -48.83 897.0
-483.27 -42.11 773.5
-421.66 -36.90 677.7
-491.95 -43.23 793.9
-572.81 -50.54 928.3
-624.41 -55.33 1016.2
-611.54 -54.42 999.5
-577.43 -51.60 947.8
-541.95 -48.64 893.3
-532.51 -47.99 881.5
-564.81 -51.13 939.0
-605.10 -55.01 1010.4
-613.40 -56.01 1028.7
-595.62 -54.62 1003.2
-577.94 -53.23 977.7
-556.80 -51.51 946.1
-533.77 -49.60 911.0
-562.20 -52.47 963.8
-608.49 -57.05 1047.8
-597.46 -56.26 1033.4
-566.04 -53.54 983.5
-532.34 -50.58 929.1
-506.28 -48.33 887.6
-507.00 -48.62 893.0
-527.36 -50.80 933.1
-538.75 -52.14 957.6
-550.04 -53.48 982.2
-566.57 -55.34 1016.4
-547.11 -53.69 986.1
-524.39 -51.70 949.6
-531.16 -52.61 966.4
-528.75 -52.62 966.6
-523.95 -52.40 962.4
-524.40 -52.69 967.8
-520.56 -52.56 965.3
-527.12 -53.48 982.2
-535.49 -54.59 1002.7
-541.43 -55.46 1018.7
-540.30 -55.62 1021.6
-527.99 -54.62 1003.2
-521.78 -54.24 996.3
-521.60 -54.50 1000.9
-520.01 -54.60 1002.9
-520.25 -54.90 1008.4
-510.88 -54.18 995.2
-512.01 -54.58 1002.5
-526.24 -56.38 1035.6
-515.99 -55.57 1020.6
-493.68 -53.44 981.5
-486.28 -52.91 971.8
-496.28 -54.28 997.0
-499.08 -54.87 1007.9
-494.77 -54.68 1004.4
-501.90 -55.77 1024.3
-507.19 -56.65 1040.6
-507.19 -56.96 1046.1
-511.06 -57.70 1059.8
-514.44 -58.40 1072.6
-518.63 -59.19 1087.2
-516.75 -59.30 1089.2
-502.51 -57.98 1065.0
-496.43 -57.60 1057.9
-506.00 -59.03 1084.3
-510.84 -59.93 1100.8
-509.74 -60.14 1104.6
-510.29 -60.54 1112.0
-509.98 -60.85 1117.6
-510.87 -61.30 1126.0
-524.47 -63.30 1162.6
-532.58 -64.65 1187.4
-526.76 -64.31 1181.3
-527.84 -64.82 1190.6
-524.86 -64.84 1190.9
-534.29 -66.39 1219.4
-555.96 -69.50 1276.4
-543.65 -68.36 1255.7
-530.25 -67.08 1232.1
-540.51 -68.79 1263.5
-549.85 -70.41 1293.2
-552.06 -71.12 1306.4
-546.86 -70.89 1302.0
-541.68 -70.65 1297.7
-542.63 -71.22 1308.1
-548.87 -72.49 1331.5
-551.21 -73.26 1345.6
-550.85 -73.68 1353.3
-556.45 -74.91 1375.8
-541.09 -73.31 1346.5
-527.71 -71.96 1321.7
-526.59 -72.28 1327.5
-527.28 -72.85 1338.0
-546.48 -76.00 1395.9
-553.47 -77.49 1423.2
-566.45 -79.84 1466.4
-596.05 -84.58 1553.4
-591.47 -84.50 1552.0
-564.97 -81.26 1492.6
-562.28 -81.43 1495.7
-574.95 -83.85 1540.0
-563.45 -82.74 1519.8
-556.53 -82.30 1511.7
-560.62 -83.50 1533.6
-556.77 -83.51 1533.9
-563.74 -85.17 1564.3
-561.83 -85.50 1570.3
-543.51 -83.31 1530.2
-539.31 -83.28 1529.6
-540.07 -84.01 1543.1
-545.68 -85.52 1570.7
-560.27 -88.46 1624.8
-568.79 -90.49 1662.0
-570.06 -91.38 1678.5
-557.86 -90.12 1655.2
-544.18 -88.59 1627.1
-535.98 -87.93 1615.1
-517.84 -85.63 1572.7
-508.26 -84.71 1555.9
-517.85 -87.00 1597.9
-511.34 -86.60 1590.6
-509.42 -86.97 1597.5
-527.34 -90.77 1667.2
-522.51 -90.68 1665.6
-512.05 -89.61 1645.9
-515.22 -90.92 1670.0
-521.48 -92.81 1704.6
-521.78 -93.65 1720.2
-506.19 -91.64 1683.1
-503.04 -91.86 1687.2
-519.96 -95.78 1759.3
-526.15 -97.78 1796.0
-523.81 -98.21 1803.9
-515.34 -97.50 1790.8
-508.04 -96.99 1781.4
-521.69 -100.51 1846.1
-533.67 -103.77 1906.0
-527.75 -103.58 1902.4
-516.02 -102.23 1877.7
-486.57 -97.31 1787.4
-459.89 -92.86 1705.6
-449.07 -91.56 1681.7
-445.76 -91.77 1685.6
-459.38 -95.51 1754.3
-477.67 -100.31 1842.4
-460.78 -97.74 1795.2
-458.73 -100.35 1843.1
-496.26 -109.70 2014.9
-495.82 -110.77 2034.5
-473.52 -106.92 1963.9
-481.91 -110.00 2020.4
-638.00 -51.79 908.1
-694.28 -56.57 991.8
-704.49 -57.83 1013.9
-691.91 -57.01 999.5
-677.11 -56.00 981.8
-613.72 -50.95 893.3
-550.65 -45.89 804.5
-543.04 -45.43 796.4
-617.39 -51.84 908.9
-689.67 -58.13 1019.2
-586.80 -49.65 870.5
-544.03 -46.21 810.2
-546.47 -46.60 817.0
-553.31 -47.37 830.4
-576.67 -49.56 868.9
-571.25 -49.28 864.1
-536.72 -46.49 815.0
-567.02 -49.31 864.5
-651.77 -56.90 997.6
-658.67 -57.73 1012.2
-597.06 -52.54 921.2
-561.24 -49.59 869.4
-554.24 -49.17 862.0
-573.67 -51.10 895.8
-602.63 -53.89 944.9
-561.79 -50.45 884.4
-505.68 -45.59 799.4
-535.61 -48.49 850.2
-554.73 -50.43 884.2
-481.63 -43.97 770.8
-451.70 -41.41 725.9
-485.06 -44.65 782.8
-541.81 -50.08 878.1
-546.43 -50.72 889.3
-507.22 -47.28 829.0
-527.48 -49.38 865.8
-540.34 -50.80 890.7
-516.44 -48.76 854.9
-529.23 -50.19 879.9
-566.04 -53.91 945.1
-584.69 -55.93 980.5
-581.28 -55.84 979.1
-574.32 -55.42 971.6
-574.98 -55.72 977.0
-571.07 -55.59 974.7
-572.71 -56.00 981.8
-584.85 -57.44 1007.1
-579.39 -57.16 1002.2
-557.51 -55.25 968.7
-539.73 -53.73 942.0
-525.02 -52.50 920.5
-511.38 -51.37 900.7
-516.98 -52.17 914.7
-538.20 -54.56 956.6
-561.20 -57.16 1002.1
-587.91 -60.16 1054.7
-581.94 -59.83 1048.9
-545.09 -56.30 987.1
-539.76 -56.01 982.0
-541.63 -56.47 990.1
-541.56 -56.74 994.7
-542.42 -57.10 1001.1
-538.99 -57.01 999.5
-548.31 -58.27 1021.7
-558.96 -59.69 1046.6
-548.40 -58.85 1031.8
-532.77 -57.46 1007.3
-525.14 -56.91 997.8
-523.58 -57.02 999.8
-525.69 -57.54 1008.8
-527.31 -58.00 1017.0
-529.35 -58.52 1026.0
-519.94 -57.77 1012.9
-516.50 -57.68 1011.3
-525.72 -59.01 1034.6
-525.39 -59.27 1039.2
-510.67 -57.91 1015.3
-503.65 -57.41 1006.6
-513.58 -58.85 1031.7
-515.42 -59.37 1040.9
-509.72 -59.02 1034.8
-512.39 -59.64 1045.7
-512.82 -60.01 1052.1
-504.51 -59.35 1040.6
-500.59 -59.21 1038.1
-502.29 -59.73 1047.2
-505.23 -60.41 1059.1
-510.27 -61.34 1075.5
-502.45 -60.74 1064.8
-496.79 -60.38 1058.7
-506.79 -61.94 1086.0
-514.14 -63.19 1107.9
-515.54 -63.72 1117.1
-512.73 -63.73 1117.3
-508.67 -63.58 1114.8
-511.64 -64.32 1127.7
-527.28 -66.67 1168.8
-545.19 -69.33 1215.5
-548.25 -70.13 1229.5
-547.61 -70.45 1235.2
-542.92 -70.26 1231.8
-540.64 -70.38 1233.9
-547.52 -71.70 1257.1
-547.16 -72.08 1263.8
-545.18 -72.25 1266.8
-544.37 -72.58 1272.6
-541.18 -72.60 1272.8
-540.72 -72.98 1279.5
-532.87 -72.37 1268.7
-526.99 -72.01 1262.5
-527.26 -72.50 1271.1
-527.87 -73.04 1280.5
-524.27 -73.00 1279.9
-525.94 -73.70 1292.1
-533.17 -75.19 1318.3
-537.30 -76.26 1337.1
-543.94 -77.71 1362.4
-552.67 -79.47 1393.3
-563.46 -81.55 1429.8
-573.71 -83.59 1465.5
-570.41 -83.66 1466.8
-563.50 -83.20 1458.7
-572.73 -85.14 1492.6
-570.77 -85.42 1497.6
-546.16 -82.30 1442.9
-530.94 -80.56 1412.4
-531.92 -81.27 1424.8
-542.55 -83.47 1463.4
-557.15 -86.32 1513.4
-555.75 -86.71 1520.3
-546.47 -85.87 1505.6
-559.27 -88.52 1551.9
-562.43 -89.66 1572.0
-539.43 -86.62 1518.7
-530.94 -85.89 1505.8
-543.63 -88.59 1553.2
-561.34 -92.16 1615.8
-569.96 -94.28 1653.0
-573.89 -95.65 1676.9
-560.03 -94.05 1649.0
-534.19 -90.40 1585.0
-536.51 -91.50 1604.2
-545.03 -93.68 1642.4
-540.88 -93.70 1642.7
-546.02 -95.34 1671.5
-538.71 -94.81 1662.3
-514.33 -91.25 1599.9
-505.41 -90.40 1584.9
-515.53 -92.96 1629.9
-519.45 -94.45 1655.9
-518.21 -95.00 1665.7
-517.21 -95.62 1676.4
-519.95 -96.94 1699.6
-520.56 -97.88 1716.1
-503.82 -95.55 1675.3
-506.11 -96.82 1697.5
-528.67 -102.02 1788.7
-516.54 -100.56 1763.1
-492.83 -96.81 1697.2
-499.26 -98.95 1734.9
-508.79 -101.76 1784.1
-500.98 -101.12 1772.8
-489.99 -99.81 1750.0
-484.71 -99.66 1747.3
-473.35 -98.24 1722.4
-471.56 -98.80 1732.2
-473.61 -100.19 1756.5
-463.18 -98.93 1734.5
-461.78 -99.60 1746.2
-458.30 -99.83 1750.2
-456.06 -100.33 1759.1
-479.83 -106.63 1869.5
-489.29 -109.84 1925.8
-459.76 -104.27 1828.2
-469.04 -107.49 1884.5
-491.42 -113.80 1995.2
-471.88 -110.44 1936.3
-463.86 -109.73 1923.8
-456.48 -111.58 1956.4
-443.59 -109.65 1922.4
-693.02 -59.48 997.4
-649.20 -55.92 937.9
-702.35 -61.19 1026.2
-657.77 -57.52 964.7
-661.66 -58.09 974.1
-648.18 -57.12 957.9
-605.72 -53.58 898.6
-608.56 -54.04 906.3
-592.50 -52.82 885.8
-576.51 -51.59 865.2
-566.67 -50.91 853.8
-513.35 -46.30 776.5
-560.83 -50.78 851.7
-666.66 -60.61 1016.4
-717.80 -65.51 1098.7
-719.06 -65.89 1105.0
-643.17 -59.17 992.3
-611.02 -56.44 946.5
-584.43 -54.20 909.0
-610.23 -56.82 952.9
-664.86 -62.16 1042.5
-638.30 -59.92 1004.9
-531.79 -50.13 840.7
-525.44 -49.73 834.0
-571.66 -54.33 911.1
-519.68 -49.60 831.7
-497.02 -47.63 798.8
-539.71 -51.94 871.0
-574.79 -55.55 931.5
-561.01 -54.44 913.0
-532.70 -51.92 870.6
-553.40 -54.16 908.3
-586.90 -57.69 967.4
-586.61 -57.91 971.1
-571.90 -56.70 950.8
-578.80 -57.63 966.5
-584.12 -58.41 979.6
-573.57 -57.61 966.1
-575.78 -58.08 974.1
-584.54 -59.23 993.2
-587.67 -59.81 1003.0
-594.79 -60.80 1019.6
-599.83 -61.59 1032.9
-590.83 -60.94 1021.9
-584.35 -60.54 1015.3
-581.87 -60.56 1015.5
-564.05 -58.97 988.9
-547.32 -57.48 964.0
-561.64 -59.26 993.7
-590.04 -62.54 1048.8
-575.77 -61.31 1028.2
-568.88 -60.86 1020.6
-586.23 -63.01 1056.6
-572.06 -61.77 1035.9
-560.86 -60.85 1020.4
-559.78 -61.02 1023.3
-552.96 -60.56 1015.6
-547.12 -60.21 1009.7
-541.77 -59.91 1004.7
-547.78 -60.86 1020.7
-556.07 -62.09 1041.2
-544.59 -61.10 1024.7
-528.51 -59.59 999.3
-519.97 -58.91 988.0
-525.83 -59.87 1004.1
-535.32 -61.26 1027.3
-525.41 -60.42 1013.3
-517.84 -59.85 1003.7
-518.06 -60.18 1009.2
-522.34 -60.98 1022.7
-532.45 -62.48 1047.8
-532.09 -62.76 1052.5
-522.28 -61.92 1038.4
-519.23 -61.88 1037.7
-516.63 -61.89 1037.9
-506.05 -60.94 1021.9
-509.65 -61.69 1034.6
-522.43 -63.58 1066.2
-520.20 -63.64 1067.3
-510.55 -62.79 1053.1
-508.33 -62.86 1054.1
-512.59 -63.73 1068.7
-514.20 -64.28 1077.9
-517.91 -65.09 1091.6
-516.02 -65.21 1093.6
-516.24 -65.60 1100.1
-527.41 -67.39 1130.2
-535.93 -68.86 1154.8
-529.70 -68.44 1147.8
-518.08 -67.32 1129.0
-522.70 -68.31 1145.5
-534.26 -70.22 1177.6
-541.58 -71.59 1200.6
-548.80 -72.96 1223.6
-546.56 -73.09 1225.7
-539.86 -72.61 1217.7
-546.47 -73.93 1239.9
-555.00 -75.53 1266.7
-559.41 -76.59 1284.4
-558.20 -76.88 1289.2
-558.53 -77.39 1297.8
-559.22 -77.95 1307.3
-550.88 -77.26 1295.6
-544.92 -76.89 1289.5
-541.69 -76.91 1289.7
-539.62 -77.09 1292.8
-541.35 -77.82 1305.0
-544.16 -78.72 1320.1
-551.45 -80.27 1346.2
-563.14 -82.50 1383.5
-557.81 -82.24 1379.2
-550.26 -81.65 1369.3
-554.98 -82.89 1390.0
-560.70 -84.29 1413.5
-567.77 -85.91 1440.8
-574.00 -87.43 1466.2
-574.32 -88.06 1476.8
-570.62 -88.08 1477.2
-563.35 -87.55 1468.2
-544.03 -85.12 1427.5
-545.74 -85.97 1441.8
-557.22 -88.39 1482.3
-543.72 -86.84 1456.4
-539.01 -86.69 1453.9
-561.22 -90.90 1524.4
-565.96 -92.32 1548.2
-556.62 -91.44 1533.5
-570.70 -94.43 1583.7
-585.56 -97.59 1636.7
-572.10 -96.05 1610.7
-553.45 -93.60 1569.7
-556.42 -94.80 1589.8
-572.40 -98.25 1647.6
-579.00 -100.13 1679.2
-572.52 -99.76 1672.9
-548.40 -96.28 1614.7
-531.89 -94.10 1578.1
-544.67 -97.11 1628.6
-553.76 -99.50 1668.7
-549.86 -99.58 1670.0
-546.88 -99.83 1674.1
-532.18 -97.92 1642.1
-532.90 -98.84 1657.6
-547.20 -102.32 1716.0
-540.15 -101.83 1707.7
-527.75 -100.32 1682.3
-516.06 -98.91 1658.8
-504.48 -97.50 1635.2
-503.53 -98.14 1645.9
-499.62 -98.22 1647.1
-516.12 -102.33 1716.2
-552.93 -111.56 1870.8
-519.55 -105.75 1773.4
-499.72 -102.62 1721.0
-511.34 -105.95 1776.9
-506.53 -105.91 1776.2
-485.71 -102.49 1718.8
-482.92 -102.84 1724.7
-486.51 -104.58 1753.8
-471.43 -102.29 1715.5
-465.98 -102.07 1711.8
-483.94 -107.02 1794.8
-491.96 -109.85 1842.3
-481.37 -108.54 1820.3
-465.57 -106.02 1778.0
-472.78 -108.74 1823.6
-510.54 -118.61 1989.1
-479.90 -113.79 1908.3
-476.93 -114.26 1916.2
-488.96 -118.38 1985.2
-480.79 -117.64 1972.9
-489.30 -121.01 2029.3
-445.53 -113.86 1909.4
-625.26 -56.20 903.3
-647.49 -58.42 938.9
-735.33 -67.10 1078.4
-680.67 -62.35 1002.1
-655.38 -60.27 968.5
-608.44 -56.16 902.6
-621.86 -57.62 926.1
-632.41 -58.83 945.5
-606.90 -56.68 910.9
-594.77 -55.76 896.1
-534.22 -50.28 808.1
-574.50 -54.28 872.4
-649.60 -61.62 990.4
-675.66 -64.35 1034.2
-720.07 -68.85 1106.5
-665.91 -63.93 1027.4
-605.53 -58.36 938.0
-569.25 -55.09 885.3
-603.70 -58.66 942.7
-670.69 -65.43 1051.6
-732.47 -71.75 1153.2
-680.68 -66.95 1076.0
-583.40 -57.62 926.0
-560.98 -55.63 894.1
-565.66 -56.33 905.3
-582.43 -58.24 936.1
-615.39 -61.80 993.2
-649.71 -65.52 1053.0
-674.91 -68.35 1098.4
-676.49 -68.80 1105.6
-616.20 -62.93 1011.4
-591.50 -60.67 975.0
-615.98 -63.45 1019.7
-622.27 -64.37 1034.6
-606.95 -63.06 1013.5
-592.74 -61.85 994.0
-584.21 -61.23 984.0
-586.89 -61.78 992.9
-595.61 -62.97 1012.1
-599.72 -63.69 1023.5
-588.18 -62.74 1008.3
-577.70 -61.90 994.8
-589.26 -63.42 1019.2
-602.71 -65.16 1047.2
-588.75 -63.94 1027.6
-563.49 -61.47 987.9
-559.09 -61.27 984.7
-581.23 -63.99 1028.4
-598.78 -66.23 1064.3
-576.19 -64.02 1028.9
-561.52 -62.68 1007.4
-565.82 -63.46 1019.8
-557.51 -62.82 1009.6
-551.17 -62.40 1002.8
-561.63 -63.88 1026.7
-565.79 -64.66 1039.2
-554.19 -63.64 1022.8
-543.13 -62.67 1007.2
-549.13 -63.67 1023.2
-557.88 -65.00 1044.6
-552.02 -64.63 1038.6
-540.58 -63.60 1022.1
-532.46 -62.95 1011.7
-539.20 -64.06 1029.6
-545.41 -65.12 1046.6
-533.16 -63.98 1028.2
-519.60 -62.67 1007.1
-514.80 -62.40 1002.9
-523.18 -63.74 1024.4
-536.45 -65.69 1055.7
-538.33 -66.26 1064.8
-531.19 -65.71 1056.1
-520.95 -64.78 1041.1
-511.67 -63.96 1027.9
-505.54 -63.52 1020.9
-514.00 -64.93 1043.5
-527.20 -66.95 1075.9
-525.38 -67.07 1077.9
-515.71 -66.19 1063.7
-513.47 -66.25 1064.8
-515.11 -66.83 1074.0
-513.71 -67.01 1076.9
-525.12 -68.87 1106.8
-533.43 -70.34 1130.5
-524.24 -69.51 1117.2
-526.08 -70.14 1127.3
-537.12 -72.02 1157.4
-531.30 -71.64 1151.3
-519.26 -70.41 1131.6
-522.63 -71.27 1145.4
-537.50 -73.71 1184.7
-548.08 -75.60 1215.0
-556.90 -77.26 1241.6
-555.84 -77.56 1246.5
-548.69 -77.01 1237.6
-555.26 -78.39 1259.8
-552.12 -78.41 1260.1
-545.78 -77.97 1253.1
-550.98 -79.18 1272.6
-558.06 -80.68 1296.7
-555.22 -80.76 1297.9
-543.78 -79.58 1278.9
-553.01 -81.43 1308.6
-564.82 -83.68 1344.8
-547.23 -81.58 1311.0
-534.01 -80.10 1287.3
-544.09 -82.13 1319.9
-557.81 -84.73 1361.7
-581.88 -88.95 1429.6
-591.05 -90.93 1461.4
-565.45 -87.55 1407.1
-552.68 -86.13 1384.3
-550.31 -86.32 1387.3
-548.30 -86.57 1391.4
-556.45 -88.44 1421.4
-559.04 -89.45 1437.5
-563.71 -90.80 1459.3
-564.35 -91.52 1470.8
-548.93 -89.62 1440.3
-554.85 -91.21 1465.9
-573.30 -94.89 1525.0
-565.29 -94.22 1514.2
-564.62 -94.76 1522.9
-590.46 -99.80 1603.9
-582.67 -99.18 1593.9
-560.29 -96.05 1543.7
-567.24 -97.94 1574.0
-575.39 -100.07 1608.2
-571.69 -100.15 1609.6
-563.00 -99.35 1596.7
-555.68 -98.79 1587.7
-561.84 -100.63 1617.2
-560.69 -101.18 1626.1
-545.28 -99.14 1593.4
-538.37 -98.63 1585.2
-539.78 -99.65 1601.5
-557.89 -103.79 1668.1
-571.92 -107.23 1723.4
-547.91 -103.54 1664.1
-525.41 -100.08 1608.4
-529.64 -101.69 1634.3
-547.49 -105.97 1703.0
-551.37 -107.58 1729.0
-534.35 -105.12 1689.4
-528.57 -104.84 1684.9
-523.40 -104.68 1682.4
-506.17 -102.09 1640.7
-499.66 -101.63 1633.3
-494.91 -101.52 1631.6
-509.72 -105.46 1694.9
-535.06 -111.66 1794.6
-528.80 -111.33 1789.2
-516.39 -109.68 1762.6
-517.74 -110.94 1783.0
-521.20 -112.69 1811.1
-507.55 -110.74 1779.7
-501.92 -110.52 1776.1
-517.84 -115.08 1849.4
-512.05 -114.85 1845.9
-481.68 -109.06 1752.7
-471.68 -107.81 1732.7
-486.99 -112.38 1806.1
-503.73 -117.37 1886.4
-501.71 -118.05 1897.2
-491.30 -116.74 1876.2
-503.77 -120.91 1943.1
-482.17 -116.89 1878.6
-455.64 -113.91 1830.7
-473.13 -119.53 1921.0
-473.16 -120.81 1941.5
-809.65 -77.26 1192.0
-706.79 -67.70 1044.5
-674.23 -64.83 1000.2
-713.64 -68.88 1062.8
-726.17 -70.36 1085.6
-693.21 -67.43 1040.4
-715.08 -69.83 1077.4
-687.25 -67.38 1039.5
-569.50 -56.05 864.8
-533.42 -52.71 813.2
-626.97 -62.20 959.7
-701.47 -69.87 1078.0
-663.66 -66.37 1023.9
-613.04 -61.55 949.6
-602.66 -60.75 937.3
-646.71 -65.46 1009.9
-702.83 -71.43 1102.0
-729.17 -74.41 1148.0
-768.68 -78.76 1215.1
-759.50 -78.14 1205.6
-712.68 -73.62 1135.9
-687.28 -71.30 1100.0
-638.28 -66.49 1025.8
-617.95 -64.64 997.3
-620.27 -65.15 1005.2
-619.95 -65.40 1009.0
-660.25 -69.94 1079.1
-637.95 -67.87 1047.1
-599.71 -64.07 988.5
-606.61 -65.09 1004.2
-603.67 -65.05 1003.6
-584.82 -63.29 976.5
-599.83 -65.20 1005.9
-614.72 -67.11 1035.4
-604.60 -66.29 1022.8
-600.60 -66.15 1020.5
-598.13 -66.16 1020.8
-585.59 -65.07 1003.9
-572.11 -63.85 985.1
-577.69 -64.76 999.2
-594.67 -66.97 1033.2
-585.21 -66.20 1021.4
-563.42 -64.03 987.8
-560.00 -63.93 986.3
-564.94 -64.79 999.6
-564.93 -65.08 1004.2
-563.44 -65.21 1006.1
-565.82 -65.79 1015.1
-571.07 -66.71 1029.3
-563.72 -66.16 1020.8
-556.39 -65.61 1012.3
-563.96 -66.82 1030.9
-568.58 -67.69 1044.3
-557.45 -66.68 1028.8
-543.06 -65.27 1007.0
-544.34 -65.74 1014.3
-552.64 -67.07 1034.8
-548.20 -66.85 1031.5
-542.38 -66.47 1025.5
-537.97 -66.25 1022.2
-529.40 -65.52 1010.9
-522.27 -64.96 1002.2
-531.25 -66.41 1024.5
-538.30 -67.63 1043.4
-532.06 -67.18 1036.5
-539.46 -68.46 1056.2
-550.40 -70.20 1083.2
-549.52 -70.45 1087.0
-537.85 -69.31 1069.4
-525.80 -68.11 1050.8
-523.17 -68.12 1051.0
-522.75 -68.42 1055.7
-520.99 -68.55 1057.7
-523.61 -69.26 1068.6
-527.50 -70.15 1082.2
-523.92 -70.04 1080.7
-517.31 -69.53 1072.8
-513.32 -69.37 1070.2
-513.64 -69.79 1076.7
-528.05 -72.14 1113.0
-538.47 -73.97 1141.2
-531.80 -73.45 1133.3
-523.90 -72.76 1122.6
-524.02 -73.19 1129.2
-522.45 -73.38 1132.1
-513.36 -72.51 1118.7
-523.39 -74.35 1147.0
-546.08 -78.01 1203.6
-551.29 -79.21 1222.1
-554.78 -80.17 1236.9
-562.67 -81.78 1261.8
-565.60 -82.69 1275.8
-564.85 -83.07 1281.6
-554.85 -82.08 1266.3
-530.96 -79.01 1219.0
-518.78 -77.66 1198.2
-539.44 -81.24 1253.4
-551.61 -83.58 1289.5
-539.02 -82.17 1267.7
-546.72 -83.85 1293.7
-560.87 -86.55 1335.4
-545.24 -84.66 1306.2
-531.64 -83.07 1281.6
-541.35 -85.12 1313.2
-545.62 -86.33 1332.0
-561.10 -89.35 1378.5
-581.61 -93.21 1438.0
-566.86 -91.43 1410.6
-557.41 -90.49 1396.1
-558.33 -91.23 1407.6
-549.68 -90.41 1394.9
-551.64 -91.33 1409.1
-557.51 -92.92 1433.6
-565.79 -94.93 1464.7
-572.49 -96.70 1492.0
-563.07 -95.76 1477.4
-546.29 -93.54 1443.2
-541.96 -93.44 1441.7
-559.97 -97.22 1499.9
-585.35 -102.33 1578.9
-589.34 -103.76 1600.8
-559.63 -99.23 1530.9
-532.28 -95.05 1466.5
-533.32 -95.92 1479.9
-564.88 -102.33 1578.9
-586.64 -107.05 1651.6
-569.22 -104.64 1614.4
-553.95 -102.58 1582.7
-548.33 -102.30 1578.3
-534.58 -100.49 1550.3
-538.09 -101.91 1572.4
-552.09 -105.36 1625.6
-547.03 -105.20 1623.1
-558.76 -108.29 1670.7
-560.05 -111.12 1714.4
-550.48 -110.10 1698.6
-563.29 -113.57 1752.2
-562.81 -114.39 1764.9
-547.81 -112.26 1732.0
-544.02 -112.40 1734.2
-539.33 -112.36 1733.6
-523.16 -109.91 1695.7
-522.36 -110.67 1707.5
-524.97 -112.17 1730.7
-505.62 -108.97 1681.2
-497.34 -108.12 1668.1
-499.30 -109.50 1689.4
-495.27 -109.57 1690.5
-494.01 -110.27 1701.3
-494.90 -111.46 1719.7
-500.09 -113.66 1753.5
-514.87 -118.09 1822.0
-523.95 -121.28 1871.2
-507.44 -118.56 1829.2
-496.95 -117.20 1808.3
-507.00 -120.71 1862.5
-499.90 -120.17 1854.0
-493.10 -119.68 1846.6
-499.85 -122.51 1890.2
-497.29 -123.09 1899.1
-497.93 -124.48 1920.6
-462.25 -116.73 1801.0
-451.52 -116.37 1795.4
-473.89 -123.41 1904.0
-477.12 -125.56 1937.2
-461.51 -122.74 1893.7
-862.22 -86.22 1279.1
-863.83 -86.72 1286.5
-791.03 -79.72 1182.6
-780.05 -78.92 1170.7
-835.91 -84.90 1259.5
-835.29 -85.17 1263.5
-729.22 -74.64 1107.4
-706.40 -72.59 1077.0
-843.15 -86.99 1290.5
-834.26 -86.42 1282.0
-721.14 -75.00 1112.6
-686.07 -71.64 1062.8
-686.82 -72.01 1068.2
-678.93 -71.47 1060.2
-686.64 -72.57 1076.6
-699.64 -74.25 1101.5
-715.75 -76.27 1131.4
-695.02 -74.36 1103.2
-657.41 -70.63 1047.8
-640.65 -69.12 1025.3
-603.92 -65.42 970.6
-594.74 -64.70 959.8
-598.18 -65.35 969.4
-602.62 -66.11 980.8
-633.60 -69.80 1035.5
-647.74 -71.66 1063.2
-634.85 -70.54 1046.5
-599.31 -66.88 992.1
-566.03 -63.43 941.1
-560.64 -63.10 936.1
-583.39 -65.95 978.4
-602.92 -68.45 1015.5
-599.44 -68.36 1014.1
-582.81 -66.75 990.3
-569.79 -65.55 972.5
-592.56 -68.47 1015.8
-612.65 -71.11 1054.9
-597.10 -69.62 1032.8
-594.09 -69.58 1032.2
-589.10 -69.31 1028.2
-571.26 -67.51 1001.6
-571.76 -67.88 1007.0
-579.11 -69.07 1024.6
-575.14 -68.91 1022.3
-569.22 -68.52 1016.5
-566.72 -68.53 1016.7
-567.12 -68.90 1022.2
-575.23 -70.22 1041.7
-584.21 -71.65 1062.9
-573.46 -70.66 1048.3
-561.82 -69.56 1031.9
-553.57 -68.87 1021.6
-541.57 -67.70 1004.3
-536.71 -67.41 1000.1
-538.45 -67.96 1008.2
-543.44 -68.92 1022.5
-546.50 -69.65 1033.3
-547.66 -70.14 1040.6
-543.69 -69.98 1038.2
-531.42 -68.74 1019.8
-536.23 -69.71 1034.2
-552.88 -72.24 1071.6
-557.52 -73.21 1086.1
-543.02 -71.67 1063.2
-532.69 -70.66 1048.3
-539.53 -71.94 1067.2
-536.43 -71.89 1066.5
-532.43 -71.73 1064.1
-537.33 -72.76 1079.5
-526.23 -71.63 1062.7
-513.86 -70.32 1043.2
-520.47 -71.60 1062.2
-529.17 -73.18 1085.7
-529.07 -73.56 1091.3
-525.91 -73.51 1090.6
-526.63 -74.01 1098.0
-533.33 -75.36 1118.0
-539.52 -76.65 1137.2
-539.67 -77.10 1143.7
-534.69 -76.81 1139.4
-530.16 -76.58 1136.0
-530.25 -77.02 1142.6
-528.23 -77.16 1144.6
-527.02 -77.42 1148.5
-545.69 -80.61 1195.9
-557.14 -82.78 1228.0
-549.57 -82.12 1218.3
-548.57 -82.44 1223.1
-552.84 -83.57 1239.8
-550.96 -83.77 1242.8
-546.25 -83.54 1239.4
-554.77 -85.35 1266.2
-549.62 -85.06 1261.9
-532.19 -82.86 1229.2
-548.83 -85.96 1275.3
-559.78 -88.21 1308.6
-545.19 -86.43 1282.2
-539.26 -86.02 1276.1
-538.76 -86.47 1282.8
-549.39 -88.72 1316.2
-564.06 -91.66 1359.8
-570.94 -93.36 1385.0
-572.78 -94.26 1398.3
-568.92 -94.22 1397.7
-567.68 -94.61 1403.6
-551.52 -92.51 1372.4
-539.57 -91.10 1351.4
-556.78 -94.62 1403.6
-564.61 -96.58 1432.7
-556.29 -95.79 1421.0
-552.37 -95.74 1420.4
-561.03 -97.90 1452.3
-568.83 -99.93 1482.5
-562.63 -99.51 1476.3
-549.04 -97.77 1450.5
-541.88 -97.16 1441.4
-558.15 -100.78 1495.0
-552.31 -100.42 1489.7
-524.43 -96.02 1424.5
-531.79 -98.06 1454.7
-541.74 -100.61 1492.5
-523.76 -97.97 1453.4
-536.22 -101.03 1498.8
-587.22 -111.44 1653.3
-600.33 -114.77 1702.6
-568.70 -109.53 1624.9
-546.93 -106.12 1574.3
-543.28 -106.21 1575.6
-559.34 -110.17 1634.4
-566.13 -112.36 1666.9
-551.41 -110.28 1636.1
-538.42 -108.52 1609.9
-550.37 -111.79 1658.5
-583.63 -119.48 1772.6
-581.34 -119.96 1779.6
-555.63 -115.57 1714.5
-554.35 -116.23 1724.4
-555.14 -117.35 1740.9
-541.41 -115.38 1711.7
-540.36 -116.11 1722.5
-538.95 -116.77 1732.3
-523.08 -114.29 1695.5
-523.73 -115.40 1712.0
-526.33 -116.96 1735.2
-507.55 -113.76 1687.7
-501.82 -113.45 1683.1
-507.14 -115.66 1715.9
-502.48 -115.62 1715.2
-501.16 -116.34 1725.9
-493.17 -115.52 1713.7
-489.88 -115.79 1717.8
-495.25 -118.13 1752.5
-493.46 -118.80 1762.4
-505.76 -122.89 1823.2
-526.22 -129.07 1914.8
-528.15 -130.78 1940.1
-513.59 -128.40 1904.8
-496.37 -125.30 1858.8
-492.88 -125.64 1863.8
-486.09 -125.13 1856.3
-483.33 -125.67 1864.3
-500.13 -131.35 1948.6
-503.04 -134.84 2000.3
-471.17 -127.61 1893.1
-493.74 -135.13 2004.7
-450.94 -126.07 1870.3
-482.32 -137.80 2044.4
-852.46 -89.56 1279.4
-878.31 -92.63 1323.4
-797.76 -84.80 1211.4
-777.49 -82.97 1185.3
-833.76 -89.33 1276.2
-778.62 -83.76 1196.5
-664.04 -71.72 1024.5
-622.10 -67.46 963.7
-673.78 -73.35 1047.9
-702.00 -76.74 1096.2
-692.46 -76.00 1085.7
-696.87 -76.80 1097.1
-671.89 -74.35 1062.1
-627.35 -69.71 995.8
-603.22 -67.30 961.4
-591.37 -66.25 946.5
-604.37 -67.99 971.3
-636.72 -71.93 1027.6
-634.27 -71.95 1027.9
-638.08 -72.69 1038.5
-647.06 -74.03 1057.5
-644.54 -74.05 1057.9
-633.21 -73.06 1043.8
-598.20 -69.32 990.3
-591.68 -68.86 983.7
-610.83 -71.40 1019.9
-600.70 -70.52 1007.4
-590.10 -69.58 993.9
-602.41 -71.34 1019.1
-600.96 -71.48 1021.1
-579.30 -69.21 988.7
-589.46 -70.74 1010.5
-608.55 -73.35 1047.9
-597.02 -72.29 1032.6
-586.05 -71.28 1018.2
-574.14 -70.14 1002.0
-572.67 -70.28 1004.0
-586.96 -72.37 1033.8
-602.12 -74.57 1065.3
-606.87 -75.51 1078.7
-592.06 -74.01 1057.3
-581.71 -73.05 1043.6
-579.64 -73.13 1044.7
-588.18 -74.56 1065.1
-587.50 -74.82 1068.9
-569.07 -72.82 1040.3
-556.97 -71.61 1023.0
-548.74 -70.89 1012.7
-548.12 -71.15 1016.4
-553.63 -72.21 1031.6
-555.78 -72.84 1040.6
-560.70 -73.85 1055.0
-562.76 -74.48 1064.0
-563.39 -74.93 1070.5
-559.82 -74.83 1069.0
-549.34 -73.79 1054.2
-533.86 -72.07 1029.6
-530.83 -72.02 1028.9
-541.48 -73.84 1054.8
-534.77 -73.29 1047.1
-522.67 -72.00 1028.6
-527.30 -73.01 1043.0
-531.42 -73.96 1056.6
-534.14 -74.72 1067.5
-541.70 -76.18 1088.2
-533.68 -75.44 1077.7
-519.96 -73.89 1055.6
-524.78 -74.97 1071.0
-525.16 -75.42 1077.5
-517.24 -74.68 1066.9
-527.57 -76.58 1094.0
-542.52 -79.18 1131.1
-539.70 -79.20 1131.4
-535.17 -78.96 1128.0
-536.18 -79.54 1136.3
-530.38 -79.12 1130.2
-528.39 -79.26 1132.3
-533.12 -80.41 1148.8
-541.95 -82.21 1174.4
-552.34 -84.25 1203.6
-554.73 -85.10 1215.7
-547.16 -84.42 1206.0
-543.33 -84.31 1204.4
-544.82 -85.03 1214.7
-552.76 -86.77 1239.6
-555.73 -87.75 1253.5
-550.19 -87.38 1248.3
-558.29 -89.19 1274.2
-567.07 -91.14 1301.9
-563.04 -91.03 1300.4
-562.16 -91.44 1306.2
-553.41 -90.56 1293.7
-541.98 -89.23 1274.7
-538.40 -89.18 1274.0
-540.61 -90.10 1287.2
-554.68 -93.02 1328.9
-558.24 -94.20 1345.8
-552.98 -93.90 1341.5
-562.48 -96.12 1373.2
-566.20 -97.37 1391.0
-572.83 -99.14 1416.3
-565.57 -98.52 1407.4
-547.99 -96.08 1372.5
-560.00 -98.82 1411.8
-564.88 -100.34 1433.4
-553.29 -98.93 1413.3
-558.79 -100.58 1436.9
-577.84 -104.71 1495.9
-587.33 -107.15 1530.7
-583.51 -107.18 1531.1
-570.85 -105.57 1508.1
-564.97 -105.20 1502.9
-553.52 -103.79 1482.6
-522.39 -98.63 1409.0
-516.42 -98.19 1402.7
-546.44 -104.64 1494.8
-561.06 -108.20 1545.8
-547.02 -106.26 1517.9
-526.73 -103.06 1472.2
-544.04 -107.22 1531.7
-591.28 -117.39 1676.9
-596.30 -119.26 1703.7
-569.11 -114.67 1638.2
-561.74 -114.04 1629.1
-568.62 -116.31 1661.5
-564.44 -116.33 1661.9
-549.73 -114.17 1631.1
-536.12 -112.21 1603.0
-522.94 -110.31 1575.8
-528.31 -112.32 1604.5
-555.53 -119.04 1700.6
-562.31 -121.46 1735.1
-549.37 -119.62 1708.9
-539.29 -118.38 1691.2
-522.36 -115.61 1651.5
-517.87 -115.56 1650.8
-538.57 -121.18 1731.1
-545.65 -123.80 1768.6
-540.00 -123.56 1765.1
-535.51 -123.58 1765.4
-512.06 -119.19 1702.7
-500.60 -117.53 1679.0
-528.27 -125.12 1787.4
-546.16 -130.50 1864.3
-524.45 -126.43 1806.2
-495.85 -120.61 1723.0
-489.80 -120.22 1717.5
-492.46 -121.99 1742.6
-500.38 -125.09 1787.1
-525.15 -132.51 1893.0
-523.90 -136.01 1943.0
-504.52 -132.25 1889.3
-510.15 -135.04 1929.1
-514.06 -137.42 1963.2
-496.02 -133.93 1913.2
-496.57 -135.43 1934.7
-508.55 -141.56 2022.2
-465.06 -130.80 1868.6
-480.78 -136.64 1952.0
-805.34 -88.08 1213.4
-879.12 -96.53 1329.8
-852.55 -93.98 1294.7
-674.47 -74.64 1028.3
-604.90 -67.21 925.9
-689.23 -76.89 1059.2
-721.50 -80.81 1113.2
-660.99 -74.33 1023.9
-708.78 -80.02 1102.4
-701.37 -79.51 1095.3
-669.83 -76.24 1050.2
-671.63 -76.76 1057.4
-651.53 -74.77 1029.9
-641.10 -73.87 1017.6
-642.92 -74.39 1024.7
-624.61 -72.57 999.7
-632.23 -73.76 1016.1
-640.84 -75.08 1034.2
-626.32 -73.68 1015.0
-635.90 -75.13 1034.9
-648.54 -76.94 1060.0
-632.51 -75.36 1038.2
-608.80 -72.85 1003.5
-595.02 -71.50 985.0
-601.37 -72.58 999.8
-624.59 -75.71 1042.9
-622.08 -75.73 1043.2
-610.40 -74.63 1028.1
-618.58 -75.97 1046.5
-616.57 -76.05 1047.7
-595.37 -73.76 1016.1
-586.36 -72.97 1005.2
-585.92 -73.24 1008.9
-587.95 -73.82 1017.0
-588.46 -74.22 1022.4
-572.57 -72.54 999.3
-566.66 -72.12 993.5
-582.94 -74.53 1026.7
-602.04 -77.33 1065.2
-615.11 -79.37 1093.3
-607.58 -78.76 1085.0
-593.29 -77.27 1064.4
-587.30 -76.84 1058.6
-585.68 -76.99 1060.6
-577.32 -76.25 1050.4
-556.54 -73.85 1017.4
-541.62 -72.22 994.8
-546.76 -73.25 1009.1
-558.94 -75.24 1036.5
-562.52 -76.09 1048.2
-562.75 -76.49 1053.7
-562.49 -76.83 1058.3
-558.48 -76.65 1056.0
-553.55 -76.35 1051.8
-546.31 -75.73 1043.2
-549.72 -76.58 1054.9
-548.48 -76.79 1057.8
-537.16 -75.58 1041.2
-539.13 -76.24 1050.2
-532.43 -75.67 1042.5
-521.24 -74.46 1025.8
-526.32 -75.57 1041.1
-531.79 -76.75 1057.3
-532.27 -77.22 1063.8
-538.51 -78.53 1081.8
-538.47 -78.94 1087.4
-531.35 -78.30 1078.7
-527.78 -78.19 1077.1
-519.84 -77.42 1066.5
-517.16 -77.44 1066.7
-531.82 -80.06 1102.9
-547.62 -82.88 1141.8
-543.49 -82.70 1139.3
-529.53 -81.02 1116.1
-520.77 -80.12 1103.7
-526.48 -81.44 1121.9
-535.91 -83.36 1148.4
-538.92 -84.30 1161.3
-544.80 -85.70 1180.5
-551.42 -87.23 1201.6
-550.50 -87.58 1206.5
-540.07 -86.41 1190.4
-532.58 -85.70 1180.6
-536.16 -86.78 1195.4
-545.36 -88.78 1223.0
-551.20 -90.25 1243.3
-548.90 -90.41 1245.4
-551.00 -91.29 1257.6
-553.83 -92.31 1271.6
-549.07 -92.06 1268.2
-546.69 -92.21 1270.3
-554.50 -94.10 1296.2
-559.07 -95.45 1314.9
-550.74 -94.61 1303.2
-547.87 -94.69 1304.5
-558.44 -97.12 1337.9
-557.77 -97.61 1344.6
-544.53 -95.89 1321.0
-544.24 -96.45 1328.6
-551.06 -98.28 1353.8
-563.01 -101.05 1392.1
-580.74 -104.91 1445.2
-589.34 -107.15 1476.1
-596.70 -109.20 1504.3
-597.35 -110.04 1515.8
-583.03 -108.11 1489.3
-585.82 -109.35 1506.4
-600.76 -112.89 1555.2
-606.54 -114.75 1580.7
-596.92 -113.70 1566.3
-578.18 -110.88 1527.5
-570.85 -110.23 1518.5
-557.62 -108.43 1493.6
-541.38 -106.00 1460.3
-552.52 -108.95 1500.8
-568.62 -112.92 1555.5
-568.11 -113.62 1565.2
-570.27 -114.88 1582.5
-565.29 -114.70 1580.0
-545.29 -111.45 1535.2
-553.36 -113.93 1569.4
-586.32 -121.61 1675.2
-589.32 -123.14 1696.3
-567.17 -119.41 1644.9
-559.80 -118.75 1635.8
-573.33 -122.54 1688.1
-577.04 -124.29 1712.1
-552.80 -119.99 1652.9
-528.20 -115.54 1591.7
-532.59 -117.42 1617.5
-558.23 -124.05 1708.9
-564.98 -126.56 1743.4
-550.50 -124.31 1712.4
-545.26 -124.12 1709.9
-534.01 -122.56 1688.3
-524.35 -121.34 1671.5
-539.96 -125.99 1735.6
-541.73 -127.47 1755.9
-529.40 -125.62 1730.5
-534.85 -128.00 1763.2
-520.02 -125.52 1729.1
-512.48 -124.78 1718.9
-544.30 -133.69 1841.6
-555.32 -137.60 1895.5
-525.76 -131.44 1810.6
-503.49 -127.01 1749.6
-505.58 -128.69 1772.8
-496.99 -127.67 1758.7
-494.10 -128.10 1764.7
-523.72 -137.05 1887.9
-531.90 -141.84 1953.9
-501.73 -135.08 1860.8
-490.02 -133.21 1835.0
-504.45 -138.48 1907.6
-524.84 -145.50 2004.3
-523.72 -146.64 2020.1
-756.46 -84.37 1122.2
-659.87 -73.88 982.7
-858.98 -96.55 1284.2
-814.62 -92.28 1227.4
-792.62 -90.85 1208.4
-692.16 -79.65 1059.4
-760.45 -87.86 1168.6
-816.40 -94.70 1259.6
-783.78 -91.28 1214.1
-691.95 -80.91 1076.2
-606.55 -71.21 947.2
-631.63 -74.46 990.4
-671.00 -79.42 1056.4
-669.05 -79.52 1057.6
-677.19 -80.82 1074.9
-681.55 -81.67 1086.3
-664.19 -79.92 1063.0
-649.55 -78.49 1043.9
-640.75 -77.75 1034.1
-627.81 -76.50 1017.5
-635.29 -77.74 1033.9
-653.13 -80.26 1067.5
-642.29 -79.26 1054.2
-612.85 -75.95 1010.2
-593.39 -73.86 982.3
-593.57 -74.20 986.9
-610.15 -76.60 1018.8
-614.84 -77.52 1031.1
-611.33 -77.42 1029.7
-614.43 -78.15 1039.5
-607.87 -77.66 1032.9
-595.28 -76.39 1016.0
-594.32 -76.60 1018.8
-607.88 -78.70 1046.7
-623.33 -81.06 1078.1
-607.79 -79.40 1056.0
-580.42 -76.16 1013.0
-568.06 -74.88 995.9
-576.94 -76.40 1016.1
-587.71 -78.18 1039.9
-593.49 -79.31 1054.9
-584.09 -78.42 1043.0
-566.48 -76.41 1016.3
-570.76 -77.35 1028.7
-577.39 -78.61 1045.6
-577.71 -79.03 1051.1
-567.00 -77.93 1036.5
-551.08 -76.10 1012.2
-553.81 -76.84 1022.1
-560.75 -78.18 1039.9
-560.54 -78.53 1044.5
-560.79 -78.95 1050.0
-560.54 -79.30 1054.7
-557.46 -79.25 1054.0
-553.00 -79.00 1050.7
-548.55 -78.75 1047.4
-553.79 -79.90 1062.7
-562.64 -81.58 1085.1
-561.33 -81.80 1088.0
-554.99 -81.29 1081.2
-539.61 -79.43 1056.5
-522.97 -77.38 1029.2
-522.64 -77.73 1033.8
-537.98 -80.42 1069.6
-550.05 -82.65 1099.3
-542.43 -81.93 1089.7
-528.21 -80.20 1066.7
-530.39 -80.95 1076.7
-534.28 -81.98 1090.4
-529.81 -81.73 1087.0
-531.01 -82.35 1095.3
-533.04 -83.11 1105.4
-532.86 -83.53 1111.0
-540.83 -85.24 1133.7
-539.28 -85.46 1136.7
-527.08 -83.98 1117.0
-530.21 -84.95 1129.9
-538.35 -86.73 1153.6
-538.41 -87.23 1160.2
-538.86 -87.79 1167.7
-539.27 -88.35 1175.2
-547.51 -90.22 1199.9
-546.58 -90.58 1204.7
-532.50 -88.75 1180.4
-529.95 -88.84 1181.6
-544.46 -91.80 1221.0
-555.96 -94.29 1254.1
-558.47 -95.27 1267.1
-564.52 -96.87 1288.4
-554.14 -95.66 1272.3
-536.70 -93.20 1239.6
-537.14 -93.84 1248.1
-548.92 -96.48 1283.2
-558.20 -98.71 1312.8
-554.93 -98.73 1313.1
-552.03 -98.82 1314.4
-562.96 -101.40 1348.7
-570.68 -103.44 1375.7
-565.35 -103.11 1371.5
-557.01 -102.24 1359.8
-556.62 -102.81 1367.5
-559.93 -104.09 1384.4
-569.48 -106.55 1417.1
-578.15 -108.87 1448.1
-585.20 -110.92 1475.3
-593.96 -113.32 1507.2
-588.39 -113.00 1503.0
-581.75 -112.47 1495.9
-587.36 -114.32 1520.5
-590.71 -115.75 1539.5
-579.41 -114.31 1520.3
-569.96 -113.21 1505.8
-571.45 -114.29 1520.1
-578.81 -116.57 1550.4
-582.56 -118.14 1571.3
-574.49 -117.32 1560.5
-571.26 -117.49 1562.7
-580.27 -120.20 1598.7
-592.50 -123.61 1644.1
-601.82 -126.47 1682.1
-593.27 -125.58 1670.3
-566.53 -120.81 1606.8
-564.47 -121.26 1612.8
-580.05 -125.53 1669.7
-571.31 -124.57 1656.8
-561.65 -123.39 1641.2
-573.23 -126.90 1687.8
-586.50 -130.83 1740.2
-572.32 -128.66 1711.3
-563.29 -127.62 1697.4
-583.34 -133.20 1771.7
-577.33 -132.88 1767.3
-548.89 -127.34 1693.7
-550.41 -128.72 1712.1
-560.62 -132.18 1758.0
-559.49 -132.99 1768.9
-562.77 -134.88 1794.0
-550.53 -133.05 1769.6
-521.94 -127.19 1691.8
-503.04 -123.63 1644.3
-501.75 -124.36 1654.1
-509.88 -127.47 1695.4
-525.22 -132.45 1761.6
-550.98 -140.16 1864.2
-555.51 -142.56 1896.2
-525.38 -136.04 1809.4
-503.95 -131.66 1751.2
-518.35 -136.66 1817.6
-522.67 -139.06 1849.5
-505.58 -135.76 1805.6
-521.50 -141.34 1879.9
-522.78 -143.02 1902.3
-487.01 -134.51 1789.0
-481.13 -134.16 1784.4
-501.26 -141.13 1877.1
-508.44 -144.56 1922.7
-518.68 -148.93 1980.8
-800.98 -92.42 1188.3
-585.23 -67.79 871.6
-592.55 -68.90 885.9
-822.80 -96.05 1234.9
-856.68 -102.39 1316.5
-777.20 -93.26 1199.1
-749.03 -90.24 1160.3
-672.42 -81.34 1045.8
-635.52 -77.19 992.4
-691.64 -84.35 1084.5
-702.48 -86.02 1105.9
-671.62 -82.58 1061.7
-665.92 -82.21 1057.0
-658.65 -81.65 1049.8
-659.86 -82.14 1056.1
-661.05 -82.63 1062.4
-651.70 -81.80 1051.8
-639.24 -80.58 1036.0
-637.81 -80.74 1038.0
-649.91 -82.62 1062.2
-650.50 -83.04 1067.7
-632.95 -81.15 1043.3
-628.90 -80.97 1041.1
-642.35 -83.06 1067.9
-634.67 -82.42 1059.7
-616.80 -80.45 1034.4
-595.96 -78.07 1003.8
-581.34 -76.49 983.5
-609.81 -80.59 1036.2
-633.03 -84.03 1080.4
-604.29 -80.57 1035.9
-590.76 -79.12 1017.2
-606.26 -81.56 1048.6
-594.76 -80.37 1033.4
-587.78 -79.79 1025.9
-592.69 -80.82 1039.1
-583.26 -79.90 1027.3
-578.29 -79.58 1023.2
-574.81 -79.47 1021.7
-556.70 -77.32 994.1
-552.79 -77.13 991.7
-566.80 -79.46 1021.6
-577.31 -81.31 1045.4
-580.99 -82.22 1057.1
-581.27 -82.65 1062.6
-575.81 -82.26 1057.6
-563.70 -80.91 1040.3
-555.93 -80.18 1030.9
-559.04 -81.02 1041.7
-563.05 -82.00 1054.3
-573.56 -83.94 1079.2
-583.50 -85.81 1103.3
-569.64 -84.18 1082.4
-555.40 -82.49 1060.5
-557.85 -83.26 1070.5
-564.85 -84.73 1089.3
-559.87 -84.40 1085.2
-548.98 -83.18 1069.4
-545.42 -83.06 1067.9
-539.60 -82.59 1061.9
-543.26 -83.58 1074.6
-565.69 -87.48 1124.7
-563.36 -87.57 1125.9
-540.12 -84.39 1085.1
-529.89 -83.23 1070.1
-535.15 -84.50 1086.4
-544.29 -86.40 1110.8
-545.02 -86.97 1118.2
-547.03 -87.76 1128.3
-548.98 -88.55 1138.4
-541.41 -87.80 1128.8
-540.74 -88.16 1133.5
-547.75 -89.79 1154.5
-544.02 -89.67 1152.9
-536.48 -88.92 1143.3
-533.20 -88.87 1142.6
-530.77 -88.96 1143.7
-527.90 -88.97 1143.9
-532.52 -90.26 1160.5
-546.18 -93.10 1197.0
-560.50 -96.09 1235.4
-560.71 -96.67 1243.0
-549.46 -95.28 1225.0
-555.74 -96.93 1246.3
-573.25 -100.57 1293.1
-581.31 -102.58 1318.9
-574.43 -101.97 1311.1
-550.86 -98.37 1264.7
-540.97 -97.18 1249.5
-550.46 -99.48 1279.0
-560.99 -102.00 1311.4
-569.43 -104.16 1339.2
-555.22 -102.19 1313.8
-541.51 -100.28 1289.3
-554.03 -103.24 1327.3
-564.47 -105.84 1360.8
-569.05 -107.37 1380.5
-570.15 -108.26 1391.9
-574.57 -109.79 1411.6
-582.27 -111.97 1439.7
-576.82 -111.64 1435.4
-571.02 -111.24 1430.2
-561.93 -110.18 1416.6
-554.37 -109.41 1406.8
-565.38 -112.33 1444.2
-577.67 -115.53 1485.4
-569.29 -114.62 1473.7
-558.10 -113.13 1454.5
-558.00 -113.88 1464.1
-559.98 -115.06 1479.4
-568.20 -117.56 1511.5
-581.85 -121.22 1558.5
-583.84 -122.48 1574.8
-573.70 -121.20 1558.3
-564.65 -120.14 1544.6
-568.60 -121.84 1566.6
-574.81 -124.06 1595.1
-576.52 -125.33 1611.4
-591.84 -129.60 1666.3
-587.66 -129.63 1666.7
-571.62 -127.03 1633.2
-572.10 -128.08 1646.8
-569.25 -128.40 1650.9
-565.74 -128.58 1653.2
-562.22 -128.75 1655.4
-559.64 -129.15 1660.5
-554.82 -129.03 1658.9
-554.40 -129.94 1670.6
-571.08 -134.90 1734.4
-560.82 -133.53 1716.8
-551.56 -132.38 1702.0
-571.37 -138.23 1777.3
-578.09 -141.00 1812.8
-575.93 -141.62 1820.8
-561.48 -139.21 1789.8
-532.66 -133.16 1712.1
-528.31 -133.19 1712.4
-533.00 -135.51 1742.3
-517.00 -132.56 1704.4
-510.65 -132.06 1698.0
-528.83 -137.96 1773.7
-557.39 -146.68 1885.9
-551.20 -146.34 1881.5
-509.44 -136.46 1754.4
-493.10 -133.27 1713.5
-513.33 -140.00 1800.0
-534.50 -147.11 1891.4
-535.60 -148.78 1912.9
-504.07 -141.33 1817.1
-502.38 -143.54 1845.5
-523.89 -154.09 1981.1
-512.27 -152.16 1956.3
-515.27 -154.58 1987.5
-508.40 -158.88 2042.7
-848.80 -101.59 1264.1
-771.65 -92.72 1153.6
-865.72 -106.08 1319.8
-887.88 -109.22 1359.0
-809.76 -100.01 1244.4
-733.68 -90.98 1132.0
-702.38 -87.45 1088.0
-724.13 -90.52 1126.2
-774.25 -97.17 1209.1
-783.28 -98.71 1228.1
-737.14 -93.27 1160.5
-668.85 -84.98 1057.3
-639.77 -81.62 1015.5
-638.94 -81.85 1018.4
-644.96 -82.96 1032.2
-649.36 -83.88 1043.6
-643.72 -83.50 1038.9
-650.68 -84.75 1054.5
-668.01 -87.38 1087.2
-663.36 -87.14 1084.2
-649.37 -85.66 1065.8
-632.34 -83.77 1042.3
-629.84 -83.80 1042.7
-638.65 -85.34 1061.8
-626.88 -84.13 1046.7
-618.24 -83.33 1036.8
-604.02 -81.77 1017.4
-588.36 -80.00 995.3
-612.75 -83.68 1041.2
-635.96 -87.23 1085.4
-607.72 -83.73 1041.8
-579.14 -80.15 997.2
-577.70 -80.31 999.2
-585.71 -81.79 1017.6
-594.63 -83.41 1037.8
-598.03 -84.27 1048.5
-588.59 -83.32 1036.7
-588.51 -83.69 1041.3
-588.42 -84.06 1045.9
-575.14 -82.54 1027.0
-574.08 -82.77 1029.9
-578.81 -83.85 1043.2
-578.18 -84.15 1047.0
-577.06 -84.38 1049.9
-571.13 -83.91 1044.0
-579.53 -85.55 1064.4
-581.67 -86.28 1073.5
-568.63 -84.75 1054.5
-566.50 -84.84 1055.6
-565.31 -85.07 1058.5
-570.66 -86.29 1073.7
-584.80 -88.87 1105.7
-576.52 -88.04 1095.4
-554.85 -85.15 1059.5
-551.31 -85.03 1057.9
-556.03 -86.18 1072.3
-549.72 -85.63 1065.5
-550.72 -86.22 1072.8
-557.58 -87.74 1091.7
-559.85 -88.55 1101.7
-573.32 -91.14 1134.0
-570.53 -91.17 1134.3
-543.63 -87.32 1086.4
-528.92 -85.40 1062.6
-524.50 -85.13 1059.2
-527.57 -86.08 1071.0
-534.55 -87.68 1090.9
-535.32 -88.27 1098.3
-536.49 -88.94 1106.6
-538.93 -89.82 1117.6
-531.83 -89.12 1108.8
-534.21 -90.00 1119.8
-543.38 -92.05 1145.3
-543.08 -92.50 1151.0
-539.36 -92.38 1149.4
-539.44 -92.90 1155.9
-540.33 -93.58 1164.3
-537.84 -93.67 1165.5
-542.42 -95.00 1182.0
-546.09 -96.19 1196.8
-549.28 -97.30 1210.7
-559.80 -99.73 1240.9
-558.34 -100.05 1244.9
-553.21 -99.71 1240.6
-557.39 -101.05 1257.3
-560.29 -102.17 1271.3
-547.92 -100.51 1250.5
-536.03 -98.91 1230.7
-536.91 -99.67 1240.1
-544.84 -101.75 1266.0
-553.44 -103.98 1293.8
-567.77 -107.32 1335.3
-558.62 -106.24 1321.9
-537.55 -102.87 1279.9
-544.71 -104.88 1305.0
-558.26 -108.16 1345.8
-565.15 -110.19 1371.0
-568.91 -111.62 1388.8
-575.22 -113.58 1413.2
-576.93 -114.65 1426.5
-565.57 -113.11 1407.4
-565.38 -113.81 1416.1
-562.94 -114.06 1419.2
-548.42 -111.85 1391.7
-552.92 -113.51 1412.4
-574.32 -118.69 1476.8
-573.50 -119.32 1484.6
-559.07 -117.10 1457.0
-557.19 -117.50 1462.0
-563.05 -119.55 1487.5
-575.81 -123.10 1531.7
-568.84 -122.46 1523.7
-549.42 -119.10 1482.0
-563.26 -122.97 1530.0
-580.30 -127.58 1587.5
-562.71 -124.60 1550.3
-546.99 -121.99 1517.8
-540.81 -121.49 1511.6
-548.68 -124.15 1544.8
-567.00 -129.24 1608.1
-571.52 -131.24 1632.9
-570.03 -131.87 1640.8
-565.57 -131.83 1640.2
-556.92 -130.79 1627.4
-548.33 -129.76 1614.5
-554.12 -132.14 1644.1
-557.56 -133.99 1667.1
-548.64 -132.87 1653.3
-556.00 -135.72 1688.6
-552.67 -135.97 1691.8
-549.92 -136.38 1696.9
-562.11 -140.53 1748.5
-561.33 -141.47 1760.3
-564.69 -143.49 1785.3
-556.60 -142.60 1774.3
-537.60 -138.88 1728.0
-544.38 -141.81 1764.5
-548.36 -144.06 1792.5
-529.35 -140.25 1745.1
-522.90 -139.74 1738.7
-541.55 -145.98 1816.4
-544.85 -148.16 1843.5
-512.13 -140.50 1748.1
-500.17 -138.44 1722.5
-515.90 -144.08 1792.7
-520.62 -146.72 1825.6
-524.37 -149.13 1855.6
-529.59 -152.01 1891.4
-501.85 -145.39 1809.1
-521.40 -153.94 1915.3
-520.99 -158.34 1970.1
-525.30 -161.23 2006.1
-493.16 -152.88 1902.2
-489.52 -153.28 1907.2
-515.32 -163.01 2028.2
-859.21 -108.25 1304.8
-782.43 -98.96 1192.9
-752.43 -95.55 1151.7
-742.71 -94.69 1141.3
-720.55 -92.23 1111.7
-695.79 -89.42 1077.8
-731.03 -94.33 1137.0
-748.85 -97.02 1169.4
-729.52 -94.90 1143.8
-734.89 -95.99 1157.0
-709.82 -93.09 1122.1
-658.28 -86.69 1044.9
-641.49 -84.83 1022.4
-643.28 -85.41 1029.6
-644.52 -85.94 1035.8
-657.28 -88.00 1060.8
-684.10 -91.98 1108.7
-688.80 -93.00 1121.0
-675.23 -91.56 1103.6
-660.68 -89.97 1084.4
-644.14 -88.09 1061.8
-635.41 -87.27 1051.9
-638.04 -88.01 1060.8
-627.30 -86.90 1047.4
-619.16 -86.14 1038.3
-616.66 -86.17 1038.7
-611.62 -85.84 1034.7
-616.20 -86.86 1047.0
-619.72 -87.75 1057.7
-616.17 -87.63 1056.3
-608.10 -86.87 1047.1
-598.58 -85.89 1035.3
-598.55 -86.28 1040.0
-596.52 -86.37 1041.1
-590.03 -85.82 1034.5
-592.93 -86.64 1044.3
-603.63 -88.61 1068.0
-605.44 -89.28 1076.2
-593.57 -87.94 1059.9
-585.64 -87.16 1050.6
-581.62 -86.97 1048.3
-574.71 -86.34 1040.7
-566.39 -85.49 1030.5
-564.33 -85.59 1031.6
-574.67 -87.57 1055.5
-582.05 -89.12 1074.2
-576.58 -88.70 1069.2
-577.26 -89.24 1075.6
-577.90 -89.77 1082.1
-566.35 -88.41 1065.6
-560.93 -87.99 1060.6
-567.13 -89.40 1077.6
-561.70 -88.98 1072.6
-546.15 -86.95 1048.0
-538.03 -86.09 1037.6
-542.31 -87.21 1051.1
-554.27 -89.58 1079.7
-552.95 -89.82 1082.7
-546.20 -89.18 1074.9
-561.53 -92.15 1110.7
-560.13 -92.39 1113.7
-540.41 -89.60 1080.0
-531.50 -88.58 1067.7
-534.14 -89.49 1078.7
-545.55 -91.88 1107.5
-544.99 -92.27 1112.2
-535.67 -91.18 1099.0
-528.14 -90.38 1089.4
-522.81 -89.95 1084.2
-520.52 -90.04 1085.3
-527.25 -91.70 1105.3
-539.01 -94.25 1136.1
-540.43 -95.02 1145.3
-542.23 -95.86 1155.5
-548.20 -97.46 1174.7
-549.47 -98.23 1184.0
-547.78 -98.48 1187.0
-552.72 -99.93 1204.5
-558.00 -101.45 1222.9
-552.90 -101.10 1218.6
-553.96 -101.88 1228.0
-556.20 -102.88 1240.1
-554.74 -103.21 1244.0
-552.44 -103.38 1246.1
-546.92 -102.95 1240.9
-541.02 -102.44 1234.8
-535.14 -101.93 1228.6
-543.95 -104.23 1256.3
-560.12 -107.97 1301.5
-553.34 -107.31 1293.5
-551.67 -107.64 1297.5
-561.24 -110.18 1328.1
-561.01 -110.82 1335.7
-559.60 -111.22 1340.6
-564.27 -112.85 1360.3
-569.23 -114.56 1380.9
-570.32 -115.51 1392.3
-571.74 -116.53 1404.6
-568.23 -116.56 1405.0
-561.38 -115.90 1397.0
-566.01 -117.61 1417.7
-575.34 -120.33 1450.4
-573.18 -120.67 1454.5
-570.27 -120.85 1456.7
-582.16 -124.19 1497.0
-592.44 -127.23 1533.6
-590.04 -127.58 1537.8
-581.94 -126.68 1527.0
-582.36 -127.64 1538.5
-600.97 -132.63 1598.6
-600.81 -133.51 1609.3
-573.58 -128.35 1547.1
-583.13 -131.41 1584.0
-595.60 -135.17 1629.3
-572.13 -130.77 1576.3
-568.18 -130.80 1576.7
-575.30 -133.40 1608.0
-565.59 -132.11 1592.4
-566.56 -133.31 1606.8
-577.67 -136.93 1650.5
-581.70 -138.91 1674.4
-578.47 -139.18 1677.6
-571.35 -138.51 1669.5
-559.13 -136.58 1646.3
-562.62 -138.49 1669.3
-580.22 -143.93 1734.9
-584.34 -146.08 1760.8
-589.26 -148.47 1789.6
-583.83 -148.27 1787.2
-542.75 -138.94 1674.8
-517.46 -133.54 1609.6
-540.62 -140.65 1695.3
-569.70 -149.43 1801.2
-574.10 -151.83 1830.1
-567.11 -151.23 1822.8
-558.97 -150.31 1811.8
-547.67 -148.52 1790.2
-536.77 -146.81 1769.6
-538.59 -148.58 1790.9
-536.60 -149.32 1799.8
-518.75 -145.61 1755.2
-530.53 -150.24 1810.9
-568.17 -162.34 1956.7
-550.81 -158.79 1914.0
-517.79 -150.63 1815.6
-525.62 -154.31 1860.0
-535.67 -158.72 1913.1
-531.06 -158.82 1914.4
-514.29 -155.26 1871.4
-488.83 -148.98 1795.7
-472.81 -145.48 1753.6
-482.45 -149.89 1806.7
-524.20 -164.46 1982.3
-508.75 -164.45 1982.2
-888.15 -115.39 1348.7
-811.30 -105.82 1236.9
-787.78 -103.16 1205.8
-782.31 -102.85 1202.2
-793.68 -104.77 1224.5
-802.25 -106.32 1242.7
-762.21 -101.42 1185.5
-717.53 -95.86 1120.5
-678.46 -91.01 1063.8
-667.40 -89.89 1050.7
-671.32 -90.79 1061.2
-650.20 -88.30 1032.1
-628.67 -85.73 1002.0
-622.57 -85.25 996.4
-628.08 -86.36 1009.4
-644.05 -88.93 1039.4
-658.85 -91.35 1067.8
-658.93 -91.75 1072.4
-652.22 -91.20 1066.0
-643.45 -90.36 1056.1
-648.69 -91.48 1069.3
-659.55 -93.41 1091.8
-648.22 -92.20 1077.7
-627.71 -89.67 1048.1
-620.59 -89.04 1040.7
-618.09 -89.07 1041.1
-605.43 -87.63 1024.2
-603.96 -87.80 1026.2
-613.07 -89.52 1046.3
-615.56 -90.28 1055.3
-609.51 -89.79 1049.5
-601.48 -89.01 1040.4
-595.97 -88.59 1035.5
-588.49 -87.87 1027.1
-584.99 -87.75 1025.6
-590.37 -88.96 1039.8
-595.68 -90.17 1054.0
-594.58 -90.42 1056.9
-586.16 -89.55 1046.7
-581.17 -89.20 1042.6
-581.04 -89.60 1047.3
-578.47 -89.62 1047.5
-566.30 -88.15 1030.3
-559.93 -87.57 1023.6
-565.04 -88.79 1037.8
-568.66 -89.79 1049.5
-565.12 -89.66 1048.0
-566.79 -90.36 1056.1
-573.11 -91.81 1073.1
-567.66 -91.38 1068.1
-557.10 -90.12 1053.3
-555.89 -90.37 1056.2
-558.83 -91.29 1067.1
-551.58 -90.56 1058.5
-545.75 -90.05 1052.5
-550.45 -91.28 1066.9
-548.71 -91.45 1068.9
-536.08 -89.80 1049.6
-537.53 -90.50 1057.8
